# .PCD v0.7 - Point Cloud Data file format
VERSION 0.7
FIELDS x y z normal_x normal_y normal_z curvature
SIZE 4 4 4 4 4 4 4
TYPE F F F F F F F
COUNT 1 1 1 1 1 1 1
WIDTH 571
HEIGHT 1
VIEWPOINT 0 0 0 1 0 0 0
POINTS 571
DATA ascii
0.1197642 -0.056742661 0.067090005 -0.90655208 0.42207003 -0.0044951248 0.0015047807
0.12154871 -0.052434456 0.06511537 -0.9158451 0.40152526 0.0022587061 0.00201267
-0.12509958 -0.043861847 0.06503205 0.94515139 0.3265911 -0.0052119121 0.001526058
0.12452753 -0.045242894 0.064796977 -0.93990928 0.34136376 -0.0064246124 0.0011158341
-0.12849857 -0.035029788 0.063529611 0.96193779 0.27326611 0.0012177882 0.0026175433
0.12829264 -0.036030576 0.065309137 -0.9574424 0.28857404 -0.0053952527 0.0018442469
-0.13037571 -0.023763737 0.06194251 0.98744088 0.157977 0.0019450923 0.001452337
-0.12971425 -0.028788125 0.060056042 0.97716981 0.21245328 -0.0016701453 0.0020555821
0.12988374 -0.027500506 0.064933755 -0.97688609 0.21357502 -0.0089032911 0.0019144372
0.1301536 -0.02545076 0.06361305 -0.98122686 0.19285165 -0.0014370717 0.0017855883
-0.13151985 -0.015073175 0.06514056 0.9938271 0.11056428 -0.0091275834 0.0014320493
0.13173215 -0.013460453 0.065146402 -0.99493515 0.099877141 -0.011340439 0.00080635335
-0.13275602 -0.0056835571 0.065669887 0.99913269 0.040152729 -0.011033542 0.0018419474
0.13275824 -0.0056665782 0.065396167 -0.99887776 0.047351666 -0.0010507909 0.0017356531
-0.13270745 0.0060524456 0.063879676 0.99890536 -0.046741597 -0.0018042296 0.0017637269
0.13319235 0.002369297 0.065033086 -0.99978292 -0.020447301 -0.0040040743 0.0019405183
-0.13165919 0.014014603 0.065996639 0.99603075 -0.088796318 -0.0061654109 0.0010367513
0.13122512 0.017311804 0.064564481 -0.99126214 -0.13153148 -0.0099414224 0.0015118642
-0.13049638 0.022847217 0.065024719 0.98754102 -0.1570313 -0.010193138 0.0015251911
-0.12979957 0.028140014 0.067820162 0.97438687 -0.2243512 -0.015389217 0.0019944219
0.12971827 0.028757438 0.06690643 -0.97343278 -0.22888781 -0.0062476066 0.0024373513
0.13032916 0.024117179 0.06075377 -0.98243701 -0.1865679 0.0031615046 0.0011071074
-0.12891012 0.033581104 0.063839376 0.96339941 -0.26806763 -0.0011675766 0.0021886348
0.12881631 0.033749986 0.063957013 -0.9604274 -0.27851841 -0.0025823801 0.0017535608
-0.12482533 0.044523939 0.064651296 0.94140184 -0.33719853 -0.0077227727 0.00090210862
0.12419207 0.046052776 0.06475845 -0.9397983 -0.34170306 -0.0042548464 0.0016010487
-0.12090398 0.053990908 0.065987863 0.91435391 -0.40483379 -0.0081583783 0.0016728041
-0.11941691 0.057580993 0.064257763 0.89789593 -0.4402054 -0.0014735688 0.0016956755
0.11900666 0.058571488 0.063518971 -0.8983466 -0.43927041 -0.0038562261 0.0015859377
0.12048814 0.054994874 0.062992997 -0.91258913 -0.40880772 -0.0075774365 0.0018982013
-0.11583778 0.065492779 0.066012993 0.86426479 -0.5026589 -0.019504357 0.0022268002
0.11548865 0.066251554 0.0654094 -0.86595315 -0.50009626 -0.0053788051 0.0020064977
-0.11188706 0.071614526 0.066429332 0.83772779 -0.54597777 -0.010976009 0.0016668187
0.10660958 0.078492291 0.063983954 -0.80875891 -0.588126 0.0041031218 0.0019636063
0.1120803 0.071362726 0.065490566 -0.84134781 -0.54047835 -0.0041387551 0.0017289293
-0.10149876 0.08515285 0.066483751 0.76195067 -0.647407 -0.017186539 0.0019316336
-0.098905027 0.088533081 0.065036789 0.74169612 -0.67069286 -0.0076193251 0.0021776992
0.09915486 0.088207491 0.065786958 -0.7470324 -0.66467887 -0.012024689 0.0017389754
0.10223933 0.084187731 0.064264327 -0.76005071 -0.64985925 -0.0024426105 0.0016346354
-0.094044432 0.094656423 0.065036111 0.70719939 -0.70681602 -0.016737973 0.0022830043
0.087742426 0.099511705 0.067686126 -0.66183758 -0.74948215 -0.015733974 0.0017501075
0.092269287 0.095868491 0.064230219 -0.68998146 -0.72380602 0.0055172127 0.0021404028
-0.084061995 0.1023358 0.066915244 0.64505166 -0.7639091 -0.01874133 0.0016761671
-0.076667115 0.10801008 0.065180503 0.57306689 -0.81950635 -0.0018975897 0.0017962641
0.075416252 0.1089699 0.067078605 -0.5578748 -0.8297618 -0.016464876 0.0016856316
0.082780167 0.10331937 0.066218808 -0.62982577 -0.77663207 -0.012731607 0.0016277259
-0.072110258 0.11150668 0.065600686 0.53452295 -0.84514666 -0.0035070889 0.0019475768
-0.064713724 0.11637454 0.065920919 0.49458644 -0.86901379 -0.014114825 0.0018881111
-0.05884786 0.11889216 0.066081822 0.44698632 -0.8944546 -0.012415401 0.001786988
0.059812613 0.11849255 0.060918584 -0.45035774 -0.89284527 -0.0022932435 0.0020005594
0.065913513 0.11565687 0.06494908 -0.5039897 -0.86367071 -0.0081990501 0.0021901738
0.071746841 0.11178554 0.062850557 -0.54257643 -0.83993292 -0.011111391 0.0018302699
-0.054790087 0.12057295 0.060244069 0.41616207 -0.90928984 -0.0010320299 0.0014877347
-0.045399114 0.12446284 0.064024232 0.34564236 -0.93835622 -0.0043584141 0.0013191062
-0.036690749 0.12789898 0.065006457 0.28155759 -0.95954126 0.0024176619 0.0020268844
0.027767608 0.12984864 0.064741865 -0.21306622 -0.97703558 -0.0020736619 0.0019525159
0.034975369 0.12831107 0.064482994 -0.26831162 -0.96331692 -0.0054143127 0.0022329062
0.044982355 0.12463547 0.065339603 -0.34061331 -0.94018191 -0.0063627181 0.0013091329
0.053433228 0.12113498 0.064712375 -0.39851809 -0.91715819 0.0020279556 0.0014831361
-0.022586742 0.13053074 0.065027788 0.15316963 -0.9881689 -0.007828651 0.0015113478
-0.014126845 0.1316445 0.064091869 0.090295054 -0.99585408 -0.011019345 0.00099978142
-0.0053866557 0.13279518 0.065332711 0.024060633 -0.99964464 -0.01147271 0.001683227
0.0053919833 0.13279445 0.06320861 -0.045594841 -0.99894875 -0.0047380142 0.0019834454
0.014367114 0.13161285 0.065890498 -0.090222038 -0.99587762 -0.0093689803 0.0010163222
0.023156092 0.13045576 0.064754874 -0.17199132 -0.98509783 -0.0010784123 0.0015938854
-0.020384919 -0.1308206 0.07217373 0.14871787 0.98798329 -0.042096343 0.0018021209
-0.015128407 -0.13151263 0.072789878 0.11559315 0.99265665 -0.035649233 0.0013777028
-0.0064316099 -0.13265757 0.073159054 0.047093678 0.9981721 -0.037876789 0.0023000836
0.0039967564 -0.13297813 0.075588942 -0.026511895 0.9972738 -0.068863317 0.0028630518
0.015262895 -0.13149491 0.073731735 -0.10862156 0.99271405 -0.052154668 0.00178897
0.024965296 -0.13021757 0.075442702 -0.19115688 0.97939134 -0.065205492 0.0028772464
-0.051084813 -0.12210777 0.075709857 0.38553345 0.92079341 -0.059189744 0.0025359085
-0.042968642 -0.12546958 0.076123506 0.30868018 0.94923574 -0.060565442 0.0027894981
-0.035410758 -0.12843907 0.075572498 0.26380929 0.96261346 -0.061481681 0.0028983413
0.027619123 -0.12986819 0.077534556 -0.21879451 0.97209734 -0.084591851 0.0037590677
0.034961089 -0.12855586 0.077547461 -0.27964795 0.95626849 -0.085718609 0.0036582272
0.045126978 -0.12457558 0.076955371 -0.33475998 0.93918926 -0.076545231 0.0031198142
0.05097869 -0.12215174 0.076713718 -0.37651917 0.92347306 -0.073694296 0.0025752045
-0.070252463 -0.11293229 0.073291488 0.53279328 0.84543264 -0.03707942 0.0021558267
-0.064673834 -0.11631681 0.073703893 0.4841741 0.87425858 -0.035317827 0.0022318056
-0.058386296 -0.11908342 0.075473502 0.44983548 0.89149338 -0.053736519 0.0025309557
0.059447259 -0.11864396 0.072001249 -0.45723847 0.88863796 -0.035435628 0.0024363571
0.06591481 -0.11565843 0.07645151 -0.50396985 0.86252975 -0.045351423 0.0027015589
0.072334386 -0.11133477 0.076521851 -0.54153425 0.83802146 -0.06678845 0.0029183265
-0.081680328 -0.10416335 0.073922589 0.61702543 0.78592241 -0.040070903 0.0017879236
-0.077773884 -0.10716088 0.073163927 0.58152419 0.81276745 -0.035195131 0.0019425696
0.078642949 -0.10649403 0.077610441 -0.59012753 0.8048901 -0.062461186 0.0024533411
0.083936192 -0.10243236 0.07380756 -0.63636708 0.77037394 -0.039508495 0.0020120374
-0.093662143 -0.094557218 0.075503007 0.69814295 0.71388739 -0.054417238 0.0031493208
-0.089088432 -0.098478891 0.076773167 0.67043489 0.73846966 -0.07196974 0.0030142968
0.088471465 -0.098952316 0.072049037 -0.65643722 0.75382692 -0.028900307 0.0016953254
0.095944613 -0.092230469 0.077219859 -0.72737843 0.68336618 -0.062699713 0.0032005708
-0.10067714 -0.086223632 0.073478408 0.76165849 0.64674056 -0.040037885 0.002076593
-0.098426059 -0.089157291 0.0757998 0.73897851 0.67073542 -0.063440919 0.0028097578
0.099129438 -0.088240638 0.073857211 -0.74207151 0.66912103 -0.040085752 0.0022408762
0.10294387 -0.083269589 0.075094238 -0.77562535 0.62952977 -0.045799632 0.0021888879
-0.11153276 -0.072076365 0.075451769 0.83200848 0.55105644 -0.06402079 0.0026534908
-0.10688476 -0.078133747 0.07339143 0.80605137 0.58969235 -0.050439544 0.0022956007
0.10818892 -0.076434128 0.07613425 -0.82750976 0.55734837 -0.067752309 0.0026581762
0.11275551 -0.070482835 0.072075211 -0.84568059 0.53270644 -0.032377776 0.0021599568
-0.11520717 -0.066978976 0.073385261 0.85696936 0.51338959 -0.045108005 0.0024254753
0.11582556 -0.06570293 0.075106725 -0.86001128 0.50667107 -0.06053948 0.0028135143
-0.12065299 -0.05459692 0.077361494 0.90663689 0.41212898 -0.090328358 0.003230517
-0.11918381 -0.058143843 0.07659325 0.89322448 0.44508269 -0.063651167 0.0029145726
0.11893302 -0.058749318 0.074227773 -0.88981825 0.45241264 -0.059549645 0.0025892016
0.12153088 -0.052477509 0.074181609 -0.91530204 0.39973047 -0.04937423 0.0024957662
-0.12474353 -0.044721458 0.075291283 0.93820113 0.33938867 -0.067778878 0.0024759227
0.12395233 -0.046631552 0.075103313 -0.93346018 0.35373044 -0.059386969 0.0023125692
-0.12839769 -0.035241131 0.075558305 0.96064651 0.26981285 -0.066025056 0.0033816001
0.12838322 -0.035518363 0.073980339 -0.96077889 0.27355048 -0.045542035 0.0026956887
-0.1301586 -0.025412818 0.073218465 0.98523819 0.16659033 -0.039413482 0.001995903
-0.12971359 -0.028793057 0.075805366 0.97546184 0.21362384 -0.053282525 0.0028177323
0.12961921 -0.029509861 0.074626721 -0.97147459 0.23231219 -0.047625571 0.0025086126
0.13044067 -0.023270253 0.07360743 -0.98450613 0.16998291 -0.043053444 0.0020842077
-0.13202456 -0.011239566 0.073874883 0.99655277 0.073812857 -0.03787218 0.0015186011
0.13151327 -0.015122965 0.075615071 -0.99356824 0.10140803 -0.050383642 0.0017821901
-0.13284442 -0.0050121681 0.074505836 0.99844342 0.035931729 -0.042656917 0.0020345706
0.1325575 -0.0071913209 0.075761683 -0.9975034 0.04910893 -0.050747082 0.0025824874
-0.13294372 0.0042578364 0.074659668 0.99778223 -0.021545701 -0.062979072 0.0025063872
0.13281128 0.0052636787 0.07570786 -0.99692804 -0.041173935 -0.066627584 0.0024916376
-0.13143905 0.015686966 0.074855886 0.99282813 -0.11037133 -0.045939744 0.0022989754
0.1317765 0.013123586 0.073734567 -0.99585766 -0.083399817 -0.036221772 0.001654885
-0.13061194 0.02196941 0.07540644 0.98782969 -0.14763282 -0.048960075 0.002604329
0.12981786 0.028000932 0.07123068 -0.9750827 -0.21835421 -0.039181065 0.0023762123
0.13052548 0.022626013 0.076404214 -0.98305815 -0.16524872 -0.079306699 0.0029457915
-0.12869494 0.034073602 0.075034395 0.96217293 -0.2674861 -0.051714461 0.0024370879
0.12870337 0.0346471 0.073844075 -0.96245676 -0.26624259 -0.052838158 0.0026953311
-0.125084 0.043899454 0.075442053 0.9462744 -0.31881264 -0.05406766 0.0023051214
0.12502328 0.044046037 0.074234501 -0.94451296 -0.32425335 -0.052488163 0.002112261
-0.12179887 0.051830471 0.074735753 0.91806996 -0.39342058 -0.048660196 0.0020051238
-0.11904494 0.058479045 0.076128751 0.89827782 -0.43489444 -0.062958218 0.0026859685
0.11964638 0.057027064 0.074917808 -0.89837819 -0.4347817 -0.062301699 0.0025437737
0.12126771 0.053112801 0.075763151 -0.9152984 -0.39706945 -0.067562334 0.0025833237
-0.116274 0.065003447 0.075162701 0.86853147 -0.49224678 -0.057845972 0.0032668407
0.11486693 0.067335665 0.074907891 -0.85495877 -0.51507443 -0.061186813 0.0027448444
-0.1116738 0.07189247 0.072816014 0.83792228 -0.54415554 -0.042202171 0.0024300581
-0.10775197 0.077003509 0.076681115 0.81750602 -0.57196307 -0.067396402 0.0026990385
0.1073652 0.077507563 0.075060986 -0.8088392 -0.58554077 -0.054047741 0.0026029549
0.11128856 0.072394527 0.07577917 -0.83739835 -0.54149449 -0.074482962 0.0030103631
-0.10125908 0.085465223 0.07588131 0.76177043 -0.64394969 -0.070955917 0.0032230644
-0.099263631 0.088065736 0.073245429 0.75434738 -0.65550715 -0.035643201 0.0021872413
0.098972932 0.088444576 0.077058896 -0.74529874 -0.66196752 -0.079553276 0.0031198016
0.10278462 0.083477095 0.076081775 -0.76190251 -0.64358121 -0.072853759 0.0027361242
-0.094319209 0.093852654 0.075920664 0.7140305 -0.69696385 -0.066346489 0.0032912965
0.089057848 0.098502353 0.077056512 -0.67498994 -0.7329281 -0.084882021 0.0035314739
0.09324459 0.095054127 0.07456179 -0.69816476 -0.71393663 -0.053482614 0.003116979
-0.082275309 0.10370677 0.074816875 0.62019587 -0.78307205 -0.046423983 0.0020237449
-0.076238848 0.1083387 0.07518746 0.56599468 -0.8229717 -0.048657019 0.0021367664
0.078895599 0.10630011 0.075224921 -0.58926028 -0.80577272 -0.059182573 0.0024701646
0.084454246 0.10203481 0.073955595 -0.64257139 -0.76520622 -0.039514631 0.0019277602
-0.070638418 0.11263606 0.077870101 0.53068513 -0.84292096 -0.088642612 0.0036910449
-0.064410411 0.11648684 0.073706836 0.48174137 -0.87525457 -0.043066196 0.0027760614
-0.059299074 0.11870527 0.076391667 0.44097269 -0.89375943 -0.082080998 0.0034440921
0.058453623 0.11905546 0.075982101 -0.43373933 -0.89803565 -0.073498599 0.0026838444
0.067615971 0.11486292 0.073005766 -0.50836957 -0.85992926 -0.045629658 0.002472887
0.071687937 0.11183074 0.078607082 -0.53658766 -0.84006757 -0.079750471 0.0032796941
-0.052970819 0.12132653 0.075314678 0.40058768 -0.91489685 -0.049932338 0.0023154514
-0.044556528 0.12481185 0.076499186 0.33617055 -0.93905056 -0.071926087 0.0027273188
-0.036068246 0.12808755 0.075483665 0.27630103 -0.95947391 -0.055385858 0.0026888666
-0.027341703 0.12990473 0.075664684 0.21791203 -0.97424167 -0.058030732 0.002729164
0.028123699 0.12980177 0.073698752 -0.22360691 -0.97363424 -0.045124177 0.0027904799
0.035925932 0.12816839 0.075353369 -0.28605118 -0.95547444 -0.072410502 0.0030451964
0.045826606 0.12428576 0.074699774 -0.34125158 -0.93822944 -0.057209197 0.0020993319
0.054061636 0.1208747 0.077869497 -0.40964073 -0.90795499 -0.088386603 0.0030789708
-0.02188736 0.1306228 0.073473446 0.1527047 -0.98754621 -0.037864488 0.0020705869
-0.012366595 0.13187625 0.073888406 0.069708697 -0.99660307 -0.04385139 0.0019061082
-0.0058979685 0.13272786 0.074869722 0.034266751 -0.99801058 -0.052922048 0.0025420119
0.0055611208 0.13277219 0.074782729 -0.024296474 -0.99879581 -0.042621892 0.0022777605
0.012802024 0.13181891 0.074560083 -0.088579908 -0.99529886 -0.039163709 0.0017271951
0.023687702 0.13038579 0.076326683 -0.16972722 -0.98361409 -0.060795408 0.0029302635
-0.024721906 -0.1302496 0.085464358 0.20147301 0.96685153 -0.15686558 0.0040285084
-0.017286997 -0.13122842 0.083273992 0.12625413 0.98527789 -0.11527095 0.0036816949
-0.0039837211 -0.13297987 0.082430065 0.023141595 0.99566305 -0.090108685 0.0030996697
0.0052217501 -0.13281684 0.084164158 -0.035520416 0.99223 -0.11923902 0.0042206519
0.013590117 -0.13171513 0.082461677 -0.095756188 0.98980796 -0.1054081 0.0032171074
0.02391471 -0.13027218 0.086401217 -0.1914818 0.96847403 -0.15935105 0.0037679083
-0.051458102 -0.12183747 0.086991027 0.38661507 0.90723544 -0.16568805 0.0039276774
-0.045558315 -0.12437399 0.086862616 0.33408603 0.9285413 -0.16185671 0.0045716269
-0.036169592 -0.1280961 0.0844725 0.2603448 0.95542002 -0.13925953 0.0042451983
-0.027029937 -0.12994576 0.086950436 0.21180937 0.96268952 -0.16842076 0.0039001813
0.028502872 -0.12975185 0.083870701 -0.21264365 0.96612573 -0.14623214 0.0040900651
0.035536852 -0.12821893 0.084924385 -0.26845101 0.95330012 -0.13839403 0.004438146
0.043920953 -0.12504672 0.084935516 -0.32320443 0.93570673 -0.14139235 0.0040542013
0.05034963 -0.12241229 0.087164454 -0.37542126 0.91213202 -0.16454175 0.0035821514
-0.071939468 -0.1116015 0.084326535 0.53615892 0.83084983 -0.14907084 0.0039600078
-0.065700978 -0.11585142 0.083144493 0.48848784 0.86378437 -0.1235161 0.0042656828
-0.056852736 -0.11971863 0.082780115 0.43846622 0.89216292 -0.1085938 0.003821776
0.058551725 -0.1190149 0.082936078 -0.44118923 0.88851863 -0.12604237 0.0036311392
0.064639963 -0.11641047 0.08347965 -0.471443 0.87328428 -0.12294745 0.0044101928
0.071399704 -0.1118879 0.085832343 -0.52451426 0.83598596 -0.16128327 0.0047980058
-0.085337773 -0.10135689 0.085541978 0.62984347 0.76035148 -0.15862782 0.0039842222
-0.076439716 -0.10818464 0.084984384 0.56541824 0.80694491 -0.17071071 0.0036133756
0.076646119 -0.10802625 0.081924558 -0.57314521 0.81288171 -0.10357549 0.0037108979
0.082914777 -0.10310876 0.085176051 -0.62044871 0.77265805 -0.13432385 0.00407791
-0.092370838 -0.095672011 0.08663857 0.69274938 0.70348293 -0.15877689 0.0047757705
-0.089448377 -0.09820269 0.084546506 0.67152315 0.72917265 -0.13177276 0.004561001
0.08857014 -0.098509215 0.08810655 -0.65796798 0.73104292 -0.180705 0.004619767
0.093498141 -0.094730884 0.084313586 -0.6893639 0.70994282 -0.14407839 0.0047330647
-0.10216793 -0.084125109 0.084172361 0.77201599 0.61849761 -0.14646526 0.0033079588
-0.098710179 -0.08854796 0.085327648 0.74345386 0.65656704 -0.12726408 0.0036370214
0.098358005 -0.08924599 0.085863769 -0.7405352 0.6563465 -0.14428076 0.0045322645
0.10257696 -0.083745211 0.084069513 -0.76514143 0.62815022 -0.14137134 0.0042056283
-0.11183517 -0.071682237 0.083334327 0.83477539 0.53885806 -0.11305799 0.0035233062
-0.10808065 -0.076575205 0.085050441 0.80719292 0.57312411 -0.14130963 0.002865962
0.10698581 -0.078002028 0.086150028 -0.79784679 0.57980335 -0.16513214 0.0034348553
0.11142081 -0.072222255 0.081835024 -0.83399612 0.53591377 -0.13132773 0.003597196
-0.11586174 -0.065680474 0.082567878 0.86127055 0.49660411 -0.10769085 0.0039155907
0.11608296 -0.064997606 0.084517218 -0.86577171 0.48132563 -0.13698509 0.0044975951
-0.12090877 -0.053713236 0.086609162 0.9032492 0.39355546 -0.17104053 0.0036606551
-0.11907329 -0.058150876 0.084931627 0.88556856 0.44589439 -0.1301787 0.0041048252
0.11946354 -0.057468515 0.085479334 -0.88975298 0.43895635 -0.12512781 0.003756576
0.12089983 -0.053837251 0.087591559 -0.90010023 0.40137672 -0.16945875 0.0042339335
-0.12448084 -0.045355625 0.082538933 0.93041706 0.34883788 -0.11241026 0.003218319
0.1242962 -0.045753796 0.085303731 -0.92879689 0.3427169 -0.14100145 0.0039080954
-0.12883015 -0.033640888 0.082509935 0.95905381 0.25109369 -0.13102549 0.0036779086
0.12793875 -0.036525283 0.082908377 -0.95421124 0.27441999 -0.11905634 0.0040426073
-0.13035598 -0.023913588 0.084112272 0.97395694 0.18315688 -0.13364685 0.0045165913
-0.12981352 -0.028033972 0.083882369 0.96393234 0.22398819 -0.14374876 0.0041497489
0.12968795 -0.028987687 0.085019499 -0.96217763 0.22782795 -0.14936084 0.0038259062
0.13059014 -0.021444924 0.085526377 -0.97462827 0.16354986 -0.15281108 0.0039151791
-0.13144526 -0.015009625 0.085815892 0.98111761 0.10921908 -0.15962265 0.0040548421
0.13145863 -0.01553808 0.085096925 -0.9848426 0.11152554 -0.13284223 0.0039342935
-0.13258296 -0.0064887833 0.084025949 0.99409431 0.036704469 -0.10212343 0.0031943314
0.13270032 -0.0061064684 0.082978353 -0.9943465 0.032135554 -0.10120429 0.0038126728
-0.13258964 0.0063919947 0.085524656 0.99098629 -0.052565057 -0.12322007 0.0038788177
0.13268411 0.0054471758 0.086458921 -0.98854023 -0.035637237 -0.14669102 0.0045649349
-0.1315847 0.014572543 0.086766489 0.9842149 -0.093890972 -0.15001853 0.0046079829
0.1314034 0.015957557 0.084349036 -0.98618996 -0.11635753 -0.11785702 0.0032651105
-0.13018769 0.023854235 0.086476982 0.97021502 -0.17106114 -0.17152505 0.0050775153
-0.12985577 0.027713099 0.084845543 0.96224964 -0.22189619 -0.15759978 0.0044102063
0.12979913 0.027385954 0.084997043 -0.96454114 -0.21830934 -0.14832917 0.0037675314
0.13052522 0.022628013 0.084481508 -0.97395861 -0.17314668 -0.14637248 0.0040795994
-0.12902327 0.033567186 0.08739841 0.95412523 -0.25095484 -0.16329944 0.004297947
0.12832244 0.035481412 0.083994076 -0.95521104 -0.2641893 -0.13332655 0.0042848615
-0.12356833 0.047291368 0.086973786 0.92619944 -0.34058014 -0.16173954 0.0045575155
0.12460203 0.044892214 0.086015761 -0.93334419 -0.32986382 -0.14162795 0.0035885212
-0.12133281 0.052613959 0.086383507 0.89493984 -0.41620538 -0.16079736 0.0042637466
-0.11889758 0.058687646 0.086689949 0.88230336 -0.44049227 -0.16585322 0.0043538692
0.11796213 0.059829507 0.089859381 -0.87465101 -0.44309109 -0.19661097 0.0045456765
0.12153552 0.052466255 0.083896421 -0.91392708 -0.38780782 -0.11975987 0.0035882611
-0.11607628 0.065264903 0.085096769 0.85562116 -0.48939145 -0.16854797 0.0042836084
0.11674061 0.063809462 0.085312903 -0.87340152 -0.46914396 -0.13066615 0.0045359563
-0.11156496 0.072034307 0.083358437 0.83001345 -0.54129791 -0.13444094 0.0037050459
-0.1066946 0.078252412 0.085227482 0.7994898 -0.58329809 -0.14345519 0.003553465
0.10787024 0.076849379 0.084029563 -0.81740898 -0.56390762 -0.11768925 0.0036594546
0.11121238 0.072493806 0.084236562 -0.83113998 -0.54316634 -0.11906575 0.0038169415
-0.10260763 0.08366295 0.086477406 0.76765108 -0.61666059 -0.17447485 0.0037925062
-0.099288948 0.088021412 0.08516039 0.74292266 -0.65594852 -0.13340713 0.0041267835
0.099174067 0.088182442 0.08524622 -0.73059934 -0.66756207 -0.14347661 0.0042042988
0.10220048 0.084227085 0.085925393 -0.75400126 -0.63661802 -0.16186291 0.0036774145
-0.093595944 0.094582811 0.083490796 0.69693822 -0.70685661 -0.12095787 0.0043553379
-0.088787615 0.098709702 0.08085002 0.67482764 -0.73180568 -0.095226504 0.00358653
0.08811558 0.099225372 0.080347776 -0.66252363 -0.74180734 -0.10384716 0.0036033052
0.095610633 0.092826411 0.083803035 -0.71585685 -0.68731183 -0.12309109 0.0037612405
-0.083673723 0.10260384 0.083973058 0.62677008 -0.77042508 -0.11663865 0.0034557013
-0.078324839 0.10673807 0.084215589 0.57735986 -0.80703813 -0.12387542 0.0031352588
0.076788224 0.10791714 0.086152434 -0.57290936 -0.80645013 -0.14633213 0.0035116249
0.084696084 0.10184924 0.084650151 -0.63814801 -0.75756311 -0.13735077 0.0034889102
-0.072341025 0.11112134 0.088605449 0.53388709 -0.82483971 -0.18602152 0.0040093828
-0.063880563 0.1166615 0.084625527 0.47214472 -0.86996984 -0.14223877 0.0046677524
-0.058714032 0.1189125 0.084639445 0.45296568 -0.88101697 -0.13649571 0.0043194606
0.055851653 0.11989514 0.085738406 -0.42288423 -0.89290977 -0.15453517 0.0042339624
0.065561995 0.11576493 0.083995163 -0.49495277 -0.85977387 -0.12574063 0.0043004891
0.070543155 0.11270916 0.086142093 -0.51875222 -0.84326172 -0.14073336 0.0043451292
-0.052794408 0.12139959 0.081993006 0.4076111 -0.90763533 -0.1002555 0.0035142479
-0.044161454 0.12480303 0.086742841 0.33184373 -0.93095088 -0.15234914 0.0040320009
-0.034017537 0.12871261 0.084762037 0.25046533 -0.95703834 -0.14609842 0.0041251741
-0.028833102 0.12961121 0.085233048 0.23200722 -0.96123618 -0.14898898 0.0044418732
0.027940422 0.12972315 0.085846998 -0.22630404 -0.9609673 -0.15914892 0.0037925183
0.036347046 0.12821235 0.084819928 -0.27676171 -0.95161587 -0.13352957 0.0042493786
0.045594301 0.12438198 0.08401709 -0.35181102 -0.92807949 -0.12205506 0.003210919
0.054301657 0.12077527 0.08141619 -0.4085747 -0.90726936 -0.099644236 0.0032611156
-0.023047198 0.13047011 0.082719624 0.17197463 -0.97897249 -0.10971627 0.0043650311
-0.014230403 0.13151439 0.087702639 0.098647147 -0.97724575 -0.18777509 0.0046840464
-0.0055962056 0.13276757 0.085145779 0.031764768 -0.99022448 -0.13581781 0.004336149
0.0065427516 0.13264295 0.084966652 -0.047465552 -0.99226159 -0.11473383 0.0035456866
0.015517013 0.13146146 0.08436805 -0.10128907 -0.9879697 -0.11686055 0.003548003
0.022233963 0.13057718 0.082275942 -0.17338182 -0.97795922 -0.11633789 0.0039720829
-0.012350944 -0.1313109 0.090073898 0.098077998 0.97841877 -0.18187197 0.0043902462
-0.0030002042 -0.13044539 0.095721222 0.015835933 0.96861392 -0.2480651 0.0044559008
0.0008841416 -0.13121299 0.094403945 -0.0032836392 0.96849114 -0.24902637 0.0038394027
0.014064768 -0.13023093 0.09237504 -0.11141837 0.97327083 -0.20082285 0.0039661666
-0.051634785 -0.12059255 0.091777034 0.38768539 0.89678079 -0.21327023 0.0035265696
-0.044647884 -0.12247957 0.094304711 0.33024588 0.91548276 -0.22984545 0.004209803
-0.035782009 -0.12552306 0.095787846 0.25984421 0.93014592 -0.25944096 0.0037727472
-0.023967631 -0.12872584 0.09291745 0.18967339 0.95984668 -0.20668413 0.0039424631
-0.015780969 -0.12863854 0.096055821 0.1379849 0.96062642 -0.24115771 0.0038393682
-0.0073664635 -0.12960711 0.096430838 0.071002781 0.964441 -0.25458255 0.0036466194
0.0075364988 -0.12914492 0.097615436 -0.067732885 0.96175331 -0.26541075 0.0036184527
0.016113453 -0.12906595 0.094786599 -0.1343821 0.9621281 -0.23717281 0.0034495855
0.025265988 -0.12750316 0.095750481 -0.18443823 0.95215851 -0.24367358 0.0032729886
0.034849212 -0.12570177 0.095604651 -0.24401329 0.93979901 -0.23923913 0.0037001162
0.043502942 -0.12236837 0.095774226 -0.32884476 0.90863562 -0.25737628 0.0029909336
-0.07205084 -0.110616 0.090563729 0.53117174 0.82385349 -0.19779277 0.0042020027
-0.064684957 -0.11332687 0.095581807 0.49000174 0.83613372 -0.24653333 0.0037910612
-0.05558221 -0.11756252 0.095278434 0.41941765 0.87400657 -0.24535973 0.0035277135
0.047096223 -0.11928746 0.099771507 -0.346414 0.891029 -0.29336777 0.0019838894
0.056227334 -0.11791778 0.093715921 -0.43693441 0.87057698 -0.22623882 0.0032624891
0.067208424 -0.11285053 0.093555704 -0.48990059 0.84214258 -0.22537376 0.0039804084
-0.082610011 -0.10086733 0.09411224 0.62087667 0.75139087 -0.22343665 0.0041538454
-0.075485304 -0.10584821 0.095160022 0.55590773 0.79884708 -0.22980407 0.0031759022
0.0698829 -0.1092741 0.097041741 -0.51456988 0.81366342 -0.27049911 0.0033894968
0.074858814 -0.1065236 0.094740473 -0.55764526 0.78790557 -0.26122162 0.0032117041
0.081124589 -0.10328673 0.091354191 -0.60877138 0.7682181 -0.19808701 0.0042147576
-0.091889791 -0.092623614 0.096209928 0.66987652 0.69769734 -0.25393683 0.0037692727
-0.086467572 -0.096415676 0.097327374 0.6520353 0.71075004 -0.26397789 0.0037016543
0.086784832 -0.096835822 0.095897071 -0.65422028 0.71402693 -0.24932165 0.0036906325
0.093286604 -0.091923878 0.094962969 -0.68807584 0.68297189 -0.24515504 0.0043033804
-0.1008215 -0.081357837 0.09628205 0.75605494 0.60422719 -0.25157595 0.0027166824
-0.096888281 -0.087276459 0.094970889 0.7302773 0.63791281 -0.24446316 0.0035528725
0.097586483 -0.086809017 0.094239078 -0.72602415 0.64889193 -0.22765824 0.0045392369
0.10198653 -0.080769956 0.094743215 -0.77423847 0.58323652 -0.24574383 0.0028945687
-0.10605559 -0.075062297 0.095412686 0.79275107 0.55944121 -0.242015 0.0028156594
0.10636066 -0.074286811 0.096037738 -0.79571366 0.55384326 -0.24514751 0.0028172934
-0.11264163 -0.065537162 0.095727198 0.82900196 0.49650985 -0.25735933 0.0032604353
0.11294767 -0.065802835 0.094923787 -0.84106588 0.48830831 -0.23272988 0.0036324053
-0.1202805 -0.052511819 0.091648333 0.89919496 0.39046574 -0.19744587 0.0037773771
-0.11717757 -0.056669354 0.09511435 0.86639947 0.43040878 -0.25318021 0.0034225071
0.11666605 -0.054586086 0.098564252 -0.86660713 0.41391623 -0.27868509 0.0030029879
0.12149109 -0.050556108 0.090643056 -0.90630299 0.37537304 -0.19419067 0.0042330991
-0.12154186 -0.045895752 0.095360972 0.90635765 0.32805306 -0.26626498 0.002436833
0.11984428 -0.047281992 0.098180711 -0.89298475 0.35704002 -0.2740449 0.0032614532
0.12300608 -0.043263774 0.094422109 -0.91903758 0.32002789 -0.23011312 0.0042166603
-0.12599979 -0.035253529 0.095139995 0.92935586 0.26386669 -0.25820938 0.0026989325
0.12658042 -0.035473756 0.093525462 -0.94201356 0.24940801 -0.2245131 0.0038623991
-0.12893507 -0.024472671 0.092174686 0.95546114 0.1911718 -0.22482739 0.0038524314
0.12787808 -0.025029844 0.09482424 -0.94827169 0.19420061 -0.2511313 0.0030248617
-0.13022701 -0.015764663 0.091782697 0.96922344 0.11899679 -0.21551244 0.0040965369
-0.12863855 -0.014052267 0.096668772 0.95852089 0.1147842 -0.26088765 0.0031650609
0.12869591 -0.013922337 0.096560299 -0.95848274 0.11420956 -0.26127958 0.0032976356
0.13062453 -0.012186771 0.091980755 -0.97347641 0.097583205 -0.20693269 0.0043620206
-0.13104363 -0.0067128981 0.09279304 0.97565836 0.062068678 -0.21032873 0.0044285683
-0.12911755 -0.0085666962 0.097323835 0.96073264 0.074012458 -0.26742256 0.0030960508
0.12913992 -0.0055722538 0.098325402 -0.95946747 0.038181372 -0.27922106 0.0036436855
0.131451 -0.0068323966 0.091653347 -0.97910178 0.04943873 -0.19727007 0.004954868
-0.13102768 0.0058012046 0.093159318 0.97760826 -0.047698673 -0.20495588 0.0044265152
-0.12888397 0.0048123254 0.099284373 0.95832986 -0.046664674 -0.28182665 0.0033178783
0.12939502 0.0035886965 0.098341644 -0.96409571 -0.02636979 -0.26424253 0.0039587924
0.13170201 0.0017566358 0.092777163 -0.97761881 -0.02414893 -0.20899358 0.0043044393
-0.13090083 0.014282586 0.090493277 0.97735018 -0.095719151 -0.18874459 0.0046512522
-0.12833679 0.014662989 0.097264975 0.95650691 -0.10480145 -0.27223366 0.0032160305
0.12850128 0.014633675 0.096832238 -0.956949 -0.11811329 -0.26513743 0.0030804223
0.13015237 0.013529803 0.092776261 -0.96800458 -0.10832419 -0.22634694 0.0040227491
-0.12810673 0.025307737 0.094109818 0.953188 -0.20132573 -0.2256116 0.0042334716
0.1282168 0.024654828 0.094044797 -0.95341986 -0.19254507 -0.23220031 0.0035869807
-0.12577385 0.034959413 0.09559764 0.9379645 -0.25295386 -0.23714341 0.003929439
0.12543526 0.035679899 0.095948547 -0.92975998 -0.26692623 -0.25356802 0.0035670453
-0.12225904 0.046727065 0.092696466 0.90770847 -0.35224754 -0.22800657 0.0042802347
-0.11852089 0.049609434 0.099082708 0.87938672 -0.37628821 -0.29169518 0.0031281633
0.12266899 0.04268489 0.095870085 -0.91732341 -0.30598092 -0.25474164 0.0035183523
-0.12018153 0.052173503 0.092248484 0.89793158 -0.3918778 -0.20037638 0.0046750698
-0.11689086 0.05589889 0.096634977 0.86340934 -0.431519 -0.26137245 0.0035215437
0.11792213 0.053658869 0.096375398 -0.86891633 -0.41924474 -0.2630935 0.0033997365
0.12112188 0.051292121 0.090804525 -0.90171009 -0.38314426 -0.20029795 0.0042390451
-0.11292987 0.065364264 0.095746771 0.83251852 -0.49831805 -0.2420577 0.0035443651
0.1130499 0.065885074 0.095131256 -0.83497196 -0.49249154 -0.24550739 0.0039941166
-0.10519697 0.076076962 0.095585115 0.79633838 -0.55360687 -0.2436486 0.0029113542
0.10575371 0.075286336 0.095692709 -0.78937405 -0.55159938 -0.26949346 0.0028745155
0.11023751 0.070073523 0.09464974 -0.82067984 -0.5226559 -0.23090142 0.0041405428
-0.10108915 0.081319854 0.095767885 0.75184864 -0.614416 -0.2391998 0.0035495942
-0.096224889 0.088067792 0.095091924 0.71544021 -0.65538961 -0.2420947 0.0040187552
0.096661136 0.086365961 0.096966311 -0.71930653 -0.6390214 -0.2724883 0.0029111966
0.10057829 0.081632167 0.09635248 -0.74037158 -0.62185627 -0.25523451 0.0028475362
-0.092486367 0.092976138 0.094362326 0.68688184 -0.68672448 -0.23791349 0.0041342047
-0.088335201 0.09548182 0.096251272 0.6604771 -0.70216262 -0.26596567 0.0033246938
0.085479982 0.097848974 0.095871329 -0.63256365 -0.73573369 -0.24198996 0.0030396318
0.093216278 0.092239045 0.094066933 -0.69288152 -0.68481565 -0.22570468 0.0039033322
-0.081281751 0.10166714 0.094585061 0.60823208 -0.75269753 -0.25199261 0.0032527556
-0.074953347 0.10664561 0.094320975 0.5554617 -0.80364794 -0.21357019 0.0037100101
0.069514975 0.1093639 0.09745656 -0.5160597 -0.81615448 -0.25995046 0.0034779927
0.074491963 0.10676974 0.094816536 -0.55145448 -0.80168223 -0.23065895 0.0040188506
0.082113147 0.1014967 0.093577363 -0.62013018 -0.75153631 -0.22501488 0.0034794218
-0.064229898 0.11354022 0.09577807 0.48100519 -0.84232557 -0.24314962 0.0040300484
-0.056441143 0.11858323 0.091823243 0.4321875 -0.87478691 -0.21900187 0.0040982873
-0.048459966 0.11924368 0.098463558 0.36511487 -0.89128 -0.26890716 0.0030163885
0.049600583 0.11945444 0.096748598 -0.36536059 -0.89122403 -0.26875898 0.0028005003
0.053465001 0.11849041 0.095150538 -0.40150839 -0.87875253 -0.25804085 0.0027506775
0.064547256 0.11438652 0.093482815 -0.47282875 -0.85241199 -0.22321914 0.0042815814
-0.052568432 0.120626 0.090722255 0.39301804 -0.89813238 -0.19721827 0.0040194266
-0.045011368 0.12216385 0.094719253 0.33669028 -0.90694445 -0.25316262 0.0032253047
-0.03554124 0.12577258 0.095447429 0.26318026 -0.92989421 -0.25696853 0.003419884
-0.024642074 0.12836839 0.093641184 0.1902585 -0.95441669 -0.22997917 0.0040966365
-0.015440034 0.12852678 0.096477777 0.12603235 -0.95650667 -0.26307946 0.0034155319
-0.0062764077 0.12918122 0.097964622 0.052246399 -0.9586997 -0.2795805 0.0035788736
0.0063017206 0.12963352 0.09673731 -0.038529065 -0.96594447 -0.25586501 0.0036503572
0.0177624 0.12796292 0.09717308 -0.14063415 -0.9541043 -0.26439953 0.002760198
0.027292453 0.12731875 0.095528595 -0.21164142 -0.9434948 -0.25500092 0.0030978646
0.036706299 0.1258302 0.093979523 -0.28357917 -0.93430835 -0.21598777 0.0038281309
0.045621 0.12135079 0.096126251 -0.3308042 -0.9079653 -0.25723067 0.0029713681
-0.020354576 0.13004883 0.090635143 0.14621322 -0.96954066 -0.19650091 0.0047815004
-0.014428729 0.13069525 0.090995394 0.11071625 -0.97469491 -0.19419529 0.0047238353
-0.0079948436 0.13122523 0.091849409 0.055493735 -0.97723627 -0.20476742 0.0046478375
0.0046020788 0.13139915 0.092584029 -0.031290341 -0.97719336 -0.21003354 0.0046670008
0.010675253 0.13049009 0.09287902 -0.079566553 -0.97334951 -0.21508084 0.0038320331
-0.042549241 -0.1205813 0.10125145 0.32366264 0.89875054 -0.29578689 0.0027195821
-0.034038309 -0.12286104 0.10386477 0.2489818 0.91527563 -0.31666809 0.0026384471
-0.024024781 -0.12395173 0.10575686 0.18515858 0.92083275 -0.34319589 0.001436173
-0.016637133 -0.12609258 0.10261007 0.12025401 0.93870956 -0.32305309 0.0019915029
-0.0046064691 -0.12731105 0.1035943 0.037257284 0.94774628 -0.31684235 0.0026670855
0.0056721265 -0.1280093 0.10133552 -0.055710793 0.95224857 -0.30019847 0.0028604397
0.012862856 -0.1252937 0.10610031 -0.092048451 0.93430591 -0.34438285 0.0019445858
0.024907677 -0.12432023 0.10445113 -0.18216686 0.93715769 -0.2975747 0.0022792523
0.035623703 -0.12196925 0.10477792 -0.26463565 0.91051382 -0.31769899 0.0025256546
0.040900741 -0.12067916 0.10271969 -0.30145696 0.90589756 -0.29744449 0.0026063463
-0.064260274 -0.11037705 0.10350765 0.47362912 0.82068896 -0.31960142 0.0024108994
-0.054886553 -0.11334274 0.10659357 0.41581011 0.83872527 -0.35162729 0.0015462538
-0.046572268 -0.11811902 0.10324915 0.3495259 0.88266999 -0.31420583 0.0022122795
-0.039481852 -0.11879963 0.10891268 0.28887206 0.88748699 -0.35905382 0.0017313854
0.045690469 -0.11809932 0.10421535 -0.34550464 0.88489807 -0.31238109 0.0020346045
0.054479502 -0.11388969 0.10564382 -0.41155919 0.8452155 -0.34092477 0.0014934021
0.06276077 -0.1114319 0.10320304 -0.46981928 0.82452738 -0.31531638 0.0025921396
-0.072939493 -0.10311309 0.10526597 0.55274981 0.7643016 -0.33213046 0.0013152297
-0.068322703 -0.10613567 0.10638687 0.50935525 0.79315358 -0.33386308 0.0020639044
0.065805264 -0.10794019 0.10659576 -0.48060122 0.80691075 -0.34339112 0.0021215095
0.07329002 -0.10383864 0.10312241 -0.53870434 0.78308976 -0.31075403 0.0024410882
-0.09039472 -0.090065509 0.10435447 0.66983193 0.67403865 -0.31144363 0.0028934341
-0.08417622 -0.094866753 0.10445572 0.62983114 0.704804 -0.32644162 0.0021678621
-0.075477317 -0.09902373 0.10988299 0.5679127 0.73953003 -0.3613455 0.0015228321
0.077770233 -0.098552413 0.10710664 -0.58144701 0.73472136 -0.34943351 0.0021456992
0.08480911 -0.093771279 0.10577025 -0.63730609 0.69290358 -0.33723229 0.0023265888
0.09048713 -0.090710573 0.10297634 -0.66843408 0.66914511 -0.32471657 0.0022528896
-0.094352283 -0.084327906 0.10531378 0.69801164 0.62955171 -0.34123954 0.0019405191
-0.089481205 -0.089257449 0.10747957 0.66643661 0.66022128 -0.34636703 0.0021952016
0.095601737 -0.08297608 0.10485647 -0.723683 0.60968316 -0.32337204 0.0020832212
-0.10262964 -0.075156666 0.10264102 0.7707743 0.56061757 -0.30267942 0.0023349146
-0.099062011 -0.078604162 0.10462894 0.74580121 0.58285022 -0.32259306 0.0016302724
0.098479539 -0.077460065 0.10777666 -0.73314804 0.57881755 -0.35702124 0.001969615
0.10264836 -0.073515639 0.10531484 -0.76211166 0.55932719 -0.32609645 0.0020091953
-0.11113509 -0.064393483 0.10180773 0.82602924 0.48047537 -0.29465067 0.0026336289
-0.10753499 -0.067246117 0.1051513 0.80029309 0.50043422 -0.33029765 0.0017635231
0.10820248 -0.066082239 0.10544801 -0.81212366 0.48107091 -0.33019084 0.0018105998
0.11260991 -0.061686162 0.10136352 -0.83463669 0.46363968 -0.2973547 0.0028950784
-0.11328751 -0.056606025 0.10494447 0.84429443 0.4304339 -0.31920761 0.0023061999
0.11280608 -0.056063939 0.10671649 -0.83391941 0.43033203 -0.34553269 0.0018504703
-0.12030045 -0.041999117 0.10252835 0.90526849 0.30296481 -0.2978276 0.0026118625
-0.11799832 -0.045975517 0.10417258 0.88593566 0.34729242 -0.3074182 0.0021772308
0.11796642 -0.045663416 0.10457712 -0.87749332 0.34205309 -0.33616239 0.0016588692
0.12054454 -0.042194717 0.10171226 -0.90270722 0.30762684 -0.30080777 0.0030005169
-0.12258245 -0.033993449 0.10478802 0.91350049 0.24915971 -0.3216151 0.0021338463
-0.11908866 -0.038342547 0.10937178 0.89357662 0.27567622 -0.35429287 0.0020675284
0.12127595 -0.034693494 0.10744259 -0.90116006 0.25859046 -0.34791028 0.0020445292
-0.12285183 -0.024630887 0.10850467 0.91717315 0.18964353 -0.35046941 0.0017575129
0.12407146 -0.025619509 0.10486878 -0.92247069 0.20288205 -0.3284612 0.0014570064
-0.12567984 -0.016876601 0.1036369 0.93421072 0.13089867 -0.33183736 0.0011630476
0.12520781 -0.014000343 0.10592832 -0.93343121 0.12466688 -0.33639923 0.0011984834
-0.12690112 -0.0060688639 0.10417993 0.94319147 0.052555811 -0.32806662 0.0016564511
0.12591726 -0.0045609958 0.10736467 -0.93522221 0.038916934 -0.35191607 0.002030388
-0.12765248 0.0025419709 0.10340676 0.94538093 -0.010932353 -0.32578433 0.0023803907
0.12701435 0.0045711151 0.10440585 -0.94339836 -0.035730034 -0.32973164 0.0025236041
-0.1255499 0.015224752 0.10457268 0.93317461 -0.11072014 -0.34194472 0.00078387989
0.12498233 0.017005742 0.1054698 -0.92917281 -0.14013076 -0.34205452 0.0014376419
-0.12397843 0.02412308 0.10565012 0.91935915 -0.18990807 -0.34454849 0.0016177202
0.12491094 0.024206279 0.10310866 -0.93049121 -0.18101971 -0.31846207 0.0020280583
-0.12190551 0.036504354 0.1042125 0.90480077 -0.27966562 -0.32112724 0.0022298163
0.119955 0.037598856 0.10797042 -0.89679068 -0.27433717 -0.34713912 0.0019875371
0.12333173 0.034440205 0.10223109 -0.92294174 -0.2600511 -0.28381673 0.0027638858
-0.11668721 0.046382781 0.10704013 0.86518395 -0.35171232 -0.35742852 0.0012743213
0.11726491 0.045408461 0.10660304 -0.87850344 -0.33388412 -0.34169143 0.0015987267
0.12138838 0.040694147 0.10115434 -0.90842634 -0.29781288 -0.29337531 0.0027090441
-0.11350288 0.055327557 0.10573307 0.83507437 -0.42339247 -0.35126859 0.0016878763
0.11446729 0.054698002 0.10396688 -0.85666162 -0.41104534 -0.31172529 0.0025727313
-0.11157052 0.062472925 0.10306328 0.82469112 -0.46894914 -0.3161824 0.0024064772
-0.10706291 0.066017278 0.10820121 0.80149752 -0.48792791 -0.34572843 0.001796089
0.10864427 0.066346608 0.10417373 -0.80969471 -0.49240592 -0.31926614 0.0027035971
0.11083481 0.064566866 0.10246997 -0.82516557 -0.47414273 -0.3070673 0.0029268735
-0.10261999 0.074671909 0.10346343 0.76919436 -0.56235868 -0.30346796 0.0019538207
-0.097738586 0.077727519 0.10893124 0.7375865 -0.57123697 -0.3600758 0.0018889067
0.10309727 0.074340135 0.10298345 -0.77046287 -0.56391233 -0.29730415 0.0028407543
-0.0955512 0.083400317 0.10426366 0.71010238 -0.6284585 -0.31748149 0.002466548
0.089546815 0.08921501 0.10758866 -0.66749102 -0.66056144 -0.34367761 0.0021334207
0.09480077 0.085639082 0.1021784 -0.70870405 -0.64267534 -0.2910448 0.0024761762
-0.086688407 0.092732362 0.10490122 0.64808989 -0.68816209 -0.32620931 0.0019534708
0.079174988 0.098533869 0.10482305 -0.59890223 -0.73063415 -0.32785657 0.0021848774
0.08416789 0.094345726 0.10559244 -0.63663375 -0.69500756 -0.33415857 0.0021637657
-0.074488528 0.10225154 0.10456092 0.56690121 -0.759049 -0.32010573 0.001755642
-0.066636026 0.1074107 0.10642815 0.48935968 -0.8057757 -0.33354551 0.0022138043
0.068293557 0.10649329 0.10566404 -0.49577114 -0.80034077 -0.33714336 0.0021720678
0.075137734 0.1021207 0.10376915 -0.56474197 -0.76060069 -0.32023916 0.0025421353
-0.06081276 0.11136414 0.10539842 0.45344391 -0.83102125 -0.32216811 0.0024698894
-0.056226827 0.1137049 0.10429099 0.42435837 -0.84318388 -0.33009222 0.0020236736
-0.044847634 0.11796023 0.10544088 0.32726625 -0.88754052 -0.32429725 0.0022131051
0.039021499 0.1188642 0.10922921 -0.28382441 -0.88638526 -0.36573896 0.0020152288
0.04555786 0.11770473 0.10534365 -0.35361251 -0.87589639 -0.32827389 0.0020225982
0.053786326 0.11446115 0.10493013 -0.40855464 -0.85409313 -0.32188201 0.0022654268
0.063155763 0.11200002 0.10136624 -0.46373615 -0.83535987 -0.29516545 0.0026486744
-0.043643173 0.12045216 0.10043824 0.31550846 -0.90700525 -0.27891919 0.0028513563
-0.034071326 0.12225308 0.10566213 0.24864101 -0.90761793 -0.33824149 0.0021182671
-0.023861781 0.12480984 0.10350322 0.18364939 -0.92671722 -0.32782322 0.0022268982
-0.015961219 0.12491278 0.1060277 0.13409427 -0.92939222 -0.34387317 0.0015757201
-0.0048447237 0.12713651 0.10397998 0.042162027 -0.94729275 -0.3175827 0.0025744091
0.0055260262 0.12681413 0.10460677 -0.037291285 -0.94304085 -0.33058015 0.0021474427
0.014001866 0.12565923 0.10471192 -0.11673974 -0.9358775 -0.33242324 0.0013069208
0.021504188 0.12510763 0.10353722 -0.16691089 -0.93231577 -0.32082406 0.0021308926
0.03584937 0.12254035 0.10289918 -0.27463311 -0.91462946 -0.29669785 0.002760588
0.04145756 0.12111467 0.10104764 -0.29086226 -0.91029733 -0.29454696 0.0028944046
-0.030790662 -0.12073545 0.11202092 0.22845352 0.89878535 -0.3741577 0.0020218738
-0.024951251 -0.12127782 0.11263079 0.19766049 0.90391356 -0.37930271 0.0017217058
-0.014728419 -0.12210596 0.11402539 0.10095982 0.91495621 -0.3907204 0.0015484612
-0.0055314703 -0.12314188 0.11449647 0.046751466 0.91923553 -0.39092237 0.0017365608
0.0057018907 -0.12249272 0.11618461 -0.054144133 0.91388947 -0.40233645 0.0016474748
0.01665326 -0.12143277 0.11515605 -0.12149058 0.9120189 -0.39174184 0.0011361919
0.025613673 -0.12174942 0.11112556 -0.19978975 0.90982878 -0.36372459 0.0016864664
0.031198902 -0.12080001 0.11170228 -0.23262043 0.90204793 -0.3635897 0.0021728531
-0.052351374 -0.11158518 0.11364096 0.38832498 0.8366065 -0.38638496 0.001868478
-0.044282258 -0.11465973 0.1143131 0.34599158 0.85527986 -0.38572821 0.0013904755
-0.033966374 -0.11848734 0.11523609 0.25555119 0.88489646 -0.38942522 0.0022033614
-0.02494731 -0.11883025 0.11922503 0.20021884 0.88857633 -0.41272819 0.0021596325
0.025747284 -0.11915518 0.11806609 -0.19943531 0.89117563 -0.40746984 0.0021939781
0.034833841 -0.1181616 0.11513121 -0.25502628 0.87833077 -0.40434718 0.0022817408
0.047180004 -0.11373103 0.11363136 -0.3652688 0.84824979 -0.38347235 0.001579014
0.056892321 -0.11104946 0.11026438 -0.42935628 0.82776499 -0.36119011 0.0015987152
-0.070671529 -0.10126322 0.1130043 0.52621764 0.75713748 -0.3870891 0.0018391217
-0.062644973 -0.10663007 0.11413518 0.45928669 0.79830205 -0.38957608 0.0022573194
-0.058005732 -0.1091982 0.11375362 0.41827714 0.82170236 -0.38710406 0.0017254046
0.055802662 -0.10894043 0.11669107 -0.41631415 0.81482399 -0.40341598 0.001669744
0.065269843 -0.10381673 0.11640211 -0.4835799 0.77435797 -0.40806884 0.0019170719
0.071081012 -0.10143976 0.11194652 -0.53176606 0.75805956 -0.3775852 0.0016809414
-0.083158493 -0.090743177 0.11502713 0.62152988 0.67581183 -0.39620578 0.0021636721
-0.07523036 -0.096110329 0.11657111 0.56434751 0.71774769 -0.40786031 0.0017470483
0.078072757 -0.094231747 0.11591917 -0.58401275 0.70526016 -0.40191698 0.0017772306
0.082415164 -0.091347754 0.11495343 -0.62672681 0.67570633 -0.38811651 0.0018710291
-0.093677439 -0.080138028 0.11369815 0.70311064 0.58956957 -0.39754635 0.0019516434
-0.087969601 -0.086148918 0.11605945 0.66055411 0.63567394 -0.39948332 0.0024064134
0.086987033 -0.08754316 0.11459708 -0.65079993 0.64582664 -0.39920846 0.0019543394
0.093064211 -0.081989996 0.11195692 -0.69452405 0.6112287 -0.37952048 0.0017651242
-0.09552601 -0.075792156 0.11690143 0.71731961 0.56900537 -0.40210125 0.0020313119
0.096097879 -0.075574458 0.11602885 -0.72095704 0.56348699 -0.40336499 0.0013430144
0.10278909 -0.07033962 0.11026439 -0.76635796 0.52952319 -0.36373165 0.0021353541
-0.10494197 -0.064909503 0.11454403 0.77662849 0.49121499 -0.39440572 0.0019863355
-0.099058963 -0.069874719 0.11907334 0.74808508 0.51691175 -0.4161382 0.0019701973
0.10576802 -0.064057998 0.11423282 -0.79640526 0.46091905 -0.39152551 0.0023012341
-0.11183982 -0.051501676 0.11388525 0.83718991 0.37834525 -0.39492756 0.0019183762
-0.10926486 -0.055850048 0.11582755 0.8166759 0.42086595 -0.3948572 0.0019786775
0.10874263 -0.058031868 0.11486995 -0.81306374 0.43932647 -0.38199434 0.002101467
0.11076564 -0.053085752 0.11493453 -0.82116795 0.41111299 -0.39581463 0.0019014279
-0.11327811 -0.046166807 0.11582176 0.8429842 0.35196236 -0.40681702 0.0012941784
0.11523075 -0.042971227 0.1142429 -0.86294818 0.31672573 -0.39370698 0.0017709201
-0.12050512 -0.030579198 0.11271642 0.89884084 0.22027247 -0.37889987 0.0022505529
-0.11816295 -0.034660019 0.11533169 0.88414812 0.26482487 -0.38490245 0.0022574367
0.11720241 -0.036835257 0.11567353 -0.87093163 0.2819379 -0.40247864 0.0020781553
0.12022068 -0.032726932 0.11236889 -0.89081907 0.24505393 -0.38260955 0.0022101372
-0.12070894 -0.023599215 0.11464269 0.90450317 0.18472701 -0.38438252 0.0021051306
-0.11931895 -0.02611059 0.11749624 0.90010947 0.19735198 -0.38840076 0.002076684
0.11948258 -0.027293308 0.11663604 -0.88925141 0.20990571 -0.4064129 0.0022011187
0.12058444 -0.02182121 0.11560853 -0.90431738 0.16090207 -0.395374 0.002074643
-0.12231123 -0.014786024 0.11345207 0.91680783 0.12034558 -0.38076285 0.0014179792
0.12133671 -0.016913839 0.11532245 -0.90978301 0.12259147 -0.39656812 0.0016284612
-0.12273746 -0.0045970259 0.1159173 0.91757125 0.037079509 -0.39583841 0.0020236138
0.12331969 -0.0058280691 0.11391225 -0.91963124 0.047407225 -0.38991132 0.0018031711
-0.12298918 0.0065227849 0.11455631 0.91825497 -0.052510135 -0.39249259 0.0019335162
0.12285553 0.005301069 0.11534937 -0.91611576 -0.035236124 -0.39936227 0.001728841
-0.12248784 0.015616219 0.11268196 0.91562945 -0.1205781 -0.38351482 0.0016430463
0.1217994 0.01535505 0.11462887 -0.91211516 -0.11845973 -0.3924453 0.0011680071
-0.12111965 0.025515206 0.11285692 0.90521657 -0.18972164 -0.38024792 0.0018088004
-0.11913979 0.025593856 0.1181621 0.89405942 -0.17913617 -0.41057026 0.0019986453
0.11958993 0.026713312 0.11655252 -0.89185423 -0.20428295 -0.40356487 0.001908218
0.1214446 0.025090348 0.11213225 -0.90481007 -0.19116192 -0.38049418 0.0017107676
-0.12032908 0.032329202 0.11251038 0.89196771 -0.2611202 -0.36906621 0.0019464637
-0.11810344 0.034283012 0.11599404 0.88307124 -0.25714153 -0.39250913 0.0024815165
0.11700536 0.036720499 0.11628747 -0.87137097 -0.27454826 -0.4066152 0.0017853334
-0.11453754 0.043861363 0.11505751 0.85399663 -0.3347916 -0.39825153 0.0017132187
0.11373036 0.046194423 0.11465784 -0.8478784 -0.35355705 -0.39509472 0.001668581
-0.1107913 0.054536231 0.11336208 0.82043868 -0.42208323 -0.38565025 0.0016887597
-0.10858618 0.057070393 0.11626232 0.8122533 -0.4225091 -0.40215757 0.0018853623
0.10849171 0.056671586 0.11691409 -0.81024885 -0.42675775 -0.40171462 0.0018744
0.11085757 0.053169336 0.11461689 -0.82829517 -0.40464962 -0.38753822 0.0017251623
-0.10420658 0.066183046 0.11394659 0.77787012 -0.48942026 -0.39419007 0.0019389077
0.099637255 0.069455802 0.11851967 -0.74489623 -0.52072066 -0.41710863 0.0017363857
0.10377017 0.066003203 0.11532179 -0.76961517 -0.49544504 -0.40277368 0.0019076336
-0.10201862 0.071175225 0.11054295 0.77103144 -0.52718693 -0.35718971 0.0018644597
-0.096302941 0.075891808 0.11506186 0.7148217 -0.57160348 -0.40286395 0.0017715789
