# .PCD v0.7 - Point Cloud Data file format
VERSION 0.7
FIELDS x y z normal_x normal_y normal_z curvature
SIZE 4 4 4 4 4 4 4
TYPE F F F F F F F
COUNT 1 1 1 1 1 1 1
WIDTH 560
HEIGHT 1
VIEWPOINT 0 0 0 1 0 0 0
POINTS 560
DATA ascii
-0.18383677 0.024096336 -0.14469588 0.9920907 -0.12552294 -0.00030948076 0.00010325964
0.18367267 0.025343291 -0.14422588 -0.99137497 -0.13105632 -2.0354973e-05 0
-0.18199226 0.038106732 -0.14383441 0.98006791 -0.19857225 0.0059981667 0.0017161883
0.18261018 0.033413634 -0.14239506 -0.98723161 -0.15926927 0.0026282626 0.00058273488
-0.18110736 0.044828277 -0.14573838 0.97064877 -0.240446 -0.0051623518 0.0019756341
0.18077847 0.04651757 -0.1447511 -0.96763432 -0.25222817 0.0080523007 0.0020142028
-0.17827688 0.054099184 -0.14302728 0.95590436 -0.29363227 -0.0051925867 0.0019166694
0.17808269 0.054568175 -0.1482725 -0.94816017 -0.31773275 0.0061800489 0.0013533433
-0.17354178 0.065530732 -0.14400639 0.93257737 -0.36096823 0.0012285417 0.00050088356
0.17404562 0.06431447 -0.14647411 -0.93044561 -0.36642459 -0.0020045475 0.00019116774
-0.16919804 0.076017462 -0.14423065 0.91822642 -0.39605209 0.0017050054 0.00036267567
0.16909175 0.076274179 -0.14489485 -0.92062396 -0.39044988 -0.00063779124 0.00012077506
0.17120224 0.07117898 -0.14428535 -0.92178088 -0.38771126 1.5683012e-05 0.00013495062
-0.16654666 0.082418479 -0.14643012 0.90057492 -0.43469632 -0.0019736574 0.0013708689
0.16451618 0.087320499 -0.14397356 -0.88861704 -0.45860964 -0.0060752006 0.0019107533
-0.16197355 0.092989407 -0.1459036 0.86899275 -0.49474466 -0.0089104027 0.0028146568
-0.15739088 0.099452198 -0.14160979 0.83679318 -0.54747921 0.0066081462 0.002184506
0.15888335 0.097507179 -0.14423963 -0.85351163 -0.5210734 -0.00070142437 0.0024658877
0.16191076 0.093165994 -0.14626375 -0.86350119 -0.50423706 -0.010513716 0.0021609368
-0.15391853 0.10397742 -0.14520656 0.81538033 -0.578915 -0.0034962881 0.0010801981
-0.14941061 0.10985228 -0.14077517 0.79937142 -0.60083258 -0.0023540044 0.0002090731
0.15278339 0.10545681 -0.14626503 -0.80847257 -0.5885334 -0.00069498026 0.0004605721
-0.1463141 0.11388773 -0.14344582 0.79432768 -0.60748947 -0.00034727779 2.2523625e-05
0.14600673 0.11428835 -0.14543085 -0.79035097 -0.61265403 -0.00066897768 0.00019008669
-0.14048876 0.12147946 -0.14462376 0.76331568 -0.64602327 -0.0017588602 0.0014831559
-0.13792276 0.12482352 -0.14765447 0.7555418 -0.65510005 0.00070271705 0.0015995273
0.13783163 0.12494235 -0.14393587 -0.75376666 -0.6571334 -0.0033850309 0.0013532864
0.14022245 0.12182657 -0.14174584 -0.76741809 -0.64113706 -0.0035524725 0.00088188559
-0.13322461 0.13094631 -0.145107 0.71360451 -0.70054168 -0.0031689797 0.002236746
-0.12523432 0.13760754 -0.14703797 0.65817922 -0.75284767 -0.0045408178 0.0016945738
0.12673903 0.13645299 -0.14512542 -0.67209911 -0.74045771 0.002277432 0.0021677243
0.13316551 0.13102336 -0.14038773 -0.70626819 -0.70794243 -0.001656941 0.0023082395
-0.12098656 0.14086697 -0.14410599 0.64049077 -0.76795048 -0.0048646419 0.00084541878
-0.11414025 0.14612034 -0.14716715 0.61219978 -0.79070312 0.00019036129 8.2242208e-05
-0.10987875 0.14939028 -0.14956659 0.60057664 -0.79956472 0.0020044853 0.00029136796
0.11479487 0.14561807 -0.14422958 -0.60698986 -0.79470932 -0.00062220916 2.7368154e-05
0.12144425 0.14051582 -0.14345707 -0.64188516 -0.76679444 -0.0031347768 0.0012177115
-0.10396911 0.15392491 -0.14394683 0.5834083 -0.81217813 0.0012070833 0.00074255164
-0.09696231 0.1593014 -0.14495236 0.50588286 -0.86257786 -0.0064638439 0.0023989924
0.098859109 0.15784597 -0.14430495 -0.5348354 -0.84491688 0.0081555489 0.0023198875
0.10564652 0.15263782 -0.14625919 -0.58414078 -0.81163728 -0.0049491189 0.00073476619
-0.092879005 0.16212521 -0.14394684 0.49606854 -0.86827546 0.0036964016 0.0026398273
-0.084756397 0.16557825 -0.14409073 0.44261068 -0.8967126 0.0015076385 0.0013602616
0.077809773 0.16845566 -0.14811122 -0.40130442 -0.91594428 -0.00091845862 0.00034284906
0.084845781 0.16554125 -0.14217468 -0.44627038 -0.89489478 0.0024586681 0.0017783853
0.092720613 0.16203134 -0.14417791 -0.50075144 -0.86559105 -0.00020815129 0.002569953
-0.071256839 0.17116997 -0.14798233 0.38475949 -0.92301506 -0.0017883076 0.00017058202
-0.067225523 0.17283978 -0.14444999 0.37289724 -0.92787236 -0.00075191009 0.0001540333
-0.053321872 0.17859887 -0.14297165 0.2854217 -0.95840162 -0.00086241221 0.0026055276
0.053478107 0.17853417 -0.14620642 -0.29966053 -0.95404464 0.0016099489 0.0023520067
0.062982649 0.17459726 -0.14346826 -0.35844156 -0.93355101 0.0014777214 0.00057971169
0.072928391 0.1704776 -0.14479941 -0.39623609 -0.91814643 -0.0020196273 0.00032031912
-0.04255484 0.18140666 -0.14508691 0.20975451 -0.97775382 -0.00072025217 0.0019229602
-0.033741739 0.18256694 -0.14380026 0.15283276 -0.98825169 -0.00089002412 0.00034623407
-0.025252251 0.1836846 -0.14318974 0.13154213 -0.99131054 -0.00032276506 0.00019885998
-0.016331907 0.18485899 -0.14582129 0.11134325 -0.99378026 0.0018501217 0.00023598447
-0.0046712705 0.18639414 -0.14522564 0.041274045 -0.99912775 -0.0063391798 0.0020826275
0.0052927933 0.18631232 -0.1442534 -0.036290247 -0.99926347 -0.012473248 0.0018214376
0.016408915 0.18484886 -0.14392816 -0.10501213 -0.99446476 -0.0035125166 0.00043203519
0.024135945 0.18383159 -0.14604992 -0.13204359 -0.99124312 -0.00120215 0.00027875893
0.037292544 0.18209946 -0.14436413 -0.19581707 -0.98063427 0.0034772658 0.0015747972
0.043404453 0.18129483 -0.14384927 -0.22551836 -0.97423124 0.0038668343 0.0021457088
-0.04627952 -0.18091631 -0.13552524 0.25297117 0.9674477 -0.0071117403 0.0027486966
-0.035687022 -0.18231085 -0.13297459 0.16825116 0.98574311 0.0013921093 0.00087033818
-0.026148336 -0.18356663 -0.13624991 0.13299207 0.99111658 0.00096987747 1.735801e-05
-0.015477946 -0.18497141 -0.13410465 0.10657964 0.99430239 -0.0018996887 0.00032227204
-0.0033627735 -0.18656641 -0.13688534 0.014190749 0.99988437 0.0054670665 0.0022555653
0.0060513695 -0.18621247 -0.1318786 -0.054254659 0.99852586 0.0016062643 0.0016205579
0.015236798 -0.18500316 -0.13587905 -0.098736472 0.99510342 -0.0045131491 0.00067338865
0.020085678 -0.1843648 -0.13028906 -0.1101648 0.99391329 0.00010601729 0.00037924838
0.03201827 -0.18279384 -0.13427068 -0.15842226 0.98736548 0.0034286208 0.00052138889
0.042826235 -0.18137096 -0.13463642 -0.21158044 0.97735447 -0.0034592624 0.0022242807
-0.070496634 -0.17148486 -0.13128984 0.37947783 0.92520082 5.7161509e-05 3.8163202e-05
-0.068861187 -0.17216226 -0.13851091 0.37676933 0.92630702 0.00022860637 6.2906896e-05
-0.056333292 -0.1773515 -0.13549209 0.32544881 0.94554561 -0.0051438804 0.001358259
0.052797284 -0.17881617 -0.13576069 -0.29910362 0.95421767 0.0023847399 0.0019167291
0.066053681 -0.17332521 -0.13233989 -0.36749145 0.93002683 0.00038670161 0.00021835972
0.072062403 -0.1708363 -0.1339082 -0.38881263 0.92131329 -0.0025577256 0.00019292373
-0.092980839 -0.16217157 -0.13131973 0.48688206 0.87345427 0.0048443242 0.002330652
-0.085678264 -0.16519639 -0.13320658 0.44698954 0.89453661 -0.0021468236 0.0016910222
-0.075863935 -0.16926163 -0.13720442 0.39616215 0.91818017 -0.00085797888 0.00027256343
0.077498451 -0.16858461 -0.1396029 -0.40137771 0.91591263 -7.4033087e-05 0.00034048955
0.0874286 -0.16447142 -0.13947774 -0.46552435 0.88503432 -0.0011600116 0.0020757022
0.092699029 -0.16209197 -0.13465966 -0.4872435 0.8732655 0.0010645428 0.0028690456
-0.10856919 -0.15039515 -0.13526025 0.59224498 0.80575788 -0.00031147257 0.00048098224
0.096843615 -0.15939252 -0.13008066 -0.51989299 0.85422498 -0.0032956214 0.0022531324
0.10885525 -0.15017569 -0.13656105 -0.59961116 0.80029148 0.00018952681 0.00019812642
-0.1137385 -0.14642859 -0.13487008 0.61355168 0.78965443 -0.00048522832 9.0370275e-05
0.11611444 -0.1446055 -0.1358033 -0.6241796 0.78128076 -0.00046977945 0.00046827935
0.12124183 -0.14067113 -0.13458899 -0.64432544 0.76474237 0.0037346268 0.0010061534
-0.13341847 -0.13069366 -0.13150685 0.71542007 0.69869453 -0.00018621844 0.002549862
-0.12331989 -0.13907653 -0.13905689 0.6485163 0.76118821 -0.0043773968 0.00106584
0.12256587 -0.13965517 -0.13676441 -0.64446044 0.76462001 -0.0051993928 0.0012261098
0.13393934 -0.1300149 -0.13684586 -0.71689105 0.69711208 -0.010097474 0.0020881458
-0.14070882 -0.12119266 -0.13322277 0.75941801 0.65060222 0.0010240653 0.0017213856
-0.13702679 -0.1259912 -0.13587625 0.7446956 0.66740322 -0.0011488283 0.002084838
0.13654265 -0.12662219 -0.13612296 -0.73186076 0.68127847 -0.015474048 0.0019373408
0.14096767 -0.12085539 -0.1362524 -0.77197438 0.63563627 -0.0046993094 0.0010085551
-0.14722261 -0.11270373 -0.1323756 0.79456609 0.60717767 2.3233481e-05 2.7717841e-05
0.14457111 -0.11615929 -0.13511036 -0.78647912 0.61760694 -0.0035015708 0.00024816711
-0.15193252 -0.10656565 -0.1351465 0.80760312 0.58972502 0.0012941415 0.00054423319
0.14967608 -0.10950635 -0.13262381 -0.80258375 0.59652579 0.0040406971 0.00041441523
0.15548383 -0.10193752 -0.13402233 -0.82354975 0.56719196 0.0076858606 0.0014465989
-0.16291557 -0.091184698 -0.13754785 0.87673604 0.48097157 -0.00048244401 0.0024199057
-0.15874265 -0.097690523 -0.13992733 0.85367751 0.52079529 0.0026534852 0.0024620125
0.15838273 -0.098159604 -0.1357059 -0.8452881 0.53430903 0.0013620165 0.002725051
0.16125819 -0.09441223 -0.13185252 -0.86805564 0.49646607 0.00091391563 0.0027422083
-0.16533014 -0.085355416 -0.13350412 0.89428699 0.44742835 0.0076615764 0.001606483
0.16557069 -0.084774703 -0.13454074 -0.89389139 0.44827262 -0.0031392751 0.0016783042
-0.17061512 -0.072596349 -0.13454105 0.91947567 0.39314634 -0.00059795607 0.00018405518
-0.16903737 -0.076405361 -0.13511494 0.9178133 0.39700887 0.0016718718 0.00025564799
0.16884166 -0.076877952 -0.13654988 -0.91074449 0.41296202 0.0026100175 0.0007416986
0.17100982 -0.071643583 -0.13405402 -0.92240262 0.38622868 0.00094952929 0.00025773549
-0.17383401 -0.0648252 -0.131854 0.92853081 0.37125492 0.0005982588 0.00012415466
0.1726196 -0.067757204 -0.13744019 -0.92748427 0.37386045 -0.001180184 0.00019744117
-0.17756385 -0.055820603 -0.13593049 0.94707465 0.3210068 0.0020936285 0.0011956249
0.17851664 -0.053520527 -0.13563818 -0.95582497 0.29388836 -0.0053235674 0.0021805742
-0.18117163 -0.044340156 -0.13390823 0.97531062 0.22073655 0.0066822292 0.0017603304
0.18120281 -0.044103734 -0.1339656 -0.97038841 0.24154948 0.00045875754 0.0024749688
-0.18232888 -0.03554986 -0.13526572 0.98544455 0.16999729 -0.00019749257 0.00064738118
0.18230653 -0.035720058 -0.13512973 -0.98290575 0.18410835 -0.00061509694 0.0010482763
-0.18357117 -0.026113823 -0.13278453 0.99125659 0.13194843 6.7343644e-05 0
0.18364139 -0.025580773 -0.13651563 -0.99111283 0.13302425 6.2978812e-05 0.0001781297
-0.18515137 -0.014111121 -0.13413903 0.9969179 0.0783666 -0.0036558139 0.0011061666
0.1849971 -0.01528301 -0.13536577 -0.99378067 0.11135335 0.00067807484 0.00025713854
-0.18630283 -0.0053648488 -0.13649903 0.99898797 0.044857953 0.0032924197 0.001493584
0.18650813 -0.0038053929 -0.13409472 -0.99924749 0.038691305 0.0027361107 0.0016027191
-0.18599077 0.0077352561 -0.13268781 0.99809635 -0.061500255 0.0046289503 0.0017089128
0.18649456 0.0039084186 -0.13495481 -0.99955511 -0.026099004 -0.014435252 0.0019873392
-0.18518242 0.013875213 -0.13251185 0.995327 -0.09645018 0.0046356791 0.0008766895
0.18507288 0.01470742 -0.13293958 -0.99427217 -0.10684667 -0.002577041 0.00036054445
-0.18346179 0.026944561 -0.13739415 0.98971897 -0.14301966 0.0012997984 0.00024439467
0.18351987 0.026503682 -0.13186502 -0.99003112 -0.14082961 0.0023337968 0.00025569191
-0.182092 0.037349302 -0.13442187 0.98307592 -0.18315858 -0.0038101585 0.0014095787
0.18221755 0.036395852 -0.13524762 -0.98603153 -0.1665135 0.0038924178 0.00058747607
-0.18114291 0.044558346 -0.1348414 0.96876949 -0.24783047 -0.0081106648 0.0021229652
0.18152314 0.041670505 -0.13405804 -0.97830081 -0.20690103 0.010932151 0.0019084869
-0.17866309 0.053166803 -0.13560501 0.95590746 -0.293668 -0.00033966228 0.0022482425
0.17771327 0.055459987 -0.13250627 -0.95400494 -0.299779 0.0026542067 0.0021134925
-0.17417903 0.063992292 -0.13473143 0.93701118 -0.34929931 0.0001776382 0.00079276698
0.17359863 0.065393619 -0.13738231 -0.9290089 -0.37005585 -0.0010117168 0.00017781631
-0.17121483 0.071148492 -0.13830712 0.92660981 -0.37601665 0.0023933637 0.00010245598
-0.16829804 0.078190252 -0.13373213 0.91316855 -0.40758163 -0.0006931657 0.00084391219
0.16833925 0.078090817 -0.13467549 -0.91831911 -0.39584056 0.00051586825 0.00018688675
-0.16494672 0.086281061 -0.135241 0.89174753 -0.4525317 0.0011620792 0.0019095169
0.16561452 0.084668934 -0.13506187 -0.89229143 -0.4514513 -0.0027958327 0.0019740078
-0.16199009 0.092954107 -0.13469239 0.86326367 -0.50475037 0.0017267267 0.0025352663
0.16194229 0.092874482 -0.13461256 -0.86779934 -0.49688759 0.0051994356 0.0028130249
-0.15456241 0.10313834 -0.13599569 0.81845522 -0.57456881 0.0013411861 0.0012448344
0.14960648 0.10959703 -0.13843834 -0.80497903 -0.59330314 0.00048994337 0.00043187031
0.15301971 0.10514883 -0.13282162 -0.80928469 -0.58741581 0.0010190476 0.00065946922
-0.14587435 0.11446085 -0.13447256 0.79467225 -0.6070388 -9.6307658e-06 2.0517404e-05
0.1455303 0.11490921 -0.13512695 -0.79164463 -0.61098182 -0.00013514856 0.00013676641
-0.13635856 0.12686203 -0.13552624 0.7418738 -0.67053634 0.0020689694 0.0018967903
0.14081456 0.12105491 -0.13731271 -0.76888824 -0.63938242 0.00092095137 0.00090537366
-0.13108346 0.13311936 -0.13544931 0.70189112 -0.71227455 0.0037137179 0.0022345406
0.12817954 0.13534763 -0.13233079 -0.68637043 -0.72725117 0.0011727317 0.0018866244
-0.12086508 0.14096019 -0.13728431 0.63953453 -0.76875937 -0.0021560348 0.00088523753
-0.11301563 0.14698327 -0.13241681 0.6092338 -0.79299021 0.00084631762 5.0967436e-05
0.10973312 0.14950207 -0.13860942 -0.59533048 -0.80347848 0.0020001039 0.00046491998
0.11561605 0.14498793 -0.13657595 -0.61251646 -0.79045606 -0.001649869 0.00017440636
-0.10472395 0.1533457 -0.13461123 0.58400178 -0.8117432 -0.0038655121 0.00077788043
-0.099751003 0.15716156 -0.13740525 0.55685967 -0.83055747 -0.0090372087 0.001620475
0.098164454 0.15837899 -0.13639921 -0.5253976 -0.85085171 0.0029660636 0.0024640895
0.1039875 0.15391085 -0.1380949 -0.57088399 -0.82103014 -0.00092697097 0.0012006613
-0.093042195 0.16193976 -0.13435979 0.49746621 -0.86746418 0.0057620616 0.0024042749
-0.085752644 0.1651656 -0.13685861 0.44798079 -0.8940227 0.006050007 0.001449423
-0.076244749 0.16910389 -0.13705419 0.39983428 -0.91658717 0.00069949427 0.00041481439
0.078497708 0.16817069 -0.13793916 -0.41042566 -0.91189402 -0.00033367416 0.0007479185
0.086740352 0.16475649 -0.13811636 -0.45541069 -0.89024615 -0.0079284897 0.0017916344
0.093165748 0.16189776 -0.13660151 -0.49425307 -0.86931771 0.00084090908 0.0024431436
-0.072515264 0.17064869 -0.13607508 0.38242117 -0.92398757 0.001058945 0.000148352
-0.065391257 0.17359957 -0.13395706 0.36910316 -0.92938751 0.0013127907 0.00017137323
-0.054015189 0.17831169 -0.13643281 0.31337443 -0.94962811 -0.0016957032 0.0015256298
0.056345075 0.17734663 -0.13672461 -0.32292601 -0.94641626 0.0038603414 0.0014792694
0.06360469 0.17433959 -0.13590977 -0.35955873 -0.9331122 0.004377563 0.00044982927
0.072099268 0.17082103 -0.13528307 -0.38766134 -0.92180187 -0.0002586421 0.00014086111
-0.04497686 0.18108781 -0.13748778 0.24187139 -0.97028702 0.0064223288 0.0028007845
-0.034104288 0.18251921 -0.13496128 0.15216298 -0.98833978 0.0055633122 0.00039636239
-0.023750827 0.18388228 -0.13301136 0.1262276 -0.99200124 0.00040164337 8.5133048e-05
-0.015720027 0.18493956 -0.13352083 0.099187963 -0.99506569 -0.0024647198 0.00065873389
-0.0046765376 0.18639344 -0.13372153 0.046237782 -0.99891043 0.0063273613 0.0014999958
0.0041830698 0.18645841 -0.1393114 -0.019644855 -0.99979961 -0.003847657 0.0023379182
0.016155606 0.18488221 -0.13320696 -0.10983688 -0.99394894 0.0011626008 0.00027623685
0.032220196 0.18276727 -0.13548863 -0.14734845 -0.98908436 0.00082423171 0.00036168369
0.046445388 0.18079139 -0.13416842 -0.26474968 -0.96430719 -0.0043976633 0.0021038731
-0.046649262 -0.18080105 -0.12520766 0.27046359 0.9626621 -0.011451129 0.0022919655
-0.034721203 -0.18243799 -0.12613413 0.16435769 0.98638171 -0.0061407057 0.00077109999
-0.024885152 -0.18373294 -0.12682439 0.12594628 0.99203634 -0.0012257323 8.8109533e-05
-0.01144061 -0.18550295 -0.12769388 0.074939504 0.99718672 -0.0016606606 0.0013724455
-0.0077516511 -0.18598859 -0.12619011 0.050534382 0.9987216 -0.0011895981 0.0020017489
0.0037896151 -0.18651021 -0.12399855 -0.016846843 0.99980897 0.009916014 0.0018819441
0.015309745 -0.18499358 -0.12453238 -0.098614708 0.99510747 0.0060315719 0.000648822
0.024542147 -0.18377809 -0.12617294 -0.13052575 0.99144495 4.0591253e-06 0
0.03453644 -0.18246233 -0.12536001 -0.16426119 0.9864136 -0.0025447053 0.00066176901
0.045338534 -0.1810402 -0.12502274 -0.25251043 0.96754807 0.009441263 0.002289837
-0.071869582 -0.17091614 -0.1236067 0.37901509 0.92539048 0.0001933825 4.2206204e-05
-0.064477451 -0.17397809 -0.12497365 0.3690733 0.92940021 -0.00044284671 0.00021781637
-0.058818534 -0.17632207 -0.1251055 0.33022669 0.94386417 -0.0084101353 0.0012781915
0.055284511 -0.17778593 -0.12415106 -0.31215683 0.95002878 -0.0018509154 0.0014264026
0.066871889 -0.17298627 -0.12467878 -0.37059951 0.92878902 0.0026314468 0.00021921143
0.070758551 -0.17137638 -0.12703042 -0.38868186 0.92137188 0.0004842887 0.00022752529
-0.092191756 -0.16249843 -0.12458911 0.48108312 0.87667394 0.0013510379 0.0023329353
-0.083754703 -0.16599318 -0.12381883 0.43295357 0.90140998 -0.0033466523 0.0013584417
-0.078048363 -0.16835681 -0.12396295 0.40101215 0.91607255 0.00046493125 0.00037667705
0.076703772 -0.16891377 -0.12647277 -0.39854535 0.91714013 -0.00395614 0.00028338714
0.084781244 -0.16556798 -0.12365308 -0.43649867 0.8996653 -0.0084437998 0.0010953704
0.092715912 -0.16210258 -0.12625624 -0.48676604 0.87349939 -0.0075834673 0.0023821041
-0.10557707 -0.15269108 -0.12315903 0.5829035 0.81254101 -0.0007866536 0.00078682142
-0.099816576 -0.15711126 -0.12445998 0.5490548 0.83578616 -0.00069124304 0.0019114276
0.097513765 -0.1588783 -0.12410807 -0.52091801 0.85360527 -0.0015656946 0.002221972
0.10508002 -0.15307251 -0.123016 -0.58309323 0.81239551 -0.0039796894 0.00066439935
-0.12059919 -0.14116421 -0.12665008 0.63817334 0.76989251 0.00042338378 0.00088417181
-0.11649504 -0.14431342 -0.12347497 0.62578446 0.77999383 -0.0018643492 0.00040360546
0.11658701 -0.1442429 -0.12617958 -0.62346184 0.7818535 0.00067380548 0.00044160703
-0.13270101 -0.1314797 -0.12944585 0.71485937 0.69926459 0.0022547557 0.0027354199
-0.12671533 -0.13647114 -0.12350402 0.66191161 0.74957871 0.0021882644 0.001694623
0.12614155 -0.13691145 -0.12477745 -0.67445117 0.73831493 0.0025762692 0.0021219861
-0.13691828 -0.12613261 -0.12271708 0.74248904 0.66983247 -0.0058819251 0.002261251
0.13728993 -0.12564832 -0.12623127 -0.74004382 0.67255658 0.0016772031 0.0020941652
-0.14438647 -0.11639986 -0.12873559 0.78844094 0.61510569 -0.0024131038 0.00020063987
0.14426728 -0.11655524 -0.12497103 -0.78254694 0.62258351 -0.0031663775 0.00044795466
-0.1542635 -0.10352787 -0.12471655 0.81185418 0.58385694 0.0019531816 0.00068420084
-0.14958008 -0.10963142 -0.12693739 0.80221367 0.59703577 0.0011951118 0.00038129077
0.15305074 -0.1051084 -0.12510559 -0.80971825 0.5868032 0.0042785979 0.00080504734
-0.16169631 -0.093841225 -0.12152799 0.85836786 0.51303321 -0.0011738577 0.0024967254
-0.15903986 -0.097303212 -0.12288196 0.85804379 0.51357645 -0.00027466731 0.0026398296
0.1574045 -0.09943445 -0.12426475 -0.83640635 0.54809767 0.0036817386 0.0023186237
0.16268089 -0.091751248 -0.12812488 -0.88833714 0.45913005 -0.0075338688 0.0016784748
-0.16424508 -0.087974966 -0.12245882 0.88923305 0.45744264 0.0032985408 0.0020842757
0.16568144 -0.084507361 -0.12608698 -0.89808351 0.43979642 -0.0050123162 0.0012911892
-0.17051364 -0.072841331 -0.12405904 0.92369062 0.38313821 -0.0008751573 0.0002001258
0.16912463 -0.076194718 -0.12455951 -0.91464776 0.40424663 -0.0020502082 0.00038640478
0.17158961 -0.070243806 -0.12354025 -0.92815745 0.37218603 0.0011576689 0.00020784688
-0.17408411 -0.064221464 -0.12678143 0.93466896 0.35551885 -0.00057184434 0.00056743063
0.17286822 -0.067156971 -0.12260279 -0.92896688 0.37016228 0.00063687091 0.0001713923
-0.17718779 -0.056728497 -0.1262693 0.94718784 0.32067889 -0.00050896086 0.0012371542
0.17714141 -0.056840591 -0.12073433 -0.94824541 0.31753767 0.00065887871 0.0012317906
-0.18089971 -0.044916853 -0.12376453 0.96909934 0.24666239 0.0020476864 0.0021705683
0.18129778 -0.043382257 -0.1266464 -0.9745248 0.22419283 -0.0062503889 0.0023423338
-0.18229477 -0.035808917 -0.12659331 0.98370969 0.17976324 -0.00068054738 0.0012214906
0.18241413 -0.034902584 -0.12553306 -0.98748684 0.15766497 -0.0033980564 0.00066253589
-0.18387415 -0.023812519 -0.12648815 0.99213767 0.1251477 -0.0010039214 9.749415e-05
0.18350475 -0.02661865 -0.12601092 -0.99082315 0.13515761 0.0013699875 0.00016409738
-0.18494545 -0.015675198 -0.12589084 0.99527955 0.09696275 0.0041000224 0.00082060049
0.18494202 -0.015701292 -0.12285757 -0.99315917 0.11675403 0.0018320951 0.00013763836
-0.18616839 -0.00638601 -0.12587687 0.9986403 0.051494688 0.0081057223 0.0016945965
0.18624876 -0.0057754479 -0.12663053 -0.99854165 0.053986099 -0.00029640115 0.0018168562
-0.18642944 0.0044030738 -0.12566882 0.99968398 -0.023545183 0.0088116433 0.002101084
0.18642955 0.0044024363 -0.12705342 -0.9994843 -0.030915843 -0.0086784475 0.0021625604
-0.18518098 0.013886266 -0.12510152 0.99602205 -0.088874213 0.0064383233 0.0011154131
0.18503477 0.014996909 -0.12297575 -0.99403626 -0.10904732 0.00078287983 0.0003837572
-0.18320876 0.028866667 -0.12898935 0.98849958 -0.15119392 0.0030031984 0.00043732923
0.18320307 0.028910166 -0.12650411 -0.98858213 -0.15068145 -0.00075519289 0.00048511825
-0.18224104 0.036217093 -0.12448592 0.98558289 -0.16918404 -0.0017306055 0.00075828441
0.18242691 0.034805648 -0.12514515 -0.98691595 -0.16122966 -0.0013792141 0.00054202304
-0.18131503 0.04325074 -0.12625469 0.97512645 -0.2215028 -0.0080552632 0.0019707535
0.1809395 0.045970481 -0.12485639 -0.96668446 -0.25595841 -0.0025294402 0.0020562005
-0.17717898 0.05674975 -0.12661748 0.94932294 -0.31425697 -0.0053434945 0.0014539165
0.17777896 0.055301432 -0.1245767 -0.95357221 -0.30116442 -0.00031981021 0.0020572473
-0.17354377 0.065525956 -0.12412093 0.9311474 -0.36464304 0.00014632817 0.0003268469
0.17379393 0.064922117 -0.12527712 -0.93008405 -0.36734632 -0.00053005904 0.0002066062
-0.16893995 0.076640531 -0.12551437 0.9194603 -0.39318052 0.0013943445 0.00026488927
0.1685659 0.077543706 -0.12478401 -0.91845739 -0.39550117 0.0038550154 0.00019164782
0.17095581 0.071773902 -0.12390922 -0.92219412 -0.38672692 0.0005879316 0.00019187178
-0.16464673 0.087005325 -0.1242196 0.89267612 -0.45069551 -0.0016790803 0.0016453526
0.16547371 0.085008822 -0.12432064 -0.89317101 -0.44971058 0.0024351752 0.0019014981
-0.16219839 0.092564896 -0.12801942 0.87371886 -0.48642281 -0.0028688652 0.0022965297
-0.15750301 0.099306077 -0.12500411 0.83817762 -0.54539698 0.00061938644 0.0019689172
0.15837505 0.09816958 -0.12658986 -0.84138232 -0.54043907 0.0012315909 0.0022429838
0.16178027 0.093437284 -0.12525234 -0.86812931 -0.49618575 0.012296036 0.0021727288
-0.15393604 0.10395462 -0.1248716 0.81088102 -0.58519983 -0.0036366074 0.00061668968
0.14987352 0.10924902 -0.12721476 -0.80044931 -0.59939981 -0.00083917874 0.00032619754
0.15340187 0.1046508 -0.12230314 -0.81799436 -0.57521999 0.0026712858 0.0010998738
-0.14386147 0.11708406 -0.1235446 0.78449416 -0.62012953 -0.0028884613 0.00027823632
0.14341164 0.11767036 -0.12265402 -0.7783767 -0.62779737 0.00039157641 0.00048387409
-0.13766339 0.12516153 -0.12704287 0.75206906 -0.65907699 -0.003090186 0.0016307936
0.13572264 0.12769085 -0.1262573 -0.73987061 -0.67271042 0.0072262073 0.0021293927
0.14031547 0.12170535 -0.12562111 -0.76574409 -0.64314401 0.0012779622 0.0011412089
-0.13335697 0.13077378 -0.12933852 0.71414143 -0.69998348 0.0050290474 0.0023758998
-0.12702242 0.13623551 -0.12496115 0.66857237 -0.74364287 -0.0024894758 0.0017455126
0.12633042 0.13676654 -0.12347409 -0.67707676 -0.73591214 -0.00057302293 0.0018657091
0.13203552 0.13210809 -0.12596849 -0.71571976 -0.69838715 0.00086831726 0.0019577402
-0.12025097 0.14143142 -0.12708895 0.62783664 -0.77834457 -0.0010003203 0.00055464427
-0.11249064 0.14738612 -0.12425588 0.60773838 -0.79413384 -0.0023297151 6.2421474e-05
0.11544652 0.14511801 -0.12150788 -0.62139964 -0.78349364 -0.00046742079 0.00027850168
0.12029881 0.14139473 -0.12632395 -0.63978881 -0.76855063 -0.00040240985 0.0010028384
-0.10592759 0.1524221 -0.12500247 0.58766621 -0.80910307 -0.00084407954 0.0006465902
-0.098704293 0.15796475 -0.12186236 0.5342077 -0.8453511 -0.0018936194 0.0024851686
0.1062244 0.15219438 -0.12056663 -0.58409876 -0.81168002 -0.0020345694 0.00068131974
-0.092613392 0.1622944 -0.12493201 0.50682533 -0.86201441 -0.0077016703 0.0025348917
-0.085595302 0.16523078 -0.12740324 0.44996092 -0.89303762 -0.0043647406 0.0018555158
-0.077944286 0.16839993 -0.12645783 0.40214697 -0.91557473 0.00086255348 0.00046667323
0.076871045 0.16884449 -0.1279684 -0.39966375 -0.91666168 -0.00031862245 0.00028021861
0.084224641 0.16579854 -0.12583496 -0.42932743 -0.90314728 -0.0017241702 0.0012958071
-0.064694926 0.17388798 -0.12476263 0.37048283 -0.92883885 -0.00095007737 0.00012531041
-0.05288621 0.17877932 -0.12304359 0.2931495 -0.95606434 0.0021092857 0.0023307842
0.062124867 0.17495258 -0.12626167 -0.35612723 -0.93443733 -0.00058578991 0.00074512279
0.071132757 0.17122138 -0.12039772 -0.3795889 -0.9251551 0.00038975835 6.7409652e-05
-0.046758607 0.18085323 -0.12640409 0.2547054 -0.96697974 -0.0086766733 0.0023163522
-0.035828743 0.18229219 -0.1255603 0.15349482 -0.98814547 -0.0027961088 0.00035544357
-0.023631096 0.18389803 -0.12506634 0.13712646 -0.99055284 -0.0011272377 0.0001052691
-0.015686784 0.18494393 -0.12611383 0.092822947 -0.99568218 -0.00099023967 0.00074771448
-0.0061136368 0.18620424 -0.1250052 0.054016512 -0.99853849 -0.0017815838 0.0015712217
0.0066140159 0.18613838 -0.12422963 -0.066439055 -0.99777716 0.0051474958 0.0015704964
0.012586661 0.18535206 -0.12596619 -0.068422474 -0.99764138 -0.0054808897 0.0014327866
0.026507687 0.18351933 -0.12514587 -0.14063768 -0.99005491 -0.0035172356 0.00011624504
0.033408605 0.18261079 -0.12499759 -0.16897984 -0.98561627 -0.0025384366 0.00099239254
0.049922705 0.18000686 -0.1294073 -0.29500902 -0.95543981 -0.010220438 0.0021040281
-0.042386957 -0.18142878 -0.11816548 0.21635094 0.97624028 -0.01213618 0.0018777344
-0.032502428 -0.18273011 -0.11590444 0.15805902 0.98742658 0.0024758361 0.00071086467
-0.028174851 -0.18329984 -0.11569871 0.14545056 0.98936421 -0.0016139534 0.00033817551
-0.015264818 -0.18499948 -0.11537027 0.11084561 0.99383724 0.00087934465 0.0002689815
-0.0048721959 -0.18636769 -0.11646217 0.02855956 0.99958718 0.003137321 0.0023173783
0.0042106798 -0.18645479 -0.1141634 -0.039990224 0.99913174 0.011685955 0.0015285795
0.016835291 -0.18479273 -0.11469549 -0.10880881 0.99406147 0.0015321054 0.00039007215
0.024788862 -0.18374562 -0.11495965 -0.12467343 0.99219769 0.00048092788 0.0001131154
0.035531797 -0.18233128 -0.11582796 -0.17851436 0.98393148 -0.0033758949 0.0012338291
0.043809511 -0.18124151 -0.11514494 -0.2267919 0.97389853 0.0093338517 0.0020553037
-0.071646631 -0.1710085 -0.11495844 0.38790596 0.92169899 -0.00028909874 0.00014071539
-0.06527514 -0.17364764 -0.11291916 0.36723477 0.93012822 0.00034055038 0.00023097005
-0.054005794 -0.17831558 -0.11325797 0.30491799 0.95233345 0.0092740338 0.0015480733
0.057607319 -0.17682378 -0.11599689 -0.33213046 0.9432233 -0.0043811249 0.0011729501
0.0639733 -0.17418692 -0.11405691 -0.35460302 0.93501693 3.1730917e-05 0.00059802597
0.071912795 -0.17089826 -0.11038703 -0.39262569 0.919698 0.00080450013 0.00016926734
-0.092616387 -0.16204108 -0.1131891 0.48716784 0.87329102 0.0054942463 0.0028042744
-0.084870897 -0.16553082 -0.114396 0.45348516 0.89126307 0.0011633427 0.0019682036
-0.076668277 -0.16892847 -0.11465265 0.40278426 0.91529435 -0.0010298968 0.00034695424
0.077280015 -0.16867509 -0.11864902 -0.39855704 0.91714352 -8.305689e-05 0.00026791808
0.084689178 -0.16560613 -0.11758568 -0.43331653 0.90117276 -0.011156943 0.0012040138
-0.10667169 -0.15185113 -0.11578964 0.58722776 0.8094207 -0.0012830325 0.000632093
-0.09800525 -0.15850115 -0.11300267 0.5307827 0.84748209 0.0066199959 0.0024801695
0.098738745 -0.15793833 -0.11289034 -0.52926975 0.84845328 -0.00079431856 0.0021254134
0.10378476 -0.1540664 -0.11516707 -0.58158439 0.81347978 -0.0031957626 0.00069557963
-0.12092666 -0.14091294 -0.11630254 0.63373053 0.77355301 -0.0011746839 0.00058496598
-0.11567807 -0.14494033 -0.11693098 0.62248683 0.78263021 -0.00028015845 0.00040514302
-0.10974945 -0.14948951 -0.11558335 0.59915817 0.80063069 -0.00024597146 0.00028363123
0.10931128 -0.14982575 -0.11014302 -0.59793442 0.80154437 -0.0010157315 0.00030182631
0.11617669 -0.14455773 -0.11415954 -0.62070554 0.78404254 0.0013764991 0.00030979671
-0.13253587 -0.13166332 -0.11497127 0.70594794 0.70817024 -0.011502717 0.0024427657
-0.12439077 -0.13825484 -0.11575945 0.64434463 0.76473361 0.0016367595 0.00094633992
0.12620038 -0.1368663 -0.11339934 -0.6686452 0.74355245 0.006588696 0.0018551461
0.13090733 -0.13325453 -0.11449069 -0.69469571 0.71930218 0.0014931581 0.0020550624
-0.13716413 -0.12581222 -0.11673994 0.74104446 0.67139673 -0.0089140739 0.0021909771
0.13651834 -0.12665386 -0.11637936 -0.73394847 0.67916971 -0.0069454717 0.0021878202
0.14027089 -0.12176344 -0.11031371 -0.76721871 0.64138561 6.5145498e-05 0.0010719117
-0.14607799 -0.11419544 -0.11216633 0.792557 0.60979772 -0.00039239862 2.3492712e-05
0.14484353 -0.11580426 -0.11686405 -0.78547108 0.6188944 -0.0022299709 0.00039628049
-0.15242672 -0.10592163 -0.11439772 0.80601466 0.59189481 -0.00087882357 0.00046574869
0.15330938 -0.10477132 -0.11667456 -0.81135601 0.58455169 0.0008160664 0.0008519328
-0.16191016 -0.093298793 -0.11758485 0.8667869 0.49866316 0.0039424771 0.002881228
-0.15874831 -0.097683124 -0.1100786 0.84871191 0.52884305 -0.003603708 0.0022491647
0.15759964 -0.099180132 -0.11574378 -0.83451861 0.55097938 0.00071301853 0.001924423
0.16168334 -0.093434341 -0.11545577 -0.87318033 0.4873783 0.0043001431 0.0025632426
-0.16347352 -0.089837715 -0.11896808 0.88725656 0.46127328 0.0016332986 0.0022678263
0.16472462 -0.086817287 -0.11505011 -0.89595729 0.44413173 0.0027503972 0.0014019315
-0.17110711 -0.07140857 -0.11740854 0.92308336 0.38459396 -0.0021439989 0.00032904366
-0.16829044 -0.078208633 -0.11283858 0.91617346 0.40075931 -0.0042810207 0.00035265204
-0.17317502 -0.066416189 -0.1142424 0.92868012 0.37088037 0.0010333756 0.00015796706
0.17421171 -0.063913554 -0.11321989 -0.9315567 0.3635959 0.00023845918 0.00018819697
-0.17778055 -0.055297434 -0.11464103 0.95212734 0.3056787 0.0037608377 0.0016790469
0.17742991 -0.0561441 -0.11529646 -0.94818658 0.3177135 0.00062355958 0.0012219955
-0.18124609 -0.043774489 -0.11110155 0.97606164 0.21745478 0.004128925 0.0017179514
0.18107618 -0.044715978 -0.1150176 -0.96996582 0.24312447 0.0075362832 0.0023621542
-0.18245856 -0.034564987 -0.11451998 0.98664027 0.16287684 0.0035019764 0.00063583459
0.18266515 -0.032995991 -0.11395757 -0.98611462 0.16606575 0.00024389751 0.00067885913
-0.18343854 -0.027121274 -0.11540586 0.98920912 0.14647017 -0.0034544633 0.00040096659
0.18399507 -0.022894196 -0.11692926 -0.99256533 0.12171257 0.00021988181 8.5966676e-05
-0.18504326 -0.014932106 -0.11514147 0.99417716 0.10768288 0.0040177703 0.00041135069
0.18490136 -0.016010297 -0.11552862 -0.99342734 0.11446422 0.00027753104 0.0002076708
-0.18688571 -0.00093733298 -0.11078284 0.99986118 0.01550659 0.0060907258 0.0022809084
0.18600076 -0.0076593328 -0.11494914 -0.99823147 0.059285097 0.0043908614 0.0016800226
-0.18606743 0.0071528382 -0.11367754 0.9985019 -0.054418456 0.0057082889 0.0018268463
0.1867452 0.0020047482 -0.11780387 -0.9998619 -0.016353633 -0.0029542814 0.0025954256
-0.18482688 0.016575757 -0.11415889 0.99309713 -0.11728162 0.0017760617 0.00020016478
0.18489733 0.016040877 -0.11495443 -0.99431342 -0.106484 0.0014030038 0.00037933132
-0.18383022 0.024146164 -0.11387625 0.99157393 -0.12954231 -0.00014588675 0
0.18341748 0.027281353 -0.11679616 -0.98890346 -0.14854257 -0.0022321062 0.00039135868
-0.18239459 0.035050802 -0.11413564 0.9859702 -0.16691636 -0.0012902423 0.00075190025
0.18241775 0.034875177 -0.11461116 -0.98677927 -0.16205119 0.0024705855 0.0005206794
-0.18163434 0.040825389 -0.11556217 0.97698182 -0.21324687 -0.0056829662 0.0019837031
0.1806864 0.047314379 -0.1161195 -0.96364093 -0.26713684 0.0058453535 0.002467986
-0.17621303 0.05908177 -0.11876167 0.94644368 -0.32285467 -0.0030309402 0.001056229
0.17868519 0.053113591 -0.11691626 -0.95248801 -0.30454016 0.0046751681 0.0023188263
-0.17388108 0.064711563 -0.11607676 0.93243647 -0.36133108 -0.0014617349 0.00030220847
0.17355369 0.065502129 -0.11551951 -0.92696047 -0.375159 0.0001666867 5.0302318e-05
-0.17075571 0.072256893 -0.11175115 0.92348415 -0.38363662 0.00023438607 0
-0.1688976 0.076742783 -0.11745161 0.91687191 -0.3991816 -0.00013848423 0.0003892153
0.16778603 0.079426415 -0.11707769 -0.9050191 -0.42537084 -0.00010646127 0.0013138807
0.1713078 0.070924103 -0.11419471 -0.92506385 -0.37981129 0.00033454076 9.213484e-05
-0.16503808 0.086060479 -0.11114183 0.89472759 -0.44661057 -0.0012173991 0.0016529103
0.16603607 0.08365117 -0.11571611 -0.90015095 -0.43557703 -0.0009060023 0.0015369016
-0.16227707 0.092726186 -0.11645974 0.88116711 -0.47274935 -0.0072483593 0.0015081431
0.1610543 0.09467794 -0.11466756 -0.86721444 -0.49789798 0.0060647335 0.0023074187
-0.15210074 0.10634646 -0.11425289 0.80903763 -0.5877552 -0.0013619199 0.00058257359
0.15326725 0.10482623 -0.11690469 -0.81862575 -0.57432115 0.0026637469 0.001143949
-0.1440172 0.11688111 -0.11471931 0.7810846 -0.62442517 0.00018085382 0.00036579219
0.14459234 0.1161316 -0.11494801 -0.78108579 -0.62442285 0.0010233485 0.00047160487
-0.14072725 0.12116866 -0.11818835 0.77407241 -0.6330806 -0.004566153 0.00078185898
-0.13752136 0.12534665 -0.11796007 0.75441414 -0.65639693 0.0015395646 0.0014436403
0.13623792 0.12701932 -0.11143123 -0.73190433 -0.68136221 0.0078453775 0.0021935101
0.14004326 0.12206008 -0.11654511 -0.76153159 -0.64812732 -0.00073077343 0.0013663048
-0.13309577 0.13111418 -0.1158597 0.70296615 -0.71122104 -0.0017513252 0.0024011475
-0.12733857 0.13599291 -0.1137566 0.67409223 -0.73859763 0.0085479543 0.0022690764
0.12513413 0.13768445 -0.11544223 -0.66956532 -0.74275315 -0.00013942656 0.0021390109
0.13046286 0.13359559 -0.11659306 -0.69598579 -0.71805257 0.0020503588 0.0018869902
-0.12098247 0.14087012 -0.11535504 0.63755715 -0.77038509 0.0052578081 0.00092546048
-0.11294415 0.14703812 -0.11312807 0.60685575 -0.7948119 0.00029659111 4.6739096e-05
-0.109387 0.14976764 -0.11832039 0.58882546 -0.8082577 -0.0020173851 0.00053053419
0.11462414 0.14574906 -0.11267696 -0.61797822 -0.78619313 -0.0018209788 0.00024526846
-0.10395814 0.15393332 -0.11707597 0.58321047 -0.81231064 0.0041218055 0.00073878543
-0.098399729 0.15819843 -0.1153224 0.54112893 -0.84093881 0.0011793273 0.0020850929
0.098375849 0.15821679 -0.11515711 -0.52742881 -0.84954274 -0.0097905947 0.002090489
0.10613109 0.152266 -0.1102794 -0.59227872 -0.80573106 0.0018295664 0.00049520622
-0.090602815 0.1631566 -0.11232378 0.47946674 -0.87753367 0.0068069752 0.0021735642
-0.085484296 0.16527675 -0.11666057 0.45238361 -0.89182204 0.0015844671 0.0017986809
-0.077211469 0.16870347 -0.11567119 0.39931741 -0.91681212 -0.00099231966 0.00033866343
0.076272339 0.16909248 -0.11386045 -0.39406028 -0.91908133 -0.0024831863 0.00021578629
0.084591828 0.16564643 -0.11438689 -0.44499031 -0.89552414 -0.0044855159 0.0014883764
0.094829276 0.16093817 -0.11575601 -0.50254029 -0.86450726 -0.0089678951 0.0021734065
-0.072255939 0.17075612 -0.11625962 0.38966712 -0.92095274 0.0023808898 0.0003146253
-0.065818593 0.17342255 -0.11547325 0.37317735 -0.92775935 -0.0011501171 0.0001298359
-0.054242231 0.17821765 -0.11267011 0.29944322 -0.95410997 -0.0028198464 0.0022508791
0.049957074 0.17999262 -0.11424932 -0.28004628 -0.95998603 -0.00091381179 0.0026577294
0.053551525 0.17850375 -0.1146534 -0.3089841 -0.95103258 0.0081130033 0.0021084649
0.063580975 0.17434943 -0.11354649 -0.37664643 -0.92635614 0.0012924867 5.6041808e-05
0.071789049 0.17094952 -0.11343638 -0.38751009 -0.92186505 0.00086645602 0.00021152056
-0.046734963 0.1806014 -0.11600826 0.25434905 -0.96707952 -0.007975461 0.0021099749
-0.035254322 0.1823678 -0.11629792 0.16717939 -0.98590434 -0.0066042617 0.00064277579
-0.025010025 0.18371649 -0.11626422 0.14313561 -0.98970312 -5.4260261e-05 0.00023116473
-0.012961415 0.18530273 -0.11309701 0.076465666 -0.99706948 0.0023286368 0.0012706964
-0.0042722658 0.18644667 -0.11558557 0.029236956 -0.99956137 -0.0047221016 0.0019746677
0.0049988111 0.18635103 -0.11341605 -0.035834845 -0.99935097 0.0036822231 0.0016144867
0.013964793 0.18517062 -0.11381492 -0.092161737 -0.99573904 0.0031545644 0.00077069976
0.023636004 0.18389739 -0.1123395 -0.12716229 -0.99188006 0.0019447653 0.00013741103
0.03472916 0.18243693 -0.11564343 -0.15298037 -0.98819673 -0.0080125993 0.00037579372
0.045334235 0.18095535 -0.11564318 -0.25839484 -0.96602398 -0.0054588984 0.0023776318
-0.042628244 -0.18139701 -0.10530823 0.2101896 0.97765255 0.0039787828 0.0017636087
-0.033022422 -0.18266164 -0.10434512 0.16114211 0.98691738 -0.0052167992 0.00046565407
-0.016739706 -0.1848053 -0.10656153 0.11337613 0.99355203 0.00045304437 0.0002007661
-0.0063581942 -0.18617204 -0.10151128 0.05103315 0.99869424 0.0023204577 0.0017311567
0.0052886093 -0.18631287 -0.10357909 -0.033308093 0.99944359 -0.0017379639 0.0018452498
0.013508786 -0.18523067 -0.10466891 -0.11083083 0.99383086 -0.0040851701 0.0003231146
0.035356432 -0.18235438 -0.10420921 -0.18179044 0.98332638 0.004640012 0.0012827779
0.044026665 -0.1812129 -0.10331669 -0.23221634 0.97265267 -0.0047364715 0.0018243572
-0.073846109 -0.17009746 -0.10212204 0.39987683 0.91656882 -0.00010897384 0.00027475829
-0.065196373 -0.17368029 -0.1035738 0.36332199 0.93166232 0.0015571745 0.00020641823
-0.054235771 -0.17822033 -0.10487523 0.30469286 0.95240736 0.0090772463 0.0016536919
0.054588012 -0.17807442 -0.10412686 -0.31815097 0.94803768 0.0021179798 0.0011397281
0.063801594 -0.17425805 -0.1053873 -0.34739387 0.93771923 0.00028524411 0.00063443749
0.072532192 -0.17064171 -0.10442798 -0.3837586 0.92343336 -0.00032605277 1.4686892e-05
-0.093808614 -0.16145349 -0.10318763 0.5024659 0.86459255 -0.0027524945 0.0022163715
-0.08643984 -0.16488095 -0.10399747 0.44977325 0.89314282 0.00013766735 0.0015185694
-0.076058485 -0.16918105 -0.10670467 0.40124866 0.91596556 -0.0025751819 0.00034576675
0.077110924 -0.16874515 -0.10492868 -0.41498831 0.90982544 0.0015271882 0.00075419038
0.085122138 -0.16542678 -0.10574558 -0.45020533 0.89291328 0.0045788083 0.0016402128
0.091558516 -0.16276075 -0.10749617 -0.4827193 0.87572336 -0.0095237996 0.0022214323
-0.10555965 -0.15270445 -0.10577522 0.58656311 0.80989349 0.0040244265 0.00066537427
-0.099014461 -0.15772673 -0.10196546 0.52695745 0.84988499 0.003378232 0.0023419592
0.10331486 -0.15442696 -0.10452081 -0.56454188 0.82540029 -0.0026176332 0.0013044495
-0.11553082 -0.14505333 -0.10311079 0.61745089 0.78660786 -0.001580107 0.00027711864
0.11556592 -0.1450264 -0.10562666 -0.61678779 0.7871204 0.0037669563 0.00032687333
0.1201451 -0.14151268 -0.10613777 -0.63866377 0.76946968 0.0050088177 0.0012485461
-0.13086218 -0.13328913 -0.1052685 0.69701982 0.71705073 -0.0012882277 0.0025007585
-0.12623268 -0.13684148 -0.10357708 0.65116864 0.75889695 -0.0074058608 0.0011424321
0.12489169 -0.13787049 -0.1062068 -0.64682794 0.76261973 0.004979807 0.001324659
0.13098852 -0.13319224 -0.10272466 -0.69632018 0.71766746 0.0095740044 0.0023615605
-0.1344509 -0.12934816 -0.10616868 0.7253111 0.68840826 0.0042344909 0.0021353399
0.13567792 -0.12774913 -0.10591102 -0.71671826 0.69731593 0.0080908984 0.0022487624
0.14069194 -0.12121472 -0.10217027 -0.7641775 0.64497107 0.0067175427 0.0012916682
-0.14690246 -0.11312097 -0.10453837 0.79381019 0.60816544 -0.00033501704 4.8368849e-05
0.14601889 -0.11427249 -0.10731248 -0.79315913 0.60901439 5.8146183e-05 2.8606393e-05
-0.15151979 -0.10710356 -0.10522723 0.80489236 0.59342021 0.00089062925 0.00042674658
0.1549062 -0.10269031 -0.10661805 -0.82531273 0.56465268 -0.0051196045 0.0015786376
-0.16178477 -0.093595207 -0.1049726 0.86239189 0.50624073 -0.00069865608 0.0024994612
-0.15771772 -0.099026263 -0.10745598 0.83995914 0.54259694 -0.0075681144 0.001992444
0.15889604 -0.097490609 -0.1068031 -0.85899884 0.51195371 -0.004942087 0.0024112966
0.1615074 -0.093507446 -0.10612087 -0.86231041 0.50636798 -0.0034927404 0.0024574599
-0.16569498 -0.084474608 -0.10526198 0.89267796 0.45050171 -0.013200045 0.0017494438
0.16558424 -0.084742032 -0.10516664 -0.90154988 0.43266875 -0.0023624026 0.0011056904
-0.16806844 -0.07874456 -0.10633096 0.9158498 0.4015123 -0.0026407912 0.00035560501
0.16883348 -0.076897651 -0.10522927 -0.91261363 0.40882304 -0.00028902019 0.00058758183
0.17091276 -0.071877889 -0.10947119 -0.9236089 0.38333604 0.00028218733 0.00016319928
-0.17459425 -0.062989816 -0.10534866 0.93925387 0.34321609 -0.0022219897 0.00084880972
0.17412324 -0.064127073 -0.10596295 -0.93480474 0.35516199 3.3942713e-05 0.00061043265
-0.17799067 -0.054790139 -0.1054741 0.95516926 0.29571387 0.014315885 0.0019905553
0.17715438 -0.056809291 -0.10337714 -0.94877172 0.31593728 -0.0039775921 0.0012657436
-0.18103479 -0.045379464 -0.10680512 0.96839863 0.24924523 0.0089936713 0.0020408724
0.180801 -0.046793841 -0.10499185 -0.96591979 0.25877297 -0.0059502064 0.0019417725
-0.18232131 -0.035607476 -0.10654243 0.98356611 0.18054822 -9.7475378e-05 0.0011038679
0.18232325 -0.035593145 -0.1038269 -0.98221242 0.18777201 0.00065602263 0.0012710239
-0.18355626 -0.026227087 -0.10272503 0.99018389 0.1397704 0.00015688105 0.00022987514
0.18341257 -0.027318811 -0.10774865 -0.99041307 0.13811904 -0.0022395372 0.00014729683
-0.18496935 -0.015493539 -0.10426579 0.99421448 0.10741302 -0.00021258116 0.00035030593
0.18488631 -0.016124614 -0.10611629 -0.99361891 0.11278407 -0.0011252465 0.0001852165
-0.1865218 -0.0037016163 -0.100888 0.99965996 0.025861258 0.0033469594 0.0021589359
0.18644926 -0.0042526829 -0.10514739 -0.99979734 0.020129962 0.00036949353 0.002237513
-0.18652315 0.0036912535 -0.10537376 0.99925786 -0.038515963 -0.00066089834 0.0016219554
0.18660431 0.0030749282 -0.10491219 -0.99971938 -0.023270072 0.0044310261 0.0020804761
-0.18507455 0.014694501 -0.10467609 0.99551374 -0.094508931 -0.0045196605 0.00084207219
0.18501601 0.015139272 -0.10397327 -0.99374872 -0.11160904 0.0026229052 0.00029281963
-0.1836028 0.025873533 -0.10485189 0.99095994 -0.13414475 -0.0019102145 0.0003338019
0.18394591 0.023267657 -0.10583942 -0.99233341 -0.12358791 -0.00069080602 0.00010344089
-0.18251008 0.034173656 -0.10551408 0.98713028 -0.15988614 0.003209776 0.00062874885
0.18229215 0.035829332 -0.10606401 -0.984029 -0.17794545 -0.0047275387 0.001165987
-0.18114926 0.044475116 -0.10408528 0.97301137 -0.23061177 0.0081862677 0.0016657512
0.18102807 0.045431137 -0.10956191 -0.96784532 -0.25145784 0.0066608712 0.0023156826
-0.17839585 0.053812005 -0.1058089 0.95209616 -0.30579796 -0.00069454731 0.0017182273
0.17829005 0.054067541 -0.10472474 -0.95085359 -0.30956629 0.0067929165 0.0017708733
-0.17310363 0.066588506 -0.104698 0.93061191 -0.36599591 0.0029206476 0.00032744452
0.17413747 0.064092748 -0.10521439 -0.93377817 -0.35784966 -0.0014083763 0.00062097161
-0.17056741 0.072711498 -0.10445116 0.91937441 -0.39338195 -0.0010979726 0.00029457817
-0.16903794 0.076404028 -0.102847 0.9151938 -0.40300527 -0.0026620158 0.00049955252
0.16851607 0.07766398 -0.10324401 -0.91409349 -0.40550354 -0.00011847245 0.00062327384
0.17084339 0.072045304 -0.10596837 -0.92262143 -0.38570663 0.00019484083 0.00018155076
-0.16486862 0.08646962 -0.1042624 0.89331746 -0.4493891 0.0057700216 0.0016311333
0.16429648 0.087850913 -0.10348881 -0.89385206 -0.4483377 0.0046639331 0.0015026374
-0.16192874 0.093304425 -0.10742547 0.87267458 -0.48824739 -0.0073194867 0.0024894115
-0.1573125 0.09955433 -0.1057706 0.8465566 -0.53216463 0.011946962 0.0025499335
0.15868926 0.097760111 -0.10380377 -0.84933656 -0.52773321 -0.011183628 0.0026474427
0.16178724 0.093197092 -0.1030692 -0.87637585 -0.48161387 0.0036664475 0.002124523
-0.15173765 0.10681963 -0.10723618 0.80847645 -0.58851606 0.0038321761 0.0005217517
0.15446556 0.10326457 -0.10465942 -0.82675749 -0.56255794 0.00078187283 0.0016771849
-0.14534797 0.11514684 -0.10331497 0.7849071 -0.6196112 0.0016741997 0.00028120284
0.14626424 0.11395273 -0.10842042 -0.79219836 -0.61026371 8.4182146e-05 3.8174428e-05
-0.13755965 0.12529674 -0.10772488 0.74631631 -0.6655125 -0.010246624 0.0018762249
0.13532393 0.12821046 -0.10771922 -0.71770459 -0.69629478 0.0085816197 0.0021019124
0.14075255 0.12113573 -0.10619351 -0.76553559 -0.64339352 0.00041172572 0.0011945235
-0.13158025 0.13249613 -0.10668209 0.69772327 -0.71635294 -0.0045637209 0.0020538599
-0.12697408 0.13627258 -0.10420439 0.6709941 -0.74146086 -0.0016175651 0.0020755804
0.12466651 0.13804328 -0.10657366 -0.65060735 -0.7594009 0.0045035556 0.0013703655
0.13100791 0.13317735 -0.10410489 -0.70024514 -0.71390039 0.001704216 0.0020330257
-0.11567227 0.14494476 -0.10521564 0.61633331 -0.78748423 0.0013581646 0.00025155593
0.11136031 0.14825347 -0.10502093 -0.60877389 -0.79334378 3.4689608e-06 1.4690454e-06
0.12190398 0.14016303 -0.10153502 -0.64420491 -0.76484346 0.0037917001 0.0010851958
-0.1039503 0.15393935 -0.10289706 0.57257152 -0.81985223 -0.002066568 0.0012858084
-0.097703218 0.15873289 -0.10423527 0.51969981 -0.85431004 -0.0081494162 0.0024392775
0.10655293 0.15194231 -0.10675451 -0.58329654 -0.81225288 0.0032371669 0.0010114912
-0.092754029 0.16226551 -0.10785873 0.49562067 -0.86852592 -0.0047905915 0.0024498305
-0.086913019 0.16468497 -0.10519625 0.44934908 -0.89334035 -0.0053350157 0.0018391479
-0.079168171 0.16789296 -0.10685484 0.41365215 -0.91043091 -0.0027438041 0.00083010865
0.075794533 0.16929039 -0.10521793 -0.39756835 -0.91757202 0.0010511746 0.00026379226
0.086159758 0.16499698 -0.10632119 -0.45348421 -0.89116079 0.013588635 0.0016523483
0.093720108 0.16178925 -0.1076597 -0.49109089 -0.87110752 -0.0011301327 0.0024818194
-0.070865743 0.17133194 -0.10222448 0.38252836 -0.92394197 0.0018005469 0.00021239075
-0.06611038 0.1733017 -0.10751867 0.37080809 -0.92870939 -0.00036948666 0.00014409567
-0.057539124 0.17685203 -0.10499851 0.32467943 -0.94571888 -0.014106518 0.00115933
0.056209445 0.17740281 -0.1050579 -0.33370543 -0.94266403 0.0050183772 0.0013925132
0.067773931 0.17261264 -0.10647183 -0.37908372 -0.92536229 0.00054186909 3.4856843e-05
0.072014824 0.170856 -0.10644061 -0.38319433 -0.92366672 0.0013836572 8.6769403e-05
-0.044118918 0.18120076 -0.10889393 0.23641832 -0.97160238 -0.0097532542 0.0020221751
-0.037282765 0.18210074 -0.10478973 0.17248307 -0.98499191 -0.0063709146 0.00085614744
-0.025511364 0.18365049 -0.10762727 0.13920118 -0.9902634 0.0011798381 0.00014498165
-0.016063616 0.18489431 -0.10409431 0.10011322 -0.99497503 -0.0014433566 0.000727612
-0.0057028648 0.18625832 -0.10376915 0.044535011 -0.99900573 0.0020553286 0.0014606395
0.0081166467 0.18594055 -0.10713761 -0.067178436 -0.99774098 -0.00017713154 0.0014260653
0.012847882 0.18531768 -0.10650263 -0.073993184 -0.99725866 0.00026974609 0.0015403742
0.02419824 0.18382335 -0.10432777 -0.13090855 -0.99139404 -0.00087712804 2.5807205e-05
0.034913931 0.18241261 -0.10686089 -0.1567525 -0.9876256 -0.0049340916 0.00042398603
-0.044607438 -0.1811218 -0.095123492 0.23394099 0.97224998 -0.0012640669 0.001915983
