# .PCD v0.7 - Point Cloud Data file format
VERSION 0.7
FIELDS x y z normal_x normal_y normal_z curvature
SIZE 4 4 4 4 4 4 4
TYPE F F F F F F F
COUNT 1 1 1 1 1 1 1
WIDTH 578
HEIGHT 1
VIEWPOINT 0 0 0 1 0 0 0
POINTS 578
DATA ascii
0.045788307 -0.16260146 -0.026048616 -0.33242908 0.8941856 0.29987162 0.013088358
0.052202996 -0.16304213 -0.021261247 -0.35584992 0.87944043 0.3161571 0.012021157
-0.084636591 -0.15464579 -0.024264591 0.4083792 0.83536857 0.367948 0.01292213
-0.075552076 -0.15523437 -0.023647405 0.37296742 0.86307442 0.34058458 0.013968118
-0.061386783 -0.15740895 -0.029939447 0.27178395 0.90495622 0.32739532 0.015498118
-0.056241654 -0.15918283 -0.02966015 0.24525054 0.90913987 0.33662552 0.015633969
0.048680641 -0.1579859 -0.022891663 -0.35455972 0.88366497 0.30565268 0.012367671
0.055836353 -0.15563761 -0.026175151 -0.38908404 0.87290442 0.29436621 0.012424517
0.065634295 -0.15351602 -0.025613384 -0.43114698 0.84515178 0.31596002 0.011643328
0.073539034 -0.15166286 -0.022442682 -0.42915624 0.845864 0.31676331 0.011065154
-0.11412305 -0.14078817 -0.020503791 0.56932932 0.7493493 0.33814162 0.013271663
-0.10367607 -0.14560337 -0.025000717 0.49643904 0.79016501 0.35942692 0.013230311
-0.09432663 -0.14548209 -0.024115691 0.45019731 0.82192403 0.34894601 0.012638682
0.0676338 -0.14659074 -0.027080789 -0.43054095 0.84641236 0.31340176 0.010320289
0.073107988 -0.14633992 -0.020872213 -0.46192661 0.82786828 0.31821054 0.012379383
-0.12626764 -0.1316379 -0.021792129 0.63819319 0.70145208 0.31729224 0.013716771
-0.11902145 -0.13535284 -0.025700573 0.59236407 0.73344171 0.33341894 0.016101269
-0.10082521 -0.13966236 -0.027811725 0.48848808 0.81186956 0.31976107 0.012932
0.083203085 -0.13849327 -0.027439805 -0.5374828 0.783692 0.31135044 0.01520804
0.094055213 -0.13337676 -0.02427675 -0.5945189 0.74577159 0.30061936 0.013379049
0.10023074 -0.13176593 -0.025656089 -0.60520923 0.73884869 0.2963517 0.01254373
-0.12424734 -0.12574156 -0.026658321 0.65668052 0.68393821 0.31780374 0.01322745
0.095807493 -0.12801303 -0.026312299 -0.59480709 0.74600101 0.2994777 0.012719069
0.10329028 -0.12441313 -0.023678655 -0.6173597 0.72695827 0.30066377 0.014162265
0.11072638 -0.12110193 -0.028090853 -0.68007386 0.67652667 0.28250873 0.013353379
-0.14314365 -0.11236358 -0.022828784 0.71700257 0.61172789 0.33421004 0.01168011
-0.13583387 -0.11550136 -0.024393952 0.71511728 0.62184483 0.31924316 0.010358106
-0.12712768 -0.11828485 -0.029449947 0.683182 0.654194 0.32448816 0.011721874
0.10846765 -0.11568077 -0.028168958 -0.68736559 0.66215295 0.29846609 0.013211098
0.11536532 -0.1134773 -0.025026107 -0.70745325 0.63328648 0.31378052 0.014041234
-0.14519452 -0.10532899 -0.025526935 0.72443062 0.61486328 0.3116785 0.012846473
0.12347534 -0.10519757 -0.026874557 -0.76012653 0.56061321 0.32851246 0.013288845
-0.15403983 -0.095492102 -0.022209279 0.78279126 0.52347839 0.33646443 0.014274688
-0.14658825 -0.098111853 -0.026877947 0.73725516 0.5820412 0.34304956 0.013395743
0.12827386 -0.09279374 -0.024262195 -0.79057914 0.50343454 0.34862354 0.011433908
0.13199854 -0.095442504 -0.026847426 -0.78746575 0.51424962 0.33977202 0.010931806
-0.16015564 -0.088466242 -0.02368588 0.8136692 0.46434057 0.34975731 0.011259316
-0.15451805 -0.08504355 -0.026610663 0.8101269 0.4886978 0.32383475 0.013258984
0.12858918 -0.089486204 -0.028465772 -0.80273956 0.49879962 0.32681519 0.010593335
0.13440035 -0.08415693 -0.026820835 -0.81695211 0.48057812 0.31880078 0.01066866
-0.16558161 -0.077197582 -0.024486829 0.82910711 0.42772955 0.3600401 0.013570217
0.1415707 -0.07282652 -0.023445781 -0.83989632 0.42620823 0.33603662 0.015993353
-0.17284895 -0.063443072 -0.023892131 0.86224133 0.36092186 0.35535225 0.013979279
-0.16678497 -0.065653831 -0.020838417 0.84066373 0.40246564 0.36236173 0.013136359
0.14499778 -0.065295726 -0.028559845 -0.86561978 0.36840826 0.33908376 0.015232302
0.1506464 -0.062769607 -0.023518158 -0.87164968 0.34485671 0.34828255 0.012282125
-0.17407198 -0.057021379 -0.026006049 0.89228451 0.29971808 0.3376351 0.016692188
0.14654925 -0.055735011 -0.025040684 -0.88054609 0.34043691 0.32975933 0.012538859
0.15199803 -0.054393634 -0.027067145 -0.89758652 0.290759 0.3313573 0.011779577
-0.17246725 -0.045201503 -0.028050736 0.91574329 0.24255551 0.32028282 0.012824762
0.14721641 -0.048489563 -0.029419154 -0.90852445 0.26285082 0.32479668 0.011391994
0.15616433 -0.045508888 -0.02370983 -0.90346026 0.24026072 0.3550131 0.012632295
-0.18025389 -0.039446376 -0.021801306 0.90649652 0.22278801 0.35864964 0.011735734
-0.17453483 -0.034011401 -0.025137879 0.92145723 0.19303769 0.33712453 0.012030509
0.15700422 -0.034003034 -0.026138587 -0.92300045 0.19987856 0.32881397 0.014061444
0.15639688 -0.024760649 -0.026258947 -0.93460637 0.11105232 0.33790284 0.014142339
0.1603684 -0.027028272 -0.025136584 -0.93516666 0.11462223 0.33514944 0.014297103
-0.1841301 -0.014978015 -0.02506371 0.93846899 0.079236723 0.336151 0.015563332
-0.17878947 -0.014669085 -0.024801923 0.93941957 0.070131615 0.33551815 0.015125129
0.15408486 -0.019616289 -0.028278152 -0.9416405 0.11011855 0.31809917 0.012661861
-0.18347129 -0.0049406886 -0.022879656 0.93660784 -0.027536878 0.34929579 0.015436589
-0.17927574 -0.0080597252 -0.023477167 0.94227439 0.035232034 0.33298308 0.017642876
0.15693887 -0.0066037718 -0.022303797 -0.94263613 0.057968315 0.32875022 0.010402521
0.1615243 -0.0066520097 -0.024846315 -0.93856913 0.061196245 0.33962175 0.010289759
-0.18414921 0.0095375013 -0.022757715 0.94246 -0.036155615 0.33235824 0.011862
-0.17810324 0.0035042665 -0.025055025 0.94962561 -0.027839607 0.31214777 0.011869266
0.15581211 0.0058974689 -0.027148753 -0.94425136 -0.0087309126 0.32910952 0.013742664
0.16230741 0.0059418632 -0.024478862 -0.93162799 0.00020235243 0.36341336 0.012014056
-0.18360305 0.010772751 -0.024077898 0.93349808 -0.059766844 0.35356647 0.013074584
-0.17689151 0.019137185 -0.026166674 0.93836778 -0.11578977 0.32566649 0.014879474
0.15692031 0.014470963 -0.024328323 -0.92772609 -0.097220339 0.36037827 0.011723822
0.1628823 0.012681397 -0.023333631 -0.91979158 -0.086986847 0.38264441 0.012156331
-0.17756426 0.023531698 -0.023706499 0.9328078 -0.15767755 0.3240484 0.014896896
0.15651284 0.027941043 -0.022956038 -0.91318047 -0.15860422 0.37542793 0.011525776
0.16135177 0.021949423 -0.02348173 -0.91670358 -0.12178921 0.38055471 0.011924856
-0.18068029 0.034352705 -0.026472295 0.92906713 -0.20754746 0.30619979 0.01377777
-0.17607933 0.037266258 -0.026066331 0.92405778 -0.23528287 0.30126268 0.011744585
0.15407608 0.03499531 -0.025449887 -0.90825403 -0.19029872 0.37264058 0.011148705
-0.17253014 0.044078778 -0.024533143 0.91107273 -0.26495954 0.3158209 0.011620488
-0.16888668 0.049244642 -0.029667612 0.90429223 -0.28925925 0.3139821 0.012243602
0.14775839 0.048963021 -0.029355792 -0.91343486 -0.24387175 0.325827 0.014793388
0.15330991 0.041072354 -0.022768872 -0.90291756 -0.23377858 0.36067644 0.009683772
-0.1730625 0.054829024 -0.025390765 0.90195191 -0.29587466 0.3145487 0.01201422
-0.16776545 0.059361417 -0.024048356 0.89066178 -0.32241833 0.32057458 0.011365362
0.14522681 0.058217183 -0.029000994 -0.89700812 -0.31771573 0.30729973 0.013069009
0.15298441 0.053912032 -0.027618323 -0.89447641 -0.30345204 0.32837281 0.015641339
-0.1710369 0.066217095 -0.024829192 0.88336706 -0.34097868 0.32155293 0.013158254
0.14598307 0.064601392 -0.026749026 -0.86653543 -0.35258368 0.35327214 0.01470961
0.15124375 0.064438716 -0.021663429 -0.87608135 -0.32564211 0.35558221 0.014165579
-0.16631348 0.074284725 -0.024591008 0.82375801 -0.44715145 0.34853727 0.01478695
-0.15939111 0.077176191 -0.026596665 0.82390505 -0.45140642 0.34265545 0.012695437
0.13705289 0.077858627 -0.024472967 -0.83912915 -0.43075493 0.33213311 0.010992053
0.14605746 0.071712665 -0.025254816 -0.85466546 -0.3975175 0.3339563 0.01117617
-0.16353664 0.080617703 -0.027033383 0.81486171 -0.47187498 0.33665177 0.011743315
-0.15312517 0.088620901 -0.023948392 0.79129595 -0.51238269 0.33363861 0.011782344
0.13645136 0.086081296 -0.023243247 -0.82130027 -0.46752849 0.32692966 0.010810193
0.14090735 0.082350127 -0.02456722 -0.8394649 -0.42758 0.33537149 0.011339375
-0.15430832 0.091675088 -0.024225038 0.79362869 -0.49619716 0.35205373 0.011285697
-0.14874248 0.09265697 -0.02801005 0.80845076 -0.49760795 0.31431475 0.0096881455
0.12645298 0.09506119 -0.02756905 -0.76506197 -0.56379461 0.31115246 0.014613974
0.13395861 0.096070848 -0.024238279 -0.79072553 -0.52139503 0.32078078 0.012575672
-0.15208644 0.1007781 -0.023316467 0.80021858 -0.50736141 0.31974134 0.010045892
-0.14746098 0.10446555 -0.023423957 0.79787594 -0.51322573 0.31621715 0.010892723
0.11918207 0.10277562 -0.029297097 -0.71843415 -0.60702413 0.33966768 0.011090658
0.1241938 0.1043798 -0.02622129 -0.73532069 -0.58980238 0.33382127 0.010898948
-0.13586424 0.1149082 -0.025894735 0.70111179 -0.63073117 0.33259654 0.014901486
0.10803337 0.11692151 -0.026019689 -0.67069137 -0.65028781 0.35678971 0.013075151
0.11609175 0.11578131 -0.023794649 -0.7157802 -0.60985345 0.34020194 0.0098943422
0.12023412 0.11059736 -0.027899187 -0.7230944 -0.60641408 0.33075118 0.01011005
-0.13580148 0.12014008 -0.024423674 0.6737389 -0.66149193 0.3294 0.013270317
-0.12477448 0.12703429 -0.025601221 0.59599143 -0.72518736 0.34481514 0.010983423
0.10752119 0.12451975 -0.02390122 -0.63899064 -0.67860854 0.36218968 0.012077357
0.11260173 0.12322739 -0.02025011 -0.66993225 -0.65593141 0.34777105 0.013283763
-0.11440341 0.13535708 -0.021411011 0.53523725 -0.76714057 0.35357669 0.009705645
-0.10394575 0.13906638 -0.027620738 0.51186478 -0.79702789 0.32053241 0.012869472
0.083949625 0.13790628 -0.024197888 -0.49669975 -0.80345351 0.32825562 0.01214943
0.095830992 0.13658121 -0.024635037 -0.56668955 -0.75206453 0.33654422 0.014729144
0.10167376 0.13116679 -0.02791249 -0.59734112 -0.73231494 0.32695302 0.013480494
-0.11308388 0.14156687 -0.022520794 0.50476289 -0.78971034 0.34867179 0.013788496
-0.10303787 0.14438333 -0.025842234 0.48529541 -0.81129152 0.32602829 0.013444431
-0.094420627 0.14659905 -0.021109078 0.45057946 -0.82892197 0.33146119 0.010588112
-0.088077545 0.14835103 -0.024737418 0.43757159 -0.8313871 0.34252974 0.0096996818
0.077311359 0.14729223 -0.024587365 -0.51224095 -0.8041802 0.3015019 0.011048075
0.082933135 0.14626083 -0.02160063 -0.48411766 -0.80806047 0.33566123 0.010895068
-0.096253559 0.15121317 -0.02266226 0.43518874 -0.83782089 0.32964674 0.010250792
-0.085881017 0.15517379 -0.025922114 0.43703222 -0.83444977 0.33570281 0.0095915925
-0.07800281 0.15236145 -0.027504692 0.44252732 -0.83445215 0.32841918 0.0089300014
-0.061896719 0.15898389 -0.027662195 0.27668214 -0.89886397 0.33983895 0.012825543
0.043602243 0.15716965 -0.026995366 -0.31841385 -0.89739686 0.3054364 0.012761222
0.055656798 0.15602735 -0.02734261 -0.37550616 -0.88515788 0.27475581 0.01074489
0.063629732 0.15149118 -0.023244739 -0.41045716 -0.85881621 0.30652842 0.012533112
-0.074272759 0.16201347 -0.023696821 0.36819217 -0.86344767 0.34480813 0.013373925
-0.064042643 0.16578336 -0.0233123 0.29168293 -0.88982493 0.35090268 0.012323819
-0.056330863 0.16589808 -0.027415855 0.24696735 -0.90987515 0.33336827 0.013569115
-0.045137215 0.16495819 -0.025015216 0.18826005 -0.92030573 0.34292224 0.012260156
-0.036433518 0.16674221 -0.021439932 0.16107737 -0.92590863 0.34168306 0.012458401
-0.02771847 0.16769969 -0.023859268 0.10817289 -0.93663192 0.33319539 0.011892403
-0.012505434 0.16751607 -0.02461678 0.015120611 -0.94864255 0.31598836 0.010813383
-0.0056281299 0.16695535 -0.025181487 -0.048035976 -0.94841796 0.31336227 0.010590069
0.017394518 0.16744603 -0.020593761 -0.18905447 -0.92657536 0.32514074 0.01392429
0.023697469 0.1664312 -0.027209897 -0.19979577 -0.92805398 0.31432068 0.014217583
0.037765995 0.16382226 -0.024647573 -0.2942622 -0.89724797 0.3291744 0.012924154
0.04766126 0.16245015 -0.024900939 -0.33132732 -0.89160985 0.30863252 0.012362335
-0.040963154 0.1701812 -0.024730146 0.17278352 -0.92219031 0.34599265 0.012086792
-0.03550715 0.17128354 -0.024897408 0.15241779 -0.92973834 0.33519462 0.012974055
-0.028709978 0.17278548 -0.024761127 0.10817468 -0.93662769 0.33320671 0.011910283
-0.011872746 0.17308539 -0.024385059 0.016006637 -0.9447962 0.3272672 0.010800922
-0.0034863497 0.17344564 -0.022217259 -0.05720637 -0.95017195 0.30643234 0.010541197
0.00093462958 0.1711098 -0.027984977 -0.049469013 -0.94559187 0.32157248 0.011562006
0.01838048 0.17196411 -0.023188353 -0.1890582 -0.92657256 0.32514659 0.013931766
0.025126135 0.17103341 -0.021556545 -0.22277583 -0.92370558 0.31167141 0.012981375
-0.063178837 -0.17014264 -0.010333826 0.29515809 0.89163393 0.34332278 0.012489687
-0.056853678 -0.17028025 -0.015315356 0.25973687 0.89893645 0.35277471 0.015035319
-0.044403952 -0.17350817 -0.01690443 0.15811537 0.91502178 0.37112612 0.014425572
-0.031833176 -0.17057276 -0.013106318 0.077820145 0.93584245 0.34371924 0.012902083
-0.023235217 -0.1741581 -0.013565846 0.054514337 0.93807638 0.34211242 0.013630259
-0.015722821 -0.17212383 -0.014152549 0.054054413 0.93278837 0.3563481 0.01375042
-0.004868424 -0.17396744 -0.015167002 -0.0037915467 0.94056147 0.33960232 0.016117584
0.0049489923 -0.17656329 -0.015640799 -0.069127269 0.94398373 0.32267034 0.012871939
0.018592633 -0.17512801 -0.011682522 -0.18220244 0.93236452 0.31224772 0.012241738
0.031271785 -0.17290916 -0.010375287 -0.23109536 0.90748489 0.35080773 0.010934655
-0.08564049 -0.16099024 -0.015223658 0.39554185 0.85045463 0.34680471 0.013579039
-0.076342329 -0.16364774 -0.016147682 0.35212678 0.87332195 0.33662382 0.013788177
-0.065032713 -0.1638021 -0.015230444 0.28820574 0.90014875 0.32660317 0.012541656
-0.056571245 -0.16482535 -0.014675752 0.25071096 0.90370947 0.34706378 0.014313644
-0.041001007 -0.16884197 -0.016549492 0.14870219 0.91784453 0.36803406 0.013700743
-0.036562338 -0.16924876 -0.016062202 0.12057538 0.92174894 0.36856535 0.012562249
-0.024588417 -0.16910093 -0.018154494 0.06761536 0.93670177 0.34353748 0.011734903
-0.0071161301 -0.16962288 -0.019189401 0.036882881 0.9404754 0.33785456 0.011969247
0.011249304 -0.1698284 -0.014986795 -0.12399415 0.94119591 0.31428605 0.01458776
0.025652446 -0.16922396 -0.015915522 -0.24543267 0.91752142 0.31291723 0.010801159
0.037815008 -0.16459282 -0.013819381 -0.26393554 0.89528173 0.35889921 0.012294061
0.044461466 -0.16451007 -0.013654254 -0.33526051 0.88222045 0.33058646 0.011779845
0.052533794 -0.16002867 -0.013106674 -0.38264623 0.86696422 0.31930357 0.011631019
-0.10269733 -0.15177575 -0.012268848 0.47206929 0.81237549 0.3423399 0.011002115
-0.094549954 -0.1560151 -0.014662996 0.44685897 0.82175136 0.35361236 0.011418777
-0.082982853 -0.1556444 -0.016256796 0.40525597 0.84817243 0.34113207 0.013079206
-0.074769706 -0.15814914 -0.016711187 0.35133168 0.87050033 0.34466672 0.014936203
0.052364804 -0.15730125 -0.019971959 -0.36042288 0.87662184 0.31879383 0.010533387
0.065207027 -0.15496045 -0.014714442 -0.40127176 0.85664308 0.32425871 0.0098527828
-0.11385506 -0.14332139 -0.015079273 0.53726482 0.77085793 0.34223461 0.013427368
-0.10957306 -0.14510047 -0.017369738 0.51445049 0.77733094 0.36207342 0.012835986
-0.098871171 -0.14563191 -0.016999535 0.47494605 0.80845791 0.34759462 0.012686327
0.083794579 -0.14241326 -0.017138263 -0.53864491 0.78235984 0.3126896 0.01385185
0.092519194 -0.14329958 -0.016343424 -0.55479461 0.75582081 0.34776136 0.014162185
-0.12591332 -0.13353138 -0.015129056 0.64235526 0.69524789 0.32250595 0.012057738
-0.1149753 -0.13645433 -0.017875921 0.58893168 0.72960401 0.34761706 0.01531868
0.097392581 -0.13106689 -0.017191079 -0.59832406 0.73355299 0.32234833 0.012867735
0.10296857 -0.13256884 -0.018998852 -0.61732012 0.72414297 0.30746198 0.013192276
-0.13571464 -0.12070403 -0.015089687 0.69210136 0.64875418 0.31640741 0.011076741
-0.12716432 -0.12694989 -0.013475212 0.67881221 0.67258072 0.2947019 0.010400767
0.10227367 -0.12797081 -0.014532806 -0.60393405 0.72694224 0.32683137 0.012788419
0.11944615 -0.12020388 -0.013917122 -0.65123695 0.68463373 0.32736388 0.012695281
-0.13584585 -0.11521612 -0.017345374 0.69806397 0.63391489 0.3329545 0.010864262
0.11430321 -0.11563389 -0.017556164 -0.67398918 0.65338433 0.3447136 0.013400794
0.12257995 -0.11701766 -0.014617596 -0.70472896 0.6265164 0.33291787 0.012983781
-0.15590258 -0.10191053 -0.016053988 0.7540251 0.5615558 0.34073609 0.014846895
-0.14722128 -0.10722534 -0.013898708 0.70822793 0.61749911 0.34221056 0.01312157
0.12559105 -0.10310256 -0.015068911 -0.7754969 0.52702147 0.34763905 0.011633988
-0.16189677 -0.094412282 -0.012029292 0.78785455 0.50642133 0.3504605 0.014131398
-0.15181735 -0.098485559 -0.015554464 0.76080507 0.55696046 0.33312255 0.015083885
0.13342722 -0.09357667 -0.016279772 -0.79551631 0.50485945 0.33506835 0.011328964
-0.16745088 -0.08372885 -0.011788389 0.8231492 0.44070104 0.35806125 0.013526342
-0.15548235 -0.088688239 -0.01971679 0.80497456 0.48464537 0.34224981 0.013678685
0.13995323 -0.080854222 -0.015202407 -0.80198079 0.46325356 0.37712449 0.013700191
0.1436135 -0.084491752 -0.016462458 -0.79465324 0.4797405 0.37198836 0.01292751
-0.17216292 -0.070574746 -0.01668041 0.84387445 0.38556919 0.37311175 0.012368474
-0.16515562 -0.073677406 -0.014817113 0.82741845 0.43273345 0.35793936 0.011320709
0.14890394 -0.074250326 -0.018366598 -0.83400154 0.42741367 0.34893972 0.013849564
-0.17450915 -0.065681666 -0.017052239 0.84732246 0.38393694 0.36692923 0.013405311
-0.1666254 -0.069862768 -0.015983757 0.83542746 0.39031866 0.38692674 0.011838815
0.14667033 -0.067136027 -0.015099391 -0.85516793 0.37777266 0.35493043 0.012044328
0.1519836 -0.067412689 -0.016112972 -0.85855907 0.37184176 0.35300151 0.012668979
-0.18039146 -0.05231078 -0.014074605 0.90058333 0.25097555 0.35490969 0.013569362
-0.17226739 -0.054943345 -0.019240318 0.89941788 0.25749448 0.35319126 0.014084921
0.14770192 -0.059301376 -0.019025426 -0.88020402 0.33231646 0.33883134 0.011498588
-0.18008958 -0.046350155 -0.018292766 0.90955746 0.24827211 0.33326605 0.013034859
0.15569216 -0.042967826 -0.019538287 -0.90340537 0.24485189 0.35200316 0.012312069
-0.18226388 -0.035168149 -0.018863074 0.92398381 0.18635835 0.33395264 0.012029896
-0.17841506 -0.033748794 -0.014891832 0.91303557 0.1807023 0.36566758 0.01205801
0.15785126 -0.033857442 -0.013906797 -0.92292494 0.18181694 0.33934075 0.01412276
0.16355835 -0.035054885 -0.013265056 -0.91559589 0.19806764 0.34993336 0.015366418
-0.18495834 -0.024402596 -0.017801538 0.92870569 0.12396971 0.34948137 0.014302015
-0.17925659 -0.026278131 -0.01691021 0.92668635 0.16266626 0.33881003 0.013494565
0.15839413 -0.024247402 -0.015835121 -0.93075871 0.12669839 0.3429808 0.01210159
-0.18777186 -0.014456562 -0.015952269 0.93627065 0.090921074 0.33930901 0.016913295
0.15869999 -0.019526282 -0.015663726 -0.93903118 0.07639046 0.33523864 0.010463924
0.16542955 -0.017543769 -0.012626219 -0.93980694 0.053092759 0.33755615 0.011292357
-0.18702337 -0.0021334274 -0.016539104 0.93093121 -0.027137104 0.36418501 0.014245299
0.1632567 -0.0028141532 -0.015615703 -0.94011891 0.056729421 0.33609259 0.010929958
-0.18428257 0.0058889138 -0.013850148 0.92787629 -0.055196121 0.36878029 0.013778663
0.15867606 0.00041697716 -0.01854044 -0.94218194 0.033401243 0.33343294 0.011272821
0.162982 0.0049153483 -0.014940985 -0.93792003 0.041449662 0.34436601 0.011009203
-0.18468902 0.017416047 -0.016396463 0.93787056 -0.061812121 0.34143543 0.01316725
0.16497192 0.016328823 -0.016997192 -0.93241483 -0.099109098 0.34753421 0.012161531
-0.18408698 0.024682542 -0.01324558 0.92391455 -0.15939721 0.34781384 0.012631002
0.16447347 0.022964595 -0.014537156 -0.9243803 -0.14729942 0.35188639 0.012194529
-0.18464278 0.031495471 -0.018129244 0.92480445 -0.16779558 0.34144017 0.013328603
-0.17731377 0.038891688 -0.016444923 0.9183709 -0.23103772 0.32127336 0.010963332
0.15561028 0.0362009 -0.015618172 -0.91052794 -0.21312219 0.35428485 0.0099870637
0.16311152 0.032851696 -0.01253103 -0.91307288 -0.20433953 0.35290685 0.0095894607
-0.18177438 0.042955715 -0.016483275 0.91614133 -0.22724898 0.33021659 0.01248216
-0.17519231 0.046761055 -0.015330046 0.91034979 -0.2489056 0.33061948 0.012201764
0.15601531 0.043090396 -0.018139929 -0.90219921 -0.22177418 0.36993617 0.0087456303
0.16029927 0.042743929 -0.014407691 -0.9110896 -0.21632525 0.35088307 0.0096594067
-0.17484169 0.05419274 -0.014497988 0.8955906 -0.27719429 0.34796667 0.011116586
0.15347861 0.055288211 -0.015282717 -0.87631875 -0.27293086 0.39695618 0.01218632
-0.17429629 0.064322159 -0.014160186 0.88766676 -0.28888828 0.35859624 0.011262227
-0.16827631 0.066871583 -0.01637616 0.87681782 -0.32835004 0.35125029 0.012479462
0.1529804 0.063713104 -0.013298538 -0.86322302 -0.34298149 0.37041852 0.013838149
-0.17221396 0.075490586 -0.013425092 0.84732336 -0.38945958 0.36106014 0.015395268
-0.1654138 0.075860903 -0.014597167 0.81540364 -0.44441751 0.37095806 0.013993155
0.14290857 0.075570166 -0.013036743 -0.82719612 -0.42586124 0.36659095 0.0092947148
0.15115032 0.071788989 -0.012733439 -0.83945799 -0.39719674 0.37087074 0.011076021
-0.16190583 0.086555034 -0.014387771 0.79120761 -0.48977807 0.36620736 0.011037629
0.14280444 0.083622098 -0.018353628 -0.82693607 -0.44228497 0.34721848 0.010627434
-0.15177593 0.093524829 -0.019743012 0.78272539 -0.50527722 0.36336735 0.0099934042
-0.14902504 0.098120898 -0.019218728 0.78830296 -0.51009023 0.34407333 0.010263533
0.13436636 0.094436504 -0.014892961 -0.79529762 -0.50424105 0.33651528 0.0098350132
-0.15097918 0.10107042 -0.010331174 0.77961075 -0.52732348 0.33784166 0.011019712
-0.14602618 0.10725434 -0.015522502 0.77035421 -0.54218882 0.33553776 0.013350676
0.12570214 0.10689525 -0.016021151 -0.74307764 -0.58469576 0.32552502 0.011001052
0.13384137 0.10041642 -0.018899398 -0.78980899 -0.5220843 0.32191581 0.012716834
-0.14439985 0.11632131 -0.01641435 0.73418504 -0.59705251 0.32326537 0.015175252
-0.13970023 0.11956885 -0.018431559 0.69540566 -0.63512427 0.33619645 0.015118334
0.1137335 0.11658823 -0.015035249 -0.6915499 -0.63092959 0.3516911 0.012878061
0.12305582 0.1140953 -0.015740296 -0.72507185 -0.60633838 0.32653439 0.0095884353
-0.14089467 0.12045088 -0.014445394 0.7005136 -0.63406867 0.32747158 0.014026615
-0.13484485 0.12613772 -0.013977833 0.64545113 -0.69075555 0.32595968 0.011270095
-0.12572975 0.12810922 -0.01662981 0.62621939 -0.70157105 0.34006971 0.010675093
0.10439125 0.12925348 -0.01834761 -0.60518825 -0.71165693 0.35677955 0.012177106
0.1144378 0.12422194 -0.014689943 -0.67044514 -0.65787995 0.34307036 0.012336395
-0.12487389 0.13311361 -0.015926693 0.59276694 -0.73797596 0.32251948 0.0095982682
-0.11728743 0.13606803 -0.015930478 0.56585509 -0.75084901 0.34063745 0.010725467
0.093852304 0.13499378 -0.016137846 -0.55765641 -0.75121009 0.35313275 0.014060785
0.10568509 0.13505523 -0.012314328 -0.60708016 -0.71932095 0.33768478 0.014466139
-0.1197302 0.1405738 -0.012345197 0.54436558 -0.76741707 0.33872879 0.010277514
-0.10563807 0.14766347 -0.013592856 0.48803943 -0.80506659 0.33717245 0.013048906
-0.097471848 0.1456773 -0.019556511 0.45611238 -0.8276366 0.32707661 0.01088184
0.07689482 0.14669785 -0.014498482 -0.46193591 -0.82213324 0.33273438 0.010803732
0.08180961 0.14414823 -0.013036555 -0.47299567 -0.8138864 0.3374373 0.010182966
0.094110355 0.14328539 -0.011786117 -0.49215403 -0.80192852 0.33866674 0.0099170813
-0.093687177 0.1544472 -0.014195247 0.44428632 -0.82718414 0.34405828 0.0099931983
-0.087793611 0.15561777 -0.01742419 0.42486417 -0.83534092 0.34884953 0.010495057
0.059293061 0.15833226 -0.010717703 -0.3923679 -0.85018432 0.35104698 0.011735875
0.066861026 0.15320148 -0.014497961 -0.43965739 -0.83846521 0.32198995 0.011295094
0.07237488 0.15131392 -0.010621315 -0.46361977 -0.81706184 0.34273404 0.011386266
-0.085659765 0.16042997 -0.013373014 0.44431999 -0.82516086 0.34883997 0.0089778556
-0.075506739 0.16285829 -0.012550528 0.37746856 -0.86229664 0.33758262 0.012807936
-0.067066588 0.16511996 -0.015726877 0.30730897 -0.8858099 0.3477098 0.011414248
-0.054632626 0.16561377 -0.014053917 0.19703695 -0.92743951 0.31785598 0.011764786
-0.049833313 0.16583362 -0.016209928 0.19392209 -0.92784882 0.31857595 0.012042769
-0.034450728 0.16978708 -0.014415987 0.14289401 -0.92949736 0.34002364 0.013647789
0.0011976049 0.16994306 -0.016044956 -0.071209177 -0.9519971 0.29770926 0.011013627
0.014898216 0.16931483 -0.015832618 -0.15046765 -0.93474102 0.32189873 0.012754736
0.023236418 0.16834301 -0.015068922 -0.21785961 -0.92485362 0.31174183 0.011818707
0.035205729 0.16520195 -0.013149931 -0.28376082 -0.90689182 0.31149161 0.013216034
0.043465424 0.16606151 -0.0139995 -0.29998299 -0.89782649 0.32236293 0.012509073
-0.061403587 0.17016055 -0.013094071 0.25210574 -0.91336912 0.31968671 0.013243452
-0.053017568 0.17061862 -0.016663343 0.19694591 -0.92478025 0.32556707 0.01312258
-0.044299502 0.17197478 -0.018016404 0.18951659 -0.92174941 0.3383216 0.012839255
-0.032559626 0.17659089 -0.012363487 0.14516036 -0.92940795 0.3393071 0.014562778
-0.024655411 0.17595585 -0.012433198 0.081185415 -0.93472123 0.34598419 0.014046296
-0.010591469 0.17740455 -0.012387106 -0.023383491 -0.9388867 0.34343123 0.012801517
0.0034464218 0.17597964 -0.014306938 -0.073922366 -0.95064229 0.3013548 0.012428401
0.014636082 0.17285244 -0.016254017 -0.15316956 -0.93465126 0.32088324 0.01279437
0.027130399 0.17234147 -0.016455207 -0.20740403 -0.92384702 0.3216989 0.013791602
-0.025672676 -0.18063052 -0.0017197591 0.06585826 0.93390131 0.35141289 0.0094924811
-0.0165613 -0.18101351 -0.0019480709 0.077464893 0.93020487 0.35877305 0.010445932
-0.0051346417 -0.18143678 -0.0023850836 -0.058647867 0.94262964 0.32864851 0.014209052
0.0061046425 -0.1808729 -0.0035363212 -0.07853917 0.94104803 0.32902911 0.013629803
-0.070699885 -0.17029369 -0.0036879056 0.32989302 0.88554895 0.32706824 0.011046141
-0.064207546 -0.17111753 -0.0069672191 0.29165578 0.89275748 0.34339643 0.012894325
-0.054314978 -0.17393474 -0.0042232806 0.24129404 0.91157913 0.33286732 0.01502203
-0.044687334 -0.1750897 -0.0038164735 0.16151027 0.91977578 0.35766888 0.012900355
-0.038562544 -0.17491749 -0.0033802234 0.13179271 0.92701513 0.35110354 0.013877863
-0.025261318 -0.17745896 -0.0052813441 0.057688043 0.93115675 0.36002675 0.011072175
-0.014689736 -0.17522594 -0.005835644 0.048898414 0.93065411 0.36261791 0.013438735
-0.0072930651 -0.17372265 -0.0079473481 0.0010453793 0.936921 0.34953955 0.015057676
0.0053760712 -0.17437391 -0.0058803642 -0.083986625 0.94007152 0.33047211 0.013716689
0.014249536 -0.17551634 -0.0071203075 -0.14071582 0.92725301 0.34698838 0.0140901
0.025207972 -0.17567067 -0.0035326413 -0.20549457 0.92499799 0.31961024 0.012987545
0.043124247 -0.17332077 -0.002628698 -0.29175881 0.89855397 0.32783765 0.011568034
-0.092111558 -0.16145089 -0.0058595743 0.4195343 0.84764594 0.32478815 0.011699708
-0.083783582 -0.16444705 -0.0077818725 0.37039402 0.86937243 0.32710829 0.015538676
-0.07711859 -0.16451479 -0.0032396868 0.34822592 0.88556802 0.30742151 0.012583595
-0.061972614 -0.16682018 -0.004950868 0.29662049 0.89130491 0.34291673 0.013387049
-0.05621488 -0.16827521 -0.0060111322 0.25779167 0.8999213 0.35168895 0.014720334
0.037919182 -0.16777611 -0.0052732131 -0.27180913 0.90418893 0.32948777 0.013311738
0.04555466 -0.16618288 -0.0049063577 -0.32026166 0.8813799 0.34727794 0.010439156
0.054477256 -0.16393992 -0.0072010187 -0.3704538 0.85612082 0.36030686 0.0097516356
-0.11194865 -0.15083015 -0.00085649034 0.5117889 0.80426133 0.30205271 0.011197612
-0.094339341 -0.15533213 -0.0065404065 0.45097861 0.83845538 0.30595869 0.012317774
-0.084856085 -0.15929617 -0.0052059046 0.4089826 0.85344321 0.32306021 0.014334469
0.06719394 -0.15652508 -0.0034525171 -0.41763365 0.83941495 0.34779981 0.010029847
0.075232692 -0.15714933 -0.0044987178 -0.41854066 0.84591866 0.33052284 0.01085704
0.084251523 -0.15300778 -0.0058530108 -0.50206417 0.78311104 0.36697224 0.014832553
-0.12185375 -0.14406273 -0.0016275786 0.57505429 0.7585752 0.30639225 0.012600204
-0.11193966 -0.14810285 -0.0069675548 0.51217806 0.8014552 0.30877686 0.012499832
-0.10804506 -0.14470933 -0.0054964735 0.50586563 0.80059874 0.3211565 0.011998464
0.083709158 -0.14687586 -0.0063561322 -0.52059364 0.77984869 0.34758928 0.014464959
0.094127692 -0.14699794 -0.0057544461 -0.52886456 0.76552445 0.36643511 0.014393292
-0.13405108 -0.13228691 -0.0048240358 0.66663158 0.65956843 0.34723449 0.0092670275
-0.12318364 -0.13478075 -0.0055068578 0.62980211 0.69669986 0.3434512 0.012211639
-0.11822887 -0.13884372 -0.0038229355 0.57231665 0.75282884 0.32511917 0.012980464
0.098652832 -0.13509238 -0.0066892458 -0.59939289 0.70978445 0.3700462 0.011633815
0.10524243 -0.13258052 -0.0047797398 -0.61906481 0.70294118 0.35018933 0.0109958
0.11119445 -0.13161598 -0.0058628814 -0.64899337 0.67977619 0.34163132 0.011776183
-0.13366356 -0.12609369 -0.0049114339 0.67676854 0.6467551 0.35169911 0.0095981043
0.10717191 -0.12659027 -0.0083530769 -0.63594782 0.69673288 0.33186382 0.011517566
0.11615079 -0.12464982 -0.0059441221 -0.64854509 0.68167222 0.33869198 0.0111767
-0.15014309 -0.11554383 -0.0028804136 0.68967599 0.62853426 0.35957161 0.010163231
-0.14446788 -0.11302038 -0.0038809823 0.69236112 0.62343526 0.3632693 0.010697072
-0.13973728 -0.11711383 -0.0059466977 0.69383734 0.63335532 0.34271103 0.011308851
0.11852731 -0.11695387 -0.0071197487 -0.67053151 0.66254336 0.33380201 0.01258088
0.12615982 -0.11579332 -0.0056119692 -0.71370405 0.61020499 0.34391335 0.012969486
0.13129503 -0.11162582 -0.0044424236 -0.75985634 0.55250561 0.34257236 0.013796264
-0.15323859 -0.10089874 -0.0082349991 0.73806328 0.58031619 0.34423211 0.014165295
-0.14868848 -0.10848658 -0.0036039944 0.71304524 0.59475505 0.37125859 0.01346971
0.12576161 -0.10770062 -0.0078253234 -0.7629562 0.54454601 0.34837836 0.012734677
0.13582066 -0.10420907 -0.0050634025 -0.78537267 0.50874513 0.35265884 0.010607305
-0.16552547 -0.093204044 -0.0047411076 0.79554999 0.48842072 0.35853234 0.014505235
-0.15746094 -0.097643949 -0.0037978322 0.76036185 0.54395068 0.35491905 0.015591211
0.13461503 -0.098619319 -0.0085508907 -0.77871913 0.52027607 0.35058424 0.011464003
0.14305425 -0.093724154 -0.0040841401 -0.79331064 0.49069136 0.36038902 0.011971321
-0.17001721 -0.087287165 -0.0012772135 0.83014244 0.44639197 0.33406246 0.013016952
-0.16470398 -0.083418824 -0.0038250599 0.81834143 0.44967297 0.35792688 0.013879673
0.1394805 -0.089240387 -0.0038214955 -0.80415004 0.47705275 0.35463148 0.011478361
0.14377226 -0.083817825 -0.0058085993 -0.80567384 0.48206562 0.3442418 0.011478024
-0.17419086 -0.073796727 -0.0027944727 0.85466611 0.40851834 0.32040381 0.013146476
0.14670153 -0.077058367 -0.0053458712 -0.84022218 0.40857759 0.35649842 0.013467604
0.15268506 -0.079235598 -0.0034701882 -0.84960508 0.42070761 0.31808227 0.013754751
-0.18249571 -0.063631006 -0.00033797091 0.88444608 0.34705988 0.31193691 0.012752386
-0.17558169 -0.063590623 -0.0057566562 0.87512517 0.34578967 0.33850476 0.012752467
0.15421274 -0.064633854 -0.0062015248 -0.86665499 0.36023903 0.34516218 0.012687729
-0.18303962 -0.054430936 -0.0058091814 0.90502739 0.2664333 0.33157015 0.013606145
-0.17575711 -0.056187712 -0.0091787269 0.88063681 0.31943768 0.34991205 0.013580975
0.15689629 -0.053826779 -0.0047459765 -0.90150958 0.29177961 0.31960133 0.011172679
-0.18302774 -0.043857649 -0.0043714228 0.92479867 0.20352159 0.32144427 0.011533352
0.15652236 -0.047447313 -0.0060528344 -0.90313768 0.26196322 0.34017307 0.012745022
0.16249987 -0.046740361 -0.0061919927 -0.91133428 0.23893829 0.33522886 0.012505139
-0.18443529 -0.034971654 -0.00417824 0.92121977 0.18487486 0.34230891 0.011560327
0.1659798 -0.033693098 -0.0036005026 -0.93853492 0.16639063 0.30243412 0.012580785
-0.19087395 -0.025945812 -0.0012540077 0.9362489 0.14266188 0.32106954 0.012224072
-0.18415038 -0.024500832 -0.0048149843 0.93141204 0.12903862 0.34032425 0.01208474
0.16399795 -0.025716821 -0.0041475734 -0.94012177 0.11103344 0.32224637 0.012149862
-0.1923029 -0.012336083 -0.0036321052 0.93080288 0.057261851 0.36100841 0.013950565
-0.18640067 -0.012232099 -0.0045727533 0.93118107 0.054923803 0.36039588 0.014632342
0.1636838 -0.016048338 -0.0025906072 -0.94063902 0.061621983 0.33376783 0.01286581
-0.19109923 -0.0066969888 -0.0060623167 0.93470079 0.047590271 0.35223502 0.014514644
-0.18513781 -0.0051617944 -0.0070370561 0.94198793 0.033145193 0.33400607 0.014358606
0.16744971 -0.0058774427 -0.005034633 -0.93885392 0.058889836 0.33924237 0.011685148
0.17055441 -0.002944161 -0.00086131273 -0.94936401 0.059632797 0.30846691 0.0091524059
-0.18380012 0.0058794925 -0.0091333985 0.93386436 -0.057652816 0.35294992 0.011747892
0.16532527 0.002947039 -0.0045499732 -0.94919717 0.034616552 0.31277195 0.011826797
-0.19121903 0.013403794 -0.0029921909 0.94862854 -0.075762033 0.30718732 0.010638929
-0.18575118 0.016468024 -0.0060801874 0.93943053 -0.10373178 0.32666487 0.011344266
0.16309935 0.015368141 -0.0074687367 -0.93678999 -0.085438214 0.33930048 0.012794776
-0.18678576 0.025619559 -0.005766761 0.92959529 -0.17300141 0.32545823 0.012416098
0.166043 0.022037962 -0.0058677769 -0.93087798 -0.13805284 0.33824182 0.012745732
-0.18432634 0.03523339 -0.0050693098 0.92146248 -0.1911815 0.33816648 0.013883603
0.16424175 0.03391904 -0.003318408 -0.91891313 -0.20316882 0.33811399 0.010808864
-0.18284962 0.04509598 -0.0043673641 0.90750682 -0.24419601 0.34175959 0.01100557
-0.17966048 0.044871509 -0.0052831052 0.90347433 -0.24964178 0.34844378 0.011484961
0.15761596 0.04248615 -0.0066658193 -0.91374403 -0.21130782 0.3470172 0.010415695
0.16394469 0.042688921 -0.0047324169 -0.91688812 -0.2182873 0.33416596 0.010318273
-0.1832955 0.052638128 -0.0044156839 0.91463906 -0.25081232 0.31706241 0.0101717
-0.17865466 0.050959699 -0.0028377692 0.91463816 -0.25081617 0.31706208 0.01017068
0.15635943 0.05777853 -0.0086341826 -0.89598787 -0.28086841 0.3439748 0.012994499
0.16106722 0.054941937 -0.0054093581 -0.89697206 -0.27637318 0.34504929 0.014134474
-0.17670275 0.065634929 -0.0055629243 0.8815394 -0.29925811 0.36514774 0.011354836
0.14944813 0.065770164 -0.0092908032 -0.863455 -0.35524502 0.35811487 0.012126632
0.15816005 0.066672251 -0.0021576793 -0.87857592 -0.35540161 0.31905165 0.013561934
-0.17395829 0.072976418 -0.0064817402 0.87189317 -0.33898303 0.35340172 0.013383357
0.14630944 0.073669463 -0.0071076439 -0.83553964 -0.42223486 0.35155541 0.011369324
0.15411301 0.072975464 -0.0041274573 -0.84667379 -0.40599573 0.34396353 0.013042934
-0.17105944 0.085328311 -0.0028470722 0.80750698 -0.47986764 0.34301525 0.013676244
-0.16464648 0.084703311 -0.0063441088 0.79545176 -0.49408385 0.35090968 0.012383332
0.13990223 0.085989177 -0.0073904432 -0.80803066 -0.48679316 0.33184165 0.010385224
0.14519459 0.086241066 -0.0043107318 -0.80850399 -0.48986921 0.32611269 0.011679931
0.15095538 0.080752239 -0.0021926507 -0.83261418 -0.44527155 0.32937354 0.010812252
-0.16499001 0.093625233 -0.0043889116 0.77258211 -0.52157962 0.36203802 0.01100901
-0.15676923 0.094138443 -0.0073491423 0.78180957 -0.5281167 0.3314614 0.010978854
0.13836077 0.096901923 -0.0051239626 -0.7962836 -0.51893508 0.31086782 0.010027802
0.14228128 0.094147287 -0.0065475455 -0.80612093 -0.49487352 0.32445219 0.011064552
-0.15464443 0.10581568 -0.002489866 0.7793771 -0.51641148 0.35481048 0.012072598
-0.14705165 0.1096918 -0.0065139104 0.76613426 -0.54307973 0.34366059 0.013597827
0.12635534 0.10773695 -0.0056119338 -0.75397342 -0.58174634 0.30511498 0.0088138049
0.13436799 0.10235589 -0.0040570572 -0.76579076 -0.55604339 0.32307917 0.010281726
-0.15192223 0.11319356 -0.0052602603 0.76147658 -0.55915815 0.32786509 0.012360857
-0.14246874 0.11788844 -0.0017762457 0.7052483 -0.63190031 0.32144475 0.014435563
-0.13947339 0.11793858 -0.0070691472 0.68321812 -0.64243859 0.34711051 0.015188403
0.12438551 0.11481042 -0.0042416463 -0.73332322 -0.60341483 0.31325343 0.0083307568
-0.14585347 0.12051393 -0.0052592577 0.70863843 -0.61970127 0.33734557 0.016046196
-0.13598585 0.12923621 -0.0056096897 0.62676233 -0.70247298 0.33719543 0.011289693
-0.12496334 0.12992512 -0.0093102958 0.61105591 -0.72463232 0.31861994 0.011338408
0.11475754 0.12141521 -0.0041125407 -0.68866354 -0.64460248 0.33200914 0.01130853
0.12168191 0.1225799 -0.0030853637 -0.71612674 -0.62422746 0.31225389 0.0097260308
-0.13457099 0.13156746 -0.0035374896 0.6289891 -0.6990872 0.34007317 0.010575545
-0.12592408 0.13524951 -0.0028453819 0.60683191 -0.72622508 0.32303575 0.010923491
-0.11799081 0.1383855 -0.0049665659 0.55136788 -0.7669605 0.32827586 0.013406038
0.094626784 0.1376892 -0.0087870583 -0.54976511 -0.76805288 0.32841018 0.014749384
0.10651394 0.13305697 -0.0033572456 -0.61539513 -0.71113551 0.33996341 0.013194229
0.11233033 0.13382345 -0.0015333568 -0.66511863 -0.68017185 0.30819368 0.011257602
-0.12472792 0.14155519 -0.0013589745 0.58659947 -0.7378664 0.33384773 0.013274477
-0.11562919 0.14419588 -0.005011417 0.52852172 -0.79113257 0.30785391 0.011831545
-0.10489263 0.14739057 -0.0061628604 0.49269235 -0.80749363 0.32435834 0.012013228
-0.098481536 0.14981091 -0.0082127424 0.4525646 -0.82406795 0.34073055 0.010464108
0.085126482 0.14648625 -0.0028072186 -0.48002401 -0.81109178 0.33422622 0.011605473
0.094504468 0.145206 -0.001892196 -0.50457501 -0.79779792 0.33003411 0.011169556
0.10021837 0.14239864 -0.0047819428 -0.54142642 -0.77212328 0.33269039 0.011599634
-0.11450362 0.1501673 -0.0025576463 0.50326145 -0.79060668 0.34881076 0.010785183
-0.1037675 0.15144879 -0.0052324804 0.48020822 -0.81832677 0.31581876 0.011204935
-0.094117418 0.15285093 -0.0062560863 0.44888237 -0.83091444 0.32876414 0.010968806
-0.085217372 0.15769404 -0.0055116145 0.46395332 -0.82477504 0.32325453 0.0082182679
0.063654855 0.15842913 -0.0067826221 -0.39034927 -0.85456014 0.3425703 0.014158739
0.073934242 0.15542963 -0.0026943968 -0.44477937 -0.81649172 0.36812031 0.011736175
0.080058798 0.15522158 -0.0053581931 -0.47461838 -0.80844319 0.34807616 0.011932787
-0.075403042 0.16482808 -0.0046945619 0.35691646 -0.87848127 0.31761816 0.012531994
-0.05444121 0.16909084 -0.0048474753 0.21157776 -0.9305262 0.29892436 0.010654723
-0.045017902 0.16973425 -0.0085134273 0.20131433 -0.92189908 0.33102047 0.012588905
0.028057748 0.16948546 -0.0080207363 -0.21352267 -0.92536253 0.31322879 0.012252175
0.03558711 0.16697837 -0.0081980573 -0.27412906 -0.91281801 0.30268222 0.012946555
0.043907635 0.16598962 -0.0038275435 -0.30185324 -0.89562839 0.32670221 0.012465486
0.055229634 0.16168876 -0.0054003801 -0.36068013 -0.86464989 0.34970048 0.013508213
-0.064908884 0.17245379 -0.0049987622 0.27221918 -0.90694928 0.32146466 0.011541653
-0.055741355 0.1724433 -0.0027674881 0.22221108 -0.92253524 0.31551707 0.010957088
-0.043415062 0.17471816 -0.0036952277 0.16899356 -0.93140733 0.32236853 0.013372018
-0.037453428 0.17573111 -0.0058929152 0.14885446 -0.93263006 0.32869959 0.015458492
-0.023872217 0.17737897 -0.0049968981 0.048530281 -0.93717593 0.34546506 0.014820541
-0.014632915 0.17427653 -0.0064284336 0.0089419596 -0.94493788 0.32712752 0.014628555
-0.0096742986 0.17519164 -0.0032655729 -0.022087028 -0.9473477 0.31944397 0.012447466
0.0049830587 0.17614849 -0.0046177413 -0.088757277 -0.94647622 0.31033012 0.012203656
0.013592188 0.17258677 -0.0070646228 -0.13164547 -0.94317174 0.30511728 0.0128215
0.02532576 0.17416169 -0.0056874109 -0.18533307 -0.93519807 0.30175519 0.012600773
0.033800919 0.17445324 -0.005389662 -0.24696511 -0.91489619 0.31933239 0.012618442
0.045047268 0.17010438 -0.0071587642 -0.31246474 -0.89537293 0.31729037 0.011854295
-0.038061634 0.1800351 -0.00021057762 0.15223044 -0.9351607 0.31984422 0.01367934
-0.025054723 0.18128745 -0.0033704699 0.077865876 -0.9376862 0.3386465 0.013290028
-0.012528531 0.18009445 -0.0053392472 -0.0074085952 -0.94740474 0.31995216 0.013794527
-0.00032347627 0.18008091 -0.0037140234 -0.08260233 -0.94242626 0.32405171 0.012451828
-0.052862711 -0.18042459 0.00739189 0.23046724 0.92010945 0.31667566 0.013834864
-0.043397199 -0.18270169 0.0066648521 0.15579654 0.93454301 0.31993237 0.011465816
-0.026452711 -0.18348809 0.0061774477 0.071854986 0.93461829 0.34831786 0.010336107
-0.016229264 -0.18443315 0.0072346437 0.054438543 0.94133949 0.33304137 0.011046542
-0.0018736033 -0.18602458 0.0099049788 -0.07313402 0.94391209 0.321996 0.012072936
0.003364217 -0.18337204 0.0021570954 -0.078264199 0.94244331 0.32507753 0.014372563
0.026080843 -0.18061377 0.0068457853 -0.18200122 0.93228728 0.31259564 0.01254174
0.030696228 -0.18000653 0.0080593489 -0.20448141 0.92942524 0.30717447 0.012668519
-0.070729509 -0.17287734 0.0028375811 0.32467359 0.88962966 0.32116362 0.011169159
-0.061206292 -0.17753512 0.0070416951 0.26029855 0.9118647 0.3174074 0.014868362
-0.053541847 -0.1758507 0.0073954342 0.24092983 0.90873748 0.34080642 0.013809538
-0.049485512 -0.17981619 0.0029811119 0.20289966 0.9173404 0.3425177 0.0140005
-0.033692889 -0.17805104 0.0071943514 0.10132822 0.93295127 0.34544811 0.011185814
-0.013863007 -0.17780066 0.0038341815 0.066774502 0.93665999 0.34381559 0.011373957
-0.0031167939 -0.17766815 0.0020216196 -0.072895668 0.94185352 0.32802156 0.012607368
0.0068274825 -0.17839734 0.0051204641 -0.11916922 0.94590992 0.30175018 0.014046703
0.0170085 -0.17499533 0.0019174635 -0.18145448 0.93643552 0.300271 0.012017637
0.023211671 -0.17426333 0.0034495434 -0.20430337 0.92931545 0.30762476 0.012250115
0.036546346 -0.17340297 0.0037089654 -0.25612682 0.90963703 0.32704684 0.01407935
0.046194766 -0.17679057 0.0083569046 -0.27550644 0.90741855 0.31731334 0.013652212
0.054468859 -0.17197286 0.0030149871 -0.35677564 0.8701756 0.33986104 0.01132568
-0.093035221 -0.16262878 0.0079804612 0.43526441 0.85043931 0.2954621 0.011138946
-0.085682265 -0.16627474 0.0034827467 0.38660654 0.87305659 0.29716602 0.013502413
-0.074968755 -0.16750093 0.0074007385 0.34463015 0.88661414 0.30845651 0.012700687
-0.066399604 -0.16766602 0.00083115371 0.32159394 0.88605642 0.33388823 0.0116776
0.043882146 -0.16887219 0.00091865635 -0.29935485 0.8945933 0.33179745 0.01217911
0.056888986 -0.16558512 0.0055148513 -0.36487457 0.86443532 0.3458586 0.01066504
0.062492222 -0.1634033 0.0071154479 -0.40270641 0.85244888 0.3334043 0.010296545
0.076157868 -0.16287591 0.0079457397 -0.43292236 0.8423484 0.32097897 0.011820838
-0.1151837 -0.15165323 0.0056244708 0.53014469 0.7973634 0.28837147 0.0094431695
-0.10299804 -0.1543005 0.0037271504 0.50270969 0.80253291 0.32128477 0.010211932
-0.094121106 -0.15712118 0.0020961256 0.43784121 0.84411645 0.30945513 0.011381919
0.072987199 -0.15687983 0.0043727141 -0.4254688 0.83300424 0.35366681 0.010663871
0.082875744 -0.15470561 0.0052949348 -0.45087406 0.8238681 0.3434442 0.013481128
0.091584131 -0.15542269 0.009140756 -0.49350625 0.81095642 0.31432658 0.014381685
-0.12457174 -0.14150427 0.0039219586 0.60646242 0.73629671 0.30011743 0.012738927
-0.1161162 -0.14761123 0.0053372779 0.53198552 0.79199642 0.29955494 0.010907959
0.087030932 -0.14836107 0.001198589 -0.50360024 0.77483737 0.38211745 0.014418756
0.093769573 -0.14394161 0.0021117886 -0.54876727 0.75799441 0.35256058 0.014365297
0.10378184 -0.1434218 0.0041924794 -0.60455745 0.71452975 0.35207596 0.012128558
-0.1357307 -0.13244995 0.0036424287 0.66569173 0.66108865 0.34614486 0.013222488
-0.12739497 -0.13692671 0.0055878493 0.64911664 0.69764256 0.30322015 0.013096975
0.1047355 -0.1352905 0.0045774225 -0.61996299 0.70604187 0.34227276 0.011969012
0.11414977 -0.13385083 0.006917207 -0.62653434 0.71218508 0.31661838 0.011238277
-0.14281137 -0.12111659 0.0073813153 0.68010533 0.63739586 0.36219236 0.011475451
-0.13796221 -0.12515092 0.0048516877 0.67904687 0.65157086 0.33815801 0.012798933
0.11622593 -0.12517276 0.0050322148 -0.64448953 0.67648047 0.35638103 0.012577662
0.12364294 -0.12431672 0.0055743526 -0.66530824 0.65109015 0.36530349 0.012941968
-0.15198234 -0.11677222 0.0029083109 0.70031124 0.62002265 0.35374576 0.01121565
-0.14773367 -0.11510005 0.0041464875 0.68388349 0.6417613 0.34705311 0.011302508
0.12631519 -0.11513177 0.0052798823 -0.71961224 0.60684603 0.3374849 0.014692029
0.13354564 -0.11331912 0.0030096876 -0.76132655 0.55158806 0.34078208 0.014032601
-0.16284558 -0.10640619 0.0058799544 0.74521631 0.57319343 0.34073731 0.012956567
0.13524243 -0.10286406 0.0063711382 -0.78671825 0.51890373 0.33438519 0.012761649
-0.16530305 -0.095151372 0.004395843 0.80596811 0.4855372 0.33862823 0.013825004
0.14324556 -0.090389676 0.0061888173 -0.81910199 0.48657954 0.30382928 0.012188673
0.15093221 -0.090152152 0.0086416733 -0.83198941 0.45974052 0.31053534 0.012071593
-0.17241415 -0.086104199 0.0029463279 0.8491416 0.43890613 0.2938025 0.012668105
0.14386751 -0.085842729 0.0010279185 -0.81620091 0.47106373 0.33453709 0.011453984
0.15278225 -0.085340559 0.0054562683 -0.82914102 0.4689512 0.30431864 0.012909018
-0.1822561 -0.070400424 0.0073617646 0.88353562 0.37311003 0.28311434 0.012333691
-0.17477864 -0.073228672 0.0076643927 0.86588335 0.41535905 0.27878794 0.012832714
0.14870644 -0.077666909 6.4347405e-06 -0.84744632 0.42312956 0.32061854 0.012762255
0.15498866 -0.076359853 0.0045409361 -0.86103523 0.38835222 0.32833058 0.014416555
-0.18265109 -0.067071475 0.0042944364 0.87584078 0.369932 0.30992472 0.013700406
-0.1774236 -0.065362163 0.0044434075 0.87748545 0.37433946 0.29981539 0.012891454
0.15649778 -0.067349717 0.0065066954 -0.86549723 0.37207079 0.33537725 0.014404328
0.16346169 -0.06108835 0.0082406271 -0.89758652 0.30572066 0.31760556 0.011458562
-0.18263432 -0.054335959 0.0040869848 0.9069339 0.29299441 0.30269641 0.012801884
0.15846884 -0.055042624 0.0050936276 -0.89524919 0.30360448 0.32611841 0.012122558
0.16327187 -0.055057585 0.0025553892 -0.89896202 0.30862102 0.31083798 0.011054168
-0.1916596 -0.041372363 0.0099138748 0.93543094 0.19542964 0.2945779 0.013210029
-0.18810154 -0.044496607 0.0068020746 0.92816156 0.21488477 0.30387589 0.012634566
0.16629794 -0.047934867 0.0043639774 -0.925538 0.2515977 0.28298065 0.013755986
-0.19072202 -0.030195106 0.000699542 0.93773961 0.1500136 0.31327373 0.011379158
-0.18706469 -0.033064164 0.007459606 0.94045091 0.16146739 0.29913285 0.010722424
0.1661202 -0.032693058 0.0064649866 -0.93714905 0.16090193 0.30961612 0.01393001
0.17041245 -0.035773147 0.0048038829 -0.93178409 0.17661573 0.31715167 0.014489781
-0.1939027 -0.022885064 0.005085161 0.93697691 0.15404245 0.31360054 0.013646974
-0.18870163 -0.024190318 0.0069129346 0.93561321 0.1527563 0.31826636 0.013196002
0.1673695 -0.029333953 0.0090837069 -0.94577861 0.1442581 0.29101956 0.013346793
0.17226803 -0.027861897 0.0072954469 -0.95054507 0.10667785 0.29169124 0.012961566
-0.19151779 -0.012525639 0.0090228561 0.9582203 0.055215795 0.28065118 0.013799378
0.16702835 -0.016027212 0.0062413756 -0.95081562 0.074962996 0.30054998 0.012747633
0.17292193 -0.014659501 0.0070469659 -0.95098245 0.075942136 0.29977512 0.012103297
-0.19634391 -0.0072454917 0.0079756537 0.95747638 0.0087754959 0.28837809 0.013797933
-0.18830065 -0.0056809727 0.0013378052 0.94560671 0.016540688 0.32489115 0.013352102
0.16719158 -0.00374984 0.0050016688 -0.94723332 0.057650674 0.31531793 0.0091175335
0.17092013 -0.0094810538 0.00099436066 -0.94656897 0.040687494 0.31992459 0.011548185
-0.19377765 0.0080397297 0.0030365633 0.95151961 -0.088393234 0.29461333 0.010369206
0.16778207 0.005225867 0.0053399331 -0.95515442 0.026764695 0.29489592 0.0096906917
-0.19452307 0.013353335 0.0057982514 0.94686705 -0.071740411 0.31352216 0.010476425
-0.18872303 0.015214449 0.0052973796 0.95376986 -0.060300034 0.29442653 0.0099744527
0.17288549 0.018410627 0.0052934289 -0.9519853 -0.10019659 0.28928301 0.010968816
-0.19455117 0.026183218 0.0077444664 0.94344413 -0.14821003 0.29655859 0.011792085
-0.18820748 0.025564699 0.0053440654 0.94014829 -0.14340183 0.30912316 0.011971006
0.16778152 0.023567194 0.0043905568 -0.93988919 -0.14013438 0.31140113 0.013157835
