ply
format ascii 1.0
comment PCL generated
element vertex 1373
property float x
property float y
property float z
element camera 0
property float view_px
property float view_py
property float view_pz
property float x_axisx
property float x_axisy
property float x_axisz
property float y_axisx
property float y_axisy
property float y_axisz
property float z_axisx
property float z_axisy
property float z_axisz
property float focal
property float scalex
property float scaley
property float centerx
property float centery
property int viewportx
property int viewporty
property float k1
property float k2
end_header
0.3343668 0.24618471 -0.4923301
0.36914206 0.24504423 -0.49666589
0.40693188 0.24526644 -0.49461898
0.44523406 0.24591327 -0.49289456
0.48075974 0.24524677 -0.49031574
0.51711833 0.24365664 -0.49226007
0.55616224 0.24498844 -0.49253052
0.59408939 0.24586809 -0.49118689
0.62880313 0.24993265 -0.49221972
0.65397668 0.25401127 -0.49474618
-0.55223465 0.2765944 -0.48984537
-0.51781279 0.26285076 -0.49021354
-0.47888708 0.26151621 -0.49607539
-0.44213757 0.2618171 -0.494046
-0.40522709 0.26111042 -0.4932439
-0.36675149 0.26062584 -0.49369615
-0.33374301 0.26002717 -0.48888204
-0.29707792 0.25906277 -0.48654905
-0.25398976 0.25871158 -0.48711994
-0.21687073 0.2590574 -0.49394658
-0.18493235 0.25909972 -0.49235961
-0.15096033 0.25866127 -0.4957158
-0.1227169 0.26071334 -0.47449228
-0.055318356 0.25778675 -0.47630799
-0.049546182 0.25735152 -0.50734848
-0.0038762689 0.25735903 -0.50733012
0.031691253 0.25738692 -0.50904918
0.63510382 0.2580651 -0.50562847
0.67081165 0.26724625 -0.49188229
0.69320965 0.2816608 -0.49722838
-0.25660232 0.25608456 -0.47105899
-0.21214408 0.25647771 -0.45715746
-0.18188542 0.25598025 -0.46127963
-0.14672863 0.25590277 -0.45939368
-0.1095742 0.25574863 -0.45249698
-0.07511884 0.25554121 -0.45214951
-0.038868666 0.25433683 -0.45617065
0.0038933754 0.25359631 -0.45575017
0.037096024 0.25309539 -0.45489734
0.076398551 0.25299561 -0.45408225
0.11343241 0.25238883 -0.45546767
0.1493125 0.25301862 -0.45418745
0.18598765 0.25004065 -0.45678261
0.22070074 0.24878812 -0.4552016
0.2577306 0.24711514 -0.45521393
0.30308282 0.24662769 -0.45602247
0.33912146 0.24638295 -0.45702782
0.37043941 0.24543881 -0.45885864
0.40765262 0.2450037 -0.45775196
0.44400096 0.2451055 -0.45705023
0.48168492 0.2449522 -0.45414087
0.51781476 0.24539626 -0.45749703
0.55526507 0.24564803 -0.45395026
0.59343779 0.24682117 -0.4523342
0.6293875 0.24994195 -0.4535507
0.65592372 0.25484395 -0.45918348
-0.55199516 0.2757678 -0.45606437
-0.51603973 0.26309979 -0.45556161
-0.47819227 0.26282144 -0.45623443
-0.44490936 0.26368475 -0.45477873
-0.40736893 0.26306963 -0.45443186
-0.36847076 0.26220679 -0.45748124
-0.33300042 0.26137602 -0.45445785
-0.2997579 0.26109982 -0.4534978
-0.25765571 0.25941718 -0.45086053
-0.21845049 0.25998425 -0.45371774
-0.18436044 0.25884581 -0.45288798
-0.1507805 0.25895977 -0.45051548
-0.10789394 0.25957692 -0.45184335
-0.068396211 0.25879169 -0.44694006
-0.037768781 0.25861025 -0.45000044
0.0073490143 0.25801027 -0.44794908
0.041026831 0.25758517 -0.44895285
0.64530623 0.26096582 -0.44097489
0.67302644 0.26855874 -0.45360643
0.69088316 0.28213048 -0.4555591
-0.21547413 0.25702238 -0.4184981
-0.18117195 0.2560972 -0.41505423
-0.14811271 0.2552557 -0.41581163
-0.11127567 0.25483549 -0.41549081
-0.073882401 0.25514114 -0.42132974
-0.037837327 0.25430059 -0.42148691
0.00065141916 0.25396299 -0.42218676
0.036073565 0.25363696 -0.42042807
0.076783001 0.25366414 -0.41852987
0.11395079 0.2537781 -0.4159829
0.14981979 0.25293255 -0.41738343
0.18406826 0.25131643 -0.415838
0.22335404 0.25094163 -0.41584489
0.2599979 0.24969208 -0.41769758
0.29799855 0.24920928 -0.41778177
0.33536184 0.24926865 -0.4158271
0.36910808 0.24807537 -0.41720071
0.4061898 0.24812078 -0.41549373
0.44337881 0.24859273 -0.41499278
0.48114872 0.24748707 -0.4162828
0.51679015 0.24616122 -0.41697788
0.55603409 0.24610877 -0.4161607
0.59346902 0.24640882 -0.41589838
0.62974179 0.25045133 -0.41551274
0.65522861 0.25447929 -0.41812438
-0.55539721 0.27258086 -0.42121887
-0.51677871 0.26323223 -0.41886088
-0.48070252 0.26365054 -0.41514999
-0.4444055 0.26409471 -0.41542092
-0.40734595 0.26351833 -0.41570044
-0.37038109 0.26306999 -0.41923541
-0.33420855 0.26253426 -0.42130575
-0.2992349 0.26194859 -0.42008048
-0.25952965 0.26052487 -0.41843328
-0.22445571 0.25981188 -0.4196808
-0.18791252 0.2596271 -0.42449933
-0.15088868 0.25844991 -0.42409253
-0.10519373 0.25852835 -0.42062613
-0.081928611 0.25910521 -0.41539609
0.087763548 0.25761259 -0.4143371
0.11329609 0.25818539 -0.41973913
0.67190921 0.26866269 -0.41707385
0.68914437 0.28164065 -0.41261184
-0.21769094 0.25701952 -0.38804644
-0.17846155 0.25646639 -0.38237721
-0.14483112 0.25576496 -0.38395467
-0.1092484 0.25511575 -0.38293186
-0.07436043 0.25530708 -0.38408414
-0.036975801 0.25421572 -0.38432762
0.0037890673 0.25430596 -0.38331425
0.037000954 0.25338709 -0.38273275
0.07631737 0.25285578 -0.38220015
0.11252838 0.25332379 -0.38553333
0.14666998 0.25220466 -0.37910396
0.18415892 0.25049853 -0.38220224
0.22559792 0.25052035 -0.38188252
0.26339459 0.24903297 -0.38070005
0.2997458 0.24886382 -0.37888867
0.33427429 0.24780774 -0.3791731
0.36776042 0.24838972 -0.37957507
0.40768147 0.2480638 -0.38004655
0.44571292 0.24851418 -0.38064688
0.4817934 0.24905455 -0.38092655
0.51950574 0.24931049 -0.37887436
0.55597925 0.24804592 -0.38093138
0.5953778 0.24933183 -0.38090211
0.62978578 0.25131977 -0.38076103
0.65302873 0.25509632 -0.37405455
-0.57449442 0.28346527 -0.38787919
-0.55527228 0.27095532 -0.38124555
-0.51843262 0.26309907 -0.38071018
-0.47840637 0.26498723 -0.37958556
-0.44457626 0.26455462 -0.37911582
-0.40556663 0.26438856 -0.37902844
-0.36972281 0.26292253 -0.3803882
-0.33584788 0.26220119 -0.38207892
-0.29881862 0.26169109 -0.3792181
-0.2583093 0.26053107 -0.38029069
-0.21990341 0.25945508 -0.37992549
-0.18839908 0.25979888 -0.38154727
-0.14915526 0.25896859 -0.38139063
-0.10969526 0.25828063 -0.38134721
-0.072508514 0.2584902 -0.37697834
-0.042571545 0.25803602 -0.36694109
0.10679859 0.25761366 -0.39745474
0.63581932 0.25897765 -0.38978949
0.67014503 0.26796889 -0.37889224
0.69039524 0.28548706 -0.39340544
-0.14231139 0.2568289 -0.35220683
-0.11004966 0.25596189 -0.34620374
-0.071512043 0.25621402 -0.3433727
-0.035691977 0.25509846 -0.34368438
0.0037111044 0.25506842 -0.34374034
0.036339164 0.2541759 -0.34211004
0.074946284 0.25366986 -0.3439846
0.11322302 0.2527746 -0.34536147
0.1490404 0.25270283 -0.346681
0.18166459 0.251544 -0.34553713
0.22283947 0.25064635 -0.34601212
0.26203567 0.24953508 -0.34434617
0.29787338 0.24950087 -0.3437891
0.33428621 0.24877489 -0.34624934
0.37219036 0.24851072 -0.34622461
0.4072746 0.24793255 -0.34644169
0.44559026 0.24855244 -0.34652352
0.48229718 0.2497189 -0.34508276
0.51785982 0.24958181 -0.3436048
0.55430627 0.24954569 -0.34290469
0.59295666 0.25039613 -0.3436569
0.63136184 0.25199127 -0.34439743
0.65278208 0.25497508 -0.35122633
-0.5755192 0.27977324 -0.33883786
-0.55491436 0.27061439 -0.34469283
-0.51775986 0.26313031 -0.34141529
-0.47964144 0.2650063 -0.34395921
-0.44388884 0.26563716 -0.34463036
-0.40620589 0.26556838 -0.34539843
-0.36736658 0.26409841 -0.34265506
-0.33302119 0.26330197 -0.34236604
-0.29704198 0.26246786 -0.33999467
-0.25761533 0.26126623 -0.34402686
-0.2208854 0.26071024 -0.34033507
-0.18476349 0.26039624 -0.34119534
-0.15111732 0.25948751 -0.34055668
-0.11481655 0.25993133 -0.34072578
-0.075442791 0.25898433 -0.33338237
-0.03563118 0.25882518 -0.33475995
0.0033669472 0.25776148 -0.33824986
0.05410403 0.25849223 -0.33028316
0.078574836 0.25785816 -0.34876251
0.66975319 0.2705996 -0.34179527
0.68701518 0.28810096 -0.34633434
-0.14716029 0.25724745 -0.29910064
-0.10720843 0.25664902 -0.30676937
-0.07301259 0.25677359 -0.30520076
-0.038737118 0.25566375 -0.30682755
0.00048685074 0.25510967 -0.30864054
0.035590053 0.25469422 -0.30796748
0.074287236 0.25418866 -0.30578339
0.11239994 0.2527777 -0.30609071
0.14737266 0.25227404 -0.31105566
0.1827296 0.25238383 -0.30692273
0.22301215 0.25140309 -0.3041476
0.26283085 0.25075853 -0.30737984
0.29838467 0.25014794 -0.30801594
0.33387029 0.24965703 -0.30698019
0.37138176 0.24896622 -0.30896115
0.40866363 0.24768758 -0.30852127
0.44275856 0.24855459 -0.31150466
0.47966528 0.24982584 -0.30833387
0.5176599 0.2501893 -0.30708444
0.55910695 0.2502954 -0.30569977
0.59348142 0.25048304 -0.30476457
0.628824 0.25223792 -0.30807328
0.65115714 0.25540996 -0.30332887
-0.57957947 0.28473818 -0.30499119
-0.55566448 0.27079654 -0.30655813
-0.51798093 0.26372194 -0.30623394
-0.48113054 0.26634276 -0.30838031
-0.44505075 0.26580131 -0.30863237
-0.40771091 0.26567733 -0.30941564
-0.37041527 0.26492965 -0.30545121
-0.33435509 0.26351345 -0.30537409
-0.29670507 0.26281667 -0.30639112
-0.25905341 0.26189041 -0.30570596
-0.22099316 0.26239991 -0.3042165
-0.18801719 0.26110959 -0.30544347
-0.15029711 0.25935924 -0.30841547
-0.11466771 0.25987017 -0.30445194
-0.071710408 0.25861144 -0.3038193
-0.031990469 0.25843942 -0.30015141
0.0074036717 0.25842726 -0.3012892
0.042586327 0.25808048 -0.30308521
0.066939473 0.25868833 -0.30701929
0.64691997 0.2620697 -0.30732363
0.66905129 0.27230215 -0.30392677
-0.14347285 0.2566787 -0.28481042
-0.10274941 0.25712991 -0.27602309
-0.069254935 0.25686991 -0.26950258
-0.0381459 0.25542724 -0.26743704
0.0016909838 0.25472021 -0.26683992
0.035246968 0.25491524 -0.26622158
0.075422227 0.25287366 -0.26908392
0.11253577 0.25242758 -0.26874375
0.14986384 0.25176787 -0.27836025
0.18386835 0.25232244 -0.27737206
0.22381437 0.2516923 -0.26999635
0.26200473 0.25151372 -0.27014023
0.29655576 0.25045073 -0.27290875
0.33061135 0.24992573 -0.26927888
0.36807191 0.2492913 -0.27087659
0.40695 0.24838674 -0.2694028
0.44379067 0.24893153 -0.27007365
0.48276114 0.24940324 -0.27136248
0.51861262 0.24967635 -0.27172416
0.55369568 0.25054169 -0.2709235
0.58924437 0.25095916 -0.27080029
0.62920606 0.25326061 -0.27367669
0.65015864 0.25638914 -0.27078801
-0.58072853 0.28086448 -0.26760548
-0.55690855 0.2701025 -0.26858592
-0.51654232 0.26469684 -0.26937401
-0.47735012 0.26792514 -0.26851386
-0.44220889 0.26701343 -0.26828158
-0.40857115 0.26660311 -0.26763892
-0.36885637 0.26620352 -0.26808834
-0.33231944 0.26500249 -0.26757377
-0.29617086 0.264171 -0.2695511
-0.25990319 0.26255429 -0.26825881
-0.22178972 0.26260483 -0.27021122
-0.18569547 0.26140213 -0.27276796
-0.14952219 0.26013362 -0.27263725
-0.11102009 0.25979972 -0.26690084
-0.077420712 0.25961483 -0.26936537
-0.033519208 0.25844121 -0.27240294
0.0043818355 0.25812423 -0.2756936
0.045165479 0.25842714 -0.27662075
0.63860703 0.2617377 -0.2728368
0.66650569 0.27143323 -0.27068102
-0.097269177 0.25708294 -0.23443466
-0.07275337 0.2564379 -0.23365474
-0.03843838 0.25559509 -0.23077011
0.0015841126 0.25507748 -0.23114365
0.036656737 0.2546562 -0.22879374
0.074146569 0.25417006 -0.2304008
0.11280942 0.25369942 -0.22878563
0.15032363 0.25324225 -0.23547053
0.18455309 0.25213385 -0.23822135
0.22515196 0.25196052 -0.23427206
0.26013952 0.25144362 -0.23722637
0.29622722 0.25167775 -0.23302519
0.33018053 0.25066113 -0.23295659
0.36845887 0.2499789 -0.23303735
0.40632927 0.24879527 -0.23282075
0.44525146 0.24988985 -0.23125064
0.47980404 0.24922895 -0.23249549
0.51755321 0.25059748 -0.23470968
0.55588913 0.25073123 -0.23853594
0.59535742 0.25192344 -0.23701513
0.62965345 0.25402021 -0.2360515
-0.58087325 0.28287792 -0.22833806
-0.55621505 0.27017891 -0.23446167
-0.51665628 0.26490378 -0.23150843
-0.47751957 0.26735985 -0.23138458
-0.44416517 0.26767397 -0.23109168
-0.40639052 0.26684904 -0.22962129
-0.36670858 0.26602376 -0.23235977
-0.33454478 0.26587117 -0.23115498
-0.30092427 0.26454353 -0.23246926
-0.26075873 0.26308954 -0.23277837
-0.22242326 0.26223934 -0.23448259
-0.18656582 0.26179945 -0.2338239
-0.14927745 0.26079369 -0.23498726
-0.11000246 0.25937998 -0.2299124
-0.073310912 0.25963998 -0.2302599
-0.034845293 0.25893664 -0.23159295
0.0060229897 0.25825739 -0.2329585
0.033022463 0.25875604 -0.23945123
0.55128205 0.25768661 -0.21925902
0.6396575 0.25903606 -0.23657328
0.66455758 0.27314949 -0.23699087
-0.1025092 0.25727892 -0.20885003
-0.070995569 0.2569772 -0.2038005
-0.034751952 0.25607896 -0.1987707
0.00043493509 0.25559211 -0.19564962
0.034493387 0.25505519 -0.19380701
0.07517153 0.25394905 -0.19058502
0.11275709 0.25397313 -0.19029415
0.15009457 0.25309122 -0.19406343
0.18612844 0.25230718 -0.19794792
0.22585934 0.2522186 -0.19852096
0.26155722 0.2527312 -0.19649661
0.29531968 0.25214803 -0.19521087
0.3332144 0.25170529 -0.19530952
0.36979103 0.25115359 -0.19365788
0.4090606 0.25066102 -0.19434983
0.44728601 0.25056541 -0.19471526
0.48259199 0.25088978 -0.19263953
0.52069008 0.25221658 -0.1951409
0.55696571 0.25167978 -0.19588447
0.59295642 0.25142062 -0.19612831
0.62593126 0.25371194 -0.19754809
-0.58360505 0.2778722 -0.1957137
-0.55592597 0.26895857 -0.1986649
-0.51876533 0.26610136 -0.19515276
-0.47902572 0.26778018 -0.19426
-0.44635013 0.26817608 -0.1975494
-0.40797302 0.26779962 -0.19500738
-0.36696035 0.26751328 -0.19618529
-0.33122662 0.26658106 -0.19748878
-0.29911643 0.26474833 -0.19764364
-0.25874013 0.26377797 -0.19804245
-0.22057199 0.26359975 -0.19929522
-0.18446761 0.26344609 -0.19830447
-0.15041912 0.26156795 -0.19878793
-0.11064434 0.25988877 -0.19387704
-0.072501242 0.25934052 -0.19320196
-0.036141515 0.25941002 -0.19032675
0.0067537427 0.25900626 -0.18948132
0.032747209 0.25881994 -0.19684654
0.068094552 0.25783718 -0.18114567
0.11949068 0.25766385 -0.18136501
0.5486474 0.25857031 -0.19514436
0.63628292 0.25949466 -0.19673592
0.66204536 0.27400935 -0.19549316
-0.035762489 0.2568953 -0.16422582
0.0049686432 0.25651097 -0.15677887
0.035458982 0.2561425 -0.15600687
0.075285494 0.25491261 -0.15475267
0.11259383 0.25440347 -0.15357059
0.14899307 0.25325131 -0.15538758
0.18589735 0.25311697 -0.15845829
0.22494346 0.25290072 -0.16154176
0.26256198 0.25294304 -0.16044009
0.29467332 0.25262523 -0.15920752
0.33173084 0.25164557 -0.16042405
0.37056756 0.25139189 -0.15989619
0.40842581 0.25062501 -0.16089267
0.44575572 0.2509625 -0.15961736
0.48095191 0.2517159 -0.15792799
0.51887989 0.25300872 -0.15745914
0.55817389 0.2522639 -0.15683323
0.59329224 0.25244582 -0.15685534
0.62046611 0.25456643 -0.1570729
-0.58274066 0.27587354 -0.15745401
-0.55447412 0.26838028 -0.16087818
-0.51537794 0.26687098 -0.16045612
-0.47839153 0.26959383 -0.15986663
-0.44202435 0.26977837 -0.1609565
-0.40554291 0.26855814 -0.16090047
-0.36497638 0.26776314 -0.16158921
-0.33124962 0.2671088 -0.16176903
-0.29901576 0.26578081 -0.16312581
-0.25752687 0.26460934 -0.16206008
-0.22109973 0.26400387 -0.1623432
-0.18292737 0.26337767 -0.16173851
-0.15022266 0.26196837 -0.16023207
-0.11091381 0.26125336 -0.15828466
-0.073515832 0.26059568 -0.15800178
-0.037408352 0.25973594 -0.15312666
0.0018698573 0.25957537 -0.15111393
0.036739111 0.25907922 -0.14573848
0.074645102 0.2585932 -0.14487356
0.10978788 0.25802267 -0.14600402
0.21904737 0.25768232 -0.16412389
0.5385704 0.25877953 -0.17414236
0.63976181 0.26246405 -0.15676755
0.66155863 0.27570641 -0.15915847
0.0076355934 0.25664973 -0.11602896
0.036678493 0.25642002 -0.11845064
0.075626493 0.25538647 -0.1173352
0.11137819 0.25522494 -0.11986202
0.1496737 0.2543776 -0.11930197
0.18424964 0.2536844 -0.12386781
0.22656631 0.2529881 -0.1240046
0.26448756 0.25251436 -0.12534374
0.29761684 0.2525481 -0.1248498
0.3321017 0.25182033 -0.12316638
0.3682034 0.25139797 -0.12549931
0.40732777 0.25045526 -0.12445766
0.44337177 0.25128174 -0.12316233
0.48055077 0.25221395 -0.12292939
0.51922643 0.25222838 -0.12467396
0.5561595 0.25264359 -0.12367994
0.59434593 0.25343454 -0.12257749
0.62172019 0.25507331 -0.12431055
-0.59027714 0.27781129 -0.11953408
-0.55588853 0.26814413 -0.12285757
-0.51669693 0.26809454 -0.12250453
-0.47937441 0.26972735 -0.12301564
-0.44548079 0.26974237 -0.12299591
-0.40853316 0.26985478 -0.12342256
-0.36779749 0.26910007 -0.12361062
-0.3340922 0.26859343 -0.12273175
-0.29863673 0.26636004 -0.12331474
-0.25917053 0.26573396 -0.12402511
-0.2214452 0.26602328 -0.12323558
-0.18249106 0.26469111 -0.12126541
-0.15031725 0.26270664 -0.12000549
-0.11166799 0.26295459 -0.11918074
-0.075829089 0.262151 -0.1181215
-0.035850585 0.26121175 -0.11809242
0.0018413067 0.26064968 -0.11740458
0.036231458 0.25866389 -0.11664617
0.072926939 0.2588917 -0.11780781
0.11560929 0.25888681 -0.10822916
0.14562774 0.25788355 -0.10797101
0.18561727 0.25803959 -0.10812175
0.207479 0.25855052 -0.11452836
0.60867751 0.25762987 -0.13850874
0.63669717 0.26484394 -0.11992502
0.65968812 0.27786911 -0.12213951
-0.00073331594 0.25718939 -0.087343156
0.045149446 0.2572217 -0.10007399
0.076356173 0.25679111 -0.084815443
0.11136144 0.25634527 -0.086170018
0.14796883 0.25571823 -0.081813455
0.18435585 0.25484586 -0.082826316
0.22561073 0.25384057 -0.086484671
0.26348132 0.25362754 -0.08893913
0.297925 0.25371873 -0.0874964
0.33016527 0.25271308 -0.088563681
0.36809576 0.25214386 -0.088440657
0.40854526 0.25226152 -0.086447299
0.44725215 0.25200105 -0.087538421
0.48365712 0.25291371 -0.088875532
0.51837742 0.25379157 -0.085574508
0.55699301 0.25324523 -0.087185562
0.59359992 0.25402462 -0.086736023
0.62268114 0.25596952 -0.086909294
-0.6236493 0.2856487 -0.079153538
-0.5942238 0.2752353 -0.083631158
-0.55444551 0.26847255 -0.084924161
-0.51834106 0.26819313 -0.086756229
-0.47914845 0.26936293 -0.086966932
-0.44339699 0.26962161 -0.088770092
-0.40666109 0.26904213 -0.086521029
-0.3688018 0.26950157 -0.08674252
-0.33615693 0.26911843 -0.084532559
-0.29809591 0.26744723 -0.084914684
-0.2577835 0.26643085 -0.085091531
-0.22173673 0.26624763 -0.085267305
-0.18346626 0.2657522 -0.083476305
-0.14775187 0.26448226 -0.08005178
-0.11220455 0.26355994 -0.07930851
-0.07472074 0.26248705 -0.08007437
-0.035740912 0.26154113 -0.081065118
0.0028674603 0.26113582 -0.07987833
0.035748839 0.25898075 -0.081260145
0.0735057 0.25978339 -0.077349126
0.10883123 0.25904381 -0.080117643
0.14757061 0.25964904 -0.077404857
0.18724221 0.25845075 -0.086647093
0.20683503 0.25952291 -0.082207501
0.46583831 0.25775814 -0.079400837
0.63603532 0.26505435 -0.082768023
0.65679693 0.2778461 -0.085980177
0.11161244 0.25717306 -0.048567474
0.15004671 0.25644875 -0.042309225
0.18323112 0.25641668 -0.042182446
0.22704422 0.25556529 -0.045457363
0.26478058 0.25469828 -0.04782331
0.29845273 0.25462413 -0.046592116
0.33212101 0.2535882 -0.048025429
0.36909485 0.25341702 -0.04726696
0.40838718 0.25318885 -0.046402037
0.44643676 0.25273311 -0.046666145
0.48210514 0.25325787 -0.047167361
0.51981175 0.25416398 -0.047288001
0.56014872 0.25386047 -0.047662139
0.59351456 0.2536099 -0.047551513
0.62179852 0.25620019 -0.045994997
-0.6173889 0.28565717 -0.046893835
-0.5919199 0.27569783 -0.047913373
-0.55424285 0.26972783 -0.047996819
-0.5165413 0.26828384 -0.049658537
-0.47869396 0.26804149 -0.047414124
-0.44415191 0.26803386 -0.04886806
-0.40547189 0.26783729 -0.046891034
-0.36631292 0.26802194 -0.048057199
-0.33641851 0.26781797 -0.044718027
-0.29952937 0.26699519 -0.045634866
-0.25836328 0.26619446 -0.044287324
-0.22277689 0.26616311 -0.043248057
-0.18558866 0.2661562 -0.0434196
-0.14866936 0.26499212 -0.039855957
-0.11217767 0.26428139 -0.03996551
-0.073776245 0.26331592 -0.039570928
-0.034627736 0.26237571 -0.039677978
0.0029797554 0.26190412 -0.041286528
0.039673388 0.26056385 -0.039935112
0.075728476 0.26048219 -0.039497674
0.11065865 0.26008439 -0.040507257
0.14336252 0.25887978 -0.040870011
0.18584216 0.26021159 -0.049548447
0.21814805 0.25909805 -0.044392407
0.26098859 0.25871837 -0.043398559
0.29663026 0.25786412 -0.04350704
0.31713784 0.25843596 -0.039120555
0.45274138 0.25884974 -0.033687532
0.46780574 0.25910342 -0.052364826
0.53265631 0.25759542 -0.043869495
0.60915148 0.26026309 -0.041886508
0.63515532 0.26825523 -0.045769632
0.6562463 0.27846396 -0.046454728
0.016128659 0.25717485 0.0074173212
0.039996922 0.25647819 0.0075184107
0.079059005 0.25672591 0.0035457015
0.11562896 0.25676155 -0.0021334291
0.14886898 0.25581443 -0.0021243691
0.18332464 0.2553637 -0.0045923591
0.22619891 0.25500834 -0.0052756667
0.26317549 0.25473166 -0.0039387941
0.29517055 0.25455117 -0.0089448094
0.33647621 0.25505018 -0.0083950162
0.37210023 0.25405753 -0.008803308
0.4104358 0.25318193 -0.0092428327
0.4452666 0.25295591 -0.0086007118
0.4802078 0.25293803 -0.0090290308
0.52028501 0.25365973 -0.010185957
0.5539937 0.25376999 -0.0091042519
0.5925647 0.2542783 -0.0093288422
0.61956084 0.25720024 -0.011609733
-0.59050506 0.2787497 -0.0101794
-0.55772352 0.2692132 -0.010827422
-0.51680952 0.26679695 -0.011421561
-0.47961503 0.26629448 -0.0077264309
-0.44513822 0.26648319 -0.0080732703
-0.40651056 0.26589179 -0.0097846389
-0.36615357 0.26516581 -0.0074599385
-0.33237234 0.26543152 -0.0084508657
-0.29547349 0.26608646 -0.0071683526
-0.25753516 0.26435256 -0.0047571063
-0.22498554 0.26416385 -0.0044831634
-0.18726504 0.26368141 -0.0035750866
-0.15126938 0.26286066 -0.0019524693
-0.10977715 0.26193058 -0.0024890304
-0.074584782 0.26187861 -0.0031458735
-0.036888719 0.26092994 -0.0047796965
0.0029893517 0.26006484 -0.0041979551
0.037494838 0.25994444 -0.0075081587
0.072149217 0.26017821 -0.0057050586
0.10790348 0.25951254 -0.006423831
0.14314401 0.25966346 -0.0092961788
0.18119591 0.25929224 -0.012219965
0.21998882 0.25879788 -0.0128057
0.26351947 0.25823975 -0.014355123
0.30160439 0.25764227 -0.012678444
0.33110988 0.25802803 -0.011152267
0.41638088 0.25774074 0.00023120642
0.43687534 0.25851762 -0.015476525
0.60063779 0.25962782 0.00044625998
0.63206363 0.26852119 -0.0091450214
0.65850484 0.28300273 -0.0063180923
-0.55116159 0.25017405 0.034548521
-0.51729459 0.24221003 0.034776092
-0.48076686 0.24193144 0.03205508
-0.44496521 0.24285936 0.033492923
-0.40968207 0.24655962 0.033979356
-0.37553862 0.24946332 0.033053339
-0.33314773 0.25017798 0.033773065
-0.29267529 0.25100636 0.038043261
-0.25529197 0.25240088 0.036668837
-0.21873099 0.2533828 0.039249063
-0.18656027 0.25387418 0.038519681
-0.14796054 0.2506876 0.043606579
-0.10443473 0.25395596 0.040131509
-0.075261891 0.25416672 0.038445294
-0.037457347 0.25435448 0.036114037
0.0025474429 0.2552911 0.034307182
0.03581965 0.25594079 0.030495644
0.077503502 0.25536764 0.032083154
0.11134583 0.25486648 0.028715074
0.14534229 0.25413537 0.029097736
0.18236655 0.25419521 0.027465165
0.22452796 0.25343227 0.02700907
0.26324683 0.25330532 0.028241992
0.29573512 0.25331509 0.025323153
0.33250284 0.25254762 0.026428461
0.3697561 0.25276995 0.02563709
0.40666759 0.251984 0.025845766
0.44557154 0.25148845 0.026486516
0.48312306 0.25153828 0.025864005
0.52093112 0.25161636 0.025491893
0.55735791 0.25178325 0.02681464
0.59273171 0.25330794 0.028068662
0.62089837 0.25586939 0.020620346
-0.58702159 0.2774328 0.025552571
-0.55469108 0.26453936 0.022942841
-0.519189 0.26181149 0.017797709
-0.48186105 0.26223576 0.017078519
-0.44712093 0.26245749 0.019578874
-0.40778145 0.26229715 0.019988298
-0.36533615 0.26145208 0.019637287
-0.33361027 0.26213217 0.021403134
-0.29921365 0.26268935 0.019740999
-0.26003322 0.26224649 0.023251772
-0.22333905 0.26223254 0.025977671
-0.18646985 0.26187968 0.022124052
-0.14907473 0.26097047 0.026233613
-0.11137354 0.26089251 0.024339676
-0.073968172 0.2603935 0.02446568
-0.035000741 0.2592684 0.024330914
0.0028864145 0.25942051 0.022438049
0.043927908 0.25934064 0.019969285
0.072681963 0.25899673 0.023174822
0.10893756 0.25892901 0.022840798
0.1419366 0.25867486 0.02738589
0.61137545 0.25941193 0.042397976
0.63335168 0.26843011 0.028399289
0.65542364 0.27856565 0.026237786
-0.58522874 0.092814922 0.081278503
-0.55473071 0.10695219 0.080697417
-0.58690435 0.13404107 0.070822656
-0.55995822 0.1341666 0.070585489
-0.52031654 0.13670349 0.072642744
-0.48343951 0.13419902 0.07630986
-0.45010132 0.13729596 0.078192174
-0.37032139 0.14255357 0.079458416
-0.34065163 0.14416492 0.080006003
-0.58813596 0.16986835 0.072405875
-0.55887991 0.16506839 0.064875424
-0.5187242 0.16727042 0.068938434
-0.47860098 0.16470158 0.06594789
-0.4449679 0.16596961 0.066785336
-0.4077152 0.1675967 0.070511699
-0.36546069 0.1635921 0.07361269
-0.33097941 0.16569197 0.074566305
-0.29948935 0.16468108 0.07624346
-0.26153016 0.16874743 0.077728629
-0.22664323 0.17027056 0.078844786
-0.19217068 0.16847777 0.080573201
-0.16017598 0.17979443 0.079656839
-0.12317854 0.18202674 0.081080735
-0.58841735 0.20194554 0.070363522
-0.56059915 0.20502234 0.059420109
-0.5168376 0.20328879 0.054071248
-0.48011082 0.20436382 0.054101169
-0.44560164 0.20267653 0.063339889
-0.41045275 0.20495486 0.061216116
-0.37056613 0.19592381 0.070300639
-0.33008042 0.20247483 0.071953595
-0.29451337 0.20286846 0.068571031
-0.26141059 0.20477509 0.070458293
-0.22120923 0.20205736 0.072217226
-0.18429208 0.20011115 0.074696243
-0.14574802 0.19959617 0.077516139
-0.10965383 0.20425808 0.077822149
-0.075048149 0.20630443 0.078599513
-0.03901273 0.21244586 0.079464376
-0.0067059994 0.21174514 0.079167902
0.037103295 0.21307206 0.080034554
0.06667161 0.21375239 0.079939187
0.1048485 0.21705139 0.080090225
0.13142622 0.21893489 0.078835189
-0.58096296 0.23470008 0.061941922
-0.55783808 0.24138761 0.0638659
-0.52423465 0.24452662 0.066990018
-0.47360623 0.2357024 0.056557119
-0.44041848 0.23743653 0.057860553
-0.39878961 0.23226774 0.057864726
-0.36833936 0.23390377 0.057459891
-0.33421606 0.2377851 0.057936013
-0.29783636 0.23967624 0.056990921
-0.25779301 0.2386781 0.061942339
-0.22229493 0.23613179 0.063246429
-0.18900794 0.23681808 0.066096723
-0.14802796 0.23982811 0.063990772
-0.11024946 0.24031365 0.06705749
-0.072624147 0.24241066 0.06463927
-0.03769201 0.24205542 0.066419303
0.0025569201 0.24261439 0.067179263
0.041024268 0.24369001 0.064586759
0.077311754 0.2435323 0.065989554
0.11472243 0.24330878 0.066465914
0.15058434 0.24336267 0.064282775
0.18289053 0.24439692 0.067328572
0.22262323 0.2449224 0.067199826
0.25851744 0.24417424 0.068119287
0.29562116 0.24502265 0.067752242
0.33261716 0.24559426 0.065023899
0.36873722 0.24690485 0.065226793
0.40631127 0.24641883 0.064206421
0.44474626 0.24745655 0.061857581
0.48089075 0.24798894 0.063922346
0.51867247 0.24865186 0.06213361
0.55613172 0.24946678 0.062592626
0.59516895 0.25167871 0.064500391
0.62221527 0.25499725 0.064868629
0.65010738 0.25643957 0.074780762
-0.57902169 0.2736429 0.05881238
-0.55676138 0.27740693 0.064233065
-0.5182234 0.26992273 0.074738264
-0.48250723 0.27674592 0.076234281
-0.45577243 0.2806586 0.079180956
-0.25518429 0.25781155 0.048266947
-0.22866064 0.26058412 0.04816258
-0.17851681 0.25954735 0.050275385
-0.14475816 0.26033223 0.049219489
-0.11021197 0.2586416 0.050683022
-0.085309744 0.25764084 0.063957155
0.63733625 0.26424122 0.060398042
0.66216826 0.27551854 0.065652192
-0.59021729 -0.026669383 0.11542463
-0.55951273 -0.023779869 0.11613208
-0.52593768 -0.016689539 0.11814404
-0.47964293 -0.0066993237 0.1190151
-0.62053442 0.0039943457 0.11551374
-0.59144592 0.015916586 0.10641134
-0.55194062 0.011969924 0.10789335
-0.51705235 0.011320353 0.11248982
-0.48626646 0.012926459 0.1151368
-0.44933131 0.024391174 0.11499667
-0.41872734 0.023663282 0.11799848
-0.61232847 0.056601167 0.10791212
-0.59404421 0.055266738 0.10391617
-0.55280888 0.054576516 0.097191453
-0.51527607 0.054445148 0.102422
-0.47960338 0.053222895 0.10543221
-0.44585907 0.053537607 0.10799921
-0.40564445 0.053514719 0.10920507
-0.36639437 0.056573391 0.11203676
-0.33174539 0.055465221 0.11672133
-0.30762702 0.056366682 0.11757338
-0.27233714 0.058212519 0.11895967
-0.23952141 0.05886364 0.11949635
-0.61277008 0.084182262 0.098125398
-0.59504706 0.093515038 0.10281867
-0.56098574 0.086628318 0.094542265
-0.51731914 0.095205903 0.095546722
-0.48248196 0.091081381 0.098842561
-0.44536275 0.087943554 0.10484445
-0.40590322 0.08646667 0.10857356
-0.36942405 0.088115454 0.1080206
-0.33079505 0.085313559 0.10877335
-0.29402751 0.086491466 0.10999227
-0.25735497 0.087767363 0.11306065
-0.22084004 0.090273499 0.1143989
-0.18514121 0.094038844 0.11549407
-0.14642143 0.10186553 0.11601031
-0.10950369 0.10211658 0.11708796
-0.076250374 0.10324466 0.11717784
-0.035078466 0.10530436 0.11721903
0.00043213367 0.10530698 0.11701006
0.0404585 0.10643208 0.11840576
0.075276017 0.10742819 0.11831319
-0.61312348 0.11623192 0.10936868
-0.59354275 0.12805283 0.09900409
-0.55663049 0.12693405 0.10954726
-0.51304543 0.12190866 0.092223465
-0.47896293 0.12087739 0.09610647
-0.44352856 0.12289441 0.093565583
-0.40863118 0.12520075 0.09503907
-0.36790621 0.12696564 0.09762007
-0.33620733 0.12380493 0.10149693
-0.30068654 0.12624216 0.10151625
-0.26034197 0.1295439 0.10281271
-0.22273681 0.13245881 0.1024031
-0.184937 0.13151348 0.10486645
-0.14755791 0.13148713 0.10437971
-0.1124137 0.1340096 0.10700059
-0.074687421 0.1305418 0.11046761
-0.036757171 0.1315546 0.11061567
0.00085449219 0.13051236 0.11057389
0.038932323 0.13136351 0.1111201
0.075986743 0.13201427 0.11251891
0.11483657 0.13038146 0.11422998
0.14796317 0.1363126 0.11503971
0.18509543 0.13911963 0.11474842
0.22466123 0.14048374 0.11220098
0.25939757 0.13928676 0.11504489
0.2988615 0.14021313 0.11648309
0.32624793 0.14537346 0.11447573
0.35320532 0.14544594 0.11512744
-0.59020317 0.16585135 0.093390465
-0.55446523 0.16749012 0.10078412
-0.52244496 0.16271007 0.10636538
-0.47781113 0.16286445 0.095147908
-0.43108389 0.1667248 0.084432483
-0.39666843 0.16057456 0.088706315
-0.36896399 0.15723896 0.087482572
-0.33811414 0.15742958 0.092108905
-0.29723501 0.15706897 0.094332457
-0.25716746 0.16393316 0.090811968
-0.22455698 0.16222978 0.093788683
-0.18440753 0.16346192 0.092286587
-0.14771962 0.16569304 0.094097316
-0.11239088 0.16639066 0.095076442
-0.07562542 0.16391432 0.09649545
-0.035417378 0.16263044 0.10220331
0.0049174428 0.16400051 0.10214579
0.042475104 0.16312671 0.10429561
0.075593591 0.16480124 0.10335529
0.11352295 0.16480827 0.10634291
0.14600021 0.16555882 0.10916978
0.18182582 0.16858447 0.10695654
0.22277194 0.1643281 0.10946161
0.26214826 0.16500306 0.10996395
0.2960093 0.16384888 0.11154372
0.33623302 0.16751969 0.11096984
0.37267482 0.16868174 0.11246818
0.40326858 0.16901398 0.11517924
0.44180417 0.16764367 0.11636734
0.480685 0.16625357 0.11771858
0.51560426 0.16770613 0.11819631
0.5471766 0.18049216 0.11846048
-0.58269143 0.20049453 0.089324117
-0.55250931 0.20347428 0.097702861
-0.5204612 0.20108247 0.10821378
-0.48971722 0.21008515 0.11606354
-0.4462505 0.21113586 0.11732602
-0.3370221 0.18563759 0.085176349
-0.29267287 0.19156039 0.084847927
-0.25796625 0.19252563 0.086764634
-0.21252334 0.20209706 0.088331282
-0.17795676 0.20774543 0.087768495
-0.15006149 0.20183253 0.092633307
-0.10887361 0.20066369 0.092628539
-0.074436247 0.19854879 0.091443777
-0.036279142 0.19691837 0.094158411
0.0042361021 0.2020365 0.092261493
0.04023236 0.19900644 0.094079971
0.0770244 0.200652 0.093181908
0.11528432 0.20286334 0.095211029
0.15082085 0.20367599 0.095984578
0.18698031 0.20272136 0.099274576
0.22359413 0.19975138 0.10263449
0.25772029 0.20080113 0.10534799
0.29653466 0.19946635 0.1071772
0.3349812 0.20534754 0.10646725
0.3707763 0.20639312 0.10864186
0.4083941 0.20648158 0.10645097
0.44664848 0.20330107 0.11060452
0.47876525 0.2011174 0.11262715
0.51600242 0.20162582 0.11324817
0.5552963 0.21157575 0.11648422
0.5938518 0.20841765 0.11849684
-0.568362 0.23232615 0.089702427
-0.51920605 0.24000347 0.099788606
-0.48313454 0.23840213 0.10615826
-0.44652307 0.23788893 0.1096676
-0.40835616 0.24244177 0.11276704
-0.36934885 0.24577522 0.11267471
-0.33595601 0.24807644 0.11491638
-0.29788247 0.24691737 0.11497051
-0.2638638 0.24885273 0.11457038
-0.14610916 0.22446632 0.08591336
-0.10640967 0.22505736 0.086246848
-0.074301243 0.23165977 0.0855003
-0.037150502 0.23009753 0.08798188
-0.00011593103 0.23064816 0.08788234
0.032150388 0.2352879 0.085701525
0.072807848 0.2313503 0.089127958
0.1143567 0.22833109 0.09260273
0.14979482 0.2295655 0.09377861
0.18880945 0.22935915 0.094723284
0.22664392 0.22974169 0.094643593
0.25804263 0.22829652 0.096601069
0.29760313 0.22892523 0.093995988
0.33651805 0.23030996 0.094042063
0.37305999 0.23311031 0.092157602
0.41134357 0.23117232 0.095297396
0.44727743 0.23190272 0.097169459
0.48039269 0.23569512 0.0962677
0.51878309 0.23872256 0.097987056
0.55373871 0.24215579 0.098585308
0.59053493 0.24242914 0.10105193
0.62850666 0.24985135 0.10336745
0.65171504 0.25479615 0.11123633
-0.55165356 0.26292551 0.083952367
-0.52303118 0.28370368 0.084410787
-0.48293781 0.27292037 0.088449299
-0.44111055 0.26747763 0.098075569
-0.40730968 0.27133644 0.10223228
-0.37099263 0.27741241 0.10027748
-0.33428946 0.27722943 0.10109913
-0.29782689 0.28039289 0.10410047
-0.260331 0.27322805 0.11411881
-0.21812332 0.27599597 0.11264354
-0.18256122 0.26910937 0.11592853
-0.14730108 0.28205442 0.11492831
0.63800001 0.25915766 0.086162508
0.66837597 0.26940787 0.10134125
0.69296932 0.27826273 0.10467619
-0.59647864 -0.15679115 0.15465569
-0.57145321 -0.15825778 0.15443027
-0.61256194 -0.12783211 0.14435589
-0.59006226 -0.13206488 0.1474365
-0.55355132 -0.13381106 0.14997101
-0.52165532 -0.12275749 0.15028703
-0.49222618 -0.12424988 0.15470493
-0.62103367 -0.093306422 0.14470279
-0.59314167 -0.094216585 0.13829923
-0.55611849 -0.094116926 0.13758945
-0.5231266 -0.094732285 0.14137483
-0.48210472 -0.097407103 0.14863765
-0.4437446 -0.090942144 0.1513387
-0.4105787 -0.091511846 0.15433967
-0.37649935 -0.092288733 0.15566623
-0.34358403 -0.087719083 0.15651715
-0.61958402 -0.060561776 0.14032042
-0.59095538 -0.05789125 0.1357249
-0.55215174 -0.059705973 0.13743722
-0.52104008 -0.061590195 0.13600922
-0.48618072 -0.058799267 0.14009869
-0.4450818 -0.056406736 0.1430577
-0.40512568 -0.059434533 0.14583194
-0.36828229 -0.057558537 0.14803147
-0.33309746 -0.057706714 0.15150976
-0.29652259 -0.054381967 0.15315032
-0.25791395 -0.052882195 0.15459156
-0.23162627 -0.045579791 0.15262067
-0.19437051 -0.040091038 0.15351403
-0.15649837 -0.040613055 0.15672374
-0.61659473 -0.024880886 0.14254725
-0.60043854 -0.025781035 0.1359117
-0.55756736 -0.017143607 0.1360451
-0.51606399 -0.026480794 0.132465
-0.48242295 -0.028002739 0.13203382
-0.44390321 -0.02205503 0.13615525
-0.40491089 -0.020251632 0.13819587
-0.36760077 -0.020248294 0.14281523
-0.33237723 -0.023415208 0.14262795
-0.29432467 -0.024363279 0.14535713
-0.26016629 -0.022160411 0.14775181
-0.22806484 -0.023467183 0.1491524
-0.18940824 -0.022509217 0.15045118
-0.14929926 -0.017009735 0.1514591
-0.11488318 -0.017035842 0.15344334
-0.079002857 -0.015712857 0.15309489
-0.026013434 -0.010235429 0.15288687
-0.0022545457 -0.0085214376 0.15362096
0.038674951 -0.0044903755 0.15495682
0.072928905 -0.0045949221 0.15615892
0.09656626 -0.0023360252 0.15680599
-0.61518645 0.011470318 0.13261163
-0.59689254 0.016870022 0.13802946
-0.55714762 0.018781543 0.13725662
-0.52191806 0.019159198 0.13628149
-0.47561544 0.01703763 0.13121963
-0.44738474 0.0078163147 0.12856317
-0.40554354 0.01275456 0.13088131
-0.36908627 0.015988111 0.13067853
-0.33479837 0.015035033 0.13563085
-0.29523298 0.015318632 0.13623786
-0.25740364 0.013954282 0.13944173
-0.22325706 0.014134407 0.14408672
-0.18601006 0.015825748 0.1441381
-0.14572042 0.013995767 0.14645553
-0.10995209 0.012709141 0.14621222
-0.074143648 0.012729645 0.14787865
-0.033826709 0.013388991 0.14958942
0.0052950382 0.015490294 0.15108466
0.037295699 0.017314434 0.15202093
0.077368379 0.020494819 0.15245008
0.1092369 0.022692561 0.15387273
0.14706695 0.027279377 0.15420842
0.17378122 0.0277071 0.15497804
0.22512066 0.022821665 0.15673435
-0.59130871 0.053886533 0.13475978
-0.55709606 0.058938265 0.14327478
-0.52163285 0.057216883 0.15331328
-0.49456209 0.053443789 0.13348293
-0.44725585 0.054723978 0.12402749
-0.40853465 0.061344981 0.12393475
-0.37124011 0.057009697 0.12848866
-0.3276819 0.048854709 0.12775874
-0.29159629 0.047097802 0.13070536
-0.25686044 0.049457908 0.13087976
-0.22243828 0.049655914 0.13286841
-0.18746936 0.049856424 0.13265109
-0.14792466 0.051152706 0.13716173
-0.11115789 0.051270604 0.13822246
-0.075533271 0.052460194 0.1402688
-0.036693335 0.0512079 0.14306462
0.0032285452 0.055503488 0.14310598
0.041033208 0.057830453 0.14176476
0.076176703 0.058926821 0.14360571
0.10965365 0.05888021 0.14437234
0.14375454 0.058529139 0.14466131
0.18378645 0.055270553 0.14737129
0.22153461 0.055333138 0.14974344
0.25769222 0.057543993 0.14874291
0.29483747 0.057544231 0.15008819
0.33370638 0.059946537 0.1511482
0.36766529 0.061140895 0.15122032
0.40747499 0.069960713 0.15197408
-0.59211779 0.087074399 0.12503839
-0.55465204 0.09051311 0.13511074
-0.51902664 0.09462297 0.14395618
-0.47795367 0.092695594 0.15244341
-0.44904429 0.099617124 0.15478873
-0.36053213 0.084065318 0.12256324
-0.3332203 0.086307526 0.12291479
-0.29612616 0.091073155 0.12383306
-0.26045108 0.088747978 0.12675405
-0.22101653 0.089936137 0.1282599
-0.18750864 0.087235451 0.12709522
-0.14934206 0.08714354 0.12988198
-0.11309415 0.088542223 0.12980771
-0.073288918 0.090896368 0.13070393
-0.034132183 0.094642878 0.12982392
0.0044734478 0.096269369 0.13029611
0.039266288 0.093141913 0.13306224
0.073649883 0.093750834 0.13457441
0.11360538 0.089774489 0.14051557
0.14934564 0.087127447 0.14326751
0.1853109 0.089457512 0.1439147
0.22312164 0.090865493 0.14362574
0.25810981 0.091404676 0.14575267
0.29584444 0.089263558 0.14709139
0.33482003 0.089548826 0.14601231
0.37267363 0.092699647 0.14798737
0.40738523 0.089459896 0.14867306
0.44410896 0.090847373 0.14991403
0.48273373 0.097750425 0.14994717
0.51930857 0.10413897 0.15423489
-0.54747754 0.12348235 0.13005435
-0.51384294 0.12392998 0.13809288
-0.48377937 0.13130951 0.13808084
-0.44881967 0.12937009 0.14725018
-0.41180277 0.13548732 0.14904928
-0.3860254 0.13341844 0.15227938
-0.29075342 0.10986972 0.12104273
-0.25939396 0.11230719 0.1220355
-0.22194135 0.11608708 0.12298179
-0.18445963 0.11685514 0.12416303
-0.14500576 0.12552691 0.12362146
-0.10366875 0.1224395 0.12647295
-0.065756202 0.13116968 0.12435114
-0.033883452 0.12786496 0.12669253
0.0017562509 0.13037694 0.12578487
0.037176788 0.12373936 0.1297971
0.074355066 0.13015938 0.12735498
0.11211526 0.12256181 0.12928867
0.14542425 0.12143636 0.13135004
0.18507665 0.12238157 0.13133466
0.22390699 0.12336338 0.13255525
0.26079744 0.12531316 0.13468695
0.2953347 0.12359869 0.13396406
0.33327901 0.12571132 0.13670683
0.37125981 0.12332249 0.13797188
0.40894282 0.12577987 0.13904405
0.44716465 0.12911832 0.14058733
0.4839586 0.13262379 0.14250624
0.52090371 0.13095737 0.14353824
0.55585754 0.13365543 0.14796782
0.5880028 0.14178026 0.1482358
-0.54629123 0.15188527 0.12565446
-0.52112889 0.15965819 0.12799084
-0.48611897 0.16700375 0.12648654
-0.44466761 0.16337121 0.13213539
-0.40876243 0.16577005 0.13995123
-0.37903321 0.17109561 0.14117944
-0.014968812 0.14866018 0.12006521
0.021356106 0.14701951 0.12092626
0.10426503 0.15215254 0.12126708
0.15134257 0.15817821 0.12160945
0.19067079 0.15771782 0.12216234
0.22352862 0.15750778 0.12387013
0.25752187 0.15965629 0.12511909
0.29640794 0.15912545 0.12735367
0.33524907 0.1590023 0.12720227
0.37282646 0.16201639 0.12827659
0.40792918 0.161906 0.12978172
0.44516265 0.16521192 0.12901556
0.48261547 0.1647402 0.13055646
0.51736367 0.16377783 0.13389194
0.5583297 0.16634655 0.13964951
0.59202528 0.16470242 0.14371932
0.62472796 0.16966534 0.14628875
-0.5436523 0.18885553 0.1265409
-0.51859796 0.20736241 0.12283623
-0.48126465 0.19575489 0.12974608
-0.44784254 0.19590402 0.1288619
-0.40685692 0.20210636 0.13040447
-0.37209672 0.21202219 0.12787807
-0.33371085 0.21823263 0.13211143
-0.30490533 0.22004485 0.12969112
0.33512402 0.18662596 0.12044835
0.37112308 0.18943918 0.12223768
0.41153872 0.19283378 0.12291777
0.44148254 0.19261324 0.12508667
0.48023725 0.20150506 0.1254704
0.51888573 0.2020458 0.12688196
0.55279839 0.20095551 0.12965047
0.59297979 0.20233345 0.13480198
0.62532306 0.20343649 0.14433765
0.65024316 0.20827806 0.15375841
-0.47982621 0.23180902 0.12551427
-0.43366736 0.22939336 0.12860703
-0.40436292 0.23050737 0.12998104
-0.37186521 0.23752439 0.12998474
-0.33064917 0.23640203 0.13013494
-0.30107823 0.24041188 0.1297003
-0.2590335 0.24580801 0.12774718
-0.21743137 0.24680996 0.13407409
-0.18190289 0.24582732 0.13715613
-0.15171808 0.24658847 0.13381422
0.5343138 0.22488391 0.12422562
0.55981481 0.22728109 0.12452126
0.59200799 0.23051095 0.12664127
0.63226533 0.24065697 0.13606143
0.65284109 0.2468847 0.1435535
-0.36778468 0.25891387 0.12323511
-0.32558909 0.26605356 0.12837529
-0.29555503 0.26230049 0.12677467
-0.25090775 0.27421916 0.12356639
-0.21932626 0.27179945 0.1265409
-0.1782881 0.27343953 0.12536442
-0.14978743 0.27306473 0.13079619
-0.1117503 0.27835536 0.13638794
-0.070516109 0.28051353 0.13643086
-0.029207885 0.28745019 0.13941061
-0.0038766265 0.2878902 0.14649427
0.64593565 0.26694024 0.14178824
0.67145383 0.26995504 0.14008844
0.69503117 0.27928066 0.13499665
-0.58083409 -0.30054903 0.19298089
-0.61564928 -0.27419114 0.18469369
-0.5952853 -0.27838099 0.18817222
-0.55707496 -0.2724672 0.18925738
-0.52591819 -0.26624131 0.19213796
-0.62266231 -0.24108785 0.18440306
-0.59340858 -0.23687911 0.17594433
-0.56005466 -0.235883 0.18027842
-0.51608062 -0.24313527 0.18653083
-0.47467649 -0.24485391 0.19190466
-0.44910112 -0.23538256 0.19289196
-0.62460983 -0.20535678 0.18462229
-0.59313846 -0.20111084 0.17157805
-0.55852205 -0.20412588 0.17327535
-0.51903534 -0.20674199 0.17936611
-0.48138013 -0.206936 0.18216825
-0.44384423 -0.20521504 0.18490767
-0.40864304 -0.20619673 0.18793619
-0.3693614 -0.19917297 0.18925726
-0.33364227 -0.19510233 0.19002748
-0.30795729 -0.19128364 0.19026399
-0.62189007 -0.16819769 0.17434907
-0.59528005 -0.17243659 0.16646564
-0.55392647 -0.17163074 0.1677531
-0.51908576 -0.17139882 0.17363334
-0.47835445 -0.16727203 0.17434454
-0.44107723 -0.1693536 0.17972755
-0.4071095 -0.16834605 0.18396676
-0.37388867 -0.16768807 0.18172181
-0.33241427 -0.1688273 0.18312514
-0.29399532 -0.16692948 0.18590164
-0.2587387 -0.1681065 0.1896404
-0.22765616 -0.16491002 0.19091833
-0.19427598 -0.1622467 0.19254661
-0.15246189 -0.15068799 0.19094408
-0.62151325 -0.13251662 0.17298698
-0.59820819 -0.13231283 0.18185186
-0.55691338 -0.13531375 0.16867173
-0.51595676 -0.13436282 0.16666055
-0.48126748 -0.1353488 0.1663574
-0.44318035 -0.13583881 0.17094636
-0.40959337 -0.13388503 0.17378521
-0.37196353 -0.12937146 0.17434454
-0.33447245 -0.13041878 0.17760718
-0.2947216 -0.13085413 0.18029463
-0.25593182 -0.1278373 0.18168092
-0.22380343 -0.12904841 0.18125689
-0.18716788 -0.1295557 0.18365252
-0.1465345 -0.13271958 0.18658984
-0.11145723 -0.12781292 0.18726277
-0.075485706 -0.12601388 0.18971026
-0.035918951 -0.12511921 0.19017911
0.0024918914 -0.12396926 0.190786
0.0328812 -0.11759979 0.19101977
-0.61813492 -0.097380161 0.16680872
-0.5946815 -0.092666149 0.17968369
-0.56388009 -0.086250544 0.18147814
-0.51744425 -0.10142601 0.16088903
-0.47973818 -0.094807029 0.163064
-0.44486713 -0.10128379 0.16571796
-0.40883371 -0.09845674 0.163818
-0.3718667 -0.095430255 0.16802883
-0.3290545 -0.092023492 0.16763592
-0.29422745 -0.093376398 0.16858375
-0.26063055 -0.092228055 0.173769
-0.22480327 -0.093547702 0.17461586
-0.18805331 -0.099560499 0.17794478
-0.14911348 -0.098944545 0.18177497
-0.111718 -0.092635751 0.18332815
-0.074622571 -0.093044877 0.18263006
-0.036041915 -0.092704892 0.18367898
0.0020602942 -0.094597697 0.18518841
0.038968146 -0.094888926 0.18580294
0.071515977 -0.093163967 0.18741632
0.1076802 -0.091727138 0.18846846
0.14599061 -0.0896281 0.18995845
0.18659812 -0.083053589 0.1899482
0.22680515 -0.080012441 0.19113421
0.25577056 -0.07935977 0.19078231
0.29395127 -0.078033209 0.18950856
0.33453286 -0.076728702 0.19090998
-0.61574161 -0.059066534 0.16511667
-0.59102321 -0.056681991 0.1726737
-0.55731034 -0.056187391 0.18032348
-0.52718866 -0.048901677 0.18728781
-0.46801081 -0.070998073 0.16098309
-0.42724207 -0.072340608 0.16499031
-0.40840706 -0.059271693 0.16073287
-0.37083712 -0.054887891 0.16327369
-0.33587328 -0.057646751 0.16618383
-0.29423967 -0.063866258 0.16483605
-0.25393793 -0.060839295 0.1661942
-0.22212321 -0.062564135 0.16827786
-0.18453926 -0.06070745 0.16956818
-0.14687026 -0.059862137 0.1707778
-0.11265612 -0.055519342 0.17189419
-0.07510823 -0.055651069 0.17323112
-0.034320295 -0.055997372 0.17647147
0.0051316619 -0.054327607 0.1777817
0.041295707 -0.054808259 0.17940867
0.075188279 -0.052325606 0.18074763
0.11070877 -0.055015206 0.18260539
0.14305562 -0.054336667 0.18206418
0.18082398 -0.053133488 0.18227124
0.22208285 -0.052963734 0.182809
0.26266676 -0.052993536 0.18547189
0.30020118 -0.053386211 0.18748868
0.33592784 -0.055683255 0.18935585
0.36924922 -0.055691004 0.18933773
0.40718865 -0.051074624 0.18985963
0.44120467 -0.043194056 0.19052124
0.46910501 -0.039979219 0.18893206
-0.59115988 -0.021426558 0.16246331
-0.55629396 -0.02043438 0.17187035
-0.51995015 -0.021654844 0.17877948
-0.48172587 -0.01335001 0.18204665
-0.32344431 -0.02339983 0.158373
-0.29800335 -0.030336499 0.16089845
-0.25841898 -0.023494959 0.1624229
-0.22239673 -0.013778329 0.16127563
-0.18498117 -0.022005916 0.16350794
-0.1444959 -0.026254773 0.16399634
-0.10427701 -0.027810454 0.16690624
-0.069831848 -0.02496922 0.16680861
-0.034124196 -0.019748569 0.16801023
0.0044159889 -0.018718123 0.16926444
0.043287933 -0.020197749 0.17103815
0.076008081 -0.023824811 0.17499709
0.11026949 -0.022779703 0.17304385
0.14408147 -0.020861983 0.17601252
0.18053067 -0.020158768 0.18009794
0.22055924 -0.018746614 0.18018758
0.25770009 -0.020143032 0.18209684
0.29474497 -0.022080064 0.18263447
0.33333862 -0.021878123 0.18310714
0.37451148 -0.021626234 0.18459976
0.410694 -0.021579981 0.18673444
0.44958663 -0.0219028 0.18746293
0.48877442 -0.016158104 0.18841445
0.51191247 -0.019759774 0.18986881
0.5451324 -0.0025420189 0.19311523
-0.58882403 0.0056436062 0.16471529
-0.55668151 0.014467716 0.16474509
-0.51771855 0.014730215 0.17000735
-0.48117816 0.01367116 0.17601228
-0.45230174 0.017584682 0.17664003
-0.22158635 0.00027239323 0.16025352
-0.19427347 0.0040835142 0.16020596
-0.15372008 0.011511445 0.15997589
-0.11259651 0.013754845 0.16072881
-0.07340771 0.012931824 0.16266394
-0.036081553 0.010843992 0.16455054
-0.00032830238 0.010624647 0.16612804
0.03755182 0.0090930462 0.1673739
0.074148536 0.0089473724 0.16691589
0.11161101 0.012168765 0.16598356
0.14782333 0.011116982 0.16688824
0.18602896 0.010782719 0.16607094
0.2252208 0.012820721 0.16695738
0.26047599 0.010999322 0.17116988
0.29641902 0.011193395 0.17259276
0.33633029 0.013933659 0.17302823
0.37397468 0.012593746 0.17559648
0.40813684 0.017167687 0.17629325
0.44542313 0.015357852 0.17738903
0.48597133 0.01698947 0.18170953
0.52268338 0.02037096 0.18767381
0.55938363 0.026373625 0.18867052
0.59199822 0.023216844 0.1938529
0.61769497 0.025537252 0.19249427
-0.5867064 0.047524691 0.15881205
-0.55140066 0.045900822 0.15883756
-0.51504469 0.048268676 0.16249144
-0.48005843 0.053771973 0.16832781
-0.44483128 0.05461967 0.17334712
-0.41553375 0.065442085 0.17215955
-0.3735697 0.068107843 0.17390525
-0.34825462 0.06976378 0.17403555
0.0062175393 0.041133881 0.15752995
0.046075583 0.040609598 0.16069782
0.072513223 0.04167223 0.16157079
0.11055529 0.049674511 0.16081882
0.14568961 0.046601176 0.16335511
0.18238437 0.048734546 0.16419542
0.22093326 0.050037503 0.16490316
0.25890481 0.047355771 0.16493511
0.29728281 0.050328255 0.16524637
0.33478022 0.05046165 0.16716814
0.37158012 0.048932791 0.16760647
0.40880513 0.050064683 0.16732979
0.44527435 0.050335884 0.17221999
0.4830935 0.052052617 0.17450321
0.51933622 0.053826213 0.17707026
0.55575418 0.05848217 0.18302882
0.59299242 0.05668664 0.18530071
0.61695743 0.061962366 0.18858385
-0.53881544 0.079005957 0.16205859
-0.51365876 0.088524222 0.16178727
-0.4808785 0.0833112 0.16373801
