ply
format ascii 1.0
comment PCL generated
element vertex 1338
property float x
property float y
property float z
element camera 0
property float view_px
property float view_py
property float view_pz
property float x_axisx
property float x_axisy
property float x_axisz
property float y_axisx
property float y_axisy
property float y_axisz
property float z_axisx
property float z_axisy
property float z_axisz
property float focal
property float scalex
property float scaley
property float centerx
property float centery
property int viewportx
property int viewporty
property float k1
property float k2
end_header
-0.45064321 -0.036431335 -0.32509482
-0.43156257 -0.036427472 -0.32559538
-0.41297713 -0.036454078 -0.32213748
-0.39475569 -0.036508504 -0.31506634
-0.41280261 -0.017416168 -0.32355428
-0.47048038 -0.017416123 -0.31947482
-0.45044217 -0.017416123 -0.32654595
-0.39460719 -0.017416123 -0.31635284
-0.47017905 0.0016265046 -0.32153523
-0.41261598 0.0015991349 -0.32506979
-0.39445153 0.0016559437 -0.31770074
-0.46992403 0.020642169 -0.32327878
-0.41247883 0.020597313 -0.32618308
-0.39436141 0.020716053 -0.31848121
-0.46985254 0.039660122 -0.32376742
-0.39422199 0.039754279 -0.31968856
-0.46974263 0.058662299 -0.32451904
-0.3941001 0.058778476 -0.32074404
-0.46992585 0.077729955 -0.32326603
-0.39398703 0.077789426 -0.32172334
-0.46972981 0.09669745 -0.32460666
-0.39391169 0.096800461 -0.32237577
-0.46969682 0.11570421 -0.32483184
-0.39381033 0.1157892 -0.32325351
-0.3759833 0.11639041 -0.31209767
-0.46996987 0.13483632 -0.32296526
-0.39374956 0.13478611 -0.32377994
-0.37590697 0.13546206 -0.31280577
-0.47066438 0.15419692 -0.31821692
-0.39374956 0.15381144 -0.32377994
-0.37584704 0.15453324 -0.31336176
-0.39382914 0.17288993 -0.32309067
-0.37583071 0.17362714 -0.3135134
-0.45075253 0.19181746 -0.32430601
-0.39397687 0.19202879 -0.3218112
-0.37589198 0.19277953 -0.31294477
-0.45142195 0.211285 -0.31947482
-0.43158057 0.21073233 -0.32545769
-0.4126977 0.21082945 -0.32440615
-0.39425826 0.21129434 -0.3193742
-0.43236351 0.23034352 -0.31947494
-0.41335776 0.23038627 -0.31904721
-0.394728 0.23076065 -0.31530619
-0.41598114 -0.24812432 -0.29774809
-0.43504784 -0.22879581 -0.29896283
-0.41559711 -0.22863458 -0.30086601
-0.39680275 -0.22893336 -0.29733849
-0.43431181 -0.2091465 -0.30458724
-0.41523284 -0.20920534 -0.30382359
-0.39653552 -0.20952646 -0.29965293
-0.45382902 -0.19014546 -0.3021034
-0.43383291 -0.1897199 -0.30824673
-0.41485533 -0.18981397 -0.30688846
-0.3962658 -0.19015351 -0.3019886
-0.45319414 -0.17067124 -0.30668509
-0.43341339 -0.17037766 -0.31145251
-0.41450065 -0.17048135 -0.30976808
-0.3960098 -0.17082401 -0.30420542
-0.47345433 -0.1519208 -0.29914176
-0.452609 -0.15128678 -0.31090832
-0.39574698 -0.15152529 -0.30648172
-0.47309205 -0.13259138 -0.30161893
-0.3955344 -0.13228185 -0.30832279
-0.37750497 -0.13275969 -0.2979784
-0.47267461 -0.11328562 -0.3044728
-0.39536604 -0.11308135 -0.30978084
-0.37737131 -0.11348794 -0.29921877
-0.4724198 -0.094058141 -0.30621505
-0.39518324 -0.093899667 -0.31136382
-0.37726527 -0.094243303 -0.30020213
-0.47200391 -0.074831963 -0.30905843
-0.37713322 -0.075008363 -0.30142748
-0.37704527 -0.055798318 -0.30224359
-0.37692443 -0.036598571 -0.30336511
-0.37677488 -0.017416213 -0.30475259
-0.37665975 0.0017474014 -0.30582082
-0.37652552 0.020891692 -0.30706608
-0.37641609 0.040022139 -0.30808163
-0.376304 0.059136365 -0.30912173
-0.37619883 0.078236878 -0.31009746
-0.376046 0.097302064 -0.31151557
-0.35831177 0.11716779 -0.29767132
-0.35819784 0.13632399 -0.29880953
-0.35806105 0.15544684 -0.30017662
-0.35801375 0.17461738 -0.30064893
-0.35801888 0.19382508 -0.30059803
-0.37607875 0.21204826 -0.31121182
-0.35810193 0.21310546 -0.29976785
-0.45251429 0.23113224 -0.31159163
-0.37645712 0.23152167 -0.30770099
-0.35834634 0.23256008 -0.29732573
-0.43363878 0.25045213 -0.30973005
-0.4143883 0.25034979 -0.31068039
-0.39548165 0.25055462 -0.30877924
-0.37700269 0.25121629 -0.30263877
-0.41578269 0.27078313 -0.29935908
-0.39648828 0.27070192 -0.3000617
-0.39841074 -0.30745664 -0.28341293
-0.41729632 -0.28772652 -0.28706992
-0.39790353 -0.28764734 -0.28780532
-0.37912634 -0.2881723 -0.28293371
-0.43659577 -0.26841208 -0.28713465
-0.41662386 -0.2678723 -0.29252958
-0.39749011 -0.26798666 -0.29138577
-0.37883919 -0.26856583 -0.28559816
-0.43589813 -0.24861228 -0.29246545
-0.39712676 -0.24842149 -0.29453242
-0.37857628 -0.24902138 -0.28803742
-0.45536757 -0.22947 -0.29099989
-0.37837493 -0.22956263 -0.28990591
-0.45463118 -0.20978343 -0.29631412
-0.37822241 -0.21016774 -0.2913214
-0.37800497 -0.19075271 -0.29333901
-0.47409096 -0.17140386 -0.29478884
-0.37785006 -0.17140454 -0.2947762
-0.35982549 -0.17215781 -0.28254545
-0.37766913 -0.15206563 -0.29645491
-0.35969594 -0.15274537 -0.28383994
-0.35960144 -0.13336903 -0.28478372
-0.35950577 -0.11400673 -0.28574014
-0.35942435 -0.094663605 -0.28655386
-0.35932362 -0.075328492 -0.28756022
-0.35926551 -0.05601535 -0.28814077
-0.35919589 -0.036710344 -0.28883672
-0.35909918 -0.017416034 -0.28980279
-0.35900259 0.0018632654 -0.29076803
-0.35891509 0.021129172 -0.29164267
-0.35881343 0.040378448 -0.29265821
-0.3586888 0.059604984 -0.29390359
-0.35857841 0.07881777 -0.29500687
-0.35843989 0.098000571 -0.29639101
-0.3404361 0.15663342 -0.28305042
-0.34036678 0.17591421 -0.28380108
-0.34029269 0.19517948 -0.28460288
-0.34028554 0.21449924 -0.2846806
-0.34040025 0.23394972 -0.28343868
-0.35873505 0.25220752 -0.29344153
-0.43559742 0.27131379 -0.29476333
-0.37769258 0.27114353 -0.29623723
-0.35926551 0.27207839 -0.28814089
-0.41792542 0.29213911 -0.28196239
-0.39807191 0.29159895 -0.28634703
-0.37886983 0.29172623 -0.28531396
-0.3998329 -0.34774053 -0.27109659
-0.38052887 -0.34789449 -0.26991975
-0.41899997 -0.32804599 -0.27323782
-0.39894974 -0.32736763 -0.27874494
-0.3799282 -0.32776821 -0.27549326
-0.36125797 -0.3286626 -0.26823115
-0.43897018 -0.30912206 -0.26899064
-0.41804034 -0.30773184 -0.28102911
-0.37946165 -0.30787125 -0.27982271
-0.36090714 -0.3088049 -0.27173686
-0.36070859 -0.28916514 -0.27372086
-0.43783313 -0.28873855 -0.2776792
-0.36050123 -0.26954719 -0.27579284
-0.45688394 -0.24975863 -0.28005648
-0.3603619 -0.25002381 -0.27718532
-0.36021101 -0.23051213 -0.27869308
-0.36008105 -0.21103981 -0.27999151
-0.47606748 -0.19158849 -0.28127563
-0.35996813 -0.19159931 -0.28111994
-0.34194186 -0.15366624 -0.2667501
-0.34188616 -0.13417411 -0.26735318
-0.34183896 -0.1146948 -0.26786435
-0.34176031 -0.095212817 -0.26871574
-0.3416841 -0.075744703 -0.26954019
-0.34161645 -0.056290537 -0.27027285
-0.34157538 -0.036849849 -0.2707175
-0.341515 -0.017416213 -0.27137089
-0.34144261 0.0020065885 -0.27215481
-0.34133771 0.021411773 -0.27329016
-0.34122324 0.040797092 -0.27452898
-0.34110412 0.060161915 -0.27581882
-0.3409611 0.079496726 -0.27736723
-0.34086141 0.098829463 -0.2784462
-0.34074026 0.11813307 -0.27975786
-0.34057611 0.13738769 -0.28153479
-0.34064797 0.25357464 -0.28075695
-0.34105843 0.27344421 -0.27631342
-0.3602097 0.29254022 -0.27870607
-0.34190795 0.29396746 -0.26711714
-0.40099502 -0.36856592 -0.26103246
-0.38142991 -0.36849287 -0.26155913
-0.36250284 -0.36929211 -0.25579154
-0.34318411 -0.3500692 -0.25330234
-0.42021802 -0.34875441 -0.26334882
-0.36173865 -0.34874409 -0.26342773
-0.34279785 -0.32998642 -0.25748372
-0.34258938 -0.31019008 -0.25974083
-0.34243718 -0.29049423 -0.26138818
-0.34232408 -0.27086619 -0.26261222
-0.34226215 -0.25130811 -0.26328301
-0.34218442 -0.23174587 -0.26412451
-0.34212494 -0.21221177 -0.26476824
-0.34204975 -0.19267584 -0.26558244
-0.34199882 -0.17316855 -0.26613367
-0.32375333 0.041324724 -0.25168419
-0.32365447 0.060869057 -0.25285161
-0.32350639 0.080373019 -0.25460041
-0.32337749 0.099860504 -0.25612223
-0.32318839 0.1192864 -0.25835538
-0.32301974 0.13869266 -0.26034713
-0.3229093 0.15811592 -0.26165152
-0.32276669 0.17748964 -0.2633357
-0.32262093 0.19683456 -0.26505721
-0.32252753 0.21621004 -0.26615977
-0.32252532 0.2356762 -0.266186
-0.32269543 0.25536138 -0.2641772
-0.32306328 0.27534714 -0.2598331
-0.32370949 0.29580453 -0.25220168
-0.38230836 0.31522295 -0.25340819
-0.3621974 0.31451192 -0.25884366
-0.40289658 -0.39048281 -0.24456429
-0.38289809 -0.38998973 -0.24793625
-0.36371589 -0.3906137 -0.24366975
-0.42324832 -0.371654 -0.23874581
-0.34382871 -0.37060389 -0.24632466
-0.32479104 -0.35188469 -0.23942935
-0.32452923 -0.33182931 -0.24252081
-0.32433927 -0.31191948 -0.24476445
-0.32423085 -0.2921479 -0.24604475
-0.32415524 -0.2724348 -0.24693751
-0.32412592 -0.25278598 -0.24728382
-0.32408983 -0.23313576 -0.24770999
-0.32410902 -0.2135423 -0.24748373
-0.32413945 -0.1939546 -0.24712408
-0.32412705 -0.17433012 -0.24727058
-0.32409096 -0.15469298 -0.24769676
-0.32409999 -0.13508689 -0.24759007
-0.32408646 -0.11546908 -0.24774992
-0.32408646 -0.09585838 -0.24774981
-0.32405716 -0.076239936 -0.24809587
-0.32395691 -0.056613721 -0.24927998
-0.32393214 -0.037012629 -0.2495724
-0.32388377 -0.017416213 -0.25014389
-0.32384551 0.0021725185 -0.25059545
-0.32378703 0.021750554 -0.25128591
-0.30528882 0.15981068 -0.23718977
-0.30507618 0.17928989 -0.23995173
-0.30491754 0.19878586 -0.24201286
-0.30476221 0.21825418 -0.24403048
-0.3046985 0.23781055 -0.24485779
-0.30477148 0.25754568 -0.24391019
-0.30505249 0.27760729 -0.24025989
-0.34340718 0.31555283 -0.25088775
-0.32498977 0.31735945 -0.23708224
-0.38503766 -0.41265532 -0.22808361
-0.36573923 -0.4133684 -0.22345173
-0.34479165 -0.39175001 -0.23590052
-0.32607391 -0.39344972 -0.22427928
-0.32530168 -0.37239495 -0.2333988
-0.30639234 -0.35405374 -0.22285473
-0.30618566 -0.33392078 -0.22553968
-0.3060908 -0.313997 -0.22677159
-0.30605435 -0.29417399 -0.22724509
-0.30603147 -0.27437577 -0.22754264
-0.30607519 -0.25466216 -0.22697437
-0.30611372 -0.23493409 -0.22647369
-0.30615124 -0.21519716 -0.22598636
-0.30621693 -0.19547823 -0.22513306
-0.30628371 -0.17574704 -0.22426546
-0.30633697 -0.15599282 -0.22357392
-0.30637562 -0.13621946 -0.22307181
-0.30642158 -0.11644179 -0.22247469
-0.30647594 -0.096658453 -0.2217685
-0.30647594 -0.076847747 -0.2217685
-0.30645505 -0.057033177 -0.22204006
-0.30643308 -0.037222423 -0.22232521
-0.30645505 -0.017416123 -0.22203994
-0.30638501 0.0023852792 -0.22294962
-0.30636308 0.022182457 -0.22323489
-0.3062107 0.041935906 -0.22521424
-0.30609706 0.061674658 -0.22669041
-0.30599293 0.081395254 -0.22804308
-0.30585253 0.10107316 -0.22986674
-0.30565116 0.1206805 -0.23248315
-0.30547294 0.14026599 -0.23479819
-0.30562109 0.29818514 -0.23287368
-0.34649432 -0.41428965 -0.21746826
-0.327557 -0.41593754 -0.20676506
-0.30756325 -0.39588293 -0.20764422
-0.30680591 -0.37460041 -0.21748197
-0.28755453 0.16176809 -0.20893466
-0.28732383 0.18142118 -0.21226442
-0.28710413 0.20103642 -0.21543586
-0.28698218 0.22073306 -0.21719563
-0.28685099 0.24038935 -0.21908927
-0.28682554 0.26018086 -0.21945691
-0.28698784 0.28027993 -0.21711385
-0.28745285 0.30095306 -0.21040201
-0.30661935 0.31960741 -0.21990561
-0.28834799 -0.37737167 -0.19748223
-0.28800529 -0.35672686 -0.20242834
-0.28784111 -0.33647561 -0.20479798
-0.28780204 -0.31646913 -0.2053622
-0.28783825 -0.29658863 -0.20483935
-0.28785065 -0.2766656 -0.20466053
-0.28790408 -0.25679463 -0.20388925
-0.28797758 -0.23693629 -0.20282817
-0.28809801 -0.21711372 -0.2010901
-0.28820807 -0.19725399 -0.19950163
-0.2883355 -0.17738535 -0.197662
-0.28845066 -0.15747878 -0.19599998
-0.2885102 -0.13750947 -0.1951406
-0.2886073 -0.11754788 -0.19373918
-0.28867564 -0.097551882 -0.19275308
-0.28869197 -0.05748773 -0.19251692
-0.28872666 -0.037455767 -0.19201648
-0.28869292 -0.017416079 -0.19250309
-0.28865251 0.0026151631 -0.19308639
-0.28856114 0.022626318 -0.19440544
-0.28848812 0.042623177 -0.19545937
-0.28836814 0.06258291 -0.19719136
-0.28823584 0.082509309 -0.19910073
-0.28807411 0.10238647 -0.20143509
-0.28791267 0.12222807 -0.20376539
-0.28777438 0.1420541 -0.20576131
-0.26868105 0.26312783 -0.19211388
-0.28837195 0.3225871 -0.19713581
-0.30888832 -0.41845241 -0.19043088
-0.28899962 -0.39874491 -0.1880765
-0.26948458 -0.35978422 -0.17906618
-0.26934204 -0.33935976 -0.18138063
-0.26934204 -0.31923833 -0.18138063
-0.26937917 -0.29918182 -0.18077791
-0.26945952 -0.27918628 -0.17947316
-0.26956764 -0.25921234 -0.17771769
-0.28880084 -0.077559739 -0.19094563
-0.26947594 0.16382793 -0.17920673
-0.26930493 0.18375224 -0.18198311
-0.26907235 0.20354928 -0.1857599
-0.2688936 0.22336899 -0.18866205
-0.26875126 0.24320319 -0.19097364
-0.26877868 0.28334975 -0.19052815
-0.26913431 0.30411211 -0.18475389
-0.2904672 -0.42207614 -0.16689348
-0.27044219 -0.40233719 -0.16351652
-0.26979038 -0.38061157 -0.17410076
-0.26969668 -0.23924008 -0.17562199
-0.26985461 -0.2192717 -0.17305744
-0.27002853 -0.19928177 -0.17023349
-0.27011997 -0.17916594 -0.16874838
-0.27026129 -0.15907083 -0.16645408
-0.27037922 -0.13892289 -0.1645391
-0.2704947 -0.11874405 -0.16266382
-0.27051133 0.023119118 -0.16239369
-0.27039409 0.043342851 -0.16429758
-0.27029708 0.063547343 -0.16587293
-0.27016792 0.083707348 -0.16797006
-0.27005899 0.10385054 -0.16973865
-0.26989806 0.12392066 -0.17235184
-0.26970622 0.14391991 -0.17546713
-0.25017628 0.26619604 -0.16364443
-0.25028661 0.28669044 -0.16159713
-0.27000761 0.32606336 -0.17057264
-0.25111172 -0.38446578 -0.14628494
-0.2507728 -0.363251 -0.15257454
-0.25061476 -0.34254649 -0.15550792
-0.25059241 -0.32217795 -0.15592253
-0.25067022 -0.30201617 -0.15447831
-0.25080216 -0.28193265 -0.15202999
-0.25094363 -0.26182777 -0.14940453
-0.27069017 -0.098576084 -0.15948987
-0.27073404 -0.078302562 -0.15877712
-0.27076566 -0.058015004 -0.15826368
-0.27073056 -0.037711181 -0.1588341
-0.27074549 -0.017416123 -0.15859187
-0.27064458 0.0028681494 -0.16023052
-0.25112027 0.16611958 -0.14612663
-0.25088173 0.18617167 -0.15055299
-0.25066945 0.20619693 -0.15449262
-0.25049698 0.22622988 -0.15769303
-0.2503472 0.24625561 -0.16047275
-0.25059396 0.30766666 -0.15589368
-0.25180382 -0.40673605 -0.13344121
-0.25113812 -0.24176574 -0.14579535
-0.25131524 -0.22162336 -0.14250839
-0.25147331 -0.20140591 -0.13957489
-0.25163016 -0.18114182 -0.13666379
-0.25178269 -0.16082869 -0.13383353
-0.25189316 -0.14043584 -0.13178337
-0.25189787 0.064599782 -0.13169611
-0.25174356 0.084993362 -0.13455987
-0.25165829 0.10540217 -0.13614178
-0.25148967 0.12570325 -0.13927102
-0.25131133 0.14594519 -0.14258051
-0.23137443 0.26959381 -0.13211811
-0.23140533 0.29017159 -0.13144875
-0.25142032 0.3299911 -0.14055812
-0.23180598 -0.36715081 -0.12277472
-0.23166674 -0.34620693 -0.12578917
-0.23164919 -0.3256135 -0.1261692
-0.23169577 -0.30517575 -0.12516057
-0.23180395 -0.28485584 -0.12281859
-0.23199031 -0.26465634 -0.11878383
-0.25204858 -0.12004353 -0.1288991
-0.2521894 -0.099598587 -0.12628603
-0.25234467 -0.079119489 -0.12340426
-0.25234625 -0.05855212 -0.12337518
-0.25234467 -0.037984032 -0.12340426
-0.25232968 -0.017416079 -0.12368262
-0.2523084 0.0031463914 -0.1240778
-0.25218466 0.023673717 -0.12637377
-0.25205803 0.044164367 -0.12872398
-0.2320684 0.18874763 -0.11709273
-0.23185134 0.20896593 -0.12179267
-0.23167351 0.22919056 -0.12564301
-0.23154131 0.24945453 -0.12850535
-0.23167755 0.3114033 -0.12555516
-0.23218881 -0.38887197 -0.1144861
-0.23218064 -0.24440193 -0.114663
-0.23237154 -0.22408512 -0.11052942
-0.23251513 -0.20363352 -0.10742116
-0.23268305 -0.18316664 -0.10378551
-0.23278403 -0.16256557 -0.10159945
-0.23277645 0.10699019 -0.10176313
-0.23263708 0.12756191 -0.10478067
-0.23246586 0.14804466 -0.10848773
-0.23226716 0.16842924 -0.11278987
-0.23250897 0.33431029 -0.10755455
-0.21250756 -0.37148318 -0.089669704
-0.46280503 -0.35100183 -0.086858869
-0.21232006 -0.35005566 -0.094541192
-0.21229991 -0.32920533 -0.095064759
-0.21231891 -0.30847251 -0.094571114
-0.21243651 -0.28798857 -0.091515422
-0.21259546 -0.26755667 -0.087385654
-0.23295267 -0.14199865 -0.097947955
-0.23312938 -0.12138207 -0.094122291
-0.23326293 -0.10067794 -0.091230631
-0.23335722 -0.079909682 -0.089189291
-0.23336624 -0.059081506 -0.088993907
-0.23336555 -0.038248703 -0.089009166
-0.23335373 -0.017416123 -0.089264274
-0.23334403 0.0034128148 -0.089474559
-0.23328234 0.024221256 -0.090810418
-0.23318815 0.044992849 -0.092849374
-0.23306996 0.065716937 -0.095408678
-0.23295957 0.086408302 -0.097798824
-0.21254745 0.21177378 -0.088633418
-0.21239267 0.23223779 -0.092654586
-0.21228091 0.25275168 -0.095558047
-0.21213266 0.27311873 -0.099409938
0.62160408 0.2745735 -0.085910797
-0.21216939 0.29398146 -0.098455429
0.6007871 0.29544732 -0.085760117
0.62036073 0.29489702 -0.090525389
-0.21241285 0.3155202 -0.092130184
0.57992953 0.31630498 -0.085760117
0.59912372 0.31552204 -0.092115045
0.61937153 0.31526572 -0.094196916
0.55896807 0.33710733 -0.086181879
0.57839125 0.33636999 -0.091815472
0.59762442 0.33558124 -0.097843409
0.61925858 0.33600357 -0.094615936
0.55804968 0.35744494 -0.08991003
0.57764941 0.35677633 -0.094735622
0.59774166 0.35640764 -0.097395897
0.62146616 0.35792822 -0.086422443
0.53818923 0.37886217 -0.085865617
0.55840856 0.37848368 -0.088452935
0.57863128 0.37813002 -0.0908705
0.60051125 0.37872359 -0.086813807
-0.23367718 -0.41422164 -0.08226192
-0.21297956 -0.39400989 -0.077406764
-0.46450859 -0.37355456 -0.073841453
-0.21277177 -0.24709959 -0.082805276
-0.21293291 -0.22654153 -0.078618526
-0.21307471 -0.20588432 -0.074934721
-0.21320984 -0.18515947 -0.071423769
-0.21322978 0.12938716 -0.070906281
-0.21308872 0.15013343 -0.074570417
-0.2129271 0.17078625 -0.078769803
-0.21275723 0.19135784 -0.083182573
0.64663124 0.21327876 -0.070860386
0.62466764 0.23391101 -0.074540138
0.64578837 0.23397014 -0.07390213
0.60355288 0.25478989 -0.075192809
0.62314487 0.2542896 -0.080192089
0.64461565 0.25449532 -0.07813406
0.58267182 0.2757532 -0.074965
0.60231173 0.27521753 -0.079934955
0.64374369 0.27507263 -0.081280351
0.56155914 0.29661325 -0.075663209
0.58148617 0.29615498 -0.079632282
0.64362228 0.29591402 -0.081718326
0.54088104 0.31768134 -0.074585676
0.56031698 0.31692746 -0.080706
0.64626861 0.31797889 -0.072169304
-0.21310508 0.33868241 -0.074145198
0.51982176 0.33855921 -0.075086713
0.53940248 0.337814 -0.080781341
0.4986991 0.3593854 -0.075905919
0.51852751 0.35872245 -0.080690742
0.53847319 0.35817018 -0.084675431
0.4989396 0.38047636 -0.074828506
0.51855546 0.37963673 -0.080569744
-0.19258258 -0.3542656 -0.06036067
-0.19252923 -0.33301249 -0.062093139
-0.19250563 -0.31189024 -0.062859178
-0.19259675 -0.29115248 -0.059900165
-0.19273213 -0.27050197 -0.055503607
-0.21334004 -0.16437399 -0.068041086
-0.21350062 -0.14357264 -0.063869596
-0.21364275 -0.12268871 -0.060176492
-0.21376337 -0.10173064 -0.057042599
-0.21380839 0.024759136 -0.055873156
-0.2137261 0.045797285 -0.058011055
-0.21364512 0.066803753 -0.06011498
-0.21350238 0.087715924 -0.0638237
-0.21338233 0.10859835 -0.066942096
0.65055019 0.13015176 -0.056719542
0.62949389 0.15123859 -0.056627274
0.64966875 0.15103693 -0.059900284
0.60869008 0.17239395 -0.055565238
0.62859964 0.17209022 -0.059946299
0.64877653 0.17187037 -0.063119411
0.60763979 0.19317506 -0.059577942
0.62737358 0.19279638 -0.064496875
0.64784414 0.19264348 -0.066483974
0.56652898 0.21458045 -0.055488229
0.58664697 0.21425623 -0.059316993
0.60646045 0.21385263 -0.064083695
0.62606126 0.21340509 -0.069367766
-0.19261329 0.23531306 -0.059362888
0.56543839 0.23526201 -0.059915543
0.58532333 0.23483613 -0.064527392
0.60520118 0.23443258 -0.068894863
-0.19250563 0.25602406 -0.062859178
0.5443306 0.25629693 -0.060130477
0.56415921 0.25579888 -0.065108538
0.58400857 0.25533915 -0.069702983
-0.19237429 0.27659795 -0.06712532
0.52338207 0.2774016 -0.059669971
0.54328132 0.276878 -0.064527512
0.56288856 0.27625954 -0.070266843
-0.19241238 0.2977421 -0.065888047
0.50230992 0.29845276 -0.059731364
0.52227092 0.29790428 -0.064481497
0.54206437 0.29731035 -0.069626689
-0.19268711 0.31985146 -0.05696559
0.48122552 0.31949577 -0.059854269
0.50118124 0.3188881 -0.064787388
0.5212481 0.31838033 -0.06891036
0.46011117 0.34051654 -0.060130477
0.48000726 0.33981302 -0.065506101
0.49995801 0.33918998 -0.070266724
0.43930516 0.36174372 -0.058886886
0.45920989 0.36097074 -0.064466119
0.47905669 0.36021546 -0.069916248
0.43982205 0.3831858 -0.056304097
0.4600856 0.38260838 -0.060253263
0.47958919 0.38155624 -0.067445755
0.54406339 0.40350854 -0.061250329
-0.19279999 -0.37624267 -0.053300142
0.63290858 -0.27156889 -0.043953538
-0.19285747 -0.24975619 -0.051432729
0.63273716 -0.25033569 -0.044589877
0.65312535 -0.25009534 -0.047427297
-0.19301039 -0.22901659 -0.046466708
0.63345701 -0.22936679 -0.041917801
0.65300524 -0.22890927 -0.047860622
-0.19315812 -0.208189 -0.04166913
0.6531983 -0.20780829 -0.047163844
0.65340441 -0.18669945 -0.046420097
-0.93173647 -0.16519995 -0.052713871
-0.91076899 -0.16522652 -0.052220106
0.6537053 -0.16559748 -0.045334816
-0.9325617 -0.14421484 -0.049964905
-0.91085023 -0.14412352 -0.051942348
-0.89272046 -0.14460805 -0.041451335
0.6541999 -0.14451128 -0.043549538
0.65482885 -0.12341598 -0.04128015
0.65500563 -0.10223572 -0.040642142
-0.21385166 -0.080704987 -0.054749012
0.65493661 -0.081025034 -0.04089129
-0.21388131 -0.059620641 -0.053978562
-0.2138558 -0.03851328 -0.054641008
-0.21387894 -0.017416257 -0.054040074
0.65482455 -0.017416213 -0.041295767
-0.21384573 0.0036789235 -0.054902911
0.65458322 0.003776988 -0.04216671
0.65426445 0.024952527 -0.043316603
0.65386426 0.046103258 -0.044760585
0.63381749 0.067405269 -0.040579915
0.65306097 0.067187294 -0.047659516
0.63295466 0.088487417 -0.043782711
0.65243059 0.088250652 -0.049934149
0.61211145 0.10972759 -0.042492986
0.63188922 0.10948548 -0.047737002
0.65169013 0.10926044 -0.052605987
0.67551959 0.10970098 -0.04306829
0.5910393 0.13094334 -0.042026639
0.61103898 0.13069741 -0.046590805
0.63070214 0.13039818 -0.052142978
0.6747061 0.13073346 -0.045924067
0.56989866 0.15215111 -0.041808963
0.58981693 0.15184122 -0.046838522
0.60994548 0.1515993 -0.050768614
0.6747061 0.1518975 -0.045923948
-0.19309448 0.17321348 -0.0437361
0.54898489 0.17342889 -0.040626645
0.56889647 0.17306508 -0.045877457
0.58874792 0.17270711 -0.051046729
0.67437506 0.17298135 -0.047086477
0.5876978 0.19351353 -0.055180311
-0.19294125 0.19401145 -0.048712134
0.5278123 0.19464466 -0.040486574
0.54792064 0.19429073 -0.045086503
0.56787431 0.19391024 -0.050026774
0.67403978 0.19404589 -0.048263192
-0.19277623 0.21470045 -0.05407083
0.52669621 0.21544151 -0.0453192
0.54663473 0.21500494 -0.050475121
0.67493135 0.21545725 -0.045132995
0.50567627 0.23667228 -0.044652104
0.52567691 0.2362026 -0.049732804
0.54558903 0.23572946 -0.054856896
0.48494413 0.25805119 -0.042601824
0.50481832 0.25746131 -0.04849565
0.52453983 0.25684491 -0.054656625
0.46381572 0.27927297 -0.042306662
0.48375389 0.27864584 -0.048123956
0.5036872 0.27805984 -0.053562403
0.48239234 0.29906359 -0.054440856
0.44252101 0.30040559 -0.0428195
0.46251652 0.29974324 -0.048557281
0.42137775 0.32162249 -0.042586327
0.44138184 0.32089269 -0.048510909
0.46127763 0.32015297 -0.054517865
0.39998975 0.34267214 -0.043658495
0.42002323 0.34189126 -0.049624801
0.44014874 0.3412309 -0.054671884
0.37930906 0.36424592 -0.040828824
0.39922193 0.36327803 -0.04781425
0.41932479 0.36252436 -0.053253889
0.42051169 0.38453406 -0.047086477
-0.19342187 -0.40014866 -0.033103824
-0.17226866 -0.33690831 -0.028353691
-0.17224544 -0.31550071 -0.029358387
0.59505963 -0.31584093 -0.026200652
-0.17230058 -0.29444772 -0.026971221
0.57370871 -0.29451063 -0.026342273
0.59340137 -0.29387164 -0.032728195
0.61304426 -0.29325107 -0.038928986
0.63479596 -0.29344925 -0.036948323
0.59405422 -0.2728433 -0.030158401
0.61305243 -0.2720359 -0.038897991
0.65513939 -0.27191925 -0.040159583
0.594796 -0.25180489 -0.027238369
0.61401635 -0.25112951 -0.03521502
0.6147123 -0.2300875 -0.032555938
0.68050766 -0.2306264 -0.025555491
0.61558211 -0.20905061 -0.02923286
0.63430434 -0.20838958 -0.038773179
0.6782552 -0.20875753 -0.033463717
-0.19327466 -0.18722506 -0.037884355
0.61633867 -0.18793596 -0.026342034
0.63502312 -0.18733472 -0.036105394
0.67737377 -0.1873067 -0.03655827
-0.95867485 -0.16621949 -0.033792257
-0.89390516 -0.16603091 -0.037291646
-0.1933973 -0.16621356 -0.03390193
0.63556623 -0.1662035 -0.034089446
0.6772359 -0.16604435 -0.037042022
-0.87594444 -0.14534517 -0.025492668
-0.19352463 -0.14514782 -0.02976644
0.63629586 -0.14507321 -0.031381249
0.67692935 -0.14476189 -0.038118482
-0.89697468 -0.12398423 -0.026515245
-0.19364363 -0.12400793 -0.025901794
0.63654935 -0.12383331 -0.030440688
0.67743605 -0.12360622 -0.036339641
0.63659161 -0.10255463 -0.030284166
0.67734706 -0.10235859 -0.036651731
0.61661869 -0.081385791 -0.025272369
0.63605535 -0.081224084 -0.032274008
0.6773026 -0.081119418 -0.036807895
0.61610413 -0.060032323 -0.02723825
0.6358276 -0.059941672 -0.033119559
0.65511346 -0.059831966 -0.040252924
0.6772182 -0.059880413 -0.037104368
0.61569709 -0.038712155 -0.028793454
0.63552415 -0.038670313 -0.034245729
0.65512216 -0.038624339 -0.04022181
0.67675614 -0.038635753 -0.038726568
0.61540544 -0.017416168 -0.029907465
0.6352672 -0.017416168 -0.035199285
0.67707598 -0.017416168 -0.037603617
0.59518754 0.0039038174 -0.025697351
0.61515921 0.0038641784 -0.030848384
0.63490111 0.003820179 -0.036558151
0.67741376 0.0038212575 -0.036417842
0.59497577 0.025210861 -0.026530862
0.6149295 0.025130909 -0.031726122
0.63464046 0.025041606 -0.037525773
0.67684507 0.025027942 -0.038414717
0.59460443 0.046490531 -0.027992725
0.61455661 0.046371479 -0.033150792
0.63427073 0.046238851 -0.038897991
0.67678726 0.046245325 -0.038617253
0.5736196 0.067832544 -0.026703835
0.59382719 0.067698702 -0.031052113
0.61388963 0.067555472 -0.035699248
0.67648101 0.067432687 -0.039692521
-0.19357443 0.0890892 -0.028149724
0.55259269 0.089190781 -0.025508285
0.57273769 0.089006916 -0.030284047
0.59301192 0.088853925 -0.034261465
0.61308914 0.08868067 -0.038757563
0.67630357 0.088620812 -0.04031527
-0.19347009 0.11023365 -0.03153789
0.55171889 0.11034304 -0.029170036
0.5719043 0.11013541 -0.033667207
0.59201229 0.10992624 -0.038196445
-0.19334435 0.13128842 -0.035621166
0.53063601 0.13168509 -0.028259397
0.55086231 0.13144289 -0.032759428
0.57092309 0.1311793 -0.037650585
-0.19323435 0.15231206 -0.039193869
0.50987971 0.15313564 -0.025823116
0.52985716 0.15277776 -0.031631947
0.54990739 0.15246204 -0.036761165
0.50879985 0.17411931 -0.030660272
0.52878082 0.17372917 -0.036292672
0.48776487 0.19548927 -0.029515266
0.50770974 0.1950251 -0.035543084
0.46688554 0.21694724 -0.027536869
0.48677561 0.21639125 -0.034105062
0.50676262 0.21591009 -0.039785862
0.44590703 0.23840415 -0.025901794
0.46590748 0.2378183 -0.032242775
0.48588029 0.23726258 -0.038258672
-0.17223349 0.25932488 -0.029876232
0.42469767 0.2597793 -0.025335193
0.44490126 0.25921953 -0.030926943
0.46501371 0.25865757 -0.036542654
-0.17217559 0.28034222 -0.0323838
0.42364576 0.28051287 -0.030801415
0.44368044 0.27984196 -0.037026286
-0.1722469 0.30196729 -0.029295683
0.4023101 0.30175918 -0.0310992
0.42242977 0.30106378 -0.037119985
0.38087362 0.32292724 -0.031992197
0.40103057 0.32218426 -0.038025022
-0.19331454 0.34359732 -0.036589265
0.35950407 0.34412304 -0.032571554
0.37975863 0.34337473 -0.038289905
0.33910429 0.3661333 -0.027206659
0.35926026 0.36519054 -0.034011364
0.40178946 0.38646021 -0.033917427
-0.17263594 -0.38158873 -0.012448907
-0.17236599 -0.35872701 -0.024138689
0.55489141 -0.31695366 -0.015875816
0.57482243 -0.31631291 -0.021821141
0.61670524 -0.31597656 -0.024941802
0.5345515 -0.29601562 -0.011304975
0.55438888 -0.29534733 -0.017981768
0.55479693 -0.27412602 -0.016272068
-0.17238455 -0.27347356 -0.023335099
0.57452714 -0.27350262 -0.02301991
-0.17247969 -0.25248429 -0.019215465
0.55509949 -0.25284088 -0.015004039
0.57510233 -0.25235978 -0.020684838
0.68221438 -0.25245479 -0.019563198
-0.17257914 -0.23144591 -0.014909029
0.55547422 -0.23155951 -0.013433576
0.57561624 -0.23116191 -0.018598795
0.59535545 -0.23066632 -0.025036216
0.55602777 -0.21030587 -0.011113882
0.5761894 -0.20994848 -0.016271949
0.59601992 -0.20952247 -0.022420526
0.57688075 -0.1887289 -0.013465166
0.59695059 -0.18840288 -0.018756986
-0.98580223 -0.16722159 -0.015194535
-0.87863141 -0.16718909 -0.015796661
0.57757753 -0.16746725 -0.010636926
0.59775901 -0.1672011 -0.015574932
0.61706793 -0.16677099 -0.023555756
-0.96139032 -0.14536916 -0.024973154
0.5984723 -0.14593302 -0.0127666
0.61783183 -0.14556938 -0.020637393
-0.87786359 -0.1242903 -0.018567085
0.57756573 -0.12459366 -0.01068449
0.59818196 -0.12446949 -0.013909698
0.61791861 -0.12422329 -0.020305753
-0.19376928 -0.1028153 -0.02182126
0.57683384 -0.10306662 -0.013655901
0.59724396 -0.10294519 -0.017602086
0.6174022 -0.10280114 -0.022278666
-0.19383541 -0.081515044 -0.019673705
0.55595565 -0.081705734 -0.011416078
0.576244 -0.081598729 -0.016050339
0.59656119 -0.081500843 -0.020289898
-0.19385536 -0.0601587 -0.019025683
0.55558789 -0.060252137 -0.012957335
0.57576817 -0.060174745 -0.017981887
0.59617215 -0.060115602 -0.02182126
-0.1938495 -0.038785905 -0.019215584
0.55536062 -0.038826849 -0.013909698
0.57569414 -0.038793143 -0.018282413
0.59573954 -0.038752828 -0.023524284
-0.19384903 -0.017416168 -0.0192312
0.57542151 -0.017416213 -0.019389153
0.55537957 -0.017416123 -0.013830423
0.5954234 -0.017416123 -0.02476871
-0.19383395 0.0039498396 -0.019721031
0.55509186 0.0039858855 -0.015035868
0.57532024 0.0039492548 -0.019800305
-0.19381206 0.025304701 -0.020432115
0.53446704 0.025439713 -0.011670351
0.55472881 0.025364432 -0.016557097
0.57493126 0.025290184 -0.021379232
-0.19376491 0.046629902 -0.021963239
0.5338437 0.046805177 -0.014369726
0.55433977 0.046716999 -0.018187642
0.5744378 0.046597142 -0.023382306
-0.19368337 0.067897037 -0.024611115
0.51293629 0.068281248 -0.012131333
0.53324711 0.068132892 -0.016953111
0.5534538 0.067980453 -0.021900058
0.5120579 0.089554191 -0.016065955
0.53236711 0.089373469 -0.020763636
0.49137494 0.11110051 -0.0127666
0.51148897 0.11083053 -0.018614411
0.53156948 0.11057194 -0.024217367
0.47046426 0.132652 -0.010318756
0.49054423 0.13231231 -0.016620517
0.5108189 0.13204329 -0.021616101
0.4696618 0.15385266 -0.014179349
0.4897193 0.15346664 -0.020447731
0.44855508 0.17536558 -0.012671471
0.46868744 0.17493643 -0.018867612
0.48875406 0.17451662 -0.024926066
-0.17261064 0.19671874 -0.013544679
0.4275631 0.19695735 -0.010446072
0.44773301 0.19646975 -0.016778946
0.46776876 0.1959686 -0.023287773
-0.17250159 0.21773227 -0.018266559
0.42675307 0.21803805 -0.014655232
0.44685325 0.21748616 -0.021174312
-0.17237508 0.23860344 -0.023744702
0.40565011 0.23959404 -0.013020754
0.42588153 0.2390247 -0.019183874
0.38443792 0.26112759 -0.011861086
0.40462837 0.26045811 -0.01855123
0.36296308 0.28252327 -0.012147069
0.38338503 0.28191298 -0.017807722
0.40367177 0.28127497 -0.023728967
0.34164417 0.3040227 -0.011495471
0.36193204 0.30324438 -0.018234849
0.38214141 0.30248272 -0.024831653
-0.17247458 0.32447395 -0.019436717
0.32018799 0.32543042 -0.011670351
0.34058794 0.32464719 -0.018029094
0.36083353 0.32382289 -0.024721265
0.29892752 0.3470082 -0.010525465
0.31916508 0.34598881 -0.018314004
0.33942214 0.34508243 -0.025240779
0.2986601 0.3681916 -0.012353659
0.31914809 0.36735037 -0.018424749
0.38303789 0.38852969 -0.019768476
-0.15147263 -0.31913313 0.0043468475
0.51548284 -0.31858653 -0.00072443485
0.53565484 -0.3179611 -0.0065271854
0.49447516 -0.29730865 0.001616478
0.51448667 -0.29662782 -0.005186677
0.4946101 -0.27583632 0.0022423267
0.51466137 -0.2752223 -0.0044039488
0.53491521 -0.27473027 -0.0097299814
0.49479702 -0.25437468 0.0031093359
0.51500756 -0.25386974 -0.0028533936
0.53502548 -0.25332791 -0.009252429
0.49503598 -0.23291838 0.0042183399
0.51529336 -0.23247249 -0.0015730858
0.53541547 -0.23201138 -0.0075637102
-0.17269397 -0.21038739 -0.0099368095
0.51547569 -0.21102343 -0.00075650215
0.53571016 -0.21064012 -0.0062880516
-0.96969151 -0.18968043 0.0019855499
-0.17279002 -0.18920228 -0.005777359
0.51571888 -0.18957868 0.00033330917
0.53603452 -0.18925752 -0.0048830509
0.55652905 -0.18900305 -0.0090136528
-0.17288823 -0.1679582 -0.0015251637
0.51586926 -0.16809461 0.0010068417
0.53635931 -0.16785309 -0.0034768581
0.55692446 -0.16764392 -0.0073565245
-0.98746669 -0.14606448 -0.0099209547
-0.85963821 -0.14620492 -0.0068781376
-0.17299303 -0.14666182 0.0030130148
0.51593733 -0.14658326 0.0013116598
0.53640729 -0.14637166 -0.0032690763
0.55707669 -0.14621229 -0.0067186356
0.57784402 -0.14608124 -0.0095549822
-0.96981508 -0.1250968 0.0023869276
-0.94874674 -0.12515676 0.003944993
-0.85968548 -0.12474696 -0.0067026615
0.51593733 -0.12505542 0.0013116598
0.53628916 -0.12485941 -0.0037806034
0.55683696 -0.12470764 -0.0077229738
0.51569742 -0.10349448 0.00023698807
0.53592765 -0.10332254 -0.0053462982
0.55634284 -0.10318559 -0.0097936392
0.51559722 -0.081964523 -0.0002117157
0.53578752 -0.081831902 -0.0059528351
0.4951711 -0.060526293 0.0048453808
0.51543629 -0.060437303 -0.00093257427
0.53565854 -0.060351506 -0.0065112114
0.49492159 -0.038962398 0.0036879778
0.5151397 -0.038916513 -0.002261281
0.53541917 -0.038875792 -0.0075477362
0.53515422 -0.017416168 -0.0086951256
0.49469998 -0.017416123 0.0026596785
0.51485401 -0.017416079 -0.0035408735
0.49446127 0.0041136593 0.0015521049
0.51470065 0.0040691197 -0.0042282343
0.53483433 0.0040240847 -0.010080099
0.49393955 0.025605954 -0.00086855888
0.51422656 0.025521465 -0.0063517094
0.47301832 0.04718243 0.0019693375
0.49334285 0.047052953 -0.003636837
0.51368916 0.046934795 -0.0087589025
0.47253165 0.06864354 -0.00037193298
0.49259952 0.068436801 -0.0070855618
0.45169112 0.090287834 0.0029969215
0.47190627 0.090042487 -0.0033810139
0.49201921 0.089796335 -0.0097779036
-0.17298377 0.11181088 0.0026117563
0.45107451 0.11168657 -8.3446503e-05
0.47116944 0.11137044 -0.0069259405
-0.17288971 0.13312934 -0.0014609098
0.42996487 0.13331765 0.0020337105
0.4502162 0.13297254 -0.0043720007
-0.17279482 0.1543829 -0.0055698156
0.40893015 0.15501727 0.004732728
0.42918447 0.15460141 -0.0020214319
0.44933179 0.15418448 -0.0087906122
-0.17272413 0.17564563 -0.0086314678
0.40823284 0.17630993 0.00095868111
0.42837569 0.17581236 -0.0062240362
0.38708571 0.19799934 0.0030933619
0.40730116 0.19744691 -0.0040842295
0.38624528 0.21913902 -0.0016530752
0.40655527 0.2185913 -0.0081216097
0.36503056 0.24080232 6.0796738e-05
0.38541058 0.24020854 -0.0063676834
0.34363154 0.26239446 0.00079834461
0.36408508 0.26176205 -0.0055217743
-0.15144393 0.2841 0.0024831295
0.3220188 0.28385618 0.00022113323
0.34254536 0.28319427 -0.0059207678
0.30069637 0.30553114 0.0015683174
0.32126489 0.30480999 -0.0046755075
0.27903101 0.32694039 0.00058984756
0.29972008 0.32623887 -0.0051068068
0.25792676 0.3488808 0.0037844181
0.27851623 0.3479766 -0.0031253099
0.27850953 0.36946368 -0.0031732321
-0.15164261 -0.36359537 0.015387177
-0.15151897 -0.34103185 0.0073564053
0.4549081 -0.32071987 0.019070387
0.47532931 -0.32007515 0.013087988
0.49542424 -0.31931335 0.0060198307
-0.15148377 -0.29765433 0.0050705671
0.45386299 -0.29853278 0.013848543
0.47410789 -0.29786861 0.007211566
-0.15154727 -0.2764785 0.0091946125
0.45408335 -0.27701014 0.014949679
0.4743692 -0.2764115 0.0084687471
-0.15161966 -0.25528818 0.013897061
0.45417413 -0.2554158 0.01540339
0.47456363 -0.25490776 0.0094041824
-0.15169631 -0.23404676 0.018875599
0.45432666 -0.23383805 0.016165257
0.47478506 -0.23339954 0.010469556
0.45469031 -0.21232174 0.017982125
0.47499993 -0.21187282 0.011503577
0.49524739 -0.211436 0.005199194
-0.95155478 -0.19037706 0.013298273
0.45496342 -0.1907495 0.019346476
0.47532931 -0.19036415 0.013087988
0.49543121 -0.18993086 0.006051898
-0.86449498 -0.16864116 0.011147976
0.47540662 -0.16876566 0.013460159
0.49560824 -0.16841075 0.00687325
-0.84360248 -0.14716302 0.013864756
0.47544363 -0.14715245 0.01363802
0.49568459 -0.14685641 0.0072276592
-0.93137127 -0.12570582 0.018209457
-0.84257436 -0.12538727 0.0099366903
-0.17307287 -0.12525398 0.006470561
0.47539321 -0.12552053 0.013395309
0.49562213 -0.12527186 0.006937623
-0.17317754 -0.10382594 0.011002541
0.47539654 -0.10390009 0.013411641
0.49546245 -0.10367799 0.0061969757
-0.17325898 -0.082304925 0.014528394
0.45499268 -0.082419485 0.019492745
0.47519478 -0.082256705 0.012441158
0.49533758 -0.08209908 0.0056174994
-0.17329827 -0.060701523 0.016229987
0.45476511 -0.060734242 0.018355608
0.47492269 -0.060623098 0.011131883
-0.17330426 -0.039060913 0.016489387
0.45450839 -0.039065316 0.017073393
0.47472468 -0.039012328 0.010178924
-0.17327431 -0.017416168 0.015192747
0.45421961 -0.017416168 0.015630245
0.47450998 -0.017416168 0.0091460943
-0.17326385 0.0042149592 0.014739156
0.45381764 0.0042064209 0.013621926
0.47407779 0.0041559041 0.0070666075
-0.17324401 0.025833055 0.013880968
0.43300292 0.025893547 0.017819881
0.45336452 0.025794268 0.011357903
0.47368965 0.025699303 0.0051993132
-0.1732201 0.047433753 0.012845397
0.43250975 0.047489528 0.015257597
0.4528766 0.047342967 0.0089203119
-0.17316264 0.068973735 0.010356665
0.41168711 0.06926021 0.019655466
0.43198332 0.069040388 0.012521982
0.45226714 0.068835676 0.0058751106
-0.17308107 0.090435296 0.0068250895
0.4110063 0.090787202 0.015970588
0.43137404 0.090532735 0.0093559027
0.38995761 0.1125825 0.019314051
0.41032138 0.11225672 0.012263298
0.43067935 0.11195578 0.0057463646
0.38921353 0.13402249 0.015111804
0.4096382 0.13366961 0.0085654259
0.36816186 0.15586808 0.018550634
0.38855755 0.15542823 0.011406541
0.36744785 0.17723671 0.014334202
0.38790327 0.17677793 0.0077109337
0.34632027 0.19910315 0.017430186
0.36670858 0.19852874 0.0099692345
-0.15165234 0.22063559 0.016019106
0.32493332 0.2209007 0.019151688
0.34547189 0.22031051 0.012182236
0.36599615 0.21976684 0.0057624578
-0.15158132 0.24185058 0.011406541
0.32412434 0.2420806 0.013897061
0.34453553 0.24138701 0.0063903332
-0.15148303 0.26281717 0.0050222874
0.30265829 0.26381388 0.014981985
0.32320917 0.26311052 0.0079528093
0.28103641 0.28545567 0.015063167
0.30155003 0.2846303 0.0074050426
-0.15151028 0.30613446 0.0067929029
0.25958306 0.30724841 0.016440749
0.28008249 0.30629459 0.0081783533
0.23776504 0.32871914 0.015030742
0.25848916 0.32786319 0.0080817938
0.21651179 0.35078344 0.018323302
0.23722318 0.34977666 0.010630965
0.23775706 0.371977 0.014966011
0.25829306 0.37081552 0.0065834522
0.41374621 -0.32198405 0.030800462
0.4342868 -0.32130417 0.024491072
0.39263323 -0.30059204 0.034425735
0.41308722 -0.29987228 0.027233601
0.43364409 -0.2992636 0.021151423
0.4132382 -0.27822024 0.02805078
0.43370357 -0.27761167 0.021460652
0.41357067 -0.25663906 0.029850721
0.43389782 -0.25601417 0.022470117
0.41377953 -0.23497853 0.030980706
0.43412676 -0.23441502 0.023659468
-0.15175416 -0.21264391 0.022632837
0.41403088 -0.21331652 0.032341361
0.43438092 -0.2128066 0.024980426
-0.15181166 -0.19118194 0.026367784
0.41418239 -0.1916004 0.03316164
0.43454745 -0.19114971 0.025845051
-0.15186402 -0.16964443 0.029768705
0.41442505 -0.16989812 0.034474969
0.43471399 -0.16947965 0.026710629
0.45512608 -0.16912673 0.020159364
-0.15191373 -0.14804673 0.032997489
0.41440383 -0.14810979 0.034360051
0.43478313 -0.14777294 0.027070165
0.45522371 -0.14747618 0.020647168
-0.82582271 -0.1261211 0.028999567
0.41448876 -0.12634514 0.034819961
0.43487749 -0.12606564 0.027560472
0.45514235 -0.12578394 0.020240545
-0.86851209 -0.10428944 0.026057482
-0.8456502 -0.10415502 0.021688461
-0.82711357 -0.10453653 0.034080863
0.41443416 -0.1045502 0.034524202
0.43481144 -0.10432526 0.027217269
0.45513257 -0.1041089 0.020191908
0.41430971 -0.08275117 0.033850908
0.43469194 -0.082583532 0.026596308
0.4141703 -0.060961206 0.033095956
0.43446258 -0.060842916 0.025404572
0.41397628 -0.039180644 0.03204608
0.43432441 -0.039124101 0.024686694
0.43401697 -0.017416213 0.023089051
0.41362217 -0.017416123 0.030128956
0.39272335 0.0043705534 0.034934998
0.41314456 0.0043135639 0.027544022
0.4335095 0.004259048 0.020452023
0.39223221 0.026114397 0.032160878
0.41262272 0.026000019 0.024719357
0.3918319 0.047827546 0.029899597
0.41225526 0.047662158 0.022730589
0.37071139 0.069689631 0.033604741
0.39129329 0.06948182 0.026857853
0.37013385 0.09133479 0.030194521
0.39063466 0.091063112 0.023137927
-0.1519289 0.11325976 0.033982277
0.34894559 0.11324561 0.033670425
0.36953557 0.11292174 0.026661754
-0.15188873 0.13489857 0.031374097
0.34843665 0.13485277 0.030522108
0.36886981 0.13443291 0.022730827
-0.15184689 0.15649055 0.028656125
0.32719138 0.15680844 0.033818126
0.34778088 0.15635554 0.026465774
-0.15179156 0.17797993 0.025061846
0.32649234 0.1782721 0.029277682
0.3469902 0.17773822 0.021574616
-0.15172109 0.19933817 0.020484567
0.30515417 0.20022826 0.032046199
0.32574031 0.19963905 0.024393082
0.28366253 0.22215939 0.034015179
0.30437377 0.22154073 0.026710868
0.28299025 0.2434907 0.029163122
0.30355352 0.24274608 0.021102548
0.26124582 0.2652314 0.02914691
0.28199062 0.26451108 0.021948934
0.23951176 0.2869806 0.029212236
0.26036566 0.28624877 0.022421241
0.21790522 0.30885941 0.030390978
0.23877364 0.30803105 0.023219347
-0.15175541 0.32966542 0.022714376
0.19625774 0.33073008 0.031357646
0.21700004 0.32964545 0.022551537
0.19585204 0.35199648 0.027593136
0.21728802 0.37337363 0.025045753
-0.13024616 -0.34555551 0.046532989
-0.13020125 -0.32305065 0.040697217
0.37250844 -0.32342982 0.04421556
0.39316007 -0.32269543 0.037401795
-0.13019463 -0.30113381 0.039839745
0.35133573 -0.30199611 0.048455954
0.37205788 -0.3013055 0.041555524
-0.13021801 -0.27958989 0.04287684
0.3514699 -0.28018191 0.049285412
0.37220332 -0.27954718 0.042414069
0.39278445 -0.27888829 0.035280108
-0.13025217 -0.25811759 0.047311664
0.37250561 -0.25785404 0.04419899
0.39302024 -0.25721163 0.036611676
0.3727859 -0.2361234 0.045853972
0.3932592 -0.23551586 0.037961364
0.37294576 -0.21431826 0.04679811
0.39351884 -0.21380752 0.039427638
0.37310857 -0.19249938 0.047759295
0.39361808 -0.19202071 0.039988041
0.3733024 -0.17067559 0.048903704
0.39389262 -0.17027876 0.041539073
-0.8280617 -0.14826925 0.037813187
0.37333333 -0.14878987 0.049086452
0.39390728 -0.14844507 0.041621447
-0.80911982 -0.12690824 0.04945147
-0.15197925 -0.12643877 0.037253499
0.37336427 -0.12690122 0.049268842
0.3940154 -0.12663044 0.042232513
-0.80902988 -0.10499859 0.049086452
-0.15205286 -0.10478157 0.042034268
0.37342888 -0.10501604 0.049650669
0.39391312 -0.10476971 0.041654468
-0.15211907 -0.083039433 0.046334147
0.37330797 -0.083099604 0.048937082
0.39384589 -0.082922667 0.041274905
-0.15216833 -0.061214324 0.04953444
0.3731395 -0.061189786 0.047941685
0.39359179 -0.06106507 0.039839745
-0.15217218 -0.039317269 0.049783468
0.37291771 -0.039292865 0.04663229
0.39340797 -0.039232641 0.038801312
-0.15216322 -0.017416257 0.049202442
0.37269056 -0.017416168 0.045291185
0.3931776 -0.017416213 0.037500381
-0.15214942 0.0044734273 0.048306584
0.35150743 0.0044827759 0.049517989
0.37218377 0.0044273604 0.042298436
-0.15212977 0.026343293 0.047030091
0.35114276 0.026347023 0.047261953
0.37167242 0.026224103 0.039279342
-0.15209867 0.048176531 0.045009851
0.35068241 0.048162777 0.044414163
0.37120956 0.047981028 0.036545992
-0.15206151 0.069966435 0.042595625
0.32950377 0.070158616 0.048837543
0.35018289 0.06992729 0.041324377
-0.15200943 0.091681883 0.039213181
0.32896796 0.091918424 0.045357347
0.34957537 0.091618553 0.037566304
0.30768773 0.11397058 0.04936862
0.32830638 0.11358668 0.041060328
0.30714223 0.13566737 0.0456388
0.32776338 0.13523048 0.037533283
0.28587276 0.15780289 0.049966097
0.306586 0.15730228 0.041836143
0.28516075 0.17934926 0.0448277
0.30594465 0.17883821 0.037451029
0.26364905 0.20141876 0.047510624
0.28440562 0.20079274 0.039378285
-0.13027209 0.22350444 0.049899697
0.24201685 0.22347492 0.049551249
0.26286322 0.22279385 0.041505814
-0.13024119 0.24503571 0.045886993
0.24128842 0.24482793 0.043636918
0.26211515 0.24410301 0.03578949
-0.13020162 0.26639217 0.040746808
0.21957418 0.26680216 0.044844389
0.24037656 0.2659407 0.036233544
-0.1302001 0.28820223 0.040548801
0.19781646 0.28877059 0.045820832
0.21868816 0.28783837 0.037171364
-0.13025866 0.31091073 0.048157215
0.1760388 0.3107481 0.0467484
0.19695348 0.3097164 0.037813187
0.15431738 0.33283404 0.048439384
0.17536724 0.33179912 0.040037632
0.15407398 0.35437974 0.045804262
0.17511332 0.35329306 0.037500381
0.17601061 0.376342 0.046466827
0.19680092 0.37494674 0.036398053
0.33129415 -0.32518119 0.06046629
0.35185122 -0.32423046 0.051644087
0.33075652 -0.30284855 0.056974292
0.33101359 -0.28104645 0.058643937
0.33118859 -0.25917354 0.059780598
0.35188887 -0.25850433 0.051877141
-0.13028628 -0.23657688 0.051744103
0.33135852 -0.2372805 0.060884476
0.35220087 -0.23673572 0.053807139
-0.13031936 -0.21495834 0.056039929
0.33160597 -0.21540548 0.062491775
0.35238129 -0.21488117 0.054923296
-0.1303439 -0.19320568 0.059228778
0.33177888 -0.19347575 0.063614607
0.35256994 -0.19301239 0.056090117
-0.13036811 -0.17140149 0.062374473
0.33198032 -0.17153879 0.06492281
0.35273716 -0.17111871 0.057124496
-0.13038644 -0.14951359 0.064755082
0.35280463 -0.14918038 0.057541609
0.35276681 -0.12721071 0.057308078
0.33190796 -0.1054718 0.064453125
0.35272908 -0.10524461 0.057074308
0.33190277 -0.083457083 0.064419627
0.35261306 -0.083270922 0.056357026
0.33173496 -0.061426725 0.063329577
0.35251868 -0.06131037 0.055773377
0.33151573 -0.039410479 0.061905503
0.35229778 -0.03935273 0.054406881
0.33114737 -0.017416257 0.059512973
0.35195071 -0.017416257 0.052259564
0.33081561 0.0045431796 0.057358146
0.30964151 0.026585132 0.062726378
0.33048177 0.026469044 0.055189848
0.30920327 0.048516523 0.059730411
0.33008182 0.048351627 0.052592397
0.28790569 0.070645258 0.064637542
0.30872452 0.070393264 0.056457043
0.28742972 0.092528388 0.061202407
0.3082079 0.092209607 0.052924991
0.28693634 0.11435264 0.057641864
-0.13038656 0.13669837 0.064771891
0.26553503 0.13654484 0.061922312
0.28641656 0.13611208 0.053890347
-0.13036631 0.15855268 0.062140107
0.26500106 0.158288 0.057842135
-0.1303466 0.1803714 0.059579849
0.24340042 0.18045476 0.060783982
0.26435977 0.1799114 0.052941561
-0.13031127 0.20199443 0.054989815
0.22179195 0.20269191 0.064050555
0.24276477 0.20204316 0.055623174
0.22102493 0.22414026 0.057408094
0.19928309 0.24628678 0.059429526
0.22027683 0.24550158 0.050929546
0.17747861 0.26843265 0.061135411
0.19859466 0.26762268 0.053041458
0.15563872 0.29059443 0.062743068
0.17673352 0.28961867 0.053690672
0.15495792 0.31174406 0.055373311
0.13333192 0.33415055 0.059128642
0.13304782 0.35568428 0.055773377
0.15535733 0.37817514 0.059697032
0.28965223 -0.3269892 0.077242255
0.31052554 -0.32607621 0.068770885
-0.10837021 -0.30476171 0.076091886
0.2891697 -0.3045283 0.073759913
0.3100757 -0.30372128 0.065694928
-0.10837021 -0.28269267 0.076464176
0.28937337 -0.28257856 0.075229526
0.31022307 -0.28179082 0.066702724
0.2896851 -0.26067215 0.077479362
0.3104665 -0.25990048 0.068366885
0.28989634 -0.23867533 0.079003572
0.31067574 -0.23796661 0.069797516
0.28999025 -0.21659634 0.079681516
0.31087285 -0.21600497 0.071145177
0.31095174 -0.19397281 0.071684599
0.31109977 -0.17195773 0.072696567
0.31112197 -0.14988734 0.07284832
0.33203712 -0.14953826 0.065292001
-0.7929256 -0.12782836 0.073354721
-0.13041787 -0.12765448 0.06883812
0.31118864 -0.12782638 0.073304176
0.33206812 -0.12752579 0.065493584
-0.79165506 -0.10558191 0.068030715
-0.13044809 -0.1057277 0.072764158
0.31116149 -0.10573862 0.073118567
-0.81323701 -0.083497539 0.066165328
-0.79342145 -0.083711416 0.075432539
-0.13048062 -0.083747461 0.076988459
0.31103808 -0.083638519 0.072274923
-0.13050434 -0.061684385 0.080071568
0.2900255 -0.061682362 0.079936028
0.31091723 -0.061551712 0.071448803
0.28975075 -0.039533988 0.077953458
0.31067574 -0.039471246 0.069797754
0.28949749 -0.017416257 0.076125741
0.31037548 -0.017416168 0.067744851
0.28920951 0.0046715811 0.07404685
0.31003395 0.0046051107 0.06540966
-0.13050134 0.02684607 0.079681635
0.26790127 0.026851106 0.080003977
