ply
format ascii 1.0
comment PCL generated
element vertex 1299
property float x
property float y
property float z
element camera 0
property float view_px
property float view_py
property float view_pz
property float x_axisx
property float x_axisy
property float x_axisz
property float y_axisx
property float y_axisy
property float y_axisz
property float z_axisx
property float z_axisy
property float z_axisz
property float focal
property float scalex
property float scaley
property float centerx
property float centery
property int viewportx
property int viewporty
property float k1
property float k2
end_header
-0.15551303 0.034942206 -0.023878515
-0.14146134 0.034957349 -0.022901118
-0.12741983 0.03497621 -0.021671176
-0.11336438 0.034995962 -0.020387471
-0.099278271 0.035013735 -0.019232452
-0.085175157 0.035031706 -0.01806742
-0.071062043 0.035051417 -0.01678741
-0.056907319 0.035065632 -0.015863299
-0.042758174 0.035085578 -0.014571726
-0.028572261 0.035099827 -0.013645291
-0.014380887 0.035117604 -0.01249069
-0.32665968 0.04923949 -0.017806113
-0.29722834 0.049116649 -0.023126006
-0.28277159 0.049080051 -0.024716914
-0.15537037 0.049070794 -0.025114179
-0.14135784 0.049099725 -0.023861289
-0.12724654 0.04911026 -0.023402929
-0.11318019 0.049133845 -0.022381663
-0.099142984 0.049169704 -0.020830214
-0.085058704 0.049198557 -0.019580066
-0.070951059 0.049226053 -0.018389225
-0.056839682 0.049259048 -0.016961634
-0.042691387 0.049285576 -0.015810907
-0.028507702 0.049303353 -0.01504308
-0.014312901 0.049321517 -0.014257193
-0.00010681152 0.0493403 -0.013444304
0.014105909 0.049364891 -0.012376726
-0.32679725 0.063463658 -0.01714462
-0.31165636 0.063320331 -0.021801233
-0.29690218 0.063227348 -0.024820507
-0.12707527 0.063218288 -0.025114179
-0.1130451 0.063257404 -0.023844004
-0.098989606 0.0632945 -0.02264148
-0.084902406 0.063326299 -0.021610558
-0.07078436 0.063351236 -0.020795345
-0.056709461 0.063404255 -0.019076109
-0.042593256 0.063448712 -0.017632186
-0.028436802 0.06348113 -0.016578317
-0.014251746 0.063503705 -0.015845776
-6.9681555e-05 0.06354057 -0.014650285
0.014137823 0.063567951 -0.013759077
0.028362812 0.063587859 -0.01311183
0.042596005 0.063614815 -0.012236595
-0.098835796 0.077391058 -0.024457753
-0.084754422 0.077426687 -0.023532689
-0.070674464 0.07747107 -0.022381663
-0.056606784 0.077534042 -0.02074331
-0.042490162 0.077580169 -0.019545376
-0.028353557 0.077625014 -0.018380523
-0.014191702 0.077662542 -0.017405808
-1.2457371e-05 0.077697083 -0.01650852
0.014177959 0.077735968 -0.01549691
0.028389454 0.077761218 -0.014842331
0.042605031 0.077816404 -0.013409257
0.05684267 0.077839293 -0.012814403
0.071086437 0.077846996 -0.012613118
0.085332632 0.077853039 -0.012455523
0.099578023 0.077853777 -0.012438178
0.17081222 0.077859193 -0.012298048
0.18504933 0.077854045 -0.012429237
0.19924869 0.077831082 -0.01302433
0.21350931 0.077840261 -0.012788117
0.22772343 0.077828526 -0.013094366
0.24193111 0.077816017 -0.0134179
0.25616491 0.077814735 -0.013453126
0.27037597 0.077805944 -0.013680398
0.28461689 0.077807724 -0.013636708
0.29877844 0.077785656 -0.014204562
0.3129555 0.077770628 -0.014597714
0.32725424 0.077789061 -0.014117301
-0.32526284 0.091540486 -0.024526715
-0.31159735 0.091652758 -0.022095799
-0.070571944 0.091571309 -0.023861349
-0.056505904 0.09163963 -0.022381604
-0.042397566 0.091691136 -0.021263659
-0.028274089 0.091744848 -0.020101011
-0.014134772 0.091801159 -0.018884957
2.7503818e-05 0.091850959 -0.017806351
0.014214002 0.091885544 -0.017057478
0.028410677 0.091924153 -0.016220808
0.042618617 0.09197253 -0.015174091
0.05684267 0.092008851 -0.014388204
0.071075395 0.092024498 -0.014047444
0.085310683 0.092032202 -0.013881385
0.099537626 0.092018068 -0.014187217
0.11377762 0.092030577 -0.013916433
0.1280275 0.092049979 -0.013496637
0.14227417 0.092059627 -0.013286769
0.15651509 0.092061676 -0.013243079
0.17073894 0.092050366 -0.013487875
0.18491785 0.092011683 -0.014327109
0.19913498 0.092003584 -0.01450187
0.21334055 0.091990732 -0.014781296
0.22755149 0.091982633 -0.014955819
0.24180081 0.091993481 -0.014720023
0.25605094 0.092003085 -0.014510512
0.27022669 0.091981821 -0.014973223
0.28442323 0.091970861 -0.01520896
0.29859447 0.091952309 -0.015610278
0.31276566 0.091935813 -0.015967965
0.3269887 0.091937438 -0.015933037
-0.33994448 0.10582495 -0.022069752
-0.070484549 0.10566036 -0.025122702
-0.05639454 0.10571067 -0.024189889
-0.042315394 0.1057863 -0.022788644
-0.028216787 0.10586426 -0.02134186
-0.014076263 0.10591464 -0.020404875
8.4262341e-05 0.10595531 -0.019649506
0.014243551 0.1060261 -0.018337011
0.028422486 0.10609879 -0.01698786
0.042629424 0.10612091 -0.016578257
0.05684267 0.10613593 -0.016299367
0.071064845 0.1061833 -0.015418291
0.085289434 0.1061919 -0.015261292
0.09951584 0.1061989 -0.015130401
0.11373836 0.10619561 -0.015191495
0.12797034 0.10620688 -0.014981985
0.14219385 0.10620448 -0.015025496
0.15643692 0.10622237 -0.014693797
0.17062436 0.10618716 -0.015348613
0.18480596 0.10615525 -0.015941918
0.19902277 0.10615421 -0.015959322
0.21323487 0.10615049 -0.016028941
0.22743464 0.10614019 -0.016220868
0.24165672 0.10614352 -0.016159832
0.25579244 0.10610297 -0.016909301
0.27001315 0.10610774 -0.016822219
0.28416982 0.1060838 -0.017266512
0.29831168 0.10605662 -0.017771423
0.31257367 0.10607908 -0.017353594
0.32672364 0.10605805 -0.017745256
-0.3542161 0.12002371 -0.021619141
-0.042237103 0.11986218 -0.024241686
-0.028141961 0.11994103 -0.022961736
-0.01402086 0.1200097 -0.021844447
0.00012541935 0.12006263 -0.02098614
0.014281284 0.12012522 -0.019970894
0.028453568 0.12018459 -0.01900661
0.042642027 0.12023323 -0.018215179
0.05684267 0.12025635 -0.017841101
0.071049675 0.12028423 -0.017388344
0.085260041 0.12029763 -0.017170608
0.099478982 0.12032501 -0.016726375
0.11369056 0.12032389 -0.016743779
0.12789682 0.12031483 -0.016892016
0.14212376 0.12033624 -0.016543329
0.15633211 0.12033032 -0.016639292
0.17054488 0.12033032 -0.016639292
0.18470997 0.12028799 -0.017327368
0.19888194 0.12025961 -0.017788947
0.21308069 0.12025577 -0.017849743
0.22727612 0.1202505 -0.017936826
0.24145104 0.12023323 -0.018215179
0.25561327 0.12021135 -0.018571794
0.269768 0.12018834 -0.018945634
0.28392124 0.12016735 -0.019284606
0.2981239 0.12017231 -0.019206524
0.3123157 0.12017169 -0.019215107
0.32641715 0.12013331 -0.019840658
-0.35352069 0.13398233 -0.024734199
-0.028069675 0.1339967 -0.024526894
-0.013942897 0.13404216 -0.023869991
0.00017318502 0.13413449 -0.02253747
0.014322955 0.13418728 -0.021775126
0.028486049 0.13423289 -0.021116316
0.042658281 0.13428761 -0.020326734
0.05684267 0.13435198 -0.019397497
0.071033478 0.13434544 -0.019493163
0.085228831 0.13436589 -0.019197762
0.099433348 0.13440023 -0.018702269
0.11362676 0.13439241 -0.018815279
0.12781577 0.13437971 -0.018997788
0.14205658 0.13444899 -0.017997622
0.15621343 0.13439052 -0.018841386
0.17041139 0.13439292 -0.018806636
0.18457195 0.13435748 -0.019319475
0.19876745 0.13436046 -0.019275844
0.21295403 0.13435569 -0.019345522
0.22711629 0.13433336 -0.01966691
0.24126056 0.13430214 -0.020118475
0.25540727 0.13427685 -0.020483017
0.2695564 0.13425636 -0.020778
0.28369457 0.13423239 -0.021124959
0.297849 0.13421969 -0.021306992
0.311961 0.13418728 -0.021775126
0.32620144 0.13421918 -0.021315753
0.34162104 0.13477844 -0.013243139
0.0002312474 0.14815667 -0.024423242
0.014368933 0.14820728 -0.02376616
0.028516591 0.14825852 -0.023100078
0.042674232 0.14831257 -0.022398889
0.05684267 0.14838319 -0.021480441
0.071021184 0.14841324 -0.021090388
0.085201561 0.14842252 -0.020968854
0.099378809 0.14841537 -0.021064281
0.11356874 0.14844337 -0.020700097
0.12776762 0.14847808 -0.020248652
0.14194459 0.14846474 -0.02042222
0.15611514 0.14844601 -0.020665288
0.17029107 0.14843866 -0.020760655
0.1844589 0.14842398 -0.020951509
0.19861645 0.14840192 -0.021237791
0.21278134 0.14839059 -0.021385133
0.22693755 0.14837387 -0.021601796
0.24107744 0.14834721 -0.021948457
0.25523251 0.14833517 -0.022104502
0.26935923 0.14830589 -0.022485554
0.28349608 0.14828657 -0.02273649
0.29763019 0.14826788 -0.022979021
0.31176901 0.1482539 -0.023160636
0.3259784 0.14827862 -0.0228405
0.34101772 0.14871566 -0.017161846
0.028545475 0.16226277 -0.024976015
0.04268875 0.16232125 -0.02428484
0.05684267 0.16238272 -0.023558676
0.071005911 0.16242376 -0.02307421
0.08518061 0.16248678 -0.022329569
0.099341586 0.16245756 -0.022675991
0.11352202 0.16249645 -0.022217095
0.12768519 0.16248173 -0.022390306
0.14187372 0.16251846 -0.021957159
0.1560404 0.16251035 -0.022052407
0.17020458 0.1625008 -0.02216506
0.18433882 0.16245681 -0.022684634
0.19848973 0.16243993 -0.022883773
0.21265222 0.16243774 -0.022909701
0.22680314 0.16242519 -0.023056686
0.24091457 0.16238135 -0.023575902
0.25507957 0.16238572 -0.023524046
0.26915446 0.16232353 -0.024259031
0.28333199 0.16233955 -0.024068892
0.29745817 0.16232052 -0.024293482
0.3115713 0.16229567 -0.024587274
0.32568878 0.16227588 -0.024820566
0.34068823 0.16274318 -0.019302011
-0.3675794 0.17639709 -0.025131583
0.085137874 0.17639934 -0.025105536
0.099287868 0.17640898 -0.025001943
0.11344159 0.17642485 -0.024829149
0.12759697 0.17643851 -0.024682343
0.1417622 0.17646718 -0.024371266
0.15591499 0.17646642 -0.024379909
0.17005646 0.17644876 -0.024569988
0.18421297 0.17645521 -0.024500847
0.19831471 0.17639455 -0.025157273
0.21249554 0.17643121 -0.024760067
0.22662106 0.17640659 -0.025027871
0.24076582 0.17640343 -0.025062382
0.34040356 0.1767647 -0.021151066
0.33988911 0.19060832 -0.024492264
-0.2873556 -0.13678773 9.4592571e-05
-0.27284127 -0.13671274 -0.00088083744
-0.25851619 -0.13671675 -0.0008277297
-0.24422039 -0.13673514 -0.00058841705
-0.22991817 -0.13675219 -0.00036674738
-0.21566708 -0.13679799 0.00022780895
-0.31614536 -0.12248302 0.00062716007
-0.30158961 -0.12240751 -0.00046414137
-0.28708041 -0.12234297 -0.0013948679
-0.27262485 -0.12229389 -0.0021033883
-0.25814581 -0.12223078 -0.0030145645
-0.24366812 -0.12216218 -0.0040046573
-0.22947101 -0.12221301 -0.0032711029
-0.2152821 -0.12227303 -0.002404213
-0.2011217 -0.12235402 -0.0012354255
-0.18694699 -0.12243688 -3.8444996e-05
-0.17268185 -0.12247938 0.00057387352
-0.33028811 -0.10807729 -0.00034892559
-0.3156839 -0.10799541 -0.0016781688
-0.30118215 -0.10793977 -0.0025811195
-0.28676313 -0.1079071 -0.0031118393
-0.27221626 -0.10782711 -0.0044109225
-0.2578615 -0.10780976 -0.0046933889
-0.24350394 -0.10778968 -0.0050199032
-0.22920989 -0.10779291 -0.0049670339
-0.21501963 -0.10784017 -0.0041988492
-0.20085801 -0.10790551 -0.0031383634
-0.18665478 -0.10795888 -0.0022713542
-0.17245792 -0.1080221 -0.0012441874
-0.15824947 -0.10808761 -0.00018036366
-0.1439559 -0.10811393 0.00024545193
-0.33011496 -0.093694262 -0.0011821389
-0.31557584 -0.093638383 -0.0022183657
-0.30076039 -0.093500629 -0.0047729015
-0.28623629 -0.093436614 -0.0059635639
-0.27184147 -0.093406096 -0.0065276623
-0.25743151 -0.09336812 -0.0072323084
-0.24317198 -0.093376681 -0.0070738196
-0.22886656 -0.09337002 -0.0071970224
-0.21466999 -0.093402766 -0.0065894127
-0.20053862 -0.093464628 -0.0054433942
-0.1863205 -0.093497857 -0.0048257709
-0.17212772 -0.093546383 -0.0039250851
-0.1579171 -0.093593068 -0.0030587912
-0.14371136 -0.093648858 -0.0020236373
-0.12948798 -0.093703754 -0.0010049343
-0.11527529 -0.093774021 0.00029873848
-0.32988304 -0.079310849 -0.0022979975
-0.31531203 -0.079253726 -0.0035361648
-0.30055499 -0.079147264 -0.0058403015
-0.28587836 -0.079052076 -0.0079011917
-0.2714566 -0.079015128 -0.0087012649
-0.25710684 -0.078994446 -0.0091494322
-0.24279238 -0.078981861 -0.0094217658
-0.22852676 -0.078982614 -0.0094041228
-0.21434696 -0.079010658 -0.0087979436
-0.20017613 -0.079044752 -0.008059442
-0.18600096 -0.079081371 -0.0072675347
-0.17181911 -0.07911998 -0.0064306855
-0.15763664 -0.079163626 -0.005487442
-0.14342077 -0.079199024 -0.004719913
-0.12923114 -0.079252079 -0.0035715699
-0.11499619 -0.079291254 -0.0027227402
-0.10078497 -0.079350509 -0.0014391541
-0.086535022 -0.079398394 -0.00040209293
-0.07224457 -0.079430014 0.0002810955
-0.34462631 -0.065062687 -0.0003489852
-0.3294971 -0.064916223 -0.0041548014
-0.31499213 -0.064878501 -0.0051347613
-0.30018884 -0.064778119 -0.007742703
-0.28556007 -0.064705759 -0.0096237659
-0.2711519 -0.064674988 -0.010422409
-0.25675762 -0.06464459 -0.011211693
-0.24250446 -0.064644955 -0.011202931
-0.22829165 -0.064655431 -0.010931194
-0.21401443 -0.064650074 -0.011071384
-0.19984628 -0.064674407 -0.010439932
-0.18569374 -0.064706072 -0.0096148849
-0.17154594 -0.064743251 -0.0086486936
-0.15738948 -0.064782478 -0.0076283216
-0.14320125 -0.06481611 -0.0067567825
-0.12900765 -0.064852767 -0.005804956
-0.11480111 -0.064890027 -0.0048345923
-0.10057448 -0.064925015 -0.0039251447
-0.086344793 -0.064965561 -0.0028730631
-0.072068974 -0.06498944 -0.0022536516
-0.057827264 -0.065040559 -0.0009251833
-0.043542266 -0.06507539 -2.0682812e-05
-0.35903776 -0.050734617 -2.0742416e-05
-0.34418905 -0.050662082 -0.0023776889
-0.32932097 -0.050581258 -0.0050023794
-0.31588078 -0.050713938 -0.00069469213
-0.29966807 -0.05041353 -0.010448754
-0.28521484 -0.050381426 -0.011492193
-0.18541369 -0.050373331 -0.01175487
-0.17124213 -0.050393004 -0.011115313
-0.15706684 -0.050414421 -0.010422349
-0.14293295 -0.050450552 -0.0092460513
-0.12878379 -0.050487731 -0.0080417395
-0.11457555 -0.050511278 -0.0072763562
-0.10035335 -0.050534088 -0.0065364838
-0.086148977 -0.050568517 -0.0054169297
-0.071928695 -0.050603565 -0.0042784214
-0.057685524 -0.050635941 -0.0032268763
-0.043417171 -0.050663166 -0.0023422837
-0.029156506 -0.050704643 -0.00099611282
-0.014852323 -0.050727878 -0.00024235249
-0.00053517893 -0.05074976 0.00046747923
-0.35873497 -0.036362551 -0.0013771653
-0.34399647 -0.036318827 -0.0032710433
-0.32865447 -0.036204889 -0.0082089305
-0.31425714 -0.036191028 -0.0088067651
-0.29933238 -0.036112797 -0.012192965
-0.14265031 -0.036120348 -0.011868894
-0.12853239 -0.036150634 -0.010554075
-0.11435626 -0.036171548 -0.0096501112
-0.10017374 -0.036194511 -0.0086574554
-0.085974678 -0.03621709 -0.0076810718
-0.071748435 -0.036235522 -0.0068801045
-0.057553366 -0.03627038 -0.0053728223
-0.043309033 -0.036293965 -0.0043490529
-0.029035099 -0.036310732 -0.0036246181
-0.014767066 -0.036337569 -0.0024573803
-0.00047210976 -0.036357939 -0.0015808344
0.013831414 -0.036383037 -0.00049078465
0.028162079 -0.036392756 -7.3969364e-05
0.042499233 -0.036402207 0.00033432245
0.05684267 -0.036402747 0.00036096573
0.17160109 -0.036406312 0.00051182508
0.18592869 -0.036400463 0.00026327372
0.20024905 -0.036393724 -2.9623508e-05
0.21459343 -0.03639473 1.4722347e-05
0.22894754 -0.036398023 0.00015681982
0.24324699 -0.036388226 -0.00026911497
0.25755996 -0.036382649 -0.00050860643
0.27193791 -0.036390975 -0.00015372038
0.28617382 -0.036371417 -0.00099605322
0.30051512 -0.036372811 -0.00093412399
0.31486231 -0.036375057 -0.00083661079
-0.34408224 -0.022009302 -0.0028731227
-0.32844985 -0.021911981 -0.0091933608
-0.31405145 -0.021902181 -0.0098344684
-0.11413676 -0.021868411 -0.012026548
-0.099989384 -0.021886731 -0.010834694
-0.085796759 -0.021899704 -0.0099924803
-0.071599737 -0.021914575 -0.009026289
-0.057407968 -0.021934558 -0.0077338219
-0.043201126 -0.02195582 -0.0063514709
-0.028933182 -0.021963798 -0.0058314204
-0.014682703 -0.02198196 -0.0046493411
-0.00040863082 -0.021997452 -0.0036424398
0.0138852 -0.022010153 -0.0028201938
0.028194005 -0.022020495 -0.0021474957
0.042514928 -0.02202731 -0.001704812
0.05684267 -0.022030408 -0.001501143
0.071179077 -0.022044659 -0.00057941675
0.085518345 -0.022047525 -0.00039321184
0.099862121 -0.022051476 -0.00013595819
0.11418884 -0.022044852 -0.00056183338
0.12852094 -0.022043187 -0.00067698956
0.14285618 -0.022042917 -0.00068593025
0.15717362 -0.022037728 -0.0010227561
0.17152134 -0.022041522 -0.00078344345
0.18579848 -0.022028742 -0.0016162992
0.20010644 -0.022024598 -0.0018819571
0.21446505 -0.022030408 -0.001501143
0.2287641 -0.022025451 -0.0018287301
0.24309708 -0.022026457 -0.0017666817
0.2573795 -0.022019874 -0.0021830201
0.27167189 -0.022015808 -0.0024573207
0.28594589 -0.022009689 -0.0028466582
0.30029032 -0.022012671 -0.0026519895
0.31462669 -0.02201453 -0.0025368929
0.32921749 -0.022042917 -0.00069469213
-0.32821995 -0.0076334397 -0.010299504
-0.3146798 -0.007661168 -0.0066950917
-0.071439847 -0.0076255002 -0.011334419
-0.057261303 -0.0076348339 -0.010115385
-0.04307545 -0.007645871 -0.0086836815
-0.02883637 -0.0076516797 -0.0079273582
-0.014596164 -0.0076595801 -0.0068976879
-0.00034068152 -0.0076676351 -0.0058491826
0.013936616 -0.0076737548 -0.0050464272
0.028231706 -0.0076772789 -0.004596293
0.042531613 -0.0076828557 -0.0038719773
0.05684267 -0.007688045 -0.0032002926
0.071166389 -0.0076955189 -0.0022272468
0.085491747 -0.0076964102 -0.0021210909
0.099813014 -0.0076953252 -0.0022625923
0.11413537 -0.0076949769 -0.0022981167
0.12844901 -0.0076931952 -0.002545774
0.14277884 -0.007694473 -0.0023601055
0.15708533 -0.0076922276 -0.0026607513
0.17139754 -0.0076912218 -0.0027934313
0.18570894 -0.0076903296 -0.0029085279
0.20002811 -0.0076904069 -0.0028996468
0.21433841 -0.0076895938 -0.0029969215
0.22861943 -0.0076865735 -0.0033947825
0.24291825 -0.0076852948 -0.0035539865
0.25723463 -0.0076854886 -0.0035274625
0.27147794 -0.0076808804 -0.0041370392
0.28578585 -0.0076808403 -0.0041459799
0.30010289 -0.0076812678 -0.0040840507
0.31439519 -0.0076803383 -0.0042076707
0.32894284 -0.0076929242 -0.002572298
-0.32854849 0.0066281008 -0.0087187886
-0.057140373 0.0066281008 -0.01207906
-0.042950563 0.0066281008 -0.01100117
-0.028738961 0.0066281781 -0.01003629
-0.00028860569 0.0066281394 -0.007540226
0.013982624 0.0066281394 -0.0070384741
0.042545948 0.0066281781 -0.0057344437
0.071148358 0.0066281394 -0.0045697093
0.085463427 0.0066281394 -0.003960371
0.11407983 0.0066280616 -0.0041017532
0.12838605 0.0066281394 -0.0041812658
0.14270575 0.0066281394 -0.0039426684
0.15700009 0.0066281008 -0.0042430162
0.17129958 0.0066281008 -0.0043843389
0.19990292 0.0066281394 -0.0045256615
0.24276447 0.0066281394 -0.0050905347
0.25703669 0.0066281781 -0.0053640008
0.28559238 0.0066281394 -0.0057168007
0.29986963 0.0066281394 -0.0058665872
0.32861584 0.0066281394 -0.0048081279
-0.014532156 0.0066282554 -0.0085606575
0.028261034 0.0066282167 -0.0065012574
0.05684267 0.0066282167 -0.0049758554
0.099773601 0.0066282167 -0.0039693117
0.18561403 0.0066282167 -0.004278481
0.21419176 0.0066282167 -0.0047286749
0.22846036 0.0066282167 -0.0051170588
0.27130878 0.0066282167 -0.005602181
0.31415552 0.0066282167 -0.0059372187
-0.028651081 0.020877093 -0.011938989
-0.014443271 0.020885265 -0.010869682
-0.00021201745 0.020891886 -0.010027528
0.014025897 0.020900369 -0.0089122057
0.028288137 0.020905441 -0.0082616806
0.042560391 0.02091036 -0.0076106787
0.05684267 0.020916594 -0.0068095326
0.071135864 0.020921359 -0.0061929226
0.085438281 0.020926043 -0.0055934191
0.099728763 0.020923527 -0.0059107542
0.11402223 0.020922985 -0.0059725046
0.12832016 0.020923682 -0.0058931708
0.14262177 0.02092465 -0.0057609677
0.15693207 0.020926625 -0.0055051446
0.17119038 0.02092159 -0.006157577
0.18547346 0.020920467 -0.0063074827
0.1997522 0.02091915 -0.006483674
0.21399468 0.020914696 -0.0070561767
0.22829017 0.020915432 -0.0069592595
0.24256161 0.020914193 -0.0071177483
0.25681731 0.020912064 -0.0073994994
0.27111849 0.020913148 -0.0072497725
0.28535476 0.020910127 -0.0076459646
0.29962412 0.020909391 -0.0077425838
0.31394315 0.02091152 -0.0074698925
0.32836175 0.020918647 -0.0065453649
-0.00015829131 0.035128679 -0.011772513
0.014068875 0.035144053 -0.010773182
0.028312758 0.035158072 -0.009860754
0.042568788 0.035175886 -0.0087012053
0.05684267 0.035184253 -0.0081650615
0.071122646 0.035188086 -0.0079098344
0.085411429 0.035196956 -0.0073379278
0.099693358 0.035195328 -0.0074436069
0.11398506 0.035199355 -0.0071794391
0.12828454 0.035204932 -0.0068185329
0.1425595 0.035200439 -0.007109046
0.15683758 0.035198119 -0.007258594
0.1710906 0.035190139 -0.0077778697
0.18536426 0.035188474 -0.0078834295
0.1996424 0.035188086 -0.0079098344
0.21389036 0.035182316 -0.0082880855
0.22814144 0.03517798 -0.0085693002
0.24239787 0.035175074 -0.008754015
0.25666469 0.035174184 -0.008815527
0.27094686 0.035175461 -0.0087364316
0.28519556 0.035172246 -0.0089386106
0.2994515 0.03517035 -0.0090616345
0.31373847 0.035172053 -0.0089473128
0.32811713 0.0351834 -0.0082178116
0.028336523 0.049387392 -0.011404395
0.042579941 0.049416438 -0.010150433
0.05684267 0.049428985 -0.0096062422
0.07110884 0.049426701 -0.0097028017
0.08538232 0.049437661 -0.0092284679
0.099661067 0.049446527 -0.0088418722
0.11393279 0.049445715 -0.0088769794
0.12821579 0.049451988 -0.0086044669
0.14250463 0.049459152 -0.0082968473
0.15675226 0.049446527 -0.0088418722
0.17102236 0.049445558 -0.0088858008
0.18525648 0.049432781 -0.0094392896
0.19950981 0.049428366 -0.0096325278
0.21377875 0.049428985 -0.0096062422
0.22802132 0.049422827 -0.0098695159
0.24230467 0.049427047 -0.0096852183
0.25654638 0.049421821 -0.0099134445
0.27077752 0.049415041 -0.010203063
0.28501064 0.049409736 -0.010439992
0.29926884 0.04940927 -0.010457575
0.31352192 0.049407955 -0.010510087
0.32784092 0.049417365 -0.010106623
0.05684267 0.063642815 -0.011325538
0.071098715 0.063652299 -0.011018813
0.085356779 0.063656367 -0.010887206
0.099626601 0.06367337 -0.01033473
0.11388979 0.063675307 -0.010273278
0.12815428 0.063677438 -0.010203123
0.14241782 0.063678287 -0.010176718
0.15666521 0.063669689 -0.010457575
0.1709072 0.063660398 -0.010755777
0.18516102 0.063658617 -0.01081717
0.19941591 0.063657455 -0.010852277
0.21366654 0.063655049 -0.010931194
0.22791597 0.063652575 -0.011009872
0.2421484 0.063645333 -0.011246741
0.25639513 0.063643165 -0.011316955
0.27061245 0.063633479 -0.011632323
0.28480768 0.063619308 -0.012087762
0.29905206 0.063618645 -0.012114108
0.31329238 0.063616984 -0.012166619
0.32755238 0.063619733 -0.01207906
0.11383688 0.07787089 -0.011991382
0.12808746 0.077872947 -0.011938989
0.14234613 0.077881075 -0.011728764
0.15657452 0.077865161 -0.012140393
0.34195 0.12067108 -0.011106491
-0.27540499 -0.22450072 0.013599098
-0.30409002 -0.20993151 0.012528539
-0.28941536 -0.20978311 0.011243463
-0.27498156 -0.20977892 0.011207521
-0.26056963 -0.20978931 0.011297464
-0.24623619 -0.20985679 0.011881292
-0.23186888 -0.20990549 0.01230365
-0.21748067 -0.20994282 0.012627363
-0.20313983 -0.21002391 0.013329089
-0.33296281 -0.19549318 0.012519479
-0.31829715 -0.19537018 0.011378229
-0.30364585 -0.19524546 0.010220468
-0.28891504 -0.19506383 0.0085356832
-0.27443397 -0.19501854 0.0081146955
-0.2600807 -0.19505039 0.008410275
-0.24576773 -0.19511214 0.0089834929
-0.23150672 -0.19521634 0.0099512935
-0.21717058 -0.19527635 0.010507405
-0.20286079 -0.19536346 0.011315346
-0.18853158 -0.19544479 0.01207
-0.17417644 -0.19551349 0.012708187
-0.15978137 -0.19555424 0.013086021
-0.34731865 -0.18101823 0.012141883
-0.33255023 -0.1808573 0.010534286
-0.31792545 -0.18075593 0.0095211267
-0.30317867 -0.18058294 0.0077927113
-0.28853333 -0.18045041 0.0064694881
-0.27403039 -0.18038715 0.0058355331
-0.25971115 -0.18042636 0.0062282681
-0.24536423 -0.18045232 0.0064874887
-0.23108213 -0.18052295 0.007193327
-0.21679448 -0.18059725 0.0079359412
-0.20249297 -0.18066986 0.0086609721
-0.18818979 -0.1807497 0.0094582438
-0.17388657 -0.18083937 0.010354936
-0.15953645 -0.18090044 0.010965347
-0.14518955 -0.18097322 0.011692643
-0.13087924 -0.18109374 0.012897253
-0.11648896 -0.18114775 0.013436973
-0.36182523 -0.16661371 0.012465656
-0.34700698 -0.1664502 0.010695815
-0.3319785 -0.16618127 0.0077836514
-0.31734687 -0.16607465 0.0066303611
-0.30272293 -0.16596331 0.0054248571
-0.28804547 -0.16581595 0.0038288832
-0.27355689 -0.16575418 0.0031608939
-0.2592203 -0.16576986 0.0033301115
-0.24503098 -0.16587101 0.0044258237
-0.23067664 -0.16588342 0.0045596957
-0.21640895 -0.1659518 0.0052999258
-0.20215221 -0.16603509 0.0062015653
-0.187925 -0.16614902 0.0074349046
-0.17362498 -0.16622257 0.0082312822
-0.15933347 -0.1663128 0.0092073679
-0.14502028 -0.16639718 0.010121882
-0.1306895 -0.16647846 0.01100105
-0.11632533 -0.16653989 0.011665702
-0.10194716 -0.16659705 0.012285769
-0.087551862 -0.16664535 0.01280731
-0.0731754 -0.16672924 0.013716042
-0.36192763 -0.15221578 0.012924254
-0.34686196 -0.15197009 0.010023117
-0.33171278 -0.15167218 0.0065053701
-0.31706625 -0.15156409 0.005228579
-0.30228555 -0.15138821 0.0031520128
-0.28765744 -0.15126775 0.0017287135
-0.27321047 -0.15122333 0.0012044311
-0.25886786 -0.15122716 0.0012488961
-0.24467112 -0.15130766 0.0021999478
-0.23036809 -0.15133782 0.0025557876
-0.21606223 -0.15136941 0.0029294491
-0.20182095 -0.15144409 0.003811121
-0.1875744 -0.15152407 0.0047557354
-0.17329912 -0.15159424 0.0055854321
-0.15902662 -0.15167595 0.0065499544
-0.14474612 -0.15176305 0.0075780749
-0.13042843 -0.15183195 0.0083922744
-0.11609989 -0.15190256 0.0092253089
-0.10173431 -0.15194879 0.0097720027
-0.087389335 -0.15202706 0.010695875
-0.073019013 -0.15209171 0.011459053
-0.058639742 -0.15216011 0.012267709
-0.044236906 -0.15221119 0.012870252
-0.029825233 -0.15226291 0.013481975
0.20130304 -0.15227829 0.013662159
0.21573687 -0.15226597 0.013517976
0.23017348 -0.1522584 0.013427973
0.2445907 -0.15223555 0.013158083
0.25901344 -0.15222029 0.012978077
0.27341998 -0.15219517 0.012681246
0.28788835 -0.15221578 0.012924254
0.3023299 -0.15221645 0.012933135
0.31675786 -0.15220895 0.012843311
-0.36120993 -0.13752797 0.0097093582
-0.34674597 -0.13751066 0.0094852448
-0.33130836 -0.13713151 0.0045597553
-0.31650639 -0.13696761 0.0024311543
-0.30191934 -0.1368766 0.0012488961
-0.20147826 -0.13688347 0.0013376474
-0.18729231 -0.13698065 0.0026002526
-0.17301254 -0.13703127 0.0032587647
-0.15871961 -0.13707998 0.0038912892
-0.14445159 -0.13715334 0.0048449039
-0.1302065 -0.13725579 0.0061746836
-0.11592625 -0.137346 0.007345438
-0.10158488 -0.13739689 0.0080074072
-0.087236837 -0.13745129 0.0087146759
-0.072879776 -0.13750784 0.0094492435
-0.058512002 -0.13756517 0.010193408
-0.044130377 -0.13761902 0.010893285
-0.029729709 -0.13765913 0.011414111
-0.015333496 -0.13772419 0.012258828
-0.00090794638 -0.13774838 0.012573421
0.013521813 -0.13777468 0.012915194
0.027956696 -0.13780172 0.013266206
0.042398158 -0.13781685 0.013464034
0.05684267 -0.13783766 0.013734162
0.08573363 -0.13782671 0.013590097
0.1001814 -0.13783434 0.01368928
0.11462986 -0.13783981 0.013761103
0.1290687 -0.13782391 0.013554156
0.14349103 -0.13778576 0.013059139
0.15793338 -0.13778713 0.013077199
0.17236274 -0.13777187 0.012879252
0.18680337 -0.13777266 0.012888193
0.20121023 -0.13773939 0.012456656
0.2156447 -0.13773738 0.012429595
0.23002809 -0.137693 0.011854291
0.24442694 -0.13766739 0.011521935
0.25886038 -0.13767023 0.011557877
0.27328503 -0.13766675 0.011512995
0.28766918 -0.13763842 0.011144876
0.30209583 -0.13763842 0.011144876
0.31653619 -0.13764597 0.011243463
0.33124363 -0.12335116 0.013158083
-0.36080205 -0.12298577 0.0078822374
-0.34561133 -0.12273207 0.0042208433
-0.33077174 -0.1225767 0.0019777417
-0.15842785 -0.12253417 0.0013644695
-0.14416268 -0.12258957 0.0021644235
-0.12996015 -0.12269691 0.0037130117
-0.11570351 -0.12278149 0.0049341917
-0.10140021 -0.12284331 0.0058265328
-0.087073639 -0.12289652 0.0065945983
-0.072747648 -0.12296219 0.0075423121
-0.058400527 -0.12302037 0.0083833337
-0.044027947 -0.12306255 0.0089923143
-0.029627375 -0.12307687 0.009198308
-0.015270576 -0.12317568 0.01062417
-0.00086257234 -0.12320863 0.011099875
0.013559587 -0.12322105 0.011279404
0.027984655 -0.12323286 0.011450052
0.042410411 -0.12326224 0.011872351
0.05684267 -0.12327147 0.012007117
0.071278319 -0.12329261 0.012312651
0.085710093 -0.12327522 0.012061
0.10014567 -0.12328081 0.012142003
0.11457171 -0.12326224 0.011872351
0.12900293 -0.12326029 0.011845291
0.14342004 -0.12323792 0.011521935
0.15786895 -0.12326276 0.011881292
0.17228855 -0.1232485 0.011674643
0.18669565 -0.12322484 0.011333346
0.2011113 -0.1232136 0.011171699
0.2154827 -0.1231682 0.010516405
0.22989871 -0.12316386 0.010453761
0.24429579 -0.12314713 0.010211468
0.2587027 -0.12313904 0.010094881
0.27309746 -0.12312472 0.0098885894
0.28749239 -0.12311234 0.009709239
0.30189741 -0.12310672 0.0096285343
0.31628257 -0.12309177 0.0094134808
-0.36035508 -0.1084609 0.0058801174
-0.3453809 -0.10829286 0.0031520128
-0.1297171 -0.10817789 0.0012843609
-0.11547804 -0.10825228 0.0024935007
-0.10120843 -0.10831812 0.0035616159
-0.086918354 -0.10838064 0.0045775771
-0.072617039 -0.10844717 0.005656898
-0.058266163 -0.10848075 0.0062016249
-0.043919444 -0.10852852 0.006978929
-0.029564925 -0.10858197 0.007846415
-0.015190534 -0.10862497 0.0085445642
-0.00080650672 -0.1086702 0.0092790723
0.013587568 -0.10871881 0.01006794
0.028007591 -0.10871213 0.0099602938
0.042424578 -0.10871662 0.010031998
0.05684267 -0.10872481 0.010166645
0.07126525 -0.1087525 0.01061511
0.085686997 -0.10874915 0.010561347
0.10011663 -0.10876906 0.010884464
0.11451559 -0.10871759 0.010049999
0.12895074 -0.10874472 0.010489523
0.14335659 -0.10872378 0.010148644
0.15779251 -0.10874318 0.010462642
0.17220508 -0.10873421 0.010319054
0.18661544 -0.10872537 0.010175586
0.20099321 -0.10869222 0.0096375346
0.21538095 -0.1086724 0.0093148351
0.22976041 -0.10865034 0.0089563727
0.24411824 -0.10861835 0.0084370375
0.25849029 -0.10859908 0.0081238151
0.27287924 -0.10859141 0.0079985261
0.28730151 -0.10860118 0.0081594586
0.30170518 -0.10860118 0.0081594586
0.31602454 -0.10856378 0.007551074
0.33091891 -0.10877237 0.010938287
-0.36095387 -0.09421923 0.0085624456
-0.10101333 -0.093825646 0.0012578368
-0.086756557 -0.093891345 0.0024756789
-0.072445959 -0.093929686 0.0031875372
-0.05812718 -0.09397047 0.0039446354
-0.04380542 -0.094019942 0.0048628449
-0.029481947 -0.094083935 0.0060497522
-0.015107572 -0.094102219 0.0063891411
-0.00073788688 -0.094137765 0.0070503354
0.013639081 -0.094180197 0.0078374147
0.02803614 -0.094194658 0.0081058145
0.042438306 -0.094202444 0.0082489848
0.05684267 -0.094221652 0.0086072087
0.071250483 -0.094226509 0.0086966753
0.085660636 -0.094234683 0.0088489652
0.10006652 -0.094227515 0.0087146759
0.11447033 -0.094220258 0.008580327
0.12886967 -0.094209604 0.0083833337
0.14327919 -0.094214506 0.0084729195
0.15769351 -0.094222739 0.0086251497
0.17207594 -0.094200991 0.0082222223
0.18646212 -0.094187006 0.0079628825
0.20084293 -0.094172001 0.0076853037
0.21521644 -0.094155177 0.0073723197
0.2295761 -0.094132982 0.0069611669
0.24395621 -0.094125278 0.0068179369
0.25834477 -0.094122939 0.0067734122
0.2726872 -0.094099313 0.0063356757
0.28701416 -0.094071858 0.0058265328
0.3014209 -0.094080508 0.0059871674
0.31579673 -0.094076172 0.0059069395
0.33063829 -0.094243936 0.009019196
-0.35978782 -0.079571232 0.0033389926
-0.34499371 -0.079479679 0.001355648
-0.057984695 -0.079492345 0.0016309619
-0.043688297 -0.079541221 0.0026892424
-0.029373199 -0.079587691 0.0036952496
-0.015034065 -0.079623923 0.0044793487
-0.00067519397 -0.079648651 0.0050144196
0.013694592 -0.079667956 0.0054336786
0.028067248 -0.079698138 0.0060853958
0.042452209 -0.079714544 0.0064427853
0.05684267 -0.079721652 0.0065945983
0.071236774 -0.079736479 0.0069163442
0.08563295 -0.079742655 0.007050395
0.10002767 -0.079741865 0.0070326328
0.11442021 -0.079738148 0.006952107
0.12881079 -0.079733595 0.0068538189
0.14319824 -0.079727344 0.0067196488
0.15758841 -0.079725273 0.0066750646
0.17195645 -0.079707168 0.0062819719
0.18632959 -0.079696439 0.0060496926
0.20069502 -0.079683267 0.0057641268
0.21507347 -0.079679497 0.0056837201
0.22941355 -0.079657264 0.0052018166
0.24378107 -0.07965111 0.0050679445
0.25813019 -0.079637885 0.0047825575
0.27245948 -0.079618633 0.0043635964
0.28680652 -0.079608254 0.0041406751
0.30120373 -0.079616927 0.004327774
0.31557792 -0.079616927 0.004327774
0.33033329 -0.079737313 0.0069342256
-0.35959512 -0.065171435 0.0024756193
-0.029261023 -0.065124907 0.0012666583
-0.014939822 -0.065154374 0.0020310879
-0.00061318651 -0.065191574 0.003000617
0.013737824 -0.065213323 0.0035617948
0.02809719 -0.065235607 0.0041406751
0.042466089 -0.065254718 0.004639864
0.05684267 -0.065265 0.0049073696
0.071222544 -0.065271273 0.0050679445
0.085602835 -0.065272242 0.0050946474
0.099990129 -0.065284252 0.0054070354
0.11437179 -0.065283321 0.0053803325
0.12875888 -0.065288104 0.0055052042
0.14313552 -0.06528262 0.0053623319
0.15747586 -0.065252781 0.0045865178
0.17183995 -0.065245174 0.0043902993
0.18620287 -0.065238588 0.0042207241
0.20055909 -0.065230049 0.0039981008
0.21492998 -0.065229721 0.0039891601
0.22927769 -0.065219693 0.0037307739
0.24363121 -0.065213554 0.0035704374
0.25797462 -0.065204628 0.003338933
0.2723093 -0.06519407 0.0030629635
0.2866672 -0.065192036 0.0030096173
0.30101842 -0.065188244 0.0029117465
0.31534839 -0.06517899 0.0026714802
0.33009166 -0.065279447 0.0052819848
0.013782002 -0.050786048 0.0016487837
0.028121866 -0.050813425 0.0025379658
0.042482406 -0.050812885 0.002520144
0.05684267 -0.050823223 0.0028582811
0.071209446 -0.050838988 0.0033657551
0.085574299 -0.050835192 0.0032411218
0.099954709 -0.050854631 0.0038734674
0.11431991 -0.050849173 0.0036952496
0.12867722 -0.05083945 0.0033834577
0.14304453 -0.050839759 0.0033923984
0.15737794 -0.050820515 0.0027692318
0.17173684 -0.050818928 0.0027159452
0.18608382 -0.050812341 0.0025024414
0.20041861 -0.050802197 0.002173245
0.21477771 -0.050802737 0.0021911263
0.22911164 -0.050794799 0.001933217
0.24350654 -0.050806843 0.0023244619
0.25780109 -0.050788447 0.0017286539
0.27209675 -0.050772917 0.0012221932
0.28644484 -0.050772376 0.0012045503
0.30081475 -0.050777022 0.0013555288
0.31515622 -0.050774775 0.0012844801
0.32984132 -0.050845262 0.003570497
0.071191914 -0.036419556 0.0010889769
0.085548967 -0.036431368 0.0015954375
0.099900879 -0.036430012 0.0015419722
0.11425416 -0.036430478 0.0015598536
0.12860566 -0.036429588 0.0015243888
0.14294513 -0.036423001 0.001240015
0.1572783 -0.036415759 0.00092035532
0.32947969 -0.036419787 0.0010977983
-0.2340668 -0.29882675 0.02657944
-0.21950798 -0.29881206 0.026488304
-0.20497079 -0.29882088 0.026543081
-0.19040769 -0.29879883 0.026406169
-0.17584556 -0.29877523 0.026260197
-0.16131309 -0.29878986 0.026351333
-0.14678413 -0.29881206 0.026488304
-0.13225123 -0.29883119 0.026606858
-0.11771397 -0.29884592 0.026698172
-0.37942672 -0.28421816 0.026168883
-0.36481106 -0.2841675 0.025840402
-0.3500787 -0.28403008 0.024947286
-0.33563489 -0.28409597 0.025375426
-0.32101113 -0.28402856 0.024937987
-0.30644321 -0.28400058 0.024755895
-0.29200101 -0.28407484 0.025238812
-0.27735132 -0.28397536 0.024591923
-0.26279181 -0.28394866 0.024418771
-0.24824239 -0.28392896 0.024291277
-0.23373134 -0.28394586 0.024400771
-0.21920665 -0.28395006 0.02442801
-0.20462976 -0.28389674 0.024081945
-0.19015001 -0.28395146 0.02443707
-0.17562889 -0.2839613 0.024500787
-0.16108258 -0.28393891 0.024355114
-0.1465562 -0.28394157 0.024373353
-0.13207053 -0.28400746 0.024801314
-0.11756739 -0.28405529 0.025111139
-0.10303706 -0.28406224 0.025156856
-0.088528499 -0.28411415 0.025494099
-0.073986948 -0.28410435 0.025430143
-0.059476174 -0.2841689 0.025849521
-0.044936806 -0.28417036 0.0258587
-0.030378342 -0.28410858 0.025457621
-0.015857309 -0.28417179 0.025867939
-0.0013291053 -0.28423074 0.026250899
0.013216782 -0.28421101 0.026123345
0.027759308 -0.28420544 0.026086867
0.042300917 -0.28420681 0.026095808
0.05684267 -0.28420824 0.026104927
0.071386531 -0.28424895 0.026369512
0.08593446 -0.28428975 0.026634216
-0.37926453 -0.26957306 0.025466621
-0.3643738 -0.26934123 0.023881733
-0.34973335 -0.26926267 0.023344815
-0.3351807 -0.26924008 0.023190379
-0.32049936 -0.26912174 0.022381186
-0.30589354 -0.26905131 0.021899641
-0.2913354 -0.2690129 0.021636486
-0.27676535 -0.26896107 0.021282434
-0.2622714 -0.26897037 0.021345794
-0.24775739 -0.26896238 0.021291435
-0.23327781 -0.26898637 0.021454871
-0.21880762 -0.26902211 0.021699905
-0.20434378 -0.26906866 0.022017837
-0.18986788 -0.26910719 0.022281229
-0.17542826 -0.26919359 0.022871971
-0.16086306 -0.26913235 0.022453845
-0.14640027 -0.26920152 0.022926629
-0.13191114 -0.26924279 0.023208499
-0.11741598 -0.26928139 0.02347225
-0.10289674 -0.26928532 0.023499489
-0.088372156 -0.2692799 0.02346307
-0.07389167 -0.26936653 0.024054587
-0.059384689 -0.26941174 0.024364054
-0.044860192 -0.2694225 0.02443707
-0.030323222 -0.26939714 0.024264038
-0.015812047 -0.26945981 0.024692059
-0.0012841932 -0.26947445 0.024792194
0.013243102 -0.26950246 0.024983644
0.027775731 -0.26950777 0.025020063
0.042307585 -0.2695384 0.025229692
0.05684267 -0.26950917 0.025029302
0.07137572 -0.26949975 0.024965465
0.085920416 -0.26961049 0.025721967
0.10045718 -0.26959711 0.025630772
0.11499591 -0.26959977 0.025649011
0.12954617 -0.26964509 0.025958955
0.14408644 -0.26964369 0.025949836
0.15865114 -0.26970911 0.02639693
0.17318398 -0.26968244 0.0262146
0.18773043 -0.26969051 0.026269257
0.20227985 -0.26970249 0.026351452
0.2168166 -0.26969051 0.026269257
0.24594297 -0.26974916 0.026670754
0.26045668 -0.26970515 0.026369572
0.27500159 -0.26970643 0.026378691
0.2895253 -0.26968244 0.0262146
0.30406675 -0.2696811 0.026205301
0.3186751 -0.26975057 0.026679933
-0.37917823 -0.25498441 0.025092959
-0.36384624 -0.25448909 0.02151835
-0.34926927 -0.25444376 0.021191597
-0.33462387 -0.25434959 0.02051127
-0.31994724 -0.25422645 0.019622982
-0.30535954 -0.25415745 0.019124806
-0.29086637 -0.25415358 0.019097447
-0.27634323 -0.25412604 0.018898547
-0.26180631 -0.25408471 0.018599689
-0.24735151 -0.25410974 0.018780649
-0.23289676 -0.25413734 0.018979847
-0.21849985 -0.25422272 0.019595802
-0.20404078 -0.25425532 0.0198313
-0.18958405 -0.25429428 0.020112216
-0.17508611 -0.25429174 0.020094097
-0.1606492 -0.25436205 0.020601809
-0.14617908 -0.25439981 0.020874143
-0.13173746 -0.25448278 0.021472991
-0.11723298 -0.25448534 0.02149123
-0.10277128 -0.25455832 0.022017777
-0.088290274 -0.25461116 0.022399426
-0.073788315 -0.25463387 0.022562921
-0.05928608 -0.25466153 0.022762895
-0.044784687 -0.25469929 0.023035705
-0.030276991 -0.25473085 0.023263097
-0.015773855 -0.2547912 0.023699641
-0.0012455098 -0.25476861 0.023535907
0.013268974 -0.254814 0.023863494
0.027794238 -0.25480774 0.023817956
0.042317543 -0.2548241 0.02393651
0.05684267 -0.25486198 0.024209499
0.071371794 -0.25489601 0.024455249
0.085902452 -0.25490984 0.024555326
0.10043529 -0.25492752 0.02468282
0.11497682 -0.25497553 0.025029123
0.12949002 -0.25490236 0.024500906
0.1440258 -0.25492129 0.024637341
0.1585848 -0.25499445 0.025165856
0.17310986 -0.25497305 0.025010943
0.18766031 -0.25500715 0.025257111
0.2021928 -0.25500199 0.025220513
0.21674092 -0.25502357 0.025375426
0.23126367 -0.25500327 0.025229573
0.24581788 -0.25502977 0.025420964
0.26030633 -0.25496796 0.024974585
0.27485734 -0.25498939 0.025129378
0.28934899 -0.25494152 0.024783134
0.30383652 -0.25489476 0.024446189
0.31840092 -0.25493008 0.024701178
-0.37940985 -0.24058163 0.026095927
0.10041595 -0.24028708 0.023845375
0.11493757 -0.24027517 0.023754358
0.15852101 -0.24030493 0.023981869
0.17304593 -0.24030374 0.02397275
0.18759529 -0.24034911 0.024318695
0.20210095 -0.24031086 0.024027348
0.21661599 -0.24029423 0.023899913
0.23114167 -0.24029541 0.023909092
-0.36381173 -0.23996234 0.021363974
-0.34891361 -0.23972386 0.019541323
-0.33420962 -0.23958994 0.01851815
-0.31949812 -0.23944075 0.017378628
-0.30487567 -0.23934023 0.016610682
-0.29035187 -0.23930125 0.016312659
-0.27585024 -0.23927528 0.016114056
-0.26140219 -0.23928834 0.016213357
-0.24695696 -0.2393049 0.016339898
-0.23260991 -0.23940648 0.017116606
-0.2182232 -0.23948334 0.017704129
-0.20381247 -0.23954625 0.01818347
-0.18933634 -0.2395509 0.01821959
-0.17488421 -0.23958164 0.01845479
-0.16042951 -0.23961355 0.018699169
-0.14602567 -0.23971198 0.019450963
-0.13157226 -0.23976056 0.01982218
-0.11714412 -0.23985307 0.020529389
-0.10268439 -0.23991364 0.020991981
-0.088209882 -0.23996113 0.021354914
-0.073726013 -0.24000145 0.021663666
-0.059268169 -0.24010742 0.022472024
-0.044739135 -0.2400706 0.022190511
-0.030236267 -0.24009554 0.022381186
-0.015730798 -0.24012171 0.022581279
-0.0012289807 -0.24017629 0.022999287
0.013287667 -0.24018353 0.023053825
0.027809083 -0.24015734 0.022853851
0.042326085 -0.24015379 0.022826552
0.05684267 -0.24022874 0.023399353
0.071365274 -0.24025607 0.023608625
0.085883677 -0.24022049 0.023335814
0.1294508 -0.24023953 0.023481429
0.14398082 -0.24026331 0.023663402
0.24563926 -0.24025965 0.023635983
0.26014248 -0.24023581 0.023453951
0.27464706 -0.24021676 0.023308456
0.28916287 -0.24021211 0.023272157
0.30368289 -0.24021211 0.023272157
0.31821805 -0.24022642 0.023381293
-0.39363831 -0.2258781 0.024783075
-0.37855411 -0.2255834 0.022390246
-0.36340487 -0.22523253 0.019541264
-0.34865797 -0.22508651 0.018355429
-0.33375871 -0.22483934 0.016348898
-0.31912041 -0.22473368 0.015491486
-0.30454224 -0.22465821 0.014878333
-0.28991544 -0.2245439 0.013950288
-0.26099449 -0.2245262 0.013806224
-0.24661724 -0.22457945 0.014238656
-0.23226388 -0.2246571 0.014869332
-0.21791936 -0.22475047 0.015627027
-0.20354448 -0.22482713 0.016249597
-0.18912698 -0.22487275 0.016619742
-0.17469044 -0.22490491 0.016881645
-0.16027388 -0.22496282 0.017351627
-0.14589299 -0.22506973 0.01821965
-0.13147074 -0.22514218 0.018807709
-0.11702107 -0.22519025 0.019197285
-0.10255007 -0.22521573 0.019405425
-0.088100269 -0.22528055 0.019931078
-0.073645547 -0.22535087 0.02050215
-0.059198812 -0.22545478 0.021345913
-0.044716127 -0.22550622 0.021763563
-0.030210666 -0.22551404 0.021827102
-0.015706323 -0.22552866 0.021945119
-0.0012007169 -0.22554547 0.022081554
0.013308868 -0.22555219 0.022135973
0.027825309 -0.22551064 0.021799803
0.042330705 -0.22556327 0.022226751
0.05684267 -0.22560808 0.02259022
0.071354426 -0.22555995 0.022199512
0.085867859 -0.22557339 0.022308648
0.10037836 -0.2255622 0.022217631
0.11488801 -0.22555318 0.022145033
0.12940004 -0.22555545 0.022163153
0.1439237 -0.22558801 0.022426665
0.15843181 -0.22557558 0.022326589
0.17296135 -0.22560921 0.022599399
0.18746296 -0.22558568 0.022408545
0.2019847 -0.2255991 0.022517443
0.21647739 -0.22556773 0.022262931
0.23096779 -0.22553875 0.022026837
0.24547914 -0.22553976 0.022035837
0.25996026 -0.22550622 0.021763563
0.27443305 -0.22546816 0.021454751
0.28893122 -0.22546034 0.021391332
0.30344507 -0.22546816 0.021454751
0.31796241 -0.22547822 0.021536469
0.33317596 -0.22607353 0.026369572
-0.3932777 -0.21117207 0.023272216
-0.37848693 -0.21103664 0.022099555
-0.36282122 -0.21043938 0.016926825
-0.34815347 -0.21033402 0.016014755
-0.33343995 -0.21019548 0.014815271
-0.31880832 -0.21009362 0.013932288
-0.18881771 -0.21013099 0.014256537
-0.17447035 -0.21022776 0.015094757
-0.16003723 -0.21025169 0.015302002
-0.14567678 -0.21035697 0.016213477
-0.13128793 -0.2104456 0.016981065
-0.11682387 -0.210455 0.017062306
-0.10241747 -0.21054479 0.017839789
-0.087994993 -0.21062827 0.01856339
-0.073562026 -0.21071297 0.019296706
-0.05908712 -0.21074027 0.019532323
-0.044623733 -0.21079981 0.020048797
-0.030147798 -0.21084809 0.02046591
-0.015657768 -0.21087316 0.020683646
-0.0011615828 -0.21088776 0.020810425
0.013341781 -0.21087629 0.020710707
0.027844312 -0.21085949 0.02056551
0.042341117 -0.21089512 0.020874083
0.05684267 -0.21094237 0.021282434
0.071345411 -0.2109129 0.021028221
0.085844517 -0.21088563 0.020792305
0.10035299 -0.21092337 0.021118999
0.11486285 -0.21094751 0.021327674
0.12936336 -0.210934 0.021209776
0.14386204 -0.21092032 0.021091759
0.15835062 -0.21088889 0.020819664
0.17285733 -0.21089937 0.020910442
0.18736167 -0.21090354 0.020946562
0.20184493 -0.21087527 0.020701647
0.21633056 -0.21085533 0.02052927
0.23078507 -0.21079981 0.020048797
0.24527664 -0.21079563 0.020012498
0.25973058 -0.21075168 0.019631863
0.27422357 -0.21075268 0.019641042
0.28872901 -0.21076529 0.01974982
0.30319464 -0.21074121 0.019541323
0.31771231 -0.21076322 0.019731641
0.33279079 -0.2112256 0.023736119
-0.39392334 -0.1969436 0.025977314
-0.36258733 -0.19585536 0.015879452
-0.34771228 -0.19564936 0.013968468
-0.14542221 -0.1956367 0.013851106
-0.13108292 -0.19575328 0.014932394
-0.11666125 -0.19579317 0.015302181
-0.10223238 -0.19583106 0.015653908
-0.087814778 -0.19589224 0.016222477
-0.073402211 -0.19597502 0.016990066
-0.058972307 -0.19604801 0.017667949
-0.044541739 -0.19614065 0.01852721
-0.030068293 -0.19616407 0.018744528
-0.015583828 -0.19616605 0.018762708
-0.0011049397 -0.19618849 0.018970728
0.013372347 -0.19623336 0.019387364
0.027858965 -0.19625783 0.019613922
0.042352423 -0.19623525 0.019405484
0.05684267 -0.19625187 0.019559443
0.071333967 -0.19624995 0.019541383
0.085827909 -0.19626848 0.019713521
0.1003312 -0.19631827 0.020175695
0.11481091 -0.19626074 0.019641042
0.12930194 -0.19625783 0.019613922
0.14377788 -0.19622064 0.019269526
0.15826172 -0.19620992 0.019169986
0.17276298 -0.19623241 0.019378304
0.18722917 -0.19619523 0.019034147
0.20170821 -0.19618358 0.018925488
0.21617407 -0.19615732 0.018681169
0.23064034 -0.19613576 0.01848197
0.24506736 -0.19607534 0.017921031
0.25953156 -0.19606076 0.01778549
0.27401769 -0.19606851 0.017857909
0.28848934 -0.19606264 0.017803609
0.30295426 -0.19605193 0.017704129
0.317469 -0.19608119 0.01797533
0.33252752 -0.19650805 0.021936059
-0.39287007 -0.18196103 0.021563768
-0.37767869 -0.18166448 0.018599808
-0.36215472 -0.18119822 0.013941228
-0.10210033 -0.18121363 0.014094472
-0.087702304 -0.18128029 0.01476115
-0.073290884 -0.1813426 0.015383244
-0.058879949 -0.1814211 0.016168237
-0.044447236 -0.1814817 0.016773283
-0.02999936 -0.18152954 0.017252147
-0.015537173 -0.18155941 0.017550349
-0.0010595322 -0.18155399 0.017496169
0.01340808 -0.18158838 0.017839789
0.027884331 -0.18160102 0.017966211
0.042361967 -0.18162099 0.01816535
0.05684267 -0.18162099 0.01816535
0.071322538 -0.18161008 0.01805681
0.0858116 -0.18166986 0.018653929
0.1002971 -0.18167435 0.018699348
0.11476465 -0.1816182 0.018138111
0.12924339 -0.18161376 0.01809299
0.14372019 -0.18160638 0.018020689
0.15819198 -0.18159206 0.017875969
0.17265597 -0.18156856 0.017640889
0.18707943 -0.18149166 0.016872764
0.20158008 -0.18153051 0.017261207
0.21602017 -0.18149067 0.016863704
0.23045832 -0.18145545 0.016511202
0.24492085 -0.18144998 0.01645714
0.25939035 -0.18145183 0.016475201
0.27386326 -0.18145631 0.016520381
0.28832015 -0.18144736 0.01643014
0.30274734 -0.18141654 0.016123176
0.31723857 -0.18143548 0.016312659
0.33226871 -0.18182126 0.020166755
-0.39319748 -0.16758095 0.022935688
-0.37937403 -0.16785854 0.025940776
-0.058777757 -0.1668025 0.014508903
-0.044360176 -0.16686244 0.015157819
-0.02992513 -0.16690738 0.015644848
-0.015467994 -0.16691746 0.01575309
-0.0010033622 -0.1669099 0.015671849
0.013447102 -0.16695409 0.016150296
0.027909234 -0.16697249 0.016348839
0.042371571 -0.16702512 0.016917884
0.05684267 -0.16701084 0.016764224
0.071314044 -0.16702843 0.016954064
0.085786812 -0.16703671 0.017044365
0.10025764 -0.16703169 0.016990125
0.11473624 -0.16705255 0.017215908
0.12919191 -0.16701005 0.016755283
0.14365506 -0.16699664 0.016610682
0.15812089 -0.16699164 0.016556561
0.17255752 -0.1669441 0.016041934
0.18701185 -0.16693074 0.015897572
0.2014529 -0.16690417 0.015608788
0.21588716 -0.16687499 0.015293181
0.23029913 -0.16682826 0.01478827
0.24475473 -0.16682909 0.01479727
0.25923088 -0.16684745 0.014995515
0.27365801 -0.16682416 0.014743149
0.28810906 -0.16682161 0.014716148
0.30253136 -0.16679922 0.014472783
0.31695247 -0.16677833 0.014247537
0.33193898 -0.16711685 0.01791209
-0.015393749 -0.152292 0.013824284
-0.00095311925 -0.15231019 0.014040291
0.013480019 -0.1523682 0.014725029
0.027928542 -0.15239953 0.015094757
0.042382967 -0.15242851 0.015437305
0.05684267 -0.15242234 0.015365243
0.071298897 -0.15239038 0.014986455
0.085761383 -0.15242477 0.015392303
0.10021782 -0.15241404 0.015266001
