ply
format ascii 1.0
comment PCL generated
element vertex 1353
property float x
property float y
property float z
element camera 0
property float view_px
property float view_py
property float view_pz
property float x_axisx
property float x_axisy
property float x_axisz
property float y_axisx
property float y_axisy
property float y_axisz
property float z_axisx
property float z_axisy
property float z_axisz
property float focal
property float scalex
property float scaley
property float centerx
property float centery
property int viewportx
property int viewporty
property float k1
property float k2
end_header
0.14672145 -0.41391921 -0.55741
0.12849893 -0.39548403 -0.56135583
0.14655566 0.40058464 -0.56279409
0.1648587 0.42016619 -0.55725789
0.14697275 -0.43280452 -0.5492487
0.14733341 -0.39731771 -0.53753555
0.16524279 0.40464532 -0.54727912
0.16621199 -0.41690928 -0.52209783
0.16603109 0.39163888 -0.52679813
0.1844347 0.41021299 -0.5260067
0.18470936 0.43018824 -0.52006018
0.16690436 -0.43697423 -0.50410998
0.16669461 -0.39947134 -0.50955963
0.14854668 -0.3817631 -0.49813366
0.18508691 0.39542705 -0.51188612
0.18621233 -0.41983727 -0.4875201
0.18646173 -0.40158373 -0.48212016
0.16775298 -0.38287675 -0.4820621
0.20513719 0.40282106 -0.48277915
0.20458651 0.41885221 -0.49299896
0.1874885 -0.38441285 -0.45988977
0.18729141 0.38870245 -0.4641571
0.20625269 0.38921458 -0.46207833
0.20750797 -0.4239642 -0.43878353
0.20719624 -0.40447438 -0.44456816
0.22589728 0.41129458 -0.44942355
0.2266559 0.39536631 -0.4371053
0.20797631 -0.38647729 -0.43009198
0.22858828 -0.40746433 -0.40572691
0.2280643 0.3817665 -0.41423547
0.24768475 0.40237558 -0.40865123
-0.70062548 -0.46629074 -0.39644158
-0.68464106 -0.46741953 -0.38516295
-0.72469407 -0.4482953 -0.38155639
-0.6826902 -0.44736174 -0.39166117
-0.68601388 -0.42889193 -0.38059044
0.22902668 -0.38865843 -0.39860857
0.20980763 -0.36945856 -0.39610708
0.24893603 0.38740885 -0.39059055
0.24929735 0.42756492 -0.3853755
-0.71073103 -0.44995183 -0.36362302
-0.66821015 -0.44891784 -0.37481678
-0.72867572 -0.42987841 -0.36894095
-0.6704852 -0.43003935 -0.36703956
0.23059985 -0.42952937 -0.37306321
0.2505334 -0.4104045 -0.36753428
0.25089258 -0.39117047 -0.36235046
0.23076174 -0.37103975 -0.37043452
-0.73042643 0.43314898 -0.3633939
-0.72927976 0.45182312 -0.36702693
-0.65421659 -0.45071566 -0.35535443
-0.65616518 -0.43160814 -0.34851325
-0.69561708 -0.41186172 -0.34860313
0.25117704 0.37546343 -0.3582443
0.27070701 0.39471084 -0.35999286
-0.75411844 0.41662282 -0.3508147
0.27084655 0.41480845 -0.3581804
-0.77550191 0.43761981 -0.34579468
-0.71676517 0.43806905 -0.34402645
-0.77421033 0.45635879 -0.34969664
-0.75688982 0.45830971 -0.34224308
-0.64025176 -0.45262298 -0.33470702
-0.64112169 -0.43304306 -0.331568
-0.6607613 -0.41311091 -0.33237636
0.27331263 -0.3936789 -0.32614493
0.25277802 -0.3732135 -0.33513629
0.27237052 0.38005024 -0.33838332
-0.77758181 0.41940725 -0.33951139
-0.73762083 0.41913921 -0.34059966
-0.72074193 0.42147636 -0.33111155
-0.75994515 0.4409225 -0.33279324
-0.70273328 0.44292778 -0.32490003
-0.62618428 -0.45460421 -0.31326056
-0.62627697 -0.43462241 -0.31291676
-0.64813572 -0.4151215 -0.3062582
0.27407363 -0.41435164 -0.31625938
0.27436456 -0.37460876 -0.31248009
0.29410723 0.38528442 -0.31571817
0.29363203 0.40393722 -0.32132971
-0.70471781 0.42463499 -0.31828988
-0.68817186 0.42751992 -0.30657756
-0.68777144 0.44723457 -0.30794609
-0.61271608 -0.45691326 -0.28826296
-0.61070365 -0.43605888 -0.29595208
-0.63009739 -0.4157005 -0.29873693
0.2964184 -0.41649419 -0.28842485
0.29547158 -0.39551756 -0.29960608
0.29594794 -0.37574798 -0.29398036
0.25574291 -0.35567701 -0.29234171
0.27591893 -0.35567996 -0.29228783
0.27546781 0.36921489 -0.29814816
0.29633167 0.37115699 -0.28944886
0.31675875 0.39193332 -0.28692758
-0.67193848 0.43083143 -0.29313433
-0.59630156 -0.43797287 -0.27334893
-0.61406314 -0.41690293 -0.28311646
0.31791234 -0.39726114 -0.27443933
0.29693666 -0.35621792 -0.28230417
0.29822737 0.35578817 -0.26706147
0.31802171 0.36458588 -0.27325547
-0.71955925 0.41645986 -0.26885509
-0.65675735 0.43526232 -0.27514732
-0.67685616 0.45538354 -0.27586889
-0.58177835 -0.43996495 -0.24982452
-0.59885365 -0.41842821 -0.26330221
0.3198047 -0.41914785 -0.25395417
0.31871545 -0.37748685 -0.26574576
0.21735814 -0.33718431 -0.25598645
0.23733738 -0.33683005 -0.26365948
0.25789583 -0.33694044 -0.2612673
0.21781972 -0.31706235 -0.24742091
0.33991119 0.35783625 -0.25756061
0.33936822 0.37706441 -0.26298618
0.33950445 0.39777672 -0.26162505
-0.66095114 0.41856951 -0.26001441
0.31867489 0.41709703 -0.26618433
-0.64150405 0.43988037 -0.2564007
-0.58294976 -0.41983172 -0.24506903
0.32079801 -0.358325 -0.24320126
0.23850283 -0.31716573 -0.24473464
0.25984687 -0.31761324 -0.23310602
0.23923281 -0.29699233 -0.23288119
0.21865171 -0.2763834 -0.2319814
0.34201568 0.32116586 -0.23653102
0.32071814 0.34020138 -0.24406576
0.34108043 0.33982491 -0.24587679
0.3628743 0.34226304 -0.23414564
0.36259153 0.36231768 -0.23676944
0.36279106 0.38333052 -0.234918
-0.64439207 0.4219898 -0.24568176
-0.62744683 0.42525923 -0.2319814
0.34242457 0.42514837 -0.23244548
-0.6270752 0.44554597 -0.2334013
-0.56681186 -0.44192815 -0.22663951
-0.56700408 -0.42131248 -0.22583437
-0.58957648 -0.40115982 -0.21816778
0.34414241 -0.40135992 -0.2152797
0.34360045 -0.38026118 -0.22069502
0.2817353 -0.33899745 -0.21673167
0.26110461 -0.29754439 -0.21495211
0.23966071 -0.27652326 -0.22593319
0.26136851 -0.27686474 -0.21114326
0.23978609 -0.25587136 -0.22389722
0.26149628 -0.25609612 -0.20929909
0.24004796 -0.23520532 -0.21964502
0.24001387 -0.21447384 -0.22019863
0.26148337 -0.21447378 -0.20948493
0.26142889 -0.19367021 -0.21027148
0.2613695 -0.17287973 -0.21112895
0.28203028 -0.13134015 -0.21289921
0.28182623 -0.11065863 -0.21555042
0.30302051 -0.089660428 -0.21045732
0.30253863 -0.069164664 -0.21614826
0.30240372 -0.048504531 -0.21774149
0.30227977 -0.027859613 -0.2192049
0.32378054 -0.027285203 -0.21091461
0.30224735 -0.0071543306 -0.21958828
0.3234444 -0.0067667514 -0.21455324
0.30218244 0.01351282 -0.2203548
0.32334572 0.013913572 -0.21562159
0.3231512 0.034481436 -0.21772707
0.32303831 0.055105418 -0.2189492
0.34452206 0.055852383 -0.2114861
0.32298714 0.075782627 -0.21950305
0.34441346 0.076529652 -0.21257102
0.34405261 0.09689942 -0.21617651
0.34388897 0.11745614 -0.21781242
0.34377658 0.13805476 -0.21893489
0.34359905 0.15854591 -0.22070932
0.3435522 0.17920077 -0.22117722
0.36539182 0.22232005 -0.2107861
0.36536869 0.24308345 -0.21100044
0.36525482 0.26369435 -0.21205735
0.36500117 0.28404954 -0.21441066
0.36453348 0.30398631 -0.21875024
0.363866 0.32348496 -0.22494388
-0.67011023 0.40578139 -0.22696435
-0.65069646 0.40686256 -0.22228289
-0.63247102 0.40905559 -0.21278501
0.36429334 0.40716368 -0.22097874
-0.61174476 0.42989451 -0.21255684
-0.55184495 -0.44402206 -0.20191169
-0.55081689 -0.42281139 -0.20636344
-0.57282621 -0.40231884 -0.201437
0.34524432 -0.36042306 -0.20426857
0.26154286 -0.23529014 -0.20862651
0.28355482 -0.21447384 -0.19309485
0.28313217 -0.1935802 -0.19858491
0.2828241 -0.17274818 -0.2025876
0.28244296 -0.15199967 -0.2075386
0.3046146 -0.1516324 -0.19163167
0.30390745 -0.13094229 -0.199983
0.30336717 -0.11030506 -0.20636344
0.32469589 -0.06834878 -0.2010051
0.32423538 -0.047780871 -0.20599067
0.34596327 -0.0054219067 -0.19708467
0.3453694 0.014980748 -0.20301878
0.34487125 0.035380259 -0.20799673
0.36756548 0.078895777 -0.19061697
0.36704901 0.099297345 -0.19540918
0.36672074 0.11984023 -0.19845533
0.36628777 0.14020923 -0.20247269
0.36596426 0.16065696 -0.20547438
0.36563069 0.18104476 -0.20856929
0.36557981 0.20178893 -0.2090416
-0.61464262 0.41174316 -0.20114911
-0.59629893 0.43506813 -0.19087815
-0.53745133 -0.44647795 -0.17290974
-0.5341239 -0.42423934 -0.18781483
-0.55454373 -0.40309569 -0.19022536
-0.53740543 -0.4042812 -0.17311525
0.3694469 -0.38318881 -0.17315936
0.17911774 -0.36136436 -0.18679738
0.32592243 -0.08861053 -0.18772757
0.34720254 -0.025469169 -0.1847012
0.36954352 0.059777558 -0.17226291
0.39075017 0.24980587 -0.17130709
0.39051762 0.2705529 -0.17332089
0.39011449 0.2909959 -0.17681241
0.389323 0.31073821 -0.18366671
0.38926747 0.33165032 -0.18414736
0.3891094 0.35237056 -0.18551672
0.3887316 0.3726595 -0.18878829
-0.66039449 0.39418668 -0.18628788
-0.59783846 0.4155584 -0.18462837
0.22110453 0.41513473 -0.18646264
-0.51758188 -0.42582297 -0.16724122
-0.52009201 -0.40549493 -0.1555953
0.37031069 -0.40483326 -0.16514456
0.13781257 -0.36291289 -0.15806317
0.15870965 -0.36237291 -0.16808188
0.37122923 -0.3629905 -0.15662169
0.30771148 -0.34184587 -0.1550597
0.28547466 -0.32011324 -0.16815567
0.32859963 -0.10847227 -0.15874624
0.35005122 -0.044716612 -0.15623498
0.39219543 0.20952553 -0.15879071
0.39158806 0.22987527 -0.16405046
0.17993069 0.39878821 -0.16567636
-0.58062071 0.41921955 -0.16877449
0.20115206 0.42030722 -0.16406536
-0.58430946 0.44403142 -0.15331697
-0.50287235 -0.42820284 -0.13632703
-0.50326151 -0.40695959 -0.13445473
0.1167958 -0.36357355 -0.14579999
0.22386959 -0.36414748 -0.13514972
0.24483222 -0.36378074 -0.14195836
0.28805381 -0.30001694 -0.13465118
0.28690761 -0.23574504 -0.14954114
0.30857301 -0.17185976 -0.14488542
0.37213573 0.040903121 -0.14821041
0.392979 0.18931821 -0.15200484
-0.58497173 0.4021669 -0.15054202
-0.56676114 0.40511811 -0.13732231
0.15940683 0.40330577 -0.14544022
-0.56444025 0.42416239 -0.1473726
0.39652696 -0.38638365 -0.12127852
0.074195854 -0.36519557 -0.11570048
0.095609128 -0.36436671 -0.13108158
0.20301357 -0.36476108 -0.12376237
-0.54919559 0.40891778 -0.12030196
0.13866876 0.40876448 -0.12098861
-0.54954678 0.43077719 -0.11872923
0.18149006 0.42929131 -0.12516236
0.24612269 0.43025178 -0.12100399
-0.48680413 -0.4302431 -0.10982335
-0.48608178 -0.40841606 -0.11343229
-0.50952113 -0.38742703 -0.10433829
0.052554343 -0.36596435 -0.10143304
0.39744359 -0.36532283 -0.11334014
0.030930929 -0.34426856 -0.10260832
0.052570291 -0.34422731 -0.1035043
-0.57310826 0.38967663 -0.10983872
-0.55344599 0.39152509 -0.10126269
-0.5328086 0.41420931 -0.096598148
0.1174092 0.41211963 -0.10595822
-0.46943247 -0.41018009 -0.087972164
0.40057677 -0.41030228 -0.086206317
-0.49056554 -0.38824654 -0.091029882
0.0087131783 -0.36726671 -0.077264547
0.03071833 -0.36664522 -0.088799596
-0.012927257 -0.34515843 -0.083341479
0.27058721 -0.14901003 -0.078082681
0.29236007 -0.083575383 -0.078711629
0.33586082 0.11260754 -0.080141544
0.33606556 0.13468561 -0.077925444
0.33619782 0.15669551 -0.076493263
0.35712349 0.22079948 -0.085564852
0.35719708 0.24268207 -0.08482945
0.35724878 0.26453885 -0.084312677
0.35724095 0.28629827 -0.084391356
0.356942 0.30751908 -0.087378621
0.33617166 0.3313092 -0.076776624
0.35669357 0.32879096 -0.089860916
0.33577383 0.35227841 -0.081083417
0.31426704 0.37479168 -0.077642083
-0.53540266 0.39512473 -0.084563255
0.29231167 0.39625049 -0.079340458
0.095934376 0.41594332 -0.088830948
0.24863818 0.41787958 -0.080157161
0.26981121 0.41584235 -0.089283347
-0.53465098 0.43786204 -0.088050127
-0.47236061 -0.43309632 -0.072756886
-0.45301878 -0.41217923 -0.059115052
-0.47288984 -0.38954139 -0.070007086
0.42399788 -0.38937485 -0.072709441
0.20606285 -0.30238515 -0.05774343
0.22760007 -0.30213341 -0.065920353
0.20591271 -0.28033224 -0.060994267
0.20589945 -0.25837505 -0.061281085
0.22730914 -0.25822037 -0.071319342
0.20600024 -0.23644125 -0.05909884
0.22740456 -0.23636085 -0.069548249
0.20607245 -0.21447378 -0.057536006
0.22752231 -0.21447378 -0.067363381
0.22761375 -0.19255701 -0.065666676
0.24893174 -0.19263181 -0.075390697
0.22769415 -0.1706171 -0.064174533
0.24910951 -0.17074554 -0.072504163
0.22790325 -0.14859921 -0.060293794
0.24933541 -0.14879656 -0.068836212
0.22803637 -0.12656486 -0.0578233
0.24941635 -0.1268636 -0.067521572
0.27077043 -0.12710753 -0.075438023
0.24958727 -0.10485421 -0.064746261
0.27090591 -0.10519052 -0.073482633
0.24981537 -0.082759216 -0.06104207
0.27109191 -0.083209813 -0.070798039
0.27136061 -0.06112358 -0.066919327
0.29254779 -0.061627492 -0.076272845
0.27163115 -0.038975745 -0.063014627
0.29279903 -0.039591223 -0.073009372
0.27180201 -0.016867727 -0.060548544
0.29294249 -0.017601907 -0.071145654
0.27193114 0.0052321553 -0.058684468
0.29318732 0.0045176446 -0.067965388
0.2933313 0.026575133 -0.066094875
0.29347667 0.048663288 -0.064206243
0.3144857 0.047660589 -0.075059652
0.31473556 0.069800347 -0.072109461
0.29369941 0.07088083 -0.061312675
0.29386002 0.093055904 -0.059226394
0.31490687 0.091885716 -0.070086241
0.31494302 0.11381766 -0.069658875
0.31515488 0.13601217 -0.067157269
0.31536981 0.15824959 -0.064619303
0.31547472 0.18034613 -0.063380122
0.33621821 0.1785596 -0.076272845
0.31568888 0.2026504 -0.060850978
0.3363958 0.20067599 -0.074350357
0.31588581 0.22496256 -0.058525205
0.33662179 0.2229026 -0.071904063
0.31595472 0.24706581 -0.057711482
0.33674732 0.24499133 -0.070544958
0.33669037 0.26676625 -0.07116127
0.33666408 0.28859037 -0.071445823
0.31585884 0.31279075 -0.05884409
0.33654591 0.31022632 -0.072725058
0.31553394 0.33402187 -0.06268084
0.31508246 0.35489446 -0.068012953
0.29343268 0.37746561 -0.064777732
-0.51643318 0.39803046 -0.071082354
0.030248784 0.40078521 -0.058301806
0.27131122 0.39877397 -0.067632675
-0.51608187 0.41952819 -0.072772384
0.20564416 0.42085969 -0.066808343
0.22709569 0.41896838 -0.075280428
-0.45532566 -0.43510771 -0.046628356
-0.45464331 -0.39075354 -0.050321579
-0.013802022 -0.36847007 -0.054932833
0.42756507 -0.36907291 -0.043747187
0.20682251 -0.34710044 -0.041296482
0.18471372 -0.32499167 -0.041409254
0.20635381 -0.32460546 -0.051443815
0.1844745 -0.30269662 -0.047624826
0.16265687 -0.28081965 -0.039891481
0.18437624 -0.28058213 -0.050177217
0.16264096 -0.25869632 -0.040408492
0.18436514 -0.25854152 -0.050465703
0.16268376 -0.23659578 -0.039018989
0.18439353 -0.23651333 -0.049728155
0.18441021 -0.21447384 -0.04929471
0.18450481 -0.19241205 -0.04683733
0.20614174 -0.19248277 -0.056035399
0.18460947 -0.17030846 -0.044117928
0.20623773 -0.17045975 -0.053957343
0.18469819 -0.14817244 -0.041812539
0.20635161 -0.14839604 -0.051491737
0.20648646 -0.1262801 -0.04857254
0.20665205 -0.10409367 -0.044987082
0.22818354 -0.10448277 -0.055092573
0.20684937 -0.081820324 -0.040715337
0.22837842 -0.082317263 -0.051475763
0.22862059 -0.060049132 -0.04698205
0.25009716 -0.060560226 -0.056466818
0.22890434 -0.037664101 -0.04171598
0.25040942 -0.038260281 -0.051395655
0.22905231 -0.015372738 -0.03897047
0.25052992 -0.016097963 -0.049439311
0.2506209 0.0060572922 -0.047962189
0.25078031 0.02832979 -0.045373559
0.2721346 0.027451217 -0.055747747
0.25095093 0.050658852 -0.042603016
0.27231187 0.049680769 -0.053189158
0.25113881 0.073058426 -0.039552331
0.27253389 0.072014421 -0.049984574
0.27269629 0.094304681 -0.0476408
0.27289796 0.11669633 -0.04472959
0.2940565 0.11531708 -0.056674242
0.27299395 0.13894498 -0.043344498
0.29420534 0.13754129 -0.054741144
0.27309451 0.16122359 -0.041893363
0.29425949 0.1596345 -0.054037452
0.27330595 0.18374634 -0.038841248
0.29450849 0.18208894 -0.050802469
0.29473335 0.20454741 -0.047881842
0.2949537 0.22704181 -0.045019627
0.29499832 0.24921128 -0.044439673
0.29509875 0.27151251 -0.043134928
0.31601146 0.26915747 -0.057041287
0.29516825 0.29376268 -0.042232156
0.31603038 0.29118037 -0.05681777
0.29491773 0.31525874 -0.045486212
0.29463199 0.33661658 -0.049198627
0.2730844 0.36009318 -0.042038441
0.29423362 0.35762453 -0.054373145
-0.5661456 0.38170606 -0.044375539
-0.52267438 0.38239646 -0.041054249
0.25113881 0.38270855 -0.039552331
0.27232739 0.37992078 -0.052965164
-0.49944288 0.40329099 -0.046676397
0.0078769326 0.40450287 -0.041054249
0.20689932 0.40480918 -0.039633155
0.22864482 0.40332222 -0.046531796
0.25006178 0.401057 -0.057041526
-0.50048733 0.42651904 -0.041457772
0.074195854 0.42512417 -0.047705054
-0.43634981 -0.41425252 -0.029190063
-0.43750787 -0.39245772 -0.02264905
0.16323113 -0.39254427 -0.02124238
0.18545595 -0.39248985 -0.022125959
0.20752466 -0.39224541 -0.026094556
-0.05931475 -0.37023622 -0.022158504
-0.036571018 -0.36954752 -0.034939885
0.16323566 -0.34803349 -0.021095037
0.18507141 -0.34752443 -0.032116532
0.14098856 -0.32579511 -0.020538568
0.16296987 -0.32544136 -0.029726982
0.14085762 -0.30335623 -0.026208758
0.16275996 -0.30303788 -0.036543727
0.14078727 -0.28106534 -0.029255033
0.14078802 -0.2588686 -0.029222608
0.14079815 -0.23667453 -0.028783202
0.14083013 -0.21447384 -0.027398705
0.16271164 -0.21447384 -0.038113475
0.14087947 -0.19224593 -0.025262475
0.16275299 -0.19233459 -0.036770463
0.14093228 -0.16998294 -0.022975922
0.1628713 -0.17013617 -0.032928467
0.16295934 -0.14790113 -0.030068636
0.16308975 -0.12557998 -0.025833488
0.18485926 -0.12594317 -0.037628174
0.16321853 -0.10319541 -0.021651626
0.18500081 -0.10366887 -0.033950686
0.18518403 -0.081288025 -0.029190063
0.18535972 -0.058844328 -0.024625897
0.20705998 -0.059465632 -0.036155105
0.18551388 -0.036365032 -0.020620227
0.20726001 -0.037054971 -0.031823993
0.20738092 -0.014696196 -0.029206395
0.20757514 0.007825017 -0.025001407
0.22918743 0.0069426 -0.036462665
0.20768228 0.030251294 -0.022681594
0.22927734 0.029225737 -0.034793973
0.20778203 0.052698523 -0.020521998
0.22945577 0.051686078 -0.031482935
0.22960037 0.074134529 -0.028799176
0.22973645 0.096607357 -0.026273966
0.25125629 0.095381945 -0.037644267
0.22988686 0.1191498 -0.0234828
0.25140789 0.11779878 -0.035182953
0.23004198 0.14174592 -0.020604253
0.25164375 0.14042208 -0.031352997
0.25176895 0.16286901 -0.02932024
0.25190032 0.18536124 -0.027186871
0.25218379 0.20824751 -0.022583604
0.27351895 0.20631954 -0.035766363
0.27379549 0.22908083 -0.031775594
0.27389458 0.25148973 -0.030345201
0.27394867 0.27381101 -0.029564261
0.27401182 0.29616696 -0.028653026
0.27389458 0.31805599 -0.030344963
0.25227851 0.34203452 -0.021045923
0.27354145 0.33926392 -0.035442352
0.25180903 0.36276883 -0.028669119
-0.50335342 0.38528872 -0.027137876
0.22965214 0.38514334 -0.027838469
-0.48167688 0.40810376 -0.024348378
0.18509328 0.4065519 -0.031547904
-0.41807526 -0.39348149 -0.0060254335
0.11892691 -0.39339802 -0.0073808432
0.1411356 -0.39297986 -0.014171839
0.45439899 -0.39339298 -0.007463336
-0.46336544 -0.37126249 -0.0031119585
-0.082212515 -0.37088224 -0.010170221
0.11901739 -0.34893841 -0.0015034676
0.14118995 -0.34846196 -0.01181829
0.11889386 -0.32621878 -0.0095270872
0.096584298 -0.30402771 -0.0044035912
0.11880286 -0.30368781 -0.015437603
0.096556932 -0.28155696 -0.0079590082
0.11876243 -0.28132361 -0.018064022
0.096557438 -0.259197 -0.0078929663
0.1187551 -0.25903308 -0.018539667
0.096558452 -0.23683646 -0.0077605247
0.11876318 -0.23675743 -0.018015027
0.09657716 -0.21447395 -0.0053306818
0.1187935 -0.2144739 -0.016045451
0.096604832 -0.19206488 -0.0017356873
0.11883526 -0.19215411 -0.013332963
0.1188865 -0.16978328 -0.010005355
0.11894116 -0.14735587 -0.0064554214
0.14105025 -0.14761949 -0.017867327
0.11899595 -0.12487359 -0.0028965473
0.1411432 -0.12521058 -0.01384294
0.14123791 -0.10273705 -0.0097413063
0.14131075 -0.080244064 -0.0065875053
0.16331284 -0.080798388 -0.018588901
0.14137609 -0.057719976 -0.0037578344
0.16343264 -0.058309481 -0.014698148
0.16361016 -0.035645217 -0.0089329481
0.16370887 -0.013069466 -0.0057275295
0.18562301 -0.013905033 -0.017785311
0.16379654 0.0095279068 -0.002879858
0.18575387 0.0086423159 -0.0143857
0.1858831 0.031238109 -0.011027455
0.18600695 0.053872705 -0.007810235
0.18608393 0.076435119 -0.00581038
0.20788345 0.075182557 -0.018326402
0.18619928 0.099135756 -0.0028135777
0.20801991 0.097782403 -0.015371799
0.20816958 0.12046063 -0.012131214
0.20830131 0.14314067 -0.0092794895
0.2302089 0.16441521 -0.017506599
0.20848066 0.1659998 -0.0053966045
0.20866811 0.18894285 -0.0013376474
0.23038682 0.18716013 -0.014204741
0.23055804 0.20993772 -0.011027455
0.23080441 0.23297924 -0.006455183
0.25246313 0.23119432 -0.018047452
0.23095778 0.25581217 -0.0036090612
0.25252175 0.25363156 -0.017096162
0.2310212 0.27840585 -0.0024323463
0.25259656 0.27612817 -0.015881181
0.23107302 0.30097955 -0.0014702082
0.25261477 0.29848063 -0.015585542
0.23100957 0.32317334 -0.0026477575
0.25258645 0.32069796 -0.016045332
0.23080796 0.34485519 -0.0063890219
0.20864284 0.36812979 -0.0018850565
0.23033455 0.36546981 -0.015174747
-0.55125988 0.38864422 -0.010994673
-0.48402488 0.38840455 -0.012147784
-0.059962206 0.38923746 -0.008140564
0.1860591 0.38958782 -0.0064550638
0.20788041 0.38710684 -0.018391967
-0.014920115 0.409338 -0.018621922
0.14120783 0.4109714 -0.011044025
0.1633199 0.40939456 -0.018359303
-0.037713863 0.41222066 -0.0052478313
-0.41956127 -0.4164654 0.0027493238
0.051638685 -0.39493123 0.017514586
0.074195854 -0.39415097 0.0048470497
0.096615054 -0.39382741 -0.00040841103
-0.44171625 -0.37149048 0.0011197329
-0.12875348 -0.37232333 0.016573787
-0.10550808 -0.37171486 0.0052804947
0.45727447 -0.3722122 0.01450932
0.096694574 -0.34946609 0.0099210739
0.074195854 -0.32701445 0.011142135
0.096624129 -0.32661521 0.00077080727
0.051636614 -0.30471087 0.017783403
0.074195854 -0.30436429 0.0065308809
0.051645536 -0.28212479 0.016623974
0.074195854 -0.28185129 0.0047805309
0.051639073 -0.25958741 0.017464042
0.074195854 -0.25938857 0.0045472383
0.051638946 -0.23703082 0.017481089
0.074195854 -0.23693973 0.0056637526
0.074195854 -0.21447372 0.0078992844
0.074195854 -0.19197497 0.0099377632
0.074195854 -0.16943803 0.012414217
0.096632831 -0.16959979 0.0019010305
0.074195854 -0.14683267 0.016204357
0.096654102 -0.14709905 0.0046641827
0.096681193 -0.12453252 0.0081832409
0.096706159 -0.10192242 0.011426568
0.11903502 -0.1023759 -0.00035858154
0.096728474 -0.079278082 0.014324784
0.11909287 -0.079782888 0.0033982992
0.1191745 -0.057048485 0.0087007284
0.1192407 -0.034294382 0.013000369
0.14149258 -0.035016 0.0012860298
0.11928537 -0.011571005 0.015902042
0.14155406 -0.012399092 0.0039476156
0.14165264 0.010382146 0.0082166195
0.16388236 0.032164156 -9.2864037e-05
0.14174649 0.033211783 0.012280345
0.14182004 0.056022972 0.015465736
0.16397706 0.054869711 0.0029822588
0.14187901 0.078819722 0.018018842
0.164055 0.077568293 0.0055140257
0.16417424 0.10045061 0.0093860626
0.16423398 0.12316906 0.011326194
0.18630016 0.12183911 -0.00019240379
0.16435885 0.14617822 0.015381694
0.18640634 0.14459965 0.0025663376
0.1866174 0.16775936 0.0080498457
0.18675575 0.19074166 0.011644125
0.18693385 0.21393058 0.016271353
0.20880774 0.21179712 0.0016850233
0.20905161 0.23504543 0.0069646835
0.20919201 0.25801262 0.01000464
0.20927083 0.28080094 0.011711121
0.20932651 0.30352706 0.012917042
0.20929092 0.32590652 0.012146354
0.20904773 0.34740889 0.0068811178
-0.48923898 0.37149847 0.014945269
0.18667719 0.37042928 0.0096033812
-0.46453744 0.39160115 0.0032320023
-0.083110683 0.39227992 0.0064973831
0.16401806 0.39182609 0.0043141842
0.14176583 0.39365596 0.013117909
-0.46467584 0.4142099 0.0039809942
0.074195854 0.4166311 0.015213966
0.096694574 0.41549021 0.0099211931
0.11903706 0.41330302 -0.00022566319
-0.40171292 -0.4184348 0.031174064
0.11949466 -0.41831839 0.029495835
0.14201517 -0.41793191 0.023914814
-0.40035385 -0.39525467 0.022767425
0.0060962737 -0.39607269 0.036050797
0.028883483 -0.39572328 0.03037703
-0.42335173 -0.37278438 0.025130868
-0.15244433 -0.37312195 0.03139472
-0.19818363 -0.35066348 0.03584671
0.074195854 -0.34994727 0.020340562
0.028836448 -0.32787234 0.033432007
0.05161304 -0.32738787 0.020846009
0.0061943904 -0.30514237 0.031801939
0.028967638 -0.30493027 0.024911165
0.0060766116 -0.28259304 0.03690207
0.02895515 -0.2823348 0.025722027
0.028892092 -0.25977761 0.0298177
0.028884526 -0.23712954 0.030309558
0.02884011 -0.21447395 0.033194423
0.051620945 -0.21447372 0.019818664
0.028796919 -0.1917744 0.035999894
0.051599026 -0.19187692 0.022666216
0.051574849 -0.16923185 0.025806665
0.051555969 -0.14655425 0.028259516
0.051533271 -0.12382352 0.031208277
0.074195854 -0.12420583 0.018792391
0.051493898 -0.10096407 0.036323071
0.074195854 -0.10144426 0.023847461
0.074195854 -0.078627527 0.028411627
0.074195854 -0.055750653 0.032786846
0.096773356 -0.056431368 0.02015543
0.096809834 -0.0335619 0.024894238
0.096837431 -0.010699674 0.028479457
0.096862882 0.012196317 0.031785011
0.1193563 0.011328444 0.020509243
0.096895322 0.035220146 0.035999775
0.11941159 0.034212857 0.024100661
0.11946207 0.057123333 0.027379394
0.11950535 0.080037773 0.030190587
0.11955604 0.10304767 0.033483148
0.14194624 0.10169479 0.020930171
0.11960816 0.12611857 0.036867976
0.14201088 0.12460133 0.023729324
0.14209634 0.14766213 0.027430058
0.14223066 0.17105666 0.033245325
0.16451466 0.16938105 0.020441771
0.16465801 0.19260594 0.025096774
0.16481328 0.21595883 0.030139923
0.164967 0.23938194 0.03513217
0.18709049 0.23710459 0.0203408
0.18717934 0.26005679 0.022649527
0.18728201 0.28310522 0.025316715
0.18736792 0.30611777 0.027548432
0.18730608 0.32845515 0.025941849
0.16491258 0.35250562 0.033364177
0.18708789 0.34998631 0.020273447
0.16448875 0.37242997 0.019600034
0.1421981 0.37487888 0.031836033
-0.44532228 0.3953951 0.021486044
-0.10648223 0.39531463 0.021098495
0.096885502 0.39814645 0.034723878
0.11939341 0.39569312 0.022919297
-0.061800025 0.42017376 0.031649232
0.051568475 0.41909277 0.026634812
0.074195854 -0.42006111 0.054650545
0.097039431 -0.42006606 0.054719687
-0.38248467 -0.39714605 0.053478956
-0.017071888 -0.39700928 0.051259279
-0.40332806 -0.37364846 0.041165471
-0.22237441 -0.35135239 0.050760746
0.005862385 -0.32836297 0.046177983
-0.017121159 -0.30579084 0.052859306
-0.017133355 -0.28297079 0.05325532
0.005925253 -0.25998765 0.043455958
0.0058999658 -0.23723914 0.044550896
0.0058346689 -0.21447384 0.047378063
0.0057744235 -0.19166672 0.049987435
0.0057152435 -0.16882011 0.052549481
0.028754167 -0.16903225 0.038776517
0.0056611523 -0.14593905 0.054892063
0.028702658 -0.14623418 0.042122364
0.028641265 -0.12336466 0.046109438
0.028558537 -0.10038055 0.051482797
0.028493043 -0.077365339 0.05573678
0.051457539 -0.078043908 0.041046143
0.051422119 -0.05505766 0.045646906
0.051381037 -0.031955317 0.050984263
0.074195854 -0.032780528 0.037583351
0.051353738 -0.0088948309 0.054530144
0.074195854 -0.0098513812 0.040721536
0.074195854 0.013163283 0.044345617
0.074195854 0.036395997 0.0498842
0.074195854 0.05956322 0.053789258
0.096921027 0.058228225 0.039339185
0.096952982 0.081368983 0.043489933
0.096964709 0.10429016 0.045013189
0.097008154 0.12771091 0.050657511
0.097041547 0.15105739 0.054995298
0.11967275 0.14934132 0.041063309
0.11975862 0.17280969 0.046640992
0.11982443 0.19618344 0.05091548
0.14235485 0.19448015 0.038622975
0.14245816 0.21785399 0.043096781
0.14259072 0.24149197 0.048836708
0.14268839 0.26497397 0.053066134
0.16508448 0.26269153 0.038946867
0.14271225 0.28797984 0.054099441
0.16514018 0.28571987 0.040755749
0.14273375 0.3109833 0.055030107
0.16515385 0.3085345 0.041199684
0.14269474 0.33351743 0.053341389
0.16512388 0.33109432 0.04022646
0.14251903 0.35488605 0.045732737
-0.51766074 0.37738281 0.044345498
-0.448982 0.37694472 0.042156458
0.097033724 0.37931091 0.053978682
0.11968932 0.37694114 0.042139411
-0.42692202 0.40053463 0.046212316
-0.13082945 0.40060228 0.046537995
0.051358119 0.40214503 0.053961515
0.074195854 0.40024263 0.044807673
-0.38440433 -0.4208439 0.065947771
0.02823535 -0.421296 0.072474599
0.051287211 -0.42065156 0.063171864
-0.040463552 -0.39792877 0.066190958
0.48709732 -0.39798552 0.067111969
-0.38488883 -0.37515339 0.069094658
-0.24661481 -0.35196409 0.064004183
0.0055530965 -0.35175937 0.059570789
-0.017393366 -0.32896042 0.061699271
-0.040750407 -0.30643088 0.073643804
-0.040669173 -0.28339279 0.071533084
-0.040704064 -0.26043367 0.07243979
-0.017258652 -0.26020113 0.057324648
-0.040743023 -0.23746167 0.073451877
-0.017278858 -0.23734251 0.057980657
-0.017363511 -0.21447372 0.060729742
-0.017457388 -0.19156058 0.063778758
-0.017531142 -0.16861022 0.066173792
-0.01764252 -0.14559504 0.06979084
-0.017774597 -0.12250328 0.074080229
0.0055642724 -0.12296497 0.059086561
0.0054667294 -0.099925257 0.063310504
0.0053138584 -0.076709867 0.069930196
0.0051938146 -0.053469017 0.075128436
0.028433487 -0.054305434 0.059605241
0.028354544 -0.031108648 0.064732671
0.02828471 -0.0078737438 0.069268584
0.028205518 0.015477955 0.074412107
0.051326908 0.014215782 0.058015347
0.051286947 0.037524074 0.063206673
0.051250458 0.060871005 0.067946434
0.051228754 0.084098399 0.07076633
0.074195854 0.08284834 0.058274508
0.051199477 0.10747528 0.074569345
0.074195854 0.10592809 0.060210586
0.074195854 0.12933594 0.064732909
0.074195854 0.15287545 0.06975615
0.074195854 0.17656302 0.075320482
0.097082764 0.1746037 0.060349107
0.097123861 0.19823021 0.065687537
0.097163357 0.22190866 0.070818663
0.11991514 0.21985921 0.056806803
0.12001528 0.24372026 0.063310623
0.12007353 0.26724187 0.067094564
0.12009333 0.29039872 0.068381429
0.12009387 0.31335342 0.068416119
0.12004652 0.33573419 0.065340281
0.097143523 0.359218 0.068242192
0.1199263 0.35715657 0.057531714
-0.42873961 0.37990439 0.056944609
0.074195854 0.3814286 0.064559221
-0.15441516 0.40277588 0.056996703
0.028321121 0.4048351 0.066903591
-0.36525598 -0.42263532 0.091803432
0.0048609078 -0.42247865 0.089543462
-0.36342362 -0.39873469 0.079275489
-0.064468332 -0.39935941 0.089419961
-0.36368519 -0.3757984 0.081063628
0.48880699 -0.37571156 0.079450727
-0.36461347 -0.35304517 0.087410212
-0.27137214 -0.35270098 0.079958916
-0.041475907 -0.35327989 0.09249258
-0.0410171 -0.32968673 0.080572605
-0.064529471 -0.30695736 0.090743661
-0.064417012 -0.28378016 0.08830893
-0.06431938 -0.26064554 0.086194992
-0.064408056 -0.23757449 0.088114858
-0.04084792 -0.2144739 0.076177001
-0.064575158 -0.21447378 0.09173286
-0.040945597 -0.19144562 0.078714728
-0.041079231 -0.16836385 0.082186937
-0.041204378 -0.14523368 0.08543849
-0.041404501 -0.12199361 0.090637684
-0.041544668 -0.098733403 0.094279289
-0.0179049 -0.099347748 0.07831192
-0.018062614 -0.076086193 0.083433986
-0.018254541 -0.052685603 0.089666963
-0.018357344 -0.029367521 0.093005538
0.0050773993 -0.030157998 0.08016932
0.0050210655 -0.006949544 0.082608342
0.0049418956 0.01637277 0.086036563
0.0048311576 0.039863437 0.090832114
0.028155182 0.038749874 0.07768178
0.004747048 0.063321441 0.094473839
0.028114993 0.062011331 0.080291986
0.028066892 0.085364372 0.083416343
0.027972829 0.10908729 0.089525819
0.051165275 0.13098499 0.079012513
0.05112569 0.15464869 0.084154487
0.051074967 0.17858133 0.090743661
0.074195854 0.20036805 0.081116199
0.074195854 0.22417593 0.086318254
0.074195854 0.24795759 0.090831876
0.097201914 0.24564752 0.075827599
0.097236693 0.26938379 0.080344677
0.09725222 0.29276627 0.082362294
0.097247496 0.315714 0.081748128
0.074195854 0.34047967 0.091026306
0.097210266 0.33787203 0.076911688
-0.41036004 0.36237836 0.084664464
0.051058374 0.36396325 0.092899323
0.074195854 0.36163825 0.080818176
-0.40899929 0.38376772 0.076246977
0.027990207 0.38619959 0.088397145
0.051178344 0.38398141 0.077314019
-0.41012132 0.40821981 0.083188057
-0.17929789 0.40773815 0.080870748
-0.018271938 0.40968388 0.090231657
0.0051126033 0.4072755 0.078644753
0.050931223 -0.44712007 0.10941637
0.074195854 -0.44631785 0.098994255
-0.34501135 -0.42407739 0.11261976
-0.018790059 -0.42369211 0.10705853
-0.343052 -0.39991724 0.09847939
-0.34268841 -0.3765955 0.095855236
-0.32114145 -0.37725985 0.10818326
-0.27434063 -0.37712431 0.105667
-0.25156677 -0.3773551 0.10995281
-0.34304711 -0.35355479 0.098444104
-0.31982514 -0.35354 0.098124623
-0.29625008 -0.35339102 0.09489882
-0.18150783 -0.35394856 0.106969
-0.065438189 -0.3541078 0.11041772
-0.088811807 -0.33090782 0.1122973
-0.064764746 -0.33027425 0.095837474
-0.088546805 -0.30746964 0.10737967
-0.088392071 -0.28415442 0.10450816
-0.08836519 -0.26091969 0.10400927
-0.088397838 -0.23770157 0.10461509
-0.088548742 -0.21447378 0.10741544
-0.088751011 -0.19119576 0.11116934
-0.064745106 -0.19131707 0.095412374
-0.064885147 -0.16811338 0.098444104
-0.065019704 -0.14486596 0.10135734
-0.065170161 -0.12156321 0.10461497
-0.065378718 -0.09816172 0.1091305
-0.041707024 -0.075390428 0.098497152
-0.041913696 -0.051920474 0.1038667
-0.042091526 -0.028414086 0.10848701
-0.01848875 -0.0059333742 0.097273111
-0.042271979 -0.004831776 0.11317527
-0.018612325 0.01754652 0.10128629
-0.018696725 0.040980697 0.10402703
-0.018851109 0.064667016 0.10904098
0.0046389624 0.086939335 0.099154115
0.004527241 0.11064637 0.10399139
0.0043937117 0.1345368 0.10977387
0.027879201 0.13290107 0.095607042
0.027812559 0.15659237 0.099935532
0.027733929 0.1804527 0.10504293
0.051034391 0.20243251 0.096014619
0.027636852 0.20455721 0.11134815
0.050995041 0.22634152 0.10112619
0.050958164 0.2502799 0.1059165
0.050929025 0.27412978 0.10970223
0.074195854 0.27181646 0.095394492
0.05092448 0.29749638 0.11029267
0.074195854 0.29508722 0.096067667
0.050941266 0.32038176 0.1081121
0.074195854 0.31825238 0.096085429
0.050970241 0.34294093 0.10434771
-0.39060184 0.36652339 0.10620177
0.027732283 0.36632085 0.10514987
-0.38980126 0.38872254 0.10100198
-0.2279512 0.38982022 0.10648704
-0.018966816 0.39108348 0.11279893
0.0046204999 0.38851255 0.099953175
-0.20507222 0.41387933 0.11041784
-0.041885592 0.41236597 0.10313678
0.027350698 -0.44869953 0.12993443
-0.042916343 -0.42527583 0.12991643
-0.32382447 -0.40177757 0.12868476
-0.088978939 -0.40095931 0.115399
-0.29854533 -0.37754813 0.11353374
-0.089602225 -0.35487217 0.12696552
-0.11274389 -0.30794376 0.12277567
-0.11263623 -0.28453583 0.12102723
-0.11259075 -0.26117045 0.12028885
-0.11268837 -0.23783436 0.12187409
-0.11283725 -0.2144739 0.12429142
-0.11308887 -0.19106324 0.12837696
-0.11327297 -0.16760665 0.13136685
-0.088939287 -0.16786376 0.11466336
-0.089135759 -0.1444746 0.11830926
-0.089390032 -0.12099622 0.12302804
-0.089577846 -0.097492665 0.1265136
-0.089877494 -0.073839575 0.13207424
-0.065670736 -0.074607193 0.115453
-0.065906577 -0.051020965 0.1205591
-0.066095658 -0.027418509 0.1246525
-0.066275217 -0.0037672818 0.1285398
-0.042385891 0.018689603 0.11613512
-0.042522214 0.042305857 0.11967671
-0.042741545 0.066175997 0.12537503
-0.019029759 0.088509321 0.11484277
-0.042945646 0.090094239 0.1306777
-0.019196346 0.11239874 0.12025273
-0.019329593 0.13624659 0.12458038
-0.019515112 0.16037014 0.13060498
0.0042546764 0.15854579 0.11579394
0.0041404814 0.18250686 0.12073898
0.0040071234 0.20665869 0.12651348
0.0039071888 0.23068765 0.13084078
0.027565639 0.2285133 0.11597347
0.027488943 0.25259525 0.12095523
0.027447581 0.27638289 0.12364137
0.02743452 0.29990083 0.1244899
0.027447861 0.32312799 0.12362361
0.0039147213 0.34777522 0.1305145
0.027534939 0.3454572 0.11796784
-0.37003416 0.37003934 0.12447202
-0.019549735 0.37143606 0.13172972
0.0041936785 0.36887765 0.1184355
-0.3703751 0.39388645 0.1268028
-0.25331259 0.39375609 0.12615192
-0.042748496 0.39363676 0.12555563
0.0034702718 -0.45022574 0.14976001
-0.11404464 -0.40271434 0.14389694
0.51972634 -0.40206549 0.13336289
-0.1142408 -0.3558014 0.14708221
-0.13808906 -0.33240992 0.15132117
-0.11334337 -0.33168587 0.13250995
-0.13744682 -0.30853733 0.14205086
-0.13724959 -0.28495559 0.13920426
-0.13722557 -0.26145646 0.13885772
-0.13737217 -0.2379813 0.14097357
-0.13763171 -0.21447384 0.14471984
-0.13782966 -0.19091535 0.14757693
-0.13809416 -0.16729841 0.15139449
-0.11351568 -0.14408194 0.13530767
-0.11382528 -0.12046335 0.14033496
-0.11413252 -0.096768558 0.14532411
-0.1143074 -0.073096454 0.1481638
-0.090064488 -0.050213456 0.13554394
-0.090297081 -0.026481941 0.13986063
-0.090579621 -0.0026195645 0.14510441
-0.090878002 0.021346077 0.15064132
-0.066472836 0.019974023 0.1328187
-0.066706322 0.043846637 0.13787389
-0.066943131 0.067804098 0.14300096
-0.06709864 0.091664255 0.14636743
-0.043152548 0.11410174 0.13605344
-0.043337025 0.13812488 0.14084578
-0.043544605 0.16229555 0.1462394
-0.043741629 0.18651366 0.15135801
-0.019685678 0.18452263 0.1361444
-0.019836061 0.20866987 0.1410284
-0.019956492 0.23274994 0.14493942
-0.020129807 0.25715446 0.15056777
0.0038359314 0.25459254 0.13392627
0.0037477091 0.27866325 0.13774633
0.0037073046 0.30244225 0.13949597
0.0037733614 0.32543206 0.13663578
-0.019925512 0.35025436 0.14393365
-0.043415755 0.37358421 0.14289117
-0.34981456 0.39798582 0.14728367
-0.32626078 0.39798933 0.14730215
-0.30157244 0.39614969 0.13811064
-0.27827215 0.39647073 0.1397146
-0.090795897 0.39835274 0.14911747
-0.066608794 0.39567983 0.13576233
-0.020574726 -0.45140022 0.16501737
-0.32723457 -0.42699587 0.15474308
-0.067460813 -0.42695874 0.15420902
-0.13911891 -0.40408692 0.16618586
0.52286953 -0.37977466 0.15485334
-0.13930291 -0.3568064 0.16884148
-0.32806784 -0.33278674 0.16111016
-0.16260079 -0.3091926 0.16333103
-0.16224775 -0.28540701 0.15874469
-0.16225913 -0.26176491 0.15889251
-0.16240278 -0.23813361 0.16075873
-0.16263357 -0.21447372 0.16375697
-0.16291341 -0.19076298 0.16739237
-0.13836187 -0.14362127 0.15525866
-0.1386776 -0.11986326 0.15981603
-0.13903925 -0.096009821 0.16503584
-0.13938922 -0.072083846 0.1700871
-0.11461622 -0.049263313 0.15317833
-0.11493402 -0.025343895 0.15833843
-0.11525059 -0.0013463944 0.16347909
-0.11554763 0.022705466 0.16830254
-0.091143705 0.045345575 0.15557194
-0.09139929 0.069403589 0.16031516
-0.091648661 0.093523085 0.1649431
-0.067392804 0.11589986 0.15273654
-0.067549311 0.13988909 0.15612507
-0.067827411 0.16425487 0.16214597
-0.068088584 0.18866539 0.16780102
-0.043949939 0.2108511 0.15677023
-0.044121265 0.2351312 0.16122103
-0.044281647 0.25943616 0.16538823
-0.044388101 0.28357878 0.16815388
-0.020243622 0.28133348 0.15426421
-0.044420294 0.3074373 0.16899014
-0.02021075 0.30476254 0.15319645
-0.044338793 0.33078551 0.1668725
-0.020176202 0.32816541 0.15207481
-0.043964863 0.35269767 0.15715754
-0.091906838 0.37875015 0.16973388
-0.067542486 0.37610257 0.15597749
-0.11509445 0.40071982 0.16094387
-0.045095958 -0.45305741 0.18654442
-0.092082389 -0.42826015 0.17299211
-0.30569431 -0.40441874 0.17157602
0.55023396 -0.40488911 0.17921054
-0.18734968 -0.38091183 0.1759578
-0.30659088 -0.33346966 0.17885518
-0.16332442 -0.33323383 0.17273104
-0.28264916 -0.30963251 0.17762065
-0.18804568 -0.28599429 0.18417728
-0.18792334 -0.26213184 0.18273246
-0.18805203 -0.23831449 0.1842525
-0.18825728 -0.21447384 0.18667614
-0.16320398 -0.16699378 0.17116666
-0.16355699 -0.14314786 0.17575252
-0.1638304 -0.11926335 0.17930424
-0.16424599 -0.095253065 0.18470311
-0.1396654 -0.048137382 0.17407334
-0.13994226 -0.024128839 0.17806935
-0.14026663 -1.1384487e-05 0.1827513
-0.14071062 0.024311036 0.18915999
-0.11593174 0.046951622 0.17453945
-0.11623783 0.071176767 0.17950988
-0.11644322 0.095314682 0.18284523
-0.11664788 0.11950275 0.18616843
-0.091954939 0.11782774 0.17062664
-0.092115544 0.14190757 0.17360687
-0.092436649 0.16640061 0.17956626
-0.092712454 0.19087484 0.18468428
-0.092939414 0.21530247 0.18889654
-0.068356775 0.21318415 0.17360687
-0.068534382 0.2375052 0.17745245
-0.068666585 0.26173428 0.1803149
-0.068802528 0.28602058 0.18325782
-0.068806849 0.30986929 0.18335152
-0.068698592 0.33328825 0.18100798
-0.092736728 0.35786647 0.18513489
-0.068275876 0.3554132 0.17185557
-0.11636122 0.38101697 0.18151402
-0.16449058 0.406111 0.18787992
-0.13964343 0.40328419 0.17375624
-0.164785 -0.35786229 0.19170451
-0.28531307 -0.33431008 0.20069098
-0.18919361 -0.3341963 0.19773388
-0.26205686 -0.31054604 0.20728862
-0.21386945 -0.31049553 0.20565069
-0.18855217 -0.31001848 0.19015849
-0.26188853 -0.28649181 0.2057265
-0.21357787 -0.28641716 0.20249426
-0.26184753 -0.26247999 0.20534611
-0.21360597 -0.26244065 0.20279825
-0.21374115 -0.23846862 0.20426178
-0.21409822 -0.21447378 0.20812714
-0.18856969 -0.19058605 0.19036579
-0.18874219 -0.16666692 0.19240272
-0.18907982 -0.14267135 0.19638991
-0.18953401 -0.11857194 0.2017535
-0.19002527 -0.09437336 0.20755517
-0.16468483 -0.07114546 0.19040358
-0.16492593 -0.047088504 0.19353545
-0.16520539 -0.02295278 0.19716585
-0.165658 0.0013946146 0.20304513
-0.16599637 0.025718346 0.20744097
-0.14102161 0.048569649 0.19364882
-0.14124954 0.072786778 0.19693851
-0.14153579 0.097138524 0.20107031
-0.14181092 0.12153673 0.20504165
-0.11699579 0.14401054 0.19181764
-0.11735664 0.16863126 0.19767702
-0.117589 0.19306907 0.20144975
-0.11782423 0.21757147 0.20526981
-0.093174122 0.23981613 0.19325233
-0.11798609 0.24195841 0.20789826
-0.093343206 0.26420924 0.19638979
-0.093373798 0.28823519 0.19695759
-0.093426846 0.31234056 0.19794226
-0.09319856 0.33553654 0.19370532
-0.11800136 0.33809322 0.2081461
-0.11736714 0.36021495 0.19784749
-0.14121151 0.38388002 0.19638956
-0.18916634 0.40801871 0.19741201
-0.28629282 -0.40673441 0.20917583
-0.16749904 -0.40782973 0.22696078
-0.21504876 -0.38319996 0.21841717
-0.26299173 -0.33489791 0.21596277
-0.23953128 -0.33513826 0.22220218
-0.21483442 -0.33490315 0.216097
-0.23850855 -0.31069067 0.21198273
-0.23830596 -0.28658962 0.20995831
-0.23829833 -0.26254997 0.20988202
-0.26254833 -0.23852696 0.21184874
-0.23893946 -0.23856112 0.21628869
-0.2396391 -0.21447395 0.22327983
-0.26411045 -0.19030909 0.22634339
-0.21438199 -0.19042559 0.21119916
-0.21474597 -0.16631703 0.21513915
-0.21512854 -0.14214265 0.21928108
-0.21540907 -0.11793882 0.22231758
-0.19022712 -0.070243135 0.20993924
-0.19065613 -0.045931607 0.2150054
-0.19095317 -0.021638215 0.21851313
-0.19116133 0.0026366413 0.2209717
-0.19154599 0.027109817 0.22551429
-0.16626805 0.05003655 0.21097016
-0.16648734 0.074345976 0.21381843
-0.16695219 0.099018782 0.21985698
-0.1672616 0.12356642 0.22387671
-0.14208281 0.14599061 0.20896614
-0.16748565 0.14804834 0.22678697
-0.14242563 0.17063108 0.21391416
-0.14272565 0.19526678 0.21824467
-0.14289594 0.2197099 0.22070253
-0.14304516 0.24414614 0.2228564
-0.14327875 0.268803 0.22622788
-0.11820941 0.26653919 0.21152389
-0.11821645 0.29060847 0.21163893
-0.11822469 0.31468278 0.21177244
-0.14333355 0.31726474 0.22701871
-0.14305982 0.3407352 0.223068
-0.16743812 0.36544782 0.22616971
-0.14233819 0.36295033 0.21265173
-0.19133887 0.38901418 0.223068
-0.16624895 0.38663816 0.21072185
-0.21439967 0.41081643 0.21139038
0.2920506 -0.48074076 0.23171461
0.31691697 -0.48146713 0.24029195
-0.11948261 -0.43236202 0.23219848
-0.24157155 -0.38450229 0.24258959
-0.24008474 -0.19029839 0.2277329
-0.26485413 -0.16603804 0.23324406
-0.24088073 -0.16600052 0.2356869
-0.28901383 -0.14183204 0.23274052
-0.26593485 -0.14158881 0.24327195
-0.24144679 -0.14163333 0.2413429
-0.29026365 -0.11728458 0.24356449
-0.2158986 -0.093601048 0.22761679
-0.21636474 -0.069193572 0.23266327
-0.21685752 -0.044692799 0.23799741
-0.21702453 -0.020326912 0.23980558
-0.21727273 0.0041275769 0.24249208
-0.21738258 0.028508246 0.24368155
-0.19189414 0.051616132 0.22962546
-0.1921891 0.076127827 0.23310852
-0.1925126 0.10072693 0.23692906
-0.19283032 0.12537754 0.24068105
-0.19313392 0.15006685 0.24426639
-0.1677756 0.17268056 0.23055375
-0.16799018 0.19724244 0.23334086
-0.16828731 0.22199586 0.23720086
-0.16840997 0.24647734 0.23879397
-0.16851178 0.27094138 0.24011672
-0.16858667 0.29536963 0.24108994
-0.14336562 0.29316974 0.22748172
-0.16848633 0.31942701 0.23978603
-0.16822004 0.34308285 0.23632729
-0.19267711 0.36779445 0.23887193
-0.21654373 0.39123386 0.2346009
-0.26661065 -0.40922034 0.24954236
0.58738452 -0.40997428 0.26178372
-0.26673728 -0.11706443 0.25071728
-0.24199921 -0.11718296 0.24686325
-0.29168546 -0.0925133 0.25587714
-0.26767287 -0.092377849 0.25939858
-0.24255943 -0.092644788 0.25246155
-0.31533825 -0.068398565 0.24987519
-0.29222405 -0.067905754 0.26054156
-0.2682789 -0.067698896 0.26502192
-0.24272043 -0.068204731 0.2540704
-0.31564233 -0.043919519 0.25234377
-0.24306262 -0.043642387 0.25748956
-0.24328324 -0.019102141 0.25969446
-0.24341932 0.0054135323 0.26105416
-0.24384409 0.030172318 0.26529872
-0.21781555 0.053203255 0.24836838
-0.21811035 0.07783246 0.25155985
-0.21842206 0.10252884 0.25493419
-0.21864539 0.12717417 0.25735176
-0.21896374 0.15197566 0.26079786
-0.21928456 0.17683357 0.26427114
-0.19339019 0.1747424 0.24729335
-0.19358069 0.19936278 0.24954236
-0.19389263 0.22421655 0.2532264
-0.19405222 0.24886364 0.25511134
-0.19405723 0.27325895 0.25516999
-0.19403225 0.29759794 0.25487554
-0.19378635 0.32149041 0.2519716
-0.21903476 0.34755135 0.26156676
-0.19346967 0.34519041 0.24823153
-0.24371755 0.37244314 0.26403391
-0.21809044 0.37009859 0.25134408
-0.26774931 0.39614248 0.26010787
-0.24206176 0.39371401 0.24748862
0.49028063 -0.4347541 0.2667228
0.51712954 -0.43594068 0.28385055
-0.2931641 -0.043039143 0.26868284
-0.26891059 -0.042920604 0.2708832
-0.29387462 -0.018169627 0.27483642
-0.26944163 -0.018109411 0.27581084
-0.294581 0.0067921728 0.28095329
-0.2699765 0.0067798793 0.28077352
-0.31830493 0.030839279 0.27396142
-0.3189351 0.055803776 0.27907765
-0.2441332 0.054881543 0.26818788
-0.24452016 0.079725504 0.27205431
-0.24489611 0.10461795 0.27581084
-0.24518713 0.12947702 0.27871883
-0.24516118 0.15401521 0.27845967
-0.24546868 0.17895952 0.28153217
-0.219522 0.20162648 0.26684129
-0.24565265 0.20378947 0.28337085
-0.24574271 0.22851828 0.28427088
-0.21969759 0.22636637 0.26874244
-0.24569666 0.25306135 0.28381073
-0.21973789 0.25092122 0.26917803
-0.24562865 0.27756402 0.283131
-0.21977082 0.27547076 0.26953471
-0.24552065 0.30199122 0.28205168
-0.21982026 0.30005437 0.27006996
-0.24520707 0.32605422 0.27891815
-0.21950921 0.32398558 0.26670277
-0.36866856 0.35140848 0.28335106
-0.24473289 0.34978467 0.27418005
-0.26959828 0.37488753 0.27726424
-0.36799636 0.39968193 0.27849972
-0.34409899 0.40066564 0.2836107
-0.2942332 0.39957458 0.27794158
0.34557709 -0.48585504 0.29211199
0.59250516 -0.43660641 0.29345977
-0.29520211 0.031791523 0.28633249
-0.2705195 0.031751454 0.28581202
-0.29597399 0.056984097 0.29301703
-0.27106851 0.056805313 0.29090631
-0.32000637 0.08117792 0.2877754
-0.29638553 0.081991434 0.29658139
-0.27136973 0.081725061 0.29370129
-0.32044643 0.1061731 0.29134834
-0.29687971 0.10712516 0.300861
-0.27181923 0.10682592 0.29787195
-0.32118538 0.13148466 0.29734766
-0.27187359 0.13159561 0.29837668
-0.34463876 0.15508604 0.28773558
-0.32155585 0.15654343 0.30035579
-0.27196279 0.15641057 0.29920447
-0.34477788 0.17985433 0.28879845
-0.32178995 0.181512 0.30225623
-0.27201068 0.18119091 0.29964864
-0.344791 0.20451301 0.28889883
-0.27231571 0.2062903 0.30247867
-0.34467551 0.22903705 0.28801596
-0.27234626 0.23108038 0.30276239
-0.34561446 0.25472578 0.29519117
-0.27214789 0.25556394 0.3009218
-0.34568298 0.27950123 0.29571474
-0.27198458 0.28006965 0.29940641
-0.34534311 0.30378032 0.29311764
-0.27188665 0.30465001 0.2984978
-0.34558547 0.32877272 0.29496944
-0.27144781 0.3286804 0.29442585
-0.34569091 0.35360813 0.29577529
-0.32188219 0.35488826 0.30300486
-0.29688439 0.35451579 0.30090106
-0.27085647 0.35239774 0.28893888
-0.34483302 0.37709635 0.28921998
-0.32107359 0.37843049 0.29644048
-0.29601812 0.37786853 0.29339945
-0.31971273 0.40100849 0.28539145
0.61913925 -0.43740541 0.30498993
-0.29733542 0.1322886 0.30480778
-0.29741499 0.15713689 0.30549657
-0.29755315 0.18205851 0.3066932
-0.32192954 0.20640925 0.30338967
-0.29782507 0.20714986 0.30904806
-0.32224649 0.23152384 0.30596292
-0.2978673 0.2320019 0.30941379
-0.32234392 0.25641707 0.30675399
-0.29801053 0.25698766 0.31065381
-0.32251388 0.28141335 0.30813396
-0.29791659 0.28167617 0.3098408
-0.32240137 0.30606002 0.30722034
-0.29780161 0.30632269 0.30884516
-0.32220155 0.33057261 0.30559814
-0.29748055 0.33065158 0.30606425
0.37415245 -0.489434 0.33437765
0.22616869 -0.51841938 0.37756073
0.32746273 -0.51839417 0.3772856
0.2766529 -0.51815939 0.37474501
0.30200547 -0.51821995 0.3754009
0.40296009 -0.49265894 0.37246192
0.25160149 -0.51859772 0.37949026
0.35373992 -0.51943099 0.38851011
0.37976706 -0.52004504 0.39515746
0.40680987 -0.52150214 0.41093123
0.4357805 -0.52440357 0.44233954
0.38966307 -0.55622983 0.50228512
