ply
format ascii 1.0
comment PCL generated
element vertex 1340
property float x
property float y
property float z
element camera 0
property float view_px
property float view_py
property float view_pz
property float x_axisx
property float x_axisy
property float x_axisz
property float y_axisx
property float y_axisy
property float y_axisz
property float z_axisx
property float z_axisy
property float z_axisz
property float focal
property float scalex
property float scaley
property float centerx
property float centery
property int viewportx
property int viewporty
property float k1
property float k2
end_header
-0.16426328 -0.17627449 -0.14522386
-0.18133713 -0.12482107 -0.14622748
-0.044313699 -0.12522849 -0.13740766
0.093517423 -0.10819795 -0.13311231
0.1106202 -0.10812797 -0.1349324
0.093276143 -0.090848424 -0.13703012
0.11031045 -0.090775348 -0.13940334
0.12795261 -0.090959959 -0.13340557
0.076345883 -0.073764779 -0.13204813
0.093093306 -0.073581129 -0.13999903
0.1101388 -0.07353773 -0.14188075
0.12767078 -0.073648848 -0.13706648
0.07585264 -0.056386732 -0.14120126
0.092696339 -0.056306027 -0.14644492
0.10983515 -0.056308843 -0.1462636
0.12721245 -0.056358673 -0.14302063
0.14494872 -0.056464851 -0.13612819
0.14467652 -0.039234441 -0.13934255
0.16253018 -0.03929051 -0.13206017
0.23157611 -0.039296567 -0.13126457
0.14444412 -0.022053491 -0.1420871
0.1622761 -0.022053491 -0.13481045
0.21410272 -0.022053491 -0.13325894
0.23127779 -0.022053538 -0.13368678
0.14420719 -0.0049152523 -0.1448853
0.16200694 -0.0048600622 -0.13772428
0.17959583 -0.0048296917 -0.13377237
0.16174519 0.012289641 -0.14055789
0.17949681 0.012378899 -0.13476157
0.075829104 0.029436199 -0.14163816
0.1614718 0.029392933 -0.14351749
0.17940402 0.029573763 -0.13568902
0.075788587 0.046576425 -0.14239025
0.16140021 0.046517819 -0.14429235
0.17920277 0.046720833 -0.13770008
0.19704372 0.046905726 -0.13169301
0.075983606 0.063873306 -0.13877106
0.16131863 0.063626654 -0.1451757
0.17917959 0.063905336 -0.13793147
0.19703975 0.064144269 -0.13172972
0.075808845 0.08090879 -0.14201427
0.16122928 0.080717981 -0.14614284
0.17906028 0.081042238 -0.1391238
0.19709386 0.081406802 -0.13122773
0.076279305 0.098539494 -0.13328338
0.16123596 0.097850442 -0.14607036
0.17905542 0.098222122 -0.13917232
0.19707803 0.098642342 -0.13137472
0.16128956 0.11501526 -0.14549017
0.1791102 0.11543816 -0.13862503
0.16131975 0.13217156 -0.14516342
0.17925273 0.1327232 -0.13720059
0.092779726 0.14931327 -0.14509094
0.16147068 0.14943349 -0.14352953
0.17944063 0.15006533 -0.13532305
0.16172501 0.16681524 -0.1407764
0.17966799 0.1674695 -0.13305116
0.092834875 0.18366921 -0.14419544
0.16196983 0.18423003 -0.1381259
0.093228891 0.20145328 -0.13779736
0.14426355 0.20081063 -0.14421976
0.16225696 0.20173126 -0.13501799
0.093634233 0.21935549 -0.13121557
0.10994743 0.21790828 -0.14464343
0.14472286 0.21853845 -0.13879514
0.1102616 0.23557198 -0.14010835
0.12724605 0.23528588 -0.14258409
0.14510371 0.23624307 -0.13429749
0.11086331 0.25381669 -0.13142371
0.12785669 0.25341907 -0.13465178
-0.11286823 0.30358043 -0.1448369
-0.13054058 0.30560869 -0.13097048
-0.095964253 0.32228354 -0.13467622
-0.14849406 -0.28250441 -0.11563969
-0.13087143 -0.28172678 -0.12237477
-0.11366647 -0.28212643 -0.11891329
-0.16575783 -0.26494181 -0.11748838
-0.14805883 -0.26412553 -0.1250627
-0.096122354 -0.26382723 -0.12783015
-0.1655218 -0.24715434 -0.12186873
-0.078840703 -0.24647911 -0.12861609
-0.18314137 -0.23029502 -0.11693025
-0.16508417 -0.22908862 -0.12998998
-0.18292552 -0.21264476 -0.12043524
0.094577402 -0.17830606 -0.11590028
0.11188808 -0.17825529 -0.11663258
0.094183996 -0.16055121 -0.12228858
0.11144832 -0.16050872 -0.12297964
0.077113077 -0.1434803 -0.11781073
0.094018459 -0.1430942 -0.1249764
0.11126561 -0.14305967 -0.12561679
0.12903489 -0.14339757 -0.11934674
0.076948993 -0.12599298 -0.12085569
0.093687803 -0.12555465 -0.13034558
0.11093119 -0.12555017 -0.13044381
0.12874003 -0.1258858 -0.12317705
0.14660376 -0.12619032 -0.11658287
0.076663256 -0.10846559 -0.12615824
0.12829298 -0.10835692 -0.12898421
0.14602347 -0.10857042 -0.12343597
0.16399084 -0.10884707 -0.11624789
0.076471306 -0.091073535 -0.12972033
0.14573777 -0.091163158 -0.12681007
0.16353896 -0.091337703 -0.12114
0.059766397 -0.07409361 -0.11781073
0.14540204 -0.073794127 -0.13077438
0.16318794 -0.073928826 -0.12493968
0.18098621 -0.074045911 -0.11987877
0.19871897 -0.074131981 -0.11614859
0.059346184 -0.056606755 -0.12690854
0.16284721 -0.056580268 -0.12862837
0.18060678 -0.056656674 -0.12367022
0.19825967 -0.056706831 -0.12041044
0.21575207 -0.056728877 -0.11897504
0.23312181 -0.056733035 -0.11871505
0.25067073 -0.05675754 -0.11711645
0.18014993 -0.03931991 -0.12823558
0.19747856 -0.039324392 -0.12765813
0.21455383 -0.039311357 -0.12935257
0.24928313 -0.03932393 -0.12771952
0.26746699 -0.03937459 -0.12112737
0.17988111 -0.022053538 -0.13092148
0.19716118 -0.022053538 -0.13060284
0.26745844 -0.022053538 -0.12118912
0.24918512 -0.022053445 -0.12846875
0.19728805 -0.0047961809 -0.12942588
0.21494824 -0.0047694631 -0.12593675
0.23222476 -0.0047698785 -0.12599826
0.25016847 -0.0047310982 -0.12095451
0.26821882 -0.0046905596 -0.11570156
0.1974428 0.012483133 -0.12798989
0.21519282 0.012547476 -0.1238184
0.23303184 0.012614684 -0.11944556
0.25075841 0.012660956 -0.1164465
0.19722724 0.029705221 -0.12998998
0.2153253 0.02987426 -0.12267101
0.23310503 0.029962456 -0.1188513
0.21519426 0.04714863 -0.12380588
0.23299679 0.047273986 -0.11973011
0.21512026 0.064424522 -0.12444675
0.23300135 0.064607337 -0.11969292
0.21497235 0.0816608 -0.12572753
0.23302576 0.081948727 -0.11949503
0.21502495 0.098971225 -0.12527192
0.23306081 0.099297792 -0.11921036
0.19717573 0.11594047 -0.13046813
0.21512309 0.11631279 -0.12442231
0.23329887 0.1167528 -0.1172775
0.19724046 0.13323137 -0.12986743
0.21526119 0.13369149 -0.1232264
0.23339054 0.13415521 -0.11653328
0.19746134 0.15064299 -0.12781775
0.21551496 0.15116563 -0.12102866
0.19774768 0.16813761 -0.12516117
0.21585646 0.16873796 -0.11807084
0.18000744 0.18501218 -0.12965882
0.19810116 0.18573064 -0.12188101
0.18036887 0.20262901 -0.12604749
0.19846372 0.2033827 -0.11851692
0.16274633 0.21951641 -0.12972033
0.18086496 0.2204466 -0.12109029
0.094164982 0.23759404 -0.12259698
0.16321184 0.23735344 -0.12468076
0.14572005 0.25435913 -0.12701905
0.16386595 0.2555193 -0.11759996
0.12899773 0.27257603 -0.11982918
-0.061579563 0.30599788 -0.12830913
-0.11347978 0.32377693 -0.1249764
-0.079042979 0.32523915 -0.11547804
-0.13162193 -0.30143982 -0.10287642
-0.11423811 -0.30175114 -0.10034919
-0.16652898 -0.2839433 -0.10317779
-0.096564695 -0.28330851 -0.10867631
-0.079193354 -0.26621112 -0.1057111
-0.18362199 -0.24842946 -0.10912609
0.077944905 -0.21417421 -0.10237396
0.095185608 -0.21386515 -0.10602415
0.077772491 -0.19646242 -0.1055733
0.09491156 -0.19608513 -0.11047423
0.11247046 -0.19625808 -0.10822654
0.060473584 -0.17923437 -0.1024996
0.077523194 -0.17870104 -0.11019969
0.13015498 -0.17907532 -0.10479617
0.060405158 -0.16167869 -0.1039809
0.14763369 -0.16165164 -0.10442007
0.077368744 -0.16111919 -0.11306608
0.12958354 -0.16117133 -0.11221933
0.060133487 -0.14390856 -0.1098628
0.14702283 -0.14381325 -0.11163366
0.16515183 -0.14424166 -0.10367978
0.059970587 -0.12633781 -0.11338961
0.16458759 -0.12650408 -0.10978806
0.18260102 -0.12678336 -0.1037426
0.059984386 -0.10896859 -0.11309099
0.18205476 -0.10911826 -0.10920107
0.20008305 -0.1093381 -0.10349154
0.18143281 -0.091513954 -0.11541605
0.1992808 -0.091651931 -0.11093569
0.21723014 -0.091798507 -0.10617447
0.2354289 -0.091989085 -0.099983931
0.21639127 -0.074194521 -0.11343944
0.23415679 -0.074266717 -0.1103121
0.25232244 -0.074401096 -0.10449529
0.26908323 -0.056875408 -0.10946321
0.28780144 -0.039533276 -0.10052526
0.28705761 -0.022053445 -0.10561085
0.28753477 -0.0045877583 -0.10234869
0.26885331 0.012742909 -0.11112285
0.28745759 0.012869885 -0.10287631
0.25108683 0.030076029 -0.11393714
0.26917496 0.030194683 -0.10880136
0.28747776 0.030334694 -0.10273814
0.25102499 0.047437944 -0.11440957
0.26931697 0.047642112 -0.10777628
0.287487 0.047799319 -0.10267532
0.25111452 0.064837113 -0.11372566
0.26933256 0.065070316 -0.10766363
0.28754026 0.065276518 -0.10231102
0.25124153 0.082260184 -0.11275494
0.26932389 0.082492456 -0.10772622
0.28761744 0.082766838 -0.10178316
0.25121057 0.099632911 -0.11299145
0.26952678 0.099995539 -0.10626221
0.28779042 0.1003008 -0.10060084
0.077346608 0.11698688 -0.11347663
0.2514078 0.11710956 -0.11148417
0.26963782 0.11748069 -0.10546064
0.07740967 0.13444787 -0.11230648
0.25171152 0.13466583 -0.10916352
0.26989329 0.13505013 -0.10361719
0.077686138 0.15223201 -0.10717607
0.2336261 0.15165883 -0.11462092
0.25193071 0.15220793 -0.10748875
0.27021709 0.15268579 -0.10128021
0.077829912 0.16988638 -0.1045078
0.23407999 0.16934215 -0.11093557
0.25219941 0.16980796 -0.10543549
0.077938817 0.18752222 -0.10248685
0.21635535 0.18648173 -0.11375034
0.23456311 0.18710412 -0.10701334
0.25272343 0.18761979 -0.10143101
0.21680573 0.20424999 -0.10985029
0.23508966 0.20496164 -0.10273802
0.19920152 0.22146177 -0.11167121
0.21749792 0.22230397 -0.10385561
0.18158579 0.2385996 -0.11388719
0.19995056 0.23965821 -0.10472119
0.18243662 0.25702378 -0.10538542
0.095561475 0.25769669 -0.099920988
0.11232163 0.27381322 -0.11037445
0.14691104 0.27347574 -0.11295414
0.16490981 0.2743465 -0.10629976
-0.1489978 0.30944613 -0.10473347
-0.13140495 0.32631144 -0.10851383
-0.16735524 -0.30329129 -0.087844491
-0.14932837 -0.30209264 -0.097576618
-0.18497023 -0.28578451 -0.087233424
-0.18432316 -0.26707011 -0.097740412
0.07871069 -0.25052732 -0.08816278
0.096361637 -0.25065097 -0.086927891
0.061148711 -0.23297825 -0.087882757
0.078259192 -0.23217848 -0.096541286
0.095779717 -0.2321936 -0.096377254
0.11389048 -0.23299244 -0.08773005
0.06078729 -0.21473868 -0.095707417
0.11306156 -0.21440104 -0.099694371
0.13140409 -0.21534315 -0.088569641
0.060628757 -0.19695751 -0.099140167
0.13070783 -0.19707502 -0.097614408
0.14887685 -0.19768125 -0.089739203
0.14826235 -0.17961562 -0.09699595
0.16640325 -0.18009126 -0.090132952
0.16575293 -0.16209789 -0.097172737
0.18391216 -0.16250013 -0.090640903
0.20211823 -0.16287176 -0.084607363
0.18317893 -0.14454959 -0.097967625
0.20134902 -0.14488485 -0.091744781
0.20073277 -0.12707347 -0.097463012
0.21900624 -0.12738155 -0.090793133
0.23721752 -0.12762773 -0.085462332
0.21821132 -0.10956178 -0.097677469
0.23640776 -0.10977903 -0.092036366
0.25454473 -0.10995311 -0.087513685
0.25348568 -0.092123963 -0.095606565
0.27204177 -0.09235467 -0.088111639
0.27081248 -0.074574523 -0.096983433
0.28989089 -0.074822694 -0.086239815
0.28882992 -0.057121314 -0.093493581
0.30744329 -0.039641347 -0.086481929
0.30708861 -0.022053491 -0.088785887
0.30653545 -0.0045109801 -0.092378855
0.32501054 -0.0044667441 -0.086609364
0.3062917 0.013007125 -0.093962073
0.32464844 0.013085702 -0.088849306
0.30598402 0.030491253 -0.095960259
0.32435885 0.030613931 -0.090640664
0.34285218 0.030741787 -0.0851053
0.30575654 0.047960684 -0.097437739
0.32421935 0.048143081 -0.091503739
0.34266219 0.048305742 -0.086227059
0.30588678 0.065496631 -0.096591949
0.32414964 0.065675795 -0.091935039
0.34260386 0.06588237 -0.086571217
0.30601516 0.083045058 -0.09575808
0.32427266 0.0832569 -0.091174006
0.34263194 0.083477162 -0.086405635
0.30602488 0.10056502 -0.095695019
0.32430345 0.10081897 -0.090983629
0.34267727 0.10107995 -0.086137772
0.28794324 0.11784423 -0.09955585
0.30623126 0.11816447 -0.094354391
0.32454979 0.11846585 -0.089459538
0.34282842 0.11872549 -0.085245371
0.28825119 0.13547711 -0.097450495
0.30644962 0.13578993 -0.092936277
0.32471627 0.1361021 -0.088429689
0.28846544 0.1530934 -0.095985651
0.30673069 0.15346862 -0.091110468
0.32496113 0.15379164 -0.086915016
0.27057478 0.17037825 -0.098698854
0.28884286 0.17082666 -0.093405008
0.30712187 0.17123602 -0.088569641
0.27111188 0.18823041 -0.094822526
0.28947943 0.18876319 -0.089052796
0.078251705 0.20556787 -0.096680403
0.25340959 0.20561734 -0.096187711
0.27176523 0.20622572 -0.090107322
0.23585448 0.22309355 -0.096528769
0.25409728 0.22369659 -0.090932727
0.27255037 0.22439618 -0.084441543
0.2183775 0.24063772 -0.096238256
0.23676428 0.24145719 -0.089141726
0.20089881 0.25818926 -0.095922351
0.21953201 0.25938192 -0.086239815
0.18350886 0.2758683 -0.094670653
-0.11440282 0.34591451 -0.094999552
-0.15056667 -0.32310355 -0.070766449
0.061857596 -0.26978654 -0.07253468
0.079162769 -0.26900637 -0.079773068
0.097095698 -0.26952004 -0.075008392
-0.20285635 -0.25105959 -0.082844853
0.061408557 -0.25111842 -0.082256794
0.1146605 -0.25168291 -0.07661581
0.044084512 -0.23420922 -0.0745579
0.13211875 -0.23377241 -0.079286098
0.15054905 -0.23463106 -0.069991112
0.043831527 -0.21597303 -0.081130743
0.14973485 -0.21610209 -0.079606533
0.16811709 -0.21678177 -0.071579814
0.043864056 -0.19840899 -0.080285788
0.16717808 -0.19829676 -0.081745028
0.18565056 -0.19894911 -0.073269606
0.18469232 -0.18059616 -0.082844853
0.20306399 -0.18108208 -0.07583189
0.22138885 -0.18147503 -0.070159316
0.22051722 -0.16329661 -0.077708006
0.23894328 -0.16368197 -0.07145083
0.21982077 -0.1453163 -0.083739281
0.23813307 -0.14562392 -0.078028798
0.25639361 -0.14587413 -0.073385715
0.27468884 -0.14611001 -0.06900835
0.25553927 -0.1278839 -0.079914093
0.2738075 -0.12809403 -0.075368643
0.29214647 -0.12830408 -0.070818067
0.27287436 -0.1101613 -0.082103372
0.2913906 -0.11039671 -0.075986028
0.30981317 -0.11058521 -0.071089268
0.29063061 -0.092568085 -0.081182003
0.30913252 -0.092742667 -0.075510383
0.32772002 -0.09291707 -0.069848895
0.30849198 -0.074974358 -0.079670548
0.32694006 -0.075089872 -0.074673653
0.34544468 -0.075202376 -0.069797039
0.30794227 -0.05727917 -0.083241105
0.32633129 -0.057353035 -0.078439474
0.34482604 -0.057429813 -0.073450089
0.32600594 -0.039687753 -0.080452085
0.3443661 -0.039720803 -0.076166034
0.36291161 -0.039758939 -0.071205616
0.32560465 -0.022053491 -0.08293438
0.34403759 -0.022053491 -0.078105927
0.36233401 -0.022053538 -0.074467659
0.38086292 -0.022053445 -0.069874883
0.34353828 -0.0044238959 -0.081053972
0.36188313 -0.004392786 -0.077014208
0.38031429 -0.0043606609 -0.072844386
0.34316137 0.013171541 -0.08327961
0.36149001 0.013233757 -0.0792346
0.3798455 0.013293063 -0.075381398
0.39849156 0.013370859 -0.070327044
0.36119059 0.030838439 -0.080925941
0.37956524 0.030931303 -0.076898694
0.39818588 0.031046445 -0.071915627
0.36103421 0.048441783 -0.081809163
0.37941575 0.048568115 -0.077707767
0.39798236 0.0487139 -0.072973251
0.41628912 0.048808523 -0.069900632
0.36093232 0.066043459 -0.082384706
0.37921894 0.066182502 -0.078773022
0.39786825 0.066382974 -0.073566198
0.41614431 0.066496037 -0.070624232
0.36093459 0.083663575 -0.08237195
0.37935883 0.083864465 -0.078016043
0.39783102 0.08406119 -0.073759437
0.41613138 0.084203146 -0.070688844
0.36085537 0.10125883 -0.082819343
0.37940866 0.10153215 -0.077746391
0.39788806 0.10176313 -0.073462963
0.41614169 0.10191511 -0.070637226
0.36099797 0.11892457 -0.082013845
0.37947741 0.11921024 -0.077373981
0.39768228 0.11938532 -0.074532032
0.4161934 0.11964089 -0.0703789
0.34311593 0.13644041 -0.083547711
0.36139923 0.13670374 -0.079747558
0.37961271 0.13691892 -0.076641679
0.39808905 0.13721152 -0.07241869
0.4164677 0.13744771 -0.069008231
0.34323928 0.15410697 -0.082819343
0.36157405 0.15441953 -0.078760266
0.37990972 0.15470618 -0.075034022
0.39822808 0.15496331 -0.071696043
0.32547244 0.17164412 -0.083752036
0.34373784 0.17197232 -0.079875708
0.3619628 0.17225252 -0.07656455
0.38017383 0.17250319 -0.073604822
0.39860845 0.17283222 -0.069719672
0.30784392 0.18924099 -0.083879828
0.32608464 0.18960275 -0.079965353
0.34437039 0.18995598 -0.076140404
0.36253476 0.19021516 -0.073334098
0.38059798 0.19040236 -0.071308732
0.29018563 0.20681438 -0.084224463
0.30842885 0.20722924 -0.080080628
0.32675284 0.20765436 -0.07583189
0.34491116 0.20794307 -0.072947264
0.36303508 0.20818718 -0.070508003
0.29107493 0.22507489 -0.078144312
0.30924347 0.2254364 -0.074789643
0.3275404 0.22584918 -0.070960045
0.25520924 0.24223158 -0.082435727
0.2736721 0.24293464 -0.07634604
0.29200298 0.24345967 -0.071799278
0.31014153 0.24378797 -0.068956733
0.23801929 0.26027948 -0.078952551
0.25642228 0.26099202 -0.073166609
0.20238672 0.27751133 -0.082116008
0.22100884 0.27864534 -0.073450089
0.16737682 0.2954821 -0.079593778
-0.14999461 0.33021629 -0.083151698
-0.13290261 0.35001996 -0.069603324
-0.16900367 -0.3248719 -0.057253718
-0.13319372 -0.32424563 -0.062040091
-0.18663323 -0.30669263 -0.06022954
0.062482573 -0.28904411 -0.059003472
0.079946734 -0.28832594 -0.065224409
0.0981545 -0.28918141 -0.057815433
-0.2044837 -0.2712068 -0.059355855
0.044868924 -0.27176481 -0.054178238
0.11549468 -0.27064434 -0.064575434
0.044353917 -0.25258932 -0.067558527
0.13298066 -0.25253609 -0.068089604
0.1514651 -0.25342846 -0.059173226
0.16910419 -0.23547146 -0.060894251
0.18657783 -0.21742322 -0.064003825
0.20511833 -0.21803591 -0.056769848
0.20405757 -0.19946156 -0.066612482
0.22245568 -0.19989979 -0.060920358
0.24090615 -0.20031595 -0.055514097
0.23974532 -0.18183671 -0.064938903
0.25833383 -0.18227866 -0.058559775
0.27674195 -0.18258132 -0.054191351
0.25727999 -0.16397993 -0.066612601
0.27564716 -0.16425824 -0.062092304
0.29403684 -0.16451696 -0.057893753
0.31241679 -0.16474576 -0.054178119
0.29303297 -0.14633919 -0.064757228
0.31152725 -0.14659791 -0.059955716
0.32994643 -0.14680693 -0.056076646
0.31060222 -0.1285283 -0.065964222
0.32913601 -0.12875336 -0.061089635
0.34759778 -0.12893841 -0.057083726
0.32836273 -0.11078601 -0.065873265
0.34695467 -0.11097816 -0.060881257
0.36550686 -0.11114503 -0.056547403
0.34619272 -0.093054771 -0.065380216
0.36481801 -0.093206801 -0.060438156
0.38335896 -0.093332298 -0.056364536
0.36406022 -0.075319648 -0.064718366
0.38274607 -0.075435899 -0.059682012
0.40130201 -0.075527422 -0.055723429
0.36345187 -0.057511397 -0.068154335
0.38218778 -0.05759529 -0.062703729
0.40074363 -0.057658158 -0.058624983
0.41919744 -0.057708122 -0.055370092
0.38148957 -0.039795361 -0.066482782
0.40006131 -0.039828554 -0.062170267
0.41860342 -0.039858088 -0.058337927
0.43716085 -0.039885961 -0.054715276
0.39945108 -0.022053538 -0.065341353
0.41797444 -0.022053491 -0.061480403
0.43651918 -0.022053538 -0.057802439
0.4551796 -0.022053445 -0.053850532
0.39902189 -0.004320031 -0.067571521
0.41756302 -0.0042889677 -0.063536048
0.43612313 -0.0042595249 -0.059707999
0.45471102 -0.004231235 -0.056024313
0.41700435 0.013432426 -0.066327214
0.43556806 0.013493212 -0.062378526
0.45421806 0.013555938 -0.05831182
0.47279641 0.013609277 -0.054846287
0.41661537 0.031130617 -0.068270802
0.43507636 0.031211974 -0.064744115
0.45374289 0.031309739 -0.060516357
0.47234657 0.03139405 -0.05686152
0.43484172 0.048932582 -0.065873265
0.45343405 0.049053364 -0.061949015
0.47204611 0.049168415 -0.058207154
0.49053094 0.049259059 -0.055265427
-0.11567231 0.067144737 -0.053771734
0.43472579 0.066657491 -0.066431046
0.45314804 0.066778965 -0.063275933
0.47180131 0.066931829 -0.059303641
0.49063984 0.067105398 -0.054793835
-0.11566101 0.084967457 -0.054138899
0.43460181 0.084372096 -0.067027211
0.45282599 0.084476285 -0.064770222
0.47168478 0.084704809 -0.05982554
0.49023184 0.084855594 -0.056560636
-0.1156356 0.1027598 -0.054964066
0.43464494 0.10212094 -0.066819906
0.45296872 0.10226706 -0.064107656
0.47165862 0.10249139 -0.059942722
0.49033752 0.10269847 -0.056102991
0.50879693 0.10284245 -0.053430915
0.43451566 0.11982187 -0.06744194
0.45290712 0.12000949 -0.06439352
0.47152767 0.1202474 -0.060529232
0.49034968 0.12052349 -0.056050658
-0.25799188 0.13820508 -0.058076859
0.43480122 0.13765146 -0.066067934
0.45322648 0.1378701 -0.062911749
0.47170809 0.13809128 -0.059721112
0.49050984 0.13839336 -0.055356979
0.41664386 0.15523782 -0.068128228
0.43506286 0.15549332 -0.064809084
0.45357436 0.15576358 -0.061298013
0.47208396 0.15601468 -0.0580374
0.41700172 0.17311834 -0.066340446
0.43540582 0.17338778 -0.06315887
0.45398453 0.17370649 -0.059394956
0.47274664 0.1740728 -0.05506897
-0.24014334 0.19157872 -0.05857265
0.39910665 0.19078806 -0.067131042
0.41733679 0.19101603 -0.064666033
0.43601468 0.1914258 -0.060229301
0.45455882 0.19174899 -0.056730628
-0.24057542 0.20989232 -0.053470373
0.38132915 0.20850311 -0.067351103
0.39967349 0.20881984 -0.064185619
0.41799793 0.20910236 -0.06136322
0.43657354 0.20948473 -0.057541132
0.34576243 0.22617662 -0.067921042
0.36389932 0.22642401 -0.065626979
0.38208449 0.22667857 -0.063263059
0.40046743 0.2270239 -0.060060143
0.41904548 0.22744758 -0.056128979
0.32844451 0.24420235 -0.065367222
0.34667903 0.24453244 -0.062508583
0.36481801 0.24477151 -0.060438156
0.38343388 0.24528876 -0.055958867
0.27474979 0.26155844 -0.06856823
0.29305959 0.26205027 -0.064575315
0.31128052 0.26242191 -0.061558604
0.32948169 0.26274294 -0.058951497
0.34785917 0.26316321 -0.055540204
0.23961267 0.27961814 -0.066015959
0.25812384 0.28038403 -0.060164452
0.27653688 0.28097203 -0.055670977
0.18650635 0.2975435 -0.064718246
0.2049972 0.29848918 -0.057893991
-0.116142 -0.32732388 -0.03851831
-0.097893275 -0.3078112 -0.051147342
0.081388682 -0.30937323 -0.038465261
0.045406289 -0.29121357 -0.040217161
0.11681281 -0.29059771 -0.04554987
0.13416965 -0.27193025 -0.052643895
0.15304331 -0.27323514 -0.04053545
0.18894498 -0.25531223 -0.040349722
0.17032914 -0.25458324 -0.047634006
0.1877764 -0.23629054 -0.052027106
0.20637593 -0.23693037 -0.045100689
0.224978 -0.23748681 -0.03907609
0.22365397 -0.21856314 -0.050542593
0.24214157 -0.21899167 -0.045483708
0.26055905 -0.21932416 -0.041555882
0.25935033 -0.20067936 -0.050792336
0.27787164 -0.2010453 -0.04603827
0.29614571 -0.20124277 -0.04347527
0.31467652 -0.20154864 -0.039500833
0.29508704 -0.18282224 -0.05071342
0.31345889 -0.1830512 -0.047409773
0.33202845 -0.1833429 -0.043197632
0.3504228 -0.18353672 -0.04040277
0.3309792 -0.16502227 -0.049687743
0.34945944 -0.16524382 -0.04609108
0.3680416 -0.16548151 -0.042231321
0.38662666 -0.16570033 -0.038677812
0.34850979 -0.14704286 -0.051698923
0.36694279 -0.14721851 -0.048437476
0.38562548 -0.14745244 -0.044096708
0.40427601 -0.1476586 -0.040270329
0.36610743 -0.12911996 -0.053155422
0.3848235 -0.12933786 -0.048437476
0.40337685 -0.12949923 -0.04494226
0.42220634 -0.12971196 -0.04033649
0.38404149 -0.11129424 -0.052670121
0.40249398 -0.11141498 -0.049530029
0.42120785 -0.1115768 -0.045325398
0.43985745 -0.11171488 -0.041741371
0.45855883 -0.11185216 -0.03817296
0.402026 -0.093467869 -0.051961422
0.42048216 -0.093560502 -0.048950911
0.43912622 -0.093674168 -0.045259356
0.45774975 -0.09377683 -0.041926861
0.4196564 -0.075588435 -0.053076982
0.43838906 -0.07568717 -0.048806071
0.45695457 -0.075760759 -0.045615792
0.47568348 -0.075846277 -0.041913629
0.49438933 -0.075923882 -0.038558125
0.43760496 -0.057751112 -0.052578449
0.45632932 -0.057813793 -0.048516512
0.47509286 -0.057874717 -0.044559121
0.49375823 -0.057925008 -0.041290998
0.51230812 -0.057964571 -0.038717628
0.45570287 -0.039911292 -0.051422954
0.47424766 -0.039934911 -0.048345208
0.49299124 -0.039963663 -0.04461205
0.51175404 -0.039991215 -0.041039109
0.47355768 -0.022053538 -0.051436186
0.49222645 -0.022053538 -0.047923684
0.51126742 -0.022053583 -0.043078423
0.52981901 -0.022053491 -0.040522099
0.47316799 -0.0042093713 -0.053181887
0.49185249 -0.0041813143 -0.049543142
0.5106461 -0.0041516386 -0.045681834
0.52930677 -0.0041278787 -0.042601943
0.49155489 0.013671173 -0.050831676
0.51011741 0.013716241 -0.047897339
0.5288018 0.013766116 -0.044651866
0.49101213 0.031479008 -0.053181767
0.50964618 0.031555459 -0.049871922
0.52850902 0.031648465 -0.045840144
0.50928235 0.049378134 -0.051396728
0.52809966 0.049498133 -0.047502041
0.50923526 0.067228541 -0.051593661
0.52808666 0.0673839 -0.047554731
0.50897217 0.08503411 -0.052696347
0.52809322 0.085272759 -0.047528386
0.52855122 0.10326078 -0.045668602
-0.25849009 0.12073072 -0.052683353
-0.11574302 0.12080518 -0.051475525
0.50905359 0.12075096 -0.05235517
-0.11590882 0.13903557 -0.046090841
0.50998855 0.13887288 -0.048437476
-0.25861987 0.15653488 -0.051278591
-0.11613668 0.15750399 -0.038691044
0.49097881 0.1563773 -0.053326011
0.51142538 0.15721717 -0.042416573
0.49187073 0.17454748 -0.049464107
0.47353128 0.19222727 -0.051554322
0.45535201 0.20993416 -0.053050637
0.47563621 0.21102749 -0.042125463
-0.2408033 0.2280241 -0.050779104
0.4377141 0.22788695 -0.052053332
0.45747581 0.22884136 -0.043197393
-0.24106742 0.24624702 -0.047660232
0.40176591 0.24559423 -0.053312898
0.42040581 0.24605376 -0.049332619
0.36660966 0.26380616 -0.050318956
0.38518876 0.26428154 -0.046460271
0.40460038 0.2652514 -0.038584709
0.29486227 0.28141972 -0.052250385
0.31308788 0.28173766 -0.04981935
0.33178911 0.28241065 -0.044678092
0.3505486 0.28306732 -0.039659977
0.22353563 0.29936564 -0.051567435
0.24227011 0.30035332 -0.044440269
0.26101047 0.30123088 -0.038106441
-0.22387625 0.31911528 -0.038624406
-0.20553814 0.31830922 -0.044136405
-0.18800384 0.33717179 -0.037973642
-0.16928315 0.33500203 -0.052066565
-0.15164912 0.35362038 -0.047330618
-0.062272921 0.39100859 -0.038239479
-0.026372561 0.39059252 -0.040588379
-0.0084187612 0.39073816 -0.039766192
0.063554041 -0.30970082 -0.035805583
0.099753037 -0.31018698 -0.031858444
-0.20627965 -0.29199681 -0.033433557
0.13577178 -0.29218173 -0.031831622
0.17183456 -0.27422649 -0.03133738
0.19064669 -0.27508786 -0.023345351
-0.24269433 -0.25650334 -0.028447151
0.20783189 -0.25618875 -0.031591177
0.22642362 -0.25669247 -0.02655673
0.24495289 -0.25708264 -0.022658825
0.24364221 -0.23802041 -0.033300161
0.26198727 -0.23826599 -0.030642152
0.28041312 -0.23853816 -0.027696729
0.29894438 -0.23884809 -0.02434063
0.2790536 -0.21966687 -0.037508488
0.29734734 -0.21985735 -0.035259604
0.31588605 -0.2201633 -0.031644702
0.33449742 -0.2204785 -0.027924538
0.35302693 -0.22072381 -0.025025964
0.33313301 -0.20179002 -0.036364675
0.35167536 -0.20204845 -0.033006668
0.37017876 -0.20226751 -0.030160785
0.38861829 -0.20244181 -0.027897835
0.40757206 -0.20280784 -0.023143291
0.3689602 -0.18376932 -0.037043214
0.38744769 -0.18396406 -0.03423357
0.40615466 -0.18422218 -0.030508518
0.42497778 -0.18450049 -0.026489615
0.44370335 -0.18472582 -0.023237824
0.40510449 -0.16586733 -0.035965323
0.42386043 -0.16610713 -0.032072067
0.44262338 -0.16633119 -0.0284338
0.46130279 -0.16651544 -0.025442362
0.42284951 -0.14782833 -0.037122965
0.44148159 -0.14800037 -0.033926964
0.46022239 -0.14818753 -0.030455112
0.47878549 -0.14831881 -0.028018475
0.49801448 -0.14859675 -0.022860885
0.44067365 -0.12982848 -0.03781426
0.45919248 -0.12994774 -0.03523314
0.47802964 -0.13012454 -0.031404257
0.4967244 -0.13026123 -0.028447151
0.51616919 -0.13053404 -0.022537708
0.47733548 -0.111993 -0.034513712
0.49595514 -0.11209825 -0.031778336
0.51471424 -0.11221931 -0.028634787
0.47664616 -0.093909957 -0.03760159
0.49528953 -0.0940006 -0.034660339
0.5137409 -0.094060503 -0.032712936
0.53383172 -0.094321713 -0.024232984
0.51301253 -0.07598827 -0.035765767
0.5323714 -0.076117747 -0.030160666
0.53134513 -0.0580322 -0.034327149
0.53047955 -0.04001585 -0.037840843
0.55059338 -0.0040260945 -0.029371262
0.5504235 0.013991179 -0.030040383
0.54986656 0.031962872 -0.032232285
-0.27830857 0.049944885 -0.032993317
-0.13426501 0.049907535 -0.034206986
0.55018902 0.050007373 -0.030963182
-0.27919465 0.068285301 -0.024138927
-0.13426501 0.067897901 -0.034206986
-0.13428503 0.085912079 -0.033686876
-0.13429582 0.10392136 -0.033406973
-0.13445784 0.12217706 -0.029197216
0.53050256 0.12165046 -0.037747502
-0.26003689 0.1756929 -0.035938859
-0.11636353 0.17608345 -0.031324029
-0.11654091 0.19462818 -0.025563359
0.49477914 0.19358361 -0.036870241
0.44098601 0.2475574 -0.036311388
-0.24227434 0.26588923 -0.033406854
-0.24279875 0.2846961 -0.02721417
-0.22451136 0.33834171 -0.030374765
-0.20633976 0.33800432 -0.03256619
-0.22470924 0.35677698 -0.027803898
-0.20644249 0.35624689 -0.031083465
-0.18890388 0.3574957 -0.023358822
-0.17041962 0.35626417 -0.030976415
-0.22511566 0.37571079 -0.022524238
-0.20694971 0.37550107 -0.023762465
-0.18892957 0.37564018 -0.022941709
-0.15277188 0.3756265 -0.023022294
-0.13463184 0.37534633 -0.024676681
-0.11651362 0.37504607 -0.026449323
-0.098434836 0.37483478 -0.027696729
-0.080419868 0.37511417 -0.026046753
-0.062321424 0.37411639 -0.031938434
-0.044313699 0.37431103 -0.030789375
-0.026324052 0.37371859 -0.034286976
-0.0083528683 0.37351558 -0.035486102
0.0096509382 0.37368721 -0.034473538
0.027572721 0.37332174 -0.03663075
-0.20695995 0.39359817 -0.023614287
-0.18866234 0.39294863 -0.027281165
-0.17060719 0.39291087 -0.027495623
-0.15235512 0.39210528 -0.032045364
-0.13435182 0.39212167 -0.031952024
-0.11623455 0.39149129 -0.035512805
-0.098253414 0.39148426 -0.03555274
-0.080256701 0.39129099 -0.036643982
-0.044313699 0.39109093 -0.037774324
0.0096829645 0.39192072 -0.033086658
-0.18878549 0.41136172 -0.025281191
-0.17058408 0.41087335 -0.027924538
-0.1523872 0.41024059 -0.031350732
-0.13436569 0.41019601 -0.031591177
-0.1162034 0.4092845 -0.036524177
-0.098457135 0.41109398 -0.026731133
-0.20765916 -0.31244534 -0.013522387
0.11861449 -0.31170362 -0.019544721
-0.22605757 -0.29466921 -0.010288835
0.15477279 -0.29353502 -0.020111561
0.17364833 -0.29450613 -0.011702657
-0.22529413 -0.27542615 -0.020205855
0.20938355 -0.27575073 -0.017193556
0.22780499 -0.27603096 -0.01459372
0.24665087 -0.27664745 -0.0088728666
0.26348194 -0.25742665 -0.01922071
0.2819941 -0.25772032 -0.016287088
0.30047709 -0.25796297 -0.013861537
0.3189584 -0.25818041 -0.011689305
0.33743861 -0.25837642 -0.0097308159
0.35594726 -0.25857133 -0.0077826977
0.33594158 -0.23934223 -0.018991232
0.35437635 -0.23952074 -0.017058372
0.37296614 -0.23976475 -0.014417529
0.39172077 -0.24007076 -0.011104703
0.41062009 -0.24042173 -0.0073053837
0.31735039 -0.23905189 -0.022133589
0.37173119 -0.22103152 -0.021392584
0.39023635 -0.22122219 -0.019139647
0.4089385 -0.22148451 -0.016043305
0.42785576 -0.22181751 -0.012110353
0.44698083 -0.22221045 -0.0074689388
0.42629483 -0.20305687 -0.019909024
0.44514802 -0.20333564 -0.016286969
0.46432582 -0.20371045 -0.011417627
0.46270499 -0.18502378 -0.01893723
0.48177335 -0.18532191 -0.014634371
0.48024955 -0.1667607 -0.021459937
0.49932328 -0.16702333 -0.017193675
0.5187937 -0.14920677 -0.011539817
0.55337453 -0.022053491 -0.018423915
-0.28026798 0.014247073 -0.013413906
-0.27984238 0.032299154 -0.017666817
-0.26258117 0.050702348 -0.0083959103
-0.26209384 0.068688095 -0.013671637
-0.24449956 0.068940014 -0.0071280003
-0.26194733 0.086763285 -0.015257835
-0.24388808 0.086805262 -0.014349699
-0.22615817 0.087053202 -0.0089818239
-0.2617023 0.10475648 -0.017910242
-0.24380314 0.10489423 -0.015352726
-0.22612043 0.10521128 -0.0094722509
-0.24398686 0.12316332 -0.013183117
-0.24388808 0.14123453 -0.014349699
-0.1347951 0.14081307 -0.020435214
-0.24378479 0.15928385 -0.015569448
-0.13518982 0.15969869 -0.010179877
-0.24420086 0.17783366 -0.010655761
-0.11681946 0.21359022 -0.016517162
-0.117041 0.23249188 -0.0093224049
-0.17102182 0.37617195 -0.019801259
-0.24399835 0.39546892 -0.013047576
-0.22528896 0.39418951 -0.020273447
-0.20705974 0.41193604 -0.022174239
-0.28075784 0.41445863 -0.0085186958
-0.26250818 0.4143354 -0.0091861486
-0.24387315 0.41334885 -0.01452589
-0.22542092 0.41260365 -0.018558979
0.1377386 -0.31333724 -0.0062819719
0.15680994 -0.31459695 0.0039461851
0.19235294 -0.29513043 -0.006295681
0.21087182 -0.29546657 -0.0033843517
0.22965991 -0.29602706 0.001470089
0.24849629 -0.29656285 0.0061100721
-0.24567547 -0.27833211 0.0067585707
0.26532537 -0.27705038 -0.0051347017
0.28381231 -0.27726269 -0.0031652451
0.30243436 -0.2775521 -0.00047945976
0.32092732 -0.27772221 0.0010992289
0.33948717 -0.27792072 0.00294137
0.35824627 -0.27822807 0.005792737
0.37476465 -0.25892383 -0.0042598248
0.39358756 -0.25925004 -0.0010006428
0.41300023 -0.25985673 0.0050621033
0.42973378 -0.24084462 -0.0027273893
0.44931623 -0.24144457 0.0037671328
0.46675143 -0.22282916 -0.00016403198
0.4843888 -0.20436472 -0.0029189587
0.50317693 -0.18630075 -0.0005068779
-0.28246227 -0.095329896 0.0085127354
-0.28219697 -0.076949582 0.0058618784
-0.28225082 -0.058659174 0.0063997507
-0.26406783 -0.058679238 0.0076975822
-0.28178501 -0.040320508 0.0017449856
-0.26383203 -0.040346675 0.0051447153
-0.28149372 -0.022053629 -0.0011651516
-0.26386639 -0.022053538 0.0055171251
-0.28105688 -0.0038425401 -0.0055309534
-0.26375568 -0.0037666876 0.0043178797
-0.2633746 0.014456606 0.00019299984
-0.26298726 0.032614857 -0.0039999485
-0.24532662 0.051042184 0.0026388168
-0.15362963 0.050823733 -0.0044512749
-0.15374786 0.069141641 -0.001891613
-0.15388918 0.087521821 0.0011680126
-0.15411553 0.10604876 0.0060685873
-0.13563347 0.17885011 0.0013465881
-0.11726981 0.25153205 -0.001891613
-0.22722124 0.28888926 0.004827857
-0.2272276 0.30719155 0.0049105883
-0.24459551 0.37851009 -0.0059953928
-0.28183866 0.39818284 0.0022810698
-0.2631757 0.39743194 -0.0019602776
-0.35565194 0.41748279 0.0078495741
-0.3367978 0.41667262 0.0034643412
-0.31809387 0.41599464 -0.00020515919
-0.29932237 0.41510412 -0.0050252676
0.21360719 -0.3168202 0.021996975
0.17589948 -0.31567121 0.01266706
0.19457448 -0.31606969 0.015903115
0.26716021 -0.2968834 0.0088862181
0.28578326 -0.2971344 0.011058927
0.30437344 -0.29733276 0.012777925
0.32312518 -0.29763269 0.01537478
0.34202829 -0.29801211 0.018660545
0.36084387 -0.29829735 0.021130681
0.37736163 -0.27872545 0.010408044
0.39623058 -0.27903771 0.013305187
-0.26478732 -0.26089984 0.015486002
0.43294817 -0.26068446 0.013332963
-0.26469359 -0.24243338 0.01447165
-0.30094388 -0.1503686 0.010020375
-0.28377813 -0.1509959 0.021661639
-0.28328818 -0.13234948 0.016765952
-0.28280166 -0.11377973 0.01190424
-0.26517329 -0.11407838 0.019664645
-0.26468587 -0.095510952 0.014388084
-0.26434124 -0.077060431 0.010657191
-0.24665734 0.033131175 0.018353701
-0.15441582 0.12474931 0.012569904
-0.15474415 0.14359212 0.019678473
-0.13602278 0.19804831 0.011460662
-0.13624197 0.21695997 0.017155766
-0.13648538 0.23602724 0.023479819
-0.44934118 0.41979456 0.020362496
-0.43086991 0.41972503 0.019985676
-0.41138268 0.4184292 0.012972236
-0.39319974 0.41864476 0.014138103
-0.37430513 0.41793507 0.010297298
-0.5050348 0.43866763 0.022766232
-0.48626503 0.43831244 0.020920992
-0.46755138 0.43798745 0.019232154
-0.44857654 0.43733597 0.015847683
-0.43073231 0.43796849 0.019134402
-0.22897765 -0.31751573 0.027644277
0.23244238 -0.31726009 0.025567174
0.25107941 -0.31744668 0.027082443
0.2698155 -0.31770453 0.029176235
0.28848869 -0.31787792 0.03058362
0.30714044 -0.31801486 0.031696439
0.32616174 -0.31843388 0.035097718
-0.24747851 -0.29909652 0.028051615
0.38023189 -0.29893109 0.026619315
-0.28527278 -0.2815479 0.036596775
-0.26567972 -0.28031391 0.025146604
0.41674143 -0.28024438 0.024502039
-0.28490227 -0.1886148 0.032894731
-0.28427988 -0.16972502 0.026675344
-0.24738458 -0.077436551 0.026942253
-0.17406546 0.033554398 0.036681652
-0.15523286 0.16281176 0.030259609
-0.1556381 0.18204111 0.039033294
-0.13673496 0.25521025 0.02996397
-0.13705075 0.27470496 0.03816855
0.1223004 0.3852253 0.033656955
-0.46909797 0.42119956 0.027967215
-0.56343055 0.44144362 0.037191153
-0.5439918 0.44061124 0.032866716
-0.52405792 0.439239 0.025735497
-0.60089636 0.46031803 0.038863063
-0.58189452 0.45991546 0.036851525
-0.56283617 0.45943144 0.034433603
-0.26828408 -0.32068074 0.053339839
-0.24957009 -0.32060826 0.05275166
0.34566125 -0.31917736 0.041133642
-0.26711455 -0.30055463 0.040679216
0.40148482 -0.3006776 0.04174459
-0.2870115 -0.22741321 0.053971529
-0.28605986 -0.20801218 0.044462204
-0.17423114 0.052185066 0.039756536
-0.17439879 0.070864491 0.04286778
-0.17463301 0.089648657 0.04721427
-0.1749144 0.10854719 0.052436233
-0.15600146 0.20132196 0.046900153
-0.15628697 0.22055523 0.053081751
-0.1373001 0.29410037 0.044647217
-0.13748363 0.31335822 0.049414754
0.10479341 0.36935258 0.049987197
-0.58295524 0.44229266 0.041602492
-0.62218225 0.44396946 0.050315976
-0.71602213 0.46306917 0.052608371
-0.69691575 0.46273655 0.050946116
-0.67777932 0.46236119 0.04907155
-0.65873778 0.46203819 0.04745698
-0.63844573 0.46067867 0.04066503
-0.61972332 0.46054807 0.040011883
-0.063062333 -0.39702639 0.064308763
-0.044313699 -0.39675897 0.062572479
-0.025597995 -0.39636755 0.06003046
-0.0068378113 -0.39681235 0.062919378
0.012001511 -0.3974883 0.06730938
-0.1193725 -0.37858292 0.066395402
-0.1005439 -0.37817806 0.063628316
-0.08174888 -0.37768775 0.060275793
-0.063009769 -0.37727886 0.057479382
-0.044313699 -0.37738198 0.058185101
-0.025608541 -0.37745151 0.058660507
-0.0068978332 -0.37750426 0.059020877
0.011928197 -0.37825215 0.064134836
-0.17584817 -0.36028498 0.069764733
-0.11931851 -0.35957512 0.064641714
-0.10052919 -0.35934654 0.062991858
-0.081731118 -0.35881022 0.059121728
-0.063059211 -0.35947275 0.063903213
-0.044313699 -0.35906011 0.060925364
-0.28745914 -0.30260599 0.058444381
-0.30581367 -0.2461964 0.055206776
-0.288017 -0.24701048 0.064019203
-0.17528865 0.12763226 0.059381247
-0.1756455 0.14680167 0.066003799
-0.26913965 0.20277245 0.062601328
-0.26956651 0.22197032 0.067222238
-0.15663192 0.24002236 0.060549855
-0.15694746 0.25953084 0.067382097
0.12430975 0.37140116 0.062659144
0.10578248 0.39071104 0.066047311
-0.79421902 0.46538493 0.064178348
-0.77503276 0.46509245 0.062716961
-0.75521088 0.46434978 0.059006453
-0.73558867 0.46370724 0.055795908
-0.79408538 0.48404226 0.063744187
-0.77417839 0.48323742 0.059871674
-0.75471365 0.48270431 0.057306647
-0.73803794 0.48417756 0.064395666
0.03103517 -0.39879781 0.075815201
-0.19548003 -0.38107353 0.083424568
-0.17635797 -0.38045937 0.079225659
-0.15726885 -0.37974489 0.074339986
-0.13830386 -0.37921613 0.070725083
0.030961432 -0.37961048 0.073420882
-0.25182921 -0.36162445 0.079430819
-0.23291567 -0.36153713 0.078800559
-0.21383953 -0.36110508 0.075683832
-0.19488013 -0.36082792 0.073683262
-0.15713617 -0.36052099 0.071467638
-0.13837731 -0.36068252 0.072633266
-0.28954321 -0.3427383 0.079269648
-0.27022669 -0.34209695 0.074369431
-0.25188759 -0.34284946 0.080120206
-0.23294275 -0.34272292 0.079152465
-0.21376261 -0.34212372 0.074573636
-0.1948002 -0.34183732 0.07238543
-0.28873616 -0.32288119 0.071205497
-0.30864888 -0.30526981 0.08151412
-0.32738087 -0.28624949 0.080222726
-0.28920627 -0.26694608 0.075903058
-0.19556884 -0.078774214 0.084866762
-0.19553077 -0.059857845 0.084248424
-0.19548184 -0.040949658 0.083454013
-0.19551627 0.034647539 0.084013104
-0.1760491 0.16613992 0.073493719
-0.1764908 0.1856534 0.081690431
-0.15725133 0.2791135 0.073960543
-0.1576165 0.29897112 0.081866622
-0.15777817 0.31833985 0.085367441
-0.81650579 0.46762922 0.07539165
-0.21505713 -0.38251188 0.093258619
0.050321184 -0.38166612 0.087475657
-0.34868887 -0.36447561 0.10000753
-0.32927009 -0.36400127 0.096584082
-0.30963689 -0.36318344 0.090681672
-0.29056984 -0.36302355 0.089528322
-0.27138156 -0.36265528 0.08687079
-0.38651696 -0.34524554 0.098428607
-0.36739853 -0.34513828 0.097609878
-0.34839174 -0.34513634 0.097595096
-0.32888269 -0.34456503 0.093229175
-0.30946004 -0.34401691 0.089040756
-0.34871274 -0.32645252 0.10020137
-0.30946004 -0.32507789 0.089040518
-0.19572406 -0.097758763 0.087387204
-0.19578043 0.053679839 0.088302135
-0.19608201 0.072801538 0.093199372
-0.19622272 0.091878258 0.095484376
-0.19651964 0.11112661 0.1003058
-0.17676596 0.20500755 0.086797118
-0.17712614 0.22459809 0.093481183
-0.1775156 0.24435028 0.10070848
0.088767752 0.37719089 0.098473191
-0.25391045 -0.38408419 0.10400867
-0.40825745 -0.3668423 0.1170882
-0.38799828 -0.36573812 0.10911906
-0.36846903 -0.36527684 0.10578978
-0.46516758 -0.34725884 0.11381316
-0.44498792 -0.34640884 0.10731852
-0.42587358 -0.3463794 0.10709345
-0.40601882 -0.34568441 0.1017828
-0.46553802 -0.32839841 0.11600065
-0.42661595 -0.32789531 0.11191511
-0.40710944 -0.32756573 0.10923922
-0.38791713 -0.32747883 0.1085335
-0.36835343 -0.327032 0.10490632
-0.94397819 -0.30918044 0.1153816
-0.19708088 -0.17482071 0.10941923
-0.19664463 -0.15534309 0.10233521
-0.19688505 0.13051783 0.10623932
-0.19717439 0.14991473 0.11093724
-0.2925604 0.20709723 0.10941923
-0.29305136 0.22668426 0.1143254
-0.17786935 0.26413712 0.10727334
-0.17821038 0.28399605 0.11360192
0.089640662 0.36067313 0.1146723
0.08898069 0.39687166 0.10242486
-0.4280977 -0.36745912 0.12153947
-0.52495611 -0.34889039 0.12628078
-0.50457728 -0.34807354 0.12003875
-0.48493072 -0.34772703 0.11739039
-0.58373487 -0.33029425 0.13139141
-0.56423795 -0.33015674 0.13027596
-0.54402035 -0.32956532 0.12547386
-0.52485943 -0.32960275 0.1257782
-0.50482368 -0.3290602 0.12137246
-0.48551762 -0.328978 0.12070537
-0.44666016 -0.32860321 0.11766267
-0.33214295 -0.32907143 0.12146366
-0.46653515 -0.30993178 0.1218884
-0.44786882 -0.31030717 0.125139
-0.19806679 -0.21424487 0.1254282
-0.19758204 0.16953191 0.11755681
-0.29417619 0.18936871 0.12556517
-0.19804242 0.18932346 0.12503266
-0.17846423 0.30374065 0.11831284
-0.1787035 0.32352018 0.12275326
-0.17858744 0.34240374 0.12059927
-0.25524604 0.36145961 0.11978114
-0.58620417 -0.35105842 0.14284778
-0.56520474 -0.35002214 0.13492763
-0.54556608 -0.34979537 0.13319647
-0.68416798 -0.33228591 0.14756203
-0.66413438 -0.33196381 0.14494765
-0.64330816 -0.33121207 0.13884306
-0.62362731 -0.3310208 0.1372906
-0.60352588 -0.33058441 0.13374782
-0.93456781 -0.31235376 0.14286315
-0.66414201 -0.31259811 0.14497876
-0.64468765 -0.31255701 0.14462316
-0.62447989 -0.31213662 0.14098263
-0.60433745 -0.31172097 0.13738286
-0.58468544 -0.3115384 0.13580191
-0.5661912 -0.31198546 0.13967371
-0.54673314 -0.31191099 0.13902771
-0.52700412 -0.31166771 0.13692236
-0.43036914 -0.31159514 0.13629282
-0.31529385 -0.13818784 0.14317191
-0.21875182 -0.13834555 0.14658689
-0.2184682 -0.118806 0.14249325
-0.21808863 -0.09928678 0.13701427
-0.21797591 -0.0799409 0.13538754
-0.21784747 -0.060616657 0.13353336
-0.2178899 -0.041339833 0.13414609
-0.21788141 -0.022053491 0.13402355
-0.21782519 -0.0027743597 0.13321173
-0.21786655 0.016513785 0.13380909
-0.21807799 0.035868034 0.13686073
-0.21841693 0.055325866 0.14175308
-0.21859331 0.074768625 0.14429891
-0.21870148 0.09420497 0.14585972
-0.19852823 0.20926835 0.13292098
-0.19888157 0.2291193 0.13865852
-0.19917852 0.24895984 0.14348054
0.071847759 0.36515126 0.14375842
0.071578115 0.38356787 0.13792062
0.071497969 0.40258935 0.13618553
0.052718624 -0.37136987 0.14976287
-0.74636781 -0.33407754 0.16210902
-0.72539234 -0.33340368 0.15663815
-0.70460081 -0.33277684 0.15154827
-0.8046279 -0.31448212 0.1612947
-0.78453779 -0.31424719 0.15926111
-0.76370299 -0.31369776 0.15450299
-0.74489498 -0.31396243 0.15679419
-0.72438109 -0.31351101 0.15288484
-0.70436907 -0.31325445 0.1506629
-0.68448281 -0.31303954 0.14880157
-0.90286827 -0.29523 0.16355097
-0.74634182 -0.29506442 0.16201496
-0.72701836 -0.29513529 0.162673
-0.31683934 -0.21671465 0.15751183
-0.31662253 -0.19710919 0.15550017
-0.31607947 -0.17734826 0.1504612
-0.21949901 -0.17777379 0.15737152
-0.21902779 -0.1579423 0.1505698
-0.31632391 0.016805181 0.15272951
-0.21912785 0.11391305 0.15201437
-0.21938664 0.13356683 0.15574956
-0.29792893 0.15352622 0.16306508
-0.21967435 0.15330712 0.15990233
-0.29775333 0.17289998 0.16131043
-0.31584382 0.21068653 0.14827466
-0.3163859 0.23058489 0.1533047
-0.19947663 0.26887691 0.14832103
-0.1997548 0.28882849 0.15283823
-0.20009263 0.30897677 0.158324
-0.20016576 0.32861358 0.15951121
-0.20009649 0.34793043 0.15838635
-0.27814811 0.36767051 0.1601212
-0.78820908 -0.33527264 0.17181134
-0.86755621 -0.31606871 0.1750356
-0.84565926 -0.31522879 0.16776109
-0.82568812 -0.31506899 0.16637719
-0.88555741 -0.29594693 0.17020226
-0.86661589 -0.2961542 0.17212701
-0.84665871 -0.29602501 0.17092752
-0.82736635 -0.29612198 0.17182708
-0.80725956 -0.29593155 0.17006028
-0.78684473 -0.29561755 0.1671474
-0.76665998 -0.2953738 0.16488481
-0.31846717 -0.2374599 0.1726166
-0.22053772 -0.21785805 0.17236388
-0.22001955 -0.19775935 0.16488481
-0.29862899 0.13444817 0.1700604
-0.22007178 0.17323326 0.16563845
-0.22049396 0.19327794 0.17173243
-0.22083582 0.21330921 0.17666674
0.053786479 0.37034726 0.17750669
0.053553291 0.38898787 0.17144823
0.053465292 0.40817395 0.16916215
0.034648836 -0.37738496 0.19317281
0.054012202 -0.35636151 0.18337095
-0.2214262 -0.25820357 0.18518806
-0.22106116 -0.23807815 0.179919
-0.28065544 -0.15991946 0.18726337
-0.34056601 -0.14055453 0.19440937
-0.24173856 -0.12076601 0.19341373
-0.24134636 -0.10086652 0.18831837
-0.24122703 -0.081127509 0.18676817
-0.24102929 -0.061396629 0.18419945
-0.2408846 -0.041710548 0.18232
-0.24075724 -0.022053583 0.18066597
-0.34044918 -0.0023111515 0.19339764
-0.24105503 -0.0023793783 0.18453419
-0.2410121 0.017286045 0.18397629
-0.24122824 0.037020802 0.18678427
-0.2415102 0.056824945 0.19044709
-0.24182637 0.076702856 0.19455397
-0.22109969 0.23330399 0.18047512
-0.2212926 0.25324699 0.18325949
-0.22164197 0.27349356 0.18830264
-0.2220217 0.29387173 0.19378293
0.034831643 -0.3584213 0.19910955
-0.24268234 -0.18074842 0.20567334
-0.34074607 -0.16038854 0.19596899
-0.24234477 -0.1606753 0.20128834
-0.24205548 -0.14069866 0.19753003
-0.24260126 0.13657658 0.20462036
-0.32180461 0.19597495 0.20358419
-0.3407535 0.21509831 0.19603324
-0.2223036 0.31414965 0.19785225
-0.22253272 0.3343845 0.20115888
-0.30177999 0.37404835 0.20154679
0.034855977 0.39358744 0.19990003
0.015644923 -0.38180536 0.2250737
0.015609223 -0.36161682 0.22352803
0.035273038 -0.34040055 0.21344423
-0.32274431 -0.2805962 0.21230328
-0.24421249 -0.28192198 0.22555089
-0.24407196 -0.24178769 0.22372532
-0.3440764 -0.2218954 0.22481048
-0.2437347 -0.22147444 0.21934426
-0.34287509 -0.20119035 0.21440661
-0.24329938 -0.2011407 0.21368885
-0.34250432 -0.18108845 0.21119595
-0.24303856 0.15679885 0.21030104
-0.32350841 0.17737119 0.21939337
-0.24326171 0.17689453 0.21319985
-0.24348156 0.19703129 0.21605587
-0.24367797 0.21718359 0.21860719
-0.34322408 0.23700216 0.21742892
-0.24415426 0.23773906 0.22479403
0.035247937 0.37575474 0.2126292
0.015812576 -0.34272695 0.23233342
-0.24433802 -0.26208276 0.22718132
-0.34505022 -0.2425935 0.2332437
-0.26525971 -0.10239749 0.23803759
-0.26488745 -0.062157936 0.23364115
-0.26498005 -0.04211399 0.23473465
-0.26501372 -0.022053583 0.23513258
-0.26505306 -0.0019862 0.23559678
-0.26505306 0.018080996 0.23559701
-0.24428348 0.25790411 0.22647297
-0.24467221 0.27848426 0.23152304
-0.24494882 0.29896259 0.23511589
0.015896372 0.39941698 0.23596179
-0.0038826503 -0.3657175 0.25486302
-0.0038543828 -0.34572804 0.25669897
0.016323153 -0.32523778 0.25444221
-0.34715056 -0.26432303 0.25143337
-0.2662378 -0.16327788 0.24958801
-0.36690807 -0.14302653 0.24792945
-0.2660293 -0.14298917 0.24712586
-0.36710826 -0.12292692 0.24955451
-0.26573497 -0.1226996 0.24364972
0.016109012 0.38076448 0.2451694
-0.32729295 0.38220242 0.25450945
-0.26760909 -0.26564845 0.26578212
-0.26767665 -0.24541652 0.26658034
-0.26743677 -0.22489259 0.26374698
-0.36938736 -0.2049074 0.26805854
-0.26709145 -0.20432626 0.25966918
-0.36877495 -0.18428412 0.2630862
-0.26688278 -0.18392186 0.25720465
-0.36839151 -0.16383766 0.25997317
-0.36903593 -0.10323418 0.26520526
-0.0036199801 0.40523043 0.27192378
-0.023852387 -0.34943444 0.28679132
-0.0035584532 -0.3277179 0.27592003
-0.37170953 -0.24713816 0.2869122
-0.37064031 -0.22600764 0.27823102
-0.39221919 -0.12437871 0.28727448
-0.39136118 -0.08329729 0.28071785
-0.26914597 0.36629298 0.28393197
-0.0034615807 0.38646746 0.28221226
-0.023784997 -0.37104154 0.29554605
-0.023770954 -0.33019465 0.29736984
-0.2910983 -0.18657658 0.30031085
-0.39409396 -0.14550526 0.30160046
-0.29042107 -0.14510728 0.29297936
-0.39399362 -0.10433125 0.30083334
-0.26950645 0.34644359 0.28818917
-0.35246491 0.38881463 0.29745674
