ply
format ascii 1.0
comment PCL generated
element vertex 936
property float x
property float y
property float z
element camera 1
property float view_px
property float view_py
property float view_pz
property float x_axisx
property float x_axisy
property float x_axisz
property float y_axisx
property float y_axisy
property float y_axisz
property float z_axisx
property float z_axisy
property float z_axisz
property float focal
property float scalex
property float scaley
property float centerx
property float centery
property int viewportx
property int viewporty
property float k1
property float k2
end_header
0.18762811 0.0052935267 -0.14983261
0.20137796 0.0052865269 -0.15073466
0.21536796 0.005294594 -0.14969587
0.18748817 0.019135805 -0.15104449
0.20106316 0.01910132 -0.15329075
0.21486066 0.019096851 -0.15357232
0.22880487 0.019109348 -0.15276384
0.20142172 0.033002757 -0.15037942
0.21477987 0.03291481 -0.15418935
0.22833979 0.032870203 -0.15612006
0.24227823 0.032890208 -0.15525949
0.21522602 0.046847254 -0.15078044
0.22853442 0.046726041 -0.15471554
0.24210469 0.046672732 -0.15644598
0.25612536 0.046714932 -0.15507817
0.22917943 0.060728602 -0.15006042
0.24246792 0.060578443 -0.15396261
0.25609607 0.060528181 -0.15526855
0.27060539 0.060692534 -0.15099895
0.25656846 0.074488983 -0.1522001
0.2706275 0.074550793 -0.15086222
0.13326268 -0.022526436 -0.13709664
0.14701605 -0.022509273 -0.13932252
0.16079746 -0.022496972 -0.14092624
0.17474486 -0.02249828 -0.14076042
0.1890475 -0.022523034 -0.13754046
0.13329713 -0.0085674562 -0.13668978
0.16045988 -0.0085674562 -0.14429939
0.17416197 -0.0085674962 -0.14616883
0.18799515 -0.0085674562 -0.14665389
0.14690706 -0.008567417 -0.14050245
0.20201252 -0.008567417 -0.1455828
0.14712095 0.0053832168 -0.13818717
0.16052051 0.0053407839 -0.14369357
0.17402887 0.0053121923 -0.14740396
0.23004894 0.0053400723 -0.14378548
0.16101149 0.019324597 -0.13878727
0.17432195 0.019233681 -0.14468443
0.24355964 0.01920584 -0.14649844
0.17491771 0.033261985 -0.13915634
0.18818338 0.03312654 -0.14502382
0.25743362 0.033090591 -0.1465807
0.1888694 0.047207437 -0.13908267
0.20207459 0.047022797 -0.14507878
0.27262127 0.047224559 -0.13852882
0.20286429 0.06116721 -0.13866746
0.21602374 0.060935467 -0.14468443
0.21697077 0.075170398 -0.13744795
0.23010366 0.074895911 -0.14339066
0.24318673 0.074634589 -0.14904809
0.28611493 0.074996598 -0.14121163
0.2442212 0.088882692 -0.14197516
0.257397 0.088621803 -0.14681864
0.27109051 0.088558093 -0.14799798
0.28553453 0.088739216 -0.14463866
0.25852555 0.1029573 -0.13948858
0.27204481 0.1027969 -0.14209497
0.286143 0.10286148 -0.14104593
0.28694969 0.11712006 -0.13628256
0.021838469 -0.16302556 -0.12636209
0.035834052 -0.16289896 -0.12785804
0.049882531 -0.16293927 -0.12738132
0.0077805463 -0.14890261 -0.12741888
0.021786017 -0.14880912 -0.12863302
0.035878383 -0.1489796 -0.12641823
0.064083733 -0.050752498 -0.12375724
0.078077719 -0.050723508 -0.12501371
0.09214361 -0.050728649 -0.12478888
0.10622465 -0.050737903 -0.12439501
0.12027421 -0.050735608 -0.12448871
0.021910766 -0.036699004 -0.12323141
0.03594242 -0.036681999 -0.12433875
0.04995852 -0.036665387 -0.12540722
0.063934036 -0.036641069 -0.12699807
0.077928476 -0.03662885 -0.1277833
0.091884442 -0.036610141 -0.12899697
0.10578956 -0.036584318 -0.13067496
0.1197106 -0.036566839 -0.13181031
0.13364102 -0.036554303 -0.13262844
0.14757179 -0.036543783 -0.13330662
0.16167156 -0.036561064 -0.13219154
0.050044075 -0.022633485 -0.12318456
0.06403695 -0.022621386 -0.12477005
0.078005061 -0.022609087 -0.12636209
0.091923527 -0.022593742 -0.1283623
0.10576955 -0.022573695 -0.13096356
0.11951684 -0.022547789 -0.13432753
0.092126861 -0.0085674562 -0.12506056
0.10598602 -0.0085674562 -0.12783933
0.1196555 -0.0085674962 -0.13252616
0.21725418 -0.0085675353 -0.13528228
0.1062201 0.0054888055 -0.12446058
0.11994874 0.0054561011 -0.12871706
0.13362056 0.0054241084 -0.13287008
0.13404576 0.019492986 -0.12784863
0.1475838 0.019411007 -0.13317668
0.14812173 0.033534579 -0.12735343
0.16156927 0.033399291 -0.13321376
0.16216975 0.047572963 -0.12721312
0.17556518 0.047390141 -0.13314867
0.17633794 0.061655566 -0.12597847
0.1895975 0.061393887 -0.13277721
0.19054373 0.075764619 -0.12458253
0.20378907 0.075460829 -0.13115907
0.21805231 0.089572057 -0.12918365
0.23118736 0.089227848 -0.13556957
0.23250727 0.10378532 -0.1260438
0.24549727 0.10334145 -0.13325083
0.3017562 0.10344744 -0.13153124
0.26017243 0.11763915 -0.12879157
0.273287 0.11724981 -0.1344111
0.30190122 0.11750606 -0.13071203
0.27488494 0.13199033 -0.12452626
0.28838435 0.13173744 -0.12781131
0.30251911 0.13178268 -0.12722242
0.036341414 -0.17845118 -0.11138093
0.050175145 -0.17767528 -0.11977923
0.064521141 -0.17818271 -0.11428678
0.064510629 -0.16402879 -0.11451447
0.050346054 -0.14983255 -0.11533868
0.0079828724 -0.050971426 -0.11427736
0.022025561 -0.050879478 -0.1182605
0.036020495 -0.050797701 -0.12180316
0.050060339 -0.05077555 -0.12276185
0.13449639 -0.050780967 -0.122527
-0.0061733024 -0.036793754 -0.11707032
0.0078809131 -0.036734831 -0.12089992
-0.02028648 -0.022726141 -0.11116219
-0.0061681326 -0.022685807 -0.11639869
0.0079067331 -0.022664055 -0.11922288
0.021975482 -0.022654722 -0.12042916
0.036017016 -0.022643372 -0.12191594
0.022074455 -0.0085674562 -0.11614335
0.036142372 -0.0085674562 -0.11784506
0.050204173 -0.0085674562 -0.11902475
-0.0061480077 -0.008567417 -0.11378419
0.0079624522 -0.008567417 -0.11560392
0.064243525 -0.008567417 -0.12029743
0.078213744 -0.0085673779 -0.12248933
0.0080475435 0.0055995742 -0.1100769
0.022186635 0.0055902414 -0.11128581
0.03633029 0.0055867219 -0.11174226
0.05044388 0.0055786148 -0.11279714
0.064498372 0.0055633504 -0.11477983
0.078471646 0.0055408487 -0.11770332
0.092398167 0.0055180695 -0.12065518
0.078794904 0.019741572 -0.11170435
0.092742495 0.019689808 -0.11506414
0.10662939 0.019635985 -0.11855292
0.12040354 0.019570457 -0.12280881
0.10706898 0.033884443 -0.11220813
0.12088314 0.033783399 -0.11657846
0.13456646 0.033665121 -0.12169969
0.13514921 0.047954626 -0.1148175
0.14872308 0.04776907 -0.12084341
0.14940497 0.062137313 -0.11346161
0.16292977 0.061900318 -0.11961877
0.16370754 0.076352946 -0.11184692
0.17719923 0.076069325 -0.11798668
0.19154988 0.090289548 -0.11586893
0.20487772 0.089941896 -0.12232018
0.20600857 0.10458012 -0.11313891
0.21931386 0.10418565 -0.11954343
0.23397096 0.11856132 -0.11548066
0.24711664 0.11809721 -0.12217939
0.24870993 0.13300952 -0.11128581
0.26182437 0.13248789 -0.11806226
0.31891248 0.13276537 -0.11445737
0.27672425 0.14700961 -0.11314845
0.29004025 0.14659601 -0.11803389
0.30391043 0.14648332 -0.11936426
0.31922802 0.14704332 -0.11274958
0.30560032 0.16146044 -0.10981989
0.065052144 -0.20769097 -0.10279036
0.079375714 -0.2078919 -0.1009258
-0.12005921 -0.19385976 -0.098874569
0.050783627 -0.19334969 -0.10397041
0.064742431 -0.19279672 -0.10949576
0.079286635 -0.19348894 -0.102579
-0.10547151 -0.1789376 -0.1061157
-0.091218449 -0.17880417 -0.10755897
-0.16278484 -0.13681599 -0.099318027
-0.1772463 -0.12272002 -0.096818686
-0.16242892 -0.12228141 -0.10394156
-0.14857039 -0.12259758 -0.098807096
-0.17680489 -0.10817006 -0.10203147
-0.16218206 -0.10789426 -0.10714817
-0.14830707 -0.10813902 -0.10260773
-0.19140832 -0.094128348 -0.097977519
-0.176713 -0.093890995 -0.10311663
-0.16206007 -0.093631573 -0.10873306
-0.14830041 -0.093910091 -0.10270381
-0.19133703 -0.079838447 -0.09874928
-0.17653847 -0.079591125 -0.10517752
-0.16207476 -0.079461575 -0.1085422
-0.14830308 -0.079687856 -0.10266542
-0.19148949 -0.065635152 -0.097098947
-0.1766464 -0.065425597 -0.10390317
-0.16228732 -0.065367825 -0.10578084
-0.14846693 -0.065536529 -0.10030031
0.022381948 -0.0654587 -0.10282874
0.036517978 -0.065371893 -0.10564685
0.050675288 -0.065336898 -0.10678494
0.064948514 -0.065390758 -0.10503399
-0.17702325 -0.051313818 -0.099452734
-0.16262478 -0.051268891 -0.10139716
-0.0061160205 -0.051078789 -0.10962915
-0.02028648 -0.036910772 -0.10947669
-0.034520976 -0.022801954 -0.10131061
-0.034531049 -0.0085674962 -0.10000193
-0.02028648 -0.0085674562 -0.10860884
-0.02028648 0.0056435103 -0.10436332
-0.0061032465 0.0056157885 -0.1079694
-0.02028648 0.019955162 -0.097823024
-0.0060444297 0.019916644 -0.10032928
0.0081730392 0.019892046 -0.10192585
0.022373969 0.019872786 -0.10317409
0.036559567 0.019855544 -0.10429621
0.05070474 0.019829009 -0.10601997
0.064771496 0.019785192 -0.10886645
0.036796659 0.034244902 -0.096596479
0.050988294 0.03419745 -0.09865284
0.06513115 0.034141295 -0.1010797
0.079179116 0.034060739 -0.1045742
0.093163528 0.033976309 -0.10822725
0.079597041 0.04850886 -0.096818686
0.093640439 0.048395962 -0.10048318
0.10759521 0.048268817 -0.10461247
0.12143277 0.04812032 -0.10943854
0.122037 0.062594354 -0.10158932
0.13576385 0.062364511 -0.10755897
0.13648291 0.076943174 -0.09906733
0.1501437 0.076647729 -0.10546494
0.16464461 0.091010831 -0.10248291
0.17812048 0.090636007 -0.10943854
0.17929846 0.10548106 -0.09850812
0.19274572 0.10504969 -0.10551262
0.20739675 0.11950441 -0.10186815
0.22065622 0.1189904 -0.10928607
0.22233962 0.13415378 -0.096422434
0.23559512 0.13358898 -0.10375941
0.25066066 0.14829662 -0.097948551
0.26377711 0.14766739 -0.10537875
0.27890086 0.16239682 -0.099684
0.29189998 0.16171607 -0.10705256
0.32100064 0.16207613 -0.1031549
0.30781499 0.17688121 -0.097311258
0.065958731 -0.23855464 -0.083162069
0.051547572 -0.22406958 -0.084122539
0.065492511 -0.22301494 -0.093255997
0.079768106 -0.2229701 -0.093643904
-0.14927836 -0.20922141 -0.088588357
-0.13477866 -0.20892881 -0.091304183
0.051220298 -0.20878646 -0.09262526
-0.14950502 -0.19521652 -0.085316777
-0.1345576 -0.19425799 -0.094893694
-0.10592413 -0.19411574 -0.096316099
-0.14951316 -0.18086967 -0.085199356
0.079831377 -0.18019809 -0.092469931
-0.16371593 -0.1663398 -0.087222576
-0.14941156 -0.16638699 -0.086665869
-0.17826997 -0.15218887 -0.084729671
-0.16320147 -0.15148237 -0.093905687
-0.14905047 -0.15163854 -0.09187758
-0.1777536 -0.13740416 -0.090827823
-0.14883815 -0.13711911 -0.094942331
-0.19227746 -0.1232281 -0.088568807
-0.19164759 -0.10852815 -0.095387459
-0.20651446 -0.09451887 -0.089523792
-0.20645408 -0.0801704 -0.090127349
-0.20666565 -0.065914787 -0.088013053
-0.20712659 -0.051684439 -0.083407044
-0.1918364 -0.051454954 -0.093343258
-0.14887437 -0.051430121 -0.094419241
-0.02028648 -0.051406667 -0.095435858
-0.19241086 -0.037254825 -0.087124825
-0.17760713 -0.037171222 -0.092557311
-0.16310677 -0.037131559 -0.095135808
-0.14936893 -0.037252452 -0.087281108
-0.17826749 -0.022929292 -0.084759116
-0.16387242 -0.022926049 -0.085189581
-0.034566201 0.005712281 -0.095435858
-0.034618985 0.020097608 -0.088578701
-0.02028648 0.034449875 -0.087720394
-0.0059739836 0.034370027 -0.091177821
0.0083080139 0.034324355 -0.09315896
0.022562509 0.034281522 -0.095009923
0.0084448755 0.04889527 -0.084269524
0.022766268 0.048836268 -0.086187124
0.037047446 0.048766509 -0.088451862
0.05130595 0.048706517 -0.090399861
0.065493412 0.048619121 -0.093236566
0.065920256 0.063271463 -0.083995104
0.080075748 0.063119844 -0.087934971
0.094168007 0.0629666 -0.091916323
0.10816599 0.062795013 -0.096374035
0.108821 0.077504143 -0.086919665
0.12271512 0.077233568 -0.092780709
0.13733971 0.091740139 -0.088948965
0.15106924 0.091390073 -0.095445514
0.15202478 0.10630671 -0.085101604
0.16573027 0.1059044 -0.09163475
0.18045793 0.12048248 -0.0877496
0.19402558 0.12001983 -0.094429016
0.20895319 0.13470739 -0.08923161
0.22407623 0.14954963 -0.083152294
0.23741393 0.1489161 -0.090633154
0.25267142 0.16382705 -0.08420074
0.2659485 0.16317354 -0.091275096
0.28121713 0.17807756 -0.085355997
0.29427925 0.17731225 -0.09300375
0.32293528 0.17734434 -0.092683434
0.31022301 0.19261225 -0.083711147
0.066441961 -0.25429803 -0.072700024
0.08091861 -0.25435117 -0.07229352
0.052004009 -0.2398971 -0.072263598
0.080353014 -0.2386006 -0.082789421
-0.16435458 -0.22466959 -0.078926206
-0.14997166 -0.22470944 -0.078581452
0.095123507 -0.22496115 -0.076401234
-0.16437505 -0.21029145 -0.078660369
0.094711371 -0.20981365 -0.083093405
-0.16452767 -0.19608103 -0.076677799
-0.17945673 -0.18220772 -0.070714831
-0.16407986 -0.18111944 -0.082495093
-0.13583836 -0.1818953 -0.074097157
-0.17893006 -0.16721097 -0.076934576
-0.13573723 -0.1673122 -0.075739264
-0.19326743 -0.15271819 -0.077852011
-0.13559012 -0.152697 -0.078128099
-0.19288296 -0.13801487 -0.082014084
-0.13550882 -0.13819259 -0.079448223
-0.1354119 -0.12369289 -0.081021905
-0.13560104 -0.10946769 -0.077950597
-0.13602462 -0.095371008 -0.071072459
-0.20773186 -0.037405178 -0.077358961
-0.19316456 -0.022973981 -0.078965664
-0.14995117 -0.02297461 -0.078876972
-0.19399285 -0.0085674562 -0.069999099
-0.16461514 -0.0085674562 -0.075541615
-0.17899111 -0.008567417 -0.076213598
-0.034680486 0.034614585 -0.080589414
-0.034750614 0.049289033 -0.071479559
-0.02028648 0.049034588 -0.079743624
-0.005902987 0.048966609 -0.081955314
0.0086229984 0.063706234 -0.072700024
0.023004124 0.063583598 -0.075887561
0.037343487 0.063470021 -0.078837633
0.051657066 0.063376181 -0.08127749
0.052057132 0.078244917 -0.070883751
0.066383824 0.078102872 -0.073958516
0.080623329 0.077926688 -0.077773213
0.094734319 0.077698156 -0.082720637
0.095434546 0.092688419 -0.071350574
0.10953812 0.092407286 -0.07656908
0.12347064 0.092062481 -0.08296597
0.1244084 0.10718843 -0.07078445
0.13832533 0.10678656 -0.07730937
0.1532336 0.12157273 -0.072015643
0.16689073 0.1210167 -0.080038786
0.18193781 0.13587853 -0.074017882
0.19541037 0.1352305 -0.082436085
0.21070513 0.15023936 -0.075007677
0.23943524 0.1645804 -0.076045632
0.26831907 0.17902616 -0.075877666
0.29690206 0.19327991 -0.077516675
0.32529327 0.19302064 -0.079920769
0.066907004 -0.27014795 -0.062631249
0.081556045 -0.2704483 -0.060464144
-0.20980436 -0.25639856 -0.056649208
-0.19490986 -0.25595054 -0.060072303
-0.18038684 -0.25599533 -0.05973053
0.052427262 -0.25579414 -0.061267376
-0.19441737 -0.24074197 -0.0654037
-0.17953755 -0.24020536 -0.069760323
-0.16521041 -0.24044575 -0.067808747
0.095773101 -0.24068658 -0.065853119
-0.17975684 -0.22602698 -0.067170739
-0.18034342 -0.21227638 -0.060243011
-0.17984387 -0.19713521 -0.066142797
-0.19402961 -0.167832 -0.069601297
-0.13667732 -0.081311785 -0.060474157
-0.20857096 -0.023050936 -0.068974257
-0.15081823 -0.0085674562 -0.066362381
-0.20947689 -0.008567417 -0.059921503
-0.19503249 0.0059946012 -0.058744669
-0.17998096 0.0059501119 -0.064523697
-0.16549563 0.0059534339 -0.064103603
-0.15149327 0.006011053 -0.056619048
-0.049319837 0.020465901 -0.064653754
-0.049410813 0.035119034 -0.058744788
-0.034849498 0.064247578 -0.058634043
-0.02028648 0.06401398 -0.064703703
-0.0058074268 0.063827761 -0.069541574
-0.005710355 0.078889363 -0.056931496
0.0088036507 0.078702942 -0.060966253
0.023271644 0.078548752 -0.064303637
0.037690148 0.078397565 -0.067579508
0.052496478 0.093328752 -0.059468985
0.066914409 0.093166925 -0.062471032
0.081215076 0.092934161 -0.066791534
0.096179262 0.1078984 -0.059257865
0.11037194 0.10757333 -0.06453383
0.12541115 0.12256039 -0.057757974
0.13940799 0.12209169 -0.064523816
0.1544084 0.13701163 -0.059298038
0.16825734 0.13646632 -0.066382289
0.1834332 0.151498 -0.060142636
0.19715925 0.15089278 -0.067290425
0.2125719 0.16607623 -0.05985105
0.22617681 0.16540672 -0.067100763
0.24164997 0.18060891 -0.06006217
0.25514042 0.17988256 -0.067320108
0.27082214 0.19520853 -0.059619784
0.28388789 0.19421549 -0.06883502
0.29958427 0.2095262 -0.061678886
0.31315151 0.20889211 -0.067170739
0.32810828 0.20917918 -0.064683795
0.067437001 -0.28635848 -0.05115664
0.082075633 -0.28640753 -0.050821781
-0.22525378 -0.27209681 -0.048566341
-0.21043628 -0.27185184 -0.050334573
-0.19569503 -0.27168024 -0.051572561
0.052817591 -0.27174208 -0.051126242
-0.22565471 -0.25794309 -0.044846177
0.09644746 -0.25662708 -0.054902792
-0.22460467 -0.052349925 -0.054589391
-0.2246951 -0.037768647 -0.053750038
-0.2110469 0.0061064381 -0.044233203
-0.19630602 0.020769142 -0.044958472
-0.18098669 0.0206507 -0.052646637
-0.16634484 0.020644214 -0.053072095
-0.04959166 0.050042897 -0.046998382
-0.034951791 0.079424426 -0.04534626
-0.02028648 0.079071276 -0.052990913
-0.0056106364 0.094163373 -0.043977618
0.0090138391 0.093983673 -0.047314167
0.023565421 0.093753554 -0.051582575
0.038052499 0.093525887 -0.055811763
0.053015709 0.10871614 -0.045979023
0.067496084 0.10847609 -0.049877524
0.081878603 0.10819255 -0.054478288
0.097020268 0.12340272 -0.045601487
0.11129383 0.12301295 -0.051227689
0.12648377 0.13820285 -0.043824434
0.14057082 0.1376664 -0.050791383
0.15581891 0.15286262 -0.04402864
0.1697374 0.15222201 -0.051592708
0.19905035 0.16690211 -0.050913095
0.2283444 0.18156198 -0.050537705
0.25778827 0.19632971 -0.049217105
0.28661129 0.2106452 -0.051988125
0.31627813 0.22556439 -0.04951179
0.33179221 0.22615159 -0.044743896
-0.71324635 -0.303444 -0.035146594
0.068019517 -0.30292076 -0.038544893
0.082636468 -0.30263299 -0.040414095
-0.71237403 -0.28834751 -0.037557602
-0.25625125 -0.28877562 -0.034630537
-0.24106215 -0.28821665 -0.038452387
-0.22598985 -0.2877363 -0.041736484
-0.21182108 -0.28850266 -0.036496997
0.053232282 -0.28793871 -0.040352345
-0.24098264 -0.27340281 -0.03914094
0.097396627 -0.27335441 -0.039490223
-0.22711338 -0.24494104 -0.031311512
-0.21140857 -0.24379462 -0.040619254
-0.15278752 -0.2441248 -0.037938118
-0.1966614 -0.22903606 -0.04111135
-0.13827078 -0.22978801 -0.034599543
-0.19659133 -0.21425644 -0.041869879
-0.22618654 -0.023274571 -0.039911151
-0.21245307 0.02099669 -0.030181885
-0.15244348 0.02080074 -0.042903781
-0.19751023 0.035738446 -0.03192234
-0.18217994 0.035585321 -0.038555026
-0.16729558 0.035535298 -0.040721774
-0.15327893 0.035763361 -0.030845284
-0.049679615 0.064915322 -0.041285634
-0.035050742 0.094782352 -0.032491565
-0.02028648 0.09443035 -0.039027929
0.0092296302 0.10949709 -0.033298135
0.02389645 0.10925369 -0.037248731
0.038498528 0.10900257 -0.041326523
0.082634807 0.12375999 -0.040444613
0.053589836 0.12440992 -0.031062841
0.06817887 0.12413066 -0.035094976
0.097876079 0.13913578 -0.031705022
0.11222381 0.13866624 -0.037804484
0.12752916 0.15402974 -0.030244112
0.1418013 0.15352027 -0.036260009
0.17135745 0.16833463 -0.035404325
0.18532416 0.16767018 -0.042596698
0.20111419 0.18331304 -0.03303957
0.2148952 0.1825176 -0.040988207
0.23081167 0.1982193 -0.031684399
0.24437819 0.19728278 -0.040372849
0.26035565 0.21299222 -0.031663656
0.27361175 0.21185622 -0.041500807
0.28984001 0.22771931 -0.032015443
0.3030363 0.22657642 -0.041296005
-0.27328083 -0.32108989 -0.01719451
-0.25840142 -0.32109335 -0.01717329
0.054036751 -0.32072499 -0.019451618
0.068545863 -0.3194806 -0.027149081
0.083356306 -0.31949577 -0.027055383
-0.27249101 -0.30527878 -0.023229718
-0.25702548 -0.30449116 -0.028344631
-0.24214536 -0.30437922 -0.029071808
0.053631335 -0.30423862 -0.029984832
0.098277204 -0.29015622 -0.025191545
-0.16813888 -0.25991648 -0.029767036
-0.15366919 -0.26051256 -0.025212169
-0.13891247 -0.24581955 -0.024179697
-0.21285968 -0.23076725 -0.026118636
-0.22776172 -0.0085675353 -0.025295496
-0.18365651 0.050839797 -0.02111733
-0.16835241 0.050658949 -0.026993036
-0.049863506 0.080163665 -0.029341578
-0.035168257 0.11048674 -0.017225981
-0.02028648 0.11001606 -0.024868131
-0.0055034785 0.10969657 -0.03005743
0.0094764289 0.12536557 -0.017268181
0.024262222 0.12507869 -0.021410346
0.038978033 0.12477765 -0.025754213
0.068911083 0.14009513 -0.019241691
0.083447762 0.1396243 -0.0253582
0.098767743 0.1551321 -0.017225981
0.11318365 0.15456267 -0.0239501
0.14316337 0.16974142 -0.020174861
0.15739359 0.16911262 -0.026982427
0.18731688 0.18420714 -0.024106622
0.21728465 0.19930731 -0.021588206
0.24704199 0.21420625 -0.02114892
0.27664524 0.22897787 -0.021797657
0.31995228 0.24291337 -0.028760195
0.30663809 0.24405608 -0.020028234
-0.70949847 -0.33819053 -0.0040941238
-0.3050077 -0.33824474 -0.0037744045
-0.28961545 -0.33774734 -0.0067112446
0.054404229 -0.33720657 -0.0099041462
0.069135942 -0.33644971 -0.014373422
0.084089123 -0.33660501 -0.013455987
-0.28861657 -0.32161924 -0.013920069
-0.28927726 -0.30744609 -0.0091520548
0.099207565 -0.30730259 -0.010084152
-0.18491872 -0.27796561 -0.0062118769
-0.16932385 -0.27683476 -0.014373541
-0.15442014 -0.27683476 -0.014373541
-0.13961774 -0.26214644 -0.012727618
-0.22906271 0.0063450998 -0.013223648
-0.21439865 0.036227748 -0.010740399
-0.1992863 0.051099181 -0.012695789
-0.15443327 0.051053427 -0.01418376
-0.18482874 0.066224456 -0.0072742701
-0.1695742 0.066076398 -0.011121392
-0.050111167 0.095818974 -0.013255477
-0.02028648 0.12590589 -0.009469986
-0.0053764088 0.1256232 -0.013550878
0.024650319 0.14122202 -0.0046052933
0.039478153 0.14084417 -0.0095124245
0.054253317 0.14051205 -0.013825178
0.084261112 0.15572171 -0.010264277
0.099593528 0.17125243 -0.0038170815
0.11432502 0.17091459 -0.007475853
0.12879473 0.17032994 -0.013804078
0.15912494 0.18579508 -0.0082401037
0.17329662 0.18501554 -0.016027093
0.20364022 0.20043077 -0.011163712
0.23351373 0.21537393 -0.011036634
0.26334471 0.23028001 -0.011227012
0.29326051 0.24525639 -0.010856867
0.33721638 0.24466372 -0.015384793
0.070142336 -0.37028277 0.0074155331
-0.71187568 -0.35436213 0.0026195049
-0.3220365 -0.35557997 0.0094982386
0.054866455 -0.35427096 0.00210464
0.084728673 -0.35361728 -0.0015871525
-0.3219052 -0.34034804 0.0086451769
0.069658972 -0.35335836 -0.0030494928
-0.3053073 -0.32359055 -0.0017259121
-0.18622065 -0.29518104 0.0091634989
-0.17064436 -0.29424739 0.0027803183
-0.15521945 -0.29342598 -0.0028362274
-0.14084496 -0.29489389 0.0072000027
-0.14019932 -0.2783713 -0.0032840967
-0.23045042 0.02145602 -0.00034749508
-0.21600868 0.051654726 0.0053479671
-0.20093225 0.066701703 0.0051220655
-0.15541336 0.066502944 -3.7312508e-05
-0.17079896 0.081740052 0.0047887564
-0.05031731 0.11155579 0.00013387203
-0.03528659 0.12643363 -0.0018541813
-0.0052326657 0.14197057 0.0051220655
0.009739574 0.1415628 -0.00017631054
0.040027291 0.15729539 0.0083215237
0.054882132 0.15680344 0.0025123358
0.069657497 0.15632989 -0.0030813217
0.069938652 0.17188284 0.003005743
0.084807016 0.17159277 -0.0001333952
0.13040249 0.18732813 0.0070815086
0.14478166 0.18651308 -0.0010638237
0.17549708 0.20227651 0.0059612989
0.18959659 0.2013157 -0.0029532909
0.21990483 0.21661185 -0.00031530857
0.24983244 0.23153825 -0.0010104179
0.27987692 0.24657145 -0.00080728531
0.31037554 0.26197407 0.0020403862
0.32459131 0.26133689 -0.0025587082
0.070696391 -0.38766283 0.019411206
0.085907854 -0.38783297 0.02029562
0.0555868 -0.37275925 0.020819902
0.085356899 -0.37077338 0.010071039
-0.33895779 -0.35758838 0.020841837
-0.17169479 -0.31138408 0.016425848
-0.15625536 -0.31072053 0.012116075
-0.14161378 -0.31188568 0.019684076
-0.23253165 0.036913559 0.018963933
-0.18653399 0.08211305 0.012863636
-0.15649143 0.08223588 0.015523314
-0.17188093 0.09754853 0.018843889
-0.050601508 0.12785004 0.018593073
-0.035421867 0.14278641 0.015718937
-0.02028648 0.14247072 0.011617899
0.010065692 0.15836944 0.02100575
0.025104122 0.15786466 0.015045047
0.055180565 0.17255351 0.010265589
0.05536703 0.1881317 0.015110373
0.070255004 0.18760578 0.0098547935
0.085473523 0.18784392 0.012235165
0.10050675 0.18772154 0.011011839
0.11552273 0.18760143 0.0098116398
0.07070294 0.20374115 0.019553185
0.16127692 0.20325655 0.015055776
0.19217753 0.21907245 0.020994782
0.20624331 0.21796231 0.011379719
0.22273301 0.23445213 0.022646666
0.23654504 0.23315628 0.012127042
0.25312409 0.2496537 0.022745132
0.26666394 0.24817768 0.011466384
0.29720733 0.26357004 0.013557911
0.071081072 -0.40449351 0.027739644
0.086525291 -0.40529698 0.031753659
0.055924796 -0.38962379 0.029601336
-0.17265388 -0.32853898 0.028884888
-0.15724562 -0.3281388 0.026408911
-0.14225169 -0.32872611 0.03004241
-0.12704529 -0.28309003 0.030770779
-0.23437546 0.052600749 0.036072373
-0.21823628 0.067567088 0.027607799
-0.20264216 0.082610421 0.023632407
-0.18791676 0.098106325 0.029193282
-0.15763427 0.098258659 0.0320189
-0.17312777 0.11370561 0.035040855
-0.050813831 0.14406936 0.03238368
-0.02028648 0.15963495 0.035950303
-0.0050641447 0.15887836 0.027013659
0.025537761 0.17472942 0.033822179
0.040490992 0.173765 0.023380399
0.040856525 0.19014725 0.035251498
0.086092994 0.20419142 0.023731112
0.1014922 0.20454511 0.027013779
0.1170973 0.20514068 0.032538414
0.13218361 0.20489059 0.03021872
0.14683022 0.20412652 0.02312839
0.17780548 0.22000009 0.029028177
0.20887947 0.23587619 0.034209728
0.23943783 0.25115684 0.034231901
0.27019146 0.2666221 0.035584211
0.28372914 0.26504654 0.024213433
0.31457698 0.28063276 0.026848674
0.33019754 0.28096274 0.029105425
-0.71212465 -0.42367029 0.046738863
0.071792588 -0.4229233 0.043144703
-0.70936126 -0.40669948 0.038761735
0.056217469 -0.40638793 0.037204862
-0.71148401 -0.39256606 0.044889569
-0.17362007 -0.34590125 0.041436076
-0.15806751 -0.34536558 0.038272142
-0.14292245 -0.34581631 0.040933967
-0.12775062 -0.31560782 0.043860078
-0.12737584 -0.29923853 0.03690505
-0.21957326 0.083411038 0.040967584
-0.20412716 0.098672904 0.039708138
-0.18921366 0.11428864 0.044509053
-0.15855472 0.11433763 0.045304179
-0.17411555 0.12987864 0.047872543
-0.066460632 0.12995498 0.04897356
-0.2048907 0.14526935 0.047973752
-0.18912652 0.14492345 0.043480039
-0.17392302 0.14506906 0.045371413
-0.06640099 0.14514764 0.046391249
-0.035632819 0.1602423 0.043122172
0.010396395 0.17552979 0.042485595
0.14888461 0.22212048 0.047389746
0.16348734 0.2211497 0.038984299
0.19466351 0.23708962 0.044061542
0.22563963 0.25272891 0.046245456
0.25677401 0.26849306 0.049086094
0.30130333 0.28239474 0.038895369
-0.15969078 -0.3803122 0.061701894
-0.17477275 -0.363886 0.056410074
-0.15887207 -0.36273053 0.049884677
-0.14360338 -0.36310354 0.051991105
-0.19066373 -0.34932193 0.061633587
-0.12868874 -0.34926027 0.061269283
-0.12817115 -0.33222151 0.051664233
-0.23585799 0.068422318 0.049828649
-0.2363417 0.084027566 0.054316759
-0.14397115 0.084196031 0.057962894
-0.22061329 0.099300779 0.051359773
-0.14423858 0.099890575 0.06230545
-0.20528996 0.11476829 0.052295685
-0.20583129 0.13059118 0.058155656
-0.19000587 0.13029392 0.053864837
-0.15969315 0.1308392 0.061735988
-0.1595875 0.14621142 0.060211301
-0.18981284 0.16095887 0.051585436
-0.17439963 0.16095698 0.051562786
-0.15911806 0.16111556 0.053435683
-0.066665605 0.16148931 0.057849407
-0.051083274 0.160815 0.049884558
-0.0048860051 0.17623839 0.050154805
-0.02028648 0.17721453 0.060723305
0.010706458 0.19288667 0.062624574
0.026049467 0.19222157 0.055979609
0.13414751 0.22308347 0.05573082
0.18026613 0.23826636 0.053616285
0.21161047 0.25424895 0.057860732
0.24314304 0.27035794 0.062544942
0.28803527 0.28433827 0.052182913
0.32039282 0.30114093 0.061189651
-0.70668542 -0.44536677 0.076070547
-0.16047934 -0.39799204 0.073083758
-0.14501661 -0.39834926 0.07493937
-0.17572814 -0.38162747 0.068820477
-0.14430949 -0.38063642 0.063456774
-0.12926334 -0.36663428 0.071932673
-0.2531316 0.053524703 0.066072226
-0.14482225 0.11596828 0.071783304
-0.03587047 0.17844044 0.073993683
-0.0047198618 0.19379851 0.071737289
0.042071134 0.2096843 0.074697137
0.057224825 0.20846415 0.063377023
0.10423939 0.22491848 0.071622372
0.11926468 0.22401783 0.063821912
0.15123112 0.24091271 0.07510078
0.16594842 0.23974575 0.065626383
0.1977094 0.25614187 0.072323918
0.27441171 0.28613076 0.064438224
0.30623925 0.30240944 0.069428444
-0.71007013 -0.4788745 0.086063385
-0.70828128 -0.46201855 0.080782056
-0.16133739 -0.41604781 0.08546865
-0.14573474 -0.41627437 0.086600065
-0.17662124 -0.39940435 0.080422401
-0.12983343 -0.384157 0.082512259
-0.25473639 0.06958244 0.079970121
-0.14540789 0.13219404 0.081292629
-0.051550217 0.17901492 0.080213666
-0.02028648 0.19472235 0.080967546
0.026628954 0.21037114 0.081072092
0.073918991 0.2269461 0.089182377
0.089094125 0.22581947 0.079425454
0.13640983 0.24214652 0.085119128
0.18333481 0.25770655 0.084280491
0.22933587 0.27225772 0.076255322
0.26109037 0.28844142 0.080236912
0.29313308 0.30485204 0.085294008
-0.71304983 -0.49665067 0.094860435
-0.16227311 -0.43452731 0.098974347
-0.1464539 -0.4343825 0.098277807
-0.17778794 -0.4180713 0.095578551
-0.13048108 -0.40211955 0.094531178
-0.25661755 0.085964851 0.096261382
-0.24102987 0.10180417 0.09781754
-0.22544566 0.11768446 0.099647999
-0.14644955 0.14913636 0.098206997
-0.036008131 0.19581407 0.091876864
-0.0045076441 0.21233615 0.099305272
0.011120385 0.21128051 0.089510083
0.058596335 0.22808096 0.099009871
0.12164124 0.24374846 0.098124504
0.16892432 0.25948104 0.097841144
0.21548006 0.27435231 0.09137249
0.24726896 0.29046512 0.0940727
0.27949417 0.30699125 0.099187136
-0.70248878 -0.50038761 0.11052024
-0.16344391 -0.45394611 0.11587369
-0.14731018 -0.45315039 0.11218202
-0.17887016 -0.43674332 0.10963666
-0.13108067 -0.42008868 0.10565805
-0.02028648 0.21338275 0.10901618
0.043145522 0.22930242 0.10958898
0.10659885 0.2452032 0.10993516
0.15436906 0.26135486 0.11215818
0.20178214 0.27694944 0.11011422
0.23389359 0.29327148 0.11325932
-0.70439994 -0.51767516 0.11629403
-0.57875252 -0.51916492 0.12234175
-0.1317808 -0.43861693 0.11865103
-0.052152753 0.19856332 0.1193496
-0.036224537 0.21456517 0.11998832
0.011707926 0.23139058 0.12767184
0.027485957 0.23029484 0.11818171
0.091411285 0.24674174 0.12242651
0.13962947 0.2632896 0.12694359
0.18734467 0.27892178 0.12434947
0.26609993 0.30963975 0.11639023
-0.71023476 -0.53806257 0.13392079
-0.69382626 -0.53777719 0.13279748
-0.63015121 -0.53818679 0.13440967
-0.61347961 -0.53763157 0.13222396
-0.59694409 -0.53717017 0.13040805
-0.18052727 -0.45724168 0.13116324
-0.13298415 -0.45935813 0.14098239
-0.14896727 0.16836853 0.1390897
-0.02028648 0.2330768 0.14227486
-0.004229879 0.23228148 0.1353879
0.07594081 0.24803859 0.13295627
0.12467106 0.26524121 0.14185596
0.22019719 0.29604518 0.1322242
0.25276387 0.31266829 0.13606143
0.30073071 0.32850075 0.13464212
-0.18235266 -0.47855937 0.15487564
-0.16537976 -0.47609031 0.1438154
-0.14966138 -0.47755143 0.15036058
-0.22991629 0.13656084 0.14432144
-0.16611928 0.18587622 0.15448928
-0.036494922 0.2345591 0.1551125
0.044528477 0.25069249 0.15450191
0.060303807 0.24932137 0.1433717
0.17320427 0.28166875 0.14417338
0.20652157 0.29924357 0.15409088
-0.21605015 0.17088255 0.16877806
-0.18286863 0.18653111 0.1615783
-0.052887134 0.2196371 0.16704905
0.0285543 0.25191689 0.16444218
0.10946865 0.26716226 0.15653479
0.1586825 0.28429094 0.16309726
0.23950545 0.31617254 0.15882206
-0.13500635 -0.28717285 0.17850983
-0.20077346 0.18832746 0.18102396
-0.15112153 0.18768503 0.17407072
-0.0038839802 0.25387251 0.18032146
0.012398655 0.25291371 0.1725359
0.094138123 0.26932076 0.17303038
-0.23426008 0.15602759 0.18772697
-0.16866742 0.20576057 0.19126856
-0.02028648 0.25519705 0.19107497
0.14415729 0.28743145 0.18576169
0.19324543 0.30351764 0.18331349
0.22726108 0.32149598 0.19339919
-0.18577017 0.20656127 0.19927037
0.07891497 0.2725035 0.19734859
-0.20375267 -0.47557235 0.21620679
-0.13665339 -0.27454892 0.20907497
-0.20393956 0.20847711 0.21841371
-0.1537327 0.20828266 0.21647096
-0.036911938 0.25743991 0.20928478
0.17999513 0.30854511 0.21768641
-0.22120635 0.19235238 0.2245959
0.063414775 0.27601701 0.22419679
-0.13867374 -0.26225442 0.24656796
-0.13874912 0.19451125 0.24796712
-0.18899316 0.22762179 0.2411381
-0.17208505 0.22756353 0.24059808
0.13197461 0.29595473 0.24727428
-0.2065365 -0.46572664 0.24908197
-0.22387256 -0.4327051 0.25345814
0.047690988 0.28033683 0.25720716
-0.13989832 -0.2477911 0.26929331
-0.20876209 -0.45405525 0.27536511
-0.22693366 -0.42186174 0.28659534
-0.15790929 -0.077378832 0.28428984
-0.14040069 0.18018331 0.27861631
-0.15736565 0.23132117 0.27546275
-0.21083993 -0.44164357 0.29990339
-0.15843192 -0.060372069 0.2927767
-0.15881734 -0.04320012 0.29903483
-0.22853857 -0.40771735 0.30396938
-0.14176303 -0.21681297 0.3038981
-0.15923046 -0.025935477 0.30574298
-0.15960082 -0.0085674562 0.31175733
-0.15973391 0.0088634416 0.31391811
-0.15967888 0.078552864 0.31302452
-0.21261212 -0.42818695 0.32083166
-0.14261378 -0.20079601 0.31968606
-0.16007663 0.026380116 0.31948328
-0.160157 0.043883972 0.32078826
-0.16000348 0.061291106 0.31829572
-0.14276078 0.16639589 0.32241404
-0.14325124 -0.18423137 0.33151567
-0.21444383 -0.41453287 0.34246337
-0.14381249 -0.16738671 0.34193134
-0.14435719 -0.15036273 0.35203969
-0.14379337 0.15022707 0.34157658
-0.14498864 -0.13326961 0.36375785
-0.14508773 0.11623375 0.36559677
-0.14456078 0.13346034 0.35581779
-0.21740031 -0.38487566 0.37737763
-0.14534678 -0.11576194 0.37040389
-0.14565115 -0.098113701 0.3760525
-0.14591995 -0.080358006 0.38104069
-0.14592323 0.081173114 0.38110173
-0.1455995 0.098843627 0.37509394
-0.14609399 -0.062484868 0.38427067
-0.14623126 -0.044551611 0.38681829
-0.14625362 -0.026562758 0.38723302
-0.14631161 -0.008567417 0.38830912
-0.14638627 0.0094468258 0.38969469
-0.14629918 0.027436236 0.38807845
-0.14632156 0.045447633 0.38849378
-0.14618492 0.063374557 0.38595808
-0.21900301 -0.36987022 0.39630461
-0.13105614 -0.21164523 0.44780767
-0.13137081 -0.19370794 0.45462036
-0.13165253 -0.17561643 0.46071959
-0.1317523 -0.15718864 0.46287978
-0.1319911 -0.13888955 0.46805024
-0.13206789 -0.12034891 0.46971273
-0.13213336 -0.10177326 0.47113025
-0.13216765 -0.083154954 0.47187245
-0.13219509 -0.064521812 0.47246671
-0.13225766 -0.027229428 0.47382128
-0.13214859 -0.0085675754 0.4714601
-0.13207322 0.010063747 0.46982813
-0.1320177 0.028676325 0.46862614
-0.13208692 0.047332801 0.47012472
-0.13228132 -0.045899034 0.47433376
-0.32690996 0.048924454 0.53904676
-0.71479744 -0.068096943 0.62727785
-0.71645784 -0.088129863 0.63344038
-0.70545447 -0.12947953 0.66739571
-0.7049253 -0.10924967 0.6653738
-0.71064377 -0.15069987 0.6872226
0 0 0 1 0 0 0 1 0 0 0 1 0 0 0 0 0 936 1 0 0
