ply
format ascii 1.0
comment PCL generated
element vertex 1398
property float x
property float y
property float z
element camera 0
property float view_px
property float view_py
property float view_pz
property float x_axisx
property float x_axisy
property float x_axisz
property float y_axisx
property float y_axisy
property float y_axisz
property float z_axisx
property float z_axisy
property float z_axisz
property float focal
property float scalex
property float scaley
property float centerx
property float centery
property int viewportx
property int viewporty
property float k1
property float k2
end_header
0.21173535 -0.63447416 0.092229486
0.42167753 -0.63444442 0.092104912
0.25416893 -0.61495131 0.098607779
0.44279313 -0.59264916 0.092976451
0.46418214 -0.57221866 0.095625281
0.27447525 -0.54982221 0.089012742
0.48510814 -0.5300498 0.095001698
-0.48005837 -0.52842593 0.086888075
-0.50234652 -0.50870579 0.093303561
0.29534912 -0.50765914 0.087864637
0.31760734 -0.51035893 0.10189414
0.50662738 -0.50963044 0.098107696
0.31631708 -0.48670828 0.087926507
0.33870894 -0.48934674 0.10220766
0.50498658 -0.48671401 0.087957621
0.3378101 -0.4666838 0.093225598
0.33779919 -0.44566184 0.093116522
0.29576617 -0.42460623 0.09278965
0.31745833 -0.42581734 0.10028124
0.19097783 -0.40431434 0.097389102
0.14885192 -0.34097469 0.095609784
0.148644 -0.31912124 0.088857412
0.16982278 -0.298778 0.094284654
0.23322609 -0.17312238 0.10026574
0.25415918 -0.1309101 0.098466992
0.25380254 -0.10962834 0.093318939
0.27540055 -0.088921085 0.10103273
0.27462709 -0.067548051 0.090985298
0.29619133 -0.046719529 0.097810745
0.29558045 -0.025569454 0.090596676
0.77998573 -0.025674917 0.097435832
0.31700808 -0.0046234243 0.095407248
0.77943432 -0.0046227071 0.095328927
0.31617677 0.016397007 0.086407661
0.3385945 0.016397055 0.10106397
0.3379426 0.037410602 0.094549537
0.35946441 0.058496881 0.099264383
0.35842484 0.079324074 0.089618325
0.38039708 0.10056565 0.098248243
0.37937009 0.12126555 0.089354157
0.40192884 0.12176093 0.10222316
0.40067494 0.14236325 0.092042685
0.42225051 0.16359693 0.096483469
0.42122811 0.18414453 0.088671207
0.44384003 0.18487495 0.10053158
0.44223958 0.20513445 0.088981748
0.46460694 0.20579588 0.098529458
0.46366727 0.22634581 0.092104912
0.48482746 0.24743167 0.093178749
0.50533283 0.26815036 0.090099812
0.52783793 0.26898265 0.099107981
0.5261808 0.28905195 0.089323163
0.5488258 0.28999671 0.098764062
0.69496685 0.31049132 0.093645811
0.77795994 0.31006569 0.089695692
0.33810645 0.58410716 0.096186996
0.44480765 -0.63812184 0.10751498
0.27636689 -0.61841041 0.11358583
0.2973012 -0.57551473 0.11091745
0.48709285 -0.57486278 0.10789275
0.50925732 -0.57626021 0.11437619
0.29659417 -0.55263966 0.10256803
0.48636234 -0.5527603 0.10314822
0.50846124 -0.55407035 0.10945165
-0.46337932 -0.53287262 0.10910499
0.50761217 -0.53189069 0.10419929
0.34003437 -0.51296818 0.11545169
0.55186731 -0.51306283 0.11594248
0.52881455 -0.51093256 0.10487437
0.36131811 -0.49198085 0.11646497
0.36036545 -0.4692333 0.10762525
0.38264877 -0.44983336 0.11774826
0.36013335 -0.4477542 0.10547137
0.33934879 -0.42716238 0.10860121
0.36129594 -0.42840031 0.11625886
0.21244806 -0.40555632 0.10545564
0.23395984 -0.40659148 0.11217988
0.14927959 -0.38504994 0.10949886
0.14915799 -0.36337399 0.10554981
0.23409994 -0.23760638 0.11445522
0.23373264 -0.21593419 0.10849082
0.2334442 -0.19445282 0.10380709
0.25546756 -0.19549546 0.11735201
0.2552833 -0.17412189 0.11469245
0.25476426 -0.15249172 0.10720038
0.27639246 -0.13174251 0.11391747
0.27589956 -0.11028408 0.10751522
0.29765567 -0.089462683 0.11510372
0.29688659 -0.068011135 0.10602129
0.76391667 -0.068348877 0.11698771
0.31853712 -0.047046326 0.1119591
0.78278035 -0.046957351 0.10811317
0.31792182 -0.025795955 0.10529864
0.33942604 -0.0047309399 0.10937285
0.36105388 0.016396958 0.11401236
0.78301936 0.016396912 0.10902631
0.36043841 0.037516542 0.10830176
0.78318012 0.037526865 0.10964084
0.38203317 0.058699347 0.11241674
0.78317189 0.058656245 0.10960937
0.38099909 0.079643756 0.10346198
0.40362835 0.079933994 0.11602151
0.78307295 0.079777218 0.10923111
0.40297836 0.10095055 0.11074412
0.42452997 0.12221039 0.11390185
0.42318428 0.14289805 0.10361862
0.44578028 0.14340231 0.11453426
0.44482511 0.1641984 0.10764098
0.46637267 0.18549517 0.11060238
0.48732311 0.20654839 0.10938859
0.48626339 0.22714636 0.10250533
0.50874418 0.22781581 0.11120152
0.50740421 0.24825579 0.10291302
0.52973115 0.2488803 0.11028695
0.76410592 0.24951068 0.11773217
0.55017197 0.2696529 0.10636687
0.57301646 0.27052304 0.11578393
0.76318496 0.27036801 0.11410737
0.78351849 0.27007475 0.11093354
0.57144803 0.29085064 0.1072948
0.59432161 0.29176667 0.11644912
0.74187279 0.29147235 0.11350679
0.76161021 0.29091179 0.10790837
0.78157121 0.29047027 0.10349321
0.63612717 0.31265926 0.11375952
0.67780882 0.31234944 0.1108861
-0.1465974 0.67161864 0.11046028
0.4678449 -0.64126056 0.12066793
0.49094129 -0.6441772 0.13288927
0.29872015 -0.62166405 0.1276747
0.46817046 -0.62055993 0.12289357
0.51081437 -0.59957677 0.12400758
0.34164155 -0.55865544 0.13151169
-0.44420499 -0.53498656 0.11966741
-0.42454851 -0.53673941 0.12842524
0.34068835 -0.53545088 0.12198687
0.36272943 -0.51568341 0.12955999
0.57546413 -0.51558185 0.12903249
-0.53215611 -0.49524927 0.13415587
0.38427871 -0.4948259 0.13186407
0.57578021 -0.49461883 0.13074327
0.38319695 -0.47186619 0.12249577
0.40540618 -0.45198539 0.13045549
0.38373601 -0.43016317 0.12716389
0.25565881 -0.40781265 0.12011194
0.27741829 -0.40891072 0.12724388
0.29927033 -0.40997735 0.13417196
0.19260789 -0.38844058 0.13268101
0.19259085 -0.36708224 0.13231242
0.21364191 -0.32389441 0.1276108
0.23491997 -0.28137523 0.12777054
0.23447277 -0.25937906 0.12050891
0.25646967 -0.23921007 0.13181603
0.255932 -0.21725222 0.12405527
0.27786028 -0.19669884 0.13298547
0.27762121 -0.17517421 0.12987971
0.27704421 -0.15342692 0.12238455
0.76825351 -0.1541459 0.13405967
0.29877561 -0.1325193 0.12832952
0.7675209 -0.13267249 0.13117552
0.29824257 -0.11095469 0.12203455
0.76604402 -0.11110833 0.1253618
0.32019109 -0.090030842 0.12986374
0.76435965 -0.089602306 0.11873126
0.3192932 -0.068445928 0.12014365
0.341842 -0.06885764 0.13351452
0.34104365 -0.047359839 0.12553704
0.34039271 -0.026007354 0.11903262
0.3631677 -0.026232086 0.1336267
0.362023 -0.0048357323 0.12300479
0.38373411 0.016397055 0.12714791
0.38305193 0.037616029 0.12123978
0.40573949 0.037707873 0.13316166
0.40465903 0.058883652 0.12438989
0.42634076 0.080204554 0.1277386
0.42551726 0.10127994 0.12144637
0.44817936 0.10160014 0.1318481
0.44722533 0.1226361 0.1249634
0.46848249 0.14388701 0.12502706
0.46758491 0.16480446 0.11888993
0.49045086 0.16538724 0.12970376
0.48923093 0.18618345 0.12178028
0.51207918 0.18680266 0.13183188
0.76815987 0.1869171 0.13369071
0.51000756 0.20721552 0.11901689
0.53278673 0.20786056 0.12832952
0.76648152 0.20777434 0.12708426
0.53149456 0.22854692 0.12069941
0.55408877 0.22914672 0.12848926
0.7253806 0.22949874 0.13306558
0.74656838 0.22946066 0.13256884
0.76531994 0.22868645 0.12251163
0.55252123 0.24967191 0.11963558
0.57538736 0.2504324 0.12861693
0.72421992 0.25039724 0.1282016
0.74505627 0.25024715 0.12642992
0.78550965 0.24957916 0.11854088
0.59574252 0.27126637 0.12383258
0.6182304 0.2718426 0.1300714
0.70374852 0.27199051 0.13167191
0.72367531 0.27145922 0.12591958
0.74360943 0.27096376 0.12055659
0.61648178 0.29225564 0.12133515
0.63907576 0.29291713 0.12794626
0.66174728 0.29356742 0.13444459
0.68247056 0.29329973 0.13176775
0.70222139 0.29262832 0.12505877
0.72269505 0.29230338 0.12181199
0.65883934 0.31343424 0.1209538
0.36266398 0.59091753 0.12895262
0.19249845 0.61248899 0.13031149
0.32139468 -0.62517852 0.14289308
0.49184871 -0.62422931 0.1387831
0.4921115 -0.60325629 0.14049006
-0.40479672 -0.53853893 0.13741577
-0.49107713 -0.51806611 0.14194107
0.5996843 -0.51852286 0.14431441
0.40764135 -0.49791849 0.14860308
0.59993631 -0.49736798 0.1456238
0.4063189 -0.47458756 0.13786626
0.59897929 -0.4750807 0.14065135
0.42842323 -0.45422038 0.14365208
0.42912418 -0.43369448 0.14900815
0.4063189 -0.43189329 0.13786614
0.32121736 -0.41102451 0.14097369
0.34320444 -0.41197219 0.1471287
0.21433333 -0.38957566 0.14044178
0.23629479 -0.39098755 0.15009475
0.21459426 -0.36887977 0.14528418
0.21409751 -0.34626901 0.13606584
0.23624882 -0.34800729 0.14934862
0.23578171 -0.32563749 0.14176357
0.23538435 -0.30351534 0.13531125
0.25730199 -0.283106 0.1438297
0.25680083 -0.26098883 0.13659596
0.27907127 -0.24077111 0.14871621
0.27854845 -0.2187655 0.14192498
0.30047995 -0.19788983 0.14845717
0.30014557 -0.1761876 0.14450824
0.77023113 -0.17600304 0.14184415
0.29959267 -0.15438718 0.13797879
0.3214066 -0.133311 0.14302242
0.34347689 -0.11223953 0.14985144
0.320813 -0.11162727 0.13659608
0.34283382 -0.090552792 0.14342582
0.36455309 -0.069256887 0.14648128
0.77139264 -0.047841892 0.14641666
0.3637408 -0.047669388 0.13894403
0.38587499 -0.026417777 0.14568853
0.38476574 -0.0049365573 0.13608205
0.40750366 -0.0050241482 0.14748502
0.40648937 0.016396958 0.13924992
0.42850357 0.037793312 0.14426601
0.42738634 0.059058305 0.1357286
0.45025408 0.059229329 0.14682102
0.44916707 0.080463976 0.13897634
0.4719047 0.080682166 0.14842451
0.47101539 0.10192336 0.14234459
0.46989745 0.12301093 0.13470137
0.49276006 0.12339579 0.14470208
0.49122769 0.14433584 0.13474953
0.51416498 0.14479727 0.14473462
0.74976444 0.14483443 0.1455431
0.51320809 0.16587824 0.13881516
0.53639042 0.16645971 0.14960825
0.748905 0.16605273 0.14205408
0.77109677 0.16622496 0.14525187
0.55791414 0.18792737 0.15009487
0.70708644 0.18768275 0.14612532
0.72769511 0.18747592 0.14276397
0.74779016 0.1871534 0.1375283
0.55568355 0.20849568 0.13749623
0.72657222 0.20853469 0.13805926
0.74727565 0.20835316 0.13543963
0.57849056 0.20904413 0.14541364
0.68578768 0.20912814 0.14662695
0.70624685 0.20884162 0.14248967
0.57726854 0.22994041 0.13879931
0.59979624 0.23040968 0.14489615
0.68548435 0.23043823 0.14526808
0.70508617 0.22983751 0.13746417
0.59783113 0.25094619 0.13468528
0.62104869 0.25174803 0.14415276
0.64309305 0.25201222 0.14727449
0.66461045 0.25205067 0.14772809
0.68465883 0.25152922 0.14157009
0.70442969 0.25094083 0.13462126
0.64053982 0.27229714 0.13499033
0.66274834 0.27267584 0.13908911
0.68386781 0.27257743 0.13802695
-0.5764125 0.72169143 0.14116704
-0.55494279 0.72158104 0.14073193
-0.53264403 0.72048551 0.1364193
-0.51159203 0.72083265 0.13778555
-0.49151015 0.72243762 0.14410436
0.34482104 -0.62988752 0.16328335
0.38747793 -0.56448734 0.1595701
-0.47175229 -0.52011979 0.15261197
-0.45226616 -0.52217662 0.1632998
0.43102878 -0.50068218 0.16356194
0.62540597 -0.50111842 0.16592312
0.42954689 -0.47713229 0.15223849
0.62417376 -0.47846499 0.1597662
0.45196855 -0.45685253 0.15919459
0.4523083 -0.43573755 0.16164637
0.36528218 -0.41291413 0.15324616
0.38764966 -0.41411677 0.16105759
0.258448 -0.39249042 0.16037071
0.23682502 -0.37073925 0.15870452
0.25879744 -0.35010976 0.16541433
0.25823647 -0.32755324 0.15731752
0.25781366 -0.30535176 0.15121484
0.28009933 -0.28507185 0.16207182
0.27953267 -0.2628018 0.15471065
0.75325203 -0.2633011 0.15970075
0.30197424 -0.24237734 0.1661036
0.30132145 -0.22015995 0.15839458
0.32342052 -0.19914985 0.16482389
0.32296389 -0.17725253 0.15988052
0.75216717 -0.17693511 0.15529668
0.32230896 -0.1552994 0.15279102
0.34514105 -0.15614238 0.1664809
0.75216717 -0.15545374 0.15529668
0.34419143 -0.1340636 0.15699148
0.36633742 -0.11284856 0.16303778
0.36567175 -0.091069967 0.15686119
0.38741571 -0.069643371 0.15903127
0.38652062 -0.047954381 0.15127993
0.4095161 -0.048243955 0.16382396
0.40861428 -0.02658426 0.15650225
0.43031836 -0.0051062424 0.15813351
0.42942148 0.016396912 0.15127981
0.45214742 0.016396863 0.16048539
0.4514578 0.037879992 0.15550852
0.47440642 0.037957117 0.16552937
0.47317439 0.059387498 0.15710568
0.49482536 0.080906086 0.15811718
0.49384773 0.10221365 0.15176713
0.51688576 0.10251537 0.16156471
0.73325688 0.10265413 0.1660707
0.75273728 0.10239352 0.15761101
0.51560408 0.12373974 0.15363657
0.53872865 0.124116 0.16341448
0.71149182 0.12418476 0.16520107
0.73273641 0.1241343 0.16388965
0.75113368 0.12364217 0.15110111
0.53697348 0.14518115 0.15305102
0.56069624 0.1457704 0.1658082
0.68903476 0.14555621 0.16117203
0.71015745 0.14547557 0.15942311
0.73128879 0.14540175 0.1578232
0.68780679 0.16678643 0.15567136
0.70940387 0.16681281 0.15616024
0.73016155 0.16664776 0.15309989
0.66846508 0.18888283 0.16561115
0.68691337 0.18802419 0.1516695
0.60164428 0.2096737 0.15449893
0.66687435 0.20993212 0.15823138
0.64514661 0.23135331 0.15715468
0.66610843 0.23116258 0.15467799
0.38682848 0.59611213 0.15394557
0.064764455 0.64019287 0.15904772
-0.47388792 0.72741801 0.16370916
-0.43210167 -0.52367491 0.17108524
-0.41163963 -0.52497131 0.17782152
-0.52005094 -0.50343889 0.17848384
0.45474923 -0.50358278 0.17926228
0.65024132 -0.50402695 0.18166649
-0.56344819 -0.48184067 0.17883146
-0.54054594 -0.48082221 0.17307973
-0.51932228 -0.48115838 0.17497778
0.64844638 -0.48081362 0.17303026
0.45315349 -0.47987789 0.16774559
0.47569424 -0.45941654 0.17433393
0.47552288 -0.43759912 0.1731621
0.43306607 -0.41689909 0.1791296
0.41037798 -0.41562003 0.17082179
0.28063607 -0.39375916 0.16904449
0.30282223 -0.39479378 0.1761179
0.25920972 -0.37249359 0.17136538
0.28157583 -0.35218233 0.18125176
0.28094167 -0.32948661 0.17301381
0.28060573 -0.30736494 0.16864979
0.30317268 -0.28703171 0.18025649
0.75677133 -0.28635612 0.17398727
0.30237657 -0.26441741 0.17085469
0.32503009 -0.24386865 0.18224752
0.75808704 -0.24359906 0.17932856
0.32431889 -0.22152796 0.17454851
0.75806665 -0.22192559 0.17924559
0.34651303 -0.20033279 0.18019032
0.75806665 -0.20025992 0.17924559
0.34586912 -0.17821398 0.17375624
0.36823601 -0.15701541 0.18065464
0.36708051 -0.13476112 0.16993284
0.38930857 -0.11342063 0.17542374
0.38865358 -0.091566116 0.16975188
0.41157478 -0.091981366 0.18053842
0.41040236 -0.070012502 0.17101943
0.43343931 -0.070350103 0.18198192
0.432419 -0.048483312 0.1741854
0.43146449 -0.026744194 0.16689146
0.45446706 -0.026903365 0.17722595
0.45333338 -0.0051901042 0.16904449
0.47633994 -0.0052648392 0.17874873
0.47524321 0.016396958 0.17124999
0.49831563 0.016397055 0.18078709
0.73703408 0.016397007 0.18189895
0.49738562 0.038028032 0.17474663
0.73552442 0.038034435 0.17557251
0.49613076 0.059533525 0.16659594
0.51913422 0.059670143 0.17547345
0.71507591 0.059750851 0.18072081
0.73446929 0.059603721 0.1711514
0.51769644 0.081101522 0.16657972
0.54095566 0.081332274 0.17656446
0.69269621 0.081355311 0.17757344
0.71342939 0.081263468 0.17359114
0.73377818 0.081140228 0.16825521
0.54020351 0.10284035 0.17212331
0.56341887 0.10311941 0.18118525
0.6707297 0.10296335 0.17611814
0.6913839 0.10282726 0.17169476
0.7120567 0.10270254 0.16764724
0.66975147 0.12443037 0.17157948
0.69081426 0.12433672 0.1691432
0.67020643 0.14613453 0.17369032
0.58305401 0.16756484 0.1701138
0.66973722 0.16764024 0.17151356
0.64924961 0.1895777 0.17689514
0.21586397 0.62079495 0.16884708
-0.043376237 0.665241 0.17436695
-0.50025314 -0.50515765 0.18778682
-0.48057264 -0.50712681 0.19844425
0.4769367 -0.48254839 0.18282866
0.49972719 -0.46206209 0.18995535
0.49927276 -0.43983683 0.18700373
0.45543224 -0.41767827 0.18419123
0.47829181 -0.41889495 0.19209385
0.32522959 -0.3960062 0.18440735
0.3476373 -0.39703271 0.19142497
0.28181106 -0.37428695 0.18430758
0.74021786 -0.37580174 0.19524002
0.30455646 -0.35419068 0.19659805
0.73857838 -0.35311398 0.18837047
0.30408448 -0.3317048 0.19102395
0.73815298 -0.33115846 0.18658733
0.30365521 -0.3093631 0.18595457
0.73729956 -0.30902332 0.18301141
0.32640374 -0.28884891 0.19711804
0.32547712 -0.26604182 0.18708706
0.34823555 -0.24526876 0.19740331
0.3475855 -0.22291321 0.19090712
0.36968517 -0.20140347 0.19410121
0.368958 -0.17915598 0.18735349
0.39138019 -0.15779805 0.19336486
0.39016742 -0.13545772 0.18286169
0.41329271 -0.13608411 0.19448626
0.41237313 -0.11395625 0.1870203
0.43555194 -0.11446922 0.198125
0.43472975 -0.09241645 0.19184291
0.45663381 -0.070685029 0.19286287
0.45533782 -0.048698582 0.18350971
0.47849733 -0.048929192 0.19349861
0.47766918 -0.027066648 0.18783689
0.50105482 -0.027232125 0.19857848
0.71858776 -0.027191222 0.19592738
0.49950624 -0.0053401012 0.18852031
0.52270103 -0.0054095313 0.19753754
0.71779507 -0.005370779 0.19249499
0.7404018 -0.0053977296 0.19601107
0.52143759 0.016396863 0.1897217
0.69647568 0.016396912 0.19450319
0.71697348 0.016396863 0.18893743
0.67556375 0.016397007 0.19854498
0.52067256 0.038106829 0.18498969
0.67449403 0.038173012 0.1935823
0.69597131 0.038162928 0.19224405
0.71623081 0.038112372 0.18572152
0.5426333 0.059839636 0.18647075
0.56596071 0.059979312 0.19554186
0.67410833 0.059921395 0.19179273
0.69406229 0.059796773 0.18369257
0.56456405 0.081588261 0.18765354
0.58811128 0.081815235 0.19748724
0.67260605 0.081522845 0.18482316
0.4128992 0.60387433 0.19129133
-0.46027768 -0.50864512 0.20666325
-0.43974733 -0.51005006 0.21426773
0.47946393 -0.50743407 0.20010781
0.67559272 -0.5071702 0.19867945
-0.48159909 -0.48625755 0.20377791
0.50112981 -0.48542321 0.19906569
-0.57011425 -0.4652352 0.20869172
0.52390611 -0.46460852 0.20499194
0.52319539 -0.44203401 0.20059538
0.50148964 -0.4203282 0.2014029
0.52502435 -0.42194572 0.21190906
0.37032527 -0.39829269 0.20004046
0.39311481 -0.39951363 0.20838714
0.41572708 -0.40037122 0.2142508
0.7411508 -0.39816257 0.19914973
0.30476969 -0.37633887 0.19911611
0.32763708 -0.37791196 0.21046877
0.32767147 -0.35605463 0.21084154
0.32717943 -0.33348963 0.20551515
0.72142613 -0.33382252 0.20821798
0.32681358 -0.31116444 0.20155454
0.34972799 -0.29048681 0.21231604
0.34879422 -0.26763278 0.20298564
0.37149298 -0.24651313 0.21087527
0.37074441 -0.22401583 0.20392954
0.39293915 -0.20238614 0.20686579
0.39219183 -0.18005946 0.20039368
0.41543865 -0.18085724 0.21190906
0.41465318 -0.15854743 0.20553207
0.43652123 -0.13667926 0.20553195
0.45877081 -0.11493852 0.20828569
0.45785677 -0.092795379 0.201689
0.48109585 -0.0931639 0.21126509
0.72225118 -0.093184158 0.21179056
0.47967559 -0.070952766 0.2015543
0.50303149 -0.071256436 0.21141756
0.72119582 -0.071127273 0.20722079
0.5017463 -0.049150288 0.20306993
0.52508187 -0.0493626 0.21226525
0.67874044 -0.049386203 0.21328306
0.69976777 -0.049293116 0.20925009
0.72018278 -0.049144939 0.20283425
0.52428824 -0.027367309 0.20735586
0.67769974 -0.02738408 0.20845485
0.69892269 -0.027338065 0.20546448
0.54599011 -0.0054769553 0.20629168
0.65607649 -0.0055034757 0.20974088
0.67642647 -0.0054480918 0.20254791
0.69798219 -0.005438203 0.20125163
0.54484886 0.016396912 0.19955289
0.56806743 0.016396912 0.2074405
0.56775039 0.038265854 0.20565021
0.65465844 0.038244974 0.20291829
0.65420353 0.060059063 0.20072997
0.65429801 0.10373531 0.20118415
0.23939756 0.62761289 0.2004776
-0.61399186 0.73894387 0.20908082
-0.4186821 -0.51099938 0.21940541
0.70164323 -0.51067507 0.21765089
0.52570778 -0.4884457 0.21613669
0.7041114 -0.49067146 0.22870719
-0.55040264 -0.46694863 0.21880901
-0.53074646 -0.46883416 0.22994268
0.54836112 -0.46719962 0.22029173
0.72498727 -0.46776655 0.22363853
0.54745889 -0.4443568 0.21496403
0.57199073 -0.44672266 0.22959948
0.54871953 -0.42356223 0.22240806
0.43898022 -0.40184414 0.2243222
0.35071909 -0.37954026 0.2222203
0.35097051 -0.35787255 0.22473264
0.72324705 -0.35674319 0.21610284
0.35043573 -0.33519846 0.21938837
0.35009331 -0.31282866 0.21596682
0.37342215 -0.31430763 0.22877562
0.37308043 -0.29191908 0.22560537
0.37201601 -0.26890793 0.21572864
0.39546907 -0.27021378 0.22877562
0.39485419 -0.24767482 0.2234503
0.39407057 -0.22509426 0.21666431
0.41757524 -0.22616041 0.22925591
0.41613328 -0.20320868 0.21754885
0.43981242 -0.20421946 0.23068106
0.43882143 -0.18163323 0.22310853
0.43799365 -0.15924031 0.21678317
0.46137005 -0.15987226 0.22704411
0.45989645 -0.13726547 0.21640885
0.48330349 -0.13780162 0.22635865
0.70416886 -0.13794208 0.22896445
0.48211455 -0.11539777 0.21822989
0.50553769 -0.11583491 0.22769511
0.70310968 -0.1156745 0.22421956
0.72448635 -0.1155474 0.22146893
0.50460005 -0.093561947 0.22160554
0.65960169 -0.093758009 0.22670138
0.68110508 -0.093663916 0.22425377
0.70176488 -0.093430586 0.21819568
0.52726614 -0.071698546 0.22577667
0.54988217 -0.071806297 0.2292732
0.65896857 -0.07163322 0.22365534
0.68020338 -0.071522884 0.22007
0.70143425 -0.071419574 0.2167151
0.54830337 -0.049540117 0.21995091
0.57187223 -0.04974746 0.22893
0.63825715 -0.049775362 0.23013151
0.65805334 -0.049523965 0.21925187
0.54777843 -0.027513482 0.21685135
0.63769752 -0.027674899 0.22733533
0.65723628 -0.027489781 0.21532094
0.57025832 -0.0055810306 0.21981466
-0.64044309 0.54530257 0.2275753
-0.64095014 0.63389719 0.22963381
-0.61869586 0.67781025 0.22879279
-0.61718041 0.69834185 0.22244239
-0.61547291 0.71857744 0.21528697
-0.59579021 0.72098839 0.22507477
-0.46205622 0.74077535 0.21629
-0.50943714 -0.49155068 0.23367321
0.55055445 -0.49147439 0.23324287
0.57326424 -0.46999425 0.23679233
0.59692007 -0.44923925 0.24516618
0.57275164 -0.42533109 0.23389697
0.46231484 -0.4032397 0.23386264
0.48557013 -0.40440875 0.24185598
0.50792581 -0.40460634 0.24320686
0.3740353 -0.38123697 0.23446524
0.39746392 -0.38284233 0.24605131
0.37422663 -0.35937849 0.23624039
0.37371451 -0.33668888 0.23148859
0.39707547 -0.3380681 0.24268711
0.39683956 -0.31567821 0.24064457
0.3963868 -0.29311714 0.23672318
0.41897154 -0.27139634 0.2405926
0.41831869 -0.24876881 0.23529232
0.44170117 -0.24967608 0.24511421
0.4409036 -0.22698718 0.23901951
0.46321625 -0.20496508 0.24036765
0.70741802 -0.20520771 0.24351871
0.46235782 -0.18239969 0.23417246
0.48620665 -0.18323353 0.24620771
0.70642519 -0.1827392 0.23907137
0.48495823 -0.16052675 0.23767221
0.66323406 -0.16092721 0.24417746
0.68545938 -0.16094446 0.2444551
0.70508176 -0.16024226 0.23305345
0.50714815 -0.13843739 0.23815572
0.66209012 -0.13846526 0.23867393
0.68420589 -0.13846341 0.23863912
0.52929527 -0.11632604 0.23832834
0.55269718 -0.11667559 0.24589515
0.64116913 -0.11661958 0.24468052
0.66061813 -0.11601492 0.23159182
0.68363297 -0.11621777 0.2359817
0.55245626 -0.094441995 0.24447238
0.63992542 -0.094210863 0.2384665
0.63872844 -0.071905263 0.23248601
-0.64446872 0.48183125 0.24391747
-0.64173329 0.50211412 0.23281288
-0.64391828 0.57005519 0.24168289
-0.64457983 0.59273911 0.24436796
-0.64262432 0.61325622 0.23642993
-0.6212889 0.63605803 0.23965871
0.26396638 0.63613629 0.24002206
-0.61965519 0.65666038 0.23281264
-0.6003179 0.6593098 0.24468029
-0.59890282 0.68006414 0.23855293
-0.59750569 0.70074266 0.23250341
-0.57759905 0.7030614 0.24221933
-0.57621425 0.72368383 0.23601639
-0.4439187 0.74624664 0.23782778
-0.46808457 -0.49424994 0.24891913
-0.44714856 -0.49551606 0.25606966
0.57751149 -0.49635017 0.26078057
0.59835368 -0.47272646 0.25292599
0.70978308 -0.47292742 0.25411284
0.62240553 -0.45202157 0.2623775
0.59744632 -0.42750469 0.24801469
0.62229061 -0.42962408 0.26178074
0.53189212 -0.4062424 0.2543925
0.55530727 -0.40725368 0.26130676
0.42107171 -0.38444868 0.25764406
0.39784932 -0.3610993 0.24938905
0.42147315 -0.36260605 0.26090324
0.42063469 -0.33947325 0.25409544
0.42030168 -0.31691918 0.25139177
0.44382483 -0.31806815 0.26134193
0.41984499 -0.29429853 0.2476846
0.44336152 -0.29538891 0.25780165
0.44241786 -0.27239683 0.25059032
0.46604228 -0.27341476 0.26076269
0.46522731 -0.25057825 0.25488114
0.68870616 -0.25100651 0.25951803
0.46450007 -0.22788593 0.24963248
0.48844075 -0.22888914 0.26148224
0.68745452 -0.22823137 0.25371146
0.70890731 -0.22793305 0.25018966
0.48697507 -0.20581919 0.25146139
0.66572756 -0.20618194 0.25617468
0.68698829 -0.20582584 0.25154853
0.50941145 -0.18369418 0.25285649
0.6437673 -0.18402714 0.25766146
0.66435331 -0.18346605 0.2495631
0.68604684 -0.183301 0.24718058
0.5092262 -0.1613878 0.25165308
0.53202194 -0.16160589 0.25519562
0.64311641 -0.16155759 0.25440967
0.64190263 -0.13898644 0.24834526
-0.64899015 0.44018868 0.26227212
-0.64696735 0.46122918 0.25406051
-0.62530124 0.52838117 0.25647187
-0.62472576 0.55019575 0.25406051
-0.62512177 0.57275671 0.25572014
-0.62524277 0.59511262 0.25622702
-0.62350714 0.61585939 0.24895382
-0.60361904 0.61794198 0.25897503
-0.601735 0.63846296 0.25081682
-0.58201689 0.64087558 0.26200902
-0.58054274 0.66170406 0.25540555
0.087033257 0.66219205 0.25759172
-0.57892388 0.68228137 0.24815392
-0.559147 0.68487352 0.25937796
-0.5578993 0.70577472 0.25358915
-0.5566228 0.72655386 0.24766719
-0.53699923 0.72959828 0.26002645
-0.42543983 0.75170326 0.25930774
-0.42617691 -0.49685997 0.26366007
0.62394065 -0.47567809 0.27035415
0.64758271 -0.43192491 0.27672458
0.57897216 -0.40838334 0.26903045
0.60289139 -0.40962026 0.27748728
0.44474101 -0.38593125 0.26834261
0.46843344 -0.38727209 0.27801955
0.44514757 -0.36398622 0.27144909
0.44432843 -0.34083986 0.26518989
0.46800107 -0.34203571 0.27489901
0.46757203 -0.31927598 0.27180278
0.69244927 -0.31986281 0.2768842
0.46706569 -0.29650402 0.26814854
0.49071938 -0.29746461 0.27706158
0.69152164 -0.29698184 0.27258074
0.49012864 -0.27464172 0.27302277
0.64742655 -0.27493402 0.27594435
0.67038232 -0.27519685 0.27857006
0.69027776 -0.27402005 0.26680946
0.48894185 -0.25150457 0.26490831
0.62537831 -0.25269762 0.2778244
0.64680636 -0.25223783 0.27284575
0.66893536 -0.25212348 0.27160835
0.6247403 -0.22999242 0.27450931
0.64597917 -0.22950149 0.26871276
0.66761231 -0.22920775 0.2652427
0.62427378 -0.20740685 0.27208543
0.64511561 -0.206815 0.26439846
0.62397802 -0.18491989 0.27054834
0.62376738 -0.16248399 0.26945388
0.62347543 -0.14004207 0.26793718
-0.65161228 0.41935882 0.27291656
-0.62979585 0.48690552 0.27530646
-0.62728506 0.50752878 0.26478529
-0.60782874 0.55447143 0.27720344
-0.60688365 0.57610387 0.2731111
-0.60563999 0.59741408 0.26772559
-0.58407313 0.62048715 0.27121961
-0.56196225 0.64312375 0.272439
-0.56090075 0.66440737 0.26751411
-0.53975195 0.6880818 0.27327049
-0.53810173 0.70857668 0.26533055
-0.51810706 0.71135902 0.27699065
-0.51677167 0.73213363 0.27031898
-0.40579855 0.755853 0.27564335
-0.51965904 -0.47811526 0.28474462
-0.49834353 -0.4791382 0.29078436
0.64990979 -0.47872606 0.28835118
-0.61024225 -0.45610774 0.28765428
0.6480267 -0.45469949 0.27894318
0.67281318 -0.43400946 0.29026508
0.62680274 -0.41075215 0.28522623
0.65094918 -0.41196883 0.29354465
0.4918223 -0.38818407 0.28460205
0.51575589 -0.38949537 0.29406488
0.46889389 -0.36528102 0.28134274
0.49277103 -0.36655629 0.29108882
0.49207795 -0.34344602 0.28635049
0.65081996 -0.34425256 0.29289877
0.67323011 -0.34417543 0.29227149
0.69397831 -0.34315383 0.2839781
0.51559299 -0.3217245 0.29300654
0.62821037 -0.32167065 0.29254043
0.64988112 -0.32117033 0.28820825
0.6719327 -0.32091871 0.2860291
0.49112976 -0.32020718 0.2798667
0.62699163 -0.29845029 0.28620756
0.64829344 -0.29781103 0.2802757
0.67141753 -0.29816383 0.28355038
0.51374519 -0.27544048 0.28100479
0.60601056 -0.27677804 0.29436994
0.62627459 -0.27558833 0.28248191
0.60519934 -0.25382042 0.28997898
-0.67796087 0.30898571 0.28851211
-0.65621674 0.3768875 0.29160821
-0.65478086 0.39865524 0.28577936
-0.63211626 0.46599725 0.28503001
-0.61149484 0.51232052 0.2930783
-0.60931098 0.53318805 0.28362167
-0.58922124 0.55762655 0.29428029
-0.58753473 0.57872367 0.28672552
-0.58618218 0.60000426 0.28066683
-0.56604773 0.6021511 0.29139316
-0.56398493 0.62269104 0.28182316
-0.54353732 0.62469876 0.29148281
-0.54193676 0.64556873 0.28378201
-0.54097897 0.66701019 0.27917397
-0.52090371 0.66964221 0.29096353
-0.51949489 0.69054234 0.28392458
-0.49763799 0.71377605 0.28711832
-0.43290246 -0.48126987 0.30337238
-0.4109537 -0.48197439 0.30753243
0.67631173 -0.48190081 0.30709779
-0.47659117 -0.4798457 0.29496229
-0.45485938 -0.48063451 0.29962075
-0.5917756 -0.45902857 0.30572236
0.6741181 -0.45754471 0.2965436
0.67436105 -0.41257846 0.29771256
0.54033625 -0.39123598 0.30662692
0.56366092 -0.39179105 0.31063247
0.60835528 -0.39129618 0.30706143
0.63069504 -0.39107299 0.30545104
0.65319473 -0.39097789 0.30476391
0.67467153 -0.3902078 0.29920638
0.60862976 -0.36884096 0.3085469
0.51738644 -0.36833173 0.30465531
0.63005877 -0.36800331 0.30214489
0.65177262 -0.36741596 0.29765856
0.67407322 -0.36724198 0.29632795
0.60745698 -0.34539804 0.30219901
0.62898421 -0.34470367 0.29656136
0.60675442 -0.32234672 0.29839635
0.60653174 -0.29963404 0.29719102
-0.68197918 0.26531139 0.30432999
-0.6797089 0.28711462 0.29539371
-0.66027325 0.33360085 0.30807579
-0.65752107 0.35496816 0.29690313
-0.63682979 0.42377412 0.30478203
-0.63458508 0.44503054 0.2953757
-0.61373049 0.49134341 0.30275869
-0.59108579 0.53655404 0.30263233
-0.56935078 0.55992424 0.30671751
-0.56765419 0.5810563 0.29884648
-0.54718578 0.58301741 0.30903625
-0.54565972 0.6042127 0.30169404
-0.52315611 0.62692976 0.30221725
-0.52178317 0.6480636 0.29535758
-0.50143778 0.65054345 0.30686224
0.29135966 0.65086341 0.30834734
-0.50039101 0.67197722 0.30142343
0.11002776 0.67271477 0.30472755
-0.49915451 0.69309968 0.29499841
-0.47882974 0.69588977 0.30707955
-0.47738189 0.71666926 0.2992425
-0.57144898 -0.46076313 0.31645191
-0.55048949 -0.4621338 0.32493103
-0.64184821 -0.43948218 0.32581103
-0.63914979 -0.41503432 0.31450367
0.58667564 -0.39205524 0.3125397
-0.68618971 0.22120255 0.32090461
-0.68408775 0.24332193 0.31263041
-0.66313207 0.31210473 0.31968081
-0.64070356 0.3805095 0.32101452
-0.63881987 0.40223342 0.31312132
-0.61918122 0.4267644 0.32636118
-0.61720437 0.44831038 0.317801
-0.61564535 0.47000343 0.3110503
-0.59637898 0.47235784 0.32634294
-0.59464723 0.49390185 0.3185854
-0.59327722 0.51560104 0.31244862
-0.57290554 0.51742345 0.32320929
-0.57115853 0.53876221 0.31510437
-0.55054277 0.54054761 0.32518768
-0.54888999 0.56186754 0.31723571
-0.52661484 0.58503079 0.3194983
-0.52513123 0.60629249 0.31208527
-0.50480932 0.60875356 0.32438135
-0.50278223 0.62934738 0.31384873
-0.48249042 0.63205844 0.32689345
-0.48098248 0.65310156 0.31873167
-0.47997963 0.67462927 0.31330311
-0.45920444 0.67705333 0.32416165
-0.45812678 0.69842875 0.3180747
-0.45690876 0.71952164 0.31119561
-0.52918786 -0.46333367 0.33235347
-0.50727731 -0.46411809 0.33720541
-0.69089437 0.17668819 0.33942449
-0.68846226 0.19899744 0.32985079
-0.66660333 0.26780468 0.3337723
-0.66508955 0.29009208 0.32762766
-0.64451879 0.33671838 0.33700204
-0.64232105 0.3585349 0.32779253
-0.62274987 0.38307124 0.3418138
-0.62111855 0.40506381 0.33474982
-0.5997293 0.42884132 0.34135044
-0.59802932 0.45064098 0.33373547
-0.57596207 0.47405854 0.33739042
-0.57452333 0.49586278 0.33071506
-0.55401385 0.49766871 0.34188795
-0.55239606 0.51926839 0.3341043
-0.52992606 0.54246926 0.33604169
-0.52836692 0.5639028 0.32825208
-0.5077827 0.56604213 0.33983183
-0.50621593 0.58737731 0.33169067
-0.48421472 0.61112434 0.33622658
-0.4617005 0.63442093 0.3382591
-0.46029311 0.65559733 0.33031058
0.31662565 0.65749806 0.33912861
-0.43933427 0.65797698 0.34135044
-0.43834454 0.67958599 0.3355062
-0.026480868 0.70073676 0.32806814
-0.27771538 0.74702066 0.33075202
-0.48559654 -0.46516898 0.34370565
-0.46307594 -0.46554428 0.34602737
-0.44076616 -0.46615496 0.34980547
-0.41844821 -0.46681568 0.35389245
-0.62422132 -0.44292682 0.34818542
-0.60358214 -0.44453159 0.35860872
-0.67030042 -0.42004773 0.34878111
-0.7178489 0.062433012 0.35492039
-0.69577736 0.13163058 0.35864627
-0.69322395 0.15421277 0.34859502
-0.67184973 0.22356966 0.35507023
-0.66953051 0.24586409 0.34565568
-0.64853162 0.29251152 0.3538177
-0.64661491 0.3147172 0.34578586
-0.62627804 0.33888346 0.35709131
-0.62479788 0.36117807 0.35068166
-0.60310537 0.38487685 0.35647333
-0.60126758 0.40682957 0.34824097
-0.58058417 0.4082157 0.35883391
-0.57922518 0.43039024 0.35252905
-0.57774764 0.45238742 0.34567416
-0.55705315 0.4539724 0.35651088
-0.55546206 0.475824 0.34885538
-0.53306532 0.49925947 0.35172629
-0.53136343 0.52081281 0.34322321
-0.51050663 0.52263546 0.35398591
-0.5091576 0.5444051 0.34697568
-0.48839152 0.54650474 0.35883391
-0.48710597 0.56826746 0.35187566
-0.48572344 0.58982193 0.34439266
-0.46464717 0.59184438 0.35490179
-0.46334594 0.61339116 0.34755254
-0.4422698 0.61561924 0.35868394
-0.44066519 0.63669699 0.34920955
-0.41844821 0.66068035 0.35389245
-0.41726691 0.68205917 0.34658515
0.13362822 0.68208015 0.34667802
-0.14158492 0.72715592 0.34318614
-0.25760502 0.75324136 0.35600543
-0.58315647 -0.44640371 0.37076795
-0.72280872 0.016396912 0.37387025
-0.72034311 0.039488334 0.36445034
-0.69856387 0.10892159 0.36961555
-0.67613113 0.17846781 0.37245071
-0.67361832 0.20099255 0.36225021
-0.65300524 0.2479355 0.3725642
-0.65055287 0.27021918 0.36228764
-0.62975961 0.29420641 0.37216699
-0.62820363 0.31668314 0.36542904
-0.60629231 0.34035534 0.370749
-0.60478532 0.36271578 0.36399853
-0.58255416 0.38629332 0.36797345
-0.55982012 0.40965369 0.36982334
-0.55832422 0.4317894 0.36262572
-0.53624916 0.45559922 0.36763394
-0.53485578 0.47764322 0.36067247
-0.51378733 0.47923827 0.37103248
-0.5120393 0.50091201 0.36194932
-0.49107862 0.50275958 0.37337828
-0.48980492 0.52475202 0.36648393
-0.46727228 0.5484336 0.36972868
-0.46598816 0.57022572 0.36247551
-0.44480324 0.57228893 0.37364316
-0.44361633 0.59410226 0.36663473
-0.42100823 0.61782986 0.36972892
-0.41950774 0.63903272 0.36044717
-0.3983565 0.64161015 0.37284803
-0.39728093 0.66326052 0.36586237
-0.3962248 0.68483126 0.35900271
-0.37491274 0.68748313 0.37088144
-0.53982979 -0.44867554 0.3855238
-0.56196684 -0.44784844 0.38015163
-0.72715962 -0.030186851 0.39049399
-0.72474152 -0.0068237223 0.38125491
-0.70330393 0.062946558 0.38827467
-0.70106179 0.086017385 0.37944829
-0.67820156 0.15570313 0.38085568
-0.65695971 0.20264828 0.389135
-0.65507466 0.22538266 0.38123584
-0.63388157 0.24927887 0.39001524
-0.63184088 0.27181885 0.38117886
-0.60990185 0.29556918 0.38691759
-0.60837865 0.31815073 0.38009477
-0.58592594 0.34174219 0.38361669
-0.58456075 0.36424965 0.3772831
-0.56360346 0.36549002 0.388026
-0.56208146 0.38786119 0.38070333
-0.54079777 0.38905045 0.39035988
-0.53915823 0.41126952 0.38216901
-0.53786522 0.43360206 0.37570846
-0.51682973 0.43514466 0.38684118
-0.5153594 0.45729086 0.37920117
-0.49413115 0.45885602 0.38990057
-0.49259716 0.480865 0.38159752
-0.47034276 0.50497299 0.38707054
-0.46891582 0.52687365 0.37901115
-0.44766998 0.52883154 0.39057052
-0.44628578 0.5506767 0.38239741
-0.42362648 0.57455796 0.38592482
-0.42228466 0.59621716 0.37762463
-0.40088171 0.59845459 0.38924992
-0.39963907 0.62012154 0.38117886
-0.37702096 0.64419729 0.38529491
-0.37602127 0.66597575 0.37846029
-0.35434091 0.66833854 0.38942218
-0.0048587397 0.71262902 0.37956226
-0.51766902 -0.44954979 0.39120257
-0.49547809 -0.45047182 0.39719117
-0.47268683 -0.45095196 0.40031004
-0.44950551 -0.45112121 0.40140879
-0.63702977 -0.42807269 0.40364742
-0.70565695 -0.40383291 0.39753735
-0.72985488 -0.0537166 0.40079188
-0.70792621 0.016396912 0.40647006
-0.70547622 0.03973753 0.39682591
-0.68276131 0.10983772 0.3993659
-0.68079758 0.13289097 0.39139414
-0.66082871 0.15683424 0.40534806
-0.65896022 0.17981857 0.39751816
-0.63753861 0.2036778 0.40585089
-0.63584089 0.22657847 0.39849937
-0.61353314 0.25029272 0.40318394
-0.61174905 0.2730056 0.39519238
-0.58953655 0.29681164 0.40036774
-0.58768082 0.31931794 0.3917582
-0.56670988 0.3204402 0.40297174
-0.56508499 0.34298539 0.39515376
-0.54251158 0.36674854 0.39892304
-0.51978916 0.3905113 0.40221894
-0.51838881 0.41294113 0.39494264
-0.49579805 0.43681872 0.39892292
-0.47303855 0.46066892 0.4022963
-0.47176039 0.48294017 0.39507723
-0.45045441 0.48477772 0.4070121
-0.44905192 0.50685781 0.3987304
-0.42622936 0.53077132 0.40202618
-0.4248454 0.55263633 0.39346468
-0.40341377 0.55480194 0.40569627
-0.40236509 0.57695234 0.39888442
-0.37947083 0.60091728 0.40204537
-0.37823552 0.62260735 0.39359927
-0.35659325 0.6250248 0.40567684
-0.35532421 0.64652985 0.39651811
-0.33274209 0.67111367 0.40229607
0.15833166 0.69475919 0.40347373
-0.61546975 -0.42927372 0.4118588
-0.59372973 -0.43043846 0.41982162
-0.73442715 -0.1011311 0.41826105
-0.73192394 -0.077331081 0.40869677
-0.71029788 -0.0070897397 0.41580606
-0.68695986 0.063379675 0.41640949
-0.68495965 0.086683646 0.40829003
-0.66474414 0.11052701 0.42175543
-0.66269767 0.13372943 0.41317976
-0.6409725 0.15754423 0.42071986
-0.63927156 0.18067202 0.41335487
-0.61679012 0.20441198 0.4177736
-0.61511445 0.22739393 0.41026723
-0.59432352 0.22824663 0.42257655
-0.5928306 0.25125229 0.41565025
-0.5911606 0.27408177 0.4079026
-0.57017154 0.27507457 0.41962647
-0.56833512 0.29777458 0.41079116
-0.54714406 0.29881629 0.42206836
-0.54558694 0.32157266 0.41428804
-0.54423904 0.34432194 0.40755391
-0.52282012 0.34544432 0.41796851
-0.52128959 0.36802921 0.41001523
-0.50015366 0.36947078 0.42249858
-0.49886328 0.39214879 0.41551375
-0.49748564 0.41465747 0.40805757
-0.4761588 0.41620961 0.41991937
-0.4745357 0.43845803 0.41075253
-0.45192063 0.46262494 0.41566968
-0.42887592 0.48653051 0.41839743
-0.42759615 0.50875759 0.41048086
-0.40588027 0.51057392 0.42171645
-0.40467966 0.53278553 0.4139185
-0.38180268 0.55697817 0.41798806
-0.38074434 0.57914484 0.4107523
-0.35892683 0.58131868 0.42251801
-0.35783768 0.60334426 0.41465771
-0.33466804 0.62729371 0.41701329
-0.3336482 0.64917004 0.4092201
-0.31170315 0.65168601 0.42132556
-0.31083155 0.67369014 0.41424918
-0.31004745 0.69574356 0.40788317
-0.28810173 0.698605 0.42070031
-0.12347296 0.74581689 0.42138422
-0.55050385 -0.43322217 0.43885458
-0.5721696 -0.43181601 0.42923987
-0.69127363 -0.40887454 0.43392146
-0.75993937 -0.3606106 0.42570877
-0.76077437 -0.14871094 0.42880785
-0.73833007 -0.12532565 0.43317306
-0.71465468 -0.054459468 0.43295634
-0.71253484 -0.030712005 0.42461181
-0.691293 0.016397007 0.43400061
-0.68914914 0.039956626 0.42529726
-0.66839576 0.063697636 0.43705726
-0.66638029 0.087152891 0.42861152
-0.64454484 0.11097156 0.4361887
-0.64301717 0.13436043 0.42957377
-0.62035549 0.15814593 0.43374419
-0.61801958 0.18120682 0.42328095
-0.59753835 0.18197253 0.43749154
-0.59581053 0.20513266 0.42947567
-0.57319587 0.22905025 0.43417752
-0.57174128 0.2521399 0.42717898
-0.54894918 0.27604502 0.43108726
-0.52597755 0.29995301 0.43437457
-0.52450591 0.32281753 0.42672765
-0.50309885 0.32398948 0.43843961
-0.5013665 0.34664008 0.4290632
-0.47882283 0.37091041 0.43496597
-0.47749966 0.39362419 0.42749286
-0.45456833 0.41769964 0.43130362
-0.45330572 0.44027254 0.42384803
-0.43156075 0.44181854 0.43500555
-0.43045729 0.46445471 0.42817962
-0.40850359 0.46600154 0.43875575
-0.40737444 0.48853576 0.43142176
-0.38424271 0.51266795 0.43467033
-0.38300359 0.53486508 0.4261986
-0.36115491 0.53696501 0.4385978
-0.36001068 0.5591653 0.43034029
-0.33698392 0.58357108 0.43470967
-0.33597785 0.60572398 0.42702222
-0.31374538 0.60781842 0.43790615
-0.31277478 0.62989807 0.43002558
-0.28958291 0.65422201 0.43352747
-0.28874344 0.67627829 0.42625737
0.017495386 0.72543287 0.43500543
-0.52847594 -0.43446568 0.44735682
-0.50542635 -0.43500397 0.45103776
-0.48220509 -0.43544745 0.45406902
-0.67129016 -0.41098964 0.44918633
-0.719253 -0.38749084 0.45105779
-0.7198 -0.10247639 0.45321083
-0.71703261 -0.078366429 0.44231725
-0.69560289 -0.031125963 0.45149624
-0.69355172 -0.0073004235 0.44316936
-0.67205077 0.016396912 0.45237303
-0.67026132 0.040107436 0.44487441
-0.64816737 0.063925669 0.45187449
-0.64624393 0.087497659 0.44354582
-0.62390941 0.11138637 0.44966388
-0.6221146 0.13482428 0.44162416
-0.60112441 0.13530552 0.45412862
-0.59925377 0.15868643 0.44545019
-0.57632369 0.18260491 0.44922614
-0.57491243 0.2059308 0.4424361
-0.55373675 0.20670506 0.45500731
-0.55241245 0.23003522 0.4483906
-0.55079669 0.25315112 0.44031787
-0.52925718 0.2540057 0.45141637
-0.5277921 0.27712172 0.44380355
-0.50467288 0.30111566 0.44695961
-0.48141104 0.32510492 0.44958448
-0.48011744 0.34806406 0.44227767
-0.45844072 0.34934556 0.45416844
-0.45730054 0.37235034 0.44743633
-0.45590073 0.39506251 0.43917084
-0.4345361 0.39681631 0.45341039
-0.43297344 0.41932768 0.44374406
-0.40975136 0.44346124 0.44686019
-0.38676488 0.46792623 0.45191455
-0.38554657 0.49040854 0.4435854
-0.3623879 0.5147413 0.44749618
-0.33918071 0.53914934 0.45149624
-0.33793539 0.56122625 0.44198036
-0.31570411 0.5633204 0.4538095
-0.31472343 0.58562875 0.44584715
-0.29160941 0.61035329 0.4510777
-0.29048121 0.6321559 0.44130743
-0.45932794 -0.43622816 0.45940733
-0.65004575 -0.41248918 0.46000826
-0.62839955 -0.41384286 0.46977723
-0.69950062 -0.38961902 0.46731913
-0.77154124 -0.34201986 0.46876931
-0.77052718 -0.31771967 0.46500564
-0.77196491 -0.19876215 0.4703418
-0.76980752 -0.17436233 0.46233463
-0.74437952 -0.15019152 0.45628583
-0.72248995 -0.12674007 0.46379995
-0.69970405 -0.079161666 0.46814466
-0.69764549 -0.055078946 0.45978785
-0.67608368 -0.031399626 0.46927321
-0.67423153 -0.0074417703 0.46151173
-0.65135771 0.016397007 0.4656893
-0.64983761 0.040216956 0.45910692
-0.62720424 0.06411881 0.46442306
-0.62549931 0.087803625 0.45678568
-0.60468864 0.088123977 0.4706645
-0.6028412 0.11176912 0.46209359
-0.57988769 0.13577703 0.46637344
-0.57823586 0.15928602 0.45842636
-0.55683422 0.15984276 0.47048306
-0.55523938 0.18332097 0.46251512
-0.53248823 0.20751765 0.46820533
-0.53091842 0.2308428 0.46004844
-0.50781763 0.25497276 0.46398091
-0.50628519 0.27812806 0.45568657
-0.48462957 0.27915037 0.46776199
-0.48292696 0.30214885 0.45814598
-0.46125144 0.30331472 0.47076535
-0.45963335 0.32626823 0.46121109
-0.43671942 0.35071945 0.46691668
-0.43571281 0.37388071 0.46068966
-0.41244292 0.39816287 0.46434259
-0.41112256 0.42090073 0.45576632
-0.38896495 0.42236519 0.46695673
-0.38780218 0.44514421 0.45900691
-0.36547524 0.44663668 0.46977699
-0.36450237 0.46951193 0.46275604
-0.36351168 0.49225944 0.45560658
-0.34119868 0.49400052 0.46691644
-0.34018189 0.51662469 0.45914698
-0.31775033 0.51844752 0.47042251
-0.31685305 0.54112107 0.46313739
-0.10176802 0.75389791 0.45524704
-0.60688752 -0.41537943 0.48086631
-0.75166428 -0.34379223 0.48411894
-0.72689241 -0.31945753 0.48113036
-0.77392054 -0.22322729 0.47760034
-0.75110543 -0.19956842 0.48198378
-0.74883527 -0.17503825 0.47330987
-0.72804481 -0.17579919 0.48566639
-0.7255789 -0.15125176 0.47595966
-0.70305806 -0.12756979 0.48176014
-0.70172387 -0.1033669 0.47634423
-0.67921877 -0.079600953 0.48241055
-0.67768413 -0.055452958 0.47597992
-0.65485799 -0.031577867 0.48084605
-0.6532203 -0.0075359065 0.47375441
-0.63214231 -0.0076344386 0.48654258
-0.63040394 0.016396912 0.47875583
-0.62882292 0.040313862 0.47167373
-0.60736501 0.0404016 0.48308146
-0.60593033 0.064303741 0.47642517
-0.5831576 0.088388227 0.48210573
-0.58160251 0.11215485 0.47462392
-0.55863613 0.13628176 0.47948599
-0.5354529 0.16044897 0.48361039
-0.53371185 0.1839703 0.47456336
-0.51201606 0.18462458 0.48670566
-0.5104574 0.20813751 0.4782691
-0.50916433 0.23162025 0.47126997
-0.48721951 0.23239067 0.48239028
-0.48606658 0.25588879 0.4758786
-0.46280396 0.28018105 0.47993243
-0.43947071 0.30453143 0.48393559
-0.43804067 0.32765719 0.47508919
-0.41477132 0.352072 0.47946572
-0.41351885 0.37510952 0.4713304
-0.39123118 0.37639338 0.48245108
-0.39008641 0.39942923 0.47462416
-0.36784071 0.40093488 0.48684824
-0.36671937 0.42390928 0.47875583
-0.34303224 0.44818154 0.48092735
-0.34203541 0.47105551 0.47330987
-0.31946236 0.47266623 0.48432255
-0.31849962 0.49547708 0.47650647
0.18437335 0.71012843 0.47232008
0.040742129 0.73706675 0.48538125
-0.56162715 -0.4172588 0.49443018
-0.53878355 -0.41815755 0.50091684
-0.58439767 -0.41637784 0.48807192
-0.68224847 -0.39325532 0.49510622
-0.80115837 -0.34440434 0.4894191
-0.73107326 -0.34534749 0.49758792
-0.80232567 -0.32080477 0.49363136
-0.70821291 -0.32178068 0.50268674
-0.80102253 -0.29624838 0.48892915
-0.77919525 -0.27296069 0.49717736
-0.77669799 -0.24806264 0.48790884
-0.75571638 -0.24905279 0.49960089
-0.75326526 -0.22420001 0.4902364
-0.73241031 -0.22517112 0.50285149
-0.73057818 -0.20051467 0.49563909
-0.7074073 -0.17664576 0.49941564
-0.70544803 -0.15208703 0.49146235
-0.6825664 -0.12824768 0.49643886
-0.68108135 -0.1039009 0.49021578
-0.65963095 -0.10433555 0.50151336
-0.65802819 -0.079975396 0.49457335
-0.65662569 -0.055742107 0.4885006
-0.63530529 -0.056023985 0.50071096
-0.63360137 -0.031766232 0.49307835
-0.61050504 -0.0077199731 0.49764955
-0.60900843 0.01639672 0.49070621
-0.58701605 0.016396912 0.50066984
-0.58590221 0.040495638 0.49531114
-0.58437639 0.064481497 0.48796999
-0.56291723 0.064679995 0.50087559
-0.56147546 0.088655435 0.49367213
-0.56029338 0.11255959 0.48776603
-0.53826928 0.11288232 0.49824476
-0.53694439 0.13673878 0.49136031
-0.51493436 0.13716751 0.50250137
-0.51377642 0.16103217 0.4962337
-0.49015391 0.18528515 0.49896383
-0.48863035 0.20888206 0.49035871
-0.46675521 0.20967665 0.50326324
-0.46556813 0.2333512 0.49625421
-0.46406841 0.25677541 0.48739886
-0.44210279 0.2577621 0.50021744
-0.4407801 0.28120595 0.49203503
-0.41736871 0.30567673 0.49633622
-0.41602719 0.3289116 0.48762333
-0.39355022 0.32998073 0.49830639
-0.39245945 0.3532989 0.49084914
-0.3700667 0.35459891 0.50291324
-0.3690418 0.37790209 0.49551606
-0.34542215 0.40245494 0.49918973
-0.34417558 0.42533693 0.48966432
-0.32080317 0.45016047 0.49520862
-0.51626128 -0.41937238 0.50968349
-0.49262381 -0.41981992 0.5129137
-0.46946943 -0.42070356 0.51929009
-0.66074467 -0.39472485 0.50633585
-0.63880765 -0.39604184 0.51639962
-0.70970225 -0.34663415 0.50873208
-0.76044506 -0.3233951 0.51766753
-0.78142935 -0.29790351 0.50546944
-0.76054847 -0.29916379 0.51806259
-0.75826871 -0.27408531 0.50935256
-0.73476648 -0.25011322 0.51212621
-0.71146822 -0.22617584 0.51590133
-0.70946288 -0.20135462 0.50776112
-0.68669593 -0.17752826 0.51374304
-0.68468702 -0.15283394 0.50532484
-0.66334236 -0.15349463 0.51758456
-0.66157979 -0.12887174 0.50995231
-0.63829333 -0.10481971 0.51409554
-0.63673156 -0.080360971 0.50709999
-0.61371028 -0.056296699 0.51251996
-0.6121639 -0.031955175 0.50534558
-0.59074348 -0.03215912 0.51860332
-0.58879924 -0.0078092366 0.50924921
-0.56530172 0.016397007 0.51278925
-0.56409276 0.040583655 0.50674891
-0.54099268 0.064857468 0.5123955
-0.53967953 0.088930011 0.50557244
-0.51761347 0.089194164 0.51700234
-0.51623452 0.1132302 0.50953877
-0.49273026 0.13759136 0.513515
-0.49157256 0.16152838 0.50697589
-0.46925801 0.1620394 0.51804173
-0.46799314 0.18591076 0.51057315
-0.44453752 0.21041664 0.51527822
-0.44336569 0.23416704 0.50802946
-0.41986358 0.25871092 0.51254082
-0.41866368 0.28228235 0.50474751
-0.39610237 0.28321466 0.51575613
-0.39485449 0.30668253 0.50722384
-0.37224662 0.30773759 0.51864505
-0.37118548 0.33124959 0.51098716
-0.34744614 0.35586441 0.51465571
-0.34649247 0.37927055 0.50736833
-0.32190186 0.42722979 0.50412893
-0.61596894 -0.39690554 0.52299893
-0.59350497 -0.3980689 0.53188956
-0.66458797 -0.34827933 0.52297807
-0.73979247 -0.30054963 0.53191066
-0.73757619 -0.27536336 0.52318668
-0.71614641 -0.27644464 0.53489256
-0.71378744 -0.2512303 0.52531612
-0.69004643 -0.22709036 0.52778316
-0.68833262 -0.20224413 0.52060163
-0.66666538 -0.20303205 0.53197372
-0.66535479 -0.17830151 0.52629817
-0.64211589 -0.15422931 0.53121853
-0.6405744 -0.12953529 0.52431357
-0.61726642 -0.10539436 0.52901852
-0.61547476 -0.080780186 0.52070582
-0.5941335 -0.081217512 0.53491342
-0.59201717 -0.056578673 0.5247314
-0.56887704 -0.032344714 0.53065252
-0.56720322 -0.0079094879 0.52228987
-0.54408288 0.016396912 0.52845287
-0.54247171 0.040686302 0.52008104
-0.52074403 0.040793147 0.53394687
-0.51945066 0.065081485 0.52694654
-0.4957608 0.089508966 0.53063166
-0.49431342 0.11362786 0.52245653
-0.47081214 0.1381188 0.52721858
-0.44722289 0.16267905 0.5318898
-0.44585979 0.18660507 0.52345788
-0.42331451 0.18722457 0.53495562
-0.42207825 0.21113396 0.52692568
-0.42121369 0.23508704 0.52131021
-0.39870167 0.23593339 0.53352714
-0.3976658 0.2597813 0.52644479
