ply
format ascii 1.0
comment PCL generated
element vertex 1185
property float x
property float y
property float z
element camera 1
property float view_px
property float view_py
property float view_pz
property float x_axisx
property float x_axisy
property float x_axisz
property float y_axisx
property float y_axisy
property float y_axisz
property float z_axisx
property float z_axisy
property float z_axisz
property float focal
property float scalex
property float scaley
property float centerx
property float centery
property int viewportx
property int viewporty
property float k1
property float k2
end_header
-0.23422319 0.34417504 -0.7811228
-0.21556515 0.34233356 -0.78966653
-0.20207763 0.34833044 -0.7618444
-0.18632385 0.35130024 -0.74806666
-0.1699475 0.35355169 -0.73762095
-0.15385583 0.35663468 -0.72331738
-0.13674557 0.34021437 -0.7164216
-0.11906733 0.34068853 -0.71414101
-0.10221048 0.34308994 -0.70258772
-0.093851097 0.32656145 -0.69516993
-0.067699559 0.32901603 -0.68290639
-0.076104082 0.3454721 -0.69112563
-0.050033264 0.3304553 -0.67571557
-0.03248436 0.33263594 -0.66482031
-0.050417431 0.34982765 -0.67017031
-0.051335104 0.31585175 -0.65692508
-0.033311613 0.31691754 -0.65138721
-0.015208311 0.31800258 -0.64574873
-0.014712445 0.33461124 -0.6549511
0.0030852705 0.33713317 -0.64235079
-0.10623287 0.37048858 -0.65904403
-0.088738926 0.37266272 -0.64895582
-0.033581771 0.3546434 -0.64700043
0.0027426183 0.3200841 -0.63493192
0.020846657 0.32223302 -0.62376618
0.021096475 0.33955389 -0.63025677
-0.016503997 0.35990119 -0.6217041
0.039085515 0.32461369 -0.6113956
0.039224967 0.34242249 -0.6159246
0.057644416 0.34468156 -0.60463691
-0.41599923 -0.48393995 -0.5839076
0.038574725 0.3089636 -0.59480751
0.057201054 0.31069428 -0.58543861
0.057516504 0.32698047 -0.59909809
0.076170519 0.32892603 -0.58898854
0.0010669678 0.36469233 -0.59865296
0.019272611 0.36797255 -0.58287108
-0.43775153 -0.48569381 -0.5712502
-0.40180767 -0.48709655 -0.56112647
0.075969815 0.31244683 -0.57595253
0.094920479 0.32282966 -0.57112312
0.11394549 0.33359146 -0.56474662
0.075997904 0.35005754 -0.57777643
0.037801318 0.3707121 -0.56969047
-0.38478798 -0.48853815 -0.5507226
0.12356286 0.31738716 -0.5492121
0.13313521 0.33648175 -0.5497272
0.094795443 0.35463995 -0.55488086
-0.42706823 -0.51037753 -0.53255403
-0.40991461 -0.51190341 -0.52212179
0.13335866 0.30324179 -0.52070034
0.15257579 0.32030231 -0.53343415
0.17216447 0.32249081 -0.52158892
0.15253031 0.33904934 -0.53638685
0.17211501 0.34148502 -0.52373052
-0.3921023 -0.51306522 -0.51417792
-0.3737303 -0.51389474 -0.50850737
-0.3718105 -0.49300539 -0.51848233
0.1529007 0.3047238 -0.51233029
0.17248483 0.30554056 -0.50771737
0.19198945 0.32500261 -0.50799274
0.21178555 0.32637119 -0.50058568
0.19197693 0.34443551 -0.50839961
0.11394549 0.36246502 -0.5157851
-0.35709456 -0.51616782 -0.4929657
-0.33859444 -0.51709843 -0.4866029
-0.35659388 -0.49616551 -0.49567604
-0.33874539 -0.49754083 -0.48575079
-0.35815996 -0.47766918 -0.48719931
-0.31862214 -0.4578557 -0.48835492
-0.29853201 -0.45752966 -0.49100196
-0.27997461 -0.45839721 -0.48395884
0.19275242 0.29017693 -0.4832145
0.21234858 0.28971255 -0.48595762
0.23212773 0.29007375 -0.48382437
0.2519781 0.2905556 -0.48097897
0.19237691 0.30771947 -0.49540985
0.2120588 0.30806023 -0.4934864
0.23182985 0.3086288 -0.49027395
0.25187671 0.30994159 -0.48286045
0.23169991 0.32775676 -0.4930867
0.25191882 0.32979023 -0.48207891
0.21186161 0.34631932 -0.49860954
0.23189771 0.34820658 -0.48880434
0.25194055 0.34957832 -0.48167586
-0.32074061 -0.49891341 -0.47584593
-0.30210438 -0.49987519 -0.46890366
-0.33987832 -0.47869605 -0.479352
-0.32210866 -0.48021215 -0.46776783
-0.26147777 -0.45940697 -0.4757601
0.2131844 0.27354223 -0.46424258
0.23278782 0.27268702 -0.46953321
0.25236326 0.27199233 -0.47383106
0.27276817 0.27364838 -0.46358597
0.17319621 0.29124421 -0.47691345
0.27252662 0.29283696 -0.46750832
0.27249694 0.31257439 -0.46799016
0.27240345 0.33211279 -0.46950853
0.27257076 0.3524428 -0.46679151
0.17313877 0.36974734 -0.47940063
0.1930058 0.37063068 -0.47498631
-0.26579672 -0.50301689 -0.44623125
-0.28545856 -0.48275453 -0.44833946
-0.28378016 -0.50121421 -0.45924067
-0.30357403 -0.48125315 -0.45981288
-0.24510163 -0.46241403 -0.4513458
0.25402942 0.2369668 -0.44291103
0.27407169 0.23703848 -0.44241977
0.23364058 0.25572252 -0.45107043
0.25323731 0.2547155 -0.45761096
0.27335724 0.25526828 -0.45402014
0.29381382 0.27643162 -0.44636917
0.29346299 0.29555941 -0.45143318
0.29337808 0.31528878 -0.45265853
0.29327682 0.33495575 -0.45412004
0.29390609 0.35662961 -0.44503725
0.23352739 0.3749271 -0.45352054
0.25382075 0.3762756 -0.44678354
-0.24736598 -0.50457251 -0.43500423
-0.26670459 -0.48384279 -0.44002402
-0.24771214 -0.48482662 -0.43250585
-0.22867981 -0.48588651 -0.42440748
0.27525961 0.19953157 -0.42312992
0.25475311 0.21881552 -0.42948103
0.27475104 0.21855144 -0.43138814
0.23434755 0.23801203 -0.43576384
0.29497504 0.23891245 -0.42960846
0.21410879 0.25739211 -0.44022584
0.29443023 0.25781608 -0.43747187
0.3156226 0.26009297 -0.42268229
0.31488007 0.27870154 -0.4323281
0.31442958 0.297804 -0.43818009
0.33590299 0.30065376 -0.42135143
0.3143858 0.31775165 -0.4387486
0.31434008 0.33768588 -0.43934226
0.21415155 0.37781036 -0.43911493
0.27428296 0.37783569 -0.43898857
-0.22917864 -0.50656891 -0.42059588
-0.20959872 -0.48702687 -0.4156934
-0.19042599 -0.48821539 -0.40661049
-0.22977814 -0.4667657 -0.41601503
-0.21063137 -0.46783805 -0.40730929
0.25597715 0.16109256 -0.40676582
0.27609935 0.16077726 -0.40949416
0.23575033 0.18155171 -0.40539289
0.25567228 0.1806858 -0.41242349
0.27578253 0.1804129 -0.41463864
0.23559073 0.20140038 -0.4088484
0.25532031 0.20007767 -0.41895521
0.29624516 0.20108263 -0.4112761
0.23506707 0.22010364 -0.42018604
0.29566336 0.22017469 -0.4196732
0.31716526 0.22253431 -0.40264285
0.31631613 0.24124314 -0.4136734
0.33710629 0.2624858 -0.40714109
0.33624282 0.28112483 -0.41733837
-0.17116243 -0.48946339 -0.39707327
-0.19141588 -0.46897972 -0.39803791
-0.17201948 -0.47007817 -0.38912082
-0.15229633 -0.47094339 -0.38209653
-0.21163052 -0.44848865 -0.39919722
-0.19235468 -0.44956124 -0.38990784
0.23662868 0.10210535 -0.38637602
0.25691667 0.10183239 -0.38933063
0.23642924 0.1221204 -0.39069414
0.25657114 0.12161516 -0.39574254
0.27730477 0.12219785 -0.38992095
0.21615162 0.14291595 -0.3871516
0.23621717 0.14203949 -0.39528537
0.25630927 0.14146642 -0.4006027
0.27665815 0.14148615 -0.40042043
0.23597759 0.16181906 -0.40047228
0.29772103 0.16303153 -0.38997328
0.29702878 0.18222027 -0.39996493
0.31883219 0.18455748 -0.38098836
0.31792378 0.20350187 -0.39278913
0.33812901 0.24396499 -0.3950634
0.33810803 0.32544237 -0.39531159
-0.15280014 -0.49208218 -0.37706232
-0.13257754 -0.4719584 -0.37385488
-0.11258931 -0.47276616 -0.36729646
-0.17330334 -0.45102769 -0.37720788
-0.15381613 -0.4522168 -0.3669095
0.23760423 0.042227 -0.36525452
0.21699598 0.062839866 -0.36521423
0.23728919 0.062311664 -0.37207532
0.25787011 0.06234552 -0.37163663
0.21676108 0.082933068 -0.37131774
0.23695561 0.08225745 -0.37929761
0.25745159 0.082248449 -0.37940323
0.27899674 0.083684474 -0.36244678
0.21653894 0.10296324 -0.3770889
0.27819535 0.10311367 -0.37545955
0.2164585 0.12327273 -0.37917864
0.29933837 0.12452878 -0.36662936
0.29857153 0.14393486 -0.37769747
0.31967086 0.16532688 -0.37009382
0.33983508 0.22637652 -0.37491584
-0.093002073 -0.47437721 -0.35421693
-0.1340996 -0.45331752 -0.35737789
-0.11407948 -0.4542042 -0.34969807
-0.093844138 -0.4549455 -0.34327853
-0.072921373 -0.41317987 -0.34535372
0.21784502 -0.01858183 -0.3431561
0.19705132 0.0021741241 -0.34360409
0.21757242 0.0018164814 -0.35023844
0.23837145 0.0019026399 -0.34864402
0.19694903 0.022746012 -0.3469255
0.21732555 0.022146955 -0.35665214
0.23787132 0.021973386 -0.35947204
0.25941506 0.022989914 -0.3429662
0.19699451 0.043599218 -0.34544885
0.21720409 0.042604327 -0.35980737
0.25863701 0.042770848 -0.35740471
0.27982926 0.064093649 -0.34892797
0.19661064 0.08406809 -0.35791516
0.30030751 0.10522152 -0.35264051
0.32075942 0.14627837 -0.35595322
-0.073352493 -0.47623527 -0.33913136
-0.053563453 -0.47827888 -0.32253873
-0.073372327 -0.45545739 -0.33884513
-0.052928291 -0.4561494 -0.33285248
-0.11514967 -0.43483675 -0.33705974
-0.095386572 -0.43632603 -0.32324159
-0.052638941 -0.41396087 -0.33755052
0.19758636 -0.059620224 -0.32622814
0.21859138 -0.059544377 -0.32376504
0.17670059 -0.038669109 -0.32516921
0.19733143 -0.039028764 -0.33450675
0.21814007 -0.039066426 -0.33549035
0.17664535 -0.017861322 -0.32756114
0.19721295 -0.018359981 -0.33835459
0.23908377 -0.018122777 -0.33322167
0.17667772 0.0031141639 -0.3261596
0.2602933 0.0030866414 -0.32666814
0.28066689 0.044300571 -0.33532643
0.30237204 0.066101879 -0.322842
0.30144086 0.085899889 -0.33628213
-0.032720722 -0.45754588 -0.32075918
-0.012283109 -0.45883256 -0.30961561
-0.075005792 -0.43718529 -0.31526804
-0.054499976 -0.43804079 -0.3073312
-0.033147432 -0.41643357 -0.31284046
0.17708841 -0.1011657 -0.30837643
0.19806363 -0.10120198 -0.31072831
0.15613599 -0.0799753 -0.30219162
0.17695871 -0.080247968 -0.31399226
0.19779515 -0.080373861 -0.31944704
0.21934587 -0.080020905 -0.3041631
0.15600884 -0.05913455 -0.3104502
0.1768018 -0.059452578 -0.32078695
0.23994952 -0.03825774 -0.31447792
0.2611987 -0.017044157 -0.30986595
0.28266355 0.0043671876 -0.30290484
0.28165758 0.024450898 -0.31923985
0.029034674 -0.46167678 -0.28498518
0.0083112046 -0.46016389 -0.29808545
-0.033811785 -0.43877566 -0.30051124
-0.013083942 -0.43966317 -0.29227686
0.0080078244 -0.43988663 -0.29020357
0.029186234 -0.43991858 -0.2899071
0.050251901 -0.44049782 -0.28453171
0.17754298 -0.14326124 -0.28869247
0.1563621 -0.14326106 -0.28750503
0.13519776 -0.12200888 -0.28179336
0.15625568 -0.12210596 -0.29441762
0.17728493 -0.12214794 -0.29986703
0.19868171 -0.12207714 -0.29065514
0.15620482 -0.10100178 -0.29772055
0.24079746 -0.058693171 -0.29611921
0.26211384 -0.037426643 -0.29288268
0.13519087 0.43036437 -0.2826879
0.15637757 0.42957193 -0.28650033
0.17760211 0.4296484 -0.28613234
0.050079919 -0.46258897 -0.27708483
0.07131353 -0.46300083 -0.27351737
0.092559665 -0.4640485 -0.26444399
0.092606828 -0.44200236 -0.27057135
0.071431756 -0.44085723 -0.28119683
-0.013591118 -0.41959047 -0.28129637
0.0073177144 -0.42049336 -0.27227378
0.028518476 -0.42089891 -0.26822114
0.049949005 -0.42057925 -0.27141571
0.071336612 -0.42021888 -0.27501678
0.092597783 -0.42078125 -0.26939678
0.1353049 -0.18598004 -0.26787698
0.15662546 -0.18594119 -0.27039933
0.11394549 -0.16466066 -0.26265967
0.13524982 -0.16456543 -0.27503109
0.15648419 -0.16453038 -0.27957606
0.17791489 -0.16458416 -0.27258849
0.13522382 -0.14326118 -0.27840936
0.19955085 -0.14326106 -0.26242924
0.22032067 -0.10071091 -0.27883637
0.24166873 -0.079399429 -0.27725565
0.11394549 -0.46657407 -0.24257278
0.11394549 -0.44336337 -0.25794327
0.11394549 -0.42265224 -0.25070059
0.028037511 -0.400985 -0.25260174
0.049629197 -0.40052623 -0.25756752
0.07111197 -0.4002623 -0.26042593
0.092445701 -0.40125871 -0.24963975
0.049329765 -0.38018543 -0.24460161
0.070937403 -0.37980571 -0.24908721
0.11394549 -0.22934094 -0.24702096
0.13544439 -0.22925662 -0.2497561
0.11394549 -0.20770124 -0.2522099
0.13537003 -0.20753476 -0.25941586
0.15683436 -0.20759454 -0.25683022
0.11394549 -0.18612953 -0.25815988
0.1785242 -0.18631348 -0.24620533
0.22099322 -0.12185144 -0.26136327
0.24324098 -0.10016257 -0.2432152
0.26412517 -0.057444125 -0.2555573
0.13550903 -0.44515049 -0.24135983
0.15731181 -0.44682521 -0.22581983
0.13554104 -0.42400318 -0.23720109
0.1573175 -0.42517924 -0.22545004
0.11394549 -0.40263402 -0.23475015
0.1356535 -0.4037571 -0.22259319
0.027547948 -0.38085431 -0.23670232
0.092341363 -0.38090649 -0.23608613
0.049128361 -0.35931832 -0.23588073
0.070763424 -0.35917133 -0.23778772
0.0922473 -0.36024308 -0.22386682
0.070609652 -0.33827251 -0.2277993
0.070540674 -0.31688032 -0.22331893
0.092261307 -0.31673467 -0.22568667
0.070548654 -0.29515004 -0.22383726
0.092291087 -0.294842 -0.22955489
0.11394549 -0.29507601 -0.22521341
0.092309795 -0.27307519 -0.23198581
0.11394549 -0.27302086 -0.23316264
0.092321232 -0.25138229 -0.23347151
0.11394549 -0.25110412 -0.24070144
0.13556126 -0.25133994 -0.23457384
0.092335828 -0.22969982 -0.23536694
0.15726589 -0.22990187 -0.22880292
0.092342608 -0.20806983 -0.23624754
0.20027035 -0.16484225 -0.23906231
0.2220317 -0.14326094 -0.23438287
0.13570493 -0.46965295 -0.21590948
0.17935026 -0.44848347 -0.21043515
0.1792579 -0.42628163 -0.21443486
0.1575259 -0.40474355 -0.21191394
0.11394549 -0.38227388 -0.21993852
0.13578615 -0.38350838 -0.20535958
0.02697961 -0.3606759 -0.21824503
0.11394549 -0.36122176 -0.21115243
0.048800617 -0.3386957 -0.22168922
0.092197843 -0.33899003 -0.21744215
0.11394549 -0.34003711 -0.20232666
0.04868295 -0.3172946 -0.2165941
0.11394549 -0.31799096 -0.20528471
0.048511371 -0.29594064 -0.20916438
0.070516713 -0.27354741 -0.22176325
0.1357488 -0.27408093 -0.21021104
0.070475817 -0.25193533 -0.21910679
0.15767559 -0.25258639 -0.20219135
0.17911537 -0.20843086 -0.22060633
0.2011077 -0.18684208 -0.21186936
0.20173559 -0.45052642 -0.19147789
0.20145571 -0.42766935 -0.20056689
0.22395369 -0.42928243 -0.184448
0.17957886 -0.40579462 -0.20053673
0.20173419 -0.40662712 -0.19152319
0.15793471 -0.38520187 -0.18536079
0.13587309 -0.36253712 -0.19406545
0.13592771 -0.34110099 -0.18697226
0.13593589 -0.31918427 -0.18590856
0.13587007 -0.29673314 -0.19445848
0.15794832 -0.27526957 -0.1844784
0.17962372 -0.23083211 -0.19859397
0.092070483 0.44736403 -0.20089793
0.22447582 -0.45274603 -0.17088294
0.24667633 -0.4308446 -0.16883767
0.22416148 -0.4077794 -0.17904949
0.24674815 -0.40886647 -0.16728282
0.18014008 -0.38597459 -0.17623556
0.15812877 -0.36417753 -0.17275631
0.025477685 -0.34231368 -0.1694684
0.1582057 -0.34243202 -0.16776025
0.15827408 -0.32057559 -0.16331828
0.15817916 -0.29807881 -0.16948402
0.26967874 -0.43248004 -0.15249586
0.26951957 -0.40995938 -0.15545011
0.20266312 -0.38723466 -0.16135526
0.22536594 -0.38838616 -0.14775681
0.1806348 -0.36555886 -0.15481305
0.20307127 0.079553291 -0.1481005
0.22495398 0.1897644 -0.15845978
0.22509076 0.21240373 -0.15490639
0.22522607 0.23509283 -0.15139043
0.22533709 0.2577486 -0.14850652
0.22541703 0.28033084 -0.14642906
-0.7566601 0.63805151 -0.14267373
0.24810663 -0.45630383 -0.13787079
0.29284444 -0.43397194 -0.13758767
0.31623501 -0.43545711 -0.1227473
0.29256889 -0.41119623 -0.14206219
0.31572232 -0.41229689 -0.13014674
0.24837512 -0.38971537 -0.13205814
0.0016070455 -0.34547031 -0.12390661
0.001750432 -0.32277322 -0.1276319
0.18133721 0.036449984 -0.12439847
0.20326057 0.1246842 -0.1419524
0.20338529 0.14741819 -0.13790214
0.20347396 0.17008866 -0.13502228
0.20360172 0.19294979 -0.13087356
0.20372054 0.21583907 -0.12701428
0.20385095 0.23883714 -0.12277889
-0.73876011 0.61968583 -0.12755263
-0.71768916 0.62094349 -0.1227473
-0.7362572 0.63982034 -0.13610888
0.34027421 -0.43748838 -0.10244882
0.33956471 -0.41400415 -0.11166537
0.27223164 -0.39199644 -0.10512006
0.15916614 -0.030209571 -0.10537708
0.18139111 0.059075847 -0.12206399
0.18146092 0.081790239 -0.11904144
0.18154377 0.10459934 -0.11545372
0.1816054 0.12737851 -0.11278522
0.18168786 0.1502891 -0.10921407
0.18177611 0.17328154 -0.10539353
0.20403624 0.26214713 -0.11676228
0.20413062 0.28511828 -0.11369646
0.20427161 0.3083694 -0.10911787
0.2043141 0.33117414 -0.10773849
0.1589227 0.44144255 -0.12118983
-0.69850558 0.62405372 -0.11086464
-0.72084564 0.64640605 -0.11166513
0.36353743 -0.41554314 -0.095004559
0.29505906 -0.39229226 -0.10162723
0.31810102 -0.39278442 -0.095814109
0.34118921 -0.39322925 -0.090562224
0.00068496913 -0.36978212 -0.099950194
-0.022527613 -0.32522529 -0.087815881
0.13672337 -0.097705379 -0.08361268
0.1367299 -0.074907877 -0.082764149
0.1592162 -0.0074491352 -0.10212648
0.15925293 0.015315101 -0.099740386
0.15927704 0.03806515 -0.098174095
0.1593236 0.060940221 -0.095150352
0.1593895 0.083958909 -0.090870857
0.15947287 0.10713948 -0.085455179
0.18190479 0.19653533 -0.099820852
0.18200406 0.21971776 -0.095522642
0.18213136 0.24312536 -0.090010405
0.18224859 0.26655757 -0.084933281
0.11394549 0.47002351 -0.091877222
0.023253039 0.49158627 -0.097220898
-0.70599455 0.60835057 -0.083841205
-0.67851323 0.62655574 -0.10130489
-0.65830934 0.62899369 -0.09199059
0.36464444 -0.4395417 -0.081931472
0.38761035 -0.41692585 -0.080035686
0.3649047 -0.39422029 -0.078857899
0.38847873 -0.39491653 -0.070635438
-0.023168497 -0.34893215 -0.073939562
0.13675204 -0.052034833 -0.079888225
0.13677976 -0.029089615 -0.07628572
0.1368082 -0.0060847998 -0.072592616
0.13683048 0.016933769 -0.069697142
0.13685879 0.040045202 -0.06602025
0.15953064 0.13024981 -0.081702709
0.15957494 0.15333034 -0.078825116
0.15965319 0.17669274 -0.073742509
0.15972461 0.20008223 -0.069104075
0.15979192 0.22351016 -0.064731956
0.18235001 0.28996736 -0.080542684
0.18241651 0.31321239 -0.077662468
0.18247822 0.33646816 -0.074990034
0.13684812 0.45220721 -0.067406416
-0.68419528 0.60927165 -0.080215454
-0.6621967 0.61005318 -0.077138424
-0.64151454 0.61219889 -0.068692088
-0.63970208 0.63322413 -0.075826645
0.39066079 -0.44303602 -0.047013879
0.41223854 -0.41860861 -0.061821103
0.43700358 -0.42016804 -0.04493916
0.41341114 -0.39665514 -0.050103903
0.11394549 -0.14326106 -0.062086105
0.11394549 -0.12029941 -0.059733629
0.11394549 -0.097301722 -0.057394624
0.11394549 -0.074250884 -0.054319501
0.11394549 -0.051167205 -0.051704764
0.11394549 -0.027994685 -0.047832966
0.11394549 -0.0047666579 -0.044051409
0.13688704 0.063212797 -0.06235075
0.13691075 0.086391538 -0.059269667
0.136944 0.10972239 -0.054951668
0.13697374 0.13307784 -0.051088095
0.13701798 0.15668114 -0.045341015
0.15985943 0.24700736 -0.06034708
0.15995146 0.27079266 -0.05436945
0.16003409 0.2945807 -0.04900229
0.16007268 0.31801081 -0.046495557
-0.024351947 0.50212687 -0.048317552
-0.64707679 0.59469986 -0.046796441
-0.6249187 0.59560317 -0.043129921
-0.62017578 0.61380142 -0.06238389
-0.59977496 0.61650568 -0.051738262
-0.57829094 0.61819869 -0.045073032
-0.62196976 0.63864875 -0.055101275
0.46202725 -0.42172658 -0.028068185
0.43775961 -0.39768654 -0.03792417
-0.047915347 -0.32824492 -0.038781881
-0.047963403 -0.30517 -0.037890673
-0.048432477 -0.28244221 -0.029185176
0.090802044 -0.18954805 -0.036123037
0.090794004 -0.16641253 -0.035078764
0.090783492 -0.14326112 -0.033712983
0.090768546 -0.12008409 -0.031771779
0.090728171 -0.096826479 -0.026526451
0.09070427 -0.073537499 -0.023421645
0.11394549 0.018521786 -0.040227056
0.11394549 0.041878194 -0.036257982
0.11394549 0.065309271 -0.032092571
0.11394549 0.088792175 -0.028084874
0.11394549 0.11234759 -0.023948073
0.13705386 0.18025593 -0.040680289
0.13708778 0.2038729 -0.036275029
0.1371288 0.22767188 -0.030943871
0.13715251 0.25125825 -0.027864814
0.13718763 0.27509737 -0.023302555
0.16015679 0.34195769 -0.041033149
0.16017774 0.3652935 -0.039672732
-0.60378271 0.59761953 -0.034943819
-0.58273464 0.59986424 -0.025831461
-0.55819333 0.62158638 -0.031738281
0.48774174 -0.4236083 -0.0076975822
0.46340522 -0.3995316 -0.016134858
0.020660482 -0.329831 -0.013025522
0.067183673 -0.23678479 -0.0052759647
0.067230731 -0.21333319 -0.0083323717
0.067228623 -0.18997797 -0.008195281
0.06719479 -0.1666365 -0.0059974194
0.067148447 -0.14326106 -0.0029879808
0.090687394 -0.050228707 -0.021229267
0.090653688 -0.026802033 -0.016851425
0.090622529 -0.0033233464 -0.012803197
0.090597354 0.020175919 -0.00953269
0.090563126 0.043798 -0.0050866604
0.11394549 0.13590358 -0.020497441
0.11394549 0.15976791 -0.014495492
0.11394549 0.18355738 -0.01004684
0.11394549 0.20753206 -0.0045881271
0.13723743 0.29928547 -0.016834378
0.13728598 0.32354861 -0.010526657
0.13731238 0.34744352 -0.0070967674
0.13732825 0.37115955 -0.0050350428
0.044099234 0.50863725 -0.018113136
-0.56208074 0.60269886 -0.014324546
-0.5411315 0.60539806 -0.0033665895
-0.53702843 0.62395823 -0.022402048
-0.51647919 0.62725794 -0.0094127655
0.51301092 -0.42495441 0.0068737268
0.49056792 -0.40218908 0.015248299
-0.073726304 -0.30747393 0.0048651695
0.067103617 -0.11984025 -7.5817108e-05
0.067052841 -0.096368507 0.0032221079
0.067011021 -0.072859399 0.0059384108
0.066977404 -0.049324967 0.0081218481
0.066904671 -0.025659189 0.012845874
0.090528406 0.067492649 -0.00057590008
0.090487048 0.091323465 0.0047957897
0.090453036 0.11515583 0.0092146397
0.090409942 0.13916554 0.014813066
0.11394549 0.23153348 0.00040721893
0.11394549 0.25551194 0.0046401024
0.11394549 0.27952611 0.0086597204
0.11394549 0.30406976 0.015875697
0.066924214 0.49152601 0.011576772
-0.54404533 0.5852288 0.010151982
-0.51990026 0.6079635 0.0070472956
-0.49790907 0.60979074 0.014464378
-0.49707377 0.63226336 0.01029098
0.53947628 -0.42694819 0.028458953
0.51620859 -0.40354902 0.031308293
-0.07450854 -0.2846016 0.017567277
0.042950168 -0.26158676 0.031642914
0.043033436 -0.23781061 0.028037429
0.043115698 -0.21409088 0.024475098
0.043078847 -0.19050562 0.026070952
0.043086953 -0.1668807 0.025720119
0.043008678 -0.14326112 0.02910912
0.042931862 -0.11958994 0.032435656
0.042869553 -0.095877141 0.035133719
0.066825271 -0.0019004196 0.018003464
0.066738844 0.021961942 0.023616314
0.066666454 0.045855016 0.028318405
0.06659846 0.06980069 0.032735109
0.090371132 0.16320576 0.019854784
0.090320036 0.18749525 0.026492
0.090292439 0.21153463 0.030076265
0.090251476 0.23584323 0.035398364
0.11394549 0.32841176 0.021060944
0.11394549 0.35287923 0.026527286
0.11394549 0.37707025 0.029865503
0.11394549 0.40097082 0.031273246
-0.52246064 0.5874275 0.01936543
-0.5005272 0.58937931 0.027545571
-0.47819442 0.59099221 0.034304261
-0.475676 0.61145425 0.021218181
-0.45336717 0.61315578 0.028125048
0.51768851 -0.45200586 0.042617559
0.56613392 -0.42885381 0.049086809
-0.0048393384 -0.30955988 0.043575644
-0.10067806 -0.28634337 0.055279255
0.042690158 -0.28577167 0.042901158
0.018512078 -0.21483622 0.056746244
0.042784669 -0.072100289 0.038809061
0.042694256 -0.048259273 0.042724013
0.04261142 -0.024371117 0.046310902
0.042476498 -0.00032326579 0.052153349
0.06651257 0.093903527 0.038313746
0.066424996 0.11810164 0.044001579
0.066333264 0.14241226 0.049959898
0.066257149 0.16671307 0.054903865
0.09021309 0.26018977 0.040384412
0.090170614 0.28468657 0.045902014
0.090122357 0.30937833 0.052171111
-0.45578271 0.59263772 0.041199327
-0.43395501 0.59521335 0.051992655
-0.43172103 0.61592704 0.039375424
-0.40975273 0.61848176 0.049746156
0.54381049 -0.45371902 0.05973804
0.56859326 -0.45433587 0.065901399
0.59402645 -0.4553138 0.075672507
0.59310216 -0.4307552 0.069668889
-0.10136784 -0.31072712 0.065235376
-0.029281564 -0.31035933 0.058411717
-0.9135896 -0.28663802 0.061658263
-0.88968766 -0.28663725 0.061640143
-0.86997461 -0.28724951 0.074893355
-0.88965857 -0.26273766 0.06155026
-0.86808646 -0.26302117 0.068911076
0.018103056 -0.26306406 0.070029855
0.018427677 -0.23877889 0.059487104
0.01848451 -0.19099154 0.057641268
0.018379614 -0.1671526 0.061047673
0.01829499 -0.14326112 0.063796282
0.018205769 -0.11932617 0.066693783
0.018116944 -0.095346749 0.069578648
0.018041305 -0.071332939 0.072034836
0.042340241 0.023817807 0.058053493
0.042213015 0.048025414 0.063562512
0.042104907 0.072260723 0.068243623
0.042000234 0.096556515 0.072776198
0.066181064 0.19108965 0.059845805
0.066061206 0.21587081 0.067630768
0.066005915 0.24025555 0.071221709
0.06592568 0.2649073 0.076433301
0.090076521 0.33411825 0.058125138
0.090050153 0.35854077 0.061550379
0.090008065 0.38336241 0.067018032
0.089993909 0.40762514 0.068856716
0.041993134 0.50431007 0.07308352
-0.0059089959 0.52792406 0.07136631
-0.4373852 0.57586569 0.071366191
-0.4121536 0.59806019 0.063921809
-0.38962162 0.60009968 0.072468758
-0.38889486 0.62297165 0.067973137
0.62033427 -0.45673984 0.089923024
0.62091124 -0.43295586 0.093492508
-0.8504582 -0.28792161 0.089447975
-0.12736243 -0.28804588 0.092137098
0.017343894 -0.28816348 0.094684243
-0.84731108 -0.26341826 0.079227567
-0.8259477 -0.26376018 0.088114142
-0.12677613 -0.2636219 0.084520578
-0.0064195246 -0.23955299 0.084629774
-0.0063676387 -0.21544892 0.083282113
-0.0066218525 -0.191488 0.089886785
-0.006860882 -0.16742235 0.096096873
0.017866224 -0.047181897 0.077720761
0.017743737 -0.023009039 0.081698895
0.017600708 0.0012559742 0.086343527
0.017397508 0.025697991 0.092942834
0.041841604 0.12111969 0.079645157
0.041687749 0.14576973 0.086307168
0.041596219 0.17025228 0.090270519
0.041454881 0.19502841 0.096390724
0.065854408 0.28955871 0.081062317
0.065756239 0.31453687 0.087438583
0.065672621 0.33946753 0.092869639
-0.078527503 0.55445343 0.082826972
-0.41444135 0.57726628 0.077430725
-0.39234275 0.58000791 0.089301586
-0.36775315 0.60337186 0.086179495
-0.34510529 0.60571641 0.096005201
0.64766294 -0.4586395 0.10890615
-0.83014417 -0.28850561 0.10209227
-0.80518281 -0.26419896 0.099514842
-0.78509557 -0.26475304 0.11391056
-0.0074130744 -0.26461971 0.110443
-0.0069974065 -0.14326118 0.099643588
-0.0071285367 -0.11904621 0.10305107
-0.0072414726 -0.09478642 0.10598505
-0.0074323118 -0.070434593 0.11094308
0.017202511 0.050224766 0.09927547
0.017013542 0.074835673 0.1054126
0.016869478 0.099428982 0.11009097
0.041314274 0.21989502 0.10247934
0.0411667 0.2448924 0.10886919
0.041025832 0.26995015 0.11496925
0.065611348 0.36424732 0.096849561
0.065543115 0.38916504 0.10128176
0.065503389 0.41382307 0.10386229
-0.1038333 0.55847055 0.10082161
-0.3699564 0.58259165 0.10049021
-0.34643805 0.58366013 0.10511708
-0.32338983 0.58563107 0.11365068
-0.32308912 0.60940963 0.11148047
0.67596561 -0.46092469 0.13173997
0.64942694 -0.43534195 0.1193223
-0.81025279 -0.28918725 0.1168468
-0.78976226 -0.28980821 0.13029492
-0.76441854 -0.26525599 0.1269784
-0.15500745 -0.26551247 0.13363779
-0.76672262 -0.24111325 0.13529265
-0.15422496 -0.24077773 0.1243974
-0.03270141 -0.24102572 0.1324538
-0.032212876 -0.21634027 0.12187648
-0.032469265 -0.19206595 0.12742794
-0.032710962 -0.16770379 0.13266039
-0.0076617002 -0.045975484 0.11690259
-0.0078294426 -0.021486081 0.12126088
-0.0080300719 0.0031095296 0.12647343
-0.0082638711 0.027832046 0.1325475
0.016664326 0.12426202 0.11675382
0.016501985 0.14906935 0.12202585
0.016310856 0.17405142 0.12823308
0.016124755 0.1991113 0.13427663
0.040893883 0.29504848 0.12068284
0.040734649 0.32040775 0.12757754
0.040664092 0.3452813 0.130633
0.040579937 0.37029773 0.13427687
-0.3264955 0.56633818 0.13606417
-0.30037019 0.58788419 0.12340736
-0.27690712 0.58958733 0.13078284
-0.15469578 0.58939701 0.12995744
-0.30032623 0.61217523 0.12307107
-0.27740002 0.61497068 0.13478434
0.68008095 -0.48786533 0.15498352
0.70345217 -0.46257734 0.1482538
0.68002361 -0.43860614 0.15465975
0.015976295 -0.31470719 0.13909817
-0.77059853 -0.29068518 0.14927852
-0.0091303661 -0.29095215 0.1550597
-0.74474096 -0.26593053 0.14450181
-0.72290558 -0.26632732 0.15481198
-0.74485821 -0.24141029 0.14493728
-0.1803512 -0.21683532 0.14330983
-0.032963015 -0.14326124 0.13811767
-0.033181883 -0.11873998 0.14285624
-0.033409275 -0.094142944 0.14777946
-0.033565365 -0.069505587 0.15115905
-0.033800118 -0.044764094 0.15624142
-0.0085602999 0.052748248 0.14024937
-0.0088333637 0.077740595 0.14734328
-0.0090695322 0.10276884 0.15347922
0.015848354 0.22460313 0.14325333
0.015624814 0.25002146 0.1505127
0.015485384 0.27519435 0.15504062
0.040512122 0.3952502 0.13721287
0.040488623 0.41990811 0.1382308
-0.30297479 0.56795585 0.14331031
-0.27955496 0.56995839 0.15228057
-0.23043916 0.57010704 0.15294635
-0.13198936 0.56995004 0.15224266
-0.25358716 0.59180403 0.14038122
-0.17978799 0.59107238 0.13721323
-0.2302793 0.59436339 0.15146291
-0.2548207 0.61885571 0.15106392
0.70522398 -0.48817366 0.15784395
-0.75245345 -0.2917867 0.17312717
-0.7021234 -0.26690787 0.16989326
-0.083992474 -0.26697233 0.1715672
-0.72365904 -0.24180292 0.15769112
-0.70191342 -0.24215302 0.16906691
-0.18237051 -0.24203324 0.16517019
-0.034134634 -0.019861065 0.16348362
-0.034406714 0.0050910115 0.16937447
-0.034641482 0.030090466 0.17445707
-0.0093154386 0.12791289 0.159868
-0.009516567 0.15304779 0.16509354
-0.0097724125 0.17840548 0.17174053
0.015231311 0.30095255 0.16329229
0.015152231 0.32600683 0.16586041
0.015027449 0.35132903 0.16991282
0.014911853 0.37666535 0.17366672
-0.25553966 0.57107669 0.15729034
-0.20699257 0.5973652 0.1644609
0.73402053 -0.49050301 0.17945933
0.73363358 -0.46549892 0.17744899
0.21308786 -0.39111704 0.17719769
-0.68069512 -0.26742366 0.18329406
-0.10923059 -0.26724786 0.17872477
-0.035312496 -0.2676428 0.18898535
-0.6584906 -0.24293017 0.19430637
-0.68039435 -0.24255361 0.18207312
-0.20931253 -0.21785919 0.18764329
-0.060567118 -0.21805239 0.19600558
-0.20957345 -0.1930332 0.19025064
-0.059973098 -0.19295201 0.18498182
-0.059866481 -0.16809145 0.18300343
-0.05988843 -0.14326088 0.18341041
-0.06011232 -0.11839575 0.18756533
-0.060445033 -0.093435317 0.19374037
-0.034969069 0.055291772 0.18155003
-0.035254993 0.080539584 0.18774056
-0.035549246 0.10589685 0.19411111
-0.010004774 0.20379956 0.17777753
-0.010252945 0.22933425 0.18422508
-0.0104504 0.25480562 0.1893549
-0.010658249 0.28039163 0.19475555
0.014812641 0.40196961 0.1768887
0.014816806 0.42672884 0.17675352
-0.23481664 0.55426311 0.19356465
-0.20841998 0.57586175 0.17872477
-0.18511069 0.62930065 0.19483328
0.76273417 -0.49260896 0.19899821
0.76446694 -0.46852171 0.20765591
0.23907304 -0.39351612 0.20836449
-0.65914333 -0.26795274 0.19704151
-0.63730681 -0.2684699 0.21047306
-0.63577986 -0.24322459 0.20386124
-0.61326569 -0.24356598 0.21495533
-0.11161613 -0.24351072 0.2131567
-0.63668799 -0.21832459 0.20779371
-0.060661949 -0.068429455 0.19776559
-0.06086459 -0.043369576 0.20152617
-0.061155669 -0.01818873 0.20692778
-0.061513685 0.0071325451 0.21357179
-0.035914369 0.1314819 0.20201635
-0.036224864 0.1570795 0.2087388
-0.010938488 0.30632102 0.20203567
-0.011136614 0.3320508 0.20718336
-0.011293583 0.35769516 0.21126199
-0.01142586 0.38329858 0.21469808
-0.011434965 0.40841299 0.2149353
-0.01142814 0.43345737 0.21475744
-0.011357404 0.45819259 0.21291971
-0.21042535 0.55538374 0.19876337
0.79314786 -0.49544007 0.22526932
0.26532641 -0.39556265 0.2349484
-0.6152752 -0.26898879 0.22395658
-0.59073871 -0.2439301 0.22678208
-0.21244791 -0.24368981 0.21897364
-0.13772437 -0.24392915 0.22674227
-0.062178336 -0.24390334 0.22590613
-0.61444169 -0.21861154 0.22022295
-0.59047264 -0.21873447 0.22554779
-0.5661307 -0.21882509 0.22947335
-0.087904371 -0.14326118 0.23508859
-0.061879598 0.032563955 0.22036195
-0.062372707 0.058245182 0.22951317
-0.036576845 0.18287064 0.21635962
-0.036902957 0.20871849 0.2234199
-0.037254445 0.23473875 0.23102999
-0.037372597 0.26025379 0.23358774
-0.062255599 0.56154323 0.22733974
0.79917276 -0.4731853 0.25425625
-0.59311628 -0.26952213 0.237813
-0.56858581 -0.24437693 0.24128556
-0.54527128 -0.24467912 0.25110006
-0.54300541 -0.21906288 0.23977923
-0.51911259 -0.21922815 0.24692106
-0.24103916 -0.19397341 0.25130224
-0.088607006 -0.19389929 0.24649811
-0.08811415 -0.16851865 0.23849487
-0.088022776 -0.11801498 0.23701119
-0.088154919 -0.092735976 0.23915696
-0.088511474 -0.067339748 0.24494648
-0.08875484 -0.041910842 0.24889827
-0.062734656 0.083898962 0.23622966
-0.063186996 0.10978518 0.24462461
-0.063470609 0.13553552 0.24988794
-0.063776992 0.16140608 0.25557351
-0.03749647 0.28582442 0.23626995
-0.03781449 0.31201881 0.24315524
-0.038106792 0.3382377 0.24948359
-0.038232826 0.36399996 0.25221229
-0.038312264 0.38964099 0.25393224
-0.038351558 0.41516137 0.25478292
-0.038298242 0.44033986 0.25362873
-0.038132913 0.46505249 0.25004935
0.29203022 -0.39766794 0.26229596
-0.52273399 -0.24512987 0.26573873
-0.49663824 -0.21958402 0.26233649
-0.4720453 -0.21969455 0.26712608
-0.24167213 -0.21946494 0.25717545
-0.14060235 -0.21962547 0.26412845
-0.089202099 -0.016293705 0.25616145
-0.089680247 0.0094581544 0.26392508
-0.090096332 0.035275355 0.27068138
-0.21769413 0.18837835 0.27139759
-0.064031832 0.18726836 0.26030278
-0.064442433 0.21351461 0.2679224
-0.064712428 0.23957728 0.27293277
-0.090182029 0.57118505 0.27207279
-0.19239336 0.59705776 0.27367043
0.19080424 -0.37383729 0.28553629
-0.49972951 -0.24554017 0.27906847
-0.47639579 -0.24592918 0.29169798
-0.16761327 -0.22004989 0.28250527
-0.090410478 -0.21989457 0.27578259
-0.11683825 -0.14326118 0.28853154
-0.27069649 -0.11761837 0.28855228
-0.11660071 -0.11764488 0.28510332
-0.27037206 -0.092018858 0.28574276
-0.11694718 -0.091951609 0.29010367
-0.24427104 0.010260314 0.28129053
-0.24502695 0.03622511 0.28830433
-0.24457082 0.061605334 0.28407192
-0.090696447 0.061380774 0.28042579
-0.091151066 0.087472647 0.28780818
-0.091529764 0.11358286 0.29395747
-0.21880782 0.21508841 0.28252602
-0.21935505 0.2669549 0.28799391
-0.065089591 0.26596183 0.27993226
-0.2201055 0.29357475 0.29549313
-0.065380462 0.29224479 0.28533006
-0.065629892 0.31850404 0.28995895
-0.065835305 0.3447153 0.29377079
-0.065921389 0.37064409 0.29536843
-0.065885611 0.39623219 0.2947042
-0.065909095 0.421996 0.29514027
-0.06569124 0.47263616 0.2910974
-0.16765511 0.59914023 0.28299999
0.31967527 -0.40042335 0.29809046
0.21711349 -0.37538925 0.30793452
-0.45299721 -0.24634156 0.3050921
-0.45187479 -0.2204185 0.29846454
-0.27172342 -0.19468366 0.29744601
-0.32516822 -0.16909143 0.31289911
-0.11758124 -0.16898635 0.29925513
-0.29760119 -0.14326106 0.29879761
-0.27257016 -0.065958098 0.30477881
-0.11754806 -0.066096507 0.2987771
-0.11760286 -0.040350698 0.29956746
-0.11829706 -0.014237344 0.30958748
-0.091858573 0.13971953 0.29929686
-0.092278503 0.16607471 0.30611563
-0.09270402 0.1925443 0.31302476
-0.22033003 0.24244155 0.29773688
-0.065947138 0.44781458 0.29584622
-0.19544458 0.47551888 0.30670071
-0.1949915 0.50035751 0.30179596
-0.14358705 0.5778299 0.30290079
-0.11786123 0.57791537 0.30329704
0.68515307 -0.5067569 0.3302753
0.34754646 -0.40281773 0.32919478
0.24388954 -0.37716037 0.33350039
-0.43002987 -0.24687549 0.32242942
-0.42892355 -0.2208138 0.31558657
-0.40507323 -0.22111392 0.32858038
-0.45601201 -0.19507533 0.32289362
-0.43178517 -0.19523562 0.33328819
-0.301797 -0.19522887 0.33286333
-0.17124429 -0.19511382 0.32538605
-0.11880881 0.011908218 0.31697392
-0.1195733 0.038364738 0.32800889
-0.11990818 0.064608797 0.33284187
-0.093036599 0.21895753 0.31842566
-0.093478285 0.2456585 0.32559729
-0.093684189 0.27199805 0.32894039
-0.093829058 0.29825956 0.33129334
-0.093966283 0.32454032 0.33352184
-0.093991138 0.35058826 0.33392501
-0.094039537 0.37670159 0.33471131
-0.19775942 0.40222245 0.33176017
-0.093864344 0.4022395 0.33186579
-0.19726244 0.42728657 0.32637954
-0.093711548 0.42779577 0.32938552
-0.19653156 0.45181978 0.31846762
-0.093581162 0.45337802 0.32726789
-0.17159373 0.45377547 0.3295126
-0.17106009 0.47856921 0.32321048
-0.14582658 0.48019183 0.33199334
-0.11996407 0.48049748 0.33364916
-0.093189694 0.47814435 0.32091117
-0.17051595 0.50324214 0.31678438
-0.14544982 0.50522685 0.32709885
-0.40641659 -0.24733377 0.33730626
-0.38298354 -0.24787787 0.35497975
-0.38110629 -0.22142714 0.34214497
-0.35658807 -0.22168338 0.35323882
-0.4062987 -0.1952855 0.33654022
-0.38153437 -0.19541679 0.34507179
-0.3565464 -0.195538 0.35293794
-0.32983521 -0.19547051 0.34856081
-0.19886279 -0.19539586 0.34370399
-0.12065328 -0.19539431 0.34359717
-0.35667741 -0.16940674 0.3538835
-0.25198337 -0.11712322 0.35285187
-0.14738435 -0.11712813 0.35222912
-0.25158334 -0.091042772 0.34913969
-0.14728189 -0.091015667 0.35089803
-0.25135475 -0.06498237 0.34701872
-0.22608009 -0.064793728 0.35519528
-0.14735293 -0.064871594 0.35182118
-0.25117028 -0.038942367 0.34530711
-0.22578326 -0.038729124 0.35222888
-0.14753151 -0.038670115 0.35414124
-0.25054213 -0.013087079 0.33947897
-0.22580048 -0.012589559 0.35240102
-0.22579831 0.013543606 0.35237932
-0.22577471 0.039665207 0.35214329
-0.2259596 0.065911338 0.35399079
-0.12029859 0.090983018 0.33847737
-0.12079697 0.11756368 0.3456707
-0.12121861 0.14416175 0.35175681
-0.22591442 0.17045568 0.35353947
-0.19975349 0.27500403 0.35334587
-0.19959873 0.30092651 0.35167074
-0.19924614 0.3265264 0.34785414
-0.17373025 0.32748079 0.35474324
-0.19889238 0.3520655 0.34402442
-0.17336464 0.35300195 0.35042644
-0.19831502 0.37717307 0.33777452
-0.173058 0.37856317 0.34680486
-0.14746204 0.37955385 0.35323858
-0.12124688 0.37938857 0.35216475
-0.17262366 0.40382528 0.34167504
-0.14716795 0.4050771 0.3494184
-0.12099425 0.40493143 0.34851789
-0.17216179 0.42895335 0.33622098
-0.14674121 0.43024957 0.34387493
-0.12068441 0.43027848 0.34404564
-0.14636999 0.4554643 0.33905268
-0.12042113 0.45567566 0.3402462
0.37633589 -0.40565145 0.36600637
0.27090323 -0.37869781 0.35569
0.1928606 -0.35370135 0.37457943
-0.35759059 -0.24804693 0.36047363
-0.33260888 -0.24833263 0.36975574
-0.33095402 -0.22177275 0.3571105
-0.30574858 -0.22195384 0.36494613
-0.27841905 -0.22173408 0.3554318
-0.27897131 -0.14326124 0.36021471
-0.2543461 -0.143261 0.37477493
-0.14819685 -0.14326106 0.36278391
-0.22678116 -0.11705134 0.36220074
-0.20115113 -0.11700301 0.36847615
-0.17527914 -0.11696808 0.37303519
-0.22644863 -0.090892732 0.35887766
-0.20082706 -0.090799101 0.36496782
-0.17466015 -0.090787247 0.36572504
-0.20051956 -0.064644828 0.36163926
-0.17471147 -0.064536601 0.3663311
-0.20028239 -0.0385186 0.35907149
-0.1744312 -0.038396917 0.36302137
-0.2002266 -0.012356147 0.35846782
-0.17453739 -0.012132525 0.36427546
-0.14772201 -0.01242736 0.35661554
-0.20026842 0.013845623 0.35892081
-0.17483988 0.014258295 0.36784768
-0.14807549 0.01395154 0.36120725
-0.20036802 0.040088445 0.35999894
-0.17473897 0.040447026 0.36665606
-0.14822182 0.040255964 0.3631084
-0.20037401 0.066285059 0.36006355
-0.17498308 0.066868752 0.36953878
-0.14851162 0.066704527 0.36687279
-0.22623515 0.092248738 0.35674453
-0.20050362 0.092575714 0.36146641
-0.17499781 0.093146965 0.36971259
-0.1487352 0.093151391 0.36977744
-0.22613177 0.11833672 0.35571146
-0.20056543 0.11883117 0.36213565
-0.17502901 0.1194429 0.37008119
-0.14880204 0.11948644 0.37064552
-0.22609085 0.1444618 0.35530257
-0.20060536 0.14507701 0.3625679
-0.17500696 0.14569141 0.36982083
-0.14905795 0.14604275 0.37397003
-0.20043182 0.17111616 0.3606894
-0.17497021 0.17191963 0.36938715
-0.14914677 0.17244948 0.37512326
-0.12152692 0.170702 0.35620618
-0.20034412 0.19721933 0.35974002
-0.17488027 0.19807841 0.36832428
-0.12175228 0.1971914 0.35945964
-0.20024854 0.22329853 0.35870504
-0.17476097 0.22418357 0.36691594
-0.14909479 0.22499524 0.37444854
-0.12195865 0.22370093 0.36243844
-0.19996801 0.24913074 0.35566854
-0.17457584 0.25017691 0.36472964
-0.14884546 0.25092536 0.37120986
-0.12206199 0.25008464 0.36392975
-0.17428124 0.27597767 0.36125064
-0.14870349 0.27697712 0.36936522
-0.12204101 0.27627033 0.36362696
-0.1740967 0.30189496 0.35907125
-0.14834332 0.30262965 0.36468649
-0.12185543 0.30214065 0.36094809
-0.14814034 0.32849318 0.36204934
-0.12169703 0.32802403 0.35866189
-0.14782146 0.35409606 0.3579073
-0.12151048 0.35381246 0.35596967
0.66879946 -0.51316375 0.38972378
0.29876679 -0.3808884 0.38731098
-0.044094019 -0.30130059 0.37911105
-0.30799356 -0.24874596 0.38317323
-0.15057859 -0.16971362 0.39372373
-0.22897631 -0.14326112 0.38413548
-0.20300245 -0.14326112 0.3885169
-0.17636368 -0.1432613 0.38584328
-0.14924392 0.19888519 0.37638593
0.40616059 -0.40891129 0.40835094
0.21982291 -0.35501587 0.39592528
-0.071833976 -0.27596071 0.40509224
-0.28444767 -0.24949938 0.40764093
0.32718816 -0.38315916 0.42008495
0.24749187 -0.35693526 0.4270916
-0.099623777 -0.25004572 0.42538762
-0.31336698 -0.16996807 0.42680001
-0.17911196 -0.16990261 0.41829848
0.65078259 -0.51904726 0.44431448
0.35610431 -0.38541996 0.45271683
0.27529749 -0.3583971 0.45082831
0.19455589 -0.33135188 0.44798827
-0.12830168 -0.22401011 0.45399189
-0.28778964 -0.17004339 0.43658376
-0.26185024 -0.17010364 0.44440508
-0.23583952 -0.17016768 0.45271659
0.4377349 -0.41308576 0.4625783
0.22210065 -0.33253258 0.46989655
-0.20985028 -0.17024395 0.4626472
0.3037636 -0.36019611 0.48004055
0.46937636 -0.41666937 0.50913405
0.38644135 -0.38850737 0.49728036
0.25024557 -0.33408126 0.49863505
0.19590887 -0.30718786 0.50657415
0.33344063 -0.36275634 0.52161169
0.27879673 -0.33558774 0.52658939
0.22406603 -0.30844188 0.53372478
-0.16106081 -0.19826245 0.52989197
0.41728634 -0.39144909 0.53974009
0.36309642 -0.36472857 0.55363846
0.30799872 -0.33731422 0.55863404
0.25255772 -0.3095957 0.55870628
0.19723243 -0.28207272 0.56388521
0.50412023 -0.42195743 0.57782578
0.44895953 -0.39452165 0.58408856
0.2817553 -0.31107098 0.59064388
0.22585961 -0.28315383 0.59197259
0.39394882 -0.36726385 0.59480524
0.33811226 -0.33940706 0.59746957
0.3682999 -0.34109208 0.62874484
0.31161985 -0.31269607 0.62583351
0.2548112 -0.28412682 0.6172533
0.53980094 -0.42716485 0.64547157
0.48262498 -0.39850092 0.64152241
0.42531303 -0.36971012 0.63453031
0.28443298 -0.2853339 0.64861703
0.22718167 -0.25649738 0.63490796
0.3994205 -0.34309354 0.66588426
0.34189552 -0.31422353 0.65890193
0.25663963 -0.25741655 0.66475749
0.51651466 -0.40205556 0.69283152
0.45746976 -0.3722772 0.67621446
0.31473535 -0.28668252 0.68365073
0.22856557 -0.22922643 0.67985153
0.43184072 -0.34555814 0.71161914
0.37286973 -0.3158772 0.69470453
0.28669879 -0.25842988 0.6976738
0.25834233 -0.22989902 0.70899463
0.49081829 -0.37518281 0.72339463
0.34541732 -0.28793114 0.71608877
0.31711936 -0.25936055 0.72789216
0.46418744 -0.34756887 0.7489357
0.40470663 -0.31771788 0.73455262
0.37666595 -0.28921703 0.74949837
0.28864193 -0.23060945 0.73974371
0.43682319 -0.31937617 0.77045918
0.34833932 -0.26045796 0.76353645
0.40844363 -0.29051012 0.78309798
0.32047698 -0.23177457 0.79020214
0.37979734 -0.26141769 0.79469609
0.44156232 -0.29217792 0.82642579
0.4126468 -0.26274174 0.83769917
0 0 0 1 0 0 0 1 0 0 0 1 0 0 0 0 0 1185 1 0 0
