ply
format ascii 1.0
comment PCL generated
element vertex 215
property float x
property float y
property float z
element camera 1
property float view_px
property float view_py
property float view_pz
property float x_axisx
property float x_axisy
property float x_axisz
property float y_axisx
property float y_axisy
property float y_axisz
property float z_axisx
property float z_axisy
property float z_axisz
property float focal
property float scalex
property float scaley
property float centerx
property float centery
property int viewportx
property int viewporty
property float k1
property float k2
end_header
-0.31694117 -0.20705372 -0.46462917
-0.2604011 -0.1745169 -0.45348263
-0.30725032 -0.10640103 -0.47122002
-0.26594284 -0.10349624 -0.46091747
-0.3167848 0.02038189 -0.46915531
-0.34542921 0.099795178 -0.45863819
-0.41659135 -0.42393634 -0.34687519
-0.34138072 -0.36652312 -0.37477875
-0.22744179 -0.34283394 -0.34824085
-0.42186984 -0.23756194 -0.31706238
-0.34133643 -0.25559297 -0.40623951
-0.20386082 -0.24068499 -0.39881897
-0.089854464 -0.22898835 -0.34502411
-0.38031471 -0.097437151 -0.36560535
-0.19760048 -0.097369194 -0.4223156
-0.075009525 -0.10228342 -0.35415554
-0.0029359781 -0.10092233 -0.31807423
-0.34908861 0.037762668 -0.38921452
-0.20432194 0.033141326 -0.40378571
-0.083466254 0.025563959 -0.34106636
-0.41752115 0.23317879 -0.34162331
-0.33711883 0.16662118 -0.39623165
-0.22007257 0.15171909 -0.35608864
-0.12070399 0.11684801 -0.32923126
-0.42313305 0.30501914 -0.34412766
-0.36191082 0.26917633 -0.35068893
-0.46496549 -0.48041356 -0.23400784
-0.34547406 -0.46572918 -0.23935699
-0.24133298 -0.45706066 -0.20405006
-0.44310141 -0.37323722 -0.27423859
-0.34079769 -0.41868469 -0.29259586
-0.19753326 -0.4004702 -0.26486397
-0.080787808 -0.36237374 -0.24754143
0.034122221 -0.34226349 -0.20693588
-0.44144559 -0.24202782 -0.26377583
-0.036782995 -0.26309639 -0.29995155
0.063039884 -0.24344823 -0.250844
0.17624313 -0.2244283 -0.19965076
-0.45098525 -0.10190429 -0.25018883
0.064174488 -0.10520254 -0.28106117
0.19595711 -0.10237859 -0.2128191
-0.45037571 0.047210548 -0.25125408
-0.031412702 0.064609855 -0.30376816
0.062860444 0.033732425 -0.2625227
0.18283978 0.027053241 -0.20006752
-0.4635193 0.16937996 -0.24266911
-0.17596661 0.20333396 -0.2954731
-0.072915256 0.17170644 -0.26868534
0.048908379 0.15746234 -0.21387959
0.15104996 0.11678356 -0.1827774
-0.45406866 0.2940788 -0.25968838
-0.3318027 0.31554624 -0.26865482
-0.21381232 0.28193483 -0.24256325
-0.098201178 0.26219699 -0.20511246
-0.51043177 0.38410676 -0.19548607
-0.56808764 -0.48287591 -0.098379135
-0.5052079 -0.48828721 -0.11914158
-0.2929517 -0.48189303 -0.17158699
-0.2053221 -0.48167995 -0.12865829
-0.06923379 -0.46672067 -0.095108986
0.017316381 -0.46065253 -0.063777924
-0.56869352 -0.38064119 -0.058409691
-0.52013034 -0.37396386 -0.11035442
-0.072140239 -0.43077457 -0.16289711
0.071479313 -0.39737576 -0.12817669
0.19236846 -0.35932714 -0.10296154
0.30173329 -0.33176962 -0.067100525
-0.56901294 -0.23936397 -0.056926727
-0.51338238 -0.23992689 -0.13378334
0.22392671 -0.25663841 -0.15806961
0.3390044 -0.23897134 -0.1000061
0.44426051 -0.20744236 -0.060053825
-0.56971532 -0.10124843 -0.053668022
-0.51970536 -0.1027654 -0.12825489
0.26498127 -0.1217306 -0.17486382
0.33928853 -0.097841516 -0.13633251
0.46631223 -0.098100126 -0.069940567
-0.56870061 0.033423681 -0.058376312
-0.5158186 0.022655044 -0.13879108
0.24022339 0.045711648 -0.16747284
0.33927417 0.03412303 -0.1180563
0.45213479 0.021633435 -0.066040993
-0.56319851 0.16278379 -0.083902359
-0.52903944 0.16718322 -0.1519804
0.090793103 0.20516416 -0.16475105
0.20299499 0.17136599 -0.12534523
0.32424775 0.14465059 -0.079001427
0.42284986 0.10472611 -0.049330711
-0.56351334 0.26320049 -0.082443237
-0.52512586 0.2808556 -0.13342381
-0.34206718 0.36980456 -0.16549397
-0.18730336 0.34970659 -0.1322403
-0.070884116 0.31665182 -0.13184261
0.053395838 0.28837353 -0.10640907
0.17183605 0.26121518 -0.072772026
-0.57573885 0.38487303 -0.072284698
-0.53792417 0.38675997 -0.060609818
-0.2999205 0.37879285 -0.10989475
-0.25595421 0.38791743 -0.053452492
-0.61569905 -0.47841403 0.014827728
-0.52448386 -0.4961912 0.027004242
-0.15647578 -0.50807965 -0.023684502
-0.085672699 -0.50407887 -0.0079565048
0.065795571 -0.48642629 0.017920494
0.19245984 -0.46504584 0.034862518
0.2839219 -0.46212274 0.076741219
-0.6336779 -0.38595659 0.026373863
0.22493926 -0.41890454 -0.01770401
0.34509423 -0.38792092 0.012495995
0.46399966 -0.3625958 0.046113014
0.59315711 -0.32993942 0.072235107
0.68101954 -0.31505966 0.093316078
-0.62799543 -0.24264179 0.026994705
0.40545923 -0.30265927 -0.030591965
0.49440655 -0.25919613 -0.011640549
0.61115992 -0.23755623 0.026363373
0.74860978 -0.23848408 0.06673336
0.82091504 -0.2062421 0.060941696
-0.62611979 -0.10510172 0.027621269
0.52621263 -0.11187643 -0.039409637
0.60532361 -0.10210161 -0.0078802109
0.75120538 -0.10138524 0.037686348
0.83936423 -0.089869082 0.052253723
-0.63165212 0.02859829 0.033713341
0.51075983 0.050822128 -0.030444145
0.60743654 0.03158797 0.0061817169
0.74694914 0.03238089 0.045833588
0.82673967 0.036699083 0.056946754
-0.62089986 0.15878016 0.0075597763
0.36458844 0.2030101 -0.020468712
0.47429281 0.16676171 0.0054683685
0.61019468 0.16010575 0.054442406
0.74634582 0.13620116 0.077082634
-0.61530375 0.33741733 0.029764175
-0.52519935 0.35974145 0.030724525
-0.054080531 0.37198776 -0.025427818
0.088228799 0.34763294 -0.012188911
0.21128163 0.31384531 0.010310173
0.33487183 0.29027948 0.044511795
0.47421232 0.25966311 0.071086884
0.56211543 0.2399883 0.08665657
-0.5573321 0.37346172 -0.015856743
-0.52784914 0.37449986 -0.0091152191
-0.22701952 0.39059386 -0.036896706
-0.023579786 0.37567365 -0.0014877319
0.039395459 0.38407809 0.053099632
0.12605448 -0.51016712 0.10952759
0.20928723 -0.51152492 0.15391159
0.34483191 -0.48762742 0.15655518
0.47066727 -0.47045198 0.17779732
0.60847342 -0.47079429 0.20489597
0.70928812 -0.47601995 0.19840336
-0.71154875 -0.35261607 0.13428974
-0.66740125 -0.33728361 0.10120869
0.39414951 -0.44499812 0.10492039
0.5023064 -0.41916126 0.11764812
0.62198973 -0.39321283 0.13215256
0.73532224 -0.36862043 0.1263876
-0.72878516 -0.2626237 0.18214512
-0.70597172 -0.11339605 0.14814568
-0.69616508 0.020486154 0.13096237
-0.72600091 0.18578316 0.19192982
0.65131873 0.22020414 0.10330868
0.74281865 0.19903819 0.10614395
-0.70804691 0.26303393 0.14386749
-0.66037321 0.28254485 0.14469528
0.23333761 0.37080517 0.10636711
0.36744121 0.34394675 0.11922455
0.48284316 0.32682228 0.14653397
0.61647952 0.30084658 0.16123009
0.72198457 0.29236478 0.15887356
-0.38052139 0.45145941 0.20221233
0.11504936 0.39171612 0.10270977
0.2069765 0.40404728 0.1828022
0.33791286 0.38033161 0.17150021
0.43333676 0.3878651 0.22300625
0.6290679 -0.59898353 0.35753441
0.26647329 -0.53111875 0.23324394
0.34085292 -0.54118556 0.2926836
0.48205096 -0.53083062 0.29214764
0.61428982 -0.54059708 0.28807545
0.69698423 -0.53391999 0.24978161
-0.74949366 -0.23153111 0.24455166
-0.77776188 -0.10769138 0.26296711
-0.76978528 0.039717738 0.26002026
-0.74577498 0.13724706 0.24100399
0.62606335 0.36716792 0.23509502
-0.33345407 0.4838748 0.27168941
0.3407504 0.42063236 0.2905283
0.48466721 0.41189238 0.29235363
0.61235166 0.41959947 0.29087353
0.69300061 0.38933945 0.23308754
-0.30579326 0.54572415 0.3234787
0.51178133 -0.60051179 0.46390057
0.5801459 -0.60863274 0.40976143
0.54248446 -0.58262271 0.39733315
0.5135811 0.47562659 0.43888378
0.57943541 0.48587477 0.40542698
-0.30373564 0.62466443 0.44315338
-0.24207929 0.59404361 0.40052128
-0.20535271 0.6878736 0.47374153
0.46981829 -0.60948396 0.54904461
0.18904527 0.49198008 0.52234364
0.45735431 0.48547506 0.5500288
0.11662297 0.62345624 0.58642578
0.19446009 0.5800764 0.55629539
-0.15132391 0.71283609 0.52949619
-0.080141008 0.74738485 0.55856133
0.07130494 0.72401029 0.5769043
0.16704649 0.69289571 0.57456779
-0.040527903 0.81599945 0.57663059
0.034751419 0.78914303 0.56969357
0.091987818 0.58382362 0.73536396
-0.035073817 0.70883936 0.65900421
0.034603462 0.68755049 0.72103119
0 0 0 1 0 0 0 1 0 0 0 1 0 0 0 0 0 215 1 0 0
