ply
format ascii 1.0
comment PCL generated
element vertex 182
property float x
property float y
property float z
element camera 1
property float view_px
property float view_py
property float view_pz
property float x_axisx
property float x_axisy
property float x_axisz
property float y_axisx
property float y_axisy
property float y_axisz
property float z_axisx
property float z_axisy
property float z_axisz
property float focal
property float scalex
property float scaley
property float centerx
property float centery
property int viewportx
property int viewporty
property float k1
property float k2
end_header
0.24269845 -0.080574229 -0.20497799
0.32563174 -0.08034125 -0.20930004
0.46349546 -0.089890078 -0.20873547
0.60307044 -0.084407717 -0.20742989
-0.066555753 0.0740408 -0.20493698
0.02750694 0.044693545 -0.21253395
0.17419696 0.020908125 -0.22228909
0.32401463 0.0076244101 -0.23135281
0.46622643 0.0096960217 -0.23330688
0.60671085 0.0059805289 -0.22395229
-0.085782737 0.16173248 -0.20684242
0.018560454 0.16246206 -0.21990585
0.17220926 0.16648434 -0.23558044
0.32324666 0.15999196 -0.24203873
0.46334609 0.16190021 -0.24228668
0.60278076 0.15876099 -0.2296381
0.034145229 0.272367 -0.20900917
0.17544362 0.29480138 -0.21758366
0.32467705 0.29892784 -0.22251511
0.46487412 0.297463 -0.21996403
0.57945746 0.27830333 -0.21512413
-0.19842011 -0.21244064 -0.065077782
-0.095932141 -0.22477016 -0.078274727
0.029033542 -0.23783797 -0.091758728
0.16510262 -0.25047514 -0.10573006
0.30830652 -0.2575632 -0.11082649
0.45507726 -0.25721428 -0.11387062
0.60337734 -0.26172695 -0.11490536
-0.49683201 -0.063253567 -0.064941406
-0.39601713 -0.096725121 -0.081910133
-0.25302339 -0.11926378 -0.10794353
-0.10865149 -0.1228606 -0.13446426
0.027330466 -0.1319759 -0.1523962
0.16757348 -0.13037254 -0.17500114
0.32150382 -0.14172198 -0.18350124
0.46665269 -0.14903688 -0.18160439
0.60505068 -0.14059477 -0.18394375
-0.52244896 0.031979136 -0.076521873
-0.40014708 0.022969037 -0.12062168
-0.26022449 0.018174365 -0.15552425
-0.12742567 0.01973173 -0.18092823
0.0030925199 -0.025301136 -0.18889809
0.12856869 -0.052360564 -0.19762516
-0.52086645 0.16137934 -0.092358589
-0.39905542 0.15639563 -0.14157963
-0.25557485 0.16038245 -0.17509174
-0.15551502 0.16381808 -0.19266701
-0.51104027 0.27697194 -0.085451126
-0.40095466 0.29373831 -0.1222353
-0.25773445 0.30110872 -0.15619373
-0.12115808 0.29910517 -0.18131065
0.0063848495 0.33553478 -0.18906212
0.15719928 0.36506692 -0.1962738
0.32633969 0.37189761 -0.19969273
0.47796437 0.36858407 -0.19873238
0.61159474 0.32864353 -0.1924057
-0.38805139 0.4059833 -0.080148697
-0.24983045 0.43183449 -0.10322189
-0.10920124 0.44172013 -0.12632942
0.027071305 0.45040223 -0.14087963
0.16554505 0.44625404 -0.15727139
0.31449157 0.44781458 -0.16321087
0.45974275 0.44843599 -0.15806866
0.60226327 0.45093346 -0.13618374
-0.09872219 0.53283238 -0.070083618
0.025600791 0.54424119 -0.077458382
0.16878986 0.54823887 -0.086785316
0.30992371 0.55538875 -0.086513519
0.45072007 0.55045497 -0.08620739
0.60184103 0.5427978 -0.079652786
-0.054636613 -0.94474328 0.052052498
0.03200765 -0.95026672 0.014544487
0.15902938 -0.9588573 -0.0011463165
0.29678869 -0.9549396 0.0026273727
-0.091083214 -0.83480501 0.037959099
0.015003331 -0.87888467 0.031582832
0.168476 -0.9062295 0.016541481
0.32519257 -0.87179875 0.009967804
0.42671281 -0.82631946 0.039025307
-0.21127841 -0.69211745 0.074117661
-0.14860792 -0.72920477 0.060141563
0.38570079 -0.75824583 0.079147339
0.43676391 -0.73781848 0.070151329
-0.093720734 -0.35283053 0.057658195
0.011763617 -0.36972797 0.046031952
0.17434344 -0.38622621 0.037723541
0.32518983 -0.39525226 0.028492928
0.46276313 -0.3986429 0.027297974
0.60082716 -0.40030709 0.017561913
-0.50765747 -0.22431505 0.063467979
-0.39629722 -0.24023443 0.033146858
-0.26085788 -0.26197228 0.0016736984
-0.12346447 -0.28918466 -0.01373291
0.026569702 -0.31476414 -0.02570343
0.15270723 -0.33115569 -0.031554222
0.31304574 -0.34030622 -0.03804493
0.46294603 -0.33964273 -0.043113708
0.59967387 -0.33878323 -0.049683571
-0.63763583 -0.12447332 0.047530174
-0.54762805 -0.13017833 0.0032320023
-0.41942126 -0.16753203 -0.030809402
-0.31235683 -0.18892682 -0.049114227
-0.63495582 0.018606506 -0.021871567
-0.58508921 0.0065303221 -0.03963089
-0.63834697 0.14850166 -0.043962479
-0.58907604 0.14089161 -0.05211544
-0.63643467 0.29193294 -0.0125494
-0.565202 0.34275931 -0.018730164
-0.63806134 0.42670658 0.0572052
-0.53888148 0.44241738 0.023303986
-0.41448247 0.47150031 -0.025402069
-0.29647845 0.50322521 -0.043027878
-0.4984557 0.52825868 0.084675789
-0.39996174 0.55168021 0.044833183
-0.25699368 0.57728088 0.016403198
-0.11434937 0.60105419 0.0051603317
0.023846142 0.61847472 -0.0021839142
0.15675171 0.61915386 -0.017331123
0.31501335 0.62994194 -0.0087833405
0.46946001 0.61973345 -0.016456604
0.6067614 0.61686718 -0.0030479431
0.6867668 0.60900879 0.019032478
0.073956393 0.68418419 0.083638191
0.16455507 0.68084931 0.064797401
0.31969705 0.68060362 0.063410759
0.46152678 0.67990196 0.059448242
0.60819942 0.68229449 0.072962761
-0.082619727 -0.93132138 0.093173027
-0.057170138 -0.79134345 0.10690212
0.17966819 -0.92360556 0.15596199
-0.23110557 -0.65459669 0.10000229
-0.14033596 -0.68394363 0.12005424
0.37884459 -0.69826281 0.10086346
0.46076712 -0.68186259 0.10790157
-0.24234918 -0.54793561 0.12555981
-0.16402417 -0.58727276 0.17359543
0.23461634 -0.50651181 0.20308781
0.32018331 -0.526173 0.15030861
0.42155397 -0.56498408 0.12882519
-0.35207725 -0.39274293 0.1590395
-0.25923684 -0.41836509 0.14037704
-0.13168892 -0.40829548 0.16565514
0.030313417 -0.42875025 0.15451241
0.16602051 -0.44271365 0.13789177
0.30956301 -0.45562556 0.10867882
0.46865121 -0.46703389 0.1254673
0.59909499 -0.46594313 0.1187191
-0.63915008 -0.22583351 0.17539215
-0.53233379 -0.25487524 0.14746761
-0.39090288 -0.30664858 0.13740921
-0.29332489 -0.33346575 0.10998726
-0.60673708 -0.20196992 0.10492134
-0.63615471 0.49349624 0.11996841
-0.59846091 0.49630842 0.10701942
-0.62852299 0.54462522 0.20973778
-0.53154933 0.55878091 0.14364624
-0.41023076 0.60960054 0.13916779
-0.30753437 0.63799286 0.11969185
-0.17476115 0.66148257 0.10317039
-0.24706963 0.67852092 0.17191601
-0.1124759 0.6960541 0.15067768
0.020478666 0.70924282 0.14928532
0.16618001 0.72271967 0.15142822
0.31120294 0.71983469 0.1358099
0.45574439 0.71842813 0.12820053
0.60098851 0.71448505 0.13035011
0.34582645 -0.83848572 0.25408173
0.15557331 -0.49821267 0.31833744
0.62344313 -0.52039552 0.2850666
-0.43243474 -0.36239249 0.34484291
-0.091464758 -0.44781271 0.26005745
-0.02325809 -0.46152201 0.26070023
-0.63698208 -0.26888117 0.25043583
-0.54191113 -0.30745676 0.30142021
-0.4496581 -0.32627282 0.27470875
-0.65122288 0.58673882 0.31895256
-0.56948173 0.59153581 0.25460243
-0.43501163 0.67723835 0.36246109
-0.230636 0.71960068 0.28367043
-0.037976772 0.74807465 0.28866768
-0.4686287 -0.36893085 0.39792538
-0.46012521 -0.35623205 0.53416348
0 0 0 1 0 0 0 1 0 0 0 1 0 0 0 0 0 182 1 0 0
