ply
format ascii 1.0
comment PCL generated
element vertex 157
property float x
property float y
property float z
element camera 1
property float view_px
property float view_py
property float view_pz
property float x_axisx
property float x_axisy
property float x_axisz
property float y_axisx
property float y_axisy
property float y_axisz
property float z_axisx
property float z_axisy
property float z_axisz
property float focal
property float scalex
property float scaley
property float centerx
property float centery
property int viewportx
property int viewporty
property float k1
property float k2
end_header
0.24384551 -0.59816498 -0.40351391
0.33931985 -0.5939219 -0.40673828
0.43257129 -0.58212692 -0.40343475
0.24334291 -0.66405267 -0.3575182
0.31900209 -0.66518617 -0.35305691
-0.024868576 -0.52429008 -0.30628395
0.079118654 -0.54914892 -0.34876728
0.19542579 -0.59090757 -0.38178062
0.36002821 -0.58011186 -0.38056278
0.47198677 -0.56292397 -0.36874771
-0.062531158 -0.47275674 -0.27510643
0.030789876 -0.49763882 -0.3309269
0.50290167 -0.47641015 -0.30846786
-0.071177714 -0.52461725 -0.19117641
-0.19778787 -0.41779211 -0.18156433
-0.1296868 -0.44095153 -0.23926926
0.48500976 -0.41879261 -0.20619678
-0.25738239 -0.37290236 -0.13874149
0.46994093 -0.35137078 -0.15532398
0.57873356 -0.1197267 -0.11848831
0.4080579 0.012142256 -0.11864471
0.52241886 -0.0076495074 -0.1241951
0.57581711 -0.026377074 -0.13364315
-0.63127834 0.10716291 -0.11888981
0.40993676 0.06062068 -0.1190691
0.5116936 0.10395631 -0.12291813
0.57651931 0.1127911 -0.12999344
-0.43962789 -0.39341414 0.0092897415
-0.35523641 -0.39649618 -0.025608063
-0.2722266 -0.41330805 -0.1006403
0.39394358 -0.40112761 -0.075735092
0.44369239 -0.44726458 -0.087460518
-0.60785228 -0.24715516 0.0013818741
-0.46696973 -0.30053684 -0.017414093
-0.34970292 -0.30069143 -0.056448936
-0.21192342 -0.2746878 -0.014914513
-0.074095272 -0.27870312 -0.0067386627
0.057255737 -0.2825689 -0.0082464218
0.20414078 -0.28464001 -0.011683464
0.34728447 -0.30222347 -0.055131912
0.49037585 -0.28539336 -0.053048134
0.58400118 -0.29975307 -0.023101807
-0.59894609 -0.15969753 -0.044852257
-0.4930349 -0.16021673 -0.036770821
-0.34752315 -0.15895617 -0.055448532
-0.20467669 -0.1586637 -0.060349464
-0.074076444 -0.15829083 -0.065885544
0.056124486 -0.15823296 -0.06678009
0.19786102 -0.15796155 -0.071011543
0.33895907 -0.15754229 -0.077150345
0.48414141 -0.16254537 -0.084644318
0.57485628 -0.18541382 -0.086215973
-0.58952296 -0.019141916 -0.086791039
-0.48630708 -0.019219197 -0.08368969
-0.34380084 -0.020913363 -0.091863632
-0.21010888 -0.022498064 -0.096776009
-0.081460662 -0.012599949 -0.10307312
0.067632765 -0.016829494 -0.10510445
0.21734446 -0.018691458 -0.10874748
0.35313773 -0.032317348 -0.11055088
0.4826172 -0.036963731 -0.11210442
-0.59033877 0.10907917 -0.097328186
-0.48316926 0.10914157 -0.094549179
-0.34226841 0.10704355 -0.099268913
-0.21271263 0.10815763 -0.10289001
-0.083355024 0.11765402 -0.10684299
0.066388354 0.11970557 -0.11070251
0.21601073 0.1205143 -0.11254883
0.35220858 0.12067911 -0.1139698
0.48974699 0.13262424 -0.11121273
0.57975578 0.18304294 -0.11317539
-0.59299582 0.24392076 -0.07584095
-0.48743245 0.24418332 -0.072152138
-0.34499109 0.24377912 -0.078097343
-0.20324956 0.24351089 -0.082073212
-0.074442133 0.24738376 -0.086700439
0.05382973 0.25257415 -0.087814331
0.19914988 0.253068 -0.091552734
0.34225985 0.25471503 -0.089818954
0.48375314 0.25492173 -0.086770058
0.56314647 0.26731288 -0.076897621
-0.60637784 0.38106361 -0.022848129
-0.49269721 0.37287045 -0.01517868
-0.35181558 0.38013664 -0.017066956
-0.20708367 0.37944403 -0.02354908
-0.074959897 0.3789708 -0.027951241
0.059870571 0.38337588 -0.029252052
0.20055227 0.39086917 -0.029777527
0.3443121 0.39088058 -0.029601097
0.4784314 0.38041869 -0.030817032
0.56963569 0.35343689 -0.041773796
-0.63136488 0.47816291 -0.002204895
-0.60647088 -0.38428077 0.12484074
-0.55487561 -0.38324568 0.11692715
-0.20575316 -0.39257357 0.11072922
-0.087619588 -0.39896613 0.11646271
0.059741259 -0.4095127 0.12547302
0.2191167 -0.41197345 0.11701012
0.33825779 -0.42349929 0.11261177
0.58390319 -0.397039 0.035451889
-0.591654 -0.31254905 0.044521332
-0.53646606 -0.31063396 0.040416718
-0.29855168 -0.35084066 0.05748558
-0.2112976 -0.33660099 0.040872574
-0.071223237 -0.34974688 0.048010826
0.058336064 -0.36212566 0.048952103
0.20023501 -0.36347857 0.050887108
0.29092064 -0.3732776 0.040762901
0.60719568 -0.37179169 0.029405594
-0.58599794 0.44981372 0.040434837
-0.50224173 0.45053145 0.04125309
-0.35790709 0.45917857 0.03739357
-0.21059841 0.45823881 0.030212402
-0.076215617 0.45778349 0.026734352
0.033507615 0.45740715 0.023857117
0.48473132 0.45777914 0.026699066
-0.60112804 0.5168761 0.096327782
-0.49473077 0.52030569 0.10940933
-0.35625425 0.51483089 0.092703819
-0.21117899 0.51862413 0.089802742
-0.077842519 0.52964318 0.097025871
0.059159808 0.52907431 0.093222618
0.20771091 0.52700663 0.079702377
0.3504217 0.52421016 0.076129913
0.46501264 0.53111219 0.095312119
-0.59672922 -0.43451819 0.21182823
-0.50364476 -0.43826306 0.21556664
-0.39491397 -0.43652228 0.20788288
-0.17050935 -0.44629309 0.20499516
-0.069428571 -0.45641309 0.22250652
0.061998852 -0.46450913 0.2392149
0.20365319 -0.46104646 0.21657562
0.35970917 -0.48157096 0.223979
0.43912432 -0.49023747 0.23729038
-0.59375507 0.58261037 0.19543076
-0.49234432 0.5839138 0.20349216
-0.36178544 0.581141 0.18633938
-0.23248594 0.57850057 0.17000771
-0.60993022 0.62409014 0.25019836
-0.49156052 0.62402248 0.28827858
-0.35647333 0.61907262 0.25905132
-0.21081556 0.61438411 0.23136711
-0.080597267 0.61174732 0.21579647
0.070995815 0.6160537 0.21889782
0.20520368 0.62920123 0.24071789
0.34117597 0.62583125 0.22827339
0.43922338 0.62464488 0.23976326
0.34810218 -0.52406418 0.36736679
-0.11004362 -0.49130231 0.33001614
0.3702656 -0.5167923 0.32238579
-0.62112731 0.66125458 0.34944534
-0.55997854 0.62662649 0.30365658
-0.084207058 0.66525441 0.37203503
0.050288148 0.65858626 0.33437347
0.49899763 0.64352363 0.35073948
0.55699211 0.6312077 0.49604893
0.58653426 0.63274801 0.50557613
0 0 0 1 0 0 0 1 0 0 0 1 0 0 0 0 0 157 1 0 0
