ply
format ascii 1.0
comment PCL generated
element vertex 1399
property float x
property float y
property float z
element camera 0
property float view_px
property float view_py
property float view_pz
property float x_axisx
property float x_axisy
property float x_axisz
property float y_axisx
property float y_axisy
property float y_axisz
property float z_axisx
property float z_axisy
property float z_axisz
property float focal
property float scalex
property float scaley
property float centerx
property float centery
property int viewportx
property int viewporty
property float k1
property float k2
end_header
0.15910557 -0.8885597 0.18400067
0.18084955 -0.88577706 0.18751542
0.21341117 -0.88490719 0.18682466
0.2363428 -0.87913722 0.19067745
0.27044755 -0.88475198 0.19762558
-0.31660333 -0.86403888 0.19126165
-0.29758114 -0.86344159 0.19053254
-0.28153366 -0.86541104 0.18530761
-0.26597953 -0.86455876 0.19759083
-0.23359771 -0.86058116 0.18029778
0.18062858 -0.86741489 0.18046995
0.25481319 -0.86822903 0.18608652
0.27733749 -0.86226231 0.19101556
0.29776892 -0.86133045 0.18397537
0.32594135 -0.85810417 0.19349951
-0.37908635 -0.83650714 0.18333443
-0.35789171 -0.84549326 0.18354993
-0.33664659 -0.85450101 0.18376572
-0.29338038 -0.8404935 0.18343914
0.3005591 -0.84874296 0.1850951
0.31538048 -0.83964992 0.1898189
0.33503935 -0.84742826 0.19441058
-0.41689298 -0.82052135 0.1873119
-0.39611021 -0.82607996 0.18984163
-0.38176283 -0.82891464 0.18467349
-0.35291341 -0.82473797 0.18624476
-0.33034557 -0.83462751 0.17975137
0.32288381 -0.83051366 0.18586493
0.33959338 -0.82451081 0.18672098
0.34751284 -0.8314085 0.18302011
0.36865184 -0.82349265 0.18688717
0.38856009 -0.82879341 0.19408275
-0.46336907 -0.80078626 0.18247686
-0.44348234 -0.80095202 0.19468912
-0.43535841 -0.81067175 0.1922013
-0.41403264 -0.80111748 0.18857157
-0.39571148 -0.81414932 0.18220809
-0.37511915 -0.80164623 0.18429478
0.3921788 -0.81026793 0.18993407
0.40648749 -0.80790448 0.18996604
0.42794988 -0.80531543 0.18467483
0.46672779 -0.80093163 0.19474684
-0.48219582 -0.7884801 0.18251209
-0.47728544 -0.78456908 0.18810366
-0.40367073 -0.79655236 0.18462609
0.39459679 -0.79707563 0.18627147
0.43351853 -0.79173839 0.18320803
0.45012465 -0.78306168 0.18848972
-0.51111394 -0.7696237 0.1885882
-0.50020969 -0.77481872 0.18264446
-0.47542402 -0.77357322 0.19029675
0.46804917 -0.7751283 0.19008891
0.4869031 -0.77050012 0.18839271
-0.53522271 -0.74629897 0.18392064
-0.50502247 -0.74878383 0.18467183
-0.48923424 -0.74942851 0.18818533
0.47912842 -0.75019807 0.18552096
0.5011943 -0.74694669 0.18370166
0.5201512 -0.74972862 0.18687306
-0.56330019 -0.73479062 0.19656132
-0.55189151 -0.73356605 0.19079652
-0.52578121 -0.73595512 0.18347244
0.51188302 -0.73848182 0.19113708
0.52540636 -0.73350215 0.19026072
0.54971266 -0.72363847 0.1940461
-0.59189826 -0.7041651 0.18521926
-0.56675994 -0.71679944 0.18941638
0.54122013 -0.71836305 0.1841335
0.5575543 -0.70357388 0.18711884
0.58460975 -0.71362895 0.19571351
-0.62190253 -0.69198018 0.19869828
-0.60883224 -0.6923902 0.18344575
-0.59031314 -0.69510144 0.1947145
-0.56752092 -0.69750768 0.18540566
0.56513172 -0.69764149 0.18953401
0.58213335 -0.69133538 0.19153212
0.61433637 -0.68597668 0.19100977
-0.64525491 -0.6647507 0.18371448
-0.6263845 -0.67110795 0.18919742
-0.61167067 -0.66803932 0.18136872
0.58768386 -0.66890007 0.1877674
0.59744281 -0.67255312 0.18464532
0.62300223 -0.66843194 0.19517109
-0.66292107 -0.64976591 0.18392749
-0.65143055 -0.65963787 0.18931505
-0.62046498 -0.65818644 0.18622045
-0.6141569 -0.65845555 0.19691908
0.61521697 -0.66126364 0.18697679
0.63841242 -0.65354985 0.18554565
-0.6784004 -0.63034892 0.18444356
-0.64733487 -0.63460779 0.18499969
0.6447044 -0.6362769 0.18601564
0.67558312 -0.62755758 0.18799527
-0.69396812 -0.61082137 0.18496244
-0.6774931 -0.61811513 0.18546245
-0.657287 -0.60731959 0.181126
0.64482355 -0.6181137 0.18537743
0.66523618 -0.61294681 0.18564066
0.67139292 -0.60715091 0.19491665
-0.70593458 -0.58945537 0.19010355
-0.68265313 -0.60020214 0.19266975
0.67644358 -0.59046066 0.19037983
0.70832801 -0.59444708 0.19505218
-0.73423713 -0.57204229 0.19845682
-0.72536558 -0.57141715 0.18601026
-0.70236617 -0.57925206 0.18981583
0.67772478 -0.58212739 0.18367785
0.69900697 -0.57470036 0.19342649
-0.74120301 -0.5515511 0.18653819
0.71286738 -0.55143923 0.18982659
-0.75917798 -0.53295416 0.19184944
-0.73465663 -0.54755682 0.18065427
-0.71786451 -0.54419374 0.18779616
0.6998055 -0.54760402 0.18059725
0.71720141 -0.54745471 0.18771896
0.73192781 -0.53519458 0.18957806
-0.77315289 -0.51147401 0.18760316
-0.75257444 -0.5194639 0.19531822
-0.73777288 -0.52401751 0.18178114
-0.72748357 -0.51642174 0.19016716
0.70718378 -0.5239616 0.18166664
0.72462016 -0.52152801 0.1826172
0.73894477 -0.51464498 0.18425699
0.75317663 -0.51811993 0.1971879
-0.78926712 -0.49126104 0.18814026
-0.78796327 -0.49697885 0.19481963
-0.75971222 -0.49817333 0.18896216
0.73482448 -0.49877402 0.18976998
0.75605273 -0.49430472 0.19120154
0.77446061 -0.50368553 0.19151694
-0.79324919 -0.47355893 0.19803423
0.76256454 -0.47350088 0.19791983
0.7774334 -0.47661331 0.19215676
-0.81445825 -0.45996165 0.19302595
-0.79915231 -0.46734491 0.1907813
-0.78382605 -0.4692058 0.19860721
-0.75191253 -0.47166389 0.18866253
0.77629721 -0.46343002 0.19018531
0.79122144 -0.4531574 0.19076933
0.80845577 -0.4691602 0.19870834
-0.81917417 -0.44433662 0.18963028
-0.7963962 -0.44194525 0.18772323
-0.78404099 -0.44414419 0.18433362
0.76994854 -0.43584564 0.1823083
0.79200435 -0.44412881 0.18996717
0.8086881 -0.4440794 0.18447441
-0.8321923 -0.41549039 0.1907199
-0.7999627 -0.41964751 0.18878733
0.80097538 -0.42018569 0.18637329
0.8050673 -0.42129782 0.1911533
-0.80553746 -0.41148698 0.18154071
0.78290677 -0.41385216 0.18196718
0.79790264 -0.41202199 0.18447864
-0.83571547 -0.38529137 0.19067632
-0.80973768 -0.38655925 0.18438151
0.80131638 -0.38082716 0.19216762
0.81320482 -0.38854864 0.18945633
-0.83381039 -0.35935897 0.18907061
-0.82301635 -0.37470549 0.1960513
0.82879496 -0.3611691 0.19269101
0.84801805 -0.37464663 0.19617414
-0.86000872 -0.35178754 0.19301842
-0.83880502 -0.34525114 0.18281627
-0.82175511 -0.35058498 0.18225373
0.80750382 -0.34518698 0.18269867
0.82738364 -0.34686786 0.19302435
0.84899062 -0.34778905 0.18469588
-0.87216759 -0.32688457 0.19406746
-0.86070234 -0.31990013 0.17979205
-0.83970475 -0.33374947 0.18372899
0.83213127 -0.33417836 0.18665549
0.8447355 -0.33260217 0.19451539
-0.8617475 -0.30787098 0.1964971
0.83306754 -0.31190804 0.18393606
0.85827446 -0.30232978 0.19566284
-0.88581252 -0.29664922 0.19520949
-0.87253022 -0.28643814 0.19231793
-0.86290342 -0.28669912 0.1977938
0.83953416 -0.28885573 0.19267912
0.86000967 -0.28290272 0.19409946
0.86405921 -0.28706583 0.19536495
-0.89962667 -0.26606575 0.19636451
-0.88390261 -0.27814054 0.1865827
-0.86395836 -0.2762647 0.1964339
0.85018784 -0.27819473 0.18650991
0.87198192 -0.27170792 0.19682315
0.88936299 -0.27620161 0.19655824
-0.87223858 -0.25281429 0.18681331
0.84610587 -0.25200275 0.18308276
0.86995518 -0.25545263 0.18985237
0.89039671 -0.24886189 0.18492351
-0.90918803 -0.23329929 0.19566722
-0.87843454 -0.23230703 0.18114668
-0.85658407 -0.23780657 0.18773255
0.86025381 -0.23869209 0.19519277
0.87237597 -0.2347351 0.18842696
0.88491523 -0.23937587 0.19304138
-0.90443689 -0.20643838 0.18589841
-0.89560491 -0.20745032 0.19798554
-0.88132179 -0.21889187 0.18965942
0.85981876 -0.22012608 0.18156666
0.87224478 -0.20717917 0.18375961
0.88139856 -0.21911298 0.18770713
-0.88464379 -0.18451257 0.18819217
0.86848092 -0.19630866 0.18819726
0.8847279 -0.18469712 0.18623684
-0.89743984 -0.18285955 0.19627219
0.87619913 -0.17793828 0.18739899
0.89065236 -0.18303618 0.19855326
-0.89630932 -0.15252979 0.18763103
0.89026922 -0.15434235 0.19080724
-0.92169648 -0.12943573 0.19483918
-0.89816797 -0.13987724 0.19147444
-0.87680525 -0.12918706 0.19255912
0.8914789 -0.13171421 0.19493546
0.90376079 -0.12933528 0.19279876
-0.9101333 -0.1258917 0.18815811
-0.89709812 -0.11245254 0.188216
0.87171972 -0.12128828 0.18948627
0.89376485 -0.11255807 0.18836495
-0.91896147 -0.10125039 0.19103159
0.8864311 -0.099815972 0.18730265
-0.91092891 -0.077549525 0.18472949
-0.89461237 -0.081042476 0.18378961
0.89230108 -0.07878352 0.18448368
-0.90652579 -0.06047608 0.18778889
0.8970089 -0.054676786 0.1817846
0.89976859 -0.060525924 0.19004151
-0.923801 -0.043205947 0.1816745
-0.9069463 -0.035162471 0.18538085
-0.89795566 -0.046441816 0.18231305
0.89806765 -0.046478957 0.18034521
0.90157902 -0.036136977 0.18835147
-0.93622643 -0.025242381 0.19617987
-0.91014767 -0.011785419 0.18440722
-0.90130395 -0.011785419 0.18083414
0.9035008 -0.018542927 0.19137254
-0.93367088 0.0043211561 0.18973422
0.88257891 -0.01048781 0.1840999
0.90294379 0.0022206996 0.18685456
-0.92780483 0.023951789 0.18463951
-0.91138732 0.012355167 0.18233819
-0.89592975 0.019596687 0.18552785
0.87984532 0.01224657 0.18019146
0.91013765 0.014365314 0.18853448
-0.92918503 0.037847802 0.18977284
-0.91160434 0.039178856 0.18687296
-0.89966226 0.030412579 0.18295312
0.87517506 0.044397667 0.18179381
0.88940251 0.03966517 0.18861727
0.90159041 0.036917455 0.18834062
0.92392963 0.028043913 0.18448104
-0.90653759 0.061250217 0.18777792
-0.89227223 0.054319143 0.18658367
0.8980971 0.057602152 0.18033229
0.90627426 0.056157596 0.19055519
-0.92474216 0.071052872 0.1898109
-0.91713065 0.070949107 0.1950483
0.88834566 0.070998617 0.19233343
-0.91164595 0.093791179 0.19209045
-0.89464116 0.092100896 0.18377681
-0.88262922 0.085617401 0.19149384
0.89635116 0.088991307 0.1867732
0.90870696 0.085487753 0.19172697
-0.92034149 0.10394145 0.18984894
-0.90290463 0.11012822 0.1911701
-0.8787387 0.11980713 0.19213654
0.89298326 0.10845166 0.19087748
0.90468168 0.11968062 0.19236852
-0.91477478 0.13258021 0.18937695
-0.89619654 0.13062088 0.18905781
0.88989609 0.13266525 0.18940373
-0.90030217 0.15159789 0.18745555
-0.87488222 0.15369621 0.19277363
0.86661685 0.14716771 0.18608332
0.8924883 0.15933263 0.19683935
0.90068614 0.15358365 0.19298343
-0.91166514 0.1687859 0.18992357
-0.895064 0.16918141 0.19019966
0.87296045 0.17470931 0.19419603
0.88392603 0.16499493 0.18729256
-0.88930255 0.18681665 0.19310281
-0.8710596 0.18728822 0.193405
0.87192166 0.18996617 0.18411499
0.89071149 0.188943 0.1927902
0.91309083 0.18143064 0.19516498
-0.90738821 0.20075072 0.18996026
-0.89561665 0.2083365 0.19797458
0.87456542 0.20474137 0.18577933
-0.89699775 0.22564781 0.19394131
-0.87568909 0.22788838 0.18827119
0.85985225 0.21970096 0.18159236
0.86937785 0.23192288 0.19046037
0.88600582 0.22659227 0.19235407
-0.88112485 0.25402331 0.19260772
0.84956104 0.25294563 0.18877326
-0.89663231 0.26829231 0.19799183
-0.87313479 0.26106021 0.18960865
0.85130143 0.26082772 0.19682801
0.86839318 0.26369008 0.19251484
-0.87068474 0.28550479 0.19315034
-0.86006641 0.29460794 0.18207678
0.83194119 0.29302609 0.1888351
0.86003333 0.28397599 0.19407752
-0.86235148 0.3032327 0.19712816
0.83803695 0.30982319 0.18130347
0.86408752 0.29790726 0.19535227
-0.8589412 0.32060778 0.19247542
-0.83844268 0.3331126 0.19357562
-0.8248961 0.3223545 0.18851672
0.82810366 0.32061926 0.19108777
0.84996533 0.32229456 0.18863957
-0.83907241 0.34028646 0.1883253
0.8110413 0.35141361 0.19338591
0.83215564 0.3354035 0.18663356
0.86634725 0.33334261 0.19391204
-0.85776883 0.36005715 0.19739233
-0.83549613 0.36233196 0.18882355
-0.81961644 0.36389819 0.17992936
0.80301207 0.36411053 0.18852426
0.82648838 0.36055076 0.19462742
-0.83159143 0.38544044 0.19152801
-0.82520843 0.3750878 0.19182791
0.79793864 0.38090435 0.19226538
0.82031935 0.38693666 0.19736046
-0.81173974 0.40283334 0.18560146
0.77890497 0.40729365 0.18164779
0.81080407 0.39760235 0.18194319
-0.82614243 0.41497466 0.18753554
-0.80556238 0.41289324 0.18151854
-0.78492439 0.41878435 0.18822394
0.78304863 0.41390792 0.18207233
0.7927236 0.41281357 0.18767777
0.80960429 0.41871944 0.18836519
-0.81388128 0.43464079 0.19520749
-0.7996034 0.43401295 0.18843274
-0.78332728 0.44435075 0.18345073
0.7758441 0.43678609 0.19259746
0.79644269 0.43511659 0.18810721
0.81161147 0.4445945 0.18379036
-0.81994063 0.44937548 0.19682541
-0.79088074 0.46402857 0.19331019
-0.78566563 0.45953557 0.18868417
0.75679398 0.46124604 0.18938865
0.77447194 0.46673977 0.18875755
0.79024994 0.45642537 0.1937259
-0.79084855 0.47359893 0.18854877
-0.7695148 0.47983128 0.18814394
-0.7494157 0.4813883 0.18863316
0.74065375 0.48161364 0.1888442
0.75822258 0.47358915 0.18845512
0.77383429 0.48134431 0.18873316
-0.75857794 0.49682704 0.18657096
0.72460735 0.50186259 0.18830296
0.75431716 0.49466267 0.18996517
0.7754367 0.49550763 0.19788384
-0.75714386 0.51674831 0.19506681
-0.73749316 0.52007151 0.1870726
-0.71607274 0.51543456 0.18155819
0.71666312 0.52271384 0.18516833
0.73362875 0.51383454 0.18823074
-0.75690556 0.53667438 0.19698289
-0.72604722 0.53255147 0.1850774
0.69278657 0.54199725 0.18723071
0.73008418 0.5313558 0.18852283
-0.73466104 0.54996395 0.19668074
-0.72219467 0.55601984 0.18932293
-0.70584512 0.55986214 0.18601272
0.67702287 0.56190991 0.186698
0.69952816 0.55571252 0.19273426
0.71529609 0.55439901 0.19004254
-0.70217854 0.57255393 0.18640769
-0.68692338 0.57581598 0.18885368
0.66134363 0.58169574 0.1861691
0.67794323 0.57219845 0.18275376
0.7166521 0.57051063 0.18980832
-0.70258087 0.58715969 0.19266757
-0.67455238 0.59918588 0.18496583
0.64576054 0.60138035 0.18564244
0.67222244 0.5870946 0.18965583
0.70106488 0.58839989 0.19513972
-0.68070251 0.60499084 0.18636261
-0.66165012 0.61728448 0.18684371
-0.65115821 0.60512763 0.18518636
0.6451388 0.60185504 0.18233527
0.67323995 0.60727566 0.19007351
0.69764835 0.61672825 0.19551809
-0.64697999 0.63817942 0.18336673
0.62173396 0.62913418 0.18496637
0.64014906 0.63973719 0.18771495
-0.66766989 0.64796978 0.19374624
-0.64313614 0.64565194 0.19030987
-0.62599033 0.65307021 0.18371528
0.59489632 0.65125078 0.1846766
0.61711675 0.64014757 0.18460457
0.64109182 0.64820099 0.18937716
-0.62869525 0.67044324 0.19505224
-0.60975868 0.66879302 0.1824459
-0.58949751 0.66505027 0.18420963
0.58204085 0.6688447 0.1892664
0.5983265 0.67303443 0.18881567
0.61811841 0.67136967 0.18969533
-0.59181696 0.68169886 0.18294434
-0.56567824 0.69355947 0.18611793
0.54011947 0.69288218 0.18426926
0.55845129 0.68088937 0.18339446
0.58346659 0.69261855 0.18898171
-0.59019971 0.70008397 0.18977708
-0.56644863 0.70741886 0.1875324
-0.55330956 0.70823234 0.18317866
0.5252558 0.71108031 0.18797846
0.56200361 0.70311487 0.18512823
-0.55861044 0.72859126 0.19025406
-0.53355473 0.72262698 0.18561666
-0.51713049 0.73569095 0.1829116
0.48558035 0.73431623 0.18386433
0.50150555 0.72319776 0.18207744
0.52899271 0.72854567 0.19014436
0.54978716 0.73243916 0.19401044
0.55397236 0.72005057 0.19366853
-0.54946721 0.73656279 0.19847763
-0.52587026 0.73918092 0.1834009
-0.50384837 0.74471211 0.19361205
-0.49908441 0.74939537 0.18277799
-0.47127861 0.75334746 0.18176001
0.46745223 0.7480827 0.18373011
0.49453968 0.75331962 0.18183658
0.51195788 0.74180508 0.19107719
0.52464771 0.74732494 0.19832826
0.53801626 0.74305564 0.1899268
-0.52967817 0.75869966 0.19811411
-0.50475508 0.75882149 0.1896861
-0.4943437 0.75604731 0.18735121
-0.48105815 0.76306838 0.18264531
0.43034405 0.77409667 0.18356889
0.44935817 0.76184022 0.18359534
0.46900859 0.75887436 0.18962771
0.50025916 0.7584033 0.19016932
-0.48151147 0.77455229 0.18448676
-0.47199395 0.77943891 0.18683578
-0.4442496 0.78904748 0.18247609
-0.4340646 0.78352755 0.18552805
0.38797468 0.79200995 0.18400216
0.40918109 0.78303701 0.18378565
0.45069727 0.77811486 0.17999546
0.4664734 0.7788077 0.18938252
0.47858745 0.78560889 0.19291796
-0.44394988 0.79844809 0.19216956
-0.42773303 0.80556911 0.18233231
-0.41665909 0.80288434 0.18661128
-0.39417019 0.80721366 0.18641278
-0.36990228 0.80758274 0.18208326
-0.35775816 0.8108393 0.18037806
0.34540948 0.81002027 0.18443674
0.37495118 0.80559206 0.18324719
0.39636132 0.80264121 0.18417779
0.40865761 0.8029905 0.19105531
0.4247573 0.80925542 0.18421523
0.44324356 0.80064517 0.1846022
-0.42845911 0.81295192 0.19158983
-0.39826757 0.82177669 0.18476328
-0.38104293 0.81584561 0.1831187
-0.35628957 0.82588726 0.18549655
0.30263215 0.82810628 0.1848743
0.33191723 0.82397729 0.18561359
0.36839062 0.8269999 0.18803236
0.38708276 0.82135206 0.1820619
-0.37496474 0.83533549 0.19144619
-0.35093421 0.83886182 0.19422437
-0.33450025 0.83407903 0.1888199
-0.31867102 0.84415072 0.1854587
-0.29781631 0.84259874 0.18397836
0.25964832 0.84627938 0.18531406
0.28250012 0.84133011 0.1861131
0.31168559 0.84085214 0.19439995
0.32509583 0.83754766 0.18460114
0.34956375 0.83481026 0.19274117
0.39549568 0.83407032 0.19876628
-0.31495956 0.8688941 0.19591263
-0.29652631 0.85905933 0.18503718
-0.27945822 0.85800791 0.18749332
-0.2532649 0.87002021 0.18441768
-0.24032281 0.86574328 0.18447135
0.18994966 0.86739033 0.18646468
0.21566688 0.86349207 0.1858362
0.23807444 0.85539323 0.18553501
0.2526463 0.85211819 0.1800262
0.27033427 0.86090118 0.18520311
0.29776555 0.86096734 0.1982725
0.33517417 0.85483962 0.19434212
-0.26155874 0.87556672 0.19691683
-0.24492896 0.88710606 0.18762231
-0.22718091 0.88220614 0.18795395
-0.2033404 0.88126773 0.19185074
-0.18730922 0.88606673 0.18844135
-0.16235012 0.88517529 0.19240916
-0.12924941 0.88768697 0.19104318
0.058642805 0.88725519 0.18967527
0.085264355 0.88322043 0.18902473
0.10271066 0.88418084 0.18733861
0.12557386 0.88689917 0.1886614
0.13525788 0.87813693 0.18599784
0.16071686 0.87797487 0.18906885
0.18583301 0.8809678 0.19046071
0.19533546 0.88506997 0.18581624
0.22017559 0.88365376 0.19452903
0.23152353 0.88014233 0.19640088
0.276288 0.8751148 0.19002339
-0.19468911 0.89617163 0.1862701
-0.14664012 0.8958056 0.19038358
-0.12908439 0.89546567 0.18710522
-0.10393453 0.89676887 0.18650436
-0.087506987 0.89274836 0.19160077
-0.071333088 0.89859873 0.18496445
-0.055017289 0.89797288 0.18911506
-0.026994439 0.89536673 0.18696348
0.0048290687 0.89539915 0.19099097
0.031719178 0.89522725 0.18805134
0.051881962 0.89402092 0.18204582
0.061799102 0.89137948 0.1839332
0.081272811 0.8919009 0.18668135
0.10484761 0.90045542 0.18751669
0.13820232 0.9009884 0.19337277
0.16057637 0.89000797 0.19448571
0.17597446 0.90011168 0.19673856
0.2138508 0.89534932 0.19276941
-0.098292828 0.91594326 0.19420031
-0.075613894 0.91531509 0.19886273
-0.047739826 0.91908181 0.19297609
-0.024940776 0.91106945 0.18734682
-0.015291352 0.91026419 0.19772843
0.00082918443 0.9131332 0.18764393
0.027145244 0.91450757 0.18898562
0.041678261 0.91450483 0.19517264
0.070708051 0.91037887 0.19279256
-0.083124459 -0.93516248 0.21089216
-0.056654215 -0.93925714 0.21161504
-0.031137962 -0.93669093 0.21312706
-0.0021721814 -0.9338448 0.21193755
-0.0010346827 -0.94508034 0.21329764
0.030758783 -0.93780494 0.21506815
0.052192509 -0.93433481 0.21611276
0.066604726 -0.93854576 0.21614644
0.10111506 -0.93521178 0.21759991
-0.21275958 -0.91508508 0.20735358
-0.188656 -0.91793382 0.21176842
-0.16143936 -0.9230358 0.20875436
-0.13245268 -0.92631483 0.21372387
-0.10941227 -0.93109626 0.21017422
-0.093474664 -0.92291451 0.21684009
-0.07074406 -0.92411405 0.21266304
-0.053029176 -0.91855794 0.21083736
-0.020814102 -0.92487288 0.21512604
0.0052078376 -0.92875499 0.20919625
0.026022239 -0.92286468 0.20919035
0.043098401 -0.92429709 0.21209869
0.065131582 -0.92111909 0.20901558
0.092573717 -0.92026979 0.21478598
0.1056883 -0.92243695 0.21220507
-0.2832346 -0.89621878 0.20589852
-0.25831679 -0.90133429 0.2087045
-0.23742434 -0.90923721 0.20900017
-0.22261277 -0.90310681 0.20737055
-0.21125062 -0.91096419 0.21436478
-0.19293663 -0.9083491 0.21069731
-0.1655363 -0.90936452 0.20754957
-0.13818555 -0.91037798 0.20440754
-0.12291368 -0.89643002 0.20529993
-0.11088423 -0.91138989 0.2012711
-0.051477436 -0.91073257 0.21075365
0.05480409 -0.91182703 0.21426719
0.12052401 -0.90394408 0.21098185
0.13904758 -0.90915853 0.20572838
0.1656962 -0.90667504 0.20694014
0.1853862 -0.9054662 0.20505136
0.19613265 -0.89903879 0.20874664
0.2214126 -0.90094316 0.20535903
0.24332078 -0.90732563 0.21386997
-0.32214761 -0.88092136 0.21117838
-0.30410185 -0.88280475 0.21120849
-0.28157768 -0.88595736 0.20854114
-0.24216799 -0.88890147 0.20959194
-0.21999764 -0.8867954 0.19947544
-0.19680482 -0.8816359 0.19965895
-0.14873455 -0.88792723 0.20353332
0.17499419 -0.88958228 0.20599455
0.19531876 -0.88773608 0.1990554
0.22111201 -0.88663113 0.20580289
0.24683669 -0.89078069 0.20738637
0.25025505 -0.89109313 0.20701824
0.2767452 -0.88335621 0.20872366
0.29853886 -0.88159108 0.20718572
0.32678604 -0.87841272 0.21679875
-0.36796072 -0.86021954 0.20493406
-0.35018787 -0.85629791 0.20079502
-0.3468565 -0.86919016 0.2051741
-0.3251906 -0.86231017 0.2063783
-0.29666653 -0.86809236 0.21606065
-0.26254439 -0.87145299 0.20213683
0.26949406 -0.868397 0.20393614
0.29585263 -0.86757952 0.21134184
0.31076705 -0.86384952 0.2053339
0.33239591 -0.86513382 0.20487015
-0.41080245 -0.84278965 0.20961954
-0.39078283 -0.84867847 0.21122937
-0.37794787 -0.84380072 0.20626613
-0.36036775 -0.85172004 0.21066183
-0.33119044 -0.8548795 0.20301919
-0.31988025 -0.8478421 0.2034366
0.33233306 -0.85454524 0.20640789
0.34966439 -0.84700567 0.20541817
0.3723633 -0.8435961 0.2112741
0.38485742 -0.84832323 0.21019804
-0.45188668 -0.82456028 0.20397872
-0.43098131 -0.8334462 0.20421652
-0.41581988 -0.82464921 0.20851372
-0.37696084 -0.82714987 0.20709565
0.38926482 -0.8251819 0.20766333
0.41367763 -0.82332081 0.20218097
0.42751822 -0.82975942 0.21782896
0.44106099 -0.8245126 0.20957956
-0.50321704 -0.80050242 0.21555966
-0.48807427 -0.80228269 0.21007936
-0.47257629 -0.81059057 0.20390876
-0.45204097 -0.80689502 0.20889038
-0.42547068 -0.81054676 0.21060261
0.40597677 -0.81413138 0.20569395
0.43375424 -0.81093675 0.2100738
0.45704266 -0.80458933 0.20342751
0.46331182 -0.80069005 0.21023908
-0.50927418 -0.78974116 0.2039406
-0.4730891 -0.79565477 0.2096038
0.47788641 -0.78853649 0.20499644
0.50101709 -0.78749621 0.21242082
-0.54517198 -0.762532 0.20423655
-0.5298658 -0.76760101 0.2091403
-0.5084039 -0.7695691 0.20224863
0.49364609 -0.772946 0.20636101
0.50396073 -0.76323944 0.20755924
0.52567029 -0.7684564 0.20503914
-0.56280518 -0.75300276 0.21098793
-0.52648783 -0.74538773 0.204989
-0.51963717 -0.75251639 0.21669126
0.52883297 -0.75209403 0.20922112
0.55163842 -0.75326604 0.21782893
0.55505502 -0.74112177 0.2003898
-0.5992204 -0.72157377 0.2046818
-0.58670849 -0.72985524 0.20632859
-0.56527001 -0.73330259 0.20987566
-0.54352093 -0.72167188 0.19908649
0.52896023 -0.73067981 0.20362931
0.54284132 -0.73484373 0.2059176
0.55684829 -0.72450209 0.2080854
0.58157229 -0.73025101 0.2168687
-0.6167987 -0.70512825 0.20651138
-0.59179848 -0.70725918 0.21246094
0.56820613 -0.72000593 0.20574555
0.58634645 -0.70623189 0.20589662
0.61554223 -0.70723659 0.21252014
-0.63538337 -0.69416392 0.20498
-0.61541921 -0.69688952 0.21214451
-0.59365082 -0.69528735 0.21097706
0.5788359 -0.70162076 0.20494349
0.60228145 -0.69481504 0.20599303
-0.67165321 -0.66667277 0.2052791
-0.64726728 -0.68093246 0.2097782
-0.61907679 -0.67302465 0.20402665
0.60809946 -0.68044657 0.21391168
0.61970931 -0.67619205 0.20666896
0.64321989 -0.67211455 0.20709637
0.65129477 -0.67028737 0.21802689
-0.68332112 -0.64804715 0.20400096
-0.66238326 -0.65669996 0.2090631
-0.65218407 -0.65052748 0.20548905
0.64105445 -0.64915848 0.20467134
0.65860784 -0.64982587 0.20658891
0.67611676 -0.65049595 0.20556824
-0.69855517 -0.62686855 0.21084352
-0.68834972 -0.63327676 0.21779925
-0.66772079 -0.63679832 0.20679037
0.66208464 -0.63065773 0.21004479
0.67154205 -0.63530016 0.20852789
-0.71819949 -0.6087603 0.20699687
-0.70699877 -0.610098 0.20030056
-0.68337625 -0.61298096 0.20928943
-0.66868573 -0.61202163 0.21313117
0.6784721 -0.60982901 0.20141219
0.69370949 -0.61163968 0.2106998
0.70889115 -0.61750591 0.21274297
-0.73384029 -0.59283596 0.21191873
-0.69994682 -0.60469949 0.20775321
0.69820738 -0.59789485 0.21229067
-0.74962449 -0.56950396 0.20816572
-0.73011875 -0.57522517 0.21506645
0.70186037 -0.57753652 0.20233239
0.72105128 -0.5714798 0.20893177
-0.76312947 -0.55419755 0.21155258
-0.72336334 -0.56197739 0.20242119
-0.69683194 -0.56452125 0.20482361
0.6992209 -0.56293935 0.20261455
0.72589272 -0.56181705 0.20981333
0.73918903 -0.5562672 0.20585261
-0.78141093 -0.529796 0.20934814
-0.75687385 -0.53816938 0.21079352
-0.74028826 -0.54733866 0.21066432
0.73358524 -0.54496151 0.21105385
0.75281703 -0.53163433 0.2101229
-0.77924621 -0.51983738 0.21242636
-0.75309372 -0.52151626 0.20905736
0.74314827 -0.52049124 0.19978745
0.75778139 -0.51924801 0.21155758
0.77196079 -0.51924485 0.21007162
-0.79744166 -0.50977015 0.20994437
-0.78445709 -0.49259385 0.21663123
0.77262741 -0.49194619 0.20704378
0.78495157 -0.49132594 0.21132806
0.80911034 -0.492549 0.21673293
-0.81378239 -0.48688802 0.21055599
-0.77704418 -0.48767221 0.20196113
0.77960229 -0.48419282 0.21051195
-0.82881945 -0.46709821 0.21131651
-0.8179782 -0.45858791 0.21068451
0.80143833 -0.46738216 0.2130772
0.81443971 -0.45373914 0.2172794
-0.84040749 -0.44122174 0.21283004
-0.81794286 -0.4437432 0.20800874
-0.78338909 -0.44042733 0.20083526
0.7892254 -0.45048955 0.21066155
0.809928 -0.44163063 0.20886545
-0.83840638 -0.41660562 0.19969968
-0.82467991 -0.41808352 0.20845132
0.79522729 -0.41591814 0.20147645
0.80421615 -0.416664 0.19962564
0.8260746 -0.41815531 0.21358466
-0.85490727 -0.40980434 0.21374278
-0.838314 -0.4104172 0.21805352
-0.82201356 -0.40622613 0.20366228
0.81433922 -0.41148499 0.20278001
0.84704775 -0.40144342 0.20762579
-0.86817449 -0.38064122 0.21497825
-0.83865106 -0.38582531 0.21179296
0.81895876 -0.38469285 0.20870045
0.83727652 -0.38634866 0.21321608
-0.85659814 -0.36453706 0.20839377
0.82734561 -0.36735451 0.20888214
0.84253055 -0.35935721 0.21017838
-0.87578946 -0.35378987 0.2155173
-0.84297568 -0.35376641 0.20659468
0.84921688 -0.35554686 0.21046253
-0.89019412 -0.32643753 0.21525218
-0.85772055 -0.32628089 0.20209986
-0.83850789 -0.32950461 0.21075571
0.83306372 -0.32514203 0.20212795
0.85128832 -0.32869902 0.20584166
0.86713845 -0.32835805 0.21454369
-0.8845467 -0.30482763 0.19979739
-0.87788141 -0.30747914 0.21453346
-0.86296141 -0.30353996 0.20804153
0.85251296 -0.30657315 0.19957718
0.87037492 -0.30787098 0.21748579
0.88833165 -0.30347797 0.2081662
-0.88361382 -0.28218678 0.2091812
0.86958766 -0.28517157 0.21248186
-0.90742689 -0.26344505 0.20640098
-0.89660281 -0.26886415 0.21234198
0.86954755 -0.26615432 0.20926788
-0.88933063 -0.25701451 0.20384358
0.8898384 -0.25545213 0.21231136
-0.89845514 -0.23244001 0.20205413
0.87151927 -0.23273258 0.20429988
0.88698381 -0.23230593 0.20197882
-0.92862004 -0.21938361 0.21738842
-0.90742075 -0.213181 0.21678318
0.89208215 -0.21355049 0.20878489
0.90404361 -0.21933599 0.21516317
-0.92630237 -0.18925521 0.20982824
-0.90732473 -0.19286311 0.21004553
0.87562788 -0.2009571 0.20433074
0.89355659 -0.19123179 0.20498253
0.90739417 -0.18488327 0.21371359
-0.91476697 -0.17601398 0.20921123
-0.88583481 -0.17805691 0.21160249
0.87977546 -0.16888137 0.20436195
0.90952897 -0.18053457 0.21445346
-0.92399639 -0.15927696 0.20230611
-0.91256082 -0.15419134 0.21362825
0.88824528 -0.15426293 0.20176639
0.909244 -0.15434051 0.21380432
-0.92856473 -0.13311315 0.20239253
-0.91615158 -0.13511586 0.20791331
0.8874957 -0.14105664 0.2106135
0.90594447 -0.13908678 0.20806651
-0.91604638 -0.11245771 0.21118884
0.89409655 -0.12587698 0.20780464
0.91273654 -0.11256327 0.21135989
-0.92032605 -0.10387667 0.20452809
0.8881892 -0.10381182 0.2044249
0.90666217 -0.098596871 0.20954956
-0.93242633 -0.079348251 0.20534447
-0.91862553 -0.082959756 0.20960997
0.89245665 -0.070809074 0.20445679
0.91290504 -0.083258599 0.21013926
-0.9326821 -0.056347266 0.20746237
-0.92174304 -0.06042587 0.20620681
0.9104194 -0.057456657 0.2059633
-0.94477832 -0.033092692 0.21052928
-0.92635262 -0.036821745 0.20455055
-0.9206804 -0.046479203 0.20984441
0.89676499 -0.037488699 0.20448925
0.90906388 -0.034998536 0.20871046
0.92016494 -0.04493627 0.20757551
-0.92468864 -0.011785419 0.20559885
-0.89737034 -0.025279179 0.2005811
0.92225087 -0.016329736 0.20411149
-0.93364984 -0.0039265146 0.20464386
0.9011153 -0.0038457215 0.2045217
-0.95346671 0.021890128 0.21674608
-0.92752236 0.020694731 0.20735058
0.90359342 0.025784438 0.21100803
0.92189449 0.020222401 0.20968959
-0.94334853 0.033213034 0.21398631
-0.92354751 0.036817558 0.20449701
0.8976953 0.033084534 0.20725648
0.91681206 0.036867216 0.20676278
-0.9478367 0.051258482 0.21395986
-0.93513805 0.055951059 0.20760196
-0.92123204 0.059388764 0.20801385
0.91588527 0.058111854 0.21251436
0.92085135 0.05767709 0.20789132
-0.92688024 0.078850143 0.20118059
-0.91111231 0.074008398 0.20381357
0.88924742 0.084018558 0.20486176
0.93336535 0.075516053 0.20317243
-0.94442743 0.087874241 0.21656564
-0.91889817 0.092775181 0.20723085
0.88642073 0.10060418 0.20240805
0.91141021 0.091925487 0.21256888
-0.93997192 0.12039829 0.21647672
-0.91814864 0.1100023 0.20961271
0.9097333 0.11523148 0.21413743
-0.91482204 0.12851331 0.20911106
0.88792449 0.12975271 0.20675084
0.91255373 0.13239311 0.2137405
-0.93240374 0.15779375 0.21711938
-0.91453177 0.1589803 0.2130402
0.88825655 0.15438107 0.20936924
0.90577918 0.15585543 0.21581084
-0.91063046 0.16126648 0.21419263
-0.89896613 0.17126289 0.20011739
0.91075003 0.16145171 0.21226153
-0.93118608 0.18453227 0.21630108
-0.91000313 0.18961778 0.21519706
0.87294269 0.18242313 0.20023459
0.90429932 0.18804368 0.21565475
-0.92685455 0.21615073 0.21621469
-0.90767086 0.20785414 0.20885164
0.87100303 0.20766565 0.20114574
0.89208448 0.21232791 0.20818684
-0.90393776 0.23009843 0.21708839
-0.89440137 0.23219128 0.2069006
0.88699549 0.23323616 0.20196763
0.90404361 0.23035692 0.21516317
0.92262638 0.23157398 0.21438982
-0.91443133 0.24316195 0.21315569
-0.86496264 0.25065291 0.20046088
0.87321526 0.2381506 0.20872547
0.89059246 0.2493926 0.20898202
-0.88934237 0.25796521 0.20383261
0.8898648 0.26142862 0.21229398
-0.88376755 0.28137627 0.20560589
-0.86396348 0.27796209 0.21207766
0.85018271 0.27961224 0.20198019
0.86966032 0.28539947 0.21252668
0.88936824 0.27790004 0.21220244
-0.88715732 0.30538493 0.21132201
-0.87637621 0.30937526 0.21600431
0.85453659 0.30671903 0.20728768
0.87039888 0.30897078 0.21746351
-0.85294354 0.33102649 0.20219263
0.85077697 0.32371083 0.20888659
-0.88300824 0.34014288 0.21663237
-0.85955691 0.34097022 0.20891128
-0.82395512 0.34924409 0.20000333
0.83075041 0.34712115 0.21266405
0.84980005 0.34140235 0.20713931
-0.8701089 0.35581607 0.2149076
-0.84908944 0.3647615 0.21109478
-0.84300423 0.3643963 0.20658234
0.8433308 0.36275247 0.20716657
-0.84424227 0.38587213 0.21260001
-0.82301635 0.37607229 0.21146342
0.82000321 0.37980193 0.21213788
0.83666378 0.38640368 0.21557531
0.84802324 0.37600487 0.21160729
-0.85129106 0.39507633 0.20666255
-0.83527017 0.39577264 0.2088965
0.81063962 0.39687434 0.20756516
0.8341887 0.39814734 0.20855726
-0.83837235 0.41509831 0.21671602
-0.82122427 0.42265606 0.2098411
0.80929005 0.41569513 0.20904242
0.84823215 0.42865863 0.21754007
-0.84491068 0.42956918 0.21579312
-0.81962967 0.43451297 0.21025917
-0.78404552 0.44519758 0.19957776
0.79495996 0.4330968 0.21300615
0.81043887 0.43787611 0.20785704
0.82431865 0.43123883 0.21291661
-0.81491005 0.45899823 0.21039867
0.78070521 0.4608351 0.21035299
0.80175477 0.4653005 0.21418481
0.81446731 0.46416804 0.21726723
-0.79388785 0.47815278 0.21054821
-0.78382605 0.47026154 0.21382712
0.76521158 0.47992212 0.21133003
0.80845577 0.47021675 0.2139286
-0.81193078 0.48682398 0.21313906
-0.77999252 0.49614277 0.20612545
-0.75001907 0.50462663 0.20653833
0.75128484 0.49963924 0.21067995
0.77620667 0.49499699 0.20887978
-0.77769816 0.51599264 0.20870095
-0.76184624 0.51825142 0.20935196
0.73819524 0.52125257 0.20493339
0.75780982 0.51649976 0.21088947
-0.75843948 0.5313524 0.21066643
-0.7459693 0.53814089 0.20875807
-0.71664119 0.53855962 0.19932292
0.71731836 0.54010576 0.20952758
0.73371655 0.53758729 0.20597003
0.75881612 0.52710068 0.20537512
-0.74033481 0.55325556 0.21063498
-0.72369391 0.55981261 0.2126424
0.70153725 0.55993676 0.20893359
0.73860627 0.55679828 0.21320887
-0.7413727 0.57465625 0.21603721
-0.72231668 0.57740521 0.21130711
0.68584651 0.57965422 0.20834316
0.70065182 0.57706964 0.20836727
0.71845484 0.57484162 0.21747059
-0.72146809 0.59933352 0.20959169
-0.69886243 0.59709281 0.20699959
-0.68423265 0.59509242 0.20989349
0.67024535 0.59925914 0.20775598
0.69146013 0.59928256 0.20948072
0.70832407 0.59506005 0.20997326
-0.70349282 0.60974652 0.21206497
-0.68268299 0.61726421 0.20615575
0.65473288 0.61875242 0.20717217
0.67851418 0.61591089 0.20943981
0.69037342 0.60816932 0.21228278
-0.69452202 0.62369233 0.20164673
-0.68414611 0.63104045 0.20906773
-0.66865581 0.63639241 0.20308141
-0.65166879 0.6280483 0.20274287
0.64203954 0.63234311 0.2034526
0.66211891 0.63096112 0.20322341
0.67557901 0.62801683 0.20282184
-0.66615689 0.64848554 0.2131898
-0.65248418 0.65491778 0.20528084
-0.6204614 0.65853024 0.20097592
0.62167162 0.6531176 0.20635095
0.64422852 0.65851504 0.20101513
0.66904992 0.64970255 0.20986213
-0.66023582 0.66797954 0.21079059
-0.65143478 0.66238362 0.20554996
-0.62545282 0.67222476 0.20268227
0.60346442 0.66694456 0.2061993
0.61870998 0.66655332 0.20455821
-0.63788784 0.6784721 0.20046465
-0.6190744 0.68858832 0.20997584
-0.59816462 0.69610393 0.20483217
-0.59064418 0.68627357 0.20566401
0.56712484 0.69452482 0.20589752
0.5859338 0.68778497 0.21048976
0.60813701 0.6784246 0.2003545
0.61433274 0.68625116 0.20572285
0.65139902 0.6796599 0.21797889
-0.61582416 0.70360857 0.20785794
-0.61187226 0.70436829 0.21019073
-0.58899415 0.70637858 0.20636106
-0.56099951 0.71385622 0.21032511
0.54899865 0.70829022 0.20574643
0.55770147 0.70509589 0.20342053
0.58073074 0.7091459 0.2078183
0.60015059 0.70627928 0.20589045
-0.56748438 0.72871166 0.20899796
-0.54359519 0.7303831 0.19905071
0.51282042 0.73574811 0.20544595
0.53089952 0.72203517 0.20559558
0.57746625 0.73451149 0.21653141
-0.57903028 0.73927575 0.216005
-0.56519884 0.73798889 0.2088618
-0.54304326 0.74025792 0.21052156
-0.53059191 0.7467553 0.20684615
0.4947747 0.74945235 0.20529561
0.498512 0.74829227 0.20130436
0.52779245 0.73779005 0.21289268
0.54264766 0.73919982 0.21103826
0.55505174 0.74125844 0.21501765
0.57410151 0.74424756 0.21779391
-0.52544338 0.76359248 0.21223353
-0.51024085 0.76996666 0.20181899
0.47674885 0.76312494 0.20514633
0.52759057 0.76027685 0.20462935
-0.50256473 0.78480804 0.20836155
-0.49024409 0.77793157 0.2039406
-0.47298121 0.78597271 0.20197231
0.43860036 0.79201591 0.1991619
0.43994105 0.78910333 0.20495598
0.46630147 0.78213471 0.20718496
0.49348092 0.77448785 0.20524804
0.5056504 0.78779238 0.21512541
-0.48487201 0.80486894 0.21629263
-0.47133344 0.80863297 0.20213892
-0.45020458 0.80450726 0.20711376
-0.414747 0.80419856 0.19951971
0.39785936 0.80695468 0.20543674
0.4189252 0.7980184 0.20519616
0.43791267 0.80418533 0.19955787
0.46672255 0.80083716 0.20920908
-0.45001099 0.81289715 0.20117626
-0.43793577 0.81599796 0.20961326
-0.41219243 0.82369906 0.20624462
-0.38983071 0.82660019 0.20848487
-0.38439494 0.83050042 0.20644629
-0.35867572 0.83108789 0.2036709
0.35556951 0.82487983 0.20592076
0.3766503 0.8208378 0.20696548
0.38205758 0.82824492 0.20660202
0.40788245 0.82175356 0.21137455
0.42973855 0.81289065 0.20798638
0.45711398 0.81274652 0.20339254
0.46502191 0.81464684 0.21057415
-0.39354628 0.84801567 0.2129501
-0.37584424 0.83590215 0.20297919
-0.34883669 0.84846801 0.20493406
-0.33681217 0.84148926 0.20487633
0.31307754 0.8428908 0.20640703
0.3343527 0.83388007 0.20616302
0.34579256 0.83230692 0.20124516
0.36836869 0.84239578 0.2100089
0.40858993 0.83513051 0.2076741
0.42763522 0.83767605 0.21777187
-0.35572132 0.85794783 0.21298769
-0.33118865 0.85463834 0.21741448
-0.32440141 0.86030567 0.2033975
-0.30473456 0.86213815 0.20660627
-0.2836805 0.86107934 0.20212981
0.24896109 0.87007481 0.20714018
0.27680498 0.86366034 0.20863031
0.29660618 0.86137366 0.20681225
0.31421214 0.85969508 0.21736957
0.32593784 0.85780507 0.20783629
0.35400021 0.85482609 0.21115442
0.3666715 0.85848922 0.21309929
-0.29675451 0.87512577 0.21601608
-0.2867628 0.87422842 0.20450236
-0.26401934 0.88452345 0.20589852
-0.24204126 0.87984854 0.20587957
-0.21975885 0.8869853 0.20385581
-0.19697246 0.88810349 0.19957061
-0.19238806 0.88799667 0.20072052
0.17667371 0.88754272 0.20874378
0.20234905 0.88358915 0.20804158
0.22176015 0.88460398 0.20454448
0.24261437 0.88697916 0.2038749
0.2521016 0.87300074 0.20332809
0.27004755 0.87885582 0.20787995
0.30036572 0.87438339 0.20211375
0.30716413 0.87880522 0.20853864
-0.27167591 0.89359576 0.20927125
-0.25670737 0.90716839 0.21663922
-0.23935115 0.89386392 0.20960486
-0.22186701 0.90096694 0.21211615
-0.19330128 0.90408212 0.21128778
-0.16462792 0.9072085 0.21046953
-0.14757214 0.89533764 0.20277704
-0.12309492 0.90239626 0.20520279
-0.10958699 0.90708619 0.21801858
0.045590781 0.90768969 0.21233086
0.072165534 0.90359771 0.21160409
0.098565899 0.89954513 0.21088135
0.12336747 0.90339065 0.21121877
0.15081364 0.89151239 0.20945172
0.15700027 0.90466768 0.21522415
0.17958041 0.89703876 0.20976557
0.24283735 0.89356822 0.20919549
0.24882779 0.89584404 0.20177266
-0.23651975 0.91093612 0.21124132
-0.21153677 0.9163121 0.214156
-0.18994194 0.92073756 0.21537499
-0.14197168 0.91152906 0.20875238
-0.12686533 0.91468114 0.21158633
-0.1089144 0.91476667 0.21025236
-0.090446211 0.91434568 0.21025334
-0.068161175 0.91597855 0.21109819
-0.049635004 0.91430044 0.21168889
-0.031702753 0.91492236 0.20482156
-0.0041570133 0.91559231 0.20677237
0.02449635 0.91345829 0.20730323
0.053546466 0.91604495 0.21010919
0.067122437 0.91712189 0.20431389
0.084618151 0.91639149 0.21349877
0.1008765 0.916062 0.21249385
0.12138461 0.92425627 0.2175947
0.13371725 0.91094404 0.21554035
0.1791767 0.91448104 0.20664947
-0.03692662 0.92792857 0.211612
-0.010213137 0.93210524 0.21233881
-0.0012590073 0.93553412 0.20451519
0.026839908 0.93773997 0.21537678
0.047837857 0.93464535 0.2127476
0.10578817 0.9282698 0.21215154
-0.070137344 -0.95530379 0.23324242
-0.04372241 -0.95946467 0.23403904
-0.033973623 -0.95225865 0.23509544
-0.0021720957 -0.95381999 0.23615575
0.02506369 -0.9553563 0.23725457
-0.19955546 -0.93495286 0.22933745
-0.17402868 -0.93897414 0.23010725
-0.14831933 -0.943012 0.23088333
-0.12243418 -0.94707781 0.23166458
-0.091951564 -0.93909812 0.22635381
-0.050422505 -0.9399879 0.22382347
-0.032287568 -0.94962341 0.23293722
-0.0032524453 -0.94514632 0.23670191
0.025711484 -0.9434461 0.23564097
0.052356005 -0.93931198 0.23483334
0.071303658 -0.94222063 0.23063672
0.079137124 -0.93428057 0.22664663
0.10675464 -0.93235075 0.22241898
-0.27257019 -0.91962594 0.22738615
-0.25584 -0.91663539 0.22728945
-0.2501103 -0.92701274 0.22781138
-0.22460945 -0.92491597 0.22677271
-0.19309977 -0.9247331 0.22885801
-0.16354257 -0.92635942 0.22609738
-0.145612 -0.92650306 0.22532284
-0.12460017 -0.92003274 0.22745256
-0.10553109 -0.92601162 0.22220552
-0.088286787 -0.91656017 0.2238616
-0.031508662 -0.93154043 0.23697734
-0.018139118 -0.93038768 0.22895503
0.029234625 -0.92129868 0.22248389
0.071098745 -0.92064416 0.21883871
0.10020341 -0.92713398 0.22945309
0.12518756 -0.92534935 0.22840977
0.13784751 -0.93052799 0.22339028
0.15842187 -0.92485571 0.2276729
0.1829125 -0.92393464 0.2270748
0.2079955 -0.92002976 0.22609073
0.21803579 -0.91970849 0.2275261
0.24828982 -0.91693342 0.22403783
-0.31485659 -0.90162134 0.22685377
-0.29255584 -0.90340972 0.22672321
-0.27830297 -0.90314823 0.22864895
-0.24815822 -0.90507495 0.220847
-0.23198344 -0.90370375 0.22406511
-0.19738014 -0.90775329 0.22730605
-0.16022688 -0.90660238 0.21980475
0.07918679 -0.91139603 0.21812482
0.21794143 -0.90735829 0.23434658
0.23833941 -0.90379542 0.22581519
0.2543163 -0.90821421 0.23089354
0.27651614 -0.89893198 0.22397989
0.29977009 -0.9000237 0.22878715
-0.3779082 -0.8747682 0.22606044
-0.35319239 -0.88038611 0.22511055
-0.33398122 -0.88393748 0.22650796
-0.30300349 -0.89184844 0.21987411
-0.28349537 -0.88484275 0.22705315
-0.2693387 -0.89185953 0.2299114
0.30018458 -0.8872385 0.22821358
0.31746259 -0.87766254 0.22591108
0.33818606 -0.87523204 0.2272642
0.35438961 -0.87698042 0.22829466
-0.41969052 -0.85696423 0.22553533
-0.39882392 -0.86585581 0.22579753
-0.37856334 -0.87222415 0.2325386
-0.36052713 -0.8720156 0.23614702
-0.34104612 -0.86981875 0.23106982
-0.32760915 -0.8716554 0.23468411
0.29656923 -0.86578232 0.21860439
0.31665888 -0.8743028 0.23192678
0.34025896 -0.86325079 0.22537759
0.34431422 -0.87052047 0.23081967
0.36365381 -0.86027437 0.22741053
0.383755 -0.87199628 0.23620541
0.40842664 -0.85886389 0.23329291
-0.46127692 -0.83924365 0.22501278
-0.43659821 -0.84198588 0.22479334
-0.41689602 -0.84503824 0.23207112
-0.39222416 -0.84621096 0.22631353
-0.35574514 -0.84744918 0.22069295
0.37017822 -0.84841585 0.22955365
0.3915253 -0.85291594 0.22960252
0.40780911 -0.84250069 0.22365396
0.44020721 -0.84501839 0.23212951
-0.50245142 -0.822815 0.23665623
-0.49121448 -0.82420039 0.22478618
-0.47220415 -0.82652855 0.23083173
-0.45054647 -0.82582724 0.22665012
-0.41623989 -0.82629776 0.22544953
0.43170473 -0.83191633 0.22760966
0.44525158 -0.82367057 0.22963884
0.46739691 -0.82205689 0.22744572
-0.51355672 -0.80147398 0.22826727
-0.47602782 -0.8107391 0.23064283
0.45351049 -0.80656582 0.22394778
0.46951336 -0.8098954 0.22517422
0.48547435 -0.80506241 0.22583868
0.49741831 -0.81686169 0.23096092
-0.53429359 -0.79043663 0.22612405
-0.50215304 -0.79026461 0.22272421
0.47183993 -0.7907654 0.21902898
0.50097317 -0.78985834 0.22668546
0.5266937 -0.78969246 0.22639056
-0.57181978 -0.7639237 0.22547114
-0.55235225 -0.77068353 0.23072155
-0.53255534 -0.76239467 0.22171527
-0.49962762 -0.77726924 0.22008467
0.5072844 -0.77019638 0.2229158
0.52191877 -0.77383798 0.23162599
0.54086113 -0.76258874 0.22663562
0.55613875 -0.76236624 0.22179379
-0.58669108 -0.74621892 0.22802246
-0.54879731 -0.75166887 0.23201723
0.54959142 -0.74154419 0.22926769
0.55660832 -0.74980617 0.22763427
-0.62563765 -0.72317135 0.22596167
-0.60767424 -0.73677921 0.22579753
-0.59451807 -0.72852141 0.23121238
-0.57109284 -0.72364312 0.22155872
0.54944241 -0.73683703 0.22595012
0.55913049 -0.73341864 0.22124879
0.5796895 -0.7331059 0.2315536
0.59490186 -0.72162008 0.22713126
0.61675286 -0.72858006 0.23411472
-0.6465562 -0.7068131 0.2285475
-0.62096554 -0.71422267 0.21959934
-0.60822082 -0.71124947 0.22174349
0.58216739 -0.71272957 0.22059788
0.59835178 -0.70255196 0.22873545
0.61364371 -0.70600957 0.22912377
-0.66165 -0.69590706 0.22628959
-0.6382972 -0.69454277 0.22685954
-0.62224931 -0.69900322 0.23155493
0.60198247 -0.69924152 0.21978435
0.62653971 -0.69799829 0.23160607
0.63891888 -0.69750005 0.22846688
-0.69575858 -0.66459739 0.2269595
-0.67924511 -0.67706096 0.22400871
-0.64883542 -0.67064226 0.22392847
0.64569622 -0.67182773 0.22474325
0.66733348 -0.66672015 0.22779498
0.67697334 -0.67282844 0.22482039
-0.7057389 -0.65481716 0.23329589
-0.68177325 -0.66228747 0.23165183
0.66186792 -0.66298717 0.23409718
0.67703074 -0.65341473 0.23220339
-0.72667438 -0.62613422 0.22822694
-0.70692348 -0.63331181 0.22667743
-0.68531859 -0.64063299 0.23038177
0.67515069 -0.63461339 0.22028127
0.69830662 -0.62828213 0.22905847
0.70945507 -0.64060122 0.23046198
-0.73782629 -0.61382002 0.23144336
-0.70675498 -0.60953188 0.23079734
0.6985963 -0.62096161 0.23396365
0.71182531 -0.60973084 0.2285926
-0.75793546 -0.58722138 0.22950998
-0.72008383 -0.60230064 0.22415948
0.69143134 -0.6010592 0.22311299
0.70916879 -0.60469639 0.22967005
0.72955245 -0.58924979 0.23034982
-0.76035488 -0.58302665 0.23203088
-0.74860579 -0.57535309 0.23174554
-0.72034848 -0.58137828 0.22171231
0.72267038 -0.57892424 0.22572227
0.74221468 -0.57629615 0.22927724
-0.7737028 -0.56760502 0.23015636
-0.75121969 -0.55029672 0.2272491
0.76115692 -0.54977 0.23165612
0.77570766 -0.55025369 0.22735058
-0.78956002 -0.54787636 0.23080643
-0.78706759 -0.5454874 0.23006043
-0.75989985 -0.54613239 0.22228529
0.75151497 -0.54638296 0.22840312
0.77709532 -0.52985966 0.23231481
-0.79740942 -0.52272308 0.23042983
-0.7834205 -0.51542062 0.22920397
0.75394833 -0.51319069 0.21876168
0.77997899 -0.51843041 0.23391943
0.78409356 -0.51793778 0.23068163
0.80976582 -0.51597542 0.2347869
-0.81754231 -0.50818485 0.23011304
0.77916086 -0.50835168 0.2280343
0.79312575 -0.50983441 0.23297739
-0.83768022 -0.48800826 0.23277943
-0.81189656 -0.48823968 0.2270001
-0.79886144 -0.48763692 0.22310214
0.7814613 -0.48818284 0.226888
0.79585606 -0.48856336 0.22366242
0.80924892 -0.4896934 0.2336437
-0.85122961 -0.46137205 0.23397534
-0.83965379 -0.47110289 0.22657704
-0.82003039 -0.45683435 0.22632362
0.81135714 -0.46275812 0.22976124
0.82451415 -0.46719009 0.23449945
0.84511882 -0.45484388 0.23047192
-0.83238107 -0.43636766 0.22351123
0.83113259 -0.43782309 0.2311721
-0.86208695 -0.42632645 0.2348486
-0.84488398 -0.43078852 0.22973542
-0.82050139 -0.42630482 0.22680886
0.81423986 -0.43072072 0.22960651
0.829234 -0.42788699 0.23300555
0.84719509 -0.42639208 0.22705398
-0.85693461 -0.39844805 0.22023013
0.82041657 -0.39606631 0.22059639
0.82967389 -0.40589491 0.22034556
0.85060155 -0.4098992 0.23719524
-0.86049318 -0.38409606 0.23076847
0.85294044 -0.38459307 0.23376423
-0.8858431 -0.35833266 0.22626667
-0.86630934 -0.35843447 0.22533806
-0.86097968 -0.35789189 0.2311969
0.85542637 -0.35864866 0.22724231
0.88628137 -0.3578319 0.2313225
-0.8747046 -0.34763694 0.23203281
0.85297877 -0.34868005 0.23264958
0.86756635 -0.35467565 0.2309456
-0.87427223 -0.32680988 0.22445522
-0.86197191 -0.33074227 0.21964286
0.87109524 -0.32722899 0.22474636
0.88730794 -0.33068129 0.21976766
-0.90875262 -0.31651947 0.23267221
-0.89185828 -0.30615965 0.22706439
0.85853636 -0.30516556 0.22149117
0.87518489 -0.31657445 0.23260045
0.88649189 -0.30747914 0.23549449
-0.90851223 -0.29052964 0.21914892
-0.89307624 -0.28444803 0.22588484
0.87454277 -0.29001695 0.21945511
0.88713318 -0.28878981 0.22386622
-0.91283768 -0.2612592 0.21882488
0.89532071 -0.26616871 0.22057767
-0.92675245 -0.25474441 0.22300658
-0.91372788 -0.25277847 0.22678149
-0.89973474 -0.2557233 0.22616591
0.89531833 -0.25160491 0.22742258
0.92858112 -0.25813919 0.23219614
-0.93414503 -0.23652445 0.23513463
-0.90723926 -0.22974712 0.22209993
-0.89505261 -0.22794588 0.23104297
0.90483588 -0.23098981 0.22139394
0.92692596 -0.22782327 0.22872069
-0.9287042 -0.21417253 0.22922017
0.89532888 -0.21655686 0.23046279
0.90413076 -0.20744933 0.21877962
-0.93116552 -0.18490052 0.23073317
-0.90938032 -0.19396271 0.22551382
0.89953309 -0.1848294 0.23061615
0.93532205 -0.193873 0.22568443
-0.94476563 -0.17165686 0.22902301
-0.92796701 -0.18250653 0.23320554
0.9152925 -0.17727309 0.22904395
0.92121589 -0.18268244 0.23551998
-0.93265158 -0.1554355 0.23117621
-0.91341454 -0.15997016 0.22504072
0.90377676 -0.15280326 0.23077087
0.92301285 -0.15815602 0.23379201
0.93948537 -0.15989016 0.22519019
-0.94548345 -0.14261888 0.2258843
-0.93155086 -0.133542 0.22975884
0.91258585 -0.14269316 0.22577906
0.92454708 -0.13346903 0.22970532
-0.9468258 -0.11753905 0.22281018
-0.9366532 -0.11482675 0.22952835
-0.91747898 -0.12568587 0.22454166
0.90919095 -0.11679768 0.22461897
0.92661011 -0.1092156 0.23033263
0.94369143 -0.1255921 0.22471343
-0.92158008 -0.091094114 0.22403839
0.9479295 -0.090998344 0.22421084
-0.95195639 -0.079908624 0.23051654
-0.93513489 -0.084727108 0.22631192
-0.90649068 -0.072481051 0.21943557
0.91162813 -0.083796456 0.22586459
0.93160915 -0.08022771 0.22607976
-0.96193099 -0.067784294 0.23415038
-0.94890946 -0.054956652 0.23134592
-0.93131763 -0.058283642 0.22406411
0.91675127 -0.054890141 0.23124376
0.92625022 -0.061735779 0.2293148
0.95220584 -0.056093246 0.22370334
-0.95958436 -0.038764708 0.22675532
-0.93869692 -0.036062129 0.22288661
