# .PCD v0.7 - Point Cloud Data file format
VERSION 0.7
FIELDS x y z normal_x normal_y normal_z curvature
SIZE 4 4 4 4 4 4 4
TYPE F F F F F F F
COUNT 1 1 1 1 1 1 1
WIDTH 584
HEIGHT 1
VIEWPOINT 0 0 0 1 0 0 0
POINTS 584
DATA ascii
-0.30769515 0.19651717 -0.27493182 0.41085327 0.10586543 0.90553421 0.0031571703
-0.29874855 0.19629836 -0.27783075 0.35246125 0.14899777 0.92388886 0.0024896197
-0.083569825 0.19077194 -0.27632028 0.086455949 -0.93384361 -0.34707561 0.0032528972
-0.076048106 0.19083446 -0.27508187 0.077613547 -0.94155371 -0.32779998 0.0041778795
-0.065478593 0.19143569 -0.27433237 0.053614818 -0.95299894 -0.29819179 0.0036806026
-0.056920294 0.19130191 -0.27251911 0.040513735 -0.95214438 -0.30295172 0.0027227919
-0.044326268 0.19245271 -0.27499986 0.040755443 -0.95877784 -0.28121883 0.0023356755
-0.034870729 0.1931316 -0.27589247 0.057694659 -0.9555251 -0.28921115 0.0016953878
-0.017775539 0.19359142 -0.27348542 0.038411297 -0.96806401 -0.24774328 0.0027905928
-0.0060552396 0.19433817 -0.27409554 0.0030681356 -0.96824324 -0.24999151 0.003533514
0.0035530874 0.1944308 -0.27712721 -0.10168091 -0.95046711 -0.29372296 0.0029075213
0.024896538 0.19119515 -0.27553862 -0.13834454 -0.95152718 -0.27469385 0.0013570574
0.34176183 0.1933893 -0.27266863 -0.60610908 -0.073731959 0.7919566 0.0013397749
-0.31256098 0.20520045 -0.27277347 0.45849898 0.0062486683 0.88867301 0.001969174
-0.30485871 0.20564239 -0.27654281 0.42258337 0.027467838 0.90590775 0.0032974391
0.33432183 0.20591481 -0.2772353 -0.57283092 -0.1367045 0.80819345 0.0017306368
-0.30932277 0.21648006 -0.27352184 0.45436186 -0.054722164 0.88913482 0.0013976969
-0.29805619 0.21391933 -0.27936149 0.425515 -0.0064576417 0.90492833 0.0024028504
0.32801047 0.21744058 -0.27822551 -0.54938745 -0.20565665 0.80986339 0.0015199743
0.33244875 0.21661414 -0.27576482 -0.57774645 -0.19214563 0.79327744 0.0015148962
0.34040362 0.21503265 -0.27030087 -0.60329264 -0.19773708 0.7726177 0.0016552574
-0.31144801 0.22650298 -0.2716819 0.48933876 -0.1295398 0.86241931 0.0018287763
-0.30120349 0.22973004 -0.27656177 0.46155572 -0.092888772 0.88223469 0.0020872559
-0.29557395 0.22341985 -0.27986902 0.43885842 -0.045519229 0.89740252 0.002003507
0.32610649 0.2237727 -0.2773971 -0.53741837 -0.25445756 0.80401051 0.00098776596
-0.30330253 0.23269102 -0.27528155 0.4664354 -0.12793911 0.87525403 0.0017391912
0.32721397 0.23443735 -0.27334198 -0.56089914 -0.32498634 0.76143026 0.0013077242
-0.3079856 0.24027295 -0.27136582 0.49400407 -0.22159161 0.84074801 0.002484096
-0.29537976 0.24878116 -0.27672857 0.51264447 -0.22508739 0.82857186 0.001924357
0.30929589 0.24891026 -0.2797811 -0.54673302 -0.32327601 0.77238309 0.0018543641
0.31278399 0.24479772 -0.27893865 -0.5408861 -0.33119491 0.77314436 0.0018373423
0.32067239 0.2477643 -0.27162805 -0.56754112 -0.37207937 0.73447537 0.0017146313
-0.29525608 0.25963059 -0.27273971 0.54033107 -0.29178366 0.78924298 0.00085696753
-0.29502839 0.26657313 -0.27028817 0.54064476 -0.32878307 0.77434158 0.00085419259
-0.28277928 0.26778656 -0.27814701 0.53530341 -0.28241515 0.79604769 0.0013642494
0.30545363 0.26326886 -0.27442646 -0.55868369 -0.40801924 0.7220754 0.00069077167
0.31070217 0.26103362 -0.27148554 -0.567536 -0.41813374 0.70927215 0.0006807202
-0.2870661 0.2737847 -0.27298558 0.55062222 -0.33695152 0.76372695 0.0014661232
-0.27821493 0.27355343 -0.27908033 0.54312789 -0.30626628 0.78180116 0.0010798152
0.2889196 0.27810729 -0.27874035 -0.56893116 -0.42614114 0.70336413 0.00093781139
0.2943148 0.27492476 -0.27627909 -0.5709703 -0.42627075 0.70163107 0.0012075716
0.28771466 0.28501731 -0.275354 -0.58309084 -0.47027597 0.66245413 0.0007704235
-0.28071272 0.29024777 -0.27054337 0.56498349 -0.39754111 0.72301781 0.0016260693
-0.27274841 0.29548696 -0.27369776 0.56428552 -0.40256053 0.72078216 0.0017127029
-0.26863042 0.29627913 -0.27649856 0.56340629 -0.39452344 0.72589576 0.0019666643
0.27958107 0.29291904 -0.27709377 -0.584512 -0.47279197 0.6594038 0.0012448049
0.28488255 0.29323259 -0.27249062 -0.58551544 -0.48755667 0.64765745 0.0011093754
-0.2704919 0.30189916 -0.2711198 0.57369667 -0.44327077 0.6887548 0.0015827516
-0.26199576 0.30279943 -0.27804583 0.56025839 -0.40570822 0.72215742 0.0023907265
0.27283534 0.30024499 -0.27804613 -0.59012359 -0.48034313 0.64886403 0.00096359383
-0.26318714 0.31019217 -0.27155682 0.57826042 -0.46143508 0.67282426 0.00082899816
-0.25703481 0.3130348 -0.27496454 0.56122702 -0.461817 0.68683994 0.0010302921
0.26402622 0.3169547 -0.27383012 -0.58171296 -0.53985298 0.60841495 0.0012226305
-0.25265753 0.32383484 -0.27094772 0.53721893 -0.51050276 0.67140365 0.0013385748
-0.24687478 0.32544297 -0.27493137 0.50693727 -0.52565598 0.68315476 0.0015723956
0.25404993 0.32588288 -0.27535102 -0.52135575 -0.59309149 0.6135394 0.0023053829
-0.23323095 0.33334768 -0.27725235 0.41320255 -0.57298779 0.7077772 0.00077448925
-0.22716285 0.33492142 -0.27906659 0.39807889 -0.58032107 0.71046507 0.00076014537
0.23790568 0.33611536 -0.27513376 -0.40664908 -0.66219193 0.62939531 0.00090823829
0.24296653 0.33358285 -0.27481508 -0.43968475 -0.6467452 0.62321585 0.0019973735
0.25319046 0.33068153 -0.27128777 -0.51101422 -0.61548245 0.60003823 0.0023688674
-0.22470427 0.34155655 -0.27507207 0.38221124 -0.61340463 0.6911217 0.0011789736
-0.20584106 0.3474164 -0.27994862 0.36442035 -0.62108511 0.69386673 0.0010561558
0.21405208 0.34652802 -0.27839813 -0.37805983 -0.67910403 0.6291967 0.00078797544
0.22468443 0.34283224 -0.27584985 -0.39037541 -0.68142474 0.61908597 0.00058853033
-0.2145582 0.35194999 -0.27128601 0.36864287 -0.66886097 0.64554423 0.0016532709
-0.20458372 0.35470784 -0.27423212 0.35762608 -0.67128813 0.6492117 0.0015464909
-0.195886 0.35650203 -0.27704671 0.37281209 -0.65435743 0.65789616 0.0018055837
-0.18675384 0.36541772 -0.27238882 0.37296697 -0.69685888 0.61260378 0.00088901154
0.184798 0.36699152 -0.27350548 -0.39113769 -0.72479713 0.56716883 0.0005323498
0.19174105 0.36259785 -0.27413121 -0.39190447 -0.72147524 0.57086295 0.00050831062
-0.16530527 0.37515461 -0.2740559 0.37950194 -0.70355946 0.60081798 0.0007733549
-0.15983501 0.37568733 -0.27692249 0.37530926 -0.70689178 0.59953892 0.0006607385
-0.14981218 0.37848696 -0.27989233 0.38060763 -0.6912834 0.61421901 0.00092941237
0.16761959 0.37297416 -0.27760953 -0.39515686 -0.71801364 0.57298118 0.00051219919
0.17520784 0.3716391 -0.27428457 -0.38994417 -0.72861165 0.56308848 0.0006582507
-0.1596821 0.38105345 -0.27030486 0.37787178 -0.73046368 0.56888998 0.0003793131
-0.14263847 0.3850517 -0.27630934 0.37113714 -0.7196607 0.58680981 0.00048434138
-0.13414986 0.3881793 -0.27787769 0.31632993 -0.74158114 0.59160185 0.0017764736
0.14440416 0.38726148 -0.27598402 -0.3233608 -0.76573652 0.55595452 0.0023455082
0.15316351 0.38383174 -0.27432984 -0.3847954 -0.74244666 0.54836607 0.0011128982
-0.1398342 0.39020032 -0.27167654 0.34583834 -0.74715364 0.56758904 0.00081696949
-0.12430559 0.39516276 -0.27504766 0.23410377 -0.7694717 0.59422964 0.0022585839
-0.11292349 0.39919531 -0.27292556 0.17126369 -0.80445254 0.56879246 0.0022935527
-0.10585242 0.39724326 -0.27672502 0.14516655 -0.79473966 0.58933491 0.0015139801
-0.098151445 0.39861104 -0.27654484 0.11219217 -0.80312717 0.58514929 0.0009079522
0.11833115 0.39723966 -0.27311516 -0.16649994 -0.8250438 0.53998196 0.0017029643
0.13200834 0.39339674 -0.27550754 -0.24698299 -0.79921097 0.54796094 0.0026282452
-0.093158662 0.40048546 -0.27520734 0.11130358 -0.81252033 0.57220811 0.00089040661
-0.063038535 0.40484223 -0.27573001 0.12047594 -0.8187753 0.56133103 0.0012891317
-0.055499535 0.40506327 -0.2769354 0.11493596 -0.82202357 0.55773383 0.001056527
-0.045495082 0.40569863 -0.27811223 0.13175626 -0.81693578 0.56147677 0.0012094934
-0.016072128 0.40935817 -0.27935985 0.10273863 -0.82661682 0.55330777 0.0012068837
0.043620609 0.40811715 -0.27618825 -0.12833603 -0.83236217 0.53916878 0.0011547805
0.05398044 0.40793705 -0.27326271 -0.14064509 -0.83607107 0.53028685 0.0014549581
0.064241804 0.40594062 -0.27378696 -0.15151928 -0.82991791 0.53691554 0.0013367485
0.086196706 0.40204769 -0.27417737 -0.15673548 -0.82043248 0.54984057 0.0010483862
0.10277201 0.40045887 -0.27195811 -0.13275893 -0.83246213 0.53794205 0.0011242945
-0.031321429 0.41249752 -0.27056396 0.11933807 -0.85465407 0.50529677 0.0009177858
-0.021924911 0.41177875 -0.27428892 0.12025671 -0.8435632 0.52339238 0.0010267064
-0.016356995 0.41062894 -0.27773333 0.10825045 -0.83163053 0.54467654 0.0010911904
0.0029254102 0.41422972 -0.27569941 0.01176635 -0.84576327 0.53342849 0.0025033401
0.018883763 0.41502365 -0.27098259 -0.10967034 -0.8508445 0.51384443 0.0010178536
0.022191713 0.41400814 -0.2718527 -0.11384215 -0.84984487 0.51459074 0.00093231938
0.036695421 0.41038758 -0.27409947 -0.13408208 -0.83224392 0.53795171 0.0011813026
0.29722849 0.09617243 -0.2614527 0.076097347 0.57118499 0.81728625 0.0040785582
0.30138338 0.098769546 -0.26273689 0.038245223 0.55144119 0.83333659 0.0029261473
0.32391822 0.097148091 -0.26038831 -0.10887031 0.4620142 0.88016486 0.0026854509
0.2689786 0.10850917 -0.26429141 0.20093136 0.65936404 0.7244761 0.0031869225
0.2744602 0.10470434 -0.26255113 0.19334823 0.63761795 0.74569422 0.0031839367
0.28510591 0.10567735 -0.26606673 0.090410739 0.5695411 0.81697541 0.0039396044
0.29596645 0.10509437 -0.26664031 0.055237543 0.55271256 0.83153933 0.0033820672
0.30802262 0.1071704 -0.26703972 -0.058971453 0.4940311 0.86744195 0.0022970228
0.3172926 0.10530665 -0.26540038 -0.12910508 0.44217598 0.88758785 0.0040223729
0.32640731 0.10420847 -0.26401877 -0.17941083 0.40551823 0.89630723 0.00320348
0.33666804 0.10491607 -0.26160464 -0.24291065 0.34640568 0.90608913 0.0030737875
0.24373396 0.11600128 -0.2625834 -0.29898715 -0.73945761 -0.60316586 0.0033883341
0.25198942 0.11471705 -0.26482388 0.27991447 0.7020306 0.65482891 0.0044523682
0.26257306 0.11454488 -0.26770884 0.19467226 0.64732909 0.73693138 0.0028677396
0.30496034 0.1110608 -0.26942351 -0.096957475 0.45135981 0.88705891 0.0019318946
0.31135863 0.1105013 -0.26870096 -0.12455051 0.42908338 0.89463663 0.0034733154
0.32651195 0.11454007 -0.26814491 -0.23439811 0.3574568 0.90403664 0.0031188685
0.34101361 0.11540003 -0.26340777 -0.31298354 0.29615381 0.90240473 0.0025035325
0.21604775 0.12741622 -0.26136929 -0.3331804 -0.77106249 -0.54263556 0.0031669771
0.22205383 0.12766115 -0.26603535 -0.31126383 -0.75428891 -0.57806832 0.0023509788
0.23409207 0.12378775 -0.26791194 0.29075003 0.73382324 0.61397713 0.0036316107
0.24291576 0.12099028 -0.26809227 0.27281773 0.71870369 0.63955879 0.0034176472
0.33609372 0.12631531 -0.26854661 -0.34054375 0.28233197 0.89683813 0.0035747758
0.3455534 0.12610552 -0.26521358 -0.4082166 0.20668651 0.88917923 0.003255175
0.35296786 0.12720352 -0.26203462 -0.42720407 0.18530576 0.88496244 0.0025586551
0.19535899 0.13928716 -0.26601589 -0.33618572 -0.79817021 -0.4999035 0.0021238185
0.20401409 0.13357863 -0.26286227 -0.34827811 -0.79978907 -0.48891696 0.0024160515
0.34728026 0.13929233 -0.2668727 -0.46236643 0.13658251 0.87610638 0.0021893354
0.35545167 0.13095951 -0.26120096 -0.47328624 0.12156401 0.87248051 0.0018892491
-0.29449373 0.14700592 -0.26056015 0.12628201 0.49002424 0.86251324 0.0042636362
-0.28464305 0.14644396 -0.26190388 0.08002457 0.5447405 0.83477765 0.0037317576
-0.27566057 0.14797023 -0.26426759 0.004050904 0.59605187 0.80293578 0.0039586071
-0.26475474 0.14694245 -0.26193085 -0.035271026 0.63746148 0.76967442 0.0035059827
-0.25580436 0.14964744 -0.2635054 -0.08786834 0.67806238 0.72973323 0.0025641739
0.17297328 0.14537537 -0.26003358 -0.38968998 -0.84331226 -0.37008935 0.0029262977
0.18213108 0.1441748 -0.26458311 -0.3783581 -0.82375109 -0.42223126 0.0028101858
0.19401053 0.14155133 -0.2687476 -0.32488182 -0.80455101 -0.49714127 0.0021339057
0.35604233 0.14571352 -0.26207733 -0.51471931 0.067757629 0.85467708 0.0029289376
-0.31144029 0.15614159 -0.2621915 0.2746591 0.35810512 0.89236939 0.003929825
-0.29434705 0.15641853 -0.26584125 0.18815136 0.44010529 0.87801278 0.0024090663
-0.28870133 0.15320621 -0.26499733 0.12503284 0.48062846 0.86796492 0.0033100671
-0.27468503 0.15289536 -0.26709574 0.025364356 0.56883931 0.82205743 0.0041875429
-0.26131761 0.15297443 -0.26724535 -0.023042578 0.61685073 0.78674275 0.0041724131
-0.24365857 0.15733516 -0.26943111 -0.073634155 0.6767059 0.73256201 0.0031542308
-0.2368869 0.15333669 -0.26492038 -0.12897255 0.71162426 0.69062078 0.0028195421
-0.21587622 0.15604588 -0.2651189 -0.13936774 0.76909459 0.62375492 0.0023625148
-0.20617971 0.15700591 -0.26174179 0.20505245 -0.79898804 -0.56530666 0.0027953857
-0.19778183 0.15904453 -0.26076084 0.24297123 -0.80703998 -0.53819275 0.0016505809
0.14557126 0.15817805 -0.26011088 -0.34605578 -0.9012993 -0.26058584 0.0026953171
0.15027151 0.15684552 -0.26130068 -0.34402221 -0.89385784 -0.28751856 0.0032029555
0.16392601 0.1518169 -0.26383868 -0.35469776 -0.8644073 -0.35635597 0.0048190765
0.17544293 0.15012948 -0.26953536 -0.37859818 -0.82885021 -0.41191107 0.0037480949
0.34954482 0.15798473 -0.2670601 -0.53000075 0.0574743 0.84604728 0.0019976581
0.35147333 0.1554206 -0.26567149 -0.5212518 0.055746078 0.85158026 0.0018541469
-0.3231298 0.16654389 -0.26010731 0.41141886 0.23787752 0.8798573 0.0015049508
-0.31668884 0.1646325 -0.26238185 0.33618295 0.31525692 0.887465 0.0028792399
-0.3048704 0.16558442 -0.2678698 0.28384438 0.36603516 0.88625658 0.0034378122
-0.1923155 0.16133992 -0.26168177 0.23359498 -0.79995304 -0.55272818 0.0024671641
-0.18303324 0.16530749 -0.26335794 0.24234875 -0.82531214 -0.51002645 0.0022024824
0.11746289 0.16945542 -0.26815298 -0.28578731 -0.90877038 -0.30407584 0.0029280742
0.13326387 0.16328087 -0.26438797 -0.29053354 -0.90860707 -0.30003917 0.0026584775
0.34835294 0.16596369 -0.26845396 -0.56626791 0.018281939 0.82401842 0.0020911931
0.35615945 0.16809256 -0.26388073 -0.60230148 -0.042618964 0.79713017 0.0023952415
-0.32594228 0.17458907 -0.26123971 0.45323259 0.18503051 0.87197703 0.003266942
-0.31261557 0.17346449 -0.26678005 0.36024472 0.26468801 0.89451885 0.0021437965
-0.30629456 0.1717639 -0.26906389 0.32095355 0.31474894 0.89326483 0.0028666949
-0.16364716 0.17153075 -0.26487714 0.21559605 -0.85719961 -0.46768284 0.0033277599
-0.15427388 0.17334417 -0.26534063 0.20047441 -0.89369506 -0.40139651 0.0034957826
-0.14185674 0.17545234 -0.26540953 0.17608784 -0.9092356 -0.37720504 0.002154527
-0.13441606 0.17853057 -0.26881462 0.16082923 -0.9085958 -0.38547063 0.0018895832
-0.11699218 0.17993617 -0.26413557 0.1947111 -0.91027921 -0.36534807 0.0018373551
0.088504232 0.17852779 -0.26477399 -0.27146509 -0.93660301 -0.22154354 0.0022139787
0.094943091 0.17694628 -0.26752132 -0.30625561 -0.90869761 -0.28368315 0.0021023396
0.11118354 0.17118837 -0.26634696 -0.29819337 -0.91474372 -0.27262565 0.0016070468
0.35489473 0.17717782 -0.26363218 -0.62244517 -0.073900528 0.77916676 0.0015391555
-0.32503104 0.18415304 -0.26428702 0.47971222 0.13605301 0.86681354 0.0031154747
-0.11422646 0.1808234 -0.26501459 0.18831566 -0.91234487 -0.36354351 0.0017541519
-0.085421726 0.18846482 -0.26728436 0.11530426 -0.95363194 -0.27801251 0.0053411862
-0.073885441 0.18917604 -0.26616213 0.080238648 -0.96921259 -0.23278461 0.0024779518
-0.064095005 0.18968788 -0.26608518 0.060233463 -0.96890974 -0.23997037 0.0026354776
-0.057941251 0.18909971 -0.26127064 0.057818491 -0.9841705 -0.16752733 0.0010240615
0.018881092 0.18949874 -0.26196951 -0.124865 -0.98119396 -0.14719805 0.0010187471
0.025509849 0.18969522 -0.2679323 -0.12888655 -0.96993566 -0.2064292 0.0016771683
0.032856315 0.1877982 -0.26317608 -0.14141202 -0.97592074 -0.16607626 0.0015733244
0.043059427 0.1868521 -0.26564467 -0.13140467 -0.97006512 -0.20422167 0.0010786526
0.053416211 0.18511245 -0.26396281 -0.13897556 -0.97380573 -0.17996706 0.0011518754
0.078363761 0.18260294 -0.2689445 -0.18962166 -0.95620847 -0.22295515 0.0029839948
0.083453275 0.18079214 -0.2673088 -0.25836003 -0.9373585 -0.23368593 0.0028646477
0.35444471 0.18370798 -0.26295367 -0.63001275 -0.07196077 0.77324355 0.0013612251
-0.32669216 0.19385318 -0.26385319 0.5155561 0.091824256 0.8519215 0.0023546848
-0.059989702 0.19051284 -0.26925012 0.036227178 -0.96809709 -0.24794284 0.0021059068
-0.040042471 0.19147825 -0.26868829 0.055307828 -0.96867627 -0.24208945 0.0021459472
-0.016450331 0.19149218 -0.26211509 0.036291108 -0.98922008 -0.14186804 0.00089601259
-0.0049449992 0.19256848 -0.26451218 -0.00089963048 -0.98775774 -0.15599373 0.0041001313
0.0011625174 0.19244306 -0.2646758 -0.060951855 -0.98480487 -0.16261673 0.0037247443
0.015933357 0.19068895 -0.26618347 -0.12078542 -0.97188699 -0.20210508 0.002067605
-0.32670814 0.20699775 -0.26427102 0.55221182 -0.028147116 0.83322859 0.0015536937
0.34474397 0.20709777 -0.26774058 -0.63169169 -0.15079358 0.76041228 0.0012520629
-0.32823712 0.21081859 -0.26343691 0.55066258 -0.031057822 0.8341499 0.0017179162
0.34772143 0.21698989 -0.26344785 -0.66569656 -0.21303599 0.71516693 0.0024287656
0.35005525 0.21247043 -0.26211303 -0.67833924 -0.19805185 0.70755315 0.0019422064
-0.3314001 0.22240052 -0.26166812 0.56655341 -0.11825174 0.81549603 0.0032929333
-0.326047 0.22443447 -0.26444691 0.5467428 -0.15111279 0.82355165 0.0025666747
-0.31583244 0.22280292 -0.26977292 0.50338537 -0.10783941 0.85730612 0.0019279742
0.34486446 0.22464 -0.26446727 -0.64244097 -0.27759725 0.71428937 0.0030075521
-0.32970527 0.23066542 -0.26022971 0.56959563 -0.18483448 0.80087268 0.0028110174
-0.31504661 0.23122755 -0.26951432 0.50306147 -0.15634578 0.84999126 0.002491453
0.33502278 0.2363653 -0.26694438 -0.58070171 -0.33704603 0.74107057 0.0016069968
0.34422457 0.23200339 -0.26170024 -0.63387853 -0.32424492 0.70218462 0.0026603127
-0.32252288 0.24076799 -0.26131251 0.55106604 -0.24929856 0.79635191 0.0016984585
-0.3122662 0.24435487 -0.26692799 0.51169711 -0.24872582 0.82237548 0.001607871
-0.3095746 0.2479921 -0.26738963 0.5211128 -0.26634303 0.81086552 0.00080406218
0.32707754 0.24576569 -0.26757616 -0.56401986 -0.38940611 0.72817898 0.0013211307
-0.31419533 0.25784087 -0.26055616 0.55272913 -0.33352274 0.76371014 0.0011794228
0.32637045 0.2530638 -0.26352978 -0.57049179 -0.42824817 0.70081568 0.00049027114
-0.31079352 0.26462498 -0.26031858 0.55759448 -0.35213104 0.75172609 0.001518388
-0.30373836 0.26713291 -0.26416594 0.55236119 -0.34916866 0.75695336 0.0018846549
-0.29903221 0.26974878 -0.2663784 0.55167729 -0.35486731 0.75479883 0.0018644569
0.31608564 0.26583496 -0.26396492 -0.57588971 -0.4617039 0.67467064 0.00080629223
-0.29403141 0.27494174 -0.2678234 0.54144633 -0.37876678 0.75058091 0.0018840759
-0.28855315 0.27982652 -0.26970825 0.54998964 -0.37078086 0.74835354 0.00155993
0.30693245 0.27547604 -0.26544732 -0.58360851 -0.47367841 0.65956801 0.0010063915
0.31130761 0.27488697 -0.2621868 -0.58595389 -0.48633048 0.64818263 0.00096146221
-0.29572329 0.28101015 -0.26371846 0.56604314 -0.41940048 0.70971709 0.0017733069
0.29843879 0.2882705 -0.26437974 -0.58871371 -0.50100881 0.63435501 0.001328375
-0.2872653 0.29407126 -0.2618863 0.58072084 -0.44350991 0.68268746 0.0010546485
0.28641611 0.29652074 -0.26912895 -0.59392762 -0.50672847 0.62488085 0.0012612895
0.29186535 0.29365766 -0.26641995 -0.59241182 -0.51763815 0.61733216 0.0014841189
-0.27509451 0.3042593 -0.26527789 0.5829258 -0.47599626 0.6585021 0.00069185137
-0.26644975 0.30964419 -0.26904559 0.58136493 -0.46645263 0.66666085 0.00078383874
0.28300488 0.30854565 -0.26139677 -0.5972892 -0.54833394 0.58529949 0.00096801005
0.29125911 0.30023631 -0.26101485 -0.60467261 -0.52042723 0.60293162 0.0014664128
-0.2626746 0.31433374 -0.26897526 0.58238435 -0.47868586 0.65702993 0.00066498725
0.26983228 0.31452397 -0.26987436 -0.5933094 -0.52820754 0.60743791 0.00077704532
0.27193853 0.31876332 -0.26290578 -0.59694785 -0.5494855 0.58456725 0.00075503549
-0.25864729 0.32949784 -0.26144332 0.59504151 -0.54285473 0.59265018 0.0013923447
0.26544651 0.3261992 -0.26223317 -0.58310759 -0.60148811 0.54607463 0.0010587191
-0.25056678 0.33421829 -0.2651948 0.52683759 -0.56279749 0.63694674 0.0022263676
-0.24672222 0.33936924 -0.26484784 0.50869524 -0.59473795 0.62250769 0.0028293526
0.24714798 0.33721879 -0.26792789 -0.45291254 -0.66565108 0.59310943 0.0015344941
0.25636262 0.33309931 -0.2650317 -0.51285785 -0.63839805 0.57395536 0.0018130599
-0.24364717 0.34490988 -0.26104644 0.46861935 -0.63669789 0.61238199 0.0027328532
-0.23098257 0.34555456 -0.26843902 0.41394669 -0.64562207 0.64173228 0.0019883683
-0.22476166 0.34842464 -0.26910785 0.3863664 -0.65677553 0.64758545 0.0017313964
0.23277995 0.34829959 -0.26433361 -0.39712727 -0.72189802 0.56670386 0.00093126361
0.24074763 0.34405783 -0.26412624 -0.4239586 -0.69151825 0.58486032 0.0010891595
-0.22879326 0.35075861 -0.2635825 0.40170369 -0.67717445 0.61649734 0.00155433
-0.20959122 0.35603163 -0.26938555 0.36995608 -0.67861617 0.63451773 0.0016477419
0.21138233 0.35563844 -0.26957646 -0.38189745 -0.72488052 0.57332587 0.0007565259
0.22369465 0.35293156 -0.26480681 -0.39107847 -0.72502905 0.56691313 0.0010737875
0.23479405 0.35087609 -0.26006207 -0.40736675 -0.7321986 0.54583663 0.0012611647
-0.21097448 0.36232224 -0.26061863 0.37488198 -0.71861714 0.58570707 0.00037342208
-0.20063359 0.36228928 -0.2673392 0.36662996 -0.70349818 0.6088289 0.00082949642
-0.19462302 0.36502552 -0.26779681 0.36684629 -0.70088243 0.61170876 0.000730603
0.19651304 0.36642382 -0.2666454 -0.39947158 -0.73555374 0.54715919 0.0011783228
0.20930481 0.36479732 -0.26031882 -0.38555181 -0.74891806 0.53895414 0.0013868738
-0.17920253 0.37189013 -0.26916534 0.37486038 -0.71297818 0.59257215 0.00095141248
0.1769408 0.37845516 -0.26450837 -0.39743388 -0.76766074 0.50273579 0.0011617159
0.18351695 0.37698188 -0.26154643 -0.38599655 -0.77595395 0.49890089 0.0010279778
-0.17093262 0.3809945 -0.26311171 0.37419835 -0.73989642 0.55904287 0.00035906848
-0.16474785 0.38389552 -0.2634756 0.36836606 -0.75199562 0.54663432 0.00077044597
0.16399731 0.38459161 -0.26516712 -0.39481699 -0.76407272 0.51020825 0.00090622803
0.17354155 0.38193089 -0.26142153 -0.39655408 -0.77293473 0.49529454 0.0011512861
-0.15136974 0.39176819 -0.26226315 0.36405563 -0.76845527 0.5262509 0.0013623792
-0.14482915 0.39373893 -0.26402119 0.36431295 -0.7712878 0.5219112 0.0011600222
-0.13569026 0.3965531 -0.26640189 0.33542478 -0.77533841 0.53510803 0.00168426
0.11827783 0.39975822 -0.26838437 -0.17813928 -0.83998013 0.51254255 0.0014743368
0.12268153 0.39837784 -0.26959643 -0.18672484 -0.83517063 0.51732379 0.0018443132
0.13893524 0.39453939 -0.2694855 -0.29097018 -0.80890095 0.51089686 0.002538766
0.14529574 0.39480698 -0.26318684 -0.32906243 -0.80998504 0.48542985 0.0020990786
0.15142666 0.39342564 -0.26016992 -0.38481623 -0.79478931 0.46928301 0.00083326874
-0.12409498 0.4013139 -0.26764697 0.25139585 -0.8086223 0.53191185 0.0022741356
-0.11628735 0.4058075 -0.26246333 0.19566002 -0.83484912 0.5145328 0.0019087069
-0.10491915 0.40616915 -0.26458189 0.13224152 -0.83917737 0.52753532 0.0012708366
-0.083892941 0.40634757 -0.26945132 0.1301903 -0.83632076 0.53255802 0.00099327322
0.055768237 0.40954965 -0.26965857 -0.139945 -0.84813428 0.51096356 0.0011715662
0.084797665 0.40843657 -0.26259342 -0.14250742 -0.86437339 0.48223457 0.0002103451
0.095365696 0.40478292 -0.26614487 -0.13242655 -0.85336101 0.50422049 0.00073696673
0.1049914 0.40231007 -0.26776794 -0.13729818 -0.84967715 0.50911498 0.0010399843
0.11397465 0.40239033 -0.264781 -0.15356444 -0.85800254 0.49015269 0.00053981337
0.13652599 0.40023199 -0.26107556 -0.28715566 -0.83665949 0.46641442 0.0021265331
-0.074446596 0.41198194 -0.26086652 0.11132563 -0.86126012 0.49582019 0.00085677078
-0.069028236 0.41094291 -0.26422581 0.12174714 -0.85515636 0.50387031 0.00091861357
-0.054328468 0.41097084 -0.267818 0.1096973 -0.85414541 0.50833285 0.0008782043
-0.041977312 0.41432351 -0.2643792 0.12266958 -0.85854661 0.49784523 0.00080635509
-0.037275657 0.41368392 -0.26678598 0.12079922 -0.85320014 0.5074023 0.0010157102
-0.022960132 0.4156875 -0.26645097 0.11848116 -0.86348987 0.49025247 0.00078943965
-0.011891512 0.41908574 -0.26260552 0.10158721 -0.87646323 0.47062978 0.00062086305
0.0012813149 0.41696152 -0.26999319 0.013785691 -0.86342806 0.50428361 0.001794386
0.023082577 0.41827253 -0.26353288 -0.11945634 -0.86575329 0.48600563 0.00058123568
0.035329957 0.41374031 -0.26821041 -0.13770841 -0.85183913 0.50537759 0.00047677045
0.044698287 0.41487864 -0.26310739 -0.1498888 -0.85992265 0.4879204 0.00045727706
0.051061183 0.41048706 -0.26937729 -0.14565866 -0.84741044 0.51056743 0.0010439707
-3.5117846e-05 0.42147195 -0.26091844 0.033275578 -0.88458723 0.46518612 0.0019970969
0.0088188713 0.42180303 -0.26138011 -0.046472378 -0.88588279 0.46157551 0.0027302033
0.012877447 0.42026967 -0.26298943 -0.068248563 -0.87827903 0.47325268 0.0020505532
0.32388029 0.078851886 -0.25009787 -0.0019568386 0.51840574 0.85513252 0.0048691388
0.2896471 0.088819414 -0.25307775 0.17346585 0.6188513 0.76611525 0.0032488767
0.29859817 0.085602738 -0.25284418 0.11158112 0.59626895 0.79499239 0.0042670271
0.30579439 0.084700622 -0.2535651 0.086274289 0.58567452 0.8059417 0.0039857258
0.31522465 0.082615629 -0.25276697 0.057342637 0.56600869 0.82240254 0.0041524689
0.32487315 0.085103668 -0.25355163 -0.064593486 0.48386702 0.87275445 0.0035070605
0.33113953 0.080288611 -0.25044343 -0.073593199 0.4750993 0.87684929 0.0036198644
0.3524037 0.08721099 -0.25059089 -0.22579405 0.39595535 0.89007664 0.0033202816
0.26940632 0.092154875 -0.25017741 0.33225679 0.68535364 0.64799368 0.0028937082
0.27103242 0.095751837 -0.25377491 0.2785216 0.68131769 0.67692828 0.0034489334
0.30320281 0.09197031 -0.25879589 0.036046516 0.55888009 0.82846469 0.0036384333
0.3152343 0.09343686 -0.258854 -0.025352238 0.52855408 0.84852099 0.0047059152
0.3262648 0.092925027 -0.25786299 -0.099168912 0.45680791 0.88402033 0.0025351208
0.33369333 0.095523171 -0.25834966 -0.16584501 0.42376599 0.89045936 0.0024567845
0.34448588 0.098406836 -0.25685349 -0.23376653 0.34444341 0.90923703 0.0043244436
0.35142007 0.098448835 -0.25447199 -0.2714029 0.31298229 0.91015524 0.0037569115
0.36036175 0.098478302 -0.25139323 -0.34825721 0.27024564 0.8975991 0.0018417872
0.24819875 0.10657221 -0.25352782 -0.34492233 -0.71872956 -0.60370225 0.0033440958
0.25445697 0.10624881 -0.25731379 0.32902193 0.7045455 0.62877679 0.0027677724
0.27186477 0.10032626 -0.25799569 0.23580645 0.66634244 0.70737761 0.0037092669
0.35498706 0.10452412 -0.25515461 -0.3519865 0.2483456 0.90245771 0.0018225779
0.3626157 0.10561184 -0.25286281 -0.40814918 0.20929325 0.88860035 0.0020717734
0.23339072 0.11716042 -0.25697774 -0.33376363 -0.7657584 -0.54974163 0.0038385994
0.36587361 0.11700366 -0.2536884 -0.45515981 0.14447229 0.87861097 0.0031319289
-0.28736046 0.12979004 -0.2502436 -0.010372569 0.60658067 0.79495424 0.0029249908
0.22070545 0.12446803 -0.25987399 -0.32043776 -0.76412946 -0.55984437 0.0020627633
0.35882562 0.12381505 -0.25854886 -0.44136766 0.1770032 0.87969565 0.002900416
0.36589089 0.1254694 -0.25438699 -0.48282978 0.11905067 0.86758417 0.0020058062
0.37124529 0.12669086 -0.25123027 -0.50709361 0.086885206 0.85750049 0.0015541312
-0.32287732 0.1394565 -0.25156838 0.25731757 0.38243055 0.88743144 0.0042479811
-0.31693029 0.13805968 -0.251789 0.21361309 0.41799518 0.88297766 0.0029420129
-0.30868706 0.1375328 -0.25288182 0.16014768 0.47108454 0.86742848 0.0034555141
-0.2839317 0.13480487 -0.2540859 -0.027219061 0.60569185 0.79523367 0.003766767
-0.27841514 0.13367532 -0.25222865 -0.06003261 0.63742781 0.76816785 0.00381958
-0.25573987 0.13934453 -0.25378004 -0.14538865 0.70155734 0.69762409 0.0020932835
-0.23988962 0.13988891 -0.25129351 -0.2234648 0.73772919 0.63703924 0.0034089049
0.18795556 0.13600393 -0.25517803 -0.40859148 -0.83447599 -0.36973339 0.0028525831
0.36960733 0.13784179 -0.25316137 -0.54314709 0.022026505 0.83934861 0.0020717548
0.37022147 0.1315648 -0.25226176 -0.52560455 0.049844127 0.8492676 0.001657222
-0.32951277 0.14324954 -0.25042826 0.31697685 0.33559093 0.88707626 0.003285975
-0.31388617 0.14604576 -0.25676095 0.23934202 0.38594866 0.89093149 0.0030184942
-0.3001498 0.14515124 -0.25857276 0.15019287 0.47298095 0.86817694 0.0034722174
-0.2919935 0.14267993 -0.25856507 0.079253927 0.53357458 0.84203148 0.0035509907
-0.28662667 0.14160106 -0.25886559 0.070504777 0.57470441 0.81531835 0.0039132987
-0.27814919 0.14132966 -0.25887668 -0.0096342452 0.60861772 0.79340506 0.0043872898
-0.26646098 0.14279063 -0.2583262 -0.069307134 0.66489357 0.74371576 0.0036583953
-0.25334972 0.14059311 -0.25469691 -0.15660895 0.70202202 0.69472206 0.0026198782
-0.24645117 0.14530683 -0.25839013 -0.17086644 0.70749366 0.68575305 0.0025931199
-0.21247506 0.14919092 -0.2523537 0.25509083 -0.81557369 -0.51939219 0.0022310521
0.16523752 0.14844893 -0.25572795 -0.40703303 -0.85534209 -0.32049009 0.0031207374
0.17132074 0.14534247 -0.25680223 -0.40430212 -0.84911007 -0.33992928 0.0030918452
0.36590052 0.14494349 -0.2560125 -0.55303103 0.033949267 0.83246869 0.0019508289
-0.32621488 0.15533482 -0.25544378 0.34309369 0.30613676 0.88801295 0.0027094206
-0.20392133 0.15535906 -0.2579433 0.24634039 -0.8127901 -0.5279097 0.0011139706
-0.19452801 0.15858459 -0.25836822 0.26014724 -0.82105762 -0.50812185 0.0024654083
-0.1874589 0.15798581 -0.253815 0.2948477 -0.84527159 -0.4456239 0.0027480775
0.14466996 0.15727669 -0.25458282 -0.34651002 -0.90599179 -0.24312486 0.0027943179
0.1570556 0.15192135 -0.25189397 -0.38973835 -0.88010812 -0.27113417 0.0031179951
0.36719146 0.15605721 -0.2559377 -0.58282459 -0.0092369588 0.81254548 0.0017813233
0.3727963 0.15306075 -0.25164843 -0.60640126 -0.018214749 0.79495019 0.0021176538
-0.34050041 0.16419517 -0.25176132 0.47989601 0.15616116 0.8633154 0.002464768
-0.33592004 0.16393842 -0.2537038 0.44758806 0.1959468 0.87250769 0.0037157498
-0.32845953 0.16325358 -0.25678909 0.41469565 0.24960126 0.87505817 0.0021495849
-0.17510541 0.16360706 -0.25659478 0.27265555 -0.85535431 -0.4404861 0.0031912446
-0.16786551 0.16584778 -0.25652722 0.26132277 -0.87734371 -0.40246537 0.0038689212
-0.15398553 0.16788563 -0.25158802 0.2738584 -0.91272056 -0.30322066 0.0027541607
0.10966145 0.16897033 -0.25382358 -0.32228431 -0.92964572 -0.17858231 0.00092955591
0.11439785 0.1677915 -0.25577363 -0.32190713 -0.92789119 -0.18813248 0.00058576156
0.1320288 0.16150236 -0.25432348 -0.32378086 -0.92333668 -0.2064345 0.001826638
0.3658174 0.16648388 -0.25565523 -0.62584645 -0.067742974 0.77699882 0.0016343764
-0.33404136 0.17496195 -0.25709736 0.48603019 0.12759697 0.86457717 0.0035329824
-0.32902375 0.17232007 -0.25921309 0.45555884 0.18176693 0.87145102 0.0025211659
-0.14132564 0.17193957 -0.25558057 0.21235389 -0.92993045 -0.30022529 0.0016102832
-0.1359666 0.17291136 -0.25406563 0.20546408 -0.93354183 -0.29374164 0.0017934417
-0.1254122 0.17596895 -0.25600687 0.21558613 -0.9326176 -0.2893908 0.0019313665
-0.11537494 0.17770353 -0.25280082 0.23569822 -0.93977147 -0.24753995 0.0014327684
0.0795113 0.1795242 -0.2553826 -0.23157199 -0.95945495 -0.16068821 0.0026491042
0.084591024 0.17792802 -0.25595334 -0.29061225 -0.93953407 -0.18116364 0.0016730141
0.35979873 0.17418809 -0.25975111 -0.62202162 -0.076236442 0.77927977 0.0018226018
0.36205423 0.17544632 -0.25753054 -0.62334734 -0.092567518 0.77644652 0.0015467238
-0.34107983 0.18362173 -0.25331631 0.55209059 0.061440144 0.8315174 0.0021629487
-0.33203149 0.18293034 -0.25966075 0.50348407 0.11663561 0.85609573 0.0028363329
-0.10349725 0.18117726 -0.25512674 0.23202904 -0.94348544 -0.23663862 0.0010098843
-0.09825737 0.18293478 -0.25712204 0.20732723 -0.95297933 -0.221011 0.0013315073
-0.078216165 0.1862002 -0.25179398 0.13200703 -0.9766289 -0.16961759 0.0029151246
-0.066449225 0.18740898 -0.25481096 0.081456281 -0.98447895 -0.15545414 0.0018353806
-0.050354891 0.1886891 -0.25698259 0.064864896 -0.98700315 -0.14702833 0.0017655238
-0.029437836 0.18931323 -0.25435936 0.053578671 -0.99172622 -0.11665509 0.0018930876
-0.014031375 0.1895158 -0.25108024 0.069782235 -0.99543118 -0.065170199 0.0028722077
0.024845162 0.18736689 -0.25492826 -0.12503 -0.9886297 -0.083539099 0.0017335089
0.031737544 0.18661308 -0.25597966 -0.14866443 -0.98437577 -0.094356909 0.0014656947
0.044307381 0.18390846 -0.25075051 -0.14033289 -0.9873538 -0.073750474 0.0019699389
0.052993014 0.18380919 -0.25664625 -0.13929091 -0.97948205 -0.14564662 0.0014489002
0.065137096 0.18231331 -0.25759739 -0.17492667 -0.9774617 -0.11819196 0.0021071066
0.076985292 0.18011533 -0.2545566 -0.23994194 -0.96038008 -0.14176735 0.0037217406
0.35702658 0.1897797 -0.25964579 -0.64929885 -0.11835986 0.75126696 0.0013549372
0.36705011 0.1881838 -0.25096631 -0.68594831 -0.1583792 0.71020484 0.0013233407
-0.34234905 0.19977105 -0.25306189 0.62361503 -0.01456463 0.78159589 0.0019998634
-0.33898234 0.19346792 -0.25518316 0.57871735 0.034431033 0.8148011 0.0015857359
-0.02789259 0.19039316 -0.25958112 0.042374145 -0.98885906 -0.14269592 0.00096823927
-0.013422414 0.19043535 -0.25572568 0.042925108 -0.99377435 -0.10281053 0.0018120386
-0.0029207256 0.19020113 -0.25154033 -0.030501368 -0.99607491 -0.083093099 0.0045183417
0.35751569 0.19251177 -0.2587575 -0.65756482 -0.13163798 0.74180847 0.001695927
0.36723506 0.19069351 -0.25038615 -0.68880755 -0.17902558 0.70249128 0.0017084702
-0.34070197 0.20901674 -0.25458783 0.63711673 -0.061020009 0.7683481 0.0021389085
-0.33463547 0.20461413 -0.25868556 0.58491772 -0.013695972 0.81097692 0.0020048111
0.36069539 0.2030583 -0.25417602 -0.70327014 -0.18127206 0.68742388 0.0019543145
-0.3405605 0.21869293 -0.25347403 0.64583331 -0.12320205 0.75347227 0.0023120434
-0.33634672 0.21331257 -0.2578249 0.60675472 -0.081002451 0.79075116 0.0030589793
0.35722801 0.21483535 -0.25433454 -0.72299737 -0.23317529 0.65031081 0.0014048922
-0.34026197 0.22117515 -0.25316381 0.64433587 -0.13519637 0.75269729 0.0022609383
-0.33629885 0.22697699 -0.2556982 0.62305731 -0.15451753 0.7667619 0.0026574661
0.35097796 0.22383866 -0.2578311 -0.70625675 -0.26884452 0.6549229 0.0019013686
-0.33620721 0.23315699 -0.2540752 0.62171042 -0.18888311 0.76013112 0.0027192517
-0.32947871 0.23576948 -0.2584675 0.58030277 -0.22061165 0.78395098 0.0022813578
0.34775972 0.23232815 -0.25778925 -0.67340237 -0.3113924 0.67049533 0.0026305432
-0.33443862 0.24257874 -0.25254476 0.61270046 -0.28049868 0.73886305 0.0018830078
-0.32571131 0.24461332 -0.25770485 0.56819189 -0.28429133 0.77222818 0.0017396596
0.33555681 0.24981575 -0.25796077 -0.59316778 -0.43148085 0.67968833 0.00061237765
0.34519812 0.24593005 -0.25241867 -0.65506065 -0.39239633 0.64569396 0.0022056173
-0.32024574 0.2590102 -0.25601038 0.56207937 -0.34311593 0.7525546 0.0013867827
0.32833466 0.25715962 -0.25929761 -0.58350027 -0.4566519 0.67156273 0.00095892913
0.33633518 0.25548267 -0.25371611 -0.59472734 -0.45947173 0.65968561 0.0010429205
-0.32440716 0.2612167 -0.25235745 0.57595384 -0.35687479 0.73547101 0.001497251
-0.31358653 0.2657977 -0.25798249 0.56216514 -0.35953212 0.7447865 0.0016522767
0.32869318 0.2657541 -0.2535429 -0.59197879 -0.49157751 0.6386804 0.0015545938
0.33109516 0.26418594 -0.25254321 -0.5895443 -0.49738985 0.63642824 0.0012686964
-0.31345829 0.27066833 -0.2556712 0.56623298 -0.39414859 0.72389716 0.0020967531
-0.30611768 0.27738425 -0.25729761 0.5643037 -0.4298484 0.70483452 0.0012116992
0.3166123 0.27588433 -0.25714687 -0.59373766 -0.50673103 0.62505937 0.0013209406
0.32370508 0.27504849 -0.25143737 -0.59435052 -0.51088965 0.62107903 0.0014355993
-0.30415165 0.28483462 -0.25358579 0.57609296 -0.44150537 0.68788809 0.0009777958
-0.2956306 0.28646508 -0.2599982 0.56393957 -0.42413592 0.70857662 0.001668786
0.30820328 0.28898907 -0.25395337 -0.59855568 -0.54194355 0.58993924 0.0012986235
0.31838948 0.28056979 -0.25149953 -0.59893727 -0.5335682 0.59714246 0.0014276516
-0.29332432 0.29657948 -0.25463519 0.59287602 -0.46553722 0.65709442 0.0011852345
0.29560384 0.29662544 -0.25998956 -0.59555244 -0.53454536 0.59964859 0.0014830708
0.3044306 0.29126972 -0.25576717 -0.60131699 -0.53984582 0.58905381 0.0012956318
-0.2892234 0.3012113 -0.25489813 0.58759415 -0.48418471 0.64830416 0.00050549809
0.2875196 0.30804166 -0.25682193 -0.60179424 -0.56031406 0.56911492 0.00093194173
0.29385352 0.30333278 -0.25472736 -0.59789854 -0.56455678 0.56902814 0.0010403739
-0.28195921 0.31201062 -0.25345969 0.58703279 -0.5200032 0.62047493 0.0012668481
-0.2705875 0.31837624 -0.25894278 0.58959377 -0.52127713 0.61696798 0.0013267978
-0.26996303 0.31805989 -0.2597326 0.58961618 -0.52125788 0.61696267 0.0013092905
0.28591007 0.31162876 -0.25477141 -0.60618031 -0.56910789 0.55557311 0.00084494473
-0.27402705 0.32377785 -0.25161487 0.58844668 -0.55018377 0.59247655 0.001507492
-0.26872328 0.32570696 -0.25498092 0.59323579 -0.54521823 0.5922907 0.0016465574
0.27299938 0.32585174 -0.25404423 -0.61290324 -0.60490441 0.50837022 0.00037219518
-0.25622258 0.33823377 -0.25516748 0.57205153 -0.59687024 0.56258589 0.0018380119
0.25707328 0.33937705 -0.2574901 -0.52289337 -0.6633386 0.53531718 0.0025156981
0.26527312 0.33212173 -0.25603092 -0.57416624 -0.62233305 0.53201014 0.0014895272
-0.25102052 0.34325713 -0.25513741 0.5423817 -0.62844765 0.55756211 0.0024703036
-0.24187753 0.34863102 -0.25779408 0.46469748 -0.6557852 0.59498072 0.0024633554
0.24432735 0.34686577 -0.25858256 -0.44492638 -0.71666878 0.53705335 0.0025384456
0.25181347 0.34728828 -0.25329086 -0.47458923 -0.71481687 0.5136165 0.0025503573
-0.22134224 0.35941759 -0.25755745 0.37464857 -0.71918362 0.58516103 0.00056703761
0.227245 0.35844111 -0.25595731 -0.38750467 -0.76598769 0.51293564 0.001467251
0.23647261 0.35416931 -0.2546415 -0.4008812 -0.7505331 0.5253517 0.0017493173
0.2455567 0.3521114 -0.25131372 -0.45227069 -0.73908746 0.49920025 0.0025016339
-0.21558715 0.36477262 -0.25457227 0.37153572 -0.73924333 0.56167656 0.00058106345
-0.20387006 0.3679564 -0.2581557 0.3674728 -0.73798168 0.56599194 0.00037991506
0.20688042 0.36908919 -0.25494787 -0.39168939 -0.78392333 0.481709 0.00082990451
0.21577603 0.36281484 -0.25810713 -0.39522043 -0.75667769 0.52080673 0.0015144991
0.22814091 0.36048651 -0.2515898 -0.39454812 -0.78180313 0.48282057 0.00091557292
-0.20441294 0.37214711 -0.25255987 0.36349729 -0.75802958 0.54153574 0.0011482607
-0.19338477 0.37446457 -0.2567825 0.37156278 -0.75308007 0.54296553 0.00091293018
-0.18603924 0.37822747 -0.2568174 0.3799035 -0.75679892 0.53191042 0.00064704561
0.19505264 0.37604889 -0.2527656 -0.38925865 -0.79308325 0.46850464 0.00077590573
0.20360033 0.37226096 -0.25202897 -0.38609561 -0.79223645 0.47253749 0.00082949392
-0.18707468 0.38175863 -0.25172895 0.38932294 -0.7683984 0.50792873 0.00098110223
-0.17368078 0.38534665 -0.25578141 0.37174243 -0.77868485 0.50542808 0.0015444851
-0.16353028 0.38776708 -0.25941634 0.36602333 -0.77634001 0.51315016 0.0017774482
0.17041096 0.38590813 -0.25686562 -0.39912423 -0.78838235 0.46813792 0.00061729405
0.18173556 0.38047647 -0.25665951 -0.39274272 -0.78756344 0.47486532 0.00094457518
-0.16125254 0.39230672 -0.25439262 0.35908365 -0.79714489 0.48540598 0.001447587
-0.14815049 0.39776996 -0.254969 0.3616536 -0.80521804 0.4699263 0.0011359764
0.14579625 0.39917645 -0.25458887 -0.34949723 -0.82750332 0.43942004 0.0013937965
0.15351427 0.39732963 -0.25099206 -0.3841697 -0.81843221 0.42729646 0.00050380058
0.16231379 0.39168611 -0.25348338 -0.39366394 -0.80848247 0.43747538 0.00019522689
-0.098819427 0.40970576 -0.2592355 0.11743124 -0.85621977 0.503088 0.001323362
0.089876771 0.40975904 -0.25849721 -0.14383365 -0.8805418 0.45161727 0.00033002571
0.097658113 0.40774995 -0.25982821 -0.14907034 -0.87972909 0.45150274 0.00016953899
0.10512623 0.4090274 -0.25506282 -0.14877146 -0.88141197 0.44830793 0.00024488519
0.11252107 0.40876701 -0.25321943 -0.15041421 -0.88144392 0.44769657 0.00014802425
0.12309873 0.4065825 -0.25399846 -0.1907133 -0.87243783 0.44997856 0.00090823183
0.13625342 0.40223029 -0.25749794 -0.28022504 -0.85195822 0.44231343 0.00205558
-0.10222167 0.41184634 -0.25423986 0.12667239 -0.86902803 0.47827226 0.00057440868
-0.098146603 0.4125852 -0.25381774 0.12103859 -0.86825001 0.48113587 0.0005349844
-0.084177695 0.4146159 -0.25334409 0.11303693 -0.88604534 0.44960675 0.00061696616
-0.079127848 0.41217571 -0.2593295 0.11445491 -0.8636263 0.49096817 0.00068465661
-0.061872758 0.41489357 -0.25833833 0.11264408 -0.87252361 0.47540921 0.00042293151
-0.051592428 0.41823003 -0.2544173 0.11188595 -0.88581759 0.45034286 0.00045618313
-0.046754178 0.41815788 -0.25575736 0.11498402 -0.88250023 0.45603943 0.00030192776
-0.039211251 0.41731665 -0.25925997 0.11519864 -0.87490124 0.47040099 0.00075869152
0.056947812 0.41668671 -0.25583237 -0.14302586 -0.88571 0.44165757 0.0002030551
0.065428056 0.41498604 -0.25636142 -0.14195265 -0.87980688 0.45364016 0.00051959918
0.078135088 0.41228899 -0.25743446 -0.14280327 -0.87568021 0.46129322 0.00046371151
0.080311455 0.41140932 -0.25840572 -0.14057016 -0.87394857 0.46524608 0.00038679523
0.093805887 0.41208649 -0.25286958 -0.14851081 -0.88943309 0.43226531 0.00052888383
-0.041045059 0.42125487 -0.25116676 0.10744528 -0.89875561 0.42508098 0.00059729943
-0.02732322 0.42256153 -0.25203627 0.1100482 -0.9026714 0.41602132 0.00066543464
-0.016745161 0.42078209 -0.25811148 0.10881574 -0.89048421 0.44181114 0.00025562546
-0.0047258297 0.4246012 -0.25368559 0.080514327 -0.90304399 0.42193493 0.0015208001
6.1409082e-05 0.42419055 -0.25566953 0.024526127 -0.89830816 0.43868089 0.0028568401
0.012775876 0.4247829 -0.2545138 -0.06435094 -0.90103376 0.42894888 0.0026742574
0.0276023 0.42041537 -0.2580668 -0.12572801 -0.87518597 0.46716383 0.0004702658
0.036167972 0.42106751 -0.25413364 -0.14733502 -0.88810992 0.43537691 0.00046834885
0.043120556 0.42005238 -0.25385258 -0.15343329 -0.88352537 0.44253945 0.00039315532
0.31212851 0.068146676 -0.24152803 0.14252588 0.60220844 0.78551352 0.0030529494
0.32731125 0.068683669 -0.24415888 0.050057113 0.56990421 0.82018501 0.0043444657
0.33302867 0.069172166 -0.24406925 -0.033981267 0.51897639 0.85411286 0.0038376707
0.34000978 0.064461887 -0.24079226 -0.062888332 0.52178496 0.85075581 0.0047634281
0.28487861 0.075965963 -0.24052136 0.31515092 0.68580592 0.65601069 0.0035322402
0.29554716 0.076494463 -0.24404053 0.22842173 0.63022614 0.74205023 0.0044772327
0.30484375 0.075165361 -0.24554911 0.13905315 0.62948906 0.76446575 0.0024711804
0.31673193 0.074763954 -0.24816169 0.076665893 0.56859964 0.81903404 0.0039474326
0.33787403 0.074620403 -0.24682541 -0.087606631 0.47607416 0.87503052 0.0029691188
0.34600639 0.074008144 -0.24595632 -0.15674911 0.44133201 0.88354725 0.002076678
0.3555648 0.076485865 -0.24565278 -0.21249245 0.41831094 0.88309848 0.0027914499
0.26599023 0.086562663 -0.2413221 -0.36605576 -0.69844258 -0.61496425 0.002520754
0.27616549 0.084017783 -0.24491367 0.33390895 0.67987239 0.65289992 0.0034619884
0.29381153 0.081651673 -0.24803224 0.21681903 0.6308859 0.74496478 0.0034478544
0.34643048 0.080509722 -0.24959317 -0.18587852 0.431577 0.88271767 0.0026624748
0.35655212 0.08579693 -0.24871258 -0.24502572 0.38758028 0.88867539 0.0031416086
0.36717016 0.083219126 -0.24387544 -0.36701122 0.32117018 0.8730135 0.0015511159
0.37457466 0.086556971 -0.24211781 -0.43334779 0.27603447 0.85791302 0.0020745071
0.25673464 0.093864463 -0.24352244 -0.38512215 -0.69760764 -0.60417259 0.0021236723
0.37718788 0.09869308 -0.24526787 -0.45082316 0.21819876 0.86553323 0.0022066575
0.23337936 0.10758297 -0.24279046 -0.45816436 -0.75415039 -0.47047067 0.0041723857
0.24635959 0.10401404 -0.24861211 -0.40493977 -0.70920753 -0.57710361 0.0035412915
0.38142613 0.10614415 -0.24331236 -0.49003711 0.15991625 0.85690749 0.0016936862
-0.31455782 0.11960444 -0.24188203 0.096054316 0.49782711 0.86194068 0.0024591936
-0.30571133 0.1177726 -0.24183574 0.035946265 0.54502439 0.83764929 0.0037377218
-0.29611242 0.11693262 -0.24038631 -0.047742121 0.62353647 0.78033525 0.0033546304
0.22595885 0.11391128 -0.24640322 -0.41442391 -0.78831142 -0.45477232 0.0036599007
0.23784095 0.11007129 -0.24975181 -0.40589863 -0.76113093 -0.50589144 0.002387871
0.37421656 0.1141675 -0.2483727 -0.47765592 0.13661882 0.86785948 0.001939503
0.3874009 0.11494657 -0.24041308 -0.55241448 0.081413694 0.8295843 0.001478968
-0.33376378 0.12556832 -0.24198088 0.24704404 0.41355094 0.87632465 0.0042768829
-0.3160401 0.12529865 -0.24481252 0.1205392 0.48182765 0.86793566 0.0030369402
-0.30561742 0.12188765 -0.24466141 0.050373558 0.55328733 0.83146596 0.0036197111
-0.28635684 0.1240132 -0.24503635 -0.077767119 0.63023341 0.77250117 0.0046369419
-0.27395996 0.12337647 -0.24252465 -0.17868066 0.68115926 0.70999664 0.0021571829
-0.26422808 0.12687358 -0.2440463 -0.17860663 0.70837659 0.68286335 0.0027788114
-0.25540912 0.12655078 -0.24029851 0.23772824 -0.7340942 -0.63607472 0.0033820679
-0.24950148 0.12913556 -0.24003747 0.26400924 -0.74671102 -0.61050946 0.0030661579
0.19630006 0.12708341 -0.2425839 -0.44469857 -0.83474922 -0.32471049 0.0023035901
0.20231812 0.12540279 -0.24784648 -0.41359577 -0.83074367 -0.37256351 0.00234369
0.21427029 0.12054946 -0.24891666 -0.4104217 -0.81428391 -0.41048241 0.0027480971
0.37614051 0.12460613 -0.24807607 -0.53068137 0.051185191 0.84602445 0.0012792888
-0.34704062 0.13585219 -0.24052474 0.37687549 0.3007127 0.87609172 0.0032503926
-0.33559451 0.13365188 -0.24485528 0.29775935 0.35760272 0.88513255 0.0040154061
-0.32571641 0.13740028 -0.24994239 0.26652312 0.38111451 0.88527799 0.0047297054
-0.31544757 0.13169408 -0.24848367 0.14779821 0.47513297 0.86741251 0.0033739686
-0.26719856 0.13100266 -0.24812368 -0.12998968 0.68331629 0.71845782 0.0032336572
-0.25615993 0.13148218 -0.24593693 -0.19446738 0.71153992 0.67519879 0.0030531026
-0.24714327 0.13624844 -0.2491141 -0.19922216 0.72393364 0.66047752 0.0029720429
-0.2365481 0.1386019 -0.24752459 0.23980828 -0.76356649 -0.59954828 0.0026963386
-0.22765389 0.13782489 -0.24175781 0.28902617 -0.8123315 -0.50653881 0.0042978874
0.19027221 0.13047229 -0.24257118 -0.44436514 -0.84076482 -0.30927998 0.001803925
0.37812769 0.13529019 -0.24776156 -0.57844418 0.00493808 0.81570703 0.0022397786
0.38126063 0.13349251 -0.24570405 -0.58918959 -0.0018846525 0.80799258 0.0023824968
-0.35232607 0.14677781 -0.2414166 0.42811719 0.2262568 0.874942 0.0026395696
-0.34677777 0.14406861 -0.24306257 0.41644338 0.23392022 0.87855351 0.0020596292
-0.33562562 0.14596701 -0.2485359 0.35774052 0.29838872 0.88486487 0.0033438865
-0.23180868 0.14049298 -0.24816349 0.23190711 -0.77160567 -0.5923208 0.0030356213
-0.22673596 0.14119971 -0.2467261 0.24560019 -0.81392884 -0.52649826 0.0024530008
-0.21287474 0.14485687 -0.24557769 0.29788697 -0.83551103 -0.46171921 0.0013726186
-0.20802662 0.14850172 -0.24898547 0.29939079 -0.83978248 -0.45291328 0.0012610924
-0.19442254 0.14952755 -0.24373049 0.34218085 -0.85162884 -0.39703974 0.0021063804
0.15863118 0.14978892 -0.24767703 -0.40975884 -0.8685081 -0.27891096 0.0025815188
0.16157138 0.14748229 -0.24547054 -0.42231283 -0.867284 -0.26357216 0.0018789807
0.17126007 0.14229733 -0.24637806 -0.45922431 -0.84639323 -0.26968786 0.0012116543
0.38181964 0.14107345 -0.24558003 -0.60747063 -0.013655676 0.79422474 0.0028914786
-0.35142857 0.15478621 -0.24417278 0.48185581 0.15134503 0.86308146 0.0032561673
-0.18384488 0.15443078 -0.24517116 0.32265174 -0.8664844 -0.38092074 0.0021845291
-0.17796044 0.15702198 -0.24608822 0.30403188 -0.87442672 -0.37807751 0.0029088056
0.13653734 0.15784784 -0.24457821 -0.36499289 -0.91887599 -0.14982383 0.0017954853
0.15619086 0.15094897 -0.24695458 -0.41034901 -0.87745529 -0.24836643 0.003639688
0.37765902 0.15720454 -0.2466244 -0.63996291 -0.067263998 0.76545614 0.0016196499
0.38275602 0.15331368 -0.24272013 -0.63674033 -0.077043958 0.76721966 0.0018602267
-0.3534312 0.1656262 -0.24390599 0.52884775 0.094680808 0.84341902 0.001967873
-0.34309158 0.16125663 -0.24975345 0.46301997 0.18175922 0.86751139 0.0033183538
