# .PCD v0.7 - Point Cloud Data file format
VERSION 0.7
FIELDS x y z normal_x normal_y normal_z curvature
SIZE 4 4 4 4 4 4 4
TYPE F F F F F F F
COUNT 1 1 1 1 1 1 1
WIDTH 575
HEIGHT 1
VIEWPOINT 0 0 0 1 0 0 0
POINTS 575
DATA ascii
0.24287096 0.25593814 -0.15032619 -0.18677019 0.14656937 0.97140843 0.0027293833
0.18094862 0.26683506 -0.1519566 -0.17712344 -0.40338662 -0.8977229 0.0018833503
0.19717169 0.26863307 -0.15487131 0.093105949 0.33175397 0.93876016 0.0019906717
0.20033003 0.26677597 -0.15462005 0.090747029 0.32785833 0.9403584 0.002084214
0.21762168 0.26496616 -0.15591735 -0.042670086 0.24351433 0.9689582 0.005558047
0.22867763 0.26058906 -0.15353929 -0.078711934 0.20363727 0.97587723 0.0046207532
0.23861817 0.26002955 -0.15182273 -0.17258994 0.16886625 0.9704107 0.0034441159
0.24202281 0.26612532 -0.15224133 -0.23501123 0.11422776 0.96525735 0.0024963664
0.15258962 0.27639848 -0.1512295 -0.14879984 -0.49079108 -0.858477 0.0013415234
0.16795446 0.27320102 -0.1522852 -0.15810265 -0.45400828 -0.87685812 0.0028328015
0.17908838 0.27459306 -0.15475053 0.14651987 0.39552233 0.90669405 0.0023784456
0.18429233 0.27614295 -0.15587404 0.1250378 0.36033988 0.92440283 0.0023880466
0.19399087 0.27699369 -0.15737392 0.084423155 0.3200767 0.94362259 0.0018360611
0.20357826 0.27392977 -0.15750317 0.045329593 0.30329782 0.95181704 0.0028046817
0.21641122 0.27254772 -0.15788695 -0.066371076 0.23295267 0.97022057 0.0058417665
0.22516032 0.27732503 -0.15730202 -0.13876054 0.141317 0.98019129 0.0068444936
0.23722714 0.27728558 -0.1541605 -0.25838095 0.090645991 0.96178091 0.0022924945
0.24461904 0.2756618 -0.15191957 -0.27776468 0.06537164 0.95842224 0.0012825113
0.11757842 0.28568399 -0.15014797 -0.1647505 -0.52861404 -0.83272105 0.00048656814
0.12426866 0.28879213 -0.15358776 -0.1480262 -0.49485004 -0.85627782 0.0023939915
0.13507712 0.28322884 -0.15213592 -0.14587659 -0.50314307 -0.85180223 0.0012054031
0.14747094 0.28547484 -0.15618271 -0.11769531 -0.45732442 -0.88147736 0.0018172917
0.15289709 0.28400588 -0.15588017 -0.12774067 -0.451617 -0.8830201 0.0016546323
0.16646805 0.28117228 -0.15636502 0.11896858 0.4241159 0.89775956 0.0019565539
0.17620562 0.28368738 -0.15801591 0.11427147 0.37749034 0.91893578 0.0014905446
0.18066007 0.2823056 -0.15780488 0.10772674 0.36469409 0.92487472 0.0013386898
0.19548848 0.28110656 -0.15898553 0.069077916 0.30064613 0.95123082 0.002430734
0.2198863 0.28221604 -0.15923849 -0.13477124 0.17189641 0.97585267 0.0071148891
0.22523908 0.28651059 -0.15809254 -0.24266563 0.10326399 0.96459836 0.0029956929
0.23740451 0.28373936 -0.15439996 -0.28522429 0.056521956 0.95679277 0.0017365954
0.24781731 0.28665125 -0.15121946 -0.33594352 -0.026999013 0.94149506 0.0032801123
0.087039009 0.29901445 -0.15254539 -0.1701 -0.48474848 -0.85795385 0.003556899
0.091909349 0.29708335 -0.15233026 -0.17584008 -0.4874675 -0.85525179 0.0034014951
0.10278048 0.2966699 -0.15436678 -0.16805358 -0.50852776 -0.84448653 0.0008962992
0.12536776 0.29291731 -0.15654638 -0.12535051 -0.45313251 -0.88258606 0.0046547232
0.133085 0.29194486 -0.15749617 0.13130102 0.42255414 0.8967765 0.006012321
0.15962949 0.29120976 -0.15970945 0.087868065 0.32675266 0.94101644 0.0039860383
0.22603521 0.29488429 -0.15823728 -0.27875724 0.05077279 0.95901847 0.00068203465
0.23436773 0.29739293 -0.15590712 -0.31393063 0.0093313064 0.94940013 0.0013717978
0.24757732 0.29404327 -0.15136272 -0.37213448 -0.056263857 0.92647201 0.0045578466
0.25079238 0.29614371 -0.15022227 -0.38925877 -0.087572306 0.91695625 0.0038055307
0.059481546 0.30944729 -0.1521163 0.21296561 0.334075 0.91817188 0.0075678956
0.06435293 0.30737701 -0.15225331 0.20609315 0.34311169 0.91640604 0.0088364799
0.077640876 0.30622804 -0.15494159 0.18870385 0.3509531 0.91718203 0.010815149
0.087734796 0.30267614 -0.15510842 -0.18330579 -0.41660056 -0.89041722 0.0078082029
0.098789319 0.30077869 -0.15625753 -0.17244942 -0.43708044 -0.88273543 0.0076959771
0.22691223 0.30774704 -0.15856102 -0.32221675 -0.011689156 0.94659376 0.0033029886
0.23552895 0.30313385 -0.15575233 -0.37052229 -0.024121225 0.92851025 0.0040209983
0.24609436 0.30523264 -0.15191473 -0.41080731 -0.084305272 0.90781605 0.0043626465
-0.14056036 0.31960022 -0.15039672 0.088800929 0.2099019 0.97368145 0.0022114764
-0.13047987 0.31466311 -0.15046585 0.034067739 0.27785212 0.96001959 0.003239556
-0.1266226 0.31274572 -0.15048662 -0.0027570219 0.29514104 0.95544976 0.003661568
0.044288561 0.31819844 -0.15286958 0.16793919 0.28958318 0.94230455 0.0048035816
0.054460168 0.31317624 -0.15279576 0.18778296 0.30948496 0.93217844 0.0079061193
0.074879035 0.31228662 -0.15722799 0.18526964 0.26167923 0.9472059 0.01083215
0.086696267 0.31484878 -0.15984233 0.19003086 0.19330096 0.96256065 0.010622333
0.2235955 0.31345057 -0.15979123 -0.31538635 -0.048725501 0.94771159 0.0052403943
0.23372905 0.31608027 -0.15631774 -0.41352963 -0.10506901 0.90440792 0.0047868672
-0.15178943 0.32730925 -0.15090165 0.1155435 0.11041937 0.98714602 0.0038960143
-0.14110687 0.32783473 -0.15199518 0.13108698 0.1645529 0.97761881 0.0024211919
-0.13540749 0.32679629 -0.1523868 0.1156485 0.19375861 0.97420895 0.0016637037
-0.12024581 0.32887799 -0.15440282 0.039889421 0.26642823 0.96302897 0.0029790986
-0.11592437 0.32362735 -0.15380216 0.011762646 0.30723727 0.95156026 0.0032950263
-0.10480081 0.32325235 -0.15369411 -0.070412755 0.3526952 0.93308526 0.0034309186
-0.092994928 0.32501298 -0.15242389 0.083810277 -0.40455163 -0.91066676 0.0026523529
-0.082349613 0.32917538 -0.15266687 0.12111451 -0.42932218 -0.89499372 0.0011538791
-0.071011499 0.32828709 -0.15005633 0.11796436 -0.44668233 -0.88688183 0.00050112762
0.018054806 0.32712182 -0.15045725 0.086170986 0.3145003 0.94533813 0.00422891
0.022801885 0.32921973 -0.1512965 0.088117115 0.27962828 0.95605624 0.0039714472
0.037017267 0.32792884 -0.15239845 0.13269143 0.25481629 0.95784217 0.004028365
0.048216488 0.32906875 -0.15388229 0.12675135 0.21624565 0.96807641 0.0028627987
0.054421574 0.32737389 -0.15483472 0.13448215 0.19992703 0.97053784 0.0036124969
0.06657993 0.32362726 -0.15672475 0.15670854 0.15147005 0.97596067 0.0053195776
0.076092191 0.32702157 -0.15784924 0.14524028 0.11277653 0.98294795 0.0035700409
0.083982266 0.32471761 -0.15906863 0.15327843 0.12003104 0.98086607 0.0051553096
0.22738405 0.32337466 -0.15831195 -0.36701325 -0.13606681 0.9202103 0.0072454517
0.23349693 0.32430393 -0.15495664 -0.44076931 -0.18712787 0.8778984 0.0040109893
-0.15606061 0.33019394 -0.15089259 0.14391312 0.089396857 0.98554409 0.0049278582
-0.14457317 0.33784437 -0.15443401 0.17332529 0.12221597 0.97725201 0.0034646117
-0.13893078 0.33151329 -0.1530738 0.15840457 0.16388673 0.97367817 0.0028938591
-0.12576638 0.33258227 -0.15456617 0.10054132 0.21841836 0.97066206 0.0024836487
-0.1154599 0.33387733 -0.15591247 0.044239189 0.276407 0.96002191 0.0022774173
-0.10398343 0.33840355 -0.15803182 0.010357894 0.32978633 0.94399875 0.0026318589
-0.096889831 0.3354528 -0.15803553 -0.024671545 0.36624056 0.93019307 0.0034352888
-0.08077126 0.33526686 -0.15565458 0.099044293 -0.42085943 -0.90170258 0.0019449334
-0.075492233 0.33650684 -0.1553307 0.09791816 -0.43183118 -0.89662361 0.0012583885
-0.065868042 0.33529064 -0.15315804 0.10355442 -0.44873452 -0.88764507 0.00069993339
-0.055844452 0.33527836 -0.15205812 0.0846067 -0.42883047 -0.89941436 0.0013927118
-0.045839205 0.33740485 -0.15214843 0.060832314 -0.40974241 -0.91017061 0.0016104331
-0.031629566 0.33850423 -0.15120961 -0.03453226 0.38447088 0.92249107 0.002380806
-0.016703276 0.33880389 -0.15108831 -0.013733923 0.33660105 0.94154716 0.002478478
0.0043855719 0.33578914 -0.15159389 0.036938746 0.28693786 0.95723671 0.0017864852
0.027677672 0.33415592 -0.15278152 0.099608421 0.23938358 0.96580207 0.0022070818
0.032632809 0.3337788 -0.15312359 0.092795841 0.20949693 0.97339606 0.001032319
0.042104192 0.33299482 -0.15376373 0.11007661 0.19530444 0.97454566 0.0020680719
0.055459522 0.3340666 -0.15513754 0.097996332 0.12285285 0.98757476 0.0017242103
0.066679239 0.33366829 -0.15626317 0.11131404 0.088223197 0.98986155 0.0034606659
0.074746877 0.33416864 -0.15726312 0.12665369 0.062046174 0.9900046 0.0041903225
0.08287935 0.33705208 -0.15822551 0.090537392 -0.044040214 0.99491882 0.005789645
0.091058008 0.3343178 -0.15950887 0.083592989 -0.026881285 0.99613738 0.0031963086
0.20588839 0.33889145 -0.15987894 -0.11546388 -0.3522042 0.92877352 0.0084438473
0.21314947 0.33902884 -0.15879723 -0.18574479 -0.3564966 0.91564679 0.0094500985
0.22482453 0.33409521 -0.15755223 -0.32839632 -0.27676135 0.90308303 0.011792873
0.23124696 0.3368462 -0.15269597 -0.42309144 -0.27148136 0.86446023 0.0061130347
-0.15172322 0.34457567 -0.15242672 0.24305467 0.052369125 0.96859789 0.0046322513
-0.14414057 0.34676868 -0.15485083 0.23381056 0.072095804 0.96960545 0.0057500405
-0.13408567 0.34049433 -0.15622032 0.17789316 0.15896508 0.97112519 0.0030412804
-0.1252593 0.343804 -0.15784444 0.14478312 0.18925259 0.97119576 0.0030496796
-0.11408601 0.34484303 -0.1588784 0.094595417 0.23891616 0.9664216 0.0025678675
-0.078102291 0.34203809 -0.15880375 -0.079983488 0.39431107 0.91548973 0.0023125545
-0.066528581 0.34138405 -0.15661535 0.097950257 -0.4190335 -0.90267199 0.0016564203
-0.055717386 0.34445727 -0.15714374 -0.10777594 0.39177814 0.9137255 0.0038867577
-0.044409383 0.34540287 -0.15643595 -0.055975642 0.38470069 0.92134255 0.0040198839
-0.034759745 0.34424108 -0.15473817 -0.052442003 0.34432802 0.93738359 0.0055416119
-0.023395147 0.3435511 -0.15314834 -0.025414487 0.34428337 0.93852168 0.0031933843
-0.017693268 0.34553391 -0.15371725 -0.018690616 0.32747245 0.94467586 0.0050720819
-0.0089126518 0.34006709 -0.15179357 -0.0057213013 0.3093923 0.95091736 0.0024954628
0.0046988544 0.34067905 -0.1526778 0.0330263 0.2621212 0.96446973 0.00122617
0.016821742 0.34519431 -0.15433139 0.043573476 0.19609626 0.97961605 0.0029619725
0.023481082 0.34598094 -0.15498155 0.060040973 0.15411788 0.98622656 0.0031758177
0.030737741 0.34171382 -0.15467863 0.076730244 0.1712887 0.9822284 0.0024927394
0.045829322 0.34732413 -0.15718298 0.051853593 0.061988443 0.99672902 0.0067116935
0.052370213 0.34530059 -0.15730435 0.0957243 0.032103844 0.99489003 0.0059658317
0.066791594 0.34570092 -0.15862399 0.084270954 -0.027560214 0.99606168 0.0087281335
0.071095236 0.34811562 -0.15951446 0.064264677 -0.076769903 0.99497563 0.0095338617
0.0847684 0.3439807 -0.15978876 0.052863829 -0.10383435 0.99318868 0.010075547
0.10332915 0.34933901 -0.15987554 0.006520371 -0.26111084 0.96528685 0.005614528
0.11651392 0.34847569 -0.15974288 0.0074143545 -0.27775368 0.96062374 0.0043127383
0.12665224 0.34860611 -0.15924869 -0.022646569 -0.29279992 0.95590544 0.0034720432
0.14545658 0.34602773 -0.15954128 -0.02917875 -0.31649292 0.94814599 0.0024824764
0.15289712 0.3452788 -0.15954074 -0.042138465 -0.31789762 0.94718814 0.0036568285
0.16274172 0.34654298 -0.15857317 -0.054600347 -0.35669804 0.93262279 0.0024302567
0.17541112 0.34653366 -0.1580295 -0.057098914 -0.37775135 0.9241448 0.003506803
0.18829268 0.34632063 -0.1574818 -0.061285019 -0.3934339 0.91730791 0.0046731853
0.19415054 0.34443301 -0.15780698 -0.061975878 -0.41570899 0.90738362 0.0047940346
0.20101652 0.34254944 -0.15824252 -0.075853966 -0.39180723 0.91691506 0.0059197834
0.21524662 0.34313327 -0.15595129 -0.21504281 -0.4208647 0.88126582 0.0072073671
0.22414307 0.3441337 -0.15404277 -0.31171227 -0.40853602 0.85786581 0.0074708331
-0.15223908 0.35663176 -0.15239894 0.32495642 -0.11415998 0.93881351 0.010434458
-0.14450005 0.35314333 -0.1548087 0.26459712 0.017741807 0.96419585 0.0090383654
-0.13947311 0.35840392 -0.15645854 0.27097121 -0.055447835 0.96098912 0.013975766
-0.12905832 0.35620561 -0.15972951 0.25550297 0.027309844 0.96642244 0.014695053
-0.047273625 0.35039765 -0.15952323 -0.10272647 0.32944348 0.93857032 0.0083110016
-0.034973964 0.35192895 -0.15903267 -0.050124794 0.31011271 0.94937748 0.0076024523
-0.027551677 0.35377273 -0.15924761 -0.051963087 0.30798522 0.94997102 0.0075039319
-0.015661463 0.35256988 -0.1572827 -0.071804993 0.20245858 0.97665477 0.0087076891
-0.0062773796 0.35662839 -0.15851411 -0.078773595 0.14590007 0.98615819 0.0098329838
0.004830461 0.35197729 -0.15519315 -0.0050210878 0.16935353 0.98554254 0.0057088207
0.012045647 0.35405183 -0.15600003 -0.021916006 0.12848413 0.99146944 0.0052356427
0.02272673 0.35819185 -0.15755941 -0.020449761 0.077669673 0.99676937 0.0058901296
0.033788215 0.35437185 -0.1575112 -0.0033331052 0.055108447 0.99847472 0.0057363166
0.054465212 0.35588965 -0.15889202 0.050696641 -0.058687791 0.9969883 0.00953566
0.064773105 0.35571766 -0.15858084 0.019535735 -0.14591657 0.98910403 0.0092229573
0.072030336 0.35709882 -0.15771282 -0.0010636564 -0.16896212 0.98562199 0.010105645
0.080947459 0.35902703 -0.15654676 -0.028601196 -0.20817649 0.97767299 0.0077064135
0.092883214 0.35438168 -0.15809754 -0.00037381687 -0.24323972 0.96996611 0.0069082463
0.10503337 0.35481921 -0.15745161 0.0058226138 -0.28101519 0.95968562 0.0053333878
0.1145509 0.35566229 -0.15673022 -0.012701177 -0.31663209 0.94846344 0.0036205747
0.12602764 0.35453039 -0.15673563 -0.03188606 -0.32908809 0.94376069 0.0029447987
0.13729206 0.35683015 -0.15526266 -0.052729554 -0.36228386 0.93057507 0.0011786348
0.14232078 0.35605145 -0.15537916 -0.047803089 -0.36518928 0.92970514 0.001348873
0.15378772 0.35706687 -0.15444811 -0.059994273 -0.39154872 0.91819954 0.00086966512
0.16759856 0.35383725 -0.15523577 -0.067994535 -0.40534323 0.91163236 0.0018964016
0.17904043 0.35828507 -0.15147403 -0.082804956 -0.44036072 0.89399427 0.001205385
0.18320903 0.3510347 -0.15542129 -0.070075065 -0.42800573 0.90105528 0.0025341453
0.19373299 0.354361 -0.15190436 -0.089936621 -0.4593595 0.88368559 0.0013109135
0.20422921 0.35165113 -0.15215355 -0.11138874 -0.4670099 0.87720823 0.0014652234
-0.15388085 0.36367726 -0.15172102 0.32391515 -0.24596116 0.91355461 0.0065667378
-0.14798725 0.36259934 -0.15381148 0.32465398 -0.20002164 0.92444104 0.0099739758
-0.13786158 0.36487424 -0.15704122 0.34661284 -0.17298104 0.92192036 0.011586803
-0.012636989 0.36313531 -0.15970352 -0.092253774 0.12847537 0.98741239 0.0084937867
-0.0036171197 0.36244246 -0.15924998 -0.056904722 0.12626222 0.99036342 0.0085856579
0.0074957991 0.36476558 -0.15831684 -0.060293488 0.050098851 0.99692267 0.0061577265
0.024925658 0.36435947 -0.1572151 -0.049153879 -0.023621228 0.99851185 0.00375957
0.042755231 0.36508197 -0.15587379 -0.027265802 -0.090893462 0.99548727 0.0047189896
0.052881345 0.36513698 -0.15543085 -0.034671575 -0.17900753 0.98323655 0.0030226004
0.064006597 0.36784279 -0.15338869 -0.027277092 -0.19515853 0.98039234 0.0038639344
0.07497184 0.36563367 -0.15393277 -0.056551535 -0.24661754 0.96746153 0.0036961841
0.082879953 0.36552292 -0.15367691 -0.039674696 -0.25996667 0.96480215 0.0040005818
0.0961456 0.3688322 -0.15175241 -0.037792187 -0.2799097 0.95928216 0.0032234248
0.10429769 0.36400831 -0.15352257 -0.029955897 -0.33954743 0.94011188 0.0015134922
0.11720957 0.36151946 -0.15410803 -0.0370312 -0.35083309 0.93570542 0.0010221322
0.12340897 0.36654571 -0.15169725 -0.039822455 -0.3440488 0.93810689 0.0017689487
0.13627827 0.36494008 -0.15182935 -0.058584705 -0.35854399 0.93167269 0.0012840134
0.14618243 0.36616561 -0.15082227 -0.072178073 -0.35120821 0.93351114 0.0020656236
0.15643816 0.36212757 -0.15209462 -0.069926061 -0.39225969 0.91719282 0.0013604518
0.16493702 0.36122996 -0.15157321 -0.078968897 -0.41435063 0.90668488 0.0011791954
-0.14618737 0.37146357 -0.15078397 0.34912276 -0.2841239 0.89296526 0.0055278642
-0.13334371 0.37419465 -0.15608408 0.38050881 -0.32231069 0.86679226 0.009071324
-0.12104495 0.37970382 -0.15922464 0.37510052 -0.28123432 0.88329321 0.015472876
-0.027909109 0.37291098 -0.15949672 -0.1145463 0.091006204 0.98924065 0.0052402057
-0.01032361 0.37907121 -0.15768854 -0.11401722 -0.016489936 0.99334192 0.0036256497
-0.0019336689 0.37511054 -0.1576574 -0.093560189 -0.013017757 0.99552852 0.0027713857
0.003227304 0.37459326 -0.15741213 -0.097194351 -0.0048194597 0.99525374 0.0033739121
0.0157788 0.37504435 -0.15661423 -0.07265228 -0.06317129 0.99535477 0.0040464792
0.026178071 0.37428907 -0.15595135 -0.064105757 -0.090966225 0.99378854 0.0023682516
0.034433041 0.37684497 -0.15492995 -0.064308994 -0.14329714 0.98758805 0.0008987051
0.047446076 0.37770802 -0.15368767 -0.071269967 -0.16057289 0.98444754 0.001289714
0.055247389 0.37300494 -0.15354958 -0.048220687 -0.15401416 0.98689127 0.0020788372
0.061028995 0.37519932 -0.15278722 -0.070074849 -0.18648675 0.97995526 0.0017211071
0.076324254 0.3743906 -0.15153895 -0.07188385 -0.21688764 0.97354645 0.0024541558
0.086103722 0.37286317 -0.15110257 -0.06316369 -0.24818172 0.9666521 0.0029693034
0.095492654 0.37276357 -0.15008418 -0.072258718 -0.25068763 0.9653675 0.0030257008
-0.13009226 0.38173652 -0.15252128 0.38829714 -0.37236378 0.84295344 0.0059778793
-0.12382559 0.38505349 -0.15369862 0.39115462 -0.38332969 0.8366937 0.0064358632
-0.11828918 0.38156706 -0.15944557 0.37630695 -0.3047747 0.87493175 0.017255973
-0.014132934 0.38186413 -0.15810871 -0.13004673 -0.010176015 0.99145567 0.0040893634
-0.0037196386 0.38500282 -0.15691759 -0.1376663 -0.074957766 0.98763824 0.0049582329
0.0090579279 0.38107306 -0.15630266 -0.11064104 -0.06112884 0.9919787 0.0039576818
0.023270972 0.38665256 -0.15475255 -0.094149999 -0.17165178 0.98064846 0.0033101032
0.033387065 0.38641429 -0.15390977 -0.089364201 -0.17436592 0.9806174 0.0016394428
0.045867831 0.38741076 -0.15269871 -0.078065686 -0.18847446 0.97897041 0.0025490674
0.055642605 0.38428617 -0.15220399 -0.074943684 -0.16881008 0.9827953 0.0012948083
0.067121975 0.38426581 -0.15119898 -0.071368739 -0.17938708 0.98118639 0.0013778914
-0.11305974 0.39529371 -0.15238965 0.37359571 -0.48320311 0.79179615 0.0020184342
-0.10371245 0.39645523 -0.15692279 0.37193036 -0.48689672 0.79031599 0.0045114942
-0.096656278 0.39980787 -0.15852875 0.32417411 -0.5226559 0.78850609 0.0072715119
-0.0045686318 0.39571273 -0.15802416 -0.15505618 -0.21081488 0.96515012 0.0083635096
0.0059946515 0.3948752 -0.15629007 -0.13247959 -0.2148678 0.96761614 0.0064228973
0.018561574 0.39374006 -0.15424621 -0.094330028 -0.23061194 0.96846277 0.0044428478
0.025283227 0.39548802 -0.15326393 -0.075909831 -0.26720071 0.96064639 0.0050508184
0.031696543 0.39306724 -0.15328503 -0.067647219 -0.22991417 0.97085702 0.0039734938
0.043844834 0.39478871 -0.1520195 -0.076293334 -0.24558139 0.96636903 0.0040054768
0.054974049 0.39692935 -0.15079522 -0.067944035 -0.26128134 0.96286839 0.0037434376
0.062293578 0.39755446 -0.15008083 -0.074398488 -0.23442771 0.96928251 0.004157884
-0.096781522 0.40440166 -0.15508699 0.31409734 -0.57652426 0.75429612 0.0038757839
-0.071323715 0.40775698 -0.15929008 0.042496119 -0.5958268 0.80198789 0.0072760843
-0.069973022 0.40727454 -0.1596688 0.032013368 -0.59092879 0.80608821 0.0070643295
-0.054604881 0.40888256 -0.15788506 -0.050848804 -0.57213479 0.81858182 0.0068991901
-0.04462371 0.40799913 -0.1583816 -0.066095389 -0.53645158 0.84133887 0.009333849
-0.033637218 0.40925997 -0.15701088 -0.099911235 -0.48726931 0.86751729 0.012513423
-0.024506779 0.40388194 -0.15857081 -0.15803963 -0.32494938 0.93243301 0.015180371
-0.013686535 0.40214929 -0.15750596 -0.18867418 -0.33104858 0.92455876 0.015713474
-0.0042323195 0.40498471 -0.1544975 -0.14272232 -0.34048489 0.92935485 0.010353175
0.0012941556 0.4098022 -0.15122902 -0.12426255 -0.43360063 0.89249611 0.004621332
0.01670141 0.40247914 -0.15203288 -0.10722734 -0.30490935 0.94632584 0.0054140096
0.021886846 0.40320688 -0.15077813 -0.11019763 -0.31551656 0.94249988 0.0052000787
0.041591994 0.40106329 -0.15074301 -0.058605 -0.32121614 0.94519079 0.0038314187
-0.091933094 0.41145346 -0.1527077 0.2634567 -0.61138129 0.74619269 0.0045649833
-0.081716157 0.41399649 -0.15420616 0.15311013 -0.64787859 0.7461974 0.0060442612
-0.074376032 0.41635925 -0.15198512 0.09139391 -0.67258984 0.7343502 0.0036710373
-0.063735485 0.41122162 -0.15611656 -0.010483805 -0.62879258 0.77750236 0.0016735389
-0.052403033 0.41198534 -0.15516353 -0.04872914 -0.59594619 0.80154449 0.0047126892
-0.044332568 0.41444147 -0.15284319 -0.051438443 -0.61720109 0.78512222 0.0015277782
-0.03737215 0.41055351 -0.15599833 -0.097718172 -0.51504385 0.85157555 0.010668512
-0.022170044 0.41407704 -0.15257452 -0.096046068 -0.55234504 0.82806414 0.0050781495
-0.15375352 -0.44320646 -0.14091593 0.30109373 0.67055339 0.67801225 0.012491005
-0.14021716 -0.44557279 -0.14273736 0.064761594 0.68332863 0.72723317 0.012581127
-0.13393222 -0.44088221 -0.1472318 -0.002215327 0.62814134 0.77809614 0.010642718
-0.12421429 -0.4429459 -0.14294977 -0.1221325 0.66554797 0.73629445 0.006410806
-0.11090082 -0.44335461 -0.14022885 -0.16591054 0.64415419 0.74668539 0.0043320828
-0.16054635 -0.4356789 -0.14216097 0.42390695 0.55488199 0.71582747 0.0089150677
-0.15579669 -0.43574968 -0.14588703 0.40120164 0.52964216 0.74733961 0.012046112
-0.13865261 -0.43983397 -0.14939313 0.053649172 0.60561657 0.79394597 0.013235668
-0.12545763 -0.438274 -0.14806013 -0.10780286 0.616431 0.77999443 0.0085472781
-0.11577768 -0.43429261 -0.14828277 -0.19105995 0.56866038 0.80007589 0.0054999115
-0.1045923 -0.43514183 -0.1446238 -0.19212204 0.56711203 0.80092019 0.0052054645
-0.094708264 -0.43568996 -0.14192776 -0.20198666 0.55358046 0.80792946 0.0044243266
-0.16310918 -0.42365199 -0.14813714 0.4443582 0.36574784 0.81778616 0.005850615
-0.15896776 -0.42717135 -0.14930499 0.41408569 0.40691108 0.81422138 0.0081855319
-0.091580495 -0.42292774 -0.14776906 -0.21994817 0.43357795 0.87386101 0.0028533763
-0.08623457 -0.42251319 -0.14664331 -0.21297663 0.41927066 0.88252652 0.0031371305
-0.064262182 -0.42178965 -0.14150208 -0.2191264 0.42681822 0.877388 0.0015329156
-0.058291927 -0.4205786 -0.14052281 -0.21929908 0.43233758 0.87463826 0.0012891347
-0.18138805 -0.41493332 -0.14134462 0.4693076 0.41050875 0.78181392 0.0057051289
-0.17553608 -0.41486591 -0.14420635 0.4642503 0.35166866 0.81289661 0.004494051
-0.084699728 -0.41688645 -0.14890288 -0.21176706 0.40500778 0.88945121 0.0025479686
-0.075660147 -0.41327071 -0.1482175 -0.23379937 0.35405231 0.9055301 0.0027787115
-0.065038346 -0.41421637 -0.14508817 -0.23090127 0.36929885 0.9001683 0.0024589854
-0.053438436 -0.41383573 -0.14230305 -0.22701825 0.38039586 0.89652753 0.0024686253
-0.045464765 -0.41273698 -0.14076309 -0.22597887 0.36284906 0.90403211 0.0028877265
-0.18149661 -0.40516201 -0.14364047 0.44344482 0.30859715 0.84150136 0.0039560371
-0.17344566 -0.40749618 -0.14699423 0.44396862 0.26984918 0.85444325 0.0037047944
-0.068602592 -0.40769553 -0.14891374 -0.22818428 0.28445041 0.93113905 0.0040957914
-0.058490582 -0.40505981 -0.14751664 -0.23884505 0.26231045 0.93495792 0.0032924048
-0.043810148 -0.40580273 -0.14344396 -0.21890713 0.31345698 0.92402619 0.0026143489
-0.032706894 -0.40532339 -0.14082953 -0.20738664 0.33760923 0.91815621 0.001724033
-0.056072138 -0.39645678 -0.14888248 -0.23071268 0.22076526 0.94764674 0.0024007831
-0.042460114 -0.39447808 -0.14610288 -0.18270852 0.22594172 0.95685315 0.0019781741
-0.025965169 -0.39406276 -0.14305854 -0.18136674 0.2815538 0.94224924 0.0027532293
-0.015237137 -0.39199778 -0.14172274 -0.18375857 0.29721898 0.9369598 0.0031734032
-0.0086947773 -0.39231458 -0.1406073 -0.19167678 0.32413247 0.92638981 0.0033526991
-0.20329656 -0.38193846 -0.14177234 0.36052305 0.25123027 0.89827979 0.0060103242
-0.19663279 -0.38650367 -0.14315528 0.36089748 0.23608379 0.90222913 0.0062744091
-0.060382091 -0.38928112 -0.14987677 -0.20299558 0.1732226 0.96373588 0.0019117305
-0.044771448 -0.38483462 -0.14809339 -0.16582966 0.17363219 0.97074836 0.0022798551
-0.025867641 -0.38768077 -0.14434935 -0.16123554 0.22526196 0.96086431 0.00094605278
-0.010104703 -0.38828939 -0.14213485 -0.17577195 0.30649856 0.9355014 0.0038831993
-0.0024871083 -0.38716814 -0.14128804 -0.18975115 0.32153928 0.92768908 0.0030076629
0.00804641 -0.38137999 -0.14122692 -0.18591522 0.3102684 0.9322924 0.0032860644
0.014753924 -0.38066983 -0.14037713 -0.18898153 0.33406124 0.92341161 0.0037542963
-0.21452168 -0.37095833 -0.1409137 0.33855063 0.22141011 0.91452783 0.0068224333
-0.2096259 -0.37727749 -0.14061522 0.34585318 0.2444939 0.90587437 0.0062949411
-0.19884729 -0.37855658 -0.14561087 0.33082744 0.18493123 0.92539382 0.0065431516
-0.18543966 -0.37559211 -0.14842737 0.31748101 0.097485833 0.94324028 0.0053042704
-0.17648515 -0.37089437 -0.1498611 0.24678214 -0.0097070616 0.96902239 0.0031675783
-0.039260413 -0.37852299 -0.1483766 -0.1637363 0.14818223 0.9753114 0.0018849832
-0.023489598 -0.3771283 -0.14597866 -0.14302319 0.18676734 0.97193742 0.0024100947
-0.01403071 -0.37528551 -0.14508326 -0.12271725 0.18425335 0.97518772 0.0019784223
-0.0079624718 -0.37659556 -0.14409259 -0.12838782 0.20353553 0.97061306 0.0024711345
0.0017529884 -0.37035745 -0.14408872 -0.13384981 0.18669729 0.97325653 0.0026935949
0.024355052 -0.37343952 -0.14072619 -0.18193415 0.3038283 0.93519419 0.005313301
-0.21337523 -0.36445889 -0.14031775 0.30543861 0.1887932 0.93330824 0.0042692246
-0.20422685 -0.36505401 -0.14301397 0.29495814 0.13325292 0.94617301 0.0035337585
-0.19353934 -0.36347416 -0.14600304 0.25516245 0.065608948 0.96466964 0.0029007376
-0.18538561 -0.3685295 -0.14742556 0.27319834 0.041751672 0.96105123 0.0031540594
-0.02302753 -0.36524534 -0.14818278 -0.1013911 0.069251403 0.99243349 0.0044315774
-0.01646933 -0.3647913 -0.14737344 -0.10043942 0.081319347 0.9916144 0.0043532196
-0.0040098843 -0.36455578 -0.14589466 -0.10761514 0.12244947 0.98662317 0.0039202156
0.0098457951 -0.36391118 -0.14432277 -0.11898586 0.17224851 0.97784084 0.0022834942
0.016368506 -0.36461493 -0.14339162 -0.12240841 0.18552895 0.97498477 0.0025731241
0.029574824 -0.36912587 -0.14092052 -0.16335978 0.28182405 0.94545692 0.0043430948
0.035129886 -0.36483201 -0.14105633 -0.1550266 0.26090714 0.95283484 0.0044424282
0.043184619 -0.36249691 -0.14051467 -0.17975844 0.27400482 0.94477946 0.0053450707
-0.21347019 -0.35509887 -0.14193606 0.27980152 0.13237391 0.95088816 0.00170515
-0.20427126 -0.35304177 -0.14499238 0.2422813 0.091359995 0.965895 0.0019284865
-0.19161966 -0.35372955 -0.14849557 0.19809482 0.015005821 0.98006797 0.0042504142
-0.1887514 -0.35200369 -0.14966448 0.19601524 0.01168205 0.98053122 0.0045208335
-0.035369288 -0.35484734 -0.14900109 -0.09827435 -0.0549201 0.99364275 0.0032955962
-0.026598522 -0.35465324 -0.14829251 -0.093257256 -0.031205544 0.99515295 0.0030929006
-0.010662856 -0.35352087 -0.14766276 -0.06166669 -0.0023049316 0.99809414 0.0027132269
-0.0083745867 -0.3509734 -0.1473363 -0.064679563 -0.011184826 0.99784338 0.0026155307
0.0050225584 -0.35771507 -0.14596578 -0.098469295 0.067173578 0.99287039 0.0033508043
0.015029036 -0.35558039 -0.14504787 -0.090329535 0.11125165 0.98967862 0.0033674538
0.038088165 -0.35694304 -0.14215666 -0.13577093 0.213862 0.96738267 0.0032665108
0.045882612 -0.35433352 -0.14158645 -0.1426456 0.18073651 0.97313237 0.0035199404
0.060847711 -0.3512255 -0.14020565 -0.15460631 0.2505368 0.95568216 0.0047995783
-0.22620964 -0.34283572 -0.1406441 0.28086218 0.1469875 0.94842559 0.00088454946
-0.21693061 -0.3413296 -0.14368193 0.25353655 0.11870296 0.960015 0.00098808738
-0.19400142 -0.34202313 -0.14894144 0.14766474 0.016236292 0.98890418 0.0041907625
-0.17665084 -0.34175399 -0.14995351 0.1113229 -0.03063984 0.99331188 0.00367694
-0.056610167 -0.34724709 -0.14971419 -0.083367355 -0.14970267 0.98521012 0.00067289837
-0.046516981 -0.34384048 -0.14850317 -0.074323684 -0.14814864 0.98616832 0.00062879227
-0.035540946 -0.34785485 -0.1481455 -0.076130643 -0.12482715 0.9892534 0.00083543838
-0.025921743 -0.34222344 -0.14669497 -0.060079362 -0.14056838 0.98824644 0.0020163013
-0.0048758686 -0.34395337 -0.14643472 -0.059681565 -0.052728742 0.99682391 0.0031144903
0.0055331807 -0.34297249 -0.14631578 -0.02271763 -0.037707765 0.99903053 0.0035892795
0.015862968 -0.34634635 -0.14597692 -0.07590764 0.016092245 0.99698496 0.00351601
0.025336651 -0.34332672 -0.1452302 -0.059701707 0.026065828 0.99787593 0.0035714877
0.034312021 -0.34568262 -0.14391993 -0.094867975 0.10602264 0.98982793 0.0018627472
0.045098156 -0.34542763 -0.14269148 -0.1035797 0.11146787 0.98835528 0.0037727922
0.05630761 -0.345745 -0.14134949 -0.13342245 0.17727119 0.97507614 0.0051986156
0.062143762 -0.34552708 -0.14069377 -0.12307845 0.18197909 0.97556919 0.0044123339
-0.22562271 -0.33285895 -0.14246094 0.25037071 0.11073212 0.96179676 0.0010620595
-0.21476455 -0.33231112 -0.14539732 0.22884937 0.093201861 0.96898991 0.0015260593
-0.20854136 -0.33235139 -0.14595708 0.18759423 0.051152449 0.98091382 0.0020649559
-0.19664197 -0.33737406 -0.14771129 0.15006375 0.030274417 0.9882127 0.0033322419
-0.18290794 -0.33520955 -0.14846934 0.088758908 -0.026258424 0.99570698 0.0019043447
-0.17358004 -0.33356813 -0.14896312 0.076953635 -0.054264579 0.99555689 0.0018365001
-0.16754001 -0.33820584 -0.14939167 0.07934276 -0.067375824 0.99456781 0.0017989629
-0.092616804 -0.33233321 -0.1496844 -0.057347018 -0.23630379 0.96998554 0.00041965436
-0.08151219 -0.33415812 -0.14960755 -0.071353301 -0.22793669 0.97105801 0.00069684425
-0.071899302 -0.33001927 -0.14802007 -0.058955781 -0.2356742 0.97004223 0.00092975923
-0.066246293 -0.33314043 -0.14852314 -0.064011768 -0.21557565 0.97438675 0.00079167337
-0.051162068 -0.33127859 -0.14730453 -0.066432081 -0.19529676 0.97849172 0.00097468868
-0.043082595 -0.33466351 -0.14709467 -0.073018558 -0.19328612 0.97842157 0.0011114449
-0.0315492 -0.33757007 -0.14655584 -0.057875816 -0.17615351 0.98265976 0.0019460408
-0.025266174 -0.33946875 -0.14630148 -0.055011794 -0.16801518 0.98424822 0.0025680831
-0.014382161 -0.33660367 -0.14548145 -0.037066787 -0.15617694 0.98703337 0.0035627896
-0.0040437449 -0.33609369 -0.1454231 -0.032327909 -0.15043388 0.98809141 0.0034476789
0.0016881094 -0.33060914 -0.14472085 -0.011149588 -0.18741605 0.98221731 0.0033258819
0.013947372 -0.33358654 -0.14511299 -0.0073764576 -0.16132173 0.98687428 0.0036821102
0.028141916 -0.33412743 -0.14519274 -0.033857122 -0.081001081 0.99613881 0.0053918003
0.037719522 -0.33559105 -0.14465472 -0.066719234 0.010349793 0.99771816 0.0050410493
0.044070676 -0.33561197 -0.1439122 -0.076777816 0.018654065 0.99687374 0.0054827468
0.055030957 -0.33570585 -0.1426243 -0.071394727 0.056761093 0.99583179 0.0027594168
0.068125904 -0.33907998 -0.14071971 -0.081698187 0.14185342 0.98651063 0.0046322416
0.077446856 -0.33451113 -0.14072618 -0.055084128 0.10128491 0.99333137 0.0052464847
0.084514573 -0.33350003 -0.1405414 -0.045445282 0.097709768 0.99417681 0.0059257103
0.09542422 -0.3326484 -0.14016604 -0.073281974 0.20098822 0.97684878 0.0054939208
0.10402995 -0.33076051 -0.14002456 -0.066983745 0.2096857 0.97547174 0.0058803884
-0.23823977 -0.3207401 -0.14024685 0.27455193 0.11375906 0.95481944 0.0011900075
-0.22403364 -0.32433754 -0.14398023 0.23227885 0.090243071 0.96845382 0.0016951612
-0.21665476 -0.32110748 -0.14540055 0.19355504 0.063016631 0.97906357 0.0011516107
-0.20736203 -0.32424745 -0.14657164 0.14629005 0.039011933 0.98847216 0.0011298277
-0.18551922 -0.32335728 -0.1485537 0.070982978 -0.021640254 0.99724275 0.0010194842
-0.17512818 -0.32428423 -0.14941153 0.032224495 -0.060635556 0.99763972 0.0022062047
-0.16718486 -0.32982245 -0.14976302 0.045781117 -0.085450411 0.99529004 0.0021402582
-0.13463746 -0.32168007 -0.14946982 -0.036219474 -0.19102244 0.98091722 0.0013202745
-0.12443599 -0.32558984 -0.14979431 -0.044815291 -0.21766619 0.97499382 0.0010717327
-0.11349684 -0.32434353 -0.14872681 -0.055966392 -0.24410816 0.96813172 0.0001967381
-0.10368004 -0.32605734 -0.14857534 -0.056498557 -0.24860765 0.96695513 0.00024676818
-0.094575003 -0.32526952 -0.14790483 -0.062787831 -0.2622149 0.96296471 0.00057317136
-0.085909694 -0.3227675 -0.14680068 -0.064736709 -0.27994791 0.95783001 0.0006124744
-0.07235001 -0.32748684 -0.14736937 -0.063134551 -0.25322747 0.96534443 0.0012942004
-0.063947931 -0.32434773 -0.14610909 -0.061712466 -0.28017694 0.95796263 0.0011798014
-0.050199844 -0.32493845 -0.14557016 -0.076089874 -0.25772664 0.96321714 0.0017536947
-0.04441281 -0.32500109 -0.14529383 -0.068723403 -0.25652292 0.96409178 0.0015747233
-0.0311544 -0.32888806 -0.14544608 -0.052860543 -0.21768668 0.97458619 0.0024367024
-0.026972279 -0.32328099 -0.14382222 -0.038904872 -0.27629659 0.96028465 0.0021483535
-0.019976262 -0.3293955 -0.14463679 -0.035241563 -0.22689897 0.97328049 0.0025954384
-0.0049624536 -0.32829976 -0.14441872 -0.010012748 -0.23280628 0.97247159 0.0024839949
0.0041090921 -0.32453057 -0.14369217 0.0045563411 -0.23727055 0.97143286 0.0023299055
0.012856308 -0.32276484 -0.14345059 0.007113175 -0.24348243 0.96987921 0.0025954319
0.025544167 -0.32529545 -0.14405346 -0.0041524703 -0.19038022 0.98170161 0.0046765716
0.035539623 -0.32317829 -0.14371978 -0.0081693623 -0.18125086 0.98340297 0.0055021504
0.04581257 -0.32483053 -0.14400798 -0.04908086 -0.11001569 0.99271727 0.0082989354
0.053095337 -0.32741174 -0.14378022 -0.072405547 -0.042857211 0.99645406 0.0058316863
0.064387292 -0.32495388 -0.14273989 -0.030811254 -0.057272553 0.99788296 0.0077431751
0.083862171 -0.3231802 -0.14188248 0.0075197448 -0.0058185626 0.99995482 0.0073142997
0.094884969 -0.3250176 -0.14116018 -0.021195643 0.069987133 0.99732268 0.003990131
0.10458419 -0.32451934 -0.14079353 -0.054154228 0.088929437 0.99456465 0.0035182913
0.13237631 -0.32087976 -0.14002419 -0.096778385 0.21190456 0.97248673 0.0039763846
-0.2374782 -0.31076384 -0.14164716 0.23851159 0.076705351 0.96810561 0.0013802282
-0.22635312 -0.31258336 -0.14365964 0.21510546 0.064244621 0.97447532 0.0012941072
-0.21532844 -0.3112188 -0.1456601 0.15887256 0.025607664 0.98696697 0.00089276733
-0.20680854 -0.31428942 -0.14712393 0.12474411 0.010407094 0.99213439 0.0011283581
-0.19738477 -0.31551048 -0.14800185 0.093799204 -0.0091292709 0.99554926 0.00097849849
-0.18613181 -0.31585658 -0.14897227 0.0463573 -0.042477634 0.99802142 0.0018934786
-0.17609379 -0.31113574 -0.14954203 -0.012858115 -0.085929722 0.9962182 0.0021455009
-0.16941255 -0.31043541 -0.14890589 -0.0075950497 -0.10091663 0.99486589 0.002412363
-0.15612851 -0.31446868 -0.14905308 -0.016255712 -0.13628221 0.99053663 0.0026582947
-0.14356717 -0.31686369 -0.14882302 -0.037765764 -0.17124337 0.9845047 0.0017773901
-0.13602424 -0.31488279 -0.14779507 -0.044550721 -0.18820974 0.98111784 0.0011397507
-0.1249105 -0.31409413 -0.14683479 -0.074000865 -0.22901493 0.97060603 0.00045216648
-0.11360198 -0.31449258 -0.14617023 -0.074062571 -0.25550443 0.96396685 0.00053476129
-0.10683018 -0.31540322 -0.1459552 -0.068809249 -0.27060384 0.96022856 0.00033091739
-0.098095253 -0.31321022 -0.14487571 -0.069811881 -0.28392503 0.95630169 0.00049550063
-0.085625768 -0.31404674 -0.14446445 -0.067329869 -0.30513647 0.94992548 0.00054332486
-0.079465546 -0.31647038 -0.14479961 -0.06930422 -0.29303202 0.95358747 0.00082043489
-0.062004648 -0.31106794 -0.14165214 -0.06656792 -0.33893511 0.93845177 0.00039221375
-0.056571655 -0.313043 -0.14204004 -0.073410109 -0.33455464 0.93951273 0.00051346509
-0.043596715 -0.31722158 -0.14274456 -0.058795005 -0.30654523 0.95003855 0.0014077766
-0.038827911 -0.31441352 -0.14121254 -0.062086891 -0.32418486 0.94395411 0.0011443706
-0.021748388 -0.31611854 -0.14057505 -0.026899073 -0.30575231 0.95173103 0.0019168417
-0.019912669 -0.31627053 -0.14049365 -0.024814652 -0.3060905 0.95167893 0.0022021555
-0.0092921685 -0.31742099 -0.1411064 -0.010447495 -0.2970621 0.95480096 0.0022499014
0.021254206 -0.31776449 -0.14193106 0.0090526426 -0.26102516 0.96528953 0.0031006136
0.037835531 -0.31488457 -0.14112613 -0.0087019606 -0.28875023 0.95736486 0.0036742711
0.045477092 -0.31728417 -0.14223857 0.016696669 -0.23592627 0.97162753 0.0053028078
0.050220318 -0.31898275 -0.14301232 -0.035132468 -0.15344031 0.98753321 0.0098675517
0.060331725 -0.31265274 -0.14070094 0.024653245 -0.24178001 0.97001785 0.0085942075
0.074680693 -0.31856772 -0.142876 -0.014340004 -0.088597432 0.99596435 0.0093963314
0.086907387 -0.31424206 -0.14288394 0.015760345 -0.063237213 0.99787402 0.0089275269
0.094016112 -0.31612059 -0.14232995 0.017124707 -0.0056387587 0.99983752 0.0067826724
0.10657296 -0.3146233 -0.14196363 -0.0082806861 0.023277489 0.99969476 0.0037380673
0.11762165 -0.31870073 -0.14095536 -0.026774541 0.088488959 0.99571723 0.0038399117
0.1254999 -0.31435969 -0.14115804 -0.011603158 0.080378294 0.99669695 0.0042964658
0.131556 -0.31010333 -0.14143075 -0.0013794811 0.038496237 0.99925774 0.0054716826
0.14444262 -0.31475329 -0.14026821 -0.097111195 0.18951918 0.97706288 0.0049214135
0.15001094 -0.31098235 -0.14050081 -0.072723933 0.15313974 0.98552495 0.0040730755
0.17585675 -0.31299865 -0.14012559 -0.083013833 0.29165888 0.95291328 0.0075346828
-0.24102643 -0.30422181 -0.14101687 0.23403898 0.073115394 0.96947402 0.0011691081
-0.23847264 -0.30689925 -0.14147446 0.23981139 0.076606385 0.96779233 0.0012910067
-0.22761983 -0.3047685 -0.14344525 0.19705845 0.041872419 0.97949713 0.00099180464
-0.21775274 -0.30659091 -0.14522976 0.16746247 0.021319684 0.98564786 0.00082931633
-0.2042377 -0.30166355 -0.14768842 0.078939959 -0.027723707 0.99649382 0.0018226764
-0.19432516 -0.30787244 -0.14875285 0.06421914 -0.033348978 0.99737847 0.0018995838
-0.18694718 -0.30575487 -0.14884776 0.028335188 -0.066367477 0.99739277 0.002429985
-0.17647204 -0.30726123 -0.14855939 -0.014467945 -0.090083219 0.99582922 0.0019121561
-0.16136137 -0.30310482 -0.14670116 -0.052808497 -0.1578704 0.98604673 0.0011488267
-0.15608305 -0.30619046 -0.1468956 -0.04828836 -0.17227645 0.98386431 0.0012916903
-0.14908138 -0.30362332 -0.14605105 -0.067417242 -0.20246939 0.97696525 0.00068220258
-0.13664888 -0.30506673 -0.14562061 -0.085310265 -0.22217926 0.97126651 0.00078719429
-0.12949912 -0.3054516 -0.14513467 -0.086659864 -0.23652954 0.96775192 0.00077672407
-0.11636832 -0.3072041 -0.14461219 -0.08847452 -0.27208716 0.95819664 0.00086889596
-0.10533758 -0.30540246 -0.14316291 -0.089572631 -0.30644795 0.94766366 0.0010295812
-0.094693951 -0.30675077 -0.14243773 -0.077834524 -0.31693158 0.94524926 0.00081481162
-0.082837477 -0.30777064 -0.14192769 -0.062225185 -0.32677379 0.94305187 0.0007013409
-0.075209767 -0.30757052 -0.14124653 -0.070997424 -0.33407339 0.93986928 0.00054478116
0.069865271 -0.30898249 -0.14007032 0.027651845 -0.24569336 0.96895313 0.0079978108
0.073981196 -0.30862203 -0.14047348 0.041622475 -0.21390009 0.97596848 0.0088549871
0.086977892 -0.30636555 -0.14132705 0.048885621 -0.15702344 0.98638421 0.0095075779
0.096740603 -0.30073318 -0.14049105 0.059901636 -0.22015852 0.97362316 0.0067362715
0.10205803 -0.30610412 -0.1432016 0.04390385 -0.10859335 0.99311632 0.0078901928
0.12470065 -0.30568528 -0.14229643 0.0013055078 0.017162152 0.99985188 0.0048943018
0.13590404 -0.3048836 -0.14190166 0.02610809 0.035527695 0.99902755 0.0044728047
0.14578274 -0.30349496 -0.14164028 0.0058705909 0.026120579 0.9996416 0.005586639
0.15479258 -0.30018985 -0.14157496 -0.00041461928 0.020870799 0.99978209 0.0047683781
0.16118062 -0.30006555 -0.14115602 -0.025906609 0.091308191 0.99548566 0.0043797037
0.18688671 -0.30384752 -0.14150859 -0.080989368 0.27639419 0.95762569 0.0096648308
0.19035624 -0.30506581 -0.14149137 -0.07456135 0.28590277 0.95535344 0.0094705736
-0.24621709 -0.29094243 -0.14010203 0.20885183 0.0539116 0.97646016 0.00062833878
-0.23596272 -0.29778033 -0.14194699 0.19688699 0.036399946 0.97975028 0.00076654425
-0.2234526 -0.29151499 -0.14437275 0.14462543 0.0038982083 0.98947877 0.0012333712
-0.21939394 -0.29623735 -0.14495245 0.14643775 -0.0025056875 0.98921674 0.0010230821
-0.20179988 -0.29499525 -0.14769062 0.062869757 -0.062210429 0.99608088 0.0021333948
-0.1962623 -0.29406792 -0.14748807 0.033633858 -0.085955322 0.99573112 0.0018968903
-0.18464494 -0.29460326 -0.14703064 -0.016056631 -0.12124518 0.99249274 0.0018364199
-0.17564723 -0.29432389 -0.14647511 -0.044563234 -0.16076241 0.98598665 0.00064790825
-0.1693674 -0.29606164 -0.14631954 -0.056385398 -0.15766348 0.98588175 0.00080121093
-0.1580368 -0.29631811 -0.14569305 -0.07956665 -0.19229388 0.9781065 0.00081696559
-0.14762227 -0.2973555 -0.1452135 -0.084743544 -0.20704733 0.97465372 0.00079522753
-0.13675958 -0.29634023 -0.14446138 -0.10423161 -0.24439865 0.96405655 0.0015220793
-0.12841335 -0.29146701 -0.14212705 -0.14423051 -0.28975788 0.94617015 0.0013581268
0.10821736 -0.29928052 -0.14144734 0.067617565 -0.20206638 0.97703487 0.0063649672
0.1127639 -0.2959305 -0.14078528 0.072909661 -0.19692674 0.97770345 0.0067278389
0.1361168 -0.29513791 -0.14242832 0.049235094 -0.061843757 0.9968707 0.0058351629
0.14026287 -0.29296359 -0.14322403 0.064716622 -0.06330923 0.99589342 0.0057837674
0.1520585 -0.29651976 -0.14218365 0.0020399832 0.014953916 0.99988604 0.0049899817
0.177165 -0.29633063 -0.14050257 -0.0095306104 0.11708702 0.99307597 0.0029166518
0.1828489 -0.29736331 -0.14066085 -0.007829193 0.15593792 0.98773587 0.0056715743
0.19626769 -0.29247382 -0.14256015 -0.0098764598 0.14390348 0.98954242 0.0087965056
0.20335905 -0.29724225 -0.14234057 -0.046324041 0.26318476 0.96363258 0.0081167044
0.22218871 -0.29094028 -0.14152512 0.0038375112 0.28244421 0.95927602 0.0055490793
0.23681512 -0.29264915 -0.14080408 -0.0049263355 0.31405842 0.94939089 0.0032988149
0.25279203 -0.29384017 -0.14125617 -0.044624541 0.35982046 0.93195379 0.0032814206
0.26969478 -0.29497847 -0.14001144 -0.14997336 0.35391426 0.92317539 0.003677231
-0.24520612 -0.28317642 -0.14044839 0.19617532 0.05504613 0.97902256 0.0008425985
-0.23473364 -0.28239518 -0.14295515 0.15697008 0.019575376 0.98740929 0.0011469491
-0.22416507 -0.284704 -0.14508611 0.12877773 -0.011564151 0.99160606 0.0024771059
-0.21664767 -0.28363067 -0.14614557 0.087925762 -0.050214011 0.99486059 0.0027141359
-0.20549165 -0.28665546 -0.14647515 0.06649439 -0.066590868 0.99556226 0.0020143513
-0.19424231 -0.28660902 -0.14634068 -0.0016870005 -0.12331818 0.99236566 0.0015448539
-0.18390365 -0.28654253 -0.14598833 -0.046745468 -0.15264669 0.98717469 0.00059338618
-0.17024043 -0.28326261 -0.14483275 -0.091662034 -0.19728719 0.97605115 0.0014508187
-0.15710315 -0.28444082 -0.14421214 -0.097940244 -0.22406447 0.96964055 0.0016698125
-0.14302693 -0.28687441 -0.1430586 -0.1260041 -0.25874871 0.95769101 0.0020061275
-0.13740152 -0.28584909 -0.14164433 -0.13506989 -0.27155361 0.95289814 0.002027347
0.14447333 -0.285137 -0.14116579 0.10199279 -0.14446932 0.9842388 0.0095943827
0.15209067 -0.28370893 -0.14222834 0.087483436 -0.13707152 0.98669046 0.0085259946
0.16349877 -0.28414282 -0.14279452 0.035069831 -0.066865154 0.99714553 0.0087433169
0.17781931 -0.28730476 -0.14149906 0.016402546 0.044217907 0.9988873 0.004144934
0.18321043 -0.28452849 -0.14145355 0.02610446 0.059567429 0.9978829 0.0043367315
0.19646335 -0.2875973 -0.14242102 0.013096683 0.11248492 0.99356711 0.0057429839
0.20930758 -0.28468946 -0.14430057 0.023993054 0.12482515 0.99188864 0.0069454168
0.21383727 -0.28781596 -0.14462444 -0.021484841 0.20917833 0.97764152 0.0096067572
0.22072488 -0.28091452 -0.14592995 0.046270475 0.15841469 0.98628789 0.0081035439
0.23417902 -0.28343502 -0.14395219 0.023758076 0.24524769 0.96916926 0.0044870451
0.2469918 -0.28694665 -0.1432485 -0.014431598 0.29045025 0.95678127 0.0025101257
0.25258642 -0.28203875 -0.14498857 -0.043539081 0.24697004 0.96804452 0.0028072321
0.2630184 -0.28484651 -0.14319848 -0.087555327 0.29007161 0.95299131 0.0025446641
0.27612332 -0.28489202 -0.14141473 -0.16730443 0.27421343 0.94700378 0.0020044402
-0.2523002 -0.27122653 -0.14035724 0.16600665 0.060575705 0.98426235 0.0012473424
-0.24489073 -0.27569771 -0.1414839 0.18255793 0.034655761 0.98258412 0.001017871
-0.23513399 -0.27384955 -0.1436267 0.13198979 0.0040731244 0.99124271 0.0026938068
-0.22650123 -0.27294633 -0.14464647 0.097205959 -0.033291116 0.99470729 0.0034207902
-0.21438313 -0.27745849 -0.14518939 0.055988118 -0.079475902 0.99526322 0.0027640827
-0.17208782 -0.27526265 -0.14358275 -0.11686452 -0.21787891 0.96895379 0.0020053987
-0.16338176 -0.27251753 -0.14134775 -0.13860188 -0.26523054 0.95417094 0.0021128783
-0.14781313 -0.27921718 -0.14103821 -0.13971256 -0.26624781 0.95372564 0.0021806608
0.15776718 -0.27889466 -0.1419585 0.090371437 -0.15023276 0.98451167 0.0077468581
0.16461527 -0.27633867 -0.14269073 0.054585215 -0.11811387 0.99149865 0.0091674011
0.17282836 -0.27373305 -0.14340268 0.093809195 -0.086755648 0.99180305 0.0087115997
0.18582714 -0.27191103 -0.14273113 0.074794911 -0.049851373 0.99595207 0.0043834802
0.19875148 -0.27678192 -0.14239833 0.060232271 0.043301322 0.99724478 0.0043987888
0.20419419 -0.27999589 -0.14334914 0.037819203 0.088221923 0.99538267 0.0065072291
0.21528393 -0.27274829 -0.14480746 0.063793845 0.082779601 0.994524 0.005463812
0.2251451 -0.27204332 -0.14630349 0.075361572 0.097860776 0.99234259 0.0057197511
0.23649906 -0.27419698 -0.14723377 0.028649636 0.14526792 0.98897749 0.0057732346
0.2434293 -0.27532589 -0.14693758 0.010641567 0.16721135 0.98586363 0.0036711732
0.25413623 -0.2702235 -0.14686863 -0.024236619 0.1264845 0.99167246 0.0037027376
0.26408172 -0.27030361 -0.14561757 -0.093852922 0.15793079 0.98297989 0.0015227858
0.27890775 -0.27498031 -0.14295304 -0.16575643 0.2290785 0.95919126 0.0019954981
0.28398234 -0.27425247 -0.14243641 -0.19907241 0.25112098 0.94726366 0.0018470052
-0.24257068 -0.26303694 -0.14309298 0.11723246 0.012931566 0.99302036 0.0026679216
-0.23425752 -0.26376915 -0.14335081 0.10287548 -0.013365856 0.99460447 0.0030436292
-0.22278905 -0.26889834 -0.14399412 0.054255497 -0.059056841 0.99677914 0.0021035289
-0.21558963 -0.2678861 -0.14375994 0.021164453 -0.080441877 0.99653459 0.0011475976
-0.20217733 -0.26572704 -0.14345087 -0.054993402 -0.14966382 0.98720634 0.002090941
-0.19620846 -0.26706195 -0.14341605 -0.062283158 -0.16216828 0.98479557 0.0016327412
-0.18393594 -0.26419938 -0.14264239 -0.12664306 -0.22996886 0.96492273 0.0024145094
-0.17544433 -0.26782697 -0.14177667 -0.13154064 -0.23494121 0.96306783 0.0026195759
-0.16964856 -0.26820493 -0.14086166 -0.14784858 -0.25294542 0.95611686 0.0021814937
0.16970092 -0.26699412 -0.1407944 0.16629381 -0.22926763 0.95905304 0.006324186
0.17842254 -0.26313791 -0.14159516 0.1289359 -0.18514033 0.97421694 0.0063036513
0.18635687 -0.26585501 -0.14301372 0.099097073 -0.10595884 0.98942024 0.0060802489
0.19326539 -0.26457393 -0.14307274 0.11229508 -0.090176545 0.98957467 0.0052208477
0.20378745 -0.26479325 -0.14278729 0.10956768 -0.032884277 0.99343526 0.0019032774
0.21541579 -0.26417446 -0.1445301 0.092975445 -0.0039389348 0.9956606 0.0032081984
0.22481677 -0.26758668 -0.14609814 0.071061157 0.057604879 0.99580717 0.0046013924
0.23524885 -0.26407716 -0.14746378 0.055969868 0.046115644 0.99736691 0.0043635848
0.24528585 -0.2661618 -0.14837129 0.0098497262 0.095174104 0.99541193 0.0044891718
0.25493696 -0.26186725 -0.14823502 -0.019854436 0.06938073 0.99739259 0.0039233752
0.26492 -0.26256105 -0.14687163 -0.078416072 0.10452799 0.99142569 0.0021990875
0.28653401 -0.26478469 -0.14379317 -0.15424678 0.21146464 0.96513766 0.0021802471
0.29297444 -0.26840299 -0.14195265 -0.18751591 0.24545945 0.95109802 0.0019611865
-0.25371358 -0.25626031 -0.14185651 0.13163202 0.039707053 0.99050307 0.0024723387
-0.24468809 -0.25460094 -0.14208682 0.087685101 -0.010096209 0.99609703 0.0016807205
-0.23631303 -0.25408521 -0.14193158 0.036792144 -0.038963363 0.99856311 0.0010821908
-0.21040589 -0.25862035 -0.14268278 -0.047881234 -0.12432053 0.99108613 0.0023191932
-0.20374015 -0.25545397 -0.14252713 -0.079609118 -0.15531655 0.9846518 0.0030105198
-0.19525498 -0.25477794 -0.14220516 -0.13334796 -0.22046046 0.96623784 0.0037493412
-0.18332693 -0.25838897 -0.14054412 -0.15550177 -0.26444402 0.95178169 0.0019187897
0.18968222 -0.25409868 -0.14124362 0.13174111 -0.20678581 0.9694761 0.0052860989
