# .PCD v0.7 - Point Cloud Data file format
VERSION 0.7
FIELDS x y z normal_x normal_y normal_z curvature
SIZE 4 4 4 4 4 4 4
TYPE F F F F F F F
COUNT 1 1 1 1 1 1 1
WIDTH 578
HEIGHT 1
VIEWPOINT 0 0 0 1 0 0 0
POINTS 578
DATA ascii
0.12471648 -0.10528836 -0.12600082 -0.62671149 0.51790589 -0.58224243 0.00057047419
0.13202125 -0.1003529 -0.12993743 -0.64142436 0.49431401 -0.5867098 0.00042390471
0.4451665 -0.10461159 -0.12349474 -0.80503064 0.1332573 0.57807267 0.00061971875
-0.44754216 -0.097654492 -0.1214532 0.80712765 0.11620184 0.57882822 0.00016122615
-0.13224469 -0.094878279 -0.12548634 0.65346885 0.47897652 -0.58613986 0.00042351591
0.12815137 -0.097374782 -0.12304926 -0.64210182 0.50166303 -0.57968909 0.00021896523
0.13354069 -0.091521084 -0.12405378 -0.67227012 0.46651971 -0.57481492 0.0008009692
0.445609 -0.091693938 -0.12525426 -0.80663025 0.10698952 0.58129245 0.00018399068
-0.44761768 -0.081007354 -0.1244126 0.80857414 0.10647343 0.57868057 4.477231e-07
-0.14046653 -0.08755362 -0.12839764 0.6754328 0.42153206 -0.60506308 0.0022767484
-0.13753162 -0.085773893 -0.12358746 0.68105328 0.43092555 -0.59200466 0.001718559
0.13776745 -0.088140443 -0.12588093 -0.67987525 0.44799861 -0.58057457 0.001603151
0.44687569 -0.086365089 -0.12446391 -0.80522001 0.10627805 0.58337432 0.00014661772
-0.44757837 -0.073545173 -0.12584156 0.80500472 0.10325076 0.58421457 0.00016099769
0.14579313 -0.073114052 -0.12548596 -0.72230196 0.35202721 -0.59527868 0.0013755221
0.4451614 -0.076772839 -0.12862751 -0.79083925 0.10697375 0.60260254 0.00036309738
-0.45125985 -0.060749993 -0.12304872 0.80406582 0.10471877 0.58524537 7.1616356e-05
-0.44905943 -0.065362856 -0.1252768 0.80413383 0.10080711 0.58583844 0.00014565082
-0.15112878 -0.06638594 -0.12880774 0.74727315 0.31425926 -0.58551168 0.00049870199
-0.14702125 -0.064490058 -0.12243127 0.75141013 0.31993005 -0.57708544 0.00040429077
0.14883141 -0.068936691 -0.12719056 -0.72664052 0.33626363 -0.59909958 0.0011330656
0.15327913 -0.060646728 -0.12851188 -0.74717164 0.29640824 -0.5948754 0.00069737225
0.4480134 -0.067092687 -0.12642118 -0.80028486 0.10507595 0.59034157 0.00015106279
0.45186734 -0.060542785 -0.12223738 -0.80877817 0.10649777 0.5783909 3.2658565e-05
-0.45269361 -0.055386003 -0.12203122 0.80952477 0.10579471 0.57747477 2.6776193e-05
-0.14886324 -0.059747025 -0.12227143 0.75582665 0.29895556 -0.58253896 0.00066238496
0.14783005 -0.059819013 -0.12096366 -0.75226474 0.3094101 -0.58168995 0.00049079163
0.15557227 -0.053256664 -0.12751108 -0.77682674 0.25759998 -0.574615 0.0012667365
0.44686204 -0.058558721 -0.12960275 -0.79280484 0.10308617 0.60069436 0.00050296285
0.4508231 -0.059254244 -0.12393504 -0.80024707 0.10625783 0.59018129 0.00020797747
-0.45403072 -0.046351362 -0.12182474 0.80925012 0.10712443 0.57761461 0.00019417481
-0.16178429 -0.040111639 -0.12966284 0.76265663 0.21170002 -0.61117738 0.0025462476
-0.15716907 -0.044802126 -0.12515901 0.77997535 0.22258464 -0.58488852 0.0016024536
0.15755492 -0.047586989 -0.12703438 -0.77129233 0.23422731 -0.59181553 0.0023492798
0.4546127 -0.042680908 -0.12168664 -0.81078506 0.10716201 0.5754509 0
-0.45428598 -0.034824535 -0.12359005 0.80447125 0.10477785 0.58467728 8.0810052e-05
-0.16020913 -0.037513506 -0.12698159 0.77674669 0.19966687 -0.59732544 0.0019224805
-0.15840217 -0.033709031 -0.12375401 0.79344225 0.1624101 -0.58657676 0.0014018434
0.15957803 -0.03404953 -0.12546104 -0.79489517 0.18832885 -0.57677895 0.0010956742
0.4559997 -0.034691326 -0.12121791 -0.81048399 0.1074283 0.57582533 9.1749564e-05
-0.45538089 -0.025685413 -0.12374152 0.80411094 0.10728746 0.58471787 0.0001655618
-0.16002551 -0.025169792 -0.12445207 0.80809546 0.10005333 -0.58049208 0.00018849962
-0.1580089 -0.024070287 -0.12142935 0.80858409 0.10124728 -0.57960391 0.00019451653
0.15759283 -0.027740637 -0.12152308 -0.80105293 0.14498413 -0.58076996 0.00077217951
0.16135289 -0.028554946 -0.12693159 -0.80249697 0.14835271 -0.57791877 0.00064506504
0.45303631 -0.025244027 -0.12710175 -0.79997146 0.10876047 0.59009892 0.00024583083
-0.45483327 -0.014969281 -0.12648046 0.8019582 0.069623403 0.59330904 0.00049599307
-0.16082662 -0.015415656 -0.12377651 0.80739027 0.084698707 -0.58390689 0.0004835322
0.45643619 -0.0164332 -0.12396917 -0.80653298 0.086098149 0.58488613 0.00034477949
-0.45674133 -0.0047176019 -0.12569949 0.80954486 0.022521494 0.58662587 0.001023865
-0.16300097 -0.0038992986 -0.12469703 0.80420536 0.024754299 -0.59383577 0.0017281752
0.16437379 -0.0026951528 -0.12639509 -0.80255377 0.019768937 -0.59625208 0.0018235699
0.4571552 -0.0039466559 -0.12526266 -0.80922866 0.038605031 0.58622414 0.0011711889
-0.45464376 0.0066060699 -0.12828526 0.80238652 -0.04362157 0.59520841 0.0015095774
-0.16204143 0.0046643717 -0.12349598 0.7994523 -0.013090756 -0.60058689 0.0020324711
-0.15952699 0.0067279451 -0.12035941 0.80125672 -0.049954075 -0.59623164 0.0010961356
0.1664578 0.0060821418 -0.12993333 -0.79447371 -0.03895713 -0.60604769 0.0025427425
0.4572677 0.0065312069 -0.12462943 -0.81201255 -0.042670555 0.58207792 0.0010559714
0.46009701 0.007297569 -0.12053147 -0.82005763 -0.035516273 0.57117778 0.00095217838
-0.45513624 0.015144003 -0.1260245 0.80424559 -0.090606622 0.58734953 0.00035444781
-0.16292796 0.016637076 -0.12694022 0.80521613 -0.093399063 -0.58557969 0.00024339514
-0.15926287 0.011027561 -0.12078165 0.79989696 -0.060881753 -0.59704119 0.0010587433
0.16404423 0.01114296 -0.12748966 -0.78956038 -0.074000463 -0.60919476 0.0016703387
0.45598131 0.014541279 -0.12495372 -0.80678201 -0.075331703 0.58602715 0.00058036175
-0.45316228 0.025555838 -0.12686811 0.80157542 -0.10448553 0.58869314 0.00018150824
-0.16247065 0.023741558 -0.12760873 0.80446088 -0.1218284 -0.58137804 0.00056699594
-0.15815733 0.022427537 -0.12133448 0.80759597 -0.11512502 -0.57839 0.00041929141
0.15777013 0.021917358 -0.12069884 -0.81053221 -0.10714872 -0.57580966 0.00057194778
0.45427248 0.02644458 -0.12515186 -0.80638582 -0.10732478 0.58156967 0.00014152865
-0.45188639 0.03526362 -0.12686509 0.80305505 -0.10545609 0.58649945 3.8318223e-05
-0.16034135 0.036424942 -0.12696609 0.79827839 -0.15571499 -0.58181149 0.00082004664
-0.15908289 0.036672391 -0.12525162 0.79878533 -0.15663922 -0.58086681 0.00082981406
0.16134673 0.034782145 -0.12806952 -0.77532262 -0.17355287 -0.60725135 0.0021507547
0.45123404 0.035380822 -0.12775591 -0.79995453 -0.10631898 0.59056664 0.00031222994
-0.45328969 0.048970252 -0.12237885 0.80687183 -0.10623357 0.58109587 4.256648e-05
-0.4493123 0.046807736 -0.12833953 0.79859692 -0.10519105 0.59260255 0.00025956176
-0.15572625 0.046342187 -0.1240028 0.77546149 -0.2222456 -0.59098768 0.0015159237
0.15494859 0.046270598 -0.12292709 -0.77738017 -0.23589908 -0.58312225 0.0013549015
0.16022745 0.040695667 -0.12759295 -0.7765218 -0.19245392 -0.59997946 0.001996136
0.449763 0.041957628 -0.1286023 -0.80396664 -0.10667832 0.58502769 0.0002636337
0.45345274 0.045071736 -0.12286869 -0.80645686 -0.10759432 0.58142132 0.00010147362
-0.45156294 0.058298487 -0.12307626 0.80573279 -0.10621507 0.58267748 6.7665278e-05
-0.44890773 0.052429385 -0.12787026 0.80116779 -0.10684309 0.58882493 0.00018315531
-0.15725584 0.050794441 -0.12837613 0.76632971 -0.24400389 -0.59430718 0.0020557218
0.14944044 0.055185493 -0.12056112 -0.76341796 -0.29934436 -0.57235128 0.00045206238
0.15389483 0.052587718 -0.12496389 -0.76658642 -0.25698289 -0.58847684 0.0015338887
0.44864327 0.051182866 -0.12846972 -0.80288023 -0.10670504 0.58651292 0.00010837813
0.45271653 0.056875631 -0.12172501 -0.80655336 -0.10679726 0.58143449 0.00010165948
-0.44820726 0.065688819 -0.12640856 0.79789299 -0.10491995 0.59359801 0.0003424132
0.1463767 0.068754286 -0.12389302 -0.74451375 -0.3372961 -0.57613415 0.00063714542
0.15211697 0.062935628 -0.12823291 -0.74232012 -0.30816087 -0.59497702 0.00088501489
0.45120406 0.060273048 -0.12321466 -0.80519837 -0.10663356 0.58333933 0.00018051249
-0.45024872 0.076936908 -0.12148252 0.80868304 -0.10739155 0.57835865 3.2275257e-05
-0.14622438 0.076492451 -0.12787184 0.71007144 -0.36613196 -0.60145324 0.0021673201
0.14554451 0.074746594 -0.12604326 -0.71002251 -0.3770541 -0.59472537 0.0021731998
0.44748995 0.07700187 -0.12532884 -0.80232048 -0.10630444 0.58735108 4.190523e-05
-0.45025072 0.083766513 -0.12022225 0.81247884 -0.10740711 0.57301116 0.00017962043
-0.44785815 0.083211049 -0.12367058 0.80525166 -0.10613019 0.58335769 0.00021269375
-0.14198817 0.083601542 -0.12700371 0.68541932 -0.427616 -0.58935982 0.001627641
-0.13561268 0.087194487 -0.12265725 0.67131358 -0.45609659 -0.58422083 0.00088347273
0.13921484 0.088602871 -0.1278978 -0.66963816 -0.4329235 -0.6034584 0.0020910061
0.14255169 0.082537085 -0.12669329 -0.69001174 -0.40505344 -0.59984618 0.0025300356
0.44772118 0.088406652 -0.12290561 -0.8084017 -0.10464449 0.57925493 4.3726952e-05
-0.44408408 0.094238117 -0.12691848 0.79834932 -0.10872837 0.59229767 0.00016872356
-0.13189781 0.093553647 -0.12396064 0.6520617 -0.48662814 -0.58138496 0.00019075639
0.12974045 0.097817376 -0.12520766 -0.64618242 -0.49213418 -0.58331138 0.0004779415
0.13194758 0.096769869 -0.12677817 -0.6496594 -0.48376727 -0.58644003 0.00040231948
0.44634086 0.098545298 -0.12296927 -0.81007969 -0.11435561 0.57505965 0.00018952467
-0.44369209 0.10577577 -0.12534235 0.79727918 -0.12536645 0.59044814 0.00037013623
-0.12184502 0.10294766 -0.12077732 0.61653787 -0.52354884 -0.58802861 0.00092261325
0.1263312 0.10314041 -0.12596333 -0.62610519 -0.51268524 -0.58749133 0.00070203352
0.44416136 0.10431198 -0.12495559 -0.79792404 -0.1235471 0.58996058 0.00058072805
-0.44531006 0.11568062 -0.12125589 0.7889595 -0.19374759 0.58309937 0.0016224121
-0.12161621 0.11225609 -0.12851459 0.60210735 -0.52314538 -0.60314643 0.0017678241
-0.11459757 0.11381337 -0.12223193 0.58828813 -0.54967123 -0.59310925 0.0015917514
-0.10810536 0.11993533 -0.12306914 0.54373628 -0.60420996 -0.58247858 0.0012455661
0.1056775 0.1199987 -0.1210552 -0.53715265 -0.61108798 -0.58141077 0.0013160466
0.11611664 0.11691445 -0.12688464 -0.56279522 -0.56923956 -0.59935611 0.0028277161
0.44248268 0.11193043 -0.12590054 -0.78921968 -0.17051911 0.5899623 0.0013163277
-0.44528005 0.1200574 -0.12022702 0.78430468 -0.22178249 0.57937789 0.0016915817
-0.43920869 0.12507518 -0.12543069 0.76815349 -0.25689214 0.58646959 0.00068944402
-0.1130929 0.12160652 -0.12922224 0.55598617 -0.57718337 -0.59811264 0.0018860879
-0.1038565 0.12560882 -0.12576976 0.52318531 -0.62202752 -0.58254516 0.001177593
0.093417227 0.12984139 -0.12154207 -0.47087243 -0.66047829 -0.58484828 0.00076146959
0.10634196 0.1230344 -0.12502305 -0.53052336 -0.61108583 -0.5874685 0.0013892469
0.44237241 0.12359736 -0.12210542 -0.78247494 -0.22842358 0.57927167 0.0013634027
-0.43330121 0.13617794 -0.12713602 0.74660552 -0.2947078 0.59642905 0.00039979228
0.085319854 0.13702293 -0.12262557 -0.44860172 -0.68358117 -0.57573718 0.0010292293
0.091970809 0.13239613 -0.123159 -0.45807868 -0.67249072 -0.58130896 0.00086545595
0.43517229 0.13500968 -0.12532832 -0.75085318 -0.29176357 0.59253144 0.00034033036
-0.43305573 0.14609388 -0.12210325 0.75178015 -0.31027776 0.58185422 2.4059904e-05
-0.085014984 0.14153388 -0.12741198 0.41775826 -0.67631912 -0.60668814 0.0015310167
-0.073258899 0.14516167 -0.12474126 0.35315841 -0.72640198 -0.58959264 0.0010502789
0.068428107 0.14461753 -0.12142435 -0.35512128 -0.73999745 -0.57122034 0.0010735424
0.075513594 0.14428443 -0.12481507 -0.38457933 -0.71895307 -0.57896906 0.0015720931
0.4298411 0.14428176 -0.12727082 -0.74845904 -0.30166766 0.59059781 0.00034024459
0.43293345 0.14087749 -0.1250785 -0.74853235 -0.30360293 0.58951211 0.00029819473
-0.42686903 0.1574395 -0.12404141 0.75252074 -0.31047237 0.58079201 0.00010786537
-0.054217547 0.15087403 -0.12190702 0.27252817 -0.7646156 -0.58403033 0.00077532948
-0.044805244 0.15744533 -0.12568106 0.19875188 -0.78043866 -0.59280121 0.0012276755
-0.02117298 0.15743992 -0.12010002 0.11293829 -0.80824554 -0.57791358 0.00048877124
-0.0025678435 0.15990877 -0.12012722 0.0034679929 -0.81158447 -0.5842247 0.0015596352
0.024681302 0.15893926 -0.12284292 -0.099844888 -0.80932009 -0.57881951 0.00028462091
0.031250596 0.15776953 -0.12241656 -0.1524926 -0.79921126 -0.58138406 0.00095758314
0.041442953 0.15601623 -0.12195482 -0.21912189 -0.77602875 -0.59140927 0.0013729209
0.42862231 0.15514058 -0.12299748 -0.75359344 -0.31181717 0.57867688 0
-0.42516136 0.16354153 -0.12297291 0.75159311 -0.31214431 0.58109701 5.6072029e-05
-0.034589797 0.16172574 -0.12856425 0.1661718 -0.79287082 -0.58629566 0.0013154978
-0.021111088 0.16398937 -0.12924826 0.11306407 -0.80660653 -0.58017451 0.00011180627
-0.013541143 0.16198123 -0.125046 0.073475562 -0.81122679 -0.5800969 0.00081579265
-0.004645511 0.16293874 -0.12474726 0.011735815 -0.81214517 -0.58333743 0.0015116411
0.001505815 0.16665334 -0.12936415 0.0051088203 -0.80940008 -0.58723545 0.001708677
0.011730078 0.16475356 -0.12858978 -0.057224911 -0.80838364 -0.58586794 0.0012967965
0.023013828 0.16207793 -0.12692544 -0.098644905 -0.80233312 -0.58866864 0.00042502262
0.034848038 0.16233817 -0.12946832 -0.17783077 -0.79167557 -0.58448786 0.0015711086
0.4239265 0.16789915 -0.1222299 -0.75197995 -0.31187978 0.58073848 0
-0.42017341 0.17188369 -0.12497009 0.75093877 -0.31088486 0.58261621 8.2896309e-05
-0.41661441 0.17387956 -0.12853085 0.74714565 -0.30518281 0.59045476 0.0002544669
0.41529876 0.17709315 -0.1285107 -0.74269515 -0.30760193 0.59479833 0.0005080523
0.42052194 0.17990683 -0.1201849 -0.75784332 -0.31266871 0.57263589 0.00014424328
-0.41449979 0.18489291 -0.12534156 0.75033826 -0.30993545 0.58389431 0.00022287722
0.41602334 0.18278916 -0.12449163 -0.75023144 -0.31219429 0.58282721 0
-0.4114731 0.19305815 -0.12487838 0.75162399 -0.30958033 0.58242726 0
-0.40885267 0.19203518 -0.12884553 0.74340445 -0.31168947 0.59177655 0.00018398937
0.41129306 0.19761342 -0.12265399 -0.74950975 -0.31159449 0.58407527 4.6958459e-05
-0.40656841 0.2050212 -0.12481246 0.75045186 -0.31242812 0.58241796 0.00017223752
0.40604755 0.20781326 -0.12398402 -0.75046092 -0.3130143 0.58209145 6.6653811e-05
-0.40140918 0.21221669 -0.12765181 0.73922366 -0.32751358 0.58845824 0.00074216316
-0.39844021 0.21623617 -0.12935129 0.72561342 -0.33930832 0.59862763 0.0014412672
0.4006657 0.2151057 -0.12706125 -0.72680378 -0.33917737 0.59725618 0.0010168693
-0.39832485 0.22453079 -0.12502414 0.71796221 -0.38404393 0.58055192 0.0014521667
0.39565653 0.22895089 -0.12583846 -0.69561064 -0.41390687 0.58720267 0.0012393584
0.40377498 0.22067642 -0.12000197 -0.72774363 -0.35977215 0.58391207 0.0011934637
-0.3986989 0.23190182 -0.12001143 0.69976819 -0.4217304 0.57660037 0.0015188813
0.38462883 0.23922628 -0.12946761 -0.65766728 -0.46055445 0.59612364 0.00091351173
0.39008319 0.23354542 -0.12824188 -0.67700779 -0.43613365 0.59283036 0.0012060115
-0.38751709 0.24259789 -0.12334007 0.66123754 -0.47125533 0.58368093 0.0005453765
0.37794584 0.24925163 -0.12833765 -0.63556856 -0.4929468 0.59418523 0.00016496128
0.38533059 0.24449162 -0.12416083 -0.64451671 -0.49366733 0.58385849 5.2994714e-05
-0.38078204 0.25411937 -0.12098365 0.64706469 -0.4965494 0.57857233 0.00011132334
-0.37678355 0.25576124 -0.12404846 0.64575291 -0.49394327 0.58225697 0.00020240014
0.37613526 0.25678316 -0.12389638 -0.64668262 -0.49514401 0.58020169 7.2625204e-05
-0.37294322 0.26420137 -0.12109843 0.64850193 -0.49991697 0.57404548 0.00012492729
-0.36651558 0.26866737 -0.1244566 0.64576393 -0.49253049 0.58344042 0.00014048337
0.36959916 0.26842996 -0.12120964 -0.65031999 -0.50005072 0.57186812 0.00016180021
0.37116319 0.26390815 -0.12334232 -0.64394367 -0.49564561 0.58281386 8.6838765e-05
-0.36344123 0.27235538 -0.12473015 0.64618039 -0.49164182 0.58372873 0.00016342256
-0.35982653 0.27652684 -0.12519327 0.6472311 -0.4966065 0.57833719 5.6404806e-05
0.35718954 0.27546754 -0.12905401 -0.6325466 -0.48896649 0.60066354 0.00030406064
-0.35348481 0.28363338 -0.12618779 0.64084101 -0.49043143 0.5905928 0.00042511272
-0.34835213 0.28960264 -0.12680584 0.64521998 -0.49596834 0.58112532 0
0.34887969 0.28768387 -0.12786317 -0.63949084 -0.48662019 0.595191 0.00035839967
0.35938323 0.28145579 -0.12145681 -0.6456421 -0.49576113 0.5808332 8.0891623e-05
-0.34250724 0.29845196 -0.12574777 0.64246708 -0.49538907 0.58465862 8.7971341e-05
0.34467784 0.29829121 -0.12345673 -0.64352953 -0.49403089 0.58463937 4.2182384e-07
-0.34053957 0.30135599 -0.12545609 0.64214069 -0.49525928 0.585127 9.0613328e-05
-0.3388817 0.30569485 -0.12358558 0.64250827 -0.49505126 0.58489949 7.6347416e-05
0.33539015 0.30730891 -0.1261069 -0.63661253 -0.49857739 0.588341 0.00024247753
-0.33091864 0.31522802 -0.12431075 0.61189812 -0.52693772 0.58984512 0.0011294676
-0.32476145 0.31929761 -0.12770659 0.58627254 -0.54634124 0.59816033 0.0014214044
0.32760414 0.31464773 -0.12851831 -0.59672552 -0.53295225 0.59990042 0.0010402263
0.33228958 0.3134577 -0.12429674 -0.61742407 -0.52496171 0.58583516 0.00077628472
-0.32337236 0.32385743 -0.12492523 0.56486493 -0.57628691 0.59061068 0.0015858145
-0.31564674 0.32664955 -0.12872872 0.53417522 -0.59777874 0.59776038 0.00081056327
0.32038999 0.32687935 -0.12439836 -0.54501224 -0.58906639 0.59662598 0.0012000161
-0.31142607 0.33338371 -0.12481675 0.51710331 -0.62372357 0.58615106 0.00040951467
-0.30941707 0.33484912 -0.12490202 0.51241839 -0.63033307 0.58318746 0.00037561945
0.29799092 0.33968586 -0.1293011 -0.48259577 -0.64257658 0.59514421 0.00029475876
0.30264884 0.33580714 -0.12964189 -0.49130836 -0.63665092 0.5943833 0.00012475158
0.31318963 0.33331609 -0.1233781 -0.51193911 -0.62744272 0.58671463 0.00054321176
-0.30018967 0.34096438 -0.12598215 0.49692196 -0.64288217 0.58289891 0.00015873517
-0.29369116 0.34935698 -0.12217035 0.4973003 -0.64708304 0.57790655 1.760717e-05
0.28827053 0.34816056 -0.12816408 -0.48650199 -0.64050931 0.59419155 0.00025604694
0.29204994 0.34616822 -0.12714832 -0.48432955 -0.64218193 0.59416103 0.00012414565
-0.28439748 0.35666138 -0.12197664 0.49747071 -0.64825356 0.57644618 6.7208108e-05
0.28717673 0.35497898 -0.12147282 -0.50037926 -0.65061802 0.57124144 5.1409119e-05
0.29256293 0.35025433 -0.12213499 -0.49717066 -0.64755034 0.57749438 2.7925817e-05
-0.27691126 0.36237141 -0.12201507 0.49748024 -0.64819133 0.57650793 5.8796239e-05
-0.2670185 0.36701387 -0.1253148 0.49525845 -0.64400506 0.58307511 0.00019767279
0.26510727 0.36690563 -0.1270771 -0.48902363 -0.63664705 0.59626871 0.0003124325
0.27428633 0.36111689 -0.12567315 -0.49459538 -0.63904208 0.58906758 0.00015381738
-0.26090011 0.37290293 -0.1239783 0.49565798 -0.64641601 0.58006001 8.2237684e-06
-0.25395349 0.37817782 -0.12404034 0.49609864 -0.6459893 0.58015853 6.4538232e-05
0.25624979 0.37339512 -0.12742084 -0.49098727 -0.63770157 0.59352195 0.00035101612
-0.25013855 0.38273877 -0.12221211 0.49451318 -0.65088838 0.57602173 0
-0.24346398 0.38597906 -0.12431747 0.47565392 -0.65839487 0.58332628 0.00054491783
-0.23931426 0.38902766 -0.12446922 0.46566713 -0.65844351 0.59127522 0.00075875694
0.23882329 0.38749635 -0.12660451 -0.46311 -0.66102284 0.59040493 0.00081631634
0.24355468 0.38505799 -0.1252704 -0.48729399 -0.65104848 0.58196265 0.00018836008
-0.23175919 0.39060676 -0.12918974 0.42554474 -0.67389286 0.60397023 0.0016870109
-0.22457737 0.39741212 -0.12618831 0.3928273 -0.70809507 0.58676076 0.0015109228
-0.21785244 0.3998372 -0.12665813 0.35797381 -0.72432142 0.589248 0.0010673624
0.2264296 0.3964096 -0.12649506 -0.40203941 -0.70121741 0.58877707 0.0017674874
0.23247273 0.39272749 -0.12620364 -0.4489958 -0.67012638 0.59104443 0.0010585951
-0.2189621 0.40143839 -0.12397237 0.36320648 -0.72536457 0.58474553 0.0013947131
-0.20711151 0.40531871 -0.12531263 0.3190293 -0.74896467 0.58075154 5.0818191e-05
-0.19555557 0.40717629 -0.12912977 0.30418402 -0.7387194 0.60146964 0.00062080007
0.20533803 0.40656918 -0.12464032 -0.31238914 -0.75330585 0.57874292 0
0.21568584 0.40171811 -0.12537646 -0.33518869 -0.7350716 0.58933717 0.00068752799
-0.19220161 0.412893 -0.12349015 0.31014428 -0.75265735 0.5807904 0.00011481926
-0.18362708 0.41571227 -0.12444463 0.31205013 -0.74928212 0.58412427 0.00016846119
-0.17580444 0.41549277 -0.12895346 0.30638522 -0.73976165 0.5990665 0.00053311256
0.17725064 0.41582307 -0.12774241 -0.31117246 -0.74376494 0.59159559 0.00030372082
0.18459789 0.41420257 -0.12588814 -0.30900013 -0.74656826 0.58919835 0.00028370667
0.19191957 0.41282561 -0.12373029 -0.31224146 -0.75286204 0.57939976 8.8472361e-06
-0.16410305 0.4235929 -0.12471382 0.30788353 -0.74868751 0.58709013 0.00016221231
-0.15602654 0.42869237 -0.12242782 0.31107268 -0.75223279 0.58084387 3.3257711e-05
0.15706742 0.42432293 -0.12756039 -0.30803508 -0.74688649 0.58930045 0.00029150251
0.16716549 0.424492 -0.12188895 -0.31171614 -0.75344115 0.5789296 0.00013025891
-0.1424962 0.43615419 -0.12000731 0.30611947 -0.75666362 0.57771182 0
-0.1361728 0.43535337 -0.12446439 0.30029255 -0.75517106 0.5827015 0.00023049765
-0.12515329 0.43848583 -0.12633058 0.25953862 -0.76627725 0.58775753 0.0010770714
-0.11485486 0.43958545 -0.12941401 0.18999754 -0.77523702 0.60241884 0.0018794786
0.12889345 0.43464184 -0.12932122 -0.26988193 -0.75704747 0.59501511 0.00077083783
0.13746972 0.43498227 -0.12424792 -0.30059895 -0.75491929 0.58286965 0.00010709702
-0.12682904 0.44153702 -0.12144963 0.26344153 -0.77464932 0.57490617 0.0010697616
-0.11421035 0.44592443 -0.1206674 0.1881378 -0.78965282 0.58399719 0.0019593956
-0.10519094 0.44433489 -0.12455111 0.14343873 -0.79184109 0.59364372 0.00076317659
-0.094790615 0.44548753 -0.12485401 0.1080084 -0.80774754 0.57954997 5.6209497e-06
-0.086588979 0.44359702 -0.12900801 0.10414156 -0.7953096 0.59719104 0.00050576107
-0.075671479 0.4471736 -0.12601617 0.10499841 -0.80619496 0.58225858 3.0160067e-05
-0.064351782 0.4489556 -0.12560822 0.10613289 -0.80597824 0.582353 0
-0.052654579 0.44815832 -0.12887688 0.10416396 -0.79484969 0.59779906 0.00036903872
0.072179988 0.44710666 -0.12675259 -0.09530177 -0.79486459 0.59925616 0.00033492164
0.086620875 0.44636655 -0.12512882 -0.10402089 -0.80653 0.58196998 0.00011229387
0.10426489 0.44284105 -0.12681079 -0.13034818 -0.80056524 0.58489704 0.00083341019
0.11258303 0.44155613 -0.12707622 -0.18364057 -0.79405713 0.57943887 0.001448152
0.12147121 0.44087231 -0.12520811 -0.2273508 -0.77979517 0.58329326 0.0010563699
-0.069321811 0.45168784 -0.12087198 0.1049867 -0.80776703 0.58007783 0
-0.057146147 0.45133075 -0.12361317 0.10563803 -0.80522215 0.58348763 4.6857342e-05
-0.045106631 0.45391399 -0.12221716 0.10766503 -0.81177318 0.57396209 0.00014962617
-0.031815387 0.45416278 -0.12431637 0.10532469 -0.80221283 0.58767444 0.00019546651
-0.023025747 0.45646331 -0.12271733 0.10034223 -0.80812341 0.58040327 0.00014930814
-0.0139396 0.45500937 -0.12642358 0.080676138 -0.7991032 0.59575629 0.00046606435
-0.0065857647 0.45597303 -0.12642989 0.035175171 -0.80565464 0.5913403 0.0014256355
0.0029473561 0.45660466 -0.12621646 -0.030899383 -0.80537611 0.59195822 0.0010592008
0.018432245 0.45466942 -0.12607189 -0.097729228 -0.80450058 0.5858565 0.00023547921
0.026253629 0.45600417 -0.12276509 -0.1071995 -0.80747354 0.58008152 0
0.035833403 0.45436415 -0.12329487 -0.10743328 -0.80695295 0.58076245 0
0.043284103 0.45426607 -0.12206024 -0.10637462 -0.81010079 0.57655978 0.00013797068
0.05047575 0.45254284 -0.12314604 -0.10616785 -0.80500168 0.58369577 8.0709244e-05
0.06637539 0.45183957 -0.12120224 -0.1058537 -0.80560845 0.58291507 5.4481519e-05
0.0006709391 0.46023226 -0.12156228 -0.0052676513 -0.81368756 0.58127868 0.0017615561
-0.04170737 -0.46134424 -0.11245154 0.12241217 0.83271056 0.54000777 0.0011769272
-0.026196623 -0.4636257 -0.11211664 0.10974506 0.83668476 0.53657663 0.0014608389
-0.015684089 -0.46265608 -0.11540826 0.082558639 0.82707185 0.55600023 0.00078223675
-0.008875221 -0.46148303 -0.11830247 0.053785615 0.824718 0.56298077 0.00099501549
0.0082435049 -0.46541318 -0.11292235 -0.038138177 0.83764166 0.54488701 0.0011550534
0.014497872 -0.46367988 -0.11419487 -0.078542732 0.82096958 0.56554395 0.00069567579
0.022763632 -0.46343505 -0.11301538 -0.1062546 0.82305551 0.55793333 0.00032695942
0.039828345 -0.46089482 -0.11342604 -0.11793843 0.830742 0.54402047 0.00089345325
0.042674854 -0.4615272 -0.11201753 -0.12128812 0.83352309 0.53900689 0.00080592593
-0.12170325 -0.45148852 -0.11124749 0.24749221 0.80987841 0.53183126 0.0024454936
-0.11801793 -0.45193595 -0.11155899 0.23204035 0.81010091 0.53841782 0.0024124871
-0.10672015 -0.45267954 -0.11259923 0.12859538 0.82176691 0.55512375 0.0011679254
-0.095720463 -0.45271695 -0.11457212 0.10539077 0.82176447 0.55999643 0.00046203268
-0.084038191 -0.45061553 -0.11966197 0.10654539 0.81431782 0.57055634 0
-0.072383337 -0.45485821 -0.11587432 0.10651252 0.82300919 0.5579524 0.00057680497
-0.065370917 -0.45629674 -0.11515364 0.1044808 0.82076216 0.56163448 0.000465619
-0.05276797 -0.45662045 -0.11702137 0.10851051 0.82131767 0.56005609 0.00046548471
-0.042321734 -0.45797443 -0.11705117 0.1089277 0.81629133 0.56727707 0.00031952304
-0.037404992 -0.45706856 -0.11922331 0.10794313 0.81265306 0.57266337 7.5597159e-06
0.042243276 -0.45872679 -0.11601345 -0.10718501 0.81928074 0.56328541 0.00038997052
0.056880515 -0.4576 -0.11489432 -0.10571333 0.82413661 0.55643833 0.00049719203
0.066290289 -0.45709458 -0.11386856 -0.10831323 0.82704693 0.55159914 0.00047510135
0.078097433 -0.4562332 -0.11289937 -0.10657347 0.82624215 0.55314195 0.00053337857
0.080262341 -0.45710951 -0.1112752 -0.10297123 0.83803791 0.53580737 0.0010424276
0.092739202 -0.4541463 -0.11312205 -0.10856471 0.82298678 0.55758983 0.00037627036
0.11637516 -0.45145503 -0.11253408 -0.19145972 0.80752712 0.55789173 0.0015206591
0.12074313 -0.45016831 -0.1134863 -0.21078962 0.80790412 0.55032599 0.0015311297
-0.15039895 -0.44039768 -0.11021098 0.31719095 0.77811432 0.54215127 0.0010575597
-0.14225776 -0.44260073 -0.11173464 0.31466705 0.76836199 0.5573191 0.0001360797
-0.12519978 -0.4460648 -0.11642835 0.27054965 0.78261137 0.56064469 0.0012204445
-0.1168395 -0.44951582 -0.1151606 0.21316992 0.79026878 0.57448578 0.002033903
0.10541749 -0.44880167 -0.11826238 -0.12553495 0.81482959 0.56594497 0.00059952913
0.11725208 -0.44665751 -0.11908211 -0.19357908 0.79952544 0.56858253 0.0015182749
0.12581274 -0.4461669 -0.11596439 -0.25778675 0.7874133 0.55993414 0.0011615767
0.13498348 -0.44389838 -0.11397034 -0.30120748 0.77054513 0.56172431 0.00041846687
-0.16803199 -0.43022883 -0.11394474 0.31596035 0.76821387 0.55679131 0.00056376355
-0.15573564 -0.43451363 -0.11499843 0.31660339 0.76347047 0.56291658 0.00031391846
-0.14259429 -0.43812516 -0.11738568 0.30792475 0.76474845 0.56598771 0.00021232602
-0.13717198 -0.4396069 -0.11838166 0.3015281 0.76537573 0.56857789 0.00052035961
0.14914566 -0.43643478 -0.11605211 -0.31150809 0.76473612 0.56404012 0.00019005779
0.15939778 -0.43515974 -0.11217956 -0.32033354 0.77466977 0.54522771 0.001193353
0.1645624 -0.43308413 -0.11209655 -0.31609958 0.77926111 0.5411405 0.0013495397
-0.19402708 -0.42165357 -0.11108774 0.32182434 0.77166474 0.54860067 0.00087193423
-0.18360333 -0.42307281 -0.11486503 0.31753013 0.76247585 0.56374216 0.00021860402
-0.17852016 -0.42694774 -0.11255914 0.31994203 0.77920502 0.53895885 0.00093653577
-0.16476142 -0.42861345 -0.11781548 0.31453261 0.76089662 0.56754333 6.1422608e-05
0.16652417 -0.42653507 -0.11957249 -0.31404421 0.75684887 0.57319802 0.00021248915
0.17010802 -0.42988867 -0.11326739 -0.31874487 0.78374177 0.53305769 0.0013845433
0.18539825 -0.42324179 -0.11367592 -0.31916404 0.77034134 0.55200404 0.0006843186
-0.21107896 -0.41299111 -0.1131721 0.32740346 0.77029431 0.54722351 0.00079739053
-0.20543973 -0.41392413 -0.11500026 0.31846225 0.76384866 0.56135285 0.00036337975
-0.19338745 -0.41803116 -0.11615385 0.31941137 0.76165742 0.56378579 0.00041294584
0.18752649 -0.41760936 -0.11986735 -0.31315988 0.75486076 0.5762952 6.7394561e-05
0.19875827 -0.41724584 -0.11427807 -0.31942573 0.76720697 0.55620188 0.000606213
0.20738408 -0.41196239 -0.11650726 -0.31669465 0.76356655 0.56273496 0.00038406925
0.21203896 -0.41473833 -0.11037685 -0.33625972 0.77720135 0.53187162 0.0011479796
-0.23495173 -0.40231228 -0.11334851 0.43132946 0.71299261 0.55280781 0.0017187785
-0.22341454 -0.40702847 -0.11428378 0.36224774 0.75671011 0.54421163 0.0013482731
-0.21713762 -0.40775228 -0.11672886 0.32935864 0.75953209 0.56092238 0.00072856119
0.21489137 -0.40935799 -0.11584886 -0.33415958 0.75987858 0.55760366 0.00087013672
0.22597922 -0.40489289 -0.11568251 -0.38538307 0.73776501 0.55424064 0.0016257915
0.23297083 -0.40221286 -0.11509753 -0.41553 0.71861452 0.55760914 0.001497925
-0.25266361 -0.39013144 -0.11177063 0.50878584 0.67001516 0.54057068 0.0011759092
-0.24410024 -0.3926971 -0.11625288 0.49237978 0.66798091 0.55799967 0.00090601254
-0.233686 -0.39853311 -0.11866476 0.43034676 0.6992569 0.57082522 0.0013968784
0.23644128 -0.39784691 -0.11706667 -0.43990025 0.69831133 0.56466728 0.0012206129
0.24312516 -0.39463294 -0.11492385 -0.47266355 0.68191653 0.55819267 0.00097457651
-0.26210007 -0.38204405 -0.11271797 0.51253337 0.6635986 0.54492795 0.0010306454
-0.25462079 -0.38353434 -0.11747281 0.50539565 0.655002 0.56173623 0.00049213611
0.24706677 -0.38858786 -0.11830425 -0.49224338 0.66633052 0.56008941 0.00069085305
0.25624105 -0.38490671 -0.11454572 -0.50562251 0.66138285 0.5540024 0.000487254
-0.27007258 -0.3720983 -0.11700217 0.50167543 0.65586036 0.56406474 0.00033634601
-0.26630411 -0.37636396 -0.11546449 0.50082427 0.65830159 0.56197345 0.00040257329
0.26469538 -0.37771347 -0.11533576 -0.50477493 0.65726632 0.55964559 0.00047269548
0.27280095 -0.37153006 -0.11529528 -0.50465369 0.65737402 0.55962849 0.00031179047
-0.29072312 -0.36093247 -0.11176485 0.50961488 0.66153926 0.55014408 0.00059631589
-0.28210917 -0.36550924 -0.11403993 0.50826079 0.66194326 0.55091029 0.00054696767
0.27763101 -0.36577666 -0.11758629 -0.50002164 0.65712148 0.56406546 0.00034323896
0.28482807 -0.36026809 -0.11757074 -0.50022233 0.65639853 0.5647288 0.00024633014
-0.29514837 -0.35493487 -0.11467679 0.50329667 0.66110528 0.55644608 0.00053415966
-0.28825259 -0.3576414 -0.11756948 0.50871444 0.65946305 0.55346018 0.00055269792
0.29379523 -0.35480976 -0.11597885 -0.50468069 0.65490258 0.56249452 0.00045293261
0.30092046 -0.35398602 -0.11078209 -0.52129841 0.66616076 0.53336465 0.001520435
-0.31255975 -0.34484062 -0.11102182 0.52299303 0.66380674 0.53463894 0.0011809082
-0.30396909 -0.34899759 -0.11374669 0.50489885 0.65952861 0.55686545 0.00061459246
-0.29912537 -0.3488856 -0.11803138 0.50197494 0.65404898 0.5658986 0.00038081105
0.30671412 -0.34470996 -0.11618786 -0.50901169 0.65250939 0.5613721 0.00023571694
-0.32528657 -0.33096832 -0.11561769 0.57199788 0.59443641 0.56521124 0.0014501583
-0.31995696 -0.33320722 -0.11768874 0.53649682 0.62117636 0.57123643 0.00082235469
-0.30975974 -0.33921868 -0.11971784 0.50148833 0.64568019 0.57585293 0.00014882791
0.32479355 -0.33298984 -0.11377875 -0.57633495 0.60099798 0.55375028 0.001152452
-0.33552095 -0.32431689 -0.11135546 0.62243259 0.5563547 0.55049711 0.0013660948
-0.32968825 -0.323035 -0.11898366 0.59541494 0.56686836 0.56933421 0.0015719217
-0.34552827 -0.31179127 -0.11091221 0.66670114 0.51371306 0.54000783 0.0010527092
-0.33700576 -0.31385741 -0.1186756 0.64229566 0.51502782 0.56762886 0.00070589845
0.33754158 -0.31608313 -0.11616468 -0.63115031 0.52449059 0.57145333 0.00062957703
0.34189343 -0.3158038 -0.11153444 -0.65654582 0.52426046 0.54230857 0.0012034453
-0.34540573 -0.30632693 -0.11574176 0.65222949 0.49998745 0.569745 0.00018581151
-0.33954829 -0.30968446 -0.11941369 0.64956903 0.50241834 0.57064521 0.00025985966
0.34771544 -0.30656493 -0.11295257 -0.65897995 0.50594318 0.55656707 0.00060226087
-0.3622877 -0.29066694 -0.11029656 0.67624778 0.51802933 0.52376962 0.0015115004
-0.35462081 -0.2944833 -0.1155995 0.6560533 0.50611472 0.5598588 0.00043492622
0.34851468 -0.29737201 -0.11995235 -0.64720815 0.49661574 0.57835495 0
0.35480824 -0.29499766 -0.11494806 -0.65659964 0.50329697 0.5617553 0.0002948881
-0.36584681 -0.28589886 -0.11040808 0.66550428 0.51468509 0.5405584 0.0012001157
0.36640307 -0.28376371 -0.11161906 -0.66054934 0.50704736 0.55369443 0.00055856991
-0.37335831 -0.27272695 -0.11331284 0.66215652 0.50461739 0.5539946 0.00056212267
-0.36888021 -0.27277753 -0.11828093 0.65212148 0.5037663 0.56653082 0.0003654598
0.36745542 -0.27335411 -0.11938034 -0.65295935 0.50656307 0.5630613 0.0002593869
0.37223113 -0.27280092 -0.1145108 -0.65874648 0.50573045 0.5570367 0.00040654955
-0.3800562 -0.26366857 -0.11359584 0.65699768 0.50093144 0.56340188 0.00049092394
-0.37410498 -0.26525429 -0.11889419 0.65416527 0.49860537 0.5687359 0.00033936396
0.37480631 -0.26721129 -0.11642884 -0.65636933 0.50414997 0.56125921 0.00042252673
-0.38394395 -0.25520831 -0.11651003 0.65764451 0.50407517 0.5598321 0.00051426032
-0.378676 -0.25865105 -0.11944907 0.65189397 0.50098979 0.5692482 0.00027863478
0.38546023 -0.25512519 -0.11488453 -0.65509039 0.50321388 0.56358886 0.00036331179
-0.39588967 -0.24662739 -0.11051013 0.68676937 0.49021134 0.53669423 0.0012860604
-0.38811406 -0.24850467 -0.11759977 0.65987802 0.49519679 0.56510276 0.00045149162
0.38882273 -0.24707472 -0.11803464 -0.66301215 0.49117574 0.56494361 0.00041932912
0.39511341 -0.24465542 -0.11307221 -0.67471719 0.4847019 0.55661535 0.00082071387
-0.40265587 -0.23357441 -0.11371663 0.72385287 0.41977426 0.54756415 0.0018146245
0.40070674 -0.23520291 -0.11487702 -0.70461684 0.43865496 0.5577606 0.0015801392
-0.40552559 -0.2239733 -0.11594094 0.73593336 0.3743147 0.56417251 0.0015126121
0.40590048 -0.22520438 -0.11478779 -0.73497474 0.38209766 0.56019068 0.0015292936
-0.41172051 -0.21252295 -0.11404858 0.76739991 0.3202953 0.55543536 0.00042560446
0.40848204 -0.21478981 -0.11704531 -0.75277817 0.32399216 0.57302201 0.00020394741
0.4128013 -0.21083857 -0.11354931 -0.77029574 0.32542008 0.54840344 0.00096000457
-0.41388598 -0.20715106 -0.11412628 0.76670182 0.32144174 0.55573696 0.00035600047
-0.4092302 -0.20804393 -0.1197118 0.75970453 0.31625319 0.56818384 7.071939e-05
0.41376603 -0.20674726 -0.11450061 -0.76201969 0.32117337 0.56229317 0.00057615613
-0.42047393 -0.19270313 -0.11333992 0.77065569 0.32293627 0.54936516 0.00070052873
-0.41791168 -0.1944478 -0.11573726 0.76723123 0.32122552 0.55513108 0.00052165595
0.41914558 -0.19600315 -0.11328959 -0.77623296 0.32139602 0.54237163 0.0013825012
0.42213213 -0.19165492 -0.11174472 -0.78586715 0.32123032 0.5284164 0.0015640138
-0.42312843 -0.18637773 -0.11329502 0.77570295 0.32612383 0.54030383 0.0010131061
-0.41781461 -0.18856281 -0.11904058 0.75673538 0.31707972 0.57167464 9.0070032e-05
0.41974548 -0.18739423 -0.11715502 -0.76145482 0.31348762 0.56737298 0.00027533775
0.42555624 -0.18349679 -0.11168616 -0.78554535 0.32600906 0.52596253 0.0014379164
-0.42653403 -0.17539349 -0.1147862 0.77060962 0.32092699 0.55060583 0.00068326655
0.42712066 -0.17608076 -0.11365065 -0.77747744 0.31307939 0.54544491 0.00087433506
0.43070585 -0.17283472 -0.11073065 -0.78165549 0.31348443 0.53920513 0.0011014747
-0.43117145 -0.16566119 -0.11399615 0.76971197 0.323001 0.55064869 0.00052564818
0.42861438 -0.16178285 -0.11942221 -0.75300801 0.3123031 0.57917678 1.4386515e-05
0.43176562 -0.16636427 -0.11284235 -0.77722114 0.31967288 0.54197466 0.00093967438
-0.43288431 -0.15532617 -0.11734287 0.7613101 0.31549665 0.56645274 0.00022476114
-0.043421596 -0.15331629 -0.11926204 0.21643917 0.78106779 -0.58573657 0.0021037054
-0.037983656 -0.15373407 -0.11801255 0.17567007 0.79710579 -0.57772171 0.0022636158
-0.021449571 -0.1504356 -0.11035524 0.12950027 0.84553331 -0.51797986 0.0024422675
-0.015240526 -0.15341434 -0.11337791 0.10915192 0.82795644 -0.55006719 0.0012579962
-0.0049216771 -0.1562352 -0.11542305 0.027831383 0.82600713 -0.56297213 0.0024279889
0.0051998082 -0.15483318 -0.11351345 -0.025599495 0.83576065 -0.54849678 0.003440965
0.015466219 -0.1524516 -0.112073 -0.10412167 0.83365655 -0.54237944 0.0017898978
0.023788661 -0.15408973 -0.11589631 -0.11674022 0.82147598 -0.55816573 0.0011528524
0.034639183 -0.15296718 -0.11632422 -0.16959934 0.79686576 -0.57986301 0.0014204485
0.04129092 -0.15337478 -0.11829257 -0.22181092 0.78566068 -0.57752687 0.0020100924
0.43474308 -0.15663263 -0.11421531 -0.77559888 0.32359129 0.54197317 0.00073637272
-0.44111326 -0.14708352 -0.11106826 0.77792186 0.31765905 0.5421533 0.0011657603
-0.066480897 -0.1432568 -0.11859993 0.34343255 0.73825741 -0.58054298 0.0007288371
-0.049006999 -0.14972723 -0.11759974 0.25554708 0.77353519 -0.57994741 0.0018737321
-0.028790046 -0.14971709 -0.11070193 0.16147879 0.82924128 -0.53505456 0.0029527803
0.037754543 -0.14828414 -0.11034842 -0.22057585 0.81968611 -0.52864063 0.0046564867
0.04566662 -0.14925192 -0.11517714 -0.25423318 0.79043126 -0.55730069 0.0022934873
0.055741031 -0.14415133 -0.11396824 -0.31701967 0.77608359 -0.54515392 0.0013836254
0.066436201 -0.14260545 -0.117727 -0.33655804 0.76010436 -0.55585074 0.0012497805
0.073094547 -0.14040516 -0.11845376 -0.37788621 0.73545402 -0.56241387 0.0018078042
0.43427259 -0.14936234 -0.11875305 -0.76513189 0.31501159 0.56155223 0.00030942564
0.44318849 -0.14131421 -0.11147812 -0.77769023 0.31761348 0.54251224 0.0012959922
-0.4419958 -0.13760835 -0.11503293 0.77490759 0.3029328 0.55475211 0.00040116193
-0.43911499 -0.13765527 -0.11876193 0.76434386 0.3059634 0.56759578 0.00021292054
-0.076244883 -0.13375357 -0.11208674 0.42611158 0.74885845 -0.50758249 0.0032270926
-0.06304466 -0.1396659 -0.11206526 0.33854315 0.77025807 -0.54045439 0.002345467
0.06536033 -0.13959613 -0.11322442 -0.34082296 0.7607646 -0.55233771 0.0015850853
0.077677056 -0.1351335 -0.11405729 -0.42637786 0.72639245 -0.53903234 0.0028049131
0.083051749 -0.13198248 -0.11503714 -0.44822949 0.7029472 -0.55222774 0.0021614518
0.44454747 -0.13514252 -0.11303859 -0.77814895 0.29879194 0.55245602 0.00078122766
-0.44736561 -0.12502153 -0.11482937 0.79637504 0.23325041 0.55801529 0.0011940963
-0.10125121 -0.12162261 -0.11907164 0.51978397 0.63382739 -0.57278919 0.0011132351
-0.097072467 -0.1234522 -0.11753078 0.50028163 0.65543324 -0.56579649 0.0010316719
-0.087542541 -0.12755223 -0.11393562 0.47337505 0.70500046 -0.52810079 0.0030515948
0.085672066 -0.1268132 -0.11150231 -0.48340213 0.69338298 -0.53436172 0.0026972787
0.093016103 -0.12649596 -0.11745371 -0.50813115 0.65772557 -0.55605751 0.00097423093
0.10027625 -0.12197797 -0.11863205 -0.50714594 0.64634746 -0.57012105 0.00051936629
0.4460761 -0.12510434 -0.11646524 -0.78644788 0.25358385 0.56320071 0.0013845474
-0.44731772 -0.11841692 -0.11794432 0.79902011 0.21902637 0.55999494 0.0012574235
-0.1053243 -0.11604328 -0.11632543 0.5510456 0.61277014 -0.56644636 0.0016660433
0.10522874 -0.11451221 -0.11452989 -0.56939024 0.61555845 -0.54486918 0.0025334687
0.11015815 -0.1111493 -0.11499943 -0.58692437 0.59842908 -0.5453462 0.0024596953
0.44748139 -0.11605936 -0.1181495 -0.79991263 0.18121207 0.5721032 0.0012479275
0.45350382 -0.11055446 -0.11074053 -0.82944566 0.15123989 0.53772336 0.0018236185
-0.45470864 -0.10296481 -0.11045292 0.82765895 0.12427506 0.54729915 0.0005709565
-0.11237174 -0.10310362 -0.11030968 0.61023819 0.55890864 -0.56145382 0.0023434393
0.11614271 -0.10797298 -0.11871117 -0.60611755 0.56068343 -0.56414139 0.0020399964
0.45329157 -0.10459739 -0.11213414 -0.83509099 0.12896976 0.53478014 0.0013466112
-0.45534742 -0.097195476 -0.11062182 0.83508331 0.10905229 0.53920639 0.0012309423
-0.1180021 -0.098048136 -0.1122694 0.63435817 0.53270352 -0.56019348 0.0016568957
0.1185751 -0.09846893 -0.11327195 -0.644274 0.52944916 -0.5519008 0.0016223567
0.12242446 -0.094216421 -0.11392807 -0.65071422 0.52078772 -0.55258584 0.0013967768
0.13084361 -0.090005875 -0.1197343 -0.67181557 0.47152317 -0.57125288 0.00088546635
0.4493255 -0.093271472 -0.11976619 -0.80924666 0.10652993 0.57772946 3.4705707e-05
0.4527089 -0.093719475 -0.11495187 -0.82242829 0.10927015 0.55827558 0.00080416084
-0.45423737 -0.084538139 -0.11450473 0.82776648 0.10679254 0.5508157 0.00075743155
0.12928584 -0.081981331 -0.11110008 -0.7077871 0.45458311 -0.54073244 0.0031209313
0.13294803 -0.084905311 -0.11770938 -0.69392365 0.44976294 -0.56230175 0.0016810626
0.45438462 -0.087584354 -0.11373802 -0.82715219 0.10151703 0.55273283 0.00094305299
-0.4527798 -0.075533204 -0.11820117 0.82143867 0.10752015 0.56006962 0.00027867049
-0.13977616 -0.070584685 -0.11627926 0.73459822 0.38518089 -0.55857056 0.001395324
0.13746376 -0.079310231 -0.1179757 -0.71648693 0.41217345 -0.562814 0.0021673201
0.45542809 -0.075276166 -0.11454485 -0.83171624 0.10299589 0.54556388 0.00074939826
-0.14355029 -0.064603269 -0.11796894 0.75645441 0.33039084 -0.56446308 0.00074501504
0.1434644 -0.062653676 -0.11680441 -0.75455838 0.33735403 -0.56288004 0.00094650907
0.45527282 -0.065028496 -0.11664879 -0.82050645 0.10549365 0.56181866 0.00020128272
-0.45875102 -0.055378444 -0.11356117 0.82800001 0.11164119 0.54950184 0.0005330338
-0.14303532 -0.057291217 -0.11335067 0.77536619 0.31676459 -0.54632163 0.0017924091
0.14560533 -0.052148335 -0.11392357 -0.77778167 0.28417468 -0.5606249 0.0015696681
0.46070307 -0.054275915 -0.11103419 -0.84369457 0.11671653 0.52398157 0.0013209768
-0.45806885 -0.044485211 -0.11652088 0.82316273 0.11589888 0.55585116 0.00047975135
0.14914416 -0.046143547 -0.11529402 -0.79517561 0.24335496 -0.55540442 0.002118116
0.1514148 -0.048629649 -0.11959521 -0.78616428 0.25522622 -0.56285465 0.0019642671
0.45880121 -0.044103101 -0.11556698 -0.8255955 0.1106072 0.55331552 0.00050395681
0.46142599 -0.046674918 -0.11142269 -0.84121078 0.11348502 0.52866393 0.00091471919
-0.46342069 -0.035320681 -0.11072358 0.84301585 0.11338656 0.52580214 0.0012820696
-0.15062867 -0.032006051 -0.11256899 0.81964266 0.18170905 -0.54329342 0.0030658604
-0.14942439 -0.036649883 -0.11173978 0.82282013 0.21446021 -0.52628314 0.0030356394
0.14790286 -0.038927067 -0.11003093 -0.80816078 0.22273263 -0.54522127 0.0037003837
0.15219519 -0.03645201 -0.11557819 -0.80403525 0.20351128 -0.55866843 0.0023223686
0.45818031 -0.031761516 -0.11870773 -0.81632459 0.10680357 0.56763291 0.00028291513
0.46098149 -0.030569561 -0.11500967 -0.82459861 0.1103192 0.55485737 0.00070879853
-0.46305773 -0.021530198 -0.11377027 0.82901549 0.094982497 0.55110037 0.00082048727
-0.45917439 -0.026787728 -0.11823319 0.81616902 0.10698539 0.56782246 0.00028325751
-0.15350924 -0.027775243 -0.1158186 0.82767642 0.10321411 -0.5516327 0.0007723879
0.15472119 -0.022813221 -0.11659973 -0.82250649 0.12047921 -0.55584866 0.0012604005
0.4589923 -0.027569238 -0.11834401 -0.8176055 0.10511962 0.56610161 0.00027229305
0.46071944 -0.024888383 -0.11642216 -0.82258093 0.10450014 0.5589636 0.00054537028
-0.46167845 -0.018345436 -0.11628562 0.82545131 0.087032951 0.5577234 0.0007974265
-0.15213585 -0.015304788 -0.1116018 0.84950024 0.079441696 -0.52157283 0.0015819748
0.15550753 -0.018809777 -0.11696234 -0.82003003 0.10787768 -0.56206149 0.001217038
0.46328348 -0.015351531 -0.11459221 -0.82030439 0.091084696 0.56462759 0.00051487953
-0.15698037 -0.005116804 -0.1165012 0.83795613 0.042945415 -0.54404521 0.0023698413
0.15362704 -0.005780552 -0.11193345 -0.84436113 0.033632334 -0.53471786 0.0031998372
0.4628267 -0.0078353668 -0.11661493 -0.81983793 0.040381476 0.57116991 0.001388118
-0.4628168 0.0064805453 -0.11687819 0.82712913 -0.038248979 0.56070888 0.0011991847
-0.15594359 0.0066396296 -0.11533163 0.8248105 -0.04840672 -0.56333327 0.0029270006
0.15617678 0.0068210354 -0.11569096 -0.81798357 -0.036088314 -0.57410842 0.0023887008
0.4630698 0.0045100381 -0.11688719 -0.82408851 -0.020913258 0.56607485 0.0014129676
-0.4611927 0.013412058 -0.11787326 0.82305574 -0.078220114 0.56254852 0.00041817158
-0.1550805 0.013038036 -0.11530265 0.82931983 -0.074603513 -0.5537715 0.0022845888
0.15424189 0.017252788 -0.11490563 -0.82344204 -0.099058002 -0.55868661 0.0014216375
0.46344447 0.01560498 -0.11432036 -0.82469058 -0.081933223 0.55961806 0.00058388134
-0.46369094 0.023306288 -0.11255772 0.8235271 -0.10041165 0.55831945 0.00042858213
-0.45943776 0.026334951 -0.11794823 0.81876123 -0.10665229 0.56414127 0.00029559509
-0.15273072 0.025970383 -0.1143975 0.82977271 -0.13406448 -0.54176015 0.0014976787
-0.14983311 0.024900902 -0.11014819 0.84167522 -0.13780557 -0.52210385 0.001691162
0.1554548 0.023878047 -0.11782177 -0.80996263 -0.12680297 -0.57260942 0.00089004432
0.45981467 0.020549372 -0.11848642 -0.81621182 -0.096322916 0.56966674 0.00028461838
-0.46207204 0.031968337 -0.11322686 0.82413048 -0.11489964 0.55462343 0.00061851484
-0.45965147 0.031738084 -0.11665449 0.81950802 -0.10922559 0.56256229 0.00035343494
-0.15323626 0.03341892 -0.11647591 0.81213146 -0.15117513 -0.56355006 0.0016255056
-0.14902861 0.036009863 -0.11106844 0.82317591 -0.17652272 -0.53964919 0.0027612189
0.15126041 0.034952104 -0.11399472 -0.80062437 -0.18926993 -0.56848693 0.0022844246
0.46270147 0.031143365 -0.11249858 -0.83063358 -0.11353304 0.54512215 0.00093075499
-0.46110988 0.040103856 -0.11307456 0.82804841 -0.11293233 0.54916495 0.00075645134
-0.4597075 0.045116879 -0.11411284 0.82601535 -0.11335191 0.55213219 0.00073848834
-0.15261254 0.042974286 -0.11810344 0.79923958 -0.2072095 -0.56416333 0.002905936
-0.14885719 0.045443803 -0.11454248 0.79020685 -0.23675238 -0.56526238 0.0027105187
0.14904436 0.04587502 -0.11501899 -0.79062539 -0.23893015 -0.56375867 0.0022846845
0.45835841 0.046084926 -0.11582142 -0.82386392 -0.11994637 0.55395043 0.00060010736
-0.45553255 0.055396721 -0.11805894 0.81757861 -0.10829802 0.56554103 0.00027312327
-0.14548275 0.050089765 -0.11265276 0.7781198 -0.27303475 -0.56566918 0.0023587325
0.14499061 0.055329502 -0.11483968 -0.76999193 -0.30006847 -0.56309092 0.00063932827
0.45658413 0.055318758 -0.11660267 -0.82551783 -0.10614909 0.55430377 0.00079174858
-0.454382 0.064725317 -0.11795041 0.82127345 -0.10553315 0.56068945 0.0003184478
-0.14213513 0.06506519 -0.11637401 0.74826491 -0.34965569 -0.56377345 0.0011884138
-0.13970158 0.066156462 -0.11379164 0.74976462 -0.3498821 -0.56163639 0.0012703704
0.13953304 0.064684257 -0.11277708 -0.75150388 -0.34613222 -0.56163555 0.0011715279
0.14127219 0.062047623 -0.11362028 -0.76004267 -0.32404947 -0.56331789 0.0014325645
0.45584163 0.066124 -0.1156516 -0.82142627 -0.10336816 0.56086892 0.0004968936
-0.45482624 0.07382369 -0.11565395 0.82608587 -0.10755065 0.5531863 0.00076631253
-0.13594608 0.076666832 -0.1147323 0.70494926 -0.41256404 -0.57692069 0.0022146441
0.13677114 0.077787146 -0.11640977 -0.71055448 -0.41237643 -0.57013857 0.0023463303
0.45652205 0.072625823 -0.11350289 -0.83268803 -0.10215002 0.54423898 0.00083638687
-0.13062452 0.089188121 -0.11878693 0.67453986 -0.46708429 -0.57168889 0.0012451287
-0.1274336 0.085163005 -0.11175953 0.68330967 -0.46455824 -0.56327039 0.0015738611
0.13067129 0.087826066 -0.11766957 -0.68222827 -0.45575914 -0.57170635 0.0014252849
0.45434013 0.08856792 -0.11361909 -0.81339192 -0.10736185 0.57172275 0
-0.45326471 0.094318114 -0.11406438 0.82740945 -0.10890685 0.55093819 0.00082289951
-0.12505794 0.094396867 -0.1170302 0.65799242 -0.50094116 -0.56223124 0.00077393424
0.11878517 0.098692209 -0.11369877 -0.65189642 -0.52457649 -0.54758602 0.0017007015
0.12629138 0.095485553 -0.1193454 -0.64810401 -0.49377725 -0.57978034 0.00046440674
0.4494682 0.094620824 -0.11931818 -0.81131053 -0.11282396 0.57362533 0.00016242877
0.45240352 0.097383521 -0.11470437 -0.81533176 -0.11834042 0.56677121 0.00030792013
-0.44868487 0.10870217 -0.11782098 0.81250119 -0.1455816 0.56448889 0.0011658564
-0.12135036 0.10018043 -0.11784749 0.63750464 -0.51615101 -0.57199293 0.0011141732
-0.11727092 0.10606989 -0.11833953 0.61367309 -0.53570807 -0.58001906 0.0015352886
0.11452872 0.10400803 -0.11350016 -0.61828667 -0.55056155 -0.56089532 0.0020268483
0.44831371 0.1046475 -0.11908665 -0.81056815 -0.12475891 0.57220137 0.00041880205
