# .PCD v0.7 - Point Cloud Data file format
VERSION 0.7
FIELDS x y z normal_x normal_y normal_z curvature
SIZE 4 4 4 4 4 4 4
TYPE F F F F F F F
COUNT 1 1 1 1 1 1 1
WIDTH 583
HEIGHT 1
VIEWPOINT 0 0 0 1 0 0 0
POINTS 583
DATA ascii
-0.16029632 0.066568658 0.1332738 0.64878303 -0.29499227 0.70146996 0.0025706019
-0.15816899 0.066242971 0.13055694 0.66064173 -0.30020708 0.68806118 0.0026150013
0.42918262 0.06544245 0.13949668 -0.66332775 -0.06142199 -0.74580395 0.0016818014
0.43620253 0.061370127 0.13409071 -0.69989276 -0.072841451 -0.71052396 0.0025976507
-0.43522835 0.076439299 0.13252424 0.71702719 -0.098350957 -0.69007176 0.0024161465
-0.42805198 0.078178808 0.13838656 0.66140622 -0.10739467 -0.74229932 0.0019667943
-0.15595777 0.072658718 0.13135804 0.66569036 -0.29608905 0.68497264 0.0026379509
0.16485976 0.071338065 0.13816798 -0.61549217 -0.27351019 0.73916274 0.0025343031
0.43728924 0.071514852 0.13195564 -0.71600312 -0.073604763 -0.69420594 0.0028338982
-0.43120623 0.082577512 0.13544326 0.67400199 -0.12508702 -0.72806209 0.0021300346
-0.42738834 0.084360607 0.13813056 0.66598338 -0.12040284 -0.73618561 0.0022926815
-0.15600692 0.085685417 0.13660125 0.58286721 -0.34429035 0.73602307 0.0041499543
-0.14764041 0.089094773 0.13024062 0.61783224 -0.36962181 0.6940195 0.0047203354
0.15527764 0.088086732 0.13663557 -0.5779857 -0.34159902 0.74110907 0.0035219374
0.16197675 0.081110865 0.13876772 -0.57915348 -0.28409928 0.76411313 0.0030493727
0.42977452 0.080025621 0.13790335 -0.67675036 -0.078380182 -0.73202837 0.0022302475
0.43479723 0.084870614 0.13343138 -0.71376735 -0.081812002 -0.69558829 0.0023483608
-0.43288764 0.092808552 0.13212751 0.68276274 -0.11579284 -0.7214064 0.0021609708
-0.42562947 0.091507383 0.13858972 0.66969526 -0.12389831 -0.7322278 0.0019144778
-0.1474022 0.092558458 0.13233107 0.61565655 -0.36306861 0.69939119 0.004595479
0.14984135 0.096249178 0.13691917 -0.57457882 -0.3604179 0.73481846 0.0032001007
0.15348698 0.096485935 0.13930625 -0.55633378 -0.3558448 0.75091094 0.00258644
0.432868 0.094462834 0.13440187 -0.68516213 -0.11008878 -0.72002321 0.0022869883
-0.42201895 0.10668837 0.13946928 0.65573919 -0.11871677 -0.74559534 0.0015050252
-0.14018801 0.10143016 0.13228917 0.56914645 -0.4296014 0.70108134 0.0031667713
-0.13576345 0.10427573 0.13015208 0.58470356 -0.45117307 0.67421401 0.0027148502
0.13627638 0.10674335 0.13239028 -0.56086361 -0.4399271 0.70135313 0.0032482927
0.14439219 0.1004433 0.13520041 -0.5592618 -0.41162425 0.71957743 0.0029326344
0.42563552 0.10671988 0.1378177 -0.65738547 -0.1904476 -0.72909129 0.0023171876
0.43188262 0.10994855 0.13132213 -0.69086522 -0.22017238 -0.68864316 0.0022748893
-0.42664072 0.11444832 0.13479345 0.68033171 -0.14205116 -0.71900648 0.0018659569
-0.14182337 0.11045724 0.13837525 0.52251834 -0.41028288 0.74742395 0.0021903559
-0.1348583 0.11402074 0.13594808 0.52927923 -0.43403155 0.72902679 0.0026591967
0.13825272 0.11516354 0.13820714 -0.51459897 -0.408207 0.75402582 0.0029349246
-0.42699295 0.12163483 0.13338032 0.6928069 -0.16712464 -0.70148975 0.0024378649
-0.12733978 0.12582016 0.13720378 0.4884592 -0.46680078 0.73722762 0.0038053493
-0.11981568 0.12584722 0.13181472 0.48831961 -0.51242691 0.7063728 0.0038178542
0.11718787 0.12794797 0.13272735 -0.48224896 -0.54519123 0.68571305 0.0039973375
0.12586796 0.12204189 0.13391972 -0.49466112 -0.47999218 0.72451222 0.0051538581
0.13295934 0.12550777 0.13963996 -0.4706594 -0.43880486 0.76546079 0.0020814161
0.41895825 0.12726629 0.13700095 -0.63748354 -0.23568979 -0.73352921 0.0020619077
0.42322394 0.12376684 0.1345991 -0.66501343 -0.24005821 -0.70719814 0.0019454999
-0.42435229 0.13263772 0.13305648 0.67198604 -0.22518815 -0.70549625 0.0023574443
-0.41731825 0.13303195 0.13827449 0.63476336 -0.21908385 -0.74099779 0.0020101392
-0.12392051 0.13472699 0.13995403 0.43986356 -0.49134529 0.75173122 0.0030366646
-0.11591183 0.13301125 0.13523857 0.44115999 -0.52926469 0.72474599 0.0040435665
-0.10440254 0.13826087 0.1328961 0.41905671 -0.57082987 0.70607692 0.0025657902
0.10597701 0.13733347 0.13304329 -0.43336171 -0.55780464 0.70784992 0.0037057891
0.11169164 0.13358709 0.13405305 -0.44320351 -0.547194 0.71003473 0.0031076192
0.12134952 0.13095436 0.1371859 -0.44834119 -0.50364053 0.73846883 0.0034270291
0.41321701 0.13720712 0.13841587 -0.62740016 -0.23276004 -0.74309611 0.0019343153
-0.4211188 0.14228487 0.1317426 0.67825532 -0.27715328 -0.68055546 0.0017448737
-0.41608116 0.14292307 0.13587604 0.64021277 -0.27480039 -0.71736485 0.0023822074
-0.10275964 0.14360067 0.13595404 0.4048537 -0.56471813 0.7191571 0.002476915
-0.096192449 0.14471507 0.13276395 0.41738877 -0.58922756 0.69180751 0.0030368476
0.096152902 0.14519858 0.13277563 -0.42147318 -0.57368428 0.70231521 0.004092006
0.10050598 0.14631809 0.13621257 -0.4047873 -0.54881954 0.73139882 0.0036762201
0.40916422 0.14880598 0.13815908 -0.63060462 -0.24352527 -0.73690784 0.0017442653
0.41726753 0.14274457 0.13322785 -0.66692626 -0.24899578 -0.70228934 0.0024498992
0.42027992 0.14000797 0.13153835 -0.6863448 -0.24087776 -0.68622786 0.0025630433
-0.41245046 0.15736923 0.13400485 0.63814384 -0.30012995 -0.70900941 0.0021259894
-0.40818334 0.15579499 0.13750823 0.61303437 -0.28585646 -0.73652899 0.0018915101
-0.094231367 0.15336818 0.13821441 0.33846685 -0.53671443 0.77290219 0.0017573277
-0.085313834 0.15563367 0.13551308 0.33661065 -0.59396982 0.73067987 0.0053319721
-0.075935818 0.15824924 0.13466203 0.27006891 -0.63658524 0.72237247 0.0045810095
-0.064811364 0.15832454 0.13002926 0.26213384 -0.68874234 0.6759584 0.0025006046
0.068697818 0.15739755 0.13095266 -0.30112091 -0.65042889 0.69732946 0.0024964579
0.075708829 0.15652721 0.13320684 -0.30991116 -0.64089727 0.70228606 0.0027450765
0.086374104 0.15157801 0.1334857 -0.3417348 -0.60193354 0.72172946 0.0041747489
0.093711548 0.15354453 0.13771315 -0.36135843 -0.57370025 0.73504299 0.0035324735
0.40652135 0.15841955 0.13742991 -0.64088935 -0.23860317 -0.72960901 0.0022690764
0.41348156 0.15405887 0.13330734 -0.66623521 -0.25400689 -0.70114988 0.0019708662
-0.41198203 0.16464412 0.13066006 0.66447151 -0.2955426 -0.68639064 0.0021869221
-0.4048453 0.16493849 0.13696735 0.61690235 -0.29084 -0.73133004 0.0018763086
-0.087358274 0.16012555 0.13933899 0.30845168 -0.52856958 0.79086781 0.0013811265
-0.07218606 0.16466233 0.13825801 0.24013793 -0.58192366 0.77698046 0.00090117654
-0.065447189 0.16335203 0.13532573 0.26410261 -0.64613116 0.71607566 0.0026934531
-0.055879578 0.16429742 0.13318567 0.23682363 -0.66988564 0.70368153 0.0035933121
0.057588935 0.16624959 0.1348016 -0.21770704 -0.66163075 0.71752942 0.0034108667
0.061511502 0.16703792 0.13672316 -0.2625376 -0.64219236 0.72018254 0.0032259473
0.40674731 0.16573553 0.13499115 -0.64967835 -0.25068015 -0.7176891 0.0019480491
0.41336492 0.16034746 0.13053863 -0.68034124 -0.25519443 -0.68703103 0.0024249901
-0.40625232 0.17343149 0.13274874 0.65489638 -0.28371987 -0.7004382 0.0022373218
-0.39743128 0.17740904 0.13824283 0.62079942 -0.28760681 -0.72930819 0.0023952557
-0.048683666 0.17227997 0.13730919 0.1972401 -0.64143378 0.74138993 0.0029845692
-0.035057705 0.17531255 0.13702038 0.10388883 -0.66985852 0.73518485 0.0034117994
-0.024977418 0.17747228 0.13789017 0.082163267 -0.66965538 0.73811305 0.0023114502
-0.015364916 0.17483933 0.1350055 0.057524789 -0.70488369 0.70698649 0.0035345564
-0.0052977637 0.17541201 0.13442177 0.062341418 -0.70264369 0.70880556 0.0035443276
0.0059919981 0.17785951 0.13591965 -0.027652601 -0.68833798 0.72486287 0.0038054208
0.014578526 0.17412587 0.13406509 -0.036217395 -0.69066614 0.72226626 0.0035030318
0.024816861 0.17445882 0.13555637 -0.10645992 -0.68804514 0.71781635 0.0024826105
0.032176897 0.17674297 0.13829406 -0.12468315 -0.66065198 0.74026555 0.0023700835
0.045330402 0.1748441 0.13846807 -0.15442836 -0.64554912 0.74794275 0.00278636
0.05347224 0.17160065 0.1375235 -0.18940172 -0.65138298 0.73472935 0.0038854228
0.39844057 0.17752483 0.13801998 -0.62744385 -0.23887955 -0.7411145 0.0015381885
0.40036267 0.17299341 0.13787609 -0.6297965 -0.2466663 -0.73655421 0.0017207942
-0.39235958 0.18539415 0.13928778 0.61176807 -0.26268658 -0.74614716 0.0017580233
-0.012190352 0.18094224 0.13955389 0.044858012 -0.66346925 0.74685764 0.0023076178
-0.0057200128 0.18037218 0.13861103 0.044774406 -0.66367728 0.74667782 0.0027751431
0.39630187 0.18560308 0.13734806 -0.62519759 -0.23690966 -0.7436409 0.0013510811
0.40158081 0.18384707 0.13387932 -0.64826602 -0.25182876 -0.7185635 0.001887218
-0.40005523 0.19199294 0.13023356 0.66784215 -0.29884645 -0.68167263 0.0015690451
-0.39488396 0.19780052 0.13288695 0.66576421 -0.2930207 -0.68621927 0.0016006994
-0.38847226 0.19346599 0.13947202 0.59451854 -0.26457891 -0.75930595 0.001200838
0.38987187 0.19422102 0.13962209 -0.61275697 -0.25973263 -0.74636972 0.001449043
-0.39140609 0.20664486 0.13270494 0.66473025 -0.2971684 -0.68543762 0.0019780325
-0.38731495 0.20567943 0.13642667 0.64103776 -0.29420948 -0.70888036 0.0021579396
0.38816434 0.20526189 0.13782738 -0.6011883 -0.28892982 -0.74504507 0.0017894758
0.395758 0.20238392 0.13253216 -0.65480524 -0.2895337 -0.69814062 0.0021973376
-0.38769698 0.21231121 0.13362299 0.64471585 -0.30168268 -0.70237386 0.0020847183
-0.37881753 0.21903573 0.13818447 0.60115117 -0.31870285 -0.7328341 0.0019453905
0.37670273 0.21935344 0.13931976 -0.54605639 -0.35554335 -0.75855863 0.0010117217
0.38439503 0.21665815 0.13572492 -0.59493095 -0.36505455 -0.71609533 0.0026233459
0.39183965 0.21525133 0.13009007 -0.63007081 -0.36480358 -0.68551379 0.0025813791
-0.38279411 0.22449929 0.13338375 0.63427603 -0.33360097 -0.69742697 0.002457808
-0.37704653 0.22623195 0.13715643 0.5993762 -0.33780694 -0.72569597 0.0019797771
0.37491715 0.22517659 0.13780856 -0.52400273 -0.37086892 -0.76673168 0.00060612475
0.38260064 0.2241253 0.13310261 -0.59546733 -0.40432104 -0.69422126 0.0021204036
-0.37800214 0.23825264 0.13032898 0.61443102 -0.40482259 -0.67719507 0.0021916344
0.36354461 0.23617591 0.13995756 -0.52186376 -0.3917397 -0.75775868 0.00078885199
0.37312678 0.23624325 0.13345279 -0.56635404 -0.42758757 -0.70456511 0.0021745821
-0.37282196 0.24387562 0.13093442 0.58591878 -0.41784972 -0.69433486 0.0020396835
-0.36317608 0.24507304 0.13738355 0.54131764 -0.41919068 -0.72887206 0.002005195
0.36453128 0.24635816 0.13465206 -0.55451852 -0.41596425 -0.7207517 0.0023077067
-0.36231378 0.25194719 0.13454896 0.55747479 -0.44940197 -0.69803995 0.0016389178
-0.35545665 0.25405848 0.13753408 0.54282647 -0.44195357 -0.71415442 0.0021805551
0.36111721 0.25763726 0.13023712 -0.57679147 -0.42931414 -0.69498271 0.0026036054
-0.35243389 0.26457468 0.13430135 0.54193032 -0.45229402 -0.70833731 0.0023416625
0.3443048 0.26372597 0.13955778 -0.53893161 -0.37885368 -0.75234479 0.0016615883
0.35303295 0.2633273 0.13427851 -0.57154274 -0.39660507 -0.7183615 0.0024115762
-0.34416169 0.27868438 0.13122258 0.55991113 -0.44853404 -0.69664675 0.0019478777
-0.33645767 0.27601796 0.13827538 0.52644795 -0.42734388 -0.73500323 0.0018540653
0.3398689 0.2797052 0.13512066 -0.56697774 -0.40887177 -0.71509451 0.0027364357
0.3458153 0.27026004 0.13566411 -0.57181096 -0.39442936 -0.71934527 0.0024532096
-0.33654198 0.2851032 0.13317868 0.54943383 -0.45500869 -0.70077771 0.002110373
-0.32623217 0.287294 0.13889302 0.53180254 -0.41791886 -0.73656631 0.0019304005
0.3351531 0.28505576 0.13565545 -0.56802404 -0.41230294 -0.71228856 0.0029296421
0.34148425 0.28239501 0.13211608 -0.59560645 -0.41875264 -0.68549198 0.0021660749
-0.32688305 0.29476103 0.13476074 0.54441869 -0.43915421 -0.71466905 0.0022686764
-0.31749615 0.2960946 0.1398266 0.51954728 -0.43045145 -0.73809361 0.0019931777
0.3251532 0.29726377 0.13640046 -0.53345752 -0.46340001 -0.70758992 0.0025319899
0.33194941 0.29453903 0.1328622 -0.56023133 -0.44747615 -0.69706953 0.002372996
-0.3262791 0.301925 0.1301429 0.55528748 -0.46923631 -0.68663901 0.0018818916
-0.31280246 0.30976683 0.13596947 0.52529413 -0.46031001 -0.71566802 0.0017792473
0.31876832 0.30040649 0.13897565 -0.48100415 -0.46325269 -0.74433315 0.0021192781
0.32302988 0.30584073 0.13289151 -0.51962012 -0.50058627 -0.69239312 0.0028464482
-0.31427306 0.3122035 0.13370477 0.53613067 -0.46244451 -0.70619339 0.0017450219
0.29923368 0.31556088 0.13945371 -0.42496541 -0.50781107 -0.74935466 0.0012169044
0.30573705 0.31737736 0.13491069 -0.45100006 -0.53478462 -0.71456593 0.0023031817
0.31687552 0.31151611 0.13275748 -0.48100722 -0.52749926 -0.70026886 0.0026680748
-0.30388081 0.32476753 0.13310322 0.48393568 -0.53221786 -0.69465858 0.002499524
-0.2959663 0.32789975 0.13526814 0.45371297 -0.53609747 -0.71185958 0.0024511381
-0.28679812 0.32771027 0.13952437 0.39601651 -0.50256062 -0.76850748 0.0011377351
0.29635829 0.32478291 0.13534191 -0.4602147 -0.5427376 -0.70259404 0.0023216864
-0.28627506 0.335069 0.13501492 0.41971859 -0.56907469 -0.70709997 0.0029099158
0.27413243 0.33711198 0.13880305 -0.42679903 -0.51722163 -0.74183857 0.00180553
0.28323814 0.33625484 0.13454275 -0.44668195 -0.54459459 -0.70985353 0.0023251902
0.29236394 0.33307958 0.13115188 -0.47420296 -0.55448359 -0.68387097 0.0016104012
-0.28159872 0.34018615 0.13406768 0.41478956 -0.57453191 -0.70559388 0.0024277668
-0.27274573 0.34875995 0.13178341 0.42602757 -0.58167613 -0.692931 0.0020962912
-0.2672818 0.34114566 0.13992892 0.38271171 -0.53489572 -0.75327164 0.0016916796
-0.25871557 0.34789985 0.13957044 0.38724172 -0.53806072 -0.74868852 0.0017507275
0.26756433 0.34239149 0.13884786 -0.42177975 -0.51520735 -0.7460987 0.0014976072
0.27455708 0.34230876 0.13539644 -0.42630038 -0.53203499 -0.73157823 0.0017777403
0.28403965 0.34027621 0.13073497 -0.46502918 -0.56575304 -0.68093413 0.0026743186
-0.27047792 0.35187906 0.13020828 0.42473137 -0.60009676 -0.67785472 0.0021844979
-0.26047683 0.35102424 0.13682137 0.40188393 -0.56168038 -0.72319049 0.0023419317
-0.2545422 0.35539222 0.1367677 0.39846367 -0.55466062 -0.7304644 0.0019123977
0.24771252 0.35971925 0.13816372 -0.42014626 -0.5225153 -0.74192655 0.0018053412
0.25722829 0.35582805 0.13585247 -0.44039693 -0.52684712 -0.72696805 0.0023887279
0.26130491 0.35557821 0.13353541 -0.44199458 -0.54492557 -0.71252853 0.0024637652
-0.24905688 0.36036554 0.13613266 0.39790624 -0.56867009 -0.71992016 0.0019194871
-0.23577935 0.3658236 0.13871115 0.39860955 -0.5468576 -0.73624533 0.0017740753
0.23766474 0.36926985 0.13735096 -0.38486803 -0.56268573 -0.7316156 0.0023124374
0.24566805 0.36827177 0.1340242 -0.43432155 -0.56268412 -0.70338565 0.0026674811
0.25234205 0.36517906 0.13168669 -0.45329487 -0.56018019 -0.69334102 0.0022730525
-0.23442386 0.37476543 0.13321243 0.42312783 -0.58309579 -0.69351441 0.0019350854
-0.22452383 0.37635568 0.13720341 0.40866208 -0.56172329 -0.71934855 0.0023262028
-0.21601236 0.37938467 0.13915023 0.36517966 -0.56109524 -0.74284315 0.0022697027
0.22459495 0.37577999 0.13856483 -0.31755391 -0.58240634 -0.74830627 0.0015807259
0.23588027 0.37402412 0.13498539 -0.37683022 -0.58372557 -0.71921033 0.0027833222
0.24583063 0.37186557 0.13028723 -0.43280572 -0.57871586 -0.69120699 0.0026356156
-0.22272618 0.38132489 0.13461773 0.41605282 -0.57633466 -0.70337641 0.002146011
-0.21559957 0.38622102 0.13506061 0.3638902 -0.61061347 -0.70337409 0.0030350762
0.20868823 0.3891333 0.13419645 -0.29945448 -0.64022017 -0.70742142 0.0024528191
0.21516031 0.38459525 0.1351689 -0.28932336 -0.63862866 -0.71305364 0.0024937773
0.22911373 0.38010237 0.13409568 -0.34770867 -0.61678857 -0.70616603 0.002323966
-0.20680487 0.39201096 0.13444749 0.30395308 -0.6246019 -0.71936423 0.0021203731
-0.19254662 0.39640477 0.13527048 0.26488975 -0.6431182 -0.71849316 0.0021207223
-0.18347187 0.3964878 0.1377981 0.23755904 -0.62330401 -0.74502206 0.0019725035
-0.1769985 0.39909178 0.13769475 0.25313359 -0.63090569 -0.73340386 0.002285877
-0.16880491 0.39943528 0.13969259 0.23237079 -0.63046366 -0.74062097 0.0018705241
0.16805941 0.39917517 0.13997048 -0.2716772 -0.59293187 -0.75803912 0.0010507308
0.17891258 0.39631957 0.13854983 -0.27699074 -0.60775501 -0.74425131 0.0014699757
0.18603989 0.39774829 0.13525699 -0.28864649 -0.63279468 -0.71850824 0.0025948472
0.19384968 0.3951149 0.1340037 -0.29825327 -0.63778424 -0.71012414 0.0025954864
0.20203501 0.39410609 0.13195269 -0.31285301 -0.64647162 -0.69584298 0.0023867255
-0.18927838 0.40214255 0.13081434 0.26627901 -0.66953385 -0.69341183 0.0021202017
-0.17652808 0.4064967 0.13141739 0.25849006 -0.68164021 -0.68450683 0.0019305955
-0.16479398 0.40565377 0.13626286 0.2375979 -0.64701194 -0.72451556 0.0019424018
-0.15389313 0.40598166 0.13905948 0.22600298 -0.63380015 -0.73974317 0.002033429
0.15394281 0.4074963 0.13857692 -0.27259105 -0.60521829 -0.74793369 0.0014703651
0.16645639 0.40500179 0.13637754 -0.27719167 -0.62349725 -0.73103762 0.0020703478
0.17498139 0.40719929 0.13082698 -0.29289663 -0.6563549 -0.6952768 0.0022185214
0.18609817 0.40254837 0.13041809 -0.29032135 -0.67307127 -0.6802122 0.0023320012
-0.16197036 0.4109616 0.13272607 0.24278362 -0.67561084 -0.69613659 0.0018965654
-0.15412869 0.41257897 0.13377635 0.24103455 -0.67370945 -0.69858289 0.00190411
-0.14202677 0.4117879 0.1381254 0.2367477 -0.63949883 -0.73143125 0.0019485226
-0.13653424 0.41276771 0.13892423 0.23803775 -0.62988627 -0.73931128 0.0016815821
-0.12541711 0.41575733 0.13981548 0.23469451 -0.62073386 -0.74806952 0.0015609708
0.13408065 0.41992798 0.13610691 -0.23661657 -0.65348506 -0.71900618 0.0023063982
0.14546858 0.41482657 0.13609745 -0.2813471 -0.62844253 -0.72519225 0.0023060488
0.15482458 0.41306609 0.13396022 -0.29318067 -0.64041024 -0.70987308 0.0023262845
0.16086942 0.41238531 0.13220407 -0.29749835 -0.65380985 -0.69572079 0.0020931119
-0.12074588 0.42760831 0.13153037 0.25380185 -0.67569375 -0.69211459 0.0017645917
-0.11482014 0.42486358 0.13575859 0.23244117 -0.65122867 -0.72240734 0.0021596749
-0.10944366 0.42435715 0.13799287 0.21208599 -0.64840412 -0.73115778 0.0020904231
-0.093426466 0.42944804 0.13710704 0.11617529 -0.67510003 -0.72852117 0.0024011137
-0.077886626 0.42838335 0.13913786 0.077642404 -0.671543 -0.73688644 0.0017649003
-0.063826017 0.42976737 0.13917424 0.068636172 -0.66276902 -0.74567169 0.0021131961
-0.056704529 0.42995459 0.13958685 0.070111111 -0.66984946 -0.73917937 0.0021296158
0.060900904 0.4291513 0.1396772 -0.10489134 -0.63876963 -0.76221472 0.00088736217
0.072598495 0.42936888 0.13807103 -0.10627595 -0.66574883 -0.73856878 0.0017118113
0.087438941 0.42620599 0.13865173 -0.10313377 -0.65568203 -0.74796021 0.0013998987
0.096574053 0.42790079 0.13623634 -0.096315891 -0.68796372 -0.71932548 0.0023312005
0.10863102 0.42461875 0.13725054 -0.12921131 -0.67561209 -0.72584629 0.0019344605
0.11611589 0.42736825 0.1340203 -0.15407629 -0.68288332 -0.71409446 0.0023095852
0.12629206 0.42467013 0.13503653 -0.18648675 -0.67337453 -0.71539462 0.0027404877
0.13695762 0.42300904 0.13234302 -0.24852026 -0.67201704 -0.69758928 0.0022861592
-0.10490202 0.43385258 0.13112505 0.1794381 -0.70616132 -0.68493652 0.0024898136
-0.096054308 0.43372795 0.1330242 0.13046961 -0.70741016 -0.69465721 0.0026063905
-0.085455261 0.43269733 0.13480641 0.077724084 -0.70167345 -0.70824671 0.0020618755
-0.077342421 0.43175447 0.13659365 0.07520587 -0.69036025 -0.71954632 0.0018341715
-0.054129675 0.43647414 0.13422149 0.071818598 -0.71249241 -0.69799471 0.0018085237
-0.044562582 0.43603182 0.1355436 0.076404348 -0.72249842 -0.68713778 0.0014069859
-0.014864951 0.43533009 0.13873038 0.068212733 -0.66052985 -0.74769461 0.0012477331
0.014494031 0.43893376 0.13783894 -0.01936757 -0.68014145 -0.73282516 0.0015282487
0.026048675 0.43761677 0.13752353 -0.070822783 -0.68189383 -0.72801441 0.0019876556
0.03500824 0.43521211 0.13825114 -0.096598648 -0.68116188 -0.72573221 0.0017649934
0.044356216 0.43494117 0.13718683 -0.10643678 -0.66696024 -0.73745179 0.0016882252
0.056677386 0.43421921 0.13633864 -0.1123528 -0.67899144 -0.72549814 0.001610421
0.06575346 0.43340021 0.13557631 -0.11224327 -0.67520094 -0.72904408 0.0021149782
0.077021956 0.43536133 0.13212007 -0.11808875 -0.69475192 -0.70948911 0.0023642038
0.084857635 0.43342736 0.13286585 -0.10221223 -0.70285618 -0.70395011 0.0020658397
0.093163341 0.43264112 0.13237208 -0.10368659 -0.71836036 -0.68790078 0.0023188551
0.10982327 0.43131167 0.13060682 -0.13438484 -0.72547263 -0.67500377 0.0018593832
0.11407846 0.43046886 0.13080671 -0.14857562 -0.70528239 -0.69318265 0.0022468441
-0.0023962869 0.44275385 0.13341454 0.055018593 -0.71796858 -0.69389778 0.0016500015
0.024112433 0.44384015 0.13233201 -0.080191143 -0.71565562 -0.69383448 0.0018207809
0.031322077 0.4428536 0.13209988 -0.096824832 -0.7060799 -0.7014814 0.0020275894
0.049425691 0.44002077 0.1319768 -0.11139914 -0.71238142 -0.69289464 0.0015749863
-0.042424958 -0.43099222 0.14055082 0.106773 0.64536542 -0.75637484 0.0012212165
-0.011389474 -0.43310684 0.14248724 0.023947753 0.63843232 -0.76930535 0.001389809
-0.0059177806 -0.43002942 0.14442118 -0.011932997 0.62215686 -0.78280163 0.00070215209
0.024911832 -0.4314056 0.14095697 -0.070617773 0.65439993 -0.75284386 0.0013452696
-0.092592537 -0.42322138 0.1402896 0.10743817 0.64806885 -0.75396532 0.0011834991
-0.08206296 -0.42105529 0.14323556 0.1058035 0.63500625 -0.76522726 0.00048700147
-0.075405069 -0.42263579 0.14285205 0.099759832 0.64381349 -0.75865155 0.00083282322
-0.064043723 -0.42161566 0.14502785 0.10509648 0.62653071 -0.77227843 0.00047254856
-0.054345746 -0.42389089 0.14448978 0.10318672 0.63403064 -0.76639265 0.00086860114
-0.043804113 -0.42718834 0.14327726 0.10500521 0.63408005 -0.76610464 0.00094849383
-0.038921099 -0.42647618 0.1444208 0.098009959 0.62682742 -0.77296925 0.00061117724
-0.024121605 -0.42459756 0.1476737 0.071964152 0.61436898 -0.78573018 0.00035983732
-0.0031929226 -0.42629069 0.14707714 -0.023968596 0.61437601 -0.78864932 0.00055947778
0.01327768 -0.42554531 0.14636253 -0.065702461 0.61397642 -0.78658521 0.00012343249
0.024051614 -0.42580247 0.14532357 -0.067391649 0.62386686 -0.77861965 0.00040152163
0.038246684 -0.42624849 0.14387248 -0.065315589 0.63181853 -0.77235949 0.0005285315
0.046756897 -0.42053336 0.14759311 -0.061769851 0.60784739 -0.79164761 5.346915e-05
0.055832114 -0.42459032 0.14377122 -0.05410495 0.63723725 -0.76876605 0.00088819506
0.063592955 -0.42540383 0.14254072 -0.062306441 0.64087301 -0.76511419 0.0010366834
0.076169088 -0.42332488 0.14315358 -0.058657661 0.63003516 -0.77434808 0.00073868962
0.082121417 -0.42324167 0.14275247 -0.070443258 0.62735075 -0.77554429 0.0009451076
0.090823181 -0.42177391 0.14319897 -0.11033902 0.62063658 -0.77629602 0.0011271816
0.10675664 -0.42240217 0.14013875 -0.1821752 0.6276266 -0.75689954 0.0018214919
-0.12385478 -0.41597605 0.14162886 0.17737155 0.61875015 -0.76530236 0.001360123
-0.10190004 -0.41447565 0.14580239 0.10494689 0.61291009 -0.7831521 0.00017289317
-0.09984038 -0.41652536 0.14449541 0.10497473 0.61305588 -0.78303427 7.777298e-05
-0.086431772 -0.4156298 0.14682847 0.10147204 0.61606818 -0.78112954 0.00029390477
-0.079157479 -0.41590899 0.14751169 0.099402145 0.61236024 -0.78430486 0.00030006329
-0.058772393 -0.41831225 0.14819223 0.096693389 0.5987699 -0.7950629 9.023981e-05
0.036221117 -0.41986579 0.14892837 -0.060418431 0.60309649 -0.79537678 0.00013046623
0.045624934 -0.41833737 0.14936656 -0.059393849 0.60323626 -0.79534799 0.00013880004
0.054495763 -0.41813245 0.14883085 -0.061659187 0.60798597 -0.79154992 2.7306543e-05
0.064597227 -0.41973698 0.14681062 -0.063508049 0.61550575 -0.78556943 0.00024401446
0.076177776 -0.4180671 0.14718735 -0.063031286 0.61512375 -0.78590709 0.00027311585
0.094392203 -0.41884685 0.1451662 -0.11756731 0.5977807 -0.79299194 0.00074695417
0.10916024 -0.41671866 0.14357764 -0.18537191 0.60352802 -0.77549416 0.0010438972
0.11437103 -0.41630387 0.14244865 -0.20594262 0.60401136 -0.76990771 0.0013578547
0.13173588 -0.41176814 0.14095987 -0.23144872 0.60774177 -0.75965869 0.0016547926
-0.15241352 -0.40217626 0.14280331 0.25801328 0.58536327 -0.76862144 0.00071864045
-0.14518286 -0.40533832 0.14286353 0.26226094 0.58205509 -0.7696954 0.00077954086
-0.13193557 -0.40483758 0.14740217 0.21791971 0.57927078 -0.78546572 0.00078471069
-0.12716757 -0.40633082 0.14785831 0.19506645 0.58351159 -0.78832942 0.00084784115
-0.10808764 -0.40853384 0.14956453 0.11298108 0.60030997 -0.79174685 0.00032587972
0.11196082 -0.40708563 0.14975521 -0.19443005 0.57646048 -0.79365629 0.00026116447
0.12369075 -0.40690401 0.14667152 -0.2161126 0.57039499 -0.79242975 0
0.13474651 -0.40400553 0.14573136 -0.22138843 0.57984048 -0.78407419 0.00040541223
0.14522153 -0.40682831 0.14082555 -0.2297141 0.60331661 -0.76370186 0.0017595012
0.15553673 -0.40268993 0.14098229 -0.22841184 0.59854609 -0.76783496 0.0011255904
-0.18209189 -0.39233154 0.14035107 0.25596282 0.59121859 -0.76481605 0.0011414236
-0.17596023 -0.39159015 0.14281039 0.25190106 0.58708477 -0.76933563 0.0009299693
-0.16522793 -0.39079985 0.14675799 0.25469422 0.56531376 -0.78457063 0.00028209062
-0.15446332 -0.39927876 0.14419417 0.25047791 0.57486689 -0.77896655 0.00043683438
0.13360515 -0.39944121 0.14933485 -0.21536797 0.56812674 -0.79425979 0
0.14534597 -0.39737576 0.1476064 -0.2171966 0.56961572 -0.79269379 5.5229772e-05
0.15447439 -0.39507964 0.14676018 -0.21746798 0.57170755 -0.79111207 0
0.16129492 -0.39295191 0.14642502 -0.22188972 0.57985938 -0.78391832 0.00027012674
0.17727219 -0.39281619 0.14214425 -0.23147714 0.60525042 -0.76163656 0.0011064078
0.18692824 -0.39065629 0.1410552 -0.23903979 0.60777527 -0.75727749 0.001111482
-0.19613303 -0.38274011 0.14266224 0.26726779 0.57708263 -0.77171475 0.00083258096
-0.18569648 -0.3881692 0.14214054 0.26151571 0.57694972 -0.77378207 0.00076860038
-0.17296158 -0.3866775 0.14721444 0.25088927 0.56437224 -0.7864722 0.00029193109
-0.16488737 -0.38763294 0.14909381 0.25071833 0.55388743 -0.79394519 9.5646159e-05
0.17828645 -0.38387799 0.14831039 -0.22117022 0.57603002 -0.78693914 9.2195158e-05
0.18339047 -0.38588792 0.14546253 -0.22946832 0.58210665 -0.7800616 0.00048043003
0.1929246 -0.38090026 0.14644562 -0.25541392 0.57045972 -0.78060192 0.00088992692
0.20133254 -0.38418996 0.14176965 -0.28569788 0.57659513 -0.76545066 0.0011702804
-0.22145522 -0.37263584 0.14176928 0.30863485 0.57387716 -0.7585575 0.0015910555
-0.21447229 -0.37571067 0.14181255 0.28197196 0.58926708 -0.75713676 0.0011592732
-0.19548792 -0.37557757 0.14790554 0.25319347 0.55905885 -0.78952283 1.7137076e-05
-0.18523918 -0.37823403 0.14927523 0.2494819 0.55755424 -0.79176503 7.0672453e-05
0.19488782 -0.379489 0.14692508 -0.25910595 0.56453699 -0.78368491 0.00069548044
0.20735346 -0.37399444 0.14642952 -0.31071195 0.53535199 -0.785402 0.0009421336
0.21771598 -0.37115902 0.14352626 -0.34994608 0.52959198 -0.77270299 0.00068022707
-0.23166856 -0.36641341 0.14198083 0.3654418 0.5414899 -0.75712681 0.0013320807
-0.22664186 -0.36430371 0.14552106 0.3509261 0.53334117 -0.76967394 0.0011122185
-0.20914078 -0.3685199 0.14855666 0.25771233 0.55829298 -0.78860205 7.8400531e-05
0.21784501 -0.366961 0.14609374 -0.35161513 0.5166471 -0.78066802 0.0005751311
0.22193332 -0.3658281 0.14495721 -0.36011708 0.51366025 -0.77876115 0.00048449161
-0.25400296 -0.35099214 0.14031535 0.4142426 0.51279014 -0.75196362 0.0014491708
-0.24635331 -0.35379916 0.14236529 0.4029707 0.50207329 -0.76520389 0.00096610928
-0.23819807 -0.35586557 0.14510438 0.38235971 0.4969148 -0.77902287 0.00050516688
-0.22429705 -0.35955641 0.14967255 0.34279019 0.49994615 -0.79532939 0.00053012901
0.22761044 -0.3558597 0.14862996 -0.35427931 0.49305582 -0.79459554 1.6052161e-05
0.23614717 -0.35557666 0.14495425 -0.36586788 0.50310415 -0.78296036 0.00048479167
0.24818267 -0.35090411 0.14244503 -0.37213123 0.52169025 -0.76769632 0.0010425565
-0.26401049 -0.3426609 0.1404188 0.42230603 0.51229781 -0.74780256 0.0013519407
-0.25436485 -0.34400523 0.14431585 0.39462519 0.49211693 -0.77594578 0.00057189655
-0.24558546 -0.34551954 0.14768925 0.38806316 0.48432076 -0.78411758 0.0002985395
-0.23756135 -0.3497414 0.14907584 0.37400407 0.48453268 -0.79079014 0.00025569025
0.24261095 -0.34703192 0.14738154 -0.35616919 0.49529272 -0.79235631 0
0.25568873 -0.34430459 0.14318524 -0.38880542 0.51722634 -0.76243502 0.00098680833
-0.27038735 -0.33117479 0.14417763 0.40100518 0.49062559 -0.77361578 0.00047611017
-0.262173 -0.33968267 0.14309472 0.40902483 0.49695867 -0.76533049 0.0010145878
-0.25614366 -0.3347767 0.14896595 0.38566253 0.4733631 -0.7919544 6.0936156e-05
0.25907403 -0.33456662 0.14774814 -0.36678264 0.50504643 -0.7812801 0.00025570317
0.26456168 -0.33710462 0.1436841 -0.37824887 0.51761383 -0.76746583 0.00086690957
-0.28391773 -0.32409191 0.14181791 0.42036879 0.50832838 -0.75159323 0.0013960141
-0.2748042 -0.32677886 0.14465304 0.39914659 0.48481852 -0.77822435 0.00026689749
0.26630574 -0.32866573 0.14817524 -0.36310202 0.50265479 -0.78453493 0.00014772602
0.28434479 -0.3238728 0.14303181 -0.38649309 0.51418972 -0.76565784 0.00078960898
0.29089749 -0.32344359 0.14034297 -0.41479373 0.51311141 -0.75144058 0.0013073318
-0.29588509 -0.31485534 0.14150748 0.4155387 0.50286901 -0.75792491 0.0010294663
-0.28540581 -0.31600338 0.14592816 0.39470047 0.48676163 -0.77927828 0.00028500136
0.28614569 -0.31752545 0.14618909 -0.39248055 0.47291616 -0.78886592 0.00074474578
0.29439655 -0.31537375 0.1438112 -0.42330471 0.46074492 -0.78008151 0.0012520526
0.3026492 -0.31260556 0.14065582 -0.47195864 0.46282044 -0.75036818 0.001765789
-0.30391845 -0.30762038 0.14191762 0.42426071 0.48575673 -0.76422727 0.00079034391
-0.29435453 -0.30816862 0.1462508 0.39985108 0.48061571 -0.78046626 0.00025355289
-0.28717136 -0.30790684 0.14990798 0.37969485 0.46779045 -0.79812527 0.00037363326
0.30610934 -0.30516973 0.14221109 -0.47422165 0.42955503 -0.76850265 0.0014773862
-0.31553361 -0.29443815 0.14358996 0.46921951 0.43447086 -0.76880962 0.0011886139
-0.30487594 -0.29764068 0.14741699 0.42457855 0.45244408 -0.78423685 0.00050575816
-0.29895324 -0.29909134 0.14943616 0.4084816 0.45595956 -0.7907235 0.00037216235
0.30238751 -0.29573056 0.14903623 -0.46160477 0.401425 -0.79106194 0.00028624909
-0.32304856 -0.28803527 0.14188181 0.50175977 0.40056634 -0.76667053 0.0012472473
-0.31394815 -0.28751898 0.14780682 0.46174458 0.39829841 -0.79255933 0.00068538456
0.31804904 -0.28491342 0.14494519 -0.49159014 0.39999869 -0.77352452 0.00053336483
0.3242076 -0.2854903 0.14098234 -0.5117783 0.40922597 -0.75539196 0.0013363161
-0.3243767 -0.27438924 0.14720973 0.50258774 0.37073439 -0.78100044 0.00046214557
0.32664609 -0.27428919 0.14498343 -0.48790574 0.39772293 -0.77702284 0.00060335716
-0.34121102 -0.26423961 0.14126107 0.53105819 0.37727314 -0.75871086 0.0013391853
-0.33035675 -0.26888272 0.14595455 0.50368738 0.36238319 -0.78420496 0.00026802623
0.32527274 -0.26831567 0.14871559 -0.47388244 0.39134225 -0.7888515 0.00022462217
0.33397588 -0.26091439 0.14711967 -0.48082533 0.39265087 -0.78398484 0.00014430574
0.34323767 -0.26101151 0.14153552 -0.5021587 0.41583788 -0.75823188 0.0013628841
-0.34600914 -0.25375861 0.14299019 0.5178706 0.37209687 -0.77029467 0.0011154577
-0.33617401 -0.25577408 0.14823213 0.49742657 0.35634184 -0.79094082 0.00011429498
0.34456417 -0.25583231 0.14326657 -0.49931785 0.41040257 -0.76305401 0.0012878482
0.35176218 -0.25052169 0.14155158 -0.49842116 0.41370159 -0.76185781 0.0013761265
-0.3523306 -0.24408393 0.14340265 0.5150786 0.38066882 -0.76797479 0.0010053657
-0.34737688 -0.24626268 0.14551774 0.50337523 0.36679524 -0.78235191 0.00027193243
0.34296697 -0.24554829 0.14923328 -0.47338539 0.38554347 -0.79199904 0
0.35454583 -0.24296615 0.14356963 -0.49357322 0.39226776 -0.77621609 0.00084374205
0.3477757 -0.23885801 0.14961901 -0.47557095 0.38134748 -0.79272091 7.0978429e-05
0.35602248 -0.23138049 0.14833307 -0.49798667 0.34798956 -0.79430002 0.00074733212
0.36503732 -0.23082891 0.14321269 -0.52184844 0.35224447 -0.77691573 0.0012092307
-0.37015021 -0.22569521 0.14055613 0.52469981 0.3810069 -0.76126462 0.001196655
-0.36634335 -0.22336245 0.14398995 0.51731926 0.37461922 -0.7694422 0.00082915893
0.35797733 -0.22990599 0.14788306 -0.50147676 0.34711698 -0.79248399 0.0006457587
0.36448812 -0.22446696 0.14635462 -0.51564705 0.32827607 -0.79141831 0.00082813931
0.37184331 -0.22360054 0.14164887 -0.56800485 0.31954324 -0.7584607 0.0017253386
-0.37531689 -0.21325317 0.14293981 0.54332554 0.34936091 -0.76337689 0.00144195
-0.363024 -0.21574493 0.14950401 0.50036043 0.34741938 -0.79305691 0.00022376247
0.37211454 -0.21251705 0.14496057 -0.56891394 0.27572224 -0.77479941 0.00085312378
-0.38476741 -0.20411883 0.14058977 0.58698654 0.29663751 -0.75329477 0.0017997565
-0.37318358 -0.20464146 0.1481377 0.52984625 0.30162024 -0.79264629 0.00064618763
0.37013519 -0.2060101 0.14840952 -0.54779541 0.2646476 -0.79365093 0.00025387932
-0.38424778 -0.19408548 0.14371409 0.57801741 0.25565585 -0.77494246 0.00083267252
-0.37917972 -0.19599921 0.14684346 0.5536834 0.26299819 -0.79010546 0.00053561991
-0.027382698 -0.19089359 0.14847794 0.09609139 0.60631937 0.7893942 0.00016302142
-0.013967142 -0.19027859 0.14635761 0.05334276 0.6300016 0.77475965 0.0010224513
0.0027484368 -0.1953582 0.14987808 -0.012662536 0.61390156 0.78928095 0.00078359467
0.013452092 -0.19204994 0.14817569 -0.052269362 0.61582744 0.78614533 0.00032996602
0.033726543 -0.1919767 0.14970322 0.087265573 -0.5995301 -0.79558057 0.0006161831
0.3757973 -0.19632688 0.14748578 -0.56713468 0.25391397 -0.78350866 0.00029082238
0.38332728 -0.19277172 0.14331132 -0.5763582 0.26556662 -0.77284253 0.00042600874
-0.39118806 -0.18076617 0.14236052 0.60107046 0.22630961 -0.76648432 0.0013546912
-0.38755274 -0.18451358 0.1439545 0.58191383 0.23007339 -0.78002727 0.00060524186
-0.06486468 -0.18393914 0.14967419 -0.20853004 -0.56876355 -0.79562765 0.00082954258
-0.043384466 -0.18475366 0.14577356 0.12222935 0.60207272 0.78903008 0.00038370924
-0.027174694 -0.18633802 0.14498374 0.10178033 0.61514848 0.78181398 0.000362413
-0.017355075 -0.18221237 0.14063321 0.083052136 0.65485978 0.75117308 0.0024088402
-0.0034600024 -0.18684977 0.14289992 0.015866041 0.64936787 0.76030886 0.0019305083
0.0047613494 -0.1881423 0.14449835 -0.032371547 0.63464648 0.77212423 0.0015041111
0.016329737 -0.18783821 0.14516869 -0.059842914 0.6291638 0.7749657 0.00076526002
0.022319693 -0.18530393 0.14369199 -0.070372194 0.62740743 0.77550471 0.00069347135
0.046053376 -0.18607916 0.14657906 -0.13479163 0.5936293 0.79336971 0.0011937881
0.055165589 -0.18378708 0.14738177 -0.18281068 0.58693027 0.78872877 0.0008593864
0.067308798 -0.18134561 0.14894943 -0.21611139 0.57375467 0.79000086 0.00011219512
0.38528928 -0.18320394 0.14495443 -0.57146978 0.26275545 -0.77741998 0.00027510116
0.39027765 -0.18414845 0.14114624 -0.59347665 0.27439418 -0.75663292 0.0013932437
-0.3908675 -0.17564073 0.14399628 0.58494836 0.2237097 -0.77960849 0.00050247082
-0.086334489 -0.17264633 0.14851354 0.26810113 0.54829985 0.79214209 0.00027551231
-0.077767335 -0.17348936 0.14639933 0.26374963 0.56267399 0.78347564 0.00044620078
-0.063564122 -0.17534232 0.14321464 0.2240666 0.59484029 0.77198398 0.0017721057
-0.042513847 -0.17771859 0.14030986 0.13795607 0.64225262 0.75397593 0.0026452946
0.028168108 -0.17998695 0.14006896 -0.10607867 0.65141803 0.75126684 0.0026073821
0.05588682 -0.1771235 0.14277524 -0.19204393 0.60432458 0.773247 0.0016999975
0.066113651 -0.17891598 0.14687021 -0.22315481 0.58000642 0.78345037 0.00023717139
0.077590927 -0.17467268 0.14695634 -0.23825277 0.56938255 0.78679037 0.00072242803
0.080985203 -0.17400064 0.14740202 -0.24005286 0.56801063 0.78723478 0.00082628173
0.093141839 -0.17229533 0.149561 -0.29045609 0.53419518 0.79389596 0.0013186898
0.39293671 -0.17316693 0.14274567 -0.5805319 0.26230681 -0.77082938 0.00059503032
-0.39599997 -0.16416128 0.14344196 0.5926528 0.21870233 -0.7751981 0.00066576013
-0.10598014 -0.16377738 0.14941201 -0.32113329 -0.50913686 -0.79853189 0.0011152099
-0.093221284 -0.16902877 0.1481446 -0.29001367 -0.53479958 -0.79365075 0.00057422055
-0.072984755 -0.16691852 0.14026484 0.26291367 0.59517866 0.75936741 0.0018102357
0.076314405 -0.16697194 0.14105454 -0.25882253 0.5896765 0.76504409 0.0018332136
0.092630155 -0.16556662 0.14516042 -0.31370091 0.54497898 0.77755368 0.0019898391
0.10202788 -0.16561899 0.14939556 0.32649457 -0.51021808 -0.79566246 0.00081371842
0.38792241 -0.16467844 0.14895615 -0.56324697 0.25411928 -0.78624189 0.00025585067
0.39042443 -0.16701549 0.14645721 -0.56905657 0.25460798 -0.78188837 0.00022093272
-0.39466116 -0.15230057 0.1476576 0.57464844 0.21813217 -0.78879499 6.5068205e-05
-0.11568328 -0.15341628 0.14785255 0.37433964 0.48537534 0.79011434 0.00039762407
-0.1060799 -0.15352769 0.14323898 0.37122864 0.52289391 0.76731431 0.0020720086
-0.099553362 -0.15382123 0.14023378 0.33450267 0.55115217 0.76442087 0.0025581149
0.095395505 -0.1567995 0.14088596 -0.34879977 0.5367378 0.76827812 0.0018466467
0.10389914 -0.15481259 0.14348102 -0.36466876 0.52378875 0.76984543 0.0011257222
0.11289558 -0.15866852 0.14995298 0.3557815 -0.49388281 -0.79340994 2.8179786e-05
0.12204294 -0.15123022 0.14942887 0.36872372 -0.48174909 -0.79495955 0.00032319475
0.39475423 -0.15665147 0.14668603 -0.56834638 0.25746116 -0.78147054 0.00026817844
0.40064514 -0.15919681 0.14173694 -0.58177257 0.2572324 -0.77160358 0.00068788388
-0.40287033 -0.14484948 0.1437811 0.59581226 0.22438145 -0.77114254 0.00065962726
-0.39647245 -0.14311226 0.14886981 0.57184839 0.21739988 -0.79102892 0
-0.12616828 -0.14417215 0.1474361 0.40409234 0.47392991 0.78236818 0.00043491836
-0.11277378 -0.14507799 0.14144984 0.41283479 0.50577974 0.75746572 0.0010961922
0.1069996 -0.14961073 0.1416267 -0.36948252 0.51625651 0.77263302 0.00096667436
0.11835921 -0.14869052 0.14617787 -0.36364126 0.49805212 0.78721613 0.00038018389
0.12263739 -0.14304833 0.14457966 -0.40380156 0.47643292 0.78099674 0.0018484311
0.40188271 -0.14804737 0.14438958 -0.56651872 0.25599635 -0.78327662 0.00027877613
-0.40757799 -0.13324143 0.14356825 0.59859329 0.23393594 -0.76613325 0.00079305295
-0.39935789 -0.1370355 0.14845489 0.57539475 0.21681397 -0.78861439 0.0001762546
-0.14476642 -0.13051842 0.14921108 -0.46529898 -0.39114076 -0.79404402 0.00068141276
-0.13313133 -0.13383287 0.14464851 0.4316085 0.44980592 0.78191358 0.00119403
-0.12765971 -0.13722487 0.14400971 0.43231076 0.48291755 0.76151031 0.001473587
0.12211 -0.13716307 0.1406606 -0.41995573 0.49018565 0.76377702 0.0029064571
0.13305061 -0.13137995 0.14332736 -0.45842454 0.44055495 0.77185386 0.0022304307
0.40679231 -0.13557963 0.14487524 -0.57571095 0.2311949 -0.7842868 0.000497495
0.41038823 -0.13658105 0.14202879 -0.59995574 0.25040805 -0.75983483 0.00107169
-0.41225585 -0.12667739 0.14199457 0.60126573 0.23056291 -0.76506227 0.00080082228
-0.40626526 -0.12443533 0.14692803 0.57835555 0.22116394 -0.78523332 0.00028628606
-0.1511815 -0.12270849 0.14969878 -0.48204741 -0.37308216 -0.79274207 0.00035945908
-0.14303075 -0.12373775 0.14506525 0.47813341 0.39421159 0.7848475 0.0010201106
-0.13614613 -0.12473696 0.14133926 0.50420099 0.4196834 0.75474972 0.0023917465
0.13773735 -0.12313306 0.14211008 -0.49123159 0.41484398 0.76589555 0.0015537837
0.14413634 -0.12456911 0.14663538 -0.47653002 0.40308571 0.78130722 0.00067931594
0.15046807 -0.12312314 0.1497159 -0.47370148 0.38826939 0.79047692 6.1100378e-05
0.40772158 -0.12296133 0.14804196 -0.58689326 0.16680542 -0.79229552 0.00085023901
0.41552401 -0.12662365 0.14156203 -0.62611121 0.19390909 -0.7552377 0.0018389199
-0.41630301 -0.11166072 0.14319207 0.59875959 0.20296118 -0.77478623 0.00068615453
-0.40506279 -0.11836082 0.14945966 0.57314134 0.21147287 -0.79169959 9.517846e-05
-0.1544337 -0.1123349 0.14705119 0.49945506 0.35654444 0.78957003 0.00015547279
0.15446147 -0.11490619 0.14809874 -0.48685247 0.37258822 0.79003334 0.00048481487
0.40916795 -0.11798397 0.147863 -0.59266251 0.15455841 -0.7904827 0.00083412329
0.41333783 -0.11776081 0.14471552 -0.61159456 0.15086524 -0.77665418 0.0009974417
0.42008346 -0.11396247 0.14004716 -0.64777327 0.1396427 -0.74892569 0.0014817552
-0.42399609 -0.10075825 0.14063346 0.62395823 0.15397084 -0.76613909 0.0013598907
-0.41740376 -0.1047664 0.14428787 0.60808766 0.16688499 -0.77613068 0.0010913098
-0.16166818 -0.10127127 0.14658298 -0.50944173 -0.33241478 -0.79370618 0.00042957865
-0.15355444 -0.10591672 0.14360464 0.52387124 0.37753791 0.76356012 0.0013066398
-0.14842601 -0.10560379 0.14025573 0.53089195 0.38600722 0.75442171 0.0015436379
0.14683861 -0.10800249 0.14017715 -0.54762322 0.39333245 0.73851091 0.0025088969
0.1545797 -0.10373043 0.14272293 -0.51955205 0.35413322 0.77759582 0.0013956116
0.16307804 -0.10516565 0.14850284 0.50087368 -0.33431876 -0.7983461 0.00083122088
0.41744158 -0.10151061 0.14359204 -0.63324732 0.10646852 -0.76659137 0.0010154593
-0.42121744 -0.091409512 0.14358017 0.63366729 0.09929762 -0.76720655 0.0011328224
-0.41841978 -0.093000352 0.14560264 0.60271537 0.1216024 -0.78863621 0.0009469919
-0.16398337 -0.09828566 0.1466836 0.52362275 0.32720688 0.78660971 0.00099114154
-0.15697363 -0.096037976 0.14128484 0.54619497 0.3561759 0.75816202 0.0022154739
0.16010237 -0.090298496 0.14094055 -0.5462445 0.31584322 0.77579635 0.0018086269
0.40944722 -0.099949092 0.14987126 -0.59353834 0.10065608 -0.79848635 0.00023165988
0.41388839 -0.095944412 0.14698291 -0.60412687 0.098775916 -0.7907427 2.7615346e-05
0.42075071 -0.09145017 0.14231139 -0.63682377 0.10294504 -0.7641058 0.0012522645
-0.4255802 -0.082747489 0.14090914 0.6379829 0.079711065 -0.76591384 0.00069981162
-0.41872165 -0.081139788 0.14629747 0.61896598 0.072898529 -0.78202742 0.00035318997
-0.17292623 -0.085619122 0.14789733 0.54734081 0.26868948 0.79260582 0.001192876
-0.16676612 -0.086016975 0.14356516 0.55937207 0.29039067 0.7763865 0.0021953741
0.15953882 -0.08980038 0.14038664 -0.54850322 0.31694165 0.77375197 0.0018634738
0.16745324 -0.087218389 0.14513913 -0.55907416 0.27890649 0.78079903 0.0011075307
0.17327563 -0.084015258 0.14822342 -0.55773884 0.25953159 0.78839755 0.00021029376
0.41591156 -0.080791466 0.14730851 -0.60296929 0.09814661 -0.79170406 6.9175352e-05
0.42201796 -0.08554554 0.14207368 -0.63970494 0.10010818 -0.76207346 0.0013872957
-0.42551601 -0.076118506 0.1414762 0.64148378 0.068467662 -0.76407504 0.0008395433
-0.41428775 -0.07828857 0.14992248 0.60365975 0.069737546 -0.79418612 0.00017394053
-0.17704286 -0.073856182 0.14764161 -0.56259179 -0.22495285 -0.79554182 0.00018485553
-0.16767095 -0.075243011 0.14126489 0.58794588 0.25791073 0.76668221 0.0016559095
0.1667231 -0.079549626 0.14220197 -0.58730668 0.2755996 0.76099652 0.0012906071
0.17558154 -0.075730734 0.14722776 -0.56565779 0.24766114 0.7865718 0.00018834125
0.18152636 -0.07029973 0.14969417 0.56112438 -0.23313044 -0.79422265 0.00060104154
0.41643873 -0.075104125 0.14760749 -0.60200965 0.097197659 -0.79255092 1.0412754e-05
0.42397329 -0.075624824 0.14180657 -0.64630777 0.10349175 -0.75602627 0.0012106245
-0.42798215 -0.064586692 0.14048469 0.65198863 0.064106934 -0.75551385 0.0015448057
-0.18246469 -0.064822614 0.14907488 -0.56665999 -0.21406245 -0.7956593 7.7875833e-05
-0.17579523 -0.064939402 0.14429845 0.58080655 0.22250696 0.78304183 0.0002637672
-0.16929892 -0.066682652 0.14009261 0.62026209 0.2474601 0.74433756 0.0024435071
0.17781028 -0.063814625 0.1450302 -0.58303446 0.20903754 0.78509498 0.00112312
0.18211898 -0.065976366 0.14874488 0.56856054 -0.21549806 -0.79391408 0.00064047944
0.41671458 -0.066105098 0.14850564 -0.60304308 0.097188599 -0.79176599 2.0267531e-05
0.42395881 -0.066179618 0.14298071 -0.64335614 0.090425976 -0.76020789 0.0014489586
-0.42805281 -0.054554734 0.14121409 0.63773805 0.063410118 -0.7676388 0.00093849679
-0.18458697 -0.053171411 0.14741194 0.59373605 0.18051629 0.78415006 0.00092127122
-0.17467642 -0.056796953 0.14126039 0.61282223 0.20885323 0.76212156 0.0018935514
0.17693031 -0.055620976 0.14189954 -0.60604209 0.1823944 0.77423859 0.0021058556
0.18304271 -0.05173488 0.14549917 -0.59686184 0.16312023 0.78558755 0.0010534271
0.41713879 -0.052040994 0.14991459 -0.59927583 0.096240692 -0.7947365 9.5808966e-05
0.42381716 -0.059588168 0.14390031 -0.61673516 0.097639047 -0.78109187 0.00048738721
0.43004644 -0.05216907 0.14007095 -0.66605061 0.12764378 -0.73490393 0.0017272343
-0.42703944 -0.045113102 0.14272922 0.62858146 0.067197502 -0.77483535 0.000724565
-0.41809577 -0.049367525 0.14925961 0.60412842 0.061003529 -0.79454857 8.0356913e-05
-0.18851987 -0.045205787 0.14824566 0.59376436 0.14022207 0.79232669 0.001144536
0.17970017 -0.047134839 0.14238769 -0.61226779 0.16898765 0.77238035 0.001881614
0.18111473 -0.040475428 0.14264466 -0.6238544 0.13174792 0.77035582 0.0015723603
0.42961121 -0.046464991 0.14110479 -0.63349718 0.1073846 -0.76625705 0.0013459792
-0.42493629 -0.034569748 0.14516661 0.62236977 0.066103496 -0.77992707 0.00059939531
-0.19075663 -0.032390852 0.14866269 0.61320847 0.077078715 0.78615159 0.00038468363
-0.18605876 -0.034863919 0.14525105 0.62145889 0.093108498 0.77789438 0.0013156991
-0.17992592 -0.030960759 0.14024028 0.62606537 0.093006685 0.77420413 0.0011987366
0.17817613 -0.039896313 0.1403359 -0.64062905 0.13818161 0.75531471 0.0020587211
0.18650231 -0.03540948 0.14612289 -0.60597557 0.11042332 0.78778189 0.00033569979
0.42468327 -0.036221437 0.14611834 -0.60567111 0.098190315 -0.78963357 0
0.43289 -0.031690147 0.14042777 -0.65869635 0.10115022 -0.74557889 0.0020150011
-0.43123287 -0.024710733 0.14110523 0.65391225 0.082503192 -0.75205845 0.0012558624
-0.42605233 -0.023929534 0.14514144 0.61337119 0.064167745 -0.7871837 7.8914134e-05
-0.190925 -0.022126695 0.14799011 0.61236691 0.067699715 0.78766966 8.3179992e-05
-0.18380144 -0.028203901 0.1429987 0.63228172 0.073673375 0.7712276 0.00085539656
0.18764228 -0.027927125 0.14606944 -0.6137405 0.098432794 0.78334767 0.00035020875
0.19224186 -0.024384089 0.14913523 -0.60479474 0.08361157 0.79198009 0.00027433122
0.42612982 -0.025366031 0.14635378 -0.61017656 0.070477486 -0.78912455 0.00057328574
0.43337744 -0.029893087 0.14027795 -0.64687151 0.08126539 -0.75825661 0.0014729415
-0.43166587 -0.016316427 0.14142868 0.64860374 0.066021681 -0.75825745 0.0014675274
-0.42741895 -0.016370595 0.14468323 0.62782389 0.059521087 -0.7760762 0.00059488148
-0.19243136 -0.01171685 0.1483328 -0.60727918 -0.047736667 -0.79305309 0.00055937894
-0.1830119 -0.016313357 0.14146407 0.63813066 0.065396927 0.76714563 0.0010160682
0.18780419 -0.015672829 0.14468366 -0.62117267 0.071867652 0.78037143 0.00077577162
0.19004609 -0.017464327 0.14661124 -0.61623472 0.073598377 0.78411603 0.00079284579
0.4266763 -0.015360657 0.14716977 -0.6178571 0.028464077 -0.78577513 0.00088152522
0.43367293 -0.012186689 0.1421151 -0.64975041 0.0068308865 -0.76011688 0.0011405091
-0.43040019 -0.00030009635 0.14365098 0.63763005 0.037114821 -0.76944816 0.0010098037
-0.19446465 -0.0045056497 0.14932971 -0.60571432 -0.024454778 -0.79530632 0.0010934947
-0.18579273 -0.0034261711 0.14259118 0.63037187 0.012050942 0.77619976 0.0019588468
0.18565571 -0.0015260297 0.14209922 -0.65033174 -0.0067177094 0.75962061 0.0021827063
0.19393766 -0.0065015578 0.1483624 -0.61893988 0.013115581 0.78532892 0.001316703
0.42632699 -0.0016704502 0.14693038 -0.62310362 -0.025648188 -0.78171867 0.00081103545
-0.42719993 0.0058722058 0.1465888 0.61913973 0.012909323 -0.78517467 0.00065804436
-0.19462281 0.0045539103 0.14874336 0.60761034 -0.0042111697 0.79422414 0.0011937453
-0.18412952 0.0076575484 0.14089872 0.65162599 -0.034010831 0.75777757 0.0030895818
0.18611777 0.0022793873 0.14275101 -0.64159507 -0.023935629 0.76667005 0.0018312164
0.19145632 0.0038138924 0.14696728 -0.62304169 -0.016945964 0.78200507 0.0010377683
0.42603049 0.0031142526 0.14678413 -0.62298137 -0.046303593 -0.78086495 0.00057053403
-0.43217739 0.01352809 0.14292464 0.64480543 -0.015358898 -0.7641924 0.0013298428
-0.42639947 0.012954878 0.14767686 0.62009913 -0.016571676 -0.78434837 0.00089562801
