# .PCD v0.7 - Point Cloud Data file format
VERSION 0.7
FIELDS x y z normal_x normal_y normal_z curvature
SIZE 4 4 4 4 4 4 4
TYPE F F F F F F F
COUNT 1 1 1 1 1 1 1
WIDTH 688
HEIGHT 1
VIEWPOINT 0 0 0 1 0 0 0
POINTS 688
DATA ascii
0.37537706 0.29650825 -0.011728898 -0.19722416 -0.5894376 0.78336835 0.20641102
0.38465095 0.29575193 -0.011728898 -0.84684497 -0.53181678 -0.0049554217 0.2396121
0.39911848 0.29272419 -0.018480409 -0.80623752 -0.57866728 -0.12298496 0.12763707
0.40192011 0.29045868 -0.012018086 -0.77324891 -0.62962008 0.075264789 0.14861214
-0.39164871 0.30386513 -0.011535704 0.83026087 -0.55655485 0.030225253 0.15333673
-0.37390539 0.30680928 -0.011728898 -0.12427641 -0.41466382 0.90144849 0.25359893
-0.36365381 0.3042022 -0.011728898 0.02304926 -0.059165701 0.99798208 0.065772094
-0.35263559 0.30437088 -0.011728898 0 0 1 0
-0.34420937 0.30210939 -0.011728898 -3.4561251e-07 2.813985e-06 1 1.3327517e-07
-0.33717814 0.30166084 -0.011728898 4.9267719e-06 -9.8978921e-07 1 0
-0.30047634 0.30311149 -0.011728898 -2.3519933e-06 9.5402299e-07 1 0
-0.27569976 0.30113897 -0.011728898 -6.6212556e-07 -2.6624768e-06 1 0
-0.2652536 0.30823246 -0.011728898 0 0 1 0
-0.25602713 0.30628577 -0.011728898 -2.2062225e-06 -3.36281e-07 1 0
-0.24598378 0.30535263 -0.011728898 -4.0479617e-06 -1.1044764e-06 1 0
-0.23252776 0.30820403 -0.011728898 9.7509862e-08 1.4660366e-06 1 0
-0.21451648 0.30387309 -0.011728898 8.8270036e-07 -1.503988e-06 1 0
-0.20700948 0.30396193 -0.011728898 0 0 1 0
-0.19520096 0.30318069 -0.011728898 5.7674117e-07 5.9917138e-06 1 0
-0.18910125 0.30272543 -0.011728898 0 0 1 0
-0.16775459 0.30733621 -0.011728898 1.2528025e-06 -8.280287e-08 1 0
-0.13537146 0.30704388 -0.011728898 -1.2001829e-07 -1.8137156e-06 1 0
-0.122829 0.30920285 -0.011728897 -4.7316598e-07 -9.2003052e-07 1 0
-0.10669059 0.30480558 -0.011728898 1.0201202e-06 -3.1685011e-06 1 0
-0.097922973 0.30568254 -0.011728898 1.0234444e-07 -8.7321723e-07 1 0
-0.063133694 0.30763757 -0.011728898 -6.8815461e-07 -1.7992087e-07 1 0
-0.050649207 0.30337188 -0.011728898 3.5370658e-08 4.3480027e-06 1 0
-0.045558166 0.30625209 -0.011728898 -5.4598127e-07 1.0944499e-06 1 0
-0.033051185 0.30478737 -0.011728898 1.914444e-07 -1.0987299e-06 1 0
-0.027015168 0.30689722 -0.011728898 4.623065e-08 -1.0792593e-06 1 0
-0.0044386522 0.30677426 -0.011728898 1.003617e-07 1.0510511e-06 1 0
0.0050453809 0.30638328 -0.011728898 -7.2626825e-08 1.0483961e-06 1 0
0.023468181 0.30347389 -0.011728898 -0 -0 1 0
0.038691513 0.3086915 -0.011728898 -7.8214293e-07 -2.4536951e-06 1 0
0.046561807 0.30296373 -0.011728898 3.4915283e-07 1.3707191e-06 1 0
0.052726574 0.30628541 -0.011728898 9.6777262e-07 1.9015075e-06 1 0
0.068348467 0.30625311 -0.011728898 -6.2878155e-07 -2.4613391e-06 1 0
0.070712522 0.30075082 -0.011728898 -6.6500451e-07 -1.6810034e-06 1 0
0.087386012 0.30744326 -0.011728898 -5.0962443e-09 -1.1493843e-06 1 0
0.090124063 0.30375925 -0.011728898 2.5775168e-07 -2.7725771e-06 1 0
0.10436114 0.3062987 -0.011728898 6.8294321e-07 -1.2638907e-06 1 0
0.11089469 0.30504122 -0.011728898 -4.1049114e-07 -1.2416401e-06 1 0
0.13937049 0.30209789 -0.011728898 5.7716284e-07 -9.5642577e-07 1 0
0.1652263 0.30672288 -0.011728898 1.1632118e-06 2.0532921e-06 1 0
0.18577421 0.30040395 -0.011728898 -1.1099332e-06 -1.1136471e-07 1 0
0.19673079 0.30347735 -0.011728898 -1.1990343e-06 2.2735712e-07 1 0
0.20564397 0.30723777 -0.011728898 -7.5623115e-07 -1.6739945e-06 1 0
0.21951555 0.30672497 -0.011728898 -4.9200608e-08 8.312648e-07 1 0
0.23254746 0.30263802 -0.011728898 -1.4719012e-06 9.5365237e-07 1 0
0.2515386 0.30530298 -0.011728898 -2.1962617e-07 -3.5817702e-06 1 0
0.27739888 0.30236125 -0.011728898 -1.0258125e-06 7.1176622e-08 1 0
0.28463572 0.30447835 -0.011728898 -1.2362112e-06 -7.635706e-07 1 0
0.2931729 0.30998459 -0.011728898 3.0430479e-06 1.7069376e-06 1 0
0.31990966 0.30391964 -0.011728898 -1.6757018e-06 -3.2263256e-06 1 0
0.32367766 0.30470771 -0.011728898 3.2310643e-06 -5.305676e-06 1 0
0.33689982 0.30529922 -0.011728898 -0 -0 1 0
0.3538608 0.30678374 -0.011728898 -0.057941843 -0.05217009 0.99695581 0.0048824241
0.36774287 0.30483735 -0.011728898 -0.12601988 -0.16284104 0.97857136 0.21368785
-0.38309047 0.31425986 -0.015460158 0.81321073 -0.57935923 -0.055057067 0.14147925
-0.36013404 0.31550932 -0.011728899 0.18693811 0.025823912 0.98203224 0.10623082
-0.35610577 0.31690374 -0.011728898 0.19512136 0.030071478 0.98031795 0.11284418
-0.34444275 0.31721315 -0.011728898 0.006723145 -0.0098437741 0.99992889 0.0021660698
-0.33864093 0.31311291 -0.011728898 0 0 1 0
-0.32497844 0.3164739 -0.011728898 -9.0693692e-07 3.2280678e-08 1 0
-0.31963402 0.31882623 -0.011728898 -2.6264192e-07 2.0862581e-06 1 0
-0.30229375 0.31469131 -0.011728898 -2.353994e-06 -1.8032154e-07 1 0
-0.29529727 0.31444311 -0.011728898 1.3536834e-06 -1.0447582e-06 1 0
-0.28692847 0.31552812 -0.011728898 -2.1015192e-06 -2.1391418e-06 1 0
-0.2557345 0.31152105 -0.011728899 -1.8328444e-06 1.2631161e-06 1 0
-0.24073765 0.31484997 -0.011728898 2.5577279e-07 1.0657124e-06 1 0
-0.23941582 0.31579962 -0.011728898 1.335897e-06 1.1220282e-06 1 0
-0.22984041 0.31050804 -0.011728898 8.126903e-07 1.2148716e-06 1 0
-0.2144506 0.31774119 -0.011728898 -2.0145894e-06 -2.9476457e-08 1 0
-0.20107818 0.31310353 -0.011728898 3.4470781e-06 1.2465498e-06 1 0
-0.19610253 0.31529254 -0.011728898 1.0264778e-06 3.8981634e-06 1 9.5093391e-08
-0.17461282 0.31198534 -0.011728898 -1.1045106e-06 -1.3873769e-07 1 9.9808588e-08
-0.16611177 0.31407475 -0.011728898 2.6009293e-06 -1.8999491e-06 1 0
-0.15623133 0.31237483 -0.011728898 1.1971033e-06 -1.8763347e-06 1 0
-0.13892418 0.31677431 -0.011728898 -4.9212491e-07 -1.1677325e-06 1 0
-0.11411607 0.3124024 -0.011728898 -4.1386994e-07 2.7131941e-06 1 0
-0.10748421 0.31398568 -0.011728898 6.7065213e-07 -2.5714605e-06 1 0
-0.086881258 0.3185029 -0.011728898 -3.2408641e-07 1.5712266e-06 1 0
-0.066787139 0.31550318 -0.011728898 -9.784917e-07 -2.3257244e-06 1 0
-0.054522905 0.31618962 -0.011728898 6.1329979e-07 1.3653777e-06 1 0
-0.046313569 0.31275237 -0.011728898 -1.9463367e-07 9.5730979e-07 1 0
-0.039883628 0.31891817 -0.011728898 -3.5451245e-07 2.1454064e-06 1 8.9634156e-08
-0.025152508 0.31359741 -0.011728898 -1.1071986e-07 7.0834694e-06 1 9.1200924e-08
-0.012020003 0.31254342 -0.011728898 8.2801705e-08 -2.4183223e-06 1 0
-0.0038286541 0.31340367 -0.011728898 7.3981661e-09 1.0164859e-09 1 0
0.0051820301 0.31653175 -0.011728898 4.3890157e-08 1.1648508e-06 1 0
0.016691899 0.31712607 -0.011728898 0 0 1 0
0.024278993 0.31867415 -0.011728898 9.5368861e-08 -2.9367252e-06 1 0
0.037830546 0.31577694 -0.011728898 -2.6010238e-07 -1.4655358e-06 1 0
0.04343256 0.31299528 -0.011728898 -4.7167597e-07 -1.3753245e-06 1 0
0.054779351 0.31012741 -0.011728898 -6.807452e-08 -9.7126485e-07 1 0
0.06767229 0.31301674 -0.011728898 -5.3496331e-07 -3.4693483e-06 1 0
0.079900622 0.31702748 -0.011728898 0 0 1 0
0.084494568 0.31286502 -0.011728898 -1.4989345e-06 -2.0898108e-06 1 0
0.11292107 0.31685176 -0.011728898 -9.8723604e-07 1.413084e-06 1 0
0.12294962 0.31297916 -0.011728898 1.3840052e-07 1.9321367e-06 1 0
0.13342282 0.31771064 -0.011728898 -6.2199388e-07 9.1360135e-07 1 0
0.16027442 0.31276506 -0.011728899 -1.7570175e-06 4.772329e-07 1 0
0.17496537 0.31678388 -0.011728898 0 0 1 0
0.18531007 0.31161857 -0.011728898 1.2772823e-06 -1.3141307e-07 1 0
0.21941391 0.31686458 -0.011728898 -1.2333695e-06 5.48789e-08 1 0
0.22568406 0.31119677 -0.011728898 1.0068568e-06 -7.3826385e-08 1 0
0.23503293 0.31381205 -0.011728898 -2.0349034e-07 -1.9760425e-06 1 0
0.24251252 0.314908 -0.011728898 -8.0492924e-08 2.3012935e-06 1 0
0.25173914 0.31415126 -0.011728898 7.6496451e-07 -3.5191749e-06 1 0
0.26445025 0.31231767 -0.011728898 -2.2553829e-06 -1.5199005e-06 1 0
0.27808201 0.31351373 -0.011728898 1.1338651e-06 -2.7839866e-07 1 0
0.2822549 0.31415665 -0.011728898 1.7318462e-06 -2.0118773e-06 1 0
0.295726 0.31402105 -0.011728898 3.6313729e-06 5.0340027e-06 1 6.3794154e-08
0.30306652 0.31471336 -0.011728898 3.2882317e-06 1.3291231e-06 1 0
0.31412143 0.31240973 -0.011728898 -3.1026011e-06 1.1089616e-06 1 0
0.33617094 0.31778306 -0.011728898 -2.8189211e-06 -1.9409438e-06 1 0
0.34379578 0.31701258 -0.011728898 0.0028015212 0.0037637914 0.99998903 1.8103116e-05
0.35665613 0.31586564 -0.011728898 -0.18006173 -0.011751031 0.98358518 0.17547254
-0.37611562 0.32313025 -0.016483612 0.76735502 -0.64068222 -0.026315881 0.10084683
-0.36094311 0.32911721 -0.011728898 0.81728488 -0.55572969 0.15234822 0.21816091
-0.35198146 0.32590249 -0.011728899 0.049875107 -0.1058823 -0.99312711 0.14597279
-0.33536574 0.32360622 -0.011728898 1.9481545e-06 9.164296e-07 1 0
-0.3261686 0.32457268 -0.011728898 1.1217649e-06 -9.9184348e-08 1 0
-0.31137216 0.32341185 -0.011728898 1.638763e-06 2.4938156e-06 1 0
-0.30747989 0.32319373 -0.011728898 9.7149893e-07 -1.4720815e-06 1 0
-0.29245287 0.32441962 -0.011728898 -1.5145993e-06 1.1854623e-06 1 0
-0.28418356 0.32410365 -0.011728898 1.5532365e-06 -4.7742073e-08 1 0
-0.25133044 0.32409495 -0.011728898 -0 -0 1 0
-0.249055 0.32642275 -0.011728898 3.4591972e-07 2.9318996e-06 1 0
-0.23581596 0.32360488 -0.011728898 -2.1597834e-06 2.5766733e-06 1 0
-0.21108206 0.32480013 -0.011728898 -8.1060966e-07 -8.0705775e-07 1 0
-0.20193163 0.32003033 -0.011728898 -1.5145794e-06 2.9915825e-06 1 0
-0.19520949 0.3274008 -0.011728898 0 0 1 0
-0.18040776 0.32556015 -0.011728898 2.0447244e-06 2.3935041e-09 1 0
-0.17439719 0.32555264 -0.011728898 9.1561304e-07 -8.0216623e-08 1 0
-0.16777429 0.32410982 -0.011728898 2.7801914e-07 2.769518e-06 1 0
-0.15439841 0.32542086 -0.011728898 4.4150673e-07 -6.9595199e-06 1 0
-0.14762935 0.32878831 -0.011728898 -4.2451674e-07 1.2749084e-07 1 0
-0.1323442 0.3247422 -0.011728898 6.1802956e-07 1.1576456e-06 1 0
-0.12495746 0.32560188 -0.011728898 1.118213e-06 4.3110604e-06 1 0
-0.11588641 0.32523996 -0.011728898 -8.6600977e-07 -1.3873682e-06 1 0
-0.1025005 0.32541633 -0.011728898 -5.4260272e-07 9.4842996e-08 1 0
-0.097358696 0.32000268 -0.011728898 -2.5611948e-07 -9.6987367e-07 1 0
-0.08202263 0.32621989 -0.011728898 4.0305036e-07 -1.4480493e-06 1 0
-0.071136259 0.32326898 -0.011728898 9.893713e-07 3.8217231e-06 1 0
-0.067303754 0.32327387 -0.011728898 4.9574714e-07 1.8288549e-06 1 0
-0.054807588 0.32372308 -0.011728898 3.0046152e-07 3.6401669e-08 1 0
-0.045635458 0.32330978 -0.011728898 -1.8511884e-07 5.1436455e-06 1 1.2501988e-07
-0.028899753 0.32159752 -0.011728898 -3.7443527e-07 2.2869137e-06 1 0
-0.017927874 0.32674426 -0.011728898 2.6854258e-07 2.9762486e-08 1 0
-0.0023606943 0.32283664 -0.011728898 5.0932584e-08 -1.4297552e-06 1 0
0.016006937 0.32106045 -0.011728898 1.467002e-07 1.0251262e-06 1 0
0.024929857 0.32687047 -0.011728898 5.2215075e-08 1.9609663e-06 1 0
0.032746375 0.32217517 -0.011728898 8.7051376e-07 2.297787e-06 1 0
0.044507127 0.32823539 -0.011728898 2.3505638e-08 -4.0914479e-06 1 0
0.09561602 0.32642218 -0.011728898 -1.7482991e-07 4.0820687e-06 1 0
0.11202841 0.32411802 -0.011728898 -5.1557271e-07 1.9623114e-06 1 0
0.12536883 0.3236534 -0.011728898 3.4461971e-07 -3.509175e-06 1 0
0.13568945 0.32254514 -0.011728898 -1.2024817e-06 3.8653784e-08 1 0
0.14124887 0.32963026 -0.011728899 -7.3334166e-07 1.8146135e-06 1 0
0.15216959 0.32614076 -0.011728898 -1.5977887e-06 8.4452001e-09 1 0
0.16792285 0.32562956 -0.011728898 6.7734209e-07 -2.7614199e-06 1 0
0.19438171 0.32296616 -0.011728898 -2.1794774e-06 -1.016068e-06 1 0
0.20699972 0.32648957 -0.011728898 -2.9195812e-06 -1.5763217e-08 1 0
0.21468359 0.3234182 -0.011728898 -3.6900685e-06 -4.0383356e-06 1 0
0.22637846 0.3266601 -0.011728898 -2.8594952e-06 -1.3687045e-06 1 0
0.24067107 0.32604301 -0.011728899 7.9517707e-07 -2.177856e-06 1 0
0.25042665 0.32535928 -0.011728897 1.0342729e-06 4.683719e-06 1 0
0.26760915 0.3237659 -0.011728898 1.5879068e-07 -2.7351505e-06 1 0
0.27516881 0.32420808 -0.011728898 -2.2759048e-06 -1.7715041e-07 1 0
0.28332192 0.32428044 -0.011728898 -3.9613578e-06 -2.5754025e-06 1 0
0.29530185 0.32237557 -0.011728898 1.4089662e-08 1.1956761e-06 1 0
0.30288512 0.32374141 -0.011728898 9.9218573e-07 2.468244e-06 1 0
0.31797951 0.32221049 -0.011728898 -9.2904764e-07 1.0905572e-06 1 0
0.33269012 0.3255398 -0.011728898 1.3791555e-07 8.565338e-07 1 0
0.34029382 0.32030892 -0.011728898 2.2599038e-06 -1.809117e-06 1 0
0.36348227 0.32118857 -0.011728898 -0.99212414 -0.10687678 0.065321572 0.23782583
-0.36723912 0.33523589 -0.013976354 0.78183287 -0.62340248 -0.010327028 0.12501657
-0.34588197 0.33817431 -0.011728898 0.13214421 -0.11446497 -0.98459917 0.19038825
-0.33922458 0.33425957 -0.011728898 -5.6701185e-05 -0.036045894 -0.99935013 0.083119802
-0.32555228 0.33605587 -0.011728898 3.5426965e-06 -5.3701029e-07 1 0
-0.30629405 0.33416852 -0.011728898 1.0724032e-06 -2.002954e-06 1 0
-0.29086131 0.33391482 -0.011728898 -2.220889e-06 2.7903952e-06 1 0
-0.28521967 0.335998 -0.011728898 -3.4697814e-06 6.9238081e-07 1 0
-0.27613005 0.33482465 -0.011728898 -1.9853974e-06 1.721751e-06 1 0
-0.25570977 0.33942944 -0.011728898 -2.2695974e-07 -2.0794132e-06 1 0
-0.24878921 0.3385514 -0.011728898 1.1745545e-06 -1.9547888e-06 1 0
-0.2365934 0.33917895 -0.011728898 -1.2364563e-06 -2.3076661e-06 1 0
-0.21351428 0.33728164 -0.011728898 1.561418e-06 3.8363864e-06 1 0
-0.208538 0.33295178 -0.011728898 2.1925255e-06 -5.5308782e-08 1 0
-0.1912694 0.33054277 -0.011728898 -1.191868e-06 -4.9546034e-06 1 0
-0.18720195 0.33863735 -0.011728898 1.9755535e-06 -2.4659312e-06 1 0
-0.17683637 0.33491257 -0.011728898 9.4125699e-07 2.4769039e-07 1 0
-0.16736902 0.33828396 -0.011728898 1.5259737e-07 5.5728724e-06 1 0
-0.15606013 0.33643132 -0.011728898 -9.0526049e-07 2.2784791e-06 1 0
-0.14879701 0.33330846 -0.011728898 -4.8497719e-07 -3.2133221e-06 1 0
-0.13795674 0.33764377 -0.011728898 -6.0547745e-07 1.0436986e-07 1 0
-0.12448213 0.33624402 -0.011728898 -0 -0 1 0
-0.10270125 0.33100289 -0.011728898 0 0 1 0
-0.093703493 0.33510303 -0.011728898 -1.0574708e-07 -3.7078516e-06 1 0
-0.084463619 0.33489323 -0.011728898 9.4819575e-07 3.3524125e-06 1 0
-0.073589325 0.33308038 -0.011728898 -2.6352987e-07 -1.8389736e-06 1 0
-0.066918895 0.33610201 -0.011728898 5.7119149e-07 1.514753e-06 1 0
-0.056807317 0.33840942 -0.011728898 -2.5047126e-07 3.9689297e-08 1 0
-0.043458451 0.33664289 -0.011728898 -6.1584217e-07 2.1135986e-06 1 0
-0.03683088 0.3329483 -0.011728898 -4.3914596e-08 9.9757051e-07 1 0
-0.02673511 0.33650196 -0.011728898 3.6914579e-07 1.0160809e-07 1 0
-0.019293262 0.3306984 -0.011728898 3.1630566e-07 1.0661737e-06 1 0
-0.0071215597 0.33487421 -0.011728898 8.351855e-08 -8.7904164e-07 1 0
0.011952292 0.33333439 -0.011728898 -6.9926379e-08 3.9575584e-06 1 0
0.027355421 0.33633852 -0.011728898 1.6049827e-07 3.8089567e-09 1 0
0.035430126 0.33311707 -0.011728898 2.2645717e-07 -1.9111824e-06 1 0
0.05129448 0.33899438 -0.011728898 2.3173264e-07 -1.3045923e-08 1 0
0.067468941 0.33507842 -0.011728898 1.9206981e-07 -2.0728125e-06 1 0
0.075637564 0.33081248 -0.011728898 -3.3942968e-07 3.7237537e-06 1 0
0.085073091 0.33688712 -0.011728898 -5.8987672e-07 -1.7969613e-08 1 0
0.091779776 0.33890045 -0.011728898 -1.184733e-08 -2.4468313e-06 1 0
0.10471936 0.3364768 -0.011728898 1.612144e-07 2.499675e-06 1 0
0.11579318 0.33243155 -0.011728898 -4.9377286e-07 9.9357976e-07 1 0
0.13333596 0.33151332 -0.011728898 -1.134488e-06 5.4110251e-06 1 0
0.14820112 0.33282104 -0.011728898 2.2436093e-06 6.7574465e-06 1 0
0.17799258 0.33195737 -0.011728898 -6.7486275e-07 5.1636362e-06 1 0
0.19269785 0.33875802 -0.011728898 -2.6852067e-06 2.8881832e-06 1 0
0.20623705 0.3343409 -0.011728898 -9.9444946e-07 2.4877236e-06 1 0
0.21509264 0.3346765 -0.011728898 -1.1033561e-06 -6.7304185e-08 1 0
0.22915243 0.33814621 -0.011728898 -4.1264375e-06 -2.1951917e-06 1 0
0.23637846 0.33177507 -0.011728898 -1.1537959e-07 -1.0633859e-06 1 0
0.25804508 0.33613828 -0.011728898 -0 -0 1 0
0.26704898 0.33263671 -0.011728898 -3.3530856e-08 1.2865561e-06 1 0
0.27532676 0.33314055 -0.011728898 -3.3304862e-06 -5.3570939e-06 1 0
0.28747684 0.33973795 -0.011728898 -3.4796733e-06 1.7206504e-07 1 0
0.29501826 0.33088514 -0.011728898 9.1818373e-07 2.1852886e-06 1 0
0.30819535 0.33225465 -0.011728898 -2.3003992e-07 1.186398e-06 1 0
0.32510489 0.330336 -0.011728898 -2.8096104e-06 1.2540174e-07 1 0
0.33564687 0.33366215 -0.011728898 -0.049235672 -0.06462878 0.99669403 0.074016139
0.3667298 0.33628005 -0.012202232 -0.9075585 -0.41974971 0.012152351 0.10164803
-0.35946178 0.3444064 -0.018477485 0.81080997 -0.57735789 -0.096150726 0.095531389
-0.34470975 0.34584373 -0.011728898 0.2920002 -0.17110114 -0.94098896 0.23434491
-0.33683187 0.34691745 -0.011728898 0.13870642 -0.11565863 -0.98355663 0.19405355
-0.32081348 0.34816468 -0.011728898 0.043773584 0.002294403 -0.99903888 0.060255151
-0.31189504 0.34628364 -0.011728898 -9.9709985e-07 2.3127491e-06 1 0
-0.30258048 0.34978747 -0.011728898 1.5064087e-07 2.4413337e-06 1 0
-0.28617191 0.34424293 -0.011728898 -1.4252169e-06 2.0168752e-06 1 0
-0.27429163 0.34597093 -0.011728898 -2.0482511e-07 8.992778e-06 1 0
-0.25407076 0.34110522 -0.011728898 -1.1504775e-06 1.5487309e-06 1 0
-0.24735963 0.34425029 -0.011728898 -4.0731618e-07 -2.1243266e-06 1 0
-0.23843151 0.3465516 -0.011728898 -1.4008459e-06 2.3439031e-06 1 0
-0.22267476 0.34343719 -0.011728898 6.2289541e-07 2.7642145e-06 1 0
-0.21651477 0.34491825 -0.011728898 9.0454085e-07 2.188149e-07 1 0
-0.2066568 0.34134072 -0.011728898 3.5444975e-06 1.9271836e-06 1 0
-0.1910142 0.34483179 -0.011728898 2.5472541e-06 2.0034015e-07 1 0
-0.18893833 0.34062919 -0.011728898 1.3645493e-06 3.4968939e-06 1 0
-0.17410845 0.34072095 -0.011728898 -1.1607725e-06 -6.6074176e-07 1 0
-0.14301074 0.34539187 -0.011728898 8.6980907e-07 -2.1640542e-06 1 0
-0.13564792 0.34543315 -0.011728898 8.1047523e-07 -1.6400375e-07 1 0
-0.12616073 0.3442305 -0.011728898 2.0829611e-07 -2.3073771e-06 1 0
-0.11388949 0.34352785 -0.011728898 9.0980711e-07 2.09307e-06 1 0
-0.095571592 0.34926823 -0.011728898 -1.2963354e-06 1.5161223e-06 1 0
-0.083324246 0.34457985 -0.011728898 1.4996313e-06 3.4905609e-06 1 0
-0.061892845 0.34263203 -0.011728898 2.3834929e-07 -7.1013251e-10 1 0
-0.052739784 0.34117585 -0.011728898 9.2631871e-07 -1.9918759e-06 1 0
-0.036496129 0.34745529 -0.011728898 2.9654791e-07 -1.7571906e-06 1 0
-0.027254624 0.34570393 -0.011728898 2.8666929e-07 -3.7551278e-08 1 0
-0.015072169 0.34611243 -0.011728898 -2.7972783e-07 2.0393175e-06 1 0
0.0034519227 0.34660015 -0.011728898 -1.4550128e-08 -4.3737708e-11 1 0
0.011390995 0.34869671 -0.011728898 2.2129628e-08 2.1408916e-06 1 0
0.0234867 0.3471925 -0.011728898 6.1733795e-07 4.0458558e-06 1 0
0.035262827 0.34734166 -0.011728898 3.3617886e-07 2.8020463e-06 1 0
0.045981456 0.34610268 -0.011728898 6.2769152e-07 3.2961229e-06 1 0
0.058703411 0.34232202 -0.011728898 5.4917041e-07 -6.9119887e-06 1 0
0.062465943 0.3448005 -0.011728898 -1.8876841e-07 1.7774038e-08 1 0
0.077269033 0.34391037 -0.011728898 -2.5264748e-07 2.5399047e-06 1 0
0.084883511 0.34306479 -0.011728898 5.6663646e-07 -6.0880822e-08 1 0
0.095624685 0.34481287 -0.011728898 2.3803604e-07 -5.1197048e-06 1 0
0.10796613 0.34653497 -0.011728898 1.1387391e-06 4.4828075e-06 1 0
0.11750504 0.34534231 -0.011728898 0 0 1 0
0.13376927 0.34453732 -0.011728898 0 0 1 0
0.1449624 0.34386587 -0.011728898 -5.5765901e-07 3.8786311e-06 1 0
0.15545966 0.34005666 -0.011728898 -1.2095759e-06 8.0540772e-08 1 0
0.16327849 0.34870291 -0.011728898 -9.9796227e-07 2.1464082e-06 1 0
0.17786965 0.34842503 -0.011728898 9.2114624e-07 -2.5745285e-06 1 0
0.18850806 0.341245 -0.011728898 -1.0048e-06 8.9080942e-08 1 0
0.19453755 0.34399128 -0.011728898 -5.0285678e-07 2.1886465e-06 1 0
0.20767015 0.34681824 -0.011728898 -9.3952218e-07 -5.3948156e-08 1 0
0.21510546 0.34668875 -0.011728898 9.3616262e-07 1.7137905e-08 1 0
0.22165874 0.34332025 -0.011728898 -2.3846233e-06 -2.3688251e-06 1 0
0.2324784 0.3442122 -0.011728898 0 0 1 0
0.27555671 0.34569868 -0.011728898 -1.4387376e-06 -3.4435956e-07 1 0
0.28620639 0.34348238 -0.011728898 7.9442145e-07 4.1892699e-06 1 0
0.30317515 0.34232762 -0.011728898 -9.9739225e-07 2.5570711e-07 1 0
0.31736898 0.34500736 -0.011728898 0.020414844 0.0015549395 0.99979037 0.0075346613
0.32586911 0.34428558 -0.011728898 -0.026436042 0.044408593 0.9986636 0.064742818
0.33847249 0.34779558 -0.011728898 -0.23978651 0.10674165 0.96493971 0.22473077
0.35984689 0.34444955 -0.015935401 -0.77834284 -0.62758547 0.017857272 0.097448692
0.36082509 0.34324372 -0.015613748 -0.77372319 -0.63345087 0.0096114278 0.089316286
-0.35224462 0.3543669 -0.010569579 0.71643394 -0.69454509 -0.065798007 0.11969294
-0.3471218 0.35824877 -0.013015671 0.63078398 -0.77285111 -0.069373392 0.11893198
-0.32500032 0.35381785 -0.011728898 -0.095604554 -0.2854501 0.9536131 0.26603296
-0.2981973 0.35796356 -0.011728898 -1.0325255e-06 -1.0468588e-07 1 0
-0.28490821 0.35303685 -0.011728898 -2.5782158e-06 -1.9245745e-06 1 0
-0.26689827 0.35358852 -0.011728898 1.0071557e-06 2.5416284e-06 1 0
-0.25201869 0.35694465 -0.011728898 -1.4931691e-06 1.2535358e-07 1 0
-0.24711064 0.35518333 -0.011728898 -1.3489386e-06 2.0518376e-06 1 0
-0.2343867 0.35433075 -0.011728898 -2.0437778e-06 -2.0979887e-06 1 0
-0.20158097 0.35040098 -0.011728897 1.4615515e-06 1.8380131e-06 1 0
-0.18564802 0.35519451 -0.011728898 -1.9225747e-06 3.105225e-06 1 0
-0.13369521 0.35335454 -0.011728898 6.8438294e-07 -5.5513645e-08 1 0
-0.12571864 0.35588968 -0.011728898 -0 -0 1 0
-0.11713366 0.35521454 -0.011728898 3.1380259e-07 2.8104578e-06 1 0
-0.10031001 0.35590953 -0.011728898 -6.5502832e-07 -8.6372536e-09 1 0
-0.098897323 0.35472053 -0.011728898 -5.6505786e-07 2.3163675e-08 1 0
-0.08737091 0.35315037 -0.011728898 -0 -0 1 0
-0.04755646 0.35647947 -0.011728898 -0 -0 1 0
-0.036373697 0.35116729 -0.011728898 -2.039302e-07 1.8580898e-06 1 0
-0.025067151 0.35547808 -0.011728898 -3.8798689e-08 -3.8060482e-06 1 0
-0.00016753215 0.3556954 -0.011728898 -4.2375137e-07 -5.4833181e-06 1 0
0.0077029341 0.35653412 -0.011728898 -6.1117112e-07 -4.622842e-06 1 0
0.018247239 0.35427475 -0.011728898 -0 -0 1 0
0.024209881 0.35450351 -0.011728898 6.7016833e-07 2.719886e-06 1 0
0.044805717 0.35524607 -0.011728898 2.3507184e-07 -2.7361928e-06 1 0
0.068731189 0.35278654 -0.011728898 -8.2706674e-07 -2.5388917e-06 1 0
0.075066403 0.359061 -0.011728898 -2.2318188e-06 -3.227496e-07 1 0
0.087686047 0.35599267 -0.011728898 -5.4605346e-07 9.1852726e-08 1 0
0.094057515 0.35522524 -0.011728898 -5.1031003e-07 -6.7972394e-08 1 0
0.11186589 0.35603157 -0.011728898 -8.8231542e-07 4.7115896e-06 1 0
0.1210134 0.35867691 -0.011728898 4.8699572e-08 1.9588435e-06 1 0
0.13780458 0.35923737 -0.011728898 -1.7677517e-06 -9.968015e-08 1 0
0.14669128 0.35885546 -0.011728898 -1.2467249e-06 -1.2879704e-07 1 0
0.15091027 0.35298899 -0.011728898 0 0 1 0
0.18810405 0.35667238 -0.011728898 -2.1437725e-06 -1.5270086e-07 1 0
0.19805245 0.35983095 -0.011728898 1.1555227e-06 2.0376244e-06 1 0
0.21425578 0.35625431 -0.011728898 -9.9503018e-07 4.2955644e-06 1 0
0.22535114 0.35520819 -0.011728898 1.3591222e-06 -1.283398e-08 1 0
0.23430121 0.35371709 -0.011728898 5.1231956e-07 -2.1850899e-06 1 0
0.24128777 0.35321668 -0.011728898 5.9212798e-08 -2.0121226e-06 1 0
0.25891617 0.35795298 -0.011728898 -9.9069086e-07 -1.3046308e-07 1 0
0.26212561 0.35610616 -0.011728898 5.4017744e-07 -1.9655838e-06 1 0
0.28765604 0.35808516 -0.011728898 -2.141689e-06 -3.4935357e-07 1 0
0.30940586 0.35618654 -0.011728898 0.02094434 -0.11025994 0.99368203 0.053833023
0.32807493 0.35345572 -0.011728898 -0.035448678 -0.00097812014 0.99937105 0.21413405
0.33638668 0.3540833 -0.011728898 -0.52106035 -0.81055218 0.26739702 0.23117435
0.3544541 0.35165018 -0.015130747 -0.57987279 -0.81289655 0.05428404 0.11274986
-0.34319526 0.36082327 -0.015850708 0.58876818 -0.80428171 -0.080516368 0.11539111
-0.32737583 0.36032063 -0.011728899 0.55089706 -0.80999702 -0.20104067 0.20574252
-0.31536084 0.36428359 -0.011728898 0.56514984 -0.8205232 0.085716583 0.24658842
-0.30808744 0.36396885 -0.011728898 -0.031922627 -0.043002933 0.99856478 0.14823529
-0.29570502 0.36378884 -0.011728898 0.059557788 -0.00047821624 -0.99822474 0.035932407
-0.28751576 0.36600882 -0.011728898 6.762495e-07 2.0252223e-06 1 0
-0.26486176 0.36803958 -0.011728898 -8.9460804e-07 1.7378343e-06 1 0
-0.25041962 0.36795679 -0.011728898 -0 -0 1 0
-0.23120727 0.36929005 -0.011728898 -4.9168949e-07 2.234362e-06 1 0
-0.22511883 0.36532843 -0.011728898 -2.5670286e-07 1.9860079e-06 1 0
-0.19470018 0.36460799 -0.011728898 1.2559382e-06 1.6061505e-06 1 0
-0.15937108 0.36706153 -0.011728898 -8.0885741e-07 -1.9060163e-06 1 0
-0.14564477 0.36524266 -0.011728898 5.7993861e-07 1.998158e-06 1 0
-0.13425541 0.3676675 -0.011728898 -1.3368796e-06 4.0154277e-06 1 0
-0.12884811 0.36608025 -0.011728898 -8.3968212e-07 1.8406771e-06 1 0
-0.11627573 0.36756206 -0.011728898 -0 -0 1 0
-0.10385089 0.36627692 -0.011728898 6.1946673e-07 7.8628069e-08 1 0
-0.09175133 0.36717391 -0.011728898 4.9695717e-07 2.6274934e-06 1 0
-0.083595641 0.36866742 -0.011728898 -1.5888298e-06 4.6656355e-06 1 0
-0.072097339 0.36728406 -0.011728898 5.7579751e-07 -4.4501835e-06 1 0
-0.064505182 0.36866066 -0.011728898 -4.4073408e-07 -4.7364928e-08 1 0
-0.042935066 0.36658287 -0.011728898 5.2177336e-07 4.3382549e-08 1 0
-0.037601575 0.36378726 -0.011728898 1.9886005e-07 1.7150247e-06 1 0
-0.013252452 0.36743203 -0.011728898 5.7580404e-08 -3.574987e-09 1 0
-0.0044113644 0.36337024 -0.011728898 -0 -0 1 0
0.0045940061 0.36347067 -0.011728898 -2.4098796e-07 -2.5405734e-06 1 0
0.025723299 0.3637192 -0.011728898 1.0200177e-06 5.2351975e-06 1 0
0.034098051 0.36159557 -0.011728898 1.9278829e-07 2.2150739e-06 1 0
0.041501187 0.36168605 -0.011728898 -2.2066071e-07 2.3535058e-06 1 0
0.068337299 0.3695235 -0.011728898 -6.4295267e-07 2.3281309e-06 1 0
0.072841957 0.36471289 -0.011728898 -8.7507391e-07 2.0386394e-06 1 0
0.087242052 0.36409935 -0.011728898 -0 -0 1 0
0.097578235 0.36427319 -0.011728898 -1.1343514e-06 6.3157781e-06 1 0
0.10871307 0.36768228 -0.011728898 3.1231326e-07 -2.037058e-06 1 0
0.12255165 0.36589041 -0.011728898 -4.9401586e-07 -5.0023942e-08 1 0
0.13773268 0.36651057 -0.011728898 -1.4591983e-06 -2.3952352e-06 1 0
0.14021349 0.36093011 -0.011728898 -1.0581111e-06 3.1422129e-09 1 0
0.15759006 0.36471143 -0.011728898 -1.1410091e-06 -2.3298653e-06 1 0
0.16617148 0.3641319 -0.011728898 -3.8544954e-07 8.0578484e-06 1 0
0.17102882 0.36185914 -0.011728898 1.0703604e-06 4.7296535e-06 1 0
0.18159348 0.36920017 -0.011728898 -2.3130519e-07 2.1643132e-06 1 0
0.19284669 0.36555147 -0.011728898 -1.1137365e-06 -5.2846332e-09 1 0
0.20416574 0.36651674 -0.011728898 -0 -0 1 0
0.22687806 0.36559379 -0.011728898 5.7294005e-07 4.1422063e-06 1 0
0.23228835 0.36516052 -0.011728898 6.8039446e-07 2.1397675e-06 1 0
0.24692966 0.36444354 -0.011728898 -1.094316e-06 2.6642809e-07 1 0
0.25572002 0.36161137 -0.011728898 9.772225e-07 -4.4356486e-08 1 0
0.26124513 0.36493665 -0.011728898 -8.9594704e-07 -7.0351973e-08 1 0
0.27523685 0.36286363 -0.011728898 -4.3303312e-06 -4.7854496e-06 1 0
0.28053987 0.36324656 -0.011728898 -9.4543111e-07 -1.4731359e-07 1 0
0.30654833 0.3601056 -0.011728898 -0.012655639 -0.01773772 0.99976259 0.081526905
0.31596416 0.36941737 -0.011728898 -0.74627244 -0.40968448 -0.52462947 0.18943323
0.32130274 0.3645733 -0.011728898 -0.64970887 -0.75997895 -0.017615644 0.2308394
0.33377615 0.36564219 -0.013553533 -0.55127132 -0.83316475 0.04400447 0.15539871
0.34131029 0.36193141 -0.017906798 -0.59802747 -0.79650056 -0.089162052 0.11419958
-0.31858614 0.37957197 -0.016668487 0.66588438 -0.74567944 -0.02366719 0.084330089
-0.28463006 0.37565547 -0.011728898 -0.030386684 -0.070238397 0.99706733 0.057971761
-0.26288599 0.37593123 -0.011728898 7.5654947e-07 2.4813362e-06 1 0
-0.25182825 0.37444633 -0.011728898 -0 -0 1 0
-0.23827711 0.37423965 -0.011728898 -1.530727e-06 3.3421759e-06 1 0
-0.22002742 0.37347844 -0.011728899 1.9801616e-06 -2.3272094e-06 1 0
-0.21415663 0.37590283 -0.011728898 2.0179803e-06 -3.395036e-07 1 0
-0.20194763 0.37193382 -0.011728898 9.8917189e-07 3.1198371e-07 1 0
-0.1965598 0.37888831 -0.011728898 -1.7023908e-07 -2.1595179e-06 1 0
-0.18371187 0.37441686 -0.011728898 -1.0898004e-06 2.2716067e-07 1 0
-0.17486127 0.37073892 -0.011728898 6.7796441e-07 2.9454384e-06 1 0
-0.16920468 0.37649751 -0.011728898 -3.1845275e-07 3.1034042e-06 1 0
-0.1426111 0.37612402 -0.011728898 4.2412367e-08 2.9011808e-06 1 0
-0.13652864 0.37920794 -0.011728898 9.7051941e-07 2.3859093e-06 1 0
-0.11489969 0.37843668 -0.011728898 9.4655343e-07 2.288715e-06 1 0
-0.10952884 0.37103051 -0.011728898 -1.0199703e-06 -2.3837715e-06 1 0
-0.094214618 0.37213793 -0.011728898 -4.2209726e-07 4.0993982e-06 1 0
-0.085366823 0.37489748 -0.011728898 0 0 1 0
-0.070136972 0.37619928 -0.011728898 1.7353469e-07 -4.6375926e-06 1 0
-0.065507822 0.37866917 -0.011728898 8.9354791e-07 -5.3075387e-06 1 0
-0.052305151 0.37389573 -0.011728898 8.5638965e-07 5.0575595e-06 1 0
-0.043653592 0.37657961 -0.011728898 -2.9251348e-07 -7.1274513e-08 1 0
-0.032297425 0.37182301 -0.011728898 -9.646659e-07 -4.7774288e-06 1 0
-0.026849346 0.37674248 -0.011728898 4.3789737e-07 -2.3470338e-06 1 0
-0.011044645 0.37330639 -0.011728898 2.2372485e-07 -2.3086427e-06 1 0
-0.0090168659 0.37500551 -0.011728898 -2.1018992e-07 2.2499826e-06 1 0
0.0054608304 0.37106434 -0.011728898 4.4257027e-07 2.1137002e-06 1 0
0.027952457 0.37196621 -0.011728898 0 0 1 0
0.052639805 0.37801841 -0.011728898 -0 -0 1 0
0.066780344 0.37919319 -0.011728898 -4.2360401e-07 -1.8912802e-06 1 0
0.074451633 0.37678671 -0.011728898 -7.7338694e-07 -3.7312543e-06 1 0
0.097084828 0.37464559 -0.011728898 1.3078146e-07 3.8833255e-06 1 0
0.10758561 0.3743583 -0.011728898 2.9633708e-07 -1.9881763e-06 1 0
0.12424939 0.37661237 -0.011728898 -6.1198489e-07 3.4417051e-06 1 0
0.13534988 0.37449181 -0.011728898 -1.0696468e-06 -2.1767607e-06 1 0
0.14746317 0.37384152 -0.011728898 -3.0885656e-07 -2.5280929e-06 1 0
0.15093246 0.37867582 -0.011728898 2.2377618e-07 -2.2039369e-06 1 0
0.16411896 0.37517494 -0.011728898 -2.3889589e-07 2.1631172e-06 1 0
0.17726064 0.37688768 -0.011728898 -0 -0 1 0
0.1950357 0.37658277 -0.011728898 -1.2321285e-06 -6.9952875e-08 1 0
0.2072899 0.37807512 -0.011728898 -0 -0 1 0
0.21022138 0.37822771 -0.011728898 -3.3620276e-07 -2.1363196e-06 1 0
0.22156267 0.3739152 -0.011728898 8.7824674e-07 7.184974e-08 1 0
0.23491697 0.37699446 -0.011728898 6.439372e-07 -5.2390033e-06 1 0
0.24301347 0.37448075 -0.011728898 -3.7971131e-06 -2.4059043e-06 1 0
0.25191608 0.37595448 -0.011728898 1.1369546e-06 -1.5072709e-07 1 0
0.26465151 0.37528571 -0.011728898 -1.0836396e-06 1.6799312e-10 1 0
0.28559089 0.37518829 -0.011728898 -0.10318988 -0.063496731 0.99263293 0.080193028
0.30104291 0.37516475 -0.011728898 -0.058407594 -0.11795311 0.99129993 0.14295046
0.31891343 0.37990379 -0.010332659 -0.69553143 -0.71809226 -0.024073543 0.11106123
0.32386401 0.3760637 -0.01337678 -0.62172294 -0.78308386 -0.015500651 0.10618038
-0.3122271 0.38469803 -0.015169823 0.58956695 -0.80764586 -0.010909967 0.12390302
-0.29963002 0.38210109 -0.011728898 0.58854759 -0.80326694 -0.091509052 0.20298545
-0.28514081 0.38744777 -0.011728898 0.10789436 -0.19827387 0.97419006 0.23250316
-0.27146673 0.38779598 -0.011728898 0.070741497 -0.044583492 0.99649781 0.094490275
-0.26963127 0.38406175 -0.011728898 0.040789541 0.01676419 0.99902713 0.017067704
-0.24610978 0.38252342 -0.011728898 1.1692655e-07 1.9289739e-06 1 0
-0.23382559 0.38456675 -0.011728898 -2.4970079e-06 -2.2023174e-07 1 0
-0.22366445 0.3843213 -0.011728898 1.1441491e-06 -2.7715788e-07 1 0
-0.2165575 0.38471085 -0.011728898 1.9438548e-06 -2.5100502e-07 1 0
-0.20373681 0.38570043 -0.011728899 -1.2459567e-07 2.2292854e-06 1 0
-0.18864684 0.38235962 -0.011728898 -7.9081661e-07 -2.0172729e-06 1 0
-0.16312633 0.38903347 -0.011728898 7.9803021e-07 9.6457988e-08 1 0
-0.15616538 0.38461316 -0.011728898 2.4162364e-07 -5.2646137e-06 1 0
-0.14578435 0.38820115 -0.011728898 1.3312496e-06 2.1385815e-06 1 0
-0.13065794 0.38410452 -0.011728898 9.0555551e-07 2.2986565e-06 1 0
-0.12773363 0.38369212 -0.011728898 -6.6374589e-08 2.4767103e-06 1 0
-0.11293745 0.3854562 -0.011728898 0 0 1 0
-0.10554145 0.38694304 -0.011728898 4.9603904e-07 -2.3077957e-06 1 0
-0.097108185 0.38547474 -0.011728898 -5.0852077e-07 5.4601446e-06 1 0
-0.070143424 0.389714 -0.011728898 8.2875954e-07 -2.4381022e-06 1 0
-0.036136057 0.38789394 -0.011728898 5.8202744e-07 4.2854258e-06 1 0
-0.029932067 0.38811642 -0.011728898 -0 -0 1 0
-0.0014222511 0.38554126 -0.011728898 -3.2606908e-07 1.7765834e-06 1 0
0.0060108933 0.38628039 -0.011728898 -1.2481877e-07 3.2390005e-06 1 0
0.014807197 0.38283336 -0.011728898 0 0 1 0
0.027775351 0.38642478 -0.011728898 -1.5702815e-07 -9.7226005e-09 1 0
0.063555807 0.38290963 -0.011728898 4.1283423e-07 -2.0499376e-06 1 0
0.073168017 0.38610372 -0.011728898 0 0 1 0
0.10637715 0.3838869 -0.011728898 -1.4193779e-06 -2.5083118e-06 1 0
0.11820338 0.38443437 -0.011728898 -1.6539152e-06 -2.2784652e-06 1 0
0.13474229 0.38073516 -0.011728898 4.3363326e-07 -7.6140545e-08 1 0
0.14514866 0.38946697 -0.011728898 -3.9202941e-06 5.395621e-06 1 0
0.15661934 0.38883692 -0.011728898 -1.8796785e-06 -2.3320192e-06 1 0
0.16467057 0.38547817 -0.011728898 -0 -0 1 0
0.17309886 0.38507575 -0.011728898 8.5626658e-07 -5.5451306e-08 1 0
0.18729328 0.38641614 -0.011728898 2.3417867e-06 2.1432247e-07 1 1.0123972e-07
0.19953968 0.38573134 -0.011728898 -1.7128458e-06 -5.080954e-06 1 0
0.20457751 0.38295192 -0.011728898 0 0 1 0
0.22405542 0.38479555 -0.011728898 -2.0660591e-06 -6.0115894e-06 1 0
0.24445204 0.38665706 -0.011728898 2.4935453e-06 -2.9678695e-08 1 0
0.2559877 0.38325053 -0.011728898 0 0 1 0
0.26231754 0.38222218 -0.011728898 1.140592e-06 4.4413632e-06 1 0
0.27498111 0.38334474 -0.011728898 -0.050984118 -0.046660144 0.9976089 0.062663861
0.28403845 0.38729334 -0.011728898 -0.11341911 -0.12612444 0.9855094 0.11654603
0.30659717 0.38957074 -0.011647565 -0.66242248 -0.74325776 0.093617767 0.10519903
0.31610441 0.38225558 -0.0116972 -0.71716487 -0.69520193 0.048669599 0.11630362
-0.30334949 0.39149985 -0.015232071 0.62874323 -0.7768473 -0.034500871 0.10630557
-0.29544258 0.39798385 -0.012233431 0.51522774 -0.85637653 0.034053225 0.11639734
-0.2846334 0.39220828 -0.011728898 0.38585889 -0.90382904 0.18494852 0.25124151
-0.27765775 0.39790776 -0.011728898 -0.1065549 -0.14584848 0.98355186 0.23064737
-0.2640993 0.39164162 -0.011728898 0.13567366 -0.019811163 0.99055552 0.098513953
-0.25585482 0.39295951 -0.011728898 -0.010299696 0.010584451 0.99989092 0.017128363
-0.22240615 0.39064556 -0.011728898 2.8301793e-06 3.4630079e-06 1 0
-0.21388149 0.39486736 -0.011728898 1.1883279e-06 -1.7302319e-06 1 0
-0.1920785 0.39351666 -0.011728898 9.3991849e-07 1.2410054e-07 1 0
-0.17607079 0.39801085 -0.011728898 1.3405004e-06 -3.881863e-06 1 0
-0.16324537 0.39790478 -0.011728898 4.9237747e-07 -6.6669614e-08 1 0
-0.15466991 0.39482826 -0.011728898 4.9765464e-07 2.1372182e-08 1 0
-0.14471647 0.39722335 -0.011728898 -1.1626498e-06 -6.6302109e-06 1 0
-0.1335156 0.39072055 -0.011728898 -9.4034539e-07 -2.5977924e-06 1 0
-0.12634391 0.39604673 -0.011728898 1.1604449e-06 -2.4017743e-06 1 0
-0.10769697 0.39789802 -0.011728898 1.5534741e-06 -4.9959108e-06 1 0
-0.09868072 0.39188987 -0.011728898 1.2707622e-07 2.1296933e-06 1 0
-0.084181145 0.39395934 -0.011728898 2.3693033e-07 2.2637598e-06 1 0
-0.071001478 0.39467692 -0.011728898 3.4117269e-07 -4.1998064e-06 1 0
-0.06709069 0.3978951 -0.011728898 3.6915395e-07 -2.0701739e-06 1 0
-0.057130378 0.39617792 -0.011728898 6.7468414e-07 -4.1771164e-06 1 0
-0.046655647 0.39493847 -0.011728898 1.8458503e-07 3.5322323e-06 1 0
-0.038881436 0.39091483 -0.011728898 7.0138452e-07 2.2204711e-06 1 0
-0.013379657 0.39534619 -0.011728898 -7.0702725e-07 2.9025264e-06 1 0
-0.0011712839 0.3978245 -0.011728898 3.0398354e-07 -1.8618663e-06 1 0
0.011097714 0.39244488 -0.011728898 -7.3091257e-07 4.2207198e-06 1 0
0.023874199 0.39948019 -0.011728898 -2.4332718e-07 5.302938e-06 1 0
0.034778807 0.39453253 -0.011728898 1.6266829e-07 -4.4571809e-08 1 0
0.043793261 0.3955065 -0.011728898 -5.2443477e-07 -2.5593017e-06 1 0
0.076358676 0.39435992 -0.011728898 3.3039572e-07 1.689769e-06 1 0
0.084165983 0.39589643 -0.011728898 4.9333647e-07 -2.3477271e-06 1 0
0.096986808 0.39354411 -0.011728898 -2.7879332e-07 -2.0450764e-06 1 0
0.10070322 0.39623982 -0.011728898 -6.1577799e-07 -4.1861135e-06 1 0
0.11464602 0.39554688 -0.011728898 -1.9343683e-07 -1.5216348e-06 1 0
0.14628252 0.3962585 -0.011728898 -1.3993499e-06 -2.3524385e-06 1 0
0.15385939 0.39620942 -0.011728898 -7.0081063e-07 1.0047416e-07 1 0
0.16324127 0.39455286 -0.011728898 4.8092608e-07 -2.9280015e-06 1 0
0.17523503 0.39886975 -0.011728898 1.9178303e-06 1.4294389e-07 1 0
0.18748818 0.39470771 -0.011728898 -7.9481612e-07 3.6406429e-06 1 0
0.19011274 0.39859241 -0.011728898 1.9853373e-06 5.8124283e-06 1 1.2216013e-07
0.20573831 0.39071646 -0.011728898 -3.7766383e-06 2.3929724e-07 1 0
0.21111529 0.39984888 -0.011728898 1.7149562e-06 1.738384e-06 1 1.7992143e-07
0.2294735 0.39750901 -0.011728898 1.0757857e-06 -2.671797e-07 1 0
0.23576222 0.39351138 -0.011728898 -1.0521899e-06 -1.8747733e-06 1 0
0.24814513 0.3962878 -0.011728898 0.0011580836 0.0015619134 0.99999815 1.0399952e-05
0.25705335 0.39592865 -0.011728898 -0.029447962 -0.031570323 -0.9990676 0.040387936
0.26804179 0.39439771 -0.011728898 -0.10315759 -0.070460871 0.99216622 0.096900381
0.27669376 0.39301094 -0.011728898 -0.1134888 -0.043321922 0.99259436 0.12372126
0.28526565 0.39564314 -0.011728898 -0.18375251 -0.083974242 0.97937912 0.15479091
0.2977227 0.39587215 -0.014899149 -0.4640536 -0.88107693 0.091420464 0.14923073
0.30209959 0.39225635 -0.016463084 -0.51506406 -0.8565259 0.032747354 0.10213015
-0.2849943 0.40548456 -0.015838083 0.61801225 -0.78575498 -0.025494205 0.13965157
-0.27882162 0.40991563 -0.017694127 0.64091551 -0.76103526 -0.10026331 0.15312533
-0.26503316 0.40527275 -0.011728899 0.36203453 -0.21660803 0.90664876 0.19956304
-0.25258917 0.40518278 -0.011728898 -0.078380086 -0.11958133 -0.98972565 0.20859681
-0.24788624 0.40799075 -0.011728898 -0.10321101 -0.13631018 -0.98527503 0.19871797
-0.22706774 0.40483946 -0.011728898 -9.4286492e-07 -2.2355603e-06 1 0
-0.21778031 0.40949532 -0.011728898 1.1729887e-06 2.6147258e-09 1 0
-0.20561522 0.40495723 -0.011728898 -2.1340686e-06 3.4829014e-08 1 0
-0.19387569 0.40417692 -0.011728898 1.2729273e-06 -9.0187157e-08 1 0
-0.18472531 0.40278709 -0.011728898 2.1427287e-07 2.1412538e-06 1 0
-0.17651659 0.40785757 -0.011728898 -0 -0 1 0
-0.15638922 0.4073343 -0.011728898 1.2930362e-06 2.1599591e-07 1 0
-0.14943001 0.40875143 -0.011728898 1.5618654e-07 2.2720842e-06 1 0
-0.13874985 0.40816295 -0.011728898 2.0694617e-06 1.4449448e-07 1 0
-0.12791017 0.40557617 -0.011728898 3.0537004e-07 2.7642845e-06 1 0
-0.10539512 0.40472707 -0.011728898 -7.3752022e-07 -4.2342767e-06 1 0
-0.097076379 0.40002531 -0.011728898 1.4016864e-06 1.2319136e-07 1 0
-0.073347636 0.40835324 -0.011728898 -4.3327081e-08 -2.373667e-06 1 0
-0.060722537 0.40283459 -0.011728898 3.7139114e-07 -5.8742103e-08 1 0
-0.054625519 0.40054637 -0.011728898 9.2882566e-08 -1.9181657e-06 1 0
-0.041866347 0.40732577 -0.011728898 -1.8583516e-07 2.4745443e-06 1 0
-0.024897456 0.40388927 -0.011728898 1.0592343e-07 2.1205085e-06 1 0
-0.012900887 0.40664721 -0.011728898 2.0979041e-07 2.0364525e-06 1 0
-0.003569481 0.40834481 -0.011728898 -0 -0 1 0
0.0028434373 0.40594488 -0.011728898 -4.0387985e-07 -8.3744735e-06 1 0
0.018219154 0.40594864 -0.011728898 1.3531277e-07 9.8358761e-09 1 0
0.022086598 0.40387326 -0.011728898 -3.2128568e-07 8.9187906e-06 1 0
0.036328495 0.40198648 -0.011728898 -1.2113317e-07 -2.78364e-09 1 0
0.05165508 0.40731934 -0.011728898 -5.7483149e-08 -2.6359194e-06 1 0
0.063721269 0.40486825 -0.011728898 -4.9538977e-07 -4.0648576e-08 1 0
0.078024112 0.40515497 -0.011728898 -6.5048448e-07 1.9850331e-06 1 0
0.08637803 0.40691698 -0.011728898 -1.2595448e-06 1.0433198e-08 1 0
0.09084785 0.40023172 -0.011728898 -5.6484805e-07 2.7582345e-08 1 0
0.10516664 0.40370163 -0.011728898 0 0 1 0
0.13317472 0.40558293 -0.011728898 4.6302992e-07 1.1016776e-07 1 0
0.14647985 0.40530911 -0.011728898 -1.3467582e-06 -2.0732002e-06 1 0
0.15430118 0.40307951 -0.011728898 8.7721571e-07 -4.5024299e-06 1 0
0.17665523 0.40429962 -0.011728898 -7.2906676e-07 -1.8809412e-06 1 0
0.18258381 0.4091115 -0.011728898 -1.0910833e-07 1.8122129e-06 1 0
0.19581671 0.40296984 -0.011728898 1.0439501e-06 3.8437676e-08 1 1.2736399e-07
0.21839915 0.40700564 -0.011728898 -4.3998082e-08 5.908706e-06 1 0
0.22512744 0.40620288 -0.011728898 2.1744809e-06 -2.6862042e-06 1 0
0.23407717 0.40704927 -0.011728898 -0.0097549111 -0.0053825011 0.99993789 0.0013345623
0.245727 0.40833312 -0.011728898 -0.10972558 -0.082834236 -0.99050432 0.13446081
0.25618464 0.40869299 -0.011728898 -0.168718 -0.097812124 -0.9807992 0.18207367
0.2653687 0.40118957 -0.011728897 0.16662265 -0.21523391 -0.96224278 0.1441758
0.28555948 0.40516084 -0.014570972 -0.48959774 -0.83768785 0.2420188 0.13181075
0.29099616 0.4004952 -0.018171828 -0.50375187 -0.85910159 0.090435319 0.16833951
-0.27529991 0.41350478 -0.012304086 0.71191883 -0.67673409 0.18762319 0.17962089
-0.25791529 0.41096085 -0.011728898 0.73297596 -0.6781038 0.054050814 0.21026999
-0.2419163 0.41080087 -0.011728898 -0.054716408 -0.033062093 0.99795437 0.10916185
-0.23656906 0.4131605 -0.011728898 -0.052371703 -0.1414057 0.98856539 0.094582446
-0.22345684 0.41641235 -0.011728898 0.080484807 -0.053818814 0.99530184 0.047515608
-0.21361831 0.41417277 -0.011728898 1.7769986e-06 1.4058533e-07 1 0
-0.20888498 0.41392863 -0.011728898 1.0935834e-06 2.6049881e-06 1 0
-0.19560854 0.41844442 -0.011728898 -0.0042232312 0.016557567 0.99985391 0.00090536167
-0.18528228 0.41025972 -0.011728898 1.0005631e-07 2.4906099e-06 1 0
-0.1586441 0.41893375 -0.011728898 -3.4808451e-07 -5.8858918e-06 1 0
-0.13489178 0.41369992 -0.011728898 0 0 1 0
-0.11645062 0.41996047 -0.011728898 -9.0389712e-08 -3.3604729e-06 1 0
-0.10751222 0.41606998 -0.011728897 -4.2541734e-07 -1.4576963e-06 1 0
-0.088757776 0.4166002 -0.011728898 5.0267067e-07 1.5915084e-06 1 0
-0.061958633 0.41314816 -0.011728898 6.1726729e-07 -1.0232561e-07 1 0
-0.054344129 0.4139297 -0.011728898 1.3188056e-06 -4.2638976e-06 1 0
-0.043740399 0.41438437 -0.011728898 -8.511509e-08 1.7943083e-06 1 0
-0.0016349388 0.41043836 -0.011728899 1.9442753e-08 4.074308e-09 1 0
0.0093478383 0.41101694 -0.011728898 6.2087835e-08 2.105591e-06 1 0
0.011295049 0.41598323 -0.011728898 -5.1631184e-07 -2.5480717e-06 1 0
0.023805959 0.41446173 -0.011728898 -3.3376952e-07 -3.2584524e-06 1 0
0.030795854 0.41231307 -0.011728898 9.3825258e-07 -6.1784563e-06 1 0
0.043546237 0.41497758 -0.011728898 2.3080734e-07 -2.6557234e-06 1 0
0.050140169 0.41898021 -0.011728898 -2.8674503e-07 2.1172482e-08 1 0
0.0653565 0.41824123 -0.011728898 -5.5710325e-07 -2.5883778e-06 1 0
0.083162852 0.41415215 -0.011728898 -0 -0 1 0
0.09599214 0.41345853 -0.011728898 1.5966144e-07 2.6844568e-06 1 0
0.11353181 0.41772354 -0.011728898 7.9466332e-07 -3.1590503e-07 1 0
0.12432052 0.41534412 -0.011728898 -3.5004035e-07 -2.2105451e-06 1 0
0.15220228 0.41112584 -0.011728898 -0 -0 1 0
0.17858592 0.41505107 -0.011728898 3.9418451e-06 4.1524922e-06 1 0
0.18809533 0.41374588 -0.011728898 -2.5260252e-07 -6.5592008e-06 1 0
0.19685456 0.41989195 -0.011728898 2.1307703e-06 2.4173141e-06 1 0
0.20507698 0.41799936 -0.011728898 2.1835026e-06 -1.3292036e-07 1 0
0.21525089 0.41437975 -0.011728898 0.0046018176 0.0095527628 0.99994379 0.00028049812
0.22204036 0.41354123 -0.011728898 0.0013798991 0.0013234722 0.99999815 0.00046416436
0.23757991 0.41381317 -0.011728898 0.047276165 -0.027659316 0.99849886 0.1017301
0.24364296 0.41087729 -0.011728898 -0.057544298 -0.13948907 -0.98855019 0.13501988
0.25519261 0.4130995 -0.011728898 -0.36698145 -0.1473425 -0.91848511 0.23863664
0.2640903 0.41527262 -0.012085134 -0.51584363 -0.85421592 -0.064965136 0.16870491
-0.25547478 0.42827299 -0.015003673 0.54497087 -0.83820683 -0.020395763 0.10193846
-0.24265864 0.42166314 -0.011728898 0.30118963 -0.91901636 0.25434968 0.20896849
-0.23851945 0.42537338 -0.011728898 0.30073676 -0.93805146 0.17209554 0.23335992
-0.22079727 0.42990392 -0.011728898 0.39298424 -0.14739676 0.907655 0.22248696
-0.21657701 0.42019755 -0.011728898 0.015006579 0.0023157983 0.99988472 0.029231697
-0.20312232 0.42027712 -0.011728898 0.012457893 -0.049197841 -0.99871135 0.0029984706
-0.19767135 0.42520198 -0.011728898 0.020497011 0.0080495412 0.99975753 0.045393646
-0.18205397 0.42249811 -0.011728898 2.7524832e-06 -4.7893946e-06 1 0
-0.17444414 0.42037779 -0.011728898 9.9200952e-07 7.2731858e-08 1 0
-0.15438002 0.42737144 -0.011728898 1.0389721e-06 -2.1373064e-06 1 0
-0.12379324 0.42513356 -0.011728898 0 0 1 0
-0.10624752 0.42941511 -0.011728898 -9.7669295e-07 -2.6058942e-06 1 0
-0.064951457 0.42826459 -0.011728898 3.4536075e-07 2.081156e-06 1 0
-0.058117434 0.42209333 -0.011728898 4.766917e-07 3.2499994e-08 1 0
-0.044700019 0.42236376 -0.011728898 3.1536649e-07 -3.4816384e-08 1 0
-0.036871649 0.42304644 -0.011728898 8.9831268e-08 2.4981493e-06 1 0
-0.027296759 0.42381862 -0.011728898 -7.6771279e-08 -2.3012949e-06 1 0
-0.015813392 0.42895049 -0.011728898 -3.8293922e-07 -4.4158655e-06 1 0
-0.0029592321 0.42650831 -0.011728898 -8.2945979e-07 -2.3791483e-06 1 0
0.0024100496 0.42650849 -0.011728898 6.6244371e-07 4.0949776e-06 1 0
0.014216652 0.42329818 -0.011728898 8.74319e-08 1.2463881e-08 1 0
0.028865347 0.42757648 -0.011728898 -1.3549671e-07 -5.069289e-09 1 0
0.053294383 0.42752814 -0.011728898 -3.6802401e-08 2.2914394e-06 1 0
0.061321463 0.42370856 -0.011728898 -5.3188592e-07 -3.1517134e-06 1 0
0.074997433 0.42350549 -0.011728898 1.2155057e-07 2.1428609e-06 1 0
0.084177412 0.42732587 -0.011728898 1.4936668e-06 -1.0806271e-07 1 0
0.10811223 0.42438892 -0.011728898 7.9170917e-07 -1.956719e-06 1 0
0.11892749 0.42202866 -0.011728898 6.8408849e-07 -1.6415017e-07 1 0
0.12570468 0.42685735 -0.011728898 -9.9493798e-07 -2.6065161e-06 1 0
0.14491919 0.4260228 -0.011728898 1.0358161e-06 2.1741225e-06 1 0
0.16460685 0.42585215 -0.011728898 0 0 1 0
0.17455935 0.42162895 -0.011728898 -2.7035322e-08 3.687052e-06 1 0
0.18507729 0.42492622 -0.011728898 2.9426251e-06 5.126512e-06 1 0
0.19744626 0.42420262 -0.011728898 -0.0038051787 -0.0085289814 0.99995643 0.0011983558
0.21476005 0.42603081 -0.011728898 -0.020032406 -0.11409003 -0.99326837 0.064161047
0.22389004 0.4261815 -0.011728898 -0.13936679 0.060238935 0.98840684 0.20467679
0.23729345 0.42433336 -0.011728897 0.080394134 -0.28305107 0.95572954 0.20228815
0.24408866 0.4227528 -0.011728898 -0.19370776 -0.52747935 0.82718968 0.25101119
0.25702304 0.4271574 -0.014563236 -0.5849669 -0.81011701 -0.039040305 0.12636442
0.26329494 0.4221403 -0.015806125 -0.59907573 -0.78498471 -0.15782052 0.14544886
-0.25264382 0.43022925 -0.016316349 0.5835588 -0.81083864 -0.044719353 0.10870894
-0.23569815 0.4382107 -0.015819592 0.43243644 -0.9012177 -0.028378036 0.13307901
-0.21765848 0.43689454 -0.011728898 0.50610024 -0.83481175 0.2166836 0.2620016
-0.19415022 0.43390954 -0.011728898 0.055627923 -0.020300988 0.99824524 0.12426925
-0.18061447 0.43895403 -0.011728898 -0.014712215 0.0077793058 0.99986154 0.11058327
-0.17418951 0.43108815 -0.011728898 0.0013657163 -0.0039020325 0.99999148 3.3040491e-05
-0.16893631 0.43812266 -0.011728898 0.025095945 -0.016183376 0.9995541 0.059739485
-0.15288019 0.43351075 -0.011728898 8.5841765e-07 1.9609563e-06 1 0
-0.14425623 0.43298352 -0.011728898 1.3817979e-06 -1.9420281e-06 1 0
-0.13866426 0.43933851 -0.011728898 0 0 1 0
-0.11488055 0.4359464 -0.011728898 -4.2813204e-07 -2.9514647e-06 1 0
-0.10876263 0.43672502 -0.011728898 8.0098505e-07 2.0621651e-07 1 0
-0.092642985 0.43978959 -0.011728898 4.0940444e-07 -3.5934709e-06 1 0
-0.089990653 0.43983728 -0.011728898 5.9191711e-07 -3.5844312e-06 1 0
-0.07794144 0.43355441 -0.011728898 -0 -0 1 0
