# .PCD v0.7 - Point Cloud Data file format
VERSION 0.7
FIELDS x y z normal_x normal_y normal_z curvature
SIZE 4 4 4 4 4 4 4
TYPE F F F F F F F
COUNT 1 1 1 1 1 1 1
WIDTH 575
HEIGHT 1
VIEWPOINT 0 0 0 1 0 0 0
POINTS 575
DATA ascii
0.24531028 0.28594285 -0.15025435 -0.14513661 -0.16404894 0.97571683 0.0019818407
-0.22905265 0.29457709 -0.15065897 0.11415666 -0.14277951 0.98314911 0.0010830981
-0.21353473 0.29505518 -0.15186299 0.094612457 -0.11857922 0.98842669 0.00063066528
-0.2062861 0.29414818 -0.1525445 0.061683238 -0.081813544 0.99473697 0.0010853196
-0.19013667 0.29503405 -0.15375663 0.045859467 -0.050087523 0.99769139 0.0014709894
-0.18558997 0.29482824 -0.15414587 0.019455558 -0.034685709 0.99920887 0.0018913175
-0.17461209 0.29677987 -0.15449056 -0.012429434 -0.012410331 0.9998458 0.0024960958
-0.16688494 0.29520062 -0.15399919 -0.014448951 0.015250883 0.99977928 0.0026360694
-0.15129507 0.29289389 -0.15292399 -0.036457855 0.093446895 0.99495655 0.00068276707
-0.1418867 0.29103801 -0.15221822 -0.05188353 0.1352063 0.98945808 0.00050522276
-0.12644228 0.29525021 -0.15195015 -0.05539168 0.1378864 0.98889786 0.0005504521
-0.11859062 0.29341704 -0.15132627 -0.056717906 0.16869894 0.98403442 0.0010715461
-0.10394478 0.29377308 -0.15062571 -0.073481113 0.20354787 0.97630364 0.0023989901
-0.089187168 0.29805639 -0.15040126 -0.073834389 0.20574538 0.97581625 0.0019766281
0.092278786 0.29595542 -0.15030062 0.070125423 0.21457404 0.97418702 0.0023737024
0.10568047 0.29717287 -0.15113099 0.064580768 0.15577307 0.98567951 0.00097029237
0.11428829 0.29687038 -0.15153129 0.058235656 0.13806568 0.98870945 0.00088155933
0.1297027 0.29209313 -0.15172851 0.055287071 0.14582442 0.98776448 0.0007907204
0.13373367 0.29695004 -0.15252921 0.049418021 0.10421392 0.99332643 0.00117212
0.14600107 0.29484847 -0.15289477 0.03836932 0.090070769 0.99519604 0.0010324268
0.15745291 0.29944497 -0.1540406 0.016483298 0.034695581 0.99926198 0.0020996698
0.16765188 0.29206595 -0.15365361 0.013780143 0.041627694 0.99903822 0.0020422577
0.17262217 0.29414976 -0.15424572 0.0080010872 0.014470519 0.99986333 0.002292318
0.18558545 0.29279351 -0.15436059 -0.013045802 -0.0046473807 0.99990416 0.0016713218
0.19567353 0.29397959 -0.15342015 -0.033488791 -0.045698155 0.99839377 0.001603037
0.2115646 0.29633856 -0.15188706 -0.085428089 -0.1176503 0.98937374 0.00051049649
0.22731137 0.29606521 -0.15064295 -0.11072072 -0.16306347 0.98038322 0.0014347283
0.23358767 0.29423618 -0.15032828 -0.12387232 -0.1798754 0.97585887 0.0023384397
-0.21340722 0.30483964 -0.15084255 0.10223977 -0.13071603 0.98613399 0.00088895322
-0.20132692 0.30444503 -0.15186064 0.078509703 -0.10065442 0.99181902 0.00033716045
-0.18426828 0.30482113 -0.15319999 0.053919222 -0.073268831 0.99585366 0.0011843953
-0.17454763 0.30375066 -0.15404427 0.018210346 -0.030990757 0.99935377 0.0024481171
-0.16516195 0.30445769 -0.15445305 -0.0022771296 -0.010085915 0.99994653 0.0023732486
-0.1539596 0.30421656 -0.1543037 -0.0029853731 0.021345776 0.99976772 0.0023681079
-0.14442861 0.30436367 -0.15398218 -0.01638368 0.046303019 0.99879307 0.0018421855
-0.1346055 0.30462891 -0.15351555 -0.019991012 0.051885884 0.9984529 0.002037426
-0.12623183 0.30807611 -0.15351294 -0.027730558 0.063127354 0.99762017 0.0015223406
-0.11509679 0.30322385 -0.15235183 -0.051601157 0.10527443 0.9931035 0.00045058053
-0.10607858 0.30703372 -0.15236098 -0.04707808 0.10793476 0.99304259 0.00045669961
-0.094961315 0.30446827 -0.1514813 -0.058031924 0.1512896 0.98678452 0.0013071017
-0.085021436 0.30657965 -0.15124278 -0.044284336 0.14728692 0.98810196 0.00095333654
-0.073698014 0.30396867 -0.150599 -0.041127708 0.20096777 0.97873414 0.0027724113
-0.067435682 0.30806249 -0.15102941 -0.027271578 0.1733541 0.98448199 0.0015162895
-0.05698587 0.30241984 -0.15010543 -0.0303909 0.23960336 0.97039503 0.0024087941
-0.045692533 0.30604666 -0.15038715 -0.033064935 0.20111173 0.97901011 0.0020464426
-0.036434144 0.30914545 -0.15063465 -0.024785133 0.19373202 0.98074132 0.0018467442
-0.027798915 0.30776405 -0.15030313 -0.033885062 0.2129491 0.97647554 0.0023967642
-0.010793012 0.30945131 -0.1502305 -0.020606253 0.24568002 0.96913195 0.0027513369
0.037881646 0.30746073 -0.15043795 0.022518691 0.21047151 0.97734058 0.0020052111
0.041976273 0.30543208 -0.15024184 0.041164119 0.21797207 0.97508651 0.0027192736
0.058310583 0.30413297 -0.15035394 0.023404164 0.22606659 0.97383064 0.0018779882
0.065752961 0.30557311 -0.15067251 0.028516639 0.19932167 0.97951907 0.0022870209
0.077332541 0.30595094 -0.15092295 0.049337804 0.18398413 0.98169023 0.0022055628
0.082176685 0.30411297 -0.15078804 0.054928765 0.18972836 0.98029894 0.0023994304
0.095039949 0.30503467 -0.15155478 0.048603941 0.15280972 0.98705971 0.0014249941
0.10112308 0.30417547 -0.15175849 0.058102403 0.15215638 0.98664707 0.0010862782
0.11480282 0.30375329 -0.15240183 0.043001737 0.11098 0.99289191 0.00061920274
0.12696037 0.30772042 -0.15350634 0.026212484 0.065067917 0.99753648 0.0019858298
0.14347944 0.30834156 -0.15442197 0.009453807 0.01615059 0.99982488 0.0025084165
0.15171276 0.30702865 -0.15459517 0.00064662943 0.0020628467 0.99999762 0.0024851048
0.16695273 0.30624485 -0.15415378 -0.015318808 -0.033534344 0.99932015 0.0019627598
0.17371716 0.30907279 -0.15346311 -0.023916535 -0.054733414 0.99821454 0.0015764071
0.18609132 0.30290043 -0.15325496 -0.032516975 -0.048723374 0.99828285 0.0011988789
0.19270785 0.30674374 -0.1523152 -0.069240853 -0.0997563 0.99259979 0.00085450575
0.2044486 0.30523676 -0.1515249 -0.10334297 -0.13722712 0.98513407 0.00085507362
0.22246523 0.3027004 -0.15033568 -0.11952256 -0.17448695 0.97737837 0.0022371321
-0.20511627 0.31833553 -0.15009098 0.12938333 -0.17054148 0.97681904 0.001960777
-0.19956505 0.31385207 -0.15101205 0.11178799 -0.14072801 0.98371696 0.001170166
-0.18619716 0.3171891 -0.15174112 0.071112603 -0.12609424 0.98946613 0.00082456059
-0.17896023 0.31635314 -0.15230352 0.058395676 -0.10757446 0.99248058 0.00023240194
-0.1649217 0.31436545 -0.15326075 0.035911735 -0.088558853 0.99542338 0.00091694563
-0.14805552 0.31160241 -0.15445679 -0.0024541565 -0.012133292 0.99992341 0.0027873649
-0.12999335 0.31702584 -0.15470928 0.0078335041 -0.010761878 0.99991137 0.002483363
-0.11283612 0.31526718 -0.15371443 -0.017724223 0.06601356 0.99766129 0.0015387372
-0.10464323 0.31130031 -0.15281144 -0.032796171 0.096598476 0.99478298 0.0010169062
-0.099492915 0.3116492 -0.15259254 -0.035328634 0.10446599 0.99390078 0.0006925065
-0.084501691 0.31894076 -0.15275736 -0.023009086 0.089490697 0.99572194 0.0012749652
-0.076555714 0.3136335 -0.15192093 -0.032011624 0.13031675 0.99095553 0.00033589336
-0.064578325 0.31421337 -0.15178967 -0.018375691 0.13777046 0.99029368 0.00024253249
-0.053398788 0.31634992 -0.15187718 -0.012554219 0.13373344 0.99093783 0.00037293529
-0.044074409 0.31697205 -0.15179746 -0.0098501276 0.12075131 0.99263394 0.00051828555
-0.035162635 0.31067532 -0.15081403 -0.026386078 0.19099669 0.98123592 0.0019028207
-0.024142984 0.31157252 -0.15074116 -0.025682321 0.16610326 0.98577386 0.00076751428
-0.01545157 0.31735387 -0.15135163 -0.016404424 0.1542654 0.98789328 0.00089461415
-0.0077803074 0.3154138 -0.15096328 -0.012941907 0.16335148 0.98648298 0.0009486638
0.0090079103 0.31497657 -0.15092698 0.017885406 0.16453806 0.9862085 0.00096859079
0.012430886 0.31887352 -0.15149935 0.0153306 0.15847422 0.98724413 0.0009613412
0.021304641 0.31462631 -0.15109399 0.02413439 0.16423613 0.98612577 0.00076630409
0.036044568 0.31212068 -0.15101959 0.014901368 0.18977562 0.98171437 0.0016762707
0.043254808 0.31434053 -0.15143681 0.021322494 0.16725664 0.98568285 0.00083291536
0.055261612 0.31579587 -0.15183651 0.021789463 0.14245215 0.98956186 0.00085085892
0.067822933 0.31452209 -0.15188655 0.018264722 0.14530599 0.98921812 0.0012528122
0.070702091 0.31464273 -0.15195233 0.026741439 0.14189756 0.98952007 0.001316478
0.081954636 0.31296325 -0.15194836 0.034304801 0.12822442 0.99115175 0.00089554326
0.1041276 0.31241691 -0.15292223 0.044241771 0.1014794 0.99385339 0.0004065964
0.11274407 0.31506845 -0.15368539 0.015067544 0.057380136 0.99823868 0.0021789072
0.12536521 0.31217653 -0.15397194 0.030313333 0.050652802 0.99825621 0.0022028352
0.13528682 0.3155286 -0.15457292 -0.0061910292 -0.017083725 0.99983484 0.0025573156
0.14411813 0.31438696 -0.15431526 -0.0050107567 -0.023106929 0.99972051 0.0021299843
0.16721754 0.31457424 -0.15311848 -0.033423334 -0.076996624 0.99647099 0.00084389676
0.17402989 0.31341198 -0.15291488 -0.050460082 -0.093956351 0.99429673 0.00049106427
0.18486232 0.3117632 -0.15242064 -0.062956639 -0.095210195 0.99346435 0.00075528526
0.19014737 0.31253213 -0.15191239 -0.081080921 -0.11657114 0.98986721 0.00081093423
-0.18097606 0.32410985 -0.15124948 0.078655362 -0.14759578 0.98591524 0.0010760608
-0.17766716 0.32240105 -0.15162727 0.065291025 -0.12609738 0.98986691 0.00081921852
-0.1663027 0.32354489 -0.15206443 0.046405762 -0.11573545 0.99219543 0.00044914964
-0.15392876 0.32486868 -0.15253083 0.040131833 -0.11197234 0.99290073 0.00075343467
-0.14537022 0.32498127 -0.15295193 0.037730068 -0.094971359 0.99476475 0.00086861919
-0.13779242 0.32646453 -0.15315504 0.038182169 -0.091367245 0.995085 0.00086491095
-0.12344912 0.3253378 -0.15402213 0.015450234 -0.045423593 0.99884832 0.0019374284
-0.11501392 0.32372439 -0.15459514 -0.0020344288 -0.0027015042 0.99999428 0.0021583335
-0.10684094 0.32233858 -0.15427729 -0.007068722 0.023775136 0.99969232 0.0027294895
-0.092688955 0.32793826 -0.15424514 -0.0027876811 0.014137261 0.99989617 0.0024414295
-0.081759796 0.32808098 -0.15391317 -0.017431362 0.027907664 0.99945849 0.0022543748
-0.075340971 0.32342532 -0.15318897 -0.019023487 0.084652551 0.99622887 0.0012501184
-0.059337858 0.3200947 -0.15247312 -0.018044185 0.11852959 0.99278653 0.00072698016
-0.04447965 0.32717729 -0.15314803 -0.0019008182 0.096117996 0.99536806 0.0011250809
-0.036483467 0.32822528 -0.15314741 -0.0033279629 0.094231762 0.99554467 0.0013877538
-0.021416195 0.32805836 -0.15286431 -0.014814585 0.10353383 0.9945156 0.00098307221
-0.0026827138 0.32710135 -0.15241359 -0.0020522582 0.11815318 0.9929933 0.00063506205
0.0030353076 0.3231988 -0.15190592 5.8050831e-05 0.15297112 0.98823065 0.00083477458
0.016060863 0.32100257 -0.15184255 0.014308882 0.15000567 0.9885816 0.00092421193
0.021140015 0.3280611 -0.15285987 0.015820341 0.09066166 0.99575609 0.0014081895
0.036868028 0.3246761 -0.15268682 0.014193589 0.1142505 0.99335057 0.00018801528
0.04922986 0.32495332 -0.15293758 0.014236138 0.10947314 0.99388772 0.00034167667
0.052966546 0.32723024 -0.15330212 0.017610718 0.085543953 0.99617881 0.0015298839
0.075374722 0.32967201 -0.15401195 -0.0061692414 0.041811068 0.99910647 0.002339731
0.088182665 0.32503343 -0.15365978 0.021976128 0.051646214 0.99842358 0.0020615817
0.094810106 0.32665542 -0.15419553 0.023899069 0.011682009 0.99964613 0.002559935
0.10892552 0.3232249 -0.15449198 -7.8660603e-05 0.012505789 0.9999218 0.0025060298
0.11284421 0.32490349 -0.15456358 -0.0028404612 0.0038483411 0.99998856 0.0026170502
0.12442039 0.3232905 -0.15422392 -0.015344055 -0.029225575 0.99945503 0.0024958998
0.13406509 0.32472849 -0.15355742 -0.027118115 -0.064786725 0.99753058 0.0020561831
0.14314677 0.32421961 -0.15315835 -0.028048044 -0.073814139 0.99687755 0.001536777
0.15455095 0.32522243 -0.15245582 -0.04720559 -0.11042013 0.99276328 0.00013898782
0.16410004 0.32103798 -0.15248391 -0.051087786 -0.10027825 0.99364698 0.00039650523
0.1747966 0.32322747 -0.15167177 -0.061248779 -0.12364402 0.99043465 0.00068835687
0.18415415 0.32452449 -0.15102285 -0.092955984 -0.16513082 0.98188138 0.0010826907
0.1960768 0.32440016 -0.1501828 -0.12826149 -0.18890508 0.97358298 0.0023654755
-0.18523106 0.33114231 -0.15017053 0.10338967 -0.20478818 0.97333056 0.0024257465
-0.17475937 0.33505115 -0.15022312 0.095161706 -0.21663345 0.97160393 0.002128232
-0.1645831 0.33592194 -0.15063339 0.077180952 -0.19716346 0.97732788 0.0018770768
-0.15296084 0.33377114 -0.15148784 0.054618228 -0.13462426 0.98939031 0.00035055308
-0.14368314 0.33582217 -0.15170769 0.06168215 -0.13918261 0.98834383 0.00032751111
-0.13629456 0.33385858 -0.15232405 0.048204489 -0.099740483 0.99384516 0.0012197582
-0.12458702 0.33246779 -0.1530896 0.037151854 -0.075793967 0.99643117 0.0011133937
-0.11189494 0.33294576 -0.15367593 0.024910109 -0.047299106 0.99857008 0.0021592332
-0.10076969 0.33978659 -0.15340202 0.025242349 -0.066870824 0.99744231 0.0014905868
-0.095771119 0.33280271 -0.15427056 -0.00094118516 0.0017161225 0.99999809 0.0024188028
-0.085716024 0.33244523 -0.15452355 -0.010581262 0.01714607 0.99979705 0.0020477362
-0.077048913 0.33729944 -0.15446618 -0.00022070771 -0.020118549 0.99979758 0.0023549062
-0.067251749 0.33235759 -0.15422472 -0.0120576 0.034597047 0.99932861 0.0022164653
-0.05253825 0.33639359 -0.1544985 0.012291465 0.0045472314 0.99991411 0.0024545726
-0.043746196 0.33674431 -0.15438625 0.018370127 0.030333864 0.99937093 0.0028984635
-0.03256065 0.33181587 -0.15355214 -0.010490977 0.081827059 0.99659127 0.0015021474
-0.0179069 0.33279344 -0.15342684 -0.011232605 0.087249704 0.99612314 0.0015918978
0.0074274912 0.33667195 -0.15375581 0.0022914095 0.031562492 0.99949914 0.0024594131
0.015306846 0.33378434 -0.15351224 0.0086656623 0.063639909 0.99793524 0.0018732208
0.023195233 0.33372194 -0.15364075 0.010458859 0.063854806 0.99790442 0.0016332553
0.035824027 0.33176529 -0.15360203 0.0091640884 0.063946016 0.99791133 0.0018210311
0.046472017 0.33430773 -0.15412131 0.011228384 0.045440614 0.99890399 0.0022714159
0.054034699 0.33528805 -0.15438145 0.0034921465 0.013735794 0.99989963 0.002832083
0.064650588 0.33549875 -0.15438752 0.00060156727 -0.0096090054 0.99995369 0.0021653771
0.075182691 0.33301419 -0.15444863 -0.0061701802 0.04177564 0.99910796 0.0023369214
0.089591034 0.33870071 -0.15406431 -0.010271468 -0.065027066 0.99783063 0.0017229465
0.093813404 0.33453703 -0.15439951 -0.011863374 -0.027747506 0.99954462 0.0023351875
0.10544823 0.3355011 -0.15369001 -0.035975382 -0.078211538 0.99628741 0.0010481522
0.12747607 0.33646363 -0.15245256 -0.041088752 -0.10386339 0.99374253 0.00079608173
0.13198097 0.33467257 -0.15244338 -0.041309029 -0.10441855 0.99367517 0.00076916884
0.14687201 0.33512241 -0.15163149 -0.065023743 -0.13477567 0.98874032 0.00072000269
0.15467578 0.33217686 -0.15159629 -0.067043252 -0.14463557 0.98721105 0.00074516033
0.16736101 0.33484536 -0.15062431 -0.094144754 -0.1950727 0.97625983 0.0019738378
-0.14154477 0.34304005 -0.15093087 0.073052995 -0.17608319 0.98166084 0.0016113317
-0.12588577 0.34420273 -0.15158394 0.056416564 -0.13553496 0.98916501 0.00060904922
-0.11313295 0.34598675 -0.15201312 0.043241985 -0.11546063 0.99237037 0.00012138857
-0.1020456 0.34643438 -0.15252163 0.03660183 -0.11121002 0.99312264 0.00025197686
-0.099043384 0.34257758 -0.15314734 0.026854269 -0.096499696 0.99497074 0.0009172986
-0.085664958 0.34430811 -0.15339413 0.012940919 -0.081630178 0.99657863 0.0012141209
-0.079191267 0.34938881 -0.15283747 0.019443156 -0.10667779 0.99410349 0.00062346971
-0.061354689 0.34661561 -0.15351172 0.011914794 -0.074945018 0.99711651 0.0015081783
-0.05544363 0.34338668 -0.15403926 -0.00068702619 -0.030988783 0.99951953 0.0026191776
-0.047429502 0.34662428 -0.15375192 0.018204527 -0.047071442 0.99872565 0.0026121133
-0.035443883 0.34232402 -0.1545258 0.009048501 -0.043409023 0.99901646 0.0020564201
-0.023891199 0.34384087 -0.15452634 -0.0054192287 -0.020615386 0.99977279 0.0021952465
-0.019301344 0.34157175 -0.1546067 -0.0064950665 0.005083981 0.99996603 0.002182499
-0.0064242431 0.3433938 -0.15431893 0.0085787652 -0.0051169917 0.99995011 0.0027945791
0.0034756386 0.3401559 -0.154146 -0.0068919845 0.0293702 0.9995448 0.0022373288
0.010431391 0.34220377 -0.15453617 -0.00015271953 0.02415861 0.99970818 0.0022893138
0.02292034 0.34452394 -0.15440868 0.0016902202 -0.025645392 0.99966967 0.0027578375
0.033312984 0.34424281 -0.15431014 0.0062689655 -0.022707906 0.99972248 0.0017307233
0.040299781 0.34427547 -0.15418473 -0.0029819368 -0.040302414 0.99918306 0.0013362785
0.055625878 0.34303856 -0.15408194 -0.0028773076 -0.052200645 0.99863255 0.0022886272
0.068743676 0.34365028 -0.15377404 -0.0033114352 -0.048464254 0.99881941 0.0020641002
0.087151825 0.34949839 -0.15268508 -0.023087922 -0.10557062 0.99414372 0.00036768577
0.095495462 0.34642121 -0.15285024 -0.028543057 -0.11087617 0.99342424 0.00045601878
0.10600263 0.34438568 -0.15257189 -0.039444748 -0.11741628 0.99229914 0.00045903717
0.11505236 0.3431595 -0.15226245 -0.050787486 -0.11539242 0.99202079 0.00057771604
0.1278781 0.34363711 -0.1515521 -0.058273096 -0.14019199 0.98840803 0.00068287802
0.13008563 0.34241778 -0.15158953 -0.054795135 -0.14187971 0.98836613 0.00061414082
0.14242268 0.34631377 -0.15048462 -0.083631366 -0.1815217 0.9798243 0.0017364746
0.15694198 0.3434166 -0.15010224 -0.09471871 -0.20584813 0.97398913 0.0018911894
-0.1395807 0.35018164 -0.15015453 0.086175956 -0.21303478 0.9732368 0.0023934529
-0.12574084 0.35417274 -0.15036818 0.088052057 -0.20893428 0.9739576 0.002406925
-0.1154814 0.35639733 -0.15061662 0.06926886 -0.18479256 0.98033345 0.0016986333
-0.10557548 0.35692748 -0.15105496 0.05021653 -0.16627949 0.98479915 0.0010392892
-0.087134682 0.35651827 -0.15176119 0.033220682 -0.12580255 0.99149889 0.0004088234
-0.077005401 0.35617337 -0.15198216 0.020847138 -0.11958366 0.99260527 0.00026161454
-0.062449075 0.35494286 -0.15239644 0.014580746 -0.13292202 0.99101919 0.00043183105
-0.056752518 0.35584629 -0.15237623 0.017762892 -0.13854593 0.9901967 0.0006772941
-0.044781689 0.35593772 -0.15257168 0.013067119 -0.10167325 0.99473202 0.0014388022
-0.018495774 0.35709238 -0.15287527 0.019981332 -0.083393984 0.99631631 0.0010798626
-0.0070787151 0.35924286 -0.15279004 0.0029346829 -0.10686669 0.99426895 0.00067658036
0.0034038823 0.35458758 -0.1534666 -0.0074236337 -0.078575931 0.99688053 0.0011492745
0.016254002 0.35732308 -0.15288375 -0.010984384 -0.097753659 0.99515003 0.0011582787
0.025908301 0.35624039 -0.15285897 -0.011183666 -0.08916308 0.99595428 0.0011920973
0.030392244 0.35692582 -0.15269101 -0.010793031 -0.10223527 0.99470168 0.00081116584
0.043682139 0.35748196 -0.15238744 -0.016434034 -0.1115439 0.99362361 0.00039060743
0.053619172 0.35642594 -0.15235423 -0.017820874 -0.11788209 0.99286765 0.001077555
0.065381177 0.35557386 -0.15226255 -0.015582836 -0.11694124 0.9930166 0.00028012742
0.076436363 0.35351503 -0.15234199 -0.017913826 -0.12815806 0.99159193 0.000405136
0.084842116 0.35120857 -0.15249996 -0.019053342 -0.11894681 0.99271774 0.00074593152
0.096941896 0.3556776 -0.15163338 -0.043262035 -0.14230071 0.98887759 0.00074230746
0.10283236 0.35276377 -0.15170515 -0.048436899 -0.13338877 0.98987943 0.00044522446
0.11638229 0.35691279 -0.1505076 -0.089077979 -0.2050512 0.97468925 0.0020811963
0.1262209 0.35628888 -0.15008418 -0.088934191 -0.21648054 0.97222781 0.0023377012
-0.11102206 0.36261529 -0.1500804 0.094614185 -0.2145083 0.97212881 0.0021824492
-0.095020652 0.36425886 -0.15060543 0.052328605 -0.20636618 0.9770745 0.0018588637
-0.085747242 0.36407185 -0.15079078 0.047230572 -0.19345792 0.97997111 0.0016052421
-0.052299522 0.36529765 -0.15120912 0.018609306 -0.16277058 0.9864884 0.0014399283
-0.043984193 0.36831677 -0.15095578 0.02655399 -0.19593455 0.98025733 0.0018768129
-0.037077568 0.36737916 -0.15119892 0.022051349 -0.19098081 0.98134607 0.0017068909
-0.025496533 0.36614078 -0.15156268 0.020255217 -0.15298983 0.98802018 0.00067948771
-0.016998798 0.3649556 -0.151866 0.013091917 -0.13989294 0.99008006 0.00034059616
-0.001775749 0.36435461 -0.15220898 -0.0059781154 -0.11803921 0.99299091 0.00041710047
0.014565061 0.36563286 -0.15181902 -0.0060856161 -0.12373288 0.99229687 0.00047656929
0.025596457 0.36802858 -0.15131244 -0.025494244 -0.16680083 0.98566103 0.0011188617
0.056408107 0.36331767 -0.15139858 -0.022850476 -0.14798898 0.98872495 0.00096949073
0.065428764 0.36413971 -0.15113401 -0.024705924 -0.16875251 0.98534876 0.0013493418
0.074830025 0.36729699 -0.1505554 -0.035218328 -0.21973084 0.97492462 0.0022539543
0.084485285 0.3624109 -0.15103132 -0.033744819 -0.17547569 0.98390526 0.0012730245
0.09437906 0.36503714 -0.1505141 -0.04314192 -0.22083317 0.97435701 0.0020877866
0.10138964 0.36702076 -0.15002942 -0.063347392 -0.2296674 0.97120541 0.0022895925
-0.079362839 0.37014252 -0.15010221 0.040036432 -0.22625999 0.97324383 0.0021983813
-0.058788646 0.37012339 -0.15046135 0.019105559 -0.1979273 0.98003048 0.0017442983
-0.03552261 0.37449589 -0.15028894 0.026251504 -0.24699925 0.96866006 0.0018296266
-0.012119595 0.37257731 -0.15094715 0.0061660316 -0.17535746 0.98448551 0.0012053882
-0.0058626663 0.37662584 -0.15052262 -0.0039833752 -0.22395274 0.97459185 0.0017922797
0.0083496468 0.37760437 -0.15035069 -0.0073190173 -0.23413491 0.97217655 0.0023450642
0.017099757 0.37292963 -0.15081444 -0.020869827 -0.19110873 0.98134702 0.001782219
0.027855618 0.37371016 -0.15052527 -0.031589054 -0.22076561 0.97481513 0.0027404297
0.056402329 0.37160355 -0.15030783 -0.025907299 -0.21113738 0.97711301 0.0018648731
0.060217299 0.37131658 -0.15027949 -0.028535513 -0.21718042 0.97571433 0.0023993838
0.0016425494 0.38101941 -0.15001734 0.0028583263 -0.2384588 0.97114843 0.0021574798
-0.011613329 -0.40069181 -0.14247289 0.041256696 0.37842196 0.92471331 0.00039818275
-0.0071014371 -0.40294659 -0.141785 0.031691309 0.39454415 0.91833031 0.00084039301
0.009407606 -0.4008739 -0.14251775 -0.036460478 0.36501491 0.93028748 0.00081023318
0.033249762 -0.40186426 -0.14080738 -0.051220473 0.39771298 0.91607904 0.0011076904
0.056943491 -0.40037239 -0.14013325 -0.050893623 0.40844861 0.91136134 0.00085509336
-0.094559655 -0.39144188 -0.14178109 0.059734829 0.37764063 0.92402339 0.0013216239
-0.086595334 -0.39002687 -0.14280154 0.059346896 0.35855186 0.93162149 0.00067198701
-0.063784249 -0.39397144 -0.14241159 0.04410971 0.36883292 0.9284485 0.00080647512
-0.05453556 -0.39314705 -0.14325738 0.040138662 0.35504121 0.93398857 0.001157813
-0.046268672 -0.39572147 -0.14264184 0.050650153 0.36210567 0.93075991 0.00068771548
-0.025409603 -0.39649501 -0.14345892 0.041853122 0.36029127 0.9319005 0.0010182173
-0.003245346 -0.39547074 -0.14509186 0.0044630687 0.34566408 0.93834764 0.0012206035
0.0042742663 -0.39686453 -0.14445844 -0.019274229 0.34418821 0.93870282 0.0011941419
0.024608497 -0.39932978 -0.14232841 -0.049588311 0.37658879 0.92505229 0.00093407906
0.037167173 -0.39178324 -0.14476946 -0.035752248 0.34270516 0.93876255 0.0011496041
0.04657184 -0.39466831 -0.14306155 -0.043972865 0.36286712 0.93080276 0.00077758502
0.059893381 -0.39943996 -0.1403586 -0.05417854 0.4118847 0.90962392 0.00083939201
0.062086768 -0.3936801 -0.14262483 -0.049387354 0.37273768 0.92662156 0.00070891745
0.07467638 -0.39329693 -0.14209698 -0.045890015 0.37829536 0.92454678 0.00062213012
0.083409846 -0.39279175 -0.14182998 -0.051591728 0.38973269 0.91948169 0.00056606065
0.095803909 -0.39290103 -0.14110886 -0.081528172 0.39380729 0.91557026 0.00065562793
-0.12544394 -0.38419181 -0.14072964 0.14883271 0.3617844 0.92030472 0.00058671454
-0.11147763 -0.38267791 -0.14354691 0.11093183 0.33711213 0.93490618 0.00083620846
-0.1055128 -0.38409591 -0.14395328 0.097523063 0.34119877 0.93491846 0.00065512152
-0.094942667 -0.38440752 -0.14467394 0.07085406 0.33979464 0.93782693 0.00068937661
-0.085335836 -0.38437116 -0.14521287 0.048508476 0.32325396 0.94506818 0.0012672646
-0.076715395 -0.3837536 -0.14593878 0.039084658 0.31958011 0.94675285 0.0014666838
-0.056045137 -0.38377637 -0.14705655 0.044047084 0.30488929 0.95136863 0.0022338086
-0.046558313 -0.38525945 -0.14695959 0.034808006 0.30510965 0.9516809 0.0021805807
-0.037127249 -0.38550988 -0.14737011 0.033781953 0.28942728 0.95660365 0.0029114636
-0.026952857 -0.38032573 -0.14966998 0.025566213 0.2366564 0.97125697 0.0024729844
-0.012758866 -0.38441312 -0.14892435 0.007770441 0.26243794 0.9649176 0.0027119969
-0.0054106293 -0.38739169 -0.14832024 0.010137871 0.28275007 0.95914006 0.0021606437
0.0043385495 -0.38765657 -0.14824298 -0.008554454 0.27693364 0.96085101 0.0022372776
0.017778957 -0.38437751 -0.14887071 -0.019624423 0.25641549 0.96636742 0.0025016796
0.039060809 -0.38584369 -0.14712642 -0.031757522 0.31774613 0.94764388 0.0016955982
0.045883041 -0.38257706 -0.14810748 -0.039668113 0.30172122 0.95257062 0.0021160694
0.052341722 -0.38513744 -0.1466947 -0.037386898 0.3269718 0.94429421 0.0012523895
0.066128418 -0.38530821 -0.14587218 -0.054538652 0.31848925 0.94635624 0.0013479887
0.077561952 -0.38404638 -0.14577135 -0.036528137 0.315465 0.9482339 0.0015074819
0.0841818 -0.3858307 -0.14467125 -0.043354951 0.33024848 0.94289786 0.0013204841
0.093139164 -0.3845962 -0.14469412 -0.065394826 0.32616454 0.94304836 0.0014356999
0.11426891 -0.38553458 -0.14199802 -0.13176721 0.36581245 0.92131352 0.0011364253
0.12544832 -0.38154197 -0.14175174 -0.15080255 0.37681928 0.91392875 0.000676825
-0.15786496 -0.37208188 -0.14022042 0.15229778 0.38346595 0.9109112 0.0010599771
-0.1450088 -0.37482175 -0.1412183 0.15054588 0.36907265 0.91712666 0.00070631661
-0.12409979 -0.37070218 -0.14615135 0.13237949 0.29592991 0.94599217 0.0017581924
-0.11337283 -0.37895548 -0.14468071 0.11149351 0.33329707 0.93620628 0.00080384157
-0.10458442 -0.37648636 -0.14703888 0.084120817 0.30296597 0.94928139 0.0013770346
-0.09407977 -0.37424362 -0.14863703 0.057752043 0.26940671 0.96129328 0.0019076798
-0.0827078 -0.3719407 -0.14980751 0.035541892 0.23877068 0.97042537 0.0024983254
-0.075240396 -0.37823001 -0.14828564 0.040095523 0.28940922 0.95636535 0.0021956631
-0.065331779 -0.3775658 -0.14903551 0.037570246 0.27334076 0.96118325 0.0022000829
-0.047669414 -0.37901634 -0.1494766 0.038751744 0.26235142 0.964194 0.0024330604
-0.036113642 -0.37969744 -0.1495939 0.023021707 0.21567975 0.97619271 0.0023631607
-0.017942403 -0.37965077 -0.14991499 0.010179672 0.21771087 0.9759602 0.0017521667
0.037608374 -0.37899327 -0.14966071 -0.025671322 0.25673819 0.96613997 0.0030605728
0.040301584 -0.37790158 -0.14975774 -0.031764705 0.25306714 0.96692705 0.0027689845
0.055922274 -0.37450886 -0.14993367 -0.036551483 0.23933284 0.97024935 0.0025289964
0.074984938 -0.37544799 -0.14939441 -0.031145059 0.27045727 0.96222806 0.0023844545
0.084915914 -0.37332055 -0.14944628 -0.044752635 0.25741521 0.96526402 0.0025523305
0.09502665 -0.37670958 -0.14785793 -0.067244388 0.29529548 0.95303661 0.0021531917
0.10223014 -0.37036583 -0.14957634 -0.090443611 0.25793925 0.96191859 0.0019037285
0.11038312 -0.37260357 -0.14761046 -0.10414748 0.28662896 0.95236397 0.0017442165
0.1210357 -0.3779431 -0.14384633 -0.12286447 0.32097945 0.93908286 0.0012024482
0.13844579 -0.37368816 -0.14270517 -0.14072484 0.34063691 0.9296037 0.00033402612
0.14586081 -0.37438506 -0.14125064 -0.15382037 0.36047003 0.92000031 0.00060017221
0.15630503 -0.37079221 -0.14096761 -0.14981884 0.36668664 0.91820222 0.00069275853
-0.17416605 -0.36209983 -0.14146711 0.14848307 0.35792241 0.92187005 0.0012100074
-0.16488874 -0.36054415 -0.14355086 0.14649762 0.34602386 0.92671782 0.00053822354
-0.15836442 -0.36675096 -0.1421982 0.14311367 0.36110574 0.92147768 0.00048641331
-0.13811591 -0.3631494 -0.1468257 0.1168446 0.29493201 0.94834721 0.0018219418
-0.12303766 -0.36608186 -0.14793983 0.12224627 0.28347614 0.9511556 0.0017029177
-0.11713262 -0.36250177 -0.14978382 0.097134538 0.23452191 0.96724576 0.0024615957
-0.10648434 -0.36694077 -0.14978033 0.075823367 0.24163513 0.96740025 0.0021454629
-0.090877354 -0.3695845 -0.1499761 0.041920952 0.23118341 0.97200656 0.002253887
0.11675443 -0.36333704 -0.14970055 -0.094471268 0.22593178 0.96955144 0.0028810264
0.13216281 -0.3614535 -0.14843211 -0.099035814 0.25878701 0.96084404 0.0023263821
0.14766546 -0.36214197 -0.14568779 -0.12477548 0.31457809 0.94099504 0.0011017013
0.1542616 -0.36670914 -0.14287031 -0.14464876 0.35166189 0.92488414 0.00016593012
0.16528127 -0.36311722 -0.14249493 -0.14750564 0.35149324 0.92449695 0.0011337524
0.18337293 -0.36080119 -0.14049637 -0.15980639 0.38830265 0.90756989 0.0007933724
-0.20364973 -0.35061032 -0.14107235 0.20655125 0.33975723 0.91755199 0.00069113099
-0.19431499 -0.35382664 -0.14143902 0.17471212 0.35124058 0.9198401 0.00047469966
-0.18555234 -0.35725987 -0.14151484 0.15292409 0.34516299 0.92600042 0.00043111324
-0.16006367 -0.35353386 -0.14702815 0.12250286 0.29268956 0.94832796 0.0015587958
-0.15707536 -0.35688511 -0.14621238 0.12949848 0.30349874 0.94399071 0.0012234176
-0.14592549 -0.35471216 -0.14879146 0.11466088 0.24813998 0.96191448 0.0024062716
-0.12510039 -0.35969564 -0.14972319 0.10576995 0.22380762 0.96887708 0.0026998203
0.13615468 -0.35735562 -0.14915264 -0.10007858 0.24474031 0.96440995 0.0021373602
0.14631236 -0.35004491 -0.14982924 -0.088640042 0.23006253 0.96913064 0.0029603965
0.15506385 -0.35766616 -0.1462325 -0.12955973 0.31213564 0.94116187 0.0012000439
0.16373508 -0.35573152 -0.1455929 -0.13990244 0.31849772 0.9375428 0.00084235205
0.1850509 -0.35354844 -0.14302756 -0.14416723 0.33059421 0.9326967 0.0012838711
0.19495489 -0.35006693 -0.14278792 -0.17505579 0.32841909 0.92816824 0.00079740828
-0.21436992 -0.34363952 -0.14065635 0.23551476 0.3229284 0.91665149 0.00070493273
-0.20553659 -0.34224895 -0.14336386 0.19451092 0.30083239 0.93363023 0.00070498517
-0.1846617 -0.34461603 -0.14653756 0.12950659 0.27260423 0.95337027 0.0017693023
-0.15495536 -0.34650612 -0.14982417 0.088992827 0.22365153 0.97059792 0.0025048596
0.15047111 -0.34693557 -0.14999935 -0.083969325 0.21638091 0.97269136 0.0024680935
0.16612829 -0.34478599 -0.14943507 -0.086509533 0.24874718 0.9646973 0.0025342116
0.1772785 -0.34415027 -0.14787745 -0.12085375 0.27408534 0.95408154 0.0019375207
0.18307832 -0.34298578 -0.14741999 -0.12011523 0.27792478 0.95306355 0.0019484977
0.19559877 -0.34610188 -0.14421542 -0.17359816 0.29559985 0.93940645 0.0011442828
0.21433564 -0.34378085 -0.14061822 -0.23573175 0.33151457 0.91352528 0.00091466238
-0.21892554 -0.33545208 -0.14221145 0.23234083 0.31021681 0.92183691 0.0010659101
-0.20449804 -0.33682373 -0.1454262 0.18758258 0.28223377 0.94082773 0.0013145384
-0.18441038 -0.3393591 -0.14860684 0.11800929 0.25208223 0.96048343 0.0017398122
-0.17232661 -0.33990949 -0.14975071 0.10044581 0.22980748 0.96803886 0.0027806973
0.1894704 -0.33699545 -0.14871018 -0.14255062 0.26809427 0.95278794 0.0020676902
0.19255246 -0.33220652 -0.14959069 -0.14403382 0.23610294 0.96099406 0.0023313058
0.2064341 -0.33633113 -0.14509709 -0.19075157 0.28305221 0.93994421 0.00088648649
0.21465436 -0.33512545 -0.14340602 -0.21330889 0.29502761 0.93137431 0.00083826657
0.22432041 -0.33501863 -0.14098303 -0.23020892 0.31427002 0.92099851 0.0010657076
-0.24016628 -0.32477051 -0.14034967 0.25441316 0.33427602 0.90748745 0.00080706266
-0.23257232 -0.32182387 -0.14325774 0.21120209 0.28301093 0.93557394 0.0012586858
-0.22772484 -0.3231926 -0.14403695 0.20332526 0.26691738 0.9420265 0.0011731435
-0.21729963 -0.32386211 -0.14646654 0.18762004 0.24228324 0.95189154 0.0024373727
-0.20240088 -0.32290852 -0.14982873 0.1353862 0.20405319 0.96955287 0.0020697985
-0.19811799 -0.32930851 -0.14950073 0.13612849 0.21945068 0.96607995 0.0025087595
0.20377499 -0.32424477 -0.14944358 -0.16185984 0.22140679 0.96165508 0.0023008215
0.2180807 -0.32501811 -0.14588469 -0.19787006 0.25018305 0.94776368 0.0020712009
0.22487593 -0.32459798 -0.14429571 -0.2197782 0.28367555 0.93339473 0.0006737134
0.24150616 -0.32417685 -0.14020565 -0.25082809 0.31921405 0.91388601 0.00093334023
-0.25458235 -0.3108843 -0.14128581 0.23306592 0.30827558 0.92230499 0.00072316587
-0.23767832 -0.3156302 -0.14401203 0.20818317 0.27270594 0.93930358 0.0010939869
-0.2275703 -0.31849921 -0.14563191 0.20227085 0.26790127 0.94197416 0.0011819375
-0.21429196 -0.3169772 -0.14949235 0.16623636 0.19292411 0.96702933 0.0023841809
0.20751163 -0.31915486 -0.14981103 -0.15099609 0.20148493 0.96778303 0.0025460015
0.21849945 -0.31276596 -0.14959589 -0.15274653 0.20644675 0.96646172 0.0024977103
0.22662771 -0.31246302 -0.14787236 -0.18214409 0.23395626 0.955033 0.002089248
0.23565106 -0.31602323 -0.14439736 -0.20688082 0.27284476 0.93955094 0.001276326
0.2481935 -0.31594971 -0.14123178 -0.23640865 0.31623468 0.91875273 0.00078281463
0.2522417 -0.3158038 -0.14025053 -0.24701072 0.32219428 0.91387999 0.0008084806
-0.2630344 -0.30778953 -0.14016195 0.24833274 0.32564196 0.91229826 0.0006229335
-0.25977245 -0.30904508 -0.14057542 0.23135123 0.30794823 0.92284584 0.00053234788
-0.24289991 -0.30563396 -0.14599729 0.19143723 0.25309449 0.94831163 0.0014870212
-0.23445702 -0.3052581 -0.14813346 0.18995497 0.22098662 0.95659924 0.0020695713
-0.04620504 -0.30159009 -0.14980933 -0.019353556 -0.26450798 0.96418929 0.002757069
-0.036799319 -0.30034417 -0.1494818 -0.035039112 -0.28900564 0.95668596 0.001991376
-0.025020191 -0.30422547 -0.14978909 -0.033971861 -0.26155084 0.96459168 0.0025155232
-0.014206198 -0.30248383 -0.14899625 -0.037999261 -0.27987483 0.95928419 0.002570872
0.0030386657 -0.30266899 -0.14860372 -0.0041884244 -0.27144489 0.96244484 0.0026041465
0.016456146 -0.30420536 -0.14942238 0.02615441 -0.23335876 0.97203892 0.0022842628
0.021921908 -0.30478537 -0.14980911 0.031555962 -0.23831894 0.97067416 0.0026112376
0.22453669 -0.30603322 -0.14981712 -0.14511609 0.17695548 0.97346193 0.0026132036
0.23607104 -0.30708367 -0.14725359 -0.19720621 0.23601861 0.95152766 0.0020148831
0.24637079 -0.30278927 -0.14605743 -0.19658539 0.24493548 0.94940025 0.0018397442
0.25428036 -0.30495209 -0.14332888 -0.21893977 0.28564829 0.93299007 0.0010839542
0.26489341 -0.30392823 -0.14096899 -0.25207371 0.31976303 0.91335124 0.00093049905
-0.28087115 -0.29036534 -0.14140078 0.25409654 0.27687675 0.92670071 0.00061374845
-0.27327746 -0.2942881 -0.14203191 0.23393977 0.28355601 0.92998284 0.00054138101
-0.26793605 -0.29725808 -0.14240599 0.22918913 0.28956595 0.92931372 0.00038520171
-0.23898146 -0.29785699 -0.14951083 0.16506737 0.21973945 0.96149224 0.0021982701
-0.081988618 -0.29179513 -0.14880551 -0.071387559 -0.22613898 0.97147566 0.0021156808
-0.078072295 -0.29697624 -0.14975423 -0.056714874 -0.21483302 0.97500271 0.0021226532
-0.06607943 -0.29534411 -0.14900741 -0.03931566 -0.27116451 0.96172971 0.0027960856
-0.053318128 -0.29336876 -0.1474933 -0.051782116 -0.29800996 0.95315719 0.0022978992
-0.045201402 -0.29641184 -0.14823562 -0.02805583 -0.29079807 0.95637304 0.0022070163
-0.036292262 -0.29595026 -0.14763412 -0.034840118 -0.30301216 0.95234966 0.0022115083
-0.025893902 -0.29600316 -0.14708899 -0.044424977 -0.30485436 0.95136225 0.0018181176
-0.006623561 -0.2942768 -0.14532304 -0.0098265084 -0.30665594 0.95176965 0.0017503921
0.0030128763 -0.29351944 -0.14481243 0.007889485 -0.33173209 0.9433406 0.0018360808
0.01787122 -0.29431641 -0.14595282 0.033409104 -0.31505138 0.94848639 0.0015238775
0.037895236 -0.29582807 -0.14767091 0.04139987 -0.31477773 0.9482621 0.0015706441
0.049111571 -0.29233068 -0.14683391 0.044987887 -0.3117325 0.94910419 0.0021295121
0.055367626 -0.29414099 -0.14783546 0.023706682 -0.29215515 0.9560771 0.0019924329
0.061855555 -0.29464465 -0.14839119 0.036828946 -0.27309644 0.96128136 0.0024829372
0.076531641 -0.29420987 -0.14879684 0.058016635 -0.26017964 0.96381563 0.0023841751
0.24334696 -0.2948525 -0.14930558 -0.16611408 0.22052066 0.961133 0.0023792512
0.25731131 -0.29542646 -0.14571531 -0.19770335 0.25931102 0.94534183 0.0014989909
0.26635954 -0.29574895 -0.14330715 -0.22141853 0.27595454 0.93531972 0.0010154665
0.27406496 -0.2988897 -0.14030641 -0.25323385 0.31947151 0.91313231 0.00093643606
-0.29132816 -0.28255945 -0.14065225 0.30056825 0.27485141 0.9132992 0.00084155408
-0.28358564 -0.28623965 -0.14190909 0.26645976 0.27398279 0.92408478 0.00070910307
-0.273624 -0.28441319 -0.14521684 0.21985477 0.24845144 0.94336402 0.001471394
-0.26833293 -0.28598127 -0.14604279 0.19804381 0.25359166 0.94682091 0.0014987753
-0.25753185 -0.284585 -0.14920698 0.17177019 0.23013836 0.95787853 0.0021090745
-0.10990432 -0.28328887 -0.14964233 -0.097250685 -0.2438415 0.96492672 0.0023389126
-0.092973419 -0.28298771 -0.14716224 -0.091408342 -0.28746164 0.95342034 0.0026661644
-0.086769961 -0.28574276 -0.14723384 -0.093078136 -0.27350461 0.95735663 0.0029312137
-0.077580795 -0.28783736 -0.14665061 -0.077439226 -0.28981608 0.95394433 0.0025564821
-0.063572235 -0.28396207 -0.1441561 -0.06713704 -0.34600118 0.93582892 0.0014536231
-0.05523574 -0.28473023 -0.14401968 -0.048861403 -0.35049874 0.93528771 0.0015885569
-0.041308366 -0.28528413 -0.1434896 -0.046055079 -0.36223483 0.93094838 0.00071883755
-0.033482131 -0.28350204 -0.14232466 -0.051013306 -0.37047189 0.92744184 0.00036435793
-0.026141107 -0.28214753 -0.14136329 -0.056645285 -0.37327728 0.92598891 0.00035130844
-0.013692161 -0.28416607 -0.14152053 -0.03749314 -0.37308222 0.9270404 0.00071259082
-0.0067332848 -0.28492567 -0.14145567 -0.010937141 -0.38668704 0.92214614 0.0015857766
0.0092555778 -0.28622603 -0.14213184 0.017083677 -0.3705548 0.92865348 0.0013183233
0.014489567 -0.2861774 -0.14239712 0.030212445 -0.36581132 0.93019849 0.0012665228
0.02080244 -0.28721562 -0.14317141 0.042129599 -0.36018738 0.93192816 0.00077091577
0.035034515 -0.28511119 -0.14307584 0.05453885 -0.36905587 0.9278056 0.00053134246
0.041133754 -0.28456184 -0.14318091 0.049961526 -0.37454566 0.92586148 0.0005030068
0.05470822 -0.28666854 -0.14479378 0.033433933 -0.33638284 0.94113159 0.0014272658
0.06515535 -0.28629756 -0.1452098 0.042702582 -0.31231001 0.94901997 0.0018980517
0.075005382 -0.28365809 -0.14468461 0.075331107 -0.32604414 0.94234836 0.0018117953
0.084726311 -0.28238976 -0.14561288 0.10708465 -0.29917279 0.9481712 0.0017730087
0.097321376 -0.28497297 -0.14862365 0.097809032 -0.24825424 0.96374434 0.0018474543
0.25446165 -0.28210843 -0.14991854 -0.14832947 0.18699439 0.97109801 0.0029603885
0.26104176 -0.28701863 -0.14755335 -0.18543957 0.2398636 0.95293111 0.0018073532
0.27218673 -0.28671762 -0.14481857 -0.21974996 0.26429817 0.93907213 0.00087209017
0.28537992 -0.28467575 -0.14202546 -0.27171761 0.26954365 0.92385912 0.00067957584
0.29288 -0.2821081 -0.14025271 -0.29919764 0.26952204 0.9153353 0.0010277918
-0.29404855 -0.27605617 -0.14140458 0.29029715 0.25239143 0.92305261 0.00038262986
-0.2857123 -0.27384537 -0.14472994 0.26413062 0.23142043 0.93631166 0.0010029733
-0.27636164 -0.27418998 -0.14774159 0.23509152 0.22565793 0.9454155 0.0015441753
-0.26531616 -0.2768192 -0.1495983 0.180847 0.20809843 0.96124363 0.0028302355
-0.13710767 -0.27387369 -0.14986965 -0.093572512 -0.23333286 0.96788418 0.0020192298
-0.11786079 -0.27913961 -0.14953762 -0.098405063 -0.24727918 0.96393442 0.0023681049
-0.10065605 -0.27057791 -0.14360052 -0.13384667 -0.33626059 0.93220913 0.0010338181
-0.098984271 -0.27618885 -0.14549898 -0.12230542 -0.32640174 0.93728513 0.00088282902
-0.085991435 -0.27370483 -0.14246288 -0.12615804 -0.36129972 0.92387587 0.00055182463
-0.074785754 -0.27667269 -0.14181687 -0.1040514 -0.35410362 0.92939979 0.0011476458
-0.068054803 -0.27823988 -0.14203033 -0.077566825 -0.38310826 0.92044091 0.00051697606
-0.057409979 -0.27566874 -0.14038485 -0.070155278 -0.40696847 0.91074413 0.0011914938
-0.043962277 -0.27888751 -0.14098476 -0.047791146 -0.39333719 0.91815132 0.00086729968
-0.036219262 -0.27874979 -0.14050548 -0.057842769 -0.39394885 0.91731042 0.00092104007
0.052727018 -0.27809697 -0.14113528 0.058758281 -0.39193857 0.91811305 0.0012947435
0.061491504 -0.27493447 -0.14030327 0.074560918 -0.39875031 0.9140234 0.0012680828
0.082946114 -0.27313906 -0.14175761 0.12666991 -0.35935244 0.92456496 0.0014623539
0.095240735 -0.2772927 -0.14532654 0.12146508 -0.29974264 0.9462561 0.0015380924
0.10423604 -0.27596149 -0.14625087 0.12295346 -0.28703624 0.94999611 0.0017441346
0.1130612 -0.27692926 -0.14801168 0.10434042 -0.27008033 0.95716751 0.0018739909
0.12669539 -0.27686179 -0.14970711 0.094547428 -0.24432051 0.96507424 0.00208694
0.13136245 -0.27539924 -0.14976487 0.10462014 -0.23135571 0.96722764 0.0024049601
0.26419422 -0.27649841 -0.1497228 -0.1676273 0.19042712 0.96728414 0.002296133
0.27480298 -0.2792995 -0.14661196 -0.2182859 0.23427472 0.9473471 0.0012870039
0.2859503 -0.27461201 -0.14445609 -0.2491546 0.22387333 0.94223285 0.00098996458
-0.30208156 -0.2691876 -0.14048892 0.3118223 0.24730089 0.91739261 0.00078528473
-0.29354 -0.26377094 -0.1446977 0.25975284 0.20952772 0.94266999 0.0011695503
-0.28354567 -0.26367214 -0.14803547 0.22361749 0.18516524 0.95692694 0.0019087117
-0.27666533 -0.26736727 -0.14937617 0.20678963 0.18359053 0.96100599 0.0022474942
-0.15191582 -0.26550275 -0.14939865 -0.13629922 -0.21585609 0.96686542 0.002620552
-0.14628944 -0.26367438 -0.14823174 -0.14395246 -0.23203486 0.96199661 0.0029668754
-0.13627291 -0.26745993 -0.1480915 -0.1314178 -0.26460561 0.95536023 0.0022893208
-0.12698145 -0.26040441 -0.14388262 -0.14074476 -0.3213982 0.93642622 0.0010214151
-0.11508387 -0.26139116 -0.1423613 -0.14275046 -0.34176689 0.9288798 0.00046780342
-0.10709731 -0.26705486 -0.14327051 -0.13874249 -0.33605736 0.93156648 0.00073882256
-0.098127797 -0.26543874 -0.14121266 -0.15352733 -0.36426798 0.91855222 0.00055123202
0.088103548 -0.26839256 -0.14075011 0.14422466 -0.38640714 0.91098231 0.00068213558
0.098691791 -0.26448572 -0.14093497 0.15457284 -0.37992832 0.91200972 0.00074118481
0.10730316 -0.2624718 -0.1415344 0.15702178 -0.37461853 0.91378617 0.00080892246
0.11420748 -0.26562485 -0.14385533 0.13451549 -0.31332344 0.94007128 0.0012343634
0.12361459 -0.26222694 -0.14404778 0.12629338 -0.30118847 0.94516432 0.0013978486
0.13215142 -0.26607364 -0.14689744 0.12293248 -0.26771209 0.95562434 0.0021146419
0.14293881 -0.26072037 -0.14655586 0.1411978 -0.25504097 0.95656538 0.0020592494
0.15976703 -0.26076433 -0.14968947 0.15070362 -0.20831951 0.9663806 0.0024814268
0.27798173 -0.26371735 -0.14953984 -0.19481607 0.15993509 0.96771246 0.0017171134
0.28879398 -0.26660973 -0.14554876 -0.25445485 0.20649278 0.94478226 0.0013112451
0.29460883 -0.26555416 -0.14388987 -0.27318311 0.21343318 0.93798578 0.0011183764
0.30311739 -0.26361245 -0.14156352 -0.29320976 0.22963627 0.92805994 0.0003312848
-0.31113318 -0.25034925 -0.14227995 0.29463267 0.22528513 0.92867541 0.0010563706
-0.30111474 -0.25412309 -0.1446408 0.27733475 0.2074032 0.93812013 0.0013048559
-0.29754823 -0.25250697 -0.14623395 0.26850051 0.18914229 0.9445278 0.0013325841
-0.28694409 -0.25570908 -0.14884803 0.22649838 0.16578911 0.95979816 0.002209424
-0.17197549 -0.25173172 -0.14972478 -0.14259554 -0.20917055 0.9674266 0.0026452858
-0.16346735 -0.25537312 -0.14904687 -0.14847811 -0.22177342 0.96372759 0.0029188436
-0.15317819 -0.25398523 -0.14621094 -0.17187269 -0.26871198 0.94776249 0.0022468094
-0.14688559 -0.25644565 -0.14562403 -0.17022604 -0.27264488 0.94693601 0.0022486516
-0.1348259 -0.25603986 -0.14345214 -0.14829968 -0.32877117 0.9326933 0.001348383
-0.11410427 -0.25742435 -0.14067355 -0.15015119 -0.36277974 0.9196986 0.00052901387
0.11814079 -0.25758448 -0.1413807 0.15842482 -0.36936024 0.91568255 0.00071174488
0.12788439 -0.25646195 -0.14250524 0.1630974 -0.35879233 0.91905791 0.00053196028
0.13652131 -0.25241172 -0.14232279 0.1708183 -0.33864927 0.92527711 0.0013983444
0.1455583 -0.25460875 -0.14470819 0.16158433 -0.29119226 0.94291973 0.0016349757
0.1543937 -0.25674254 -0.14743403 0.16542874 -0.2431055 0.95578927 0.0025867871
0.16728097 -0.25195545 -0.14897829 0.15526026 -0.19205643 0.96902454 0.0024579947
0.17481768 -0.25036734 -0.14981081 0.14423095 -0.17479037 0.97398442 0.00255094
0.28052258 -0.25643283 -0.14992626 -0.18941614 0.14143759 0.9716568 0.0023187804
0.29465404 -0.2540783 -0.14679359 -0.23756504 0.17951667 0.95463949 0.0020290252
0.30546048 -0.25470954 -0.14305119 -0.28395265 0.21283509 0.93491828 0.0009690139
0.31301379 -0.2555148 -0.14034283 -0.30693305 0.24056546 0.9208259 0.00012189863
-0.3227616 -0.24160849 -0.14064875 0.31660292 0.24197406 0.91717559 0.0010347258
-0.3163276 -0.24635403 -0.14157435 0.30374056 0.23292091 0.92384499 0.00071970129
-0.30658793 -0.24309838 -0.14563063 0.26370692 0.20167837 0.94328386 0.0011696429
-0.2934953 -0.24288845 -0.14957701 0.20863722 0.15357491 0.96585983 0.0023398129
-0.17463556 -0.24692668 -0.14920402 -0.15966919 -0.22181173 0.96192783 0.0024215395
-0.16345547 -0.24292576 -0.14515911 -0.19337282 -0.27184135 0.9427138 0.0012970007
-0.1513934 -0.24449146 -0.14261027 -0.19643708 -0.30309498 0.9324944 0.0010161202
-0.14923276 -0.24790522 -0.14319226 -0.18976507 -0.29332313 0.93699032 0.001271003
-0.13661653 -0.24889675 -0.14098127 -0.19058847 -0.34542134 0.91889071 0.001072921
0.14495251 -0.24531873 -0.14124635 0.18769427 -0.33301646 0.9240514 0.00089162251
0.15209311 -0.2434378 -0.14243899 0.21074197 -0.30593473 0.92843515 0.00084149448
0.16444093 -0.2452821 -0.14619073 0.18475625 -0.25352499 0.94952106 0.0024232513
0.17678463 -0.24337654 -0.14854717 0.15471435 -0.21465965 0.96435714 0.002654657
0.18375808 -0.24055034 -0.14949931 0.15881655 -0.20784554 0.96518272 0.003004215
0.28888673 -0.24695958 -0.1498109 -0.20248353 0.13858734 0.96942973 0.0023337877
0.30058405 -0.24831659 -0.14629346 -0.24841496 0.17953891 0.95186961 0.0016576749
0.31218657 -0.24802762 -0.14252128 -0.28465998 0.22115614 0.93276936 0.0006945685
0.32269716 -0.24179325 -0.14062309 -0.31872144 0.24557777 0.91548252 0.0012892167
-0.32667494 -0.23243564 -0.14168459 0.30713767 0.24213785 0.92034549 0.00074737612
-0.31270018 -0.23768166 -0.14498237 0.25424394 0.19944744 0.94635129 0.0015014394
-0.30916584 -0.23556015 -0.14669338 0.25142854 0.19543959 0.94793838 0.0014986342
-0.19450751 -0.23143853 -0.14908525 -0.15721253 -0.22520413 0.96154422 0.0026946745
-0.18572812 -0.23434778 -0.14798057 -0.17229077 -0.24418546 0.95430046 0.001909279
-0.17175478 -0.23550957 -0.14481176 -0.21408443 -0.2769686 0.93672633 0.00079135789
-0.16437666 -0.23990746 -0.14439295 -0.20107929 -0.28212526 0.93806839 0.0014047326
0.15740745 -0.23593211 -0.14130282 0.23064831 -0.31991336 0.91894335 0.00067186618
0.16524714 -0.23377271 -0.14258097 0.22641851 -0.29796767 0.92733485 0.00040675988
0.17405064 -0.23604381 -0.14557277 0.18900067 -0.25742748 0.9476338 0.0021221933
0.18380091 -0.23471232 -0.14752699 0.17220289 -0.23152314 0.95746702 0.0028282346
0.19267814 -0.23266566 -0.14919063 0.16826223 -0.21801387 0.96133125 0.0025836432
0.30655259 -0.23512095 -0.14767128 -0.24802563 0.19829516 0.94824171 0.0015812103
0.31426305 -0.23851809 -0.1442516 -0.28189903 0.21906269 0.93410087 0.00061017653
0.32406077 -0.23210955 -0.142634 -0.29527381 0.2300126 0.92731202 0.0003297209
-0.33044004 -0.22716963 -0.14177598 0.30943573 0.23332401 0.9218511 0.00019903465
-0.32121506 -0.22646405 -0.14501306 0.26626152 0.19844632 0.94325173 0.0010960072
-0.31719044 -0.2257666 -0.14652444 0.2486894 0.18752986 0.95025581 0.0017632795
-0.30693185 -0.22402391 -0.14976391 0.20591821 0.16547704 0.96447659 0.0025115865
-0.20248327 -0.22088909 -0.14778103 -0.19665435 -0.22041696 0.95537603 0.0023279374
-0.19350667 -0.22139817 -0.14566672 -0.2124036 -0.24224758 0.94667882 0.0016604183
-0.17278238 -0.22625569 -0.14200588 -0.22769664 -0.29293337 0.92862493 0.00050093065
0.19231237 -0.22555105 -0.14673947 0.18887909 -0.24701054 0.95042646 0.002135826
0.20430601 -0.22472465 -0.14895156 0.14807563 -0.1931721 0.96992683 0.002337205
0.31405348 -0.2289381 -0.14675757 -0.25117892 0.19958781 0.94713986 0.0014334571
0.32581863 -0.22454272 -0.14397585 -0.28339165 0.22229083 0.93288577 0.00084028614
0.33495912 -0.22619432 -0.14052616 -0.32410595 0.24513233 0.91370964 0.00060849253
-0.33899152 -0.21840274 -0.14117125 0.32130748 0.23843399 0.91646636 0.00054941798
-0.32611978 -0.21440662 -0.14645401 0.25690272 0.18623158 0.94832414 0.0015622855
-0.31349674 -0.2160317 -0.14968988 0.21228532 0.15747085 0.96443659 0.0022797044
-0.22018021 -0.21015242 -0.14948699 -0.18842052 -0.16394205 0.96830815 0.0019627975
