# .PCD v0.7 - Point Cloud Data file format
VERSION 0.7
FIELDS x y z normal_x normal_y normal_z curvature
SIZE 4 4 4 4 4 4 4
TYPE F F F F F F F
COUNT 1 1 1 1 1 1 1
WIDTH 562
HEIGHT 1
VIEWPOINT 0 0 0 1 0 0 0
POINTS 562
DATA ascii
-0.29416335 -0.39891389 -0.0012831754 0.60702473 0.79460889 0.010850328 0.0026389495
0.29712802 -0.39582837 -0.0062101432 -0.59356266 0.80340999 0.04707199 0.0019530908
0.30206102 -0.39235991 -0.0042849602 -0.59644008 0.8020519 0.031177634 0.001558112
-0.31414488 -0.38283893 -0.0057963338 0.61755997 0.78532922 0.043332789 0.0016399078
0.30844367 -0.38774136 -0.0025889159 -0.61220735 0.78997844 0.033707358 0.0016899587
0.31449318 -0.38305733 -0.0028447497 -0.61000949 0.79215777 0.01935244 0.0019435678
0.32470211 -0.37412408 -0.0095283166 -0.60153145 0.79460216 0.082262963 0.0015008306
-0.33760661 -0.3646957 -0.0066499989 0.61422461 0.78729361 0.053822521 0.0015082345
0.33716497 -0.36571863 -0.0024924653 -0.6186018 0.78556848 0.014631533 0.0021808099
0.34238639 -0.3612026 -0.0055893329 -0.62982768 0.77513623 0.049808972 0.0022075931
-0.35244793 -0.35376909 -0.0031773951 0.71363002 0.69971257 0.03368127 0.003859329
-0.34625053 -0.35868675 -0.0028586299 0.669218 0.74257773 0.026936077 0.0041412893
0.34417808 -0.35975793 -0.0060139685 -0.63828582 0.76744026 0.060221497 0.0023513746
0.35205072 -0.35391539 -0.0048086932 -0.70352644 0.70916927 0.046147205 0.0037506553
-0.35909227 -0.34549138 -0.0039348267 0.75258213 0.65694046 0.045269504 0.002413912
0.35635439 -0.34878743 -0.005203288 -0.73438323 0.67761248 0.039019518 0.003346957
0.36138016 -0.34188741 -0.0068369647 -0.76833719 0.63567322 0.074682511 0.0019730395
-0.36943257 -0.33161229 -0.005815885 0.79164892 0.60930026 0.045223329 0.0015580099
0.36940756 -0.33157974 -0.0061193439 -0.79535395 0.60374093 0.053934824 0.0018798941
0.37011293 -0.33014852 -0.0085073533 -0.79183209 0.60832828 0.054208487 0.002005595
-0.37560189 -0.324016 -0.0037464611 0.78647149 0.61752892 0.010978223 0.0017482796
0.37355587 -0.32746005 -0.00011991509 -0.79923481 0.60095465 0.0087860981 0.0022909003
-0.38407031 -0.31303886 -0.0034706306 0.79154098 0.61074305 0.021352829 0.0027413494
0.37845951 -0.31938031 -0.0079974886 -0.79374832 0.60433966 0.068827964 0.001830894
0.38402647 -0.31369072 -0.00069703453 -0.78418744 0.62047458 -0.0078310911 0.0021601135
-0.39269093 -0.3015348 -0.0047275149 0.79657167 0.60336745 0.037701406 0.0020432067
0.38798621 -0.30784875 -0.0038752924 -0.79147285 0.61060011 0.027170887 0.0022514185
0.39254421 -0.30211878 -0.0028955475 -0.79649031 0.60444838 0.015664494 0.0023006373
-0.39610785 -0.29728481 -0.0037805513 0.79510808 0.60603994 0.022774121 0.0022645527
0.3967213 -0.29535782 -0.009039158 -0.79752308 0.59901059 0.071716145 0.0012736283
0.40105662 -0.29048634 -0.0054084859 -0.80240786 0.5953061 0.041860349 0.0017363532
-0.40857407 -0.28145388 -0.001843352 0.79490238 0.60670567 -0.00619032 0.001897667
0.40606669 -0.28381041 -0.0060924906 -0.79252028 0.60824412 0.044167586 0.0016900653
-0.41497082 -0.2730915 -0.0019639791 0.78305012 0.62189871 0.0086372066 0.00218944
0.41272506 -0.27472663 -0.0079880366 -0.79018527 0.6101439 0.057720684 0.0015614792
-0.42128462 -0.26424855 -0.0048304596 0.80712318 0.58980465 0.026127048 0.0021391064
-0.41942239 -0.26603109 -0.007836164 0.80456829 0.59311116 0.029815447 0.0021600891
0.4221673 -0.26319456 -0.0043814769 -0.80207419 0.5964691 0.03002706 0.0023224957
-0.42677858 -0.25703758 -0.0050692041 0.83629864 0.54798859 0.017694028 0.0024515381
0.42567295 -0.25845858 -0.0051620365 -0.81779474 0.57408547 0.040468 0.0028942693
0.4317835 -0.25048918 -0.0051899208 -0.85868132 0.51044106 0.046002466 0.0036442073
-0.43393111 -0.24531047 -0.0072485502 0.87563014 0.4795939 0.057109602 0.0024236809
0.43475869 -0.24502499 -0.0022277222 -0.88195103 0.47010109 0.034165218 0.0030480782
-0.43974015 -0.23262493 -0.0033236581 0.91607231 0.40057647 0.018707842 0.0020065242
0.43912745 -0.23512626 -0.00032699778 -0.91359878 0.40635404 0.014617291 0.0033831631
0.44067645 -0.23093328 -0.001655988 -0.9268384 0.37442341 0.027885346 0.002498175
-0.4413625 -0.22661357 -0.009464886 0.91942811 0.38711107 0.069259971 0.0014448643
0.44215128 -0.22666951 -0.0037176034 -0.9266988 0.37508884 0.023188546 0.0023234226
-0.44691348 -0.21595506 -0.0014235202 0.92300558 0.38473207 0.0064784605 0.0025080261
0.44589394 -0.21622275 -0.0078546107 -0.92443866 0.37528777 0.067618981 0.0012348101
-0.45292675 -0.20181023 -0.0003310933 0.91824895 0.39597911 -0.0044041811 0.0019195953
0.44867718 -0.20987482 -0.0067657502 -0.9248262 0.374138 0.068682447 0.0013903008
0.45144552 -0.20373511 -0.0051726308 -0.92564362 0.37528962 0.048389565 0.0021540755
-0.043519553 -0.1909523 -0.0027698688 0.22913815 0.97338027 -0.0051571382 0.0051220739
-0.024625661 -0.19388126 -0.0061235186 0.12145675 0.9922418 -0.026539421 0.0018238748
-0.014650726 -0.19517517 -0.0059766634 0.094867043 0.99384022 -0.057286959 0.0032402652
-0.0033204015 -0.196878 -0.0075805029 0.032041818 0.99710542 -0.068949528 0.0040253415
0.0043616374 -0.196549 -0.0061225574 -0.045650881 0.99611288 -0.075333633 0.0047250753
0.010571607 -0.19505197 -0.00096154748 -0.075339966 0.99697167 -0.019271871 0.0040381704
0.028792661 -0.1938388 -0.0099678859 -0.13080029 0.9889906 -0.069201417 0.0018320276
0.033120129 -0.19265564 -0.0053085503 -0.14494818 0.98870903 -0.03800787 0.0037838556
0.45596015 -0.19146669 -0.0091860779 -0.92303276 0.37884158 0.067003876 0.0015993464
-0.46079308 -0.18099374 -0.0056832661 0.92281002 0.38366258 0.034996107 0.0023099047
-0.4579657 -0.18754317 -0.0064936853 0.92040288 0.38802683 0.047892116 0.0022110732
-0.071370669 -0.18162516 -0.0036351462 0.37411353 0.92701584 -0.026090432 0.0027724796
-0.069101185 -0.18344729 -0.0098786037 0.36420405 0.92746079 -0.084687144 0.0017625504
-0.059581459 -0.1863575 -0.0025673404 0.32764289 0.94463682 -0.017646389 0.0044435244
0.056500919 -0.18827251 -0.0070907176 -0.30566031 0.94889063 -0.078602321 0.0060172579
0.065870039 -0.18449256 -0.0078046229 -0.38897169 0.91890365 -0.065705843 0.0020604786
0.07380572 -0.18096334 -0.0060903616 -0.37470487 0.92563033 -0.052958727 0.0018722513
0.45829308 -0.18852754 -0.0012904584 -0.921417 0.38854316 0.0049930876 0.0020439641
0.46079177 -0.18033943 -0.0076111392 -0.92182797 0.38387501 0.05360331 0.0014985402
-0.46290863 -0.17556004 -0.0066399924 0.92711413 0.37306201 0.035835873 0.0024646947
-0.092213295 -0.17326233 -0.0055490136 0.47394857 0.8799631 -0.032214161 0.0042959847
-0.082838185 -0.17699109 -0.0044553815 0.39788958 0.91675609 -0.035244249 0.003470486
-0.077925615 -0.1793294 -0.0066033877 0.38905671 0.91918588 -0.061091989 0.0021687469
0.076823682 -0.17954695 -0.0049131345 -0.38350403 0.92325163 -0.023044271 0.0030454653
0.083812192 -0.1765884 -0.004461193 -0.40139085 0.91522902 -0.035231642 0.0038794763
0.09144146 -0.17330173 -0.0035652763 -0.44434595 0.89432752 -0.05229497 0.0051052868
0.46334377 -0.17510943 -0.004881185 -0.92033148 0.38808796 0.048762579 0.0016569145
-0.46740475 -0.16531456 -0.0048540919 0.92045456 0.3888903 0.03908455 0.0018954673
-0.11031607 -0.16104798 -0.0021941257 0.58167255 0.81341594 -0.0033982731 0.0037633562
-0.10600097 -0.16491078 -0.0055474364 0.56661296 0.82397115 0.0046310602 0.0048146872
-0.099346682 -0.16920748 -0.00062820449 0.51948446 0.85446519 0.0049985158 0.0054422752
0.1031265 -0.16701296 -0.0049189036 -0.52934521 0.84668541 -0.054013934 0.0048882319
0.46878171 -0.16311547 -0.0015554746 -0.92438728 0.3806757 0.024374355 0.0022874919
-0.4718554 -0.15479924 -0.0041812868 0.92202431 0.3844395 0.045579519 0.0018781438
-0.12223496 -0.15168795 -0.00089133898 0.61817908 0.78603411 -0.0022206414 0.0028717208
-0.11826164 -0.15504624 -0.0027722316 0.61524153 0.7882095 -0.014267803 0.0025666456
0.11401895 -0.15865879 -0.0049426015 -0.60367113 0.79579622 -0.047848076 0.0026335635
0.12150703 -0.15224028 -0.00085390691 -0.62860143 0.77771312 0.0047521158 0.0026704234
0.47195226 -0.15406331 -0.0056534242 -0.9231419 0.38101554 0.051343609 0.0014549862
-0.47570884 -0.14433053 -0.0075989431 0.93601179 0.34177729 0.084085174 0.0018458107
-0.13676715 -0.14158484 -0.0072604497 0.67831409 0.73265177 -0.055779118 0.0052417191
-0.12710871 -0.1484489 -0.0039350195 0.61749911 0.78609461 -0.027386406 0.002867423
0.13110012 -0.14523999 -0.0030467312 -0.65360117 0.75683433 -0.0027074052 0.0037902337
0.47647846 -0.14387327 -0.0034923602 -0.93219161 0.36087427 0.028083323 0.002184784
-0.48096046 -0.13351054 -0.0021499628 0.95714164 0.2881003 0.029632345 0.0032233931
-0.4785668 -0.13895009 -0.0031445343 0.94376105 0.32935581 0.028980695 0.0028196783
-0.14282751 -0.1348047 -0.0056610331 0.71963775 0.69196415 -0.057508308 0.0054906653
0.13953137 -0.13838711 -0.0023350706 -0.71803403 0.69600636 -0.0015201769 0.005934617
0.14098805 -0.13683622 -0.0039557521 -0.72688025 0.68675673 -0.0031918532 0.0055314731
0.47829127 -0.13860293 -0.0061124261 -0.94133598 0.33391541 0.048857681 0.0024524098
0.4814133 -0.13162681 -0.0044672135 -0.96122223 0.27307117 0.038522065 0.003731414
-0.14966588 -0.12602727 -0.0062883114 0.77528459 0.62957156 -0.050729506 0.0021356777
0.14928232 -0.12621845 -0.0048492062 -0.7752291 0.63025945 -0.042342599 0.0023092842
0.1523457 -0.12251987 -0.0062190355 -0.79192644 0.60979462 -0.031670071 0.0022287725
0.48278672 -0.12438703 -0.0063606678 -0.97469217 0.21428384 0.063699573 0.0032967497
-0.48375884 -0.11783458 -0.0055293045 0.98352045 0.17538829 0.04389181 0.0024289435
0.15688269 -0.11633676 -0.0049579586 -0.79203314 0.6099391 -0.02564737 0.0022546323
0.16154949 -0.1102325 -0.0048539429 -0.8104614 0.5843665 -0.04084206 0.0033771927
0.48417804 -0.11614643 -0.004033545 -0.98327792 0.17634463 0.045465603 0.0023678159
-0.48561943 -0.10483514 -0.0043961741 0.99011707 0.13547295 0.036265839 0.0018221625
-0.16343467 -0.10886246 -0.0099217873 0.82297873 0.56454116 -0.063240051 0.0032714873
0.16492675 -0.10590781 -0.005211181 -0.8243072 0.56325251 -0.057134122 0.0035992551
0.48562181 -0.10488909 -0.0043242178 -0.98952025 0.13605815 0.048351262 0.0014620431
-0.48758182 -0.091164164 -0.0031615514 0.99144405 0.12895042 0.020261513 0.0018301508
-0.17337988 -0.091214441 -0.0034530249 0.89499837 0.44454512 -0.036845293 0.0049627046
0.17068098 -0.09713573 -0.0017108899 -0.87620848 0.481518 -0.019978445 0.0061868825
0.48737705 -0.093442708 -0.0024378553 -0.99205548 0.1223506 0.029260097 0.0019599218
-0.48767686 -0.084342301 -0.0092617506 0.99045712 0.12611626 0.055582568 0.0018930678
-0.17657049 -0.084355079 -0.0059260773 0.90925193 0.41253132 -0.055487536 0.002386767
0.17533149 -0.087240212 -0.0056154197 -0.89902943 0.43314412 -0.064283237 0.0041451626
0.48781538 -0.08264792 -0.0099033853 -0.98889822 0.13070235 0.070690528 0.0013386818
-0.49015561 -0.073401861 -0.0013736536 0.9915942 0.12928 0.0052566691 0.0018468375
-0.48827037 -0.079278648 -0.00981702 0.99187827 0.11291432 0.058547586 0.0016501286
0.17984256 -0.075319409 -0.0025953136 -0.92047489 0.39064258 0.011150709 0.0026569224
0.18088166 -0.072054781 -0.0003788177 -0.92412752 0.3819533 0.010000192 0.0026020752
0.48915476 -0.073724627 -0.0086533371 -0.98856217 0.13485326 0.06752374 0.001301571
-0.18448596 -0.065431751 -0.006472813 0.93272924 0.35546696 -0.060492977 0.0032205069
0.18395853 -0.064956911 -0.001347214 -0.93251216 0.36078495 -0.015981415 0.0046485667
0.49107981 -0.062996596 -0.0047590979 -0.98913342 0.13720845 0.052810363 0.0015588617
-0.4915022 -0.0553964 -0.0091508441 0.99036556 0.12745373 0.054143995 0.0018250765
-0.19069873 -0.050819185 -0.0081435731 0.97365904 0.22043468 -0.058280867 0.0054478445
-0.18810239 -0.054634586 -0.00041516978 0.95531148 0.29537034 -0.01167391 0.0048612552
0.18759672 -0.056373473 -0.0019334359 -0.94837588 0.31676137 -0.015664162 0.0060051894
0.49255306 -0.05383968 -0.0027254985 -0.99001145 0.13577724 0.0379721 0.0013555803
-0.49380744 -0.042478975 -0.0045582033 0.99051964 0.13527894 0.023884431 0.0016106134
-0.19116278 -0.045536052 -0.0063854121 0.97603106 0.21494234 -0.034106646 0.0052636922
-0.49517477 -0.035090923 -0.0015602531 0.99125516 0.13176346 0.0071792174 0.0017468473
-0.19172511 -0.038287133 -0.003407632 0.98326194 0.18122448 -0.018805878 0.0046545723
0.19169237 -0.036871668 -0.0017429948 -0.98150826 0.19086747 0.014532791 0.0048208986
0.49509433 -0.035896242 -0.0013660258 -0.99248093 0.12228199 0.0053492901 0.002309002
-0.19426344 -0.021285813 -0.0056866514 0.98903197 0.13753806 -0.053843115 0.0018162687
0.19412073 -0.023422474 -0.0067392741 -0.99108332 0.11658666 -0.064508848 0.002114543
0.49603072 -0.022025511 -0.0081239017 -0.99037242 0.12450908 0.060497209 0.0013093635
-0.49740729 -0.016554492 -0.0031389764 0.99485052 0.098949768 0.021941202 0.001990522
-0.19527972 -0.012005678 -0.0041256682 0.99635273 0.0719954 -0.045801584 0.0052840975
0.19520599 -0.013075896 -0.0046361131 -0.99601418 0.081629708 -0.035947856 0.0049103634
-0.49766958 -0.0079683084 -0.009733553 0.99625069 0.06353204 0.0587207 0.0019559921
-0.19607055 -0.0029828211 -0.0011095001 0.99994391 -0.0090035787 -0.0055753845 0.0068622623
0.19628967 -0.0053234398 -0.005115157 -0.99795985 0.055820651 -0.030984327 0.0054882257
0.49906957 -0.0033607008 -0.0037064988 -0.99959451 0.0045455443 0.028112272 0.0029262616
-0.49845609 0.0062014833 -0.0055258004 0.99866635 -0.040884029 0.031527456 0.0033701155
0.19653748 0.0055353763 -0.0072092675 -0.9976908 -0.045959618 -0.050007738 0.0045169792
0.49851584 0.0053612865 -0.0059120017 -0.998752 -0.031127181 0.039058905 0.0031555453
-0.49743718 0.014259073 -0.0052076774 0.99519885 -0.090472884 0.037335306 0.0019487434
-0.1945664 0.016406031 -0.0031075883 0.99402076 -0.10878652 -0.0093972962 0.0040243496
0.19499516 0.013044048 -0.0030027977 -0.99704611 -0.076805793 -5.3756077e-05 0.0043176855
0.49706095 0.016231149 -0.0060930955 -0.99125981 -0.11959288 0.05569106 0.001630648
-0.49611363 0.024510562 -0.0050096004 0.99177277 -0.12439604 0.030207641 0.0018166074
-0.19351378 0.024346899 -0.0030532214 0.99311626 -0.11713097 0.00058331189 0.0032387648
0.19332284 0.027318351 -0.004574263 -0.99367946 -0.11137216 -0.014050623 0.002012756
0.4959611 0.024989009 -0.0056893118 -0.98933488 -0.1346577 0.055531748 0.0010984157
-0.49475306 0.035214417 -0.0046403836 0.98998421 -0.1378884 0.03030006 0.0019677666
-0.19264488 0.035890821 -0.0079972511 0.98883766 -0.13820809 -0.055664983 0.0026404969
0.19288336 0.034235816 -0.0081534302 -0.98443335 -0.16749544 -0.053256255 0.0037945861
0.49495244 0.035400275 -0.0029395435 -0.99301964 -0.11647779 0.018569808 0.0018552116
-0.49353677 0.044686701 -0.0044071609 0.99142313 -0.11589755 0.060397439 0.0014769575
-0.19186334 0.042049289 -0.0082194973 0.98206151 -0.18098928 -0.052895751 0.0044254507
0.19113535 0.04478132 -0.0054213065 -0.96692795 -0.25454232 -0.016080361 0.0054223118
0.49316955 0.048155706 -0.0037266398 -0.99180949 -0.12705946 0.013025981 0.0021040572
-0.49285102 0.052821055 -0.0014816877 0.99217939 -0.12428304 0.011566413 0.0027402593
-0.1901914 0.051595137 -0.0062894644 0.96250927 -0.26764712 -0.044055626 0.0066762827
-0.18944505 0.053716905 -0.007227309 0.95943016 -0.27539143 -0.060442042 0.0062664249
0.1873949 0.058361858 -0.0063338391 -0.94486952 -0.32549495 -0.035702679 0.0042404137
0.49225545 0.055040818 -0.0037849909 -0.99171853 -0.12727532 0.017187223 0.0023937966
-0.49113292 0.064970672 -0.0023819781 0.99212921 -0.12217836 0.027424185 0.0027913135
-0.48960966 0.069828257 -0.0090941489 0.9890213 -0.12738222 0.074903511 0.0016865967
0.18541998 0.062669732 -0.004985237 -0.93761933 -0.34546167 -0.039067179 0.0037390501
0.49057117 0.064763874 -0.0068546035 -0.98909599 -0.1355502 0.057578374 0.0018575394
-0.4902806 0.070393652 -0.0034329211 0.99071747 -0.13276161 0.029208491 0.0019620848
-0.48941794 0.076420762 -0.0039579505 0.99006313 -0.13772914 0.028384855 0.0025434305
-0.18178488 0.071760774 -0.0059094625 0.92464215 -0.37948176 -0.032101814 0.0024333363
0.17991656 0.075222038 -0.0028330062 -0.92654014 -0.37577185 -0.017858723 0.0025832343
0.18135186 0.072478697 -0.0049493802 -0.93113828 -0.36402956 -0.021541702 0.0025000758
0.48931494 0.075090535 -0.0060701687 -0.98780954 -0.14365381 0.059964765 0.001795387
-0.48806119 0.08634375 -0.0043403483 0.99053943 -0.13354155 0.031595469 0.0022096834
-0.17753258 0.082026482 -0.0059084366 0.90812272 -0.41587108 -0.048625048 0.0022316282
0.17776409 0.082001746 -0.0074748415 -0.9175148 -0.39482462 -0.047751661 0.0021593694
0.48827553 0.085478567 -0.0035773718 -0.98990005 -0.14067498 0.017560109 0.0021119914
-0.48629013 0.096659772 -0.0074770171 0.98762673 -0.14214467 0.066244133 0.0016159776
-0.17375198 0.091938354 -0.0082090376 0.88497138 -0.46016461 -0.071233258 0.0048336838
0.17313056 0.093306847 -0.0078232624 -0.87797016 -0.47264069 -0.07602118 0.0041814251
0.48676699 0.095583506 -0.0049307952 -0.99136925 -0.12727425 0.031434715 0.0015745404
-0.48499447 0.10551074 -0.0084679192 0.98831403 -0.14438961 0.048857376 0.0017788177
-0.16480325 0.10566726 -0.0033379251 0.83754069 -0.54633856 -0.0063067996 0.0042174254
0.48558512 0.10529725 -0.0041945274 -0.99106705 -0.12758704 0.03882765 0.0018539703
-0.48401368 0.11474692 -0.0066812285 0.98490304 -0.16921867 0.036483873 0.0018163688
-0.16136485 0.11050749 -0.0050133383 0.82509905 -0.56495374 -0.006231105 0.0035836978
-0.15716466 0.11616242 -0.0058582327 0.80140293 -0.5977838 -0.020194098 0.0023007493
0.15725321 0.11662873 -0.0085719656 -0.79545408 -0.60395503 -0.049912091 0.0017197421
0.48439026 0.11562059 -0.002946838 -0.98413277 -0.17495815 0.029535046 0.0023864191
-0.15207092 0.12270655 -0.0054192059 0.78532666 -0.6183688 -0.029699668 0.0018162887
-0.14802627 0.1284229 -0.0074959062 0.76398695 -0.64309049 -0.052521598 0.0035313389
0.15155819 0.12355146 -0.0062438576 -0.7755022 -0.62930447 -0.05071706 0.0017589403
0.48310661 0.12424092 -0.0040773298 -0.9721638 -0.23341712 0.020345636 0.0024545817
-0.48077372 0.13321513 -0.004337898 0.96072245 -0.27543357 0.033892255 0.0028778643
-0.47930291 0.13668382 -0.0045789289 0.95153594 -0.30470312 0.041656975 0.003133907
-0.14185812 0.13613701 -0.005982995 0.73085719 -0.68132073 -0.040618286 0.00493094
0.14479771 0.13147177 -0.0020924984 -0.74709392 -0.66386044 -0.033764273 0.0059308428
-0.47650519 0.1436591 -0.0039310595 0.93418634 -0.35553455 0.02985285 0.0026998592
-0.13124821 0.14508732 -0.0028095685 0.63949132 -0.76878345 -0.0047927448 0.0037256214
-0.12883611 0.14808398 -0.0097739212 0.63848317 -0.76653582 -0.069007732 0.003199551
0.12805541 0.14775655 -0.0041428739 -0.63203168 -0.77386796 -0.040797338 0.0036051425
0.13561626 0.14201716 -0.0045214156 -0.67015612 -0.74131894 -0.036564052 0.0048937309
0.47591621 0.14575951 -0.0019416561 -0.93192363 -0.3622345 0.017448913 0.001852362
-0.47205272 0.15435359 -0.0040913783 0.92438084 -0.38077456 0.023038171 0.0023350185
-0.11802862 0.15561223 -0.0051261587 0.60703909 -0.79449677 -0.016685143 0.002426577
0.11612141 0.15680267 -0.0034671982 -0.61779135 -0.7843833 -0.055467479 0.0015203579
0.1233691 0.15160611 -0.0056845006 -0.62477881 -0.77928227 -0.048688371 0.0027900515
0.47227311 0.15203984 -0.0093153091 -0.92420322 -0.37402856 0.077143155 0.0010453649
-0.46749708 0.16504802 -0.0049823746 0.92422706 -0.38011345 0.036305401 0.0024796205
-0.11120479 0.16051997 -0.0031302215 0.59580898 -0.80309796 -0.0067373416 0.0033199969
-0.10372122 0.1667963 -0.0063758725 0.52172422 -0.85296202 -0.016115448 0.0063191117
0.10517821 0.16521183 -0.0035409005 -0.55620617 -0.83065242 -0.025518341 0.0048726615
0.11280084 0.16011438 -0.008109198 -0.5974496 -0.79952568 -0.06174745 0.0023277488
0.46698669 0.16575269 -0.0065286695 -0.91990858 -0.38831022 0.054619864 0.0016507051
-0.4637509 0.17381524 -0.0057941237 0.92687619 -0.37269282 0.044727113 0.0023382027
-0.092765301 0.17333679 -0.0076948963 0.47317326 -0.87996668 -0.0420199 0.0046827844
-0.087576985 0.17494999 -0.0039018756 0.44173214 -0.89681411 -0.024436984 0.0042836736
-0.077624261 0.17943841 -0.0064916103 0.39849937 -0.91617817 -0.042613134 0.0025345022
0.078900933 0.17853133 -0.0038145015 -0.38971636 -0.92081827 -0.014662157 0.0029691516
0.090961441 0.17369096 -0.0049135317 -0.45146909 -0.89112842 -0.045451861 0.0038184107
0.46408075 0.17420062 -0.0023289341 -0.92380792 -0.38189206 0.027153699 0.0023183636
-0.45807895 0.18842097 -0.0031191967 0.9256655 -0.37810886 0.013308844 0.0027165345
-0.060802199 0.18663841 -0.008134258 0.33304042 -0.94079185 -0.063204646 0.0036283534
-0.053963367 0.18906918 -0.0052890512 0.29300955 -0.95523131 -0.040971112 0.0045424881
0.054768454 0.18908766 -0.0077804546 -0.30052039 -0.952259 -0.053762693 0.0057613426
0.064196609 0.18500124 -0.0064982534 -0.35284528 -0.9352029 -0.029928431 0.0034195164
0.071970716 0.18182921 -0.00683888 -0.35835892 -0.93273395 -0.039828852 0.0024701955
0.46005952 0.18389013 -0.0023833027 -0.92338687 -0.3818984 0.038863726 0.0012547554
-0.4540011 0.19655006 -0.0081493687 0.91677213 -0.39365861 0.067540243 0.0016930966
-0.044679705 0.19136667 -0.0070770062 0.19782858 -0.97916955 -0.045726079 0.0037723449
-0.035969928 0.19240008 -0.0062167249 0.1681969 -0.98392177 -0.060064357 0.0027396192
-0.023733618 0.19379431 -0.0045708362 0.12958187 -0.99063331 -0.04305926 0.0016059011
-0.015982116 0.19433177 -0.00090192206 0.10018328 -0.99495536 0.0052096373 0.0044606216
0.00832594 0.1959357 -0.0054287338 -0.027885206 -0.99745291 -0.065652013 0.0045706397
0.012572666 0.19514042 -0.0036349189 -0.064692944 -0.99739999 -0.031748917 0.0056723128
0.028220687 0.19288108 -0.0021211496 -0.14520086 -0.98940194 -0.00074812025 0.0026988988
0.039264061 0.19189677 -0.00568781 -0.17947805 -0.98369753 -0.011258431 0.0046495758
0.046131752 0.19094229 -0.0053054448 -0.25334871 -0.9673664 0.0040609045 0.0060479203
0.45434231 0.19608484 -0.0070976182 -0.92475951 -0.37570906 0.060519699 0.0015189624
-0.4529143 0.20176809 -0.00054323312 0.91675729 -0.39944226 -0.0014226217 0.0023559453
0.44984892 0.20762756 -0.0050606276 -0.92183393 -0.38624591 0.032193687 0.0020922462
0.45189726 0.20194912 -0.0072105788 -0.9245007 -0.37822205 0.047396258 0.0020008227
-0.44515961 0.21818894 -0.0072878231 0.9199757 -0.38916159 0.046881378 0.0015578675
0.44699502 0.21463434 -0.0047185533 -0.92542845 -0.37793598 0.027323684 0.0024666537
0.44371051 0.22337249 -0.002347789 -0.92446077 -0.38081494 0.01876957 0.0018046873
-0.44054797 0.23008613 -0.0050489218 0.92098951 -0.38784885 0.036762796 0.0017849838
0.43886778 0.23347566 -0.0070043374 -0.91142178 -0.40878776 0.04693491 0.0014470705
-0.43466592 0.24412344 -0.0055278339 0.88396615 -0.46605098 0.037420325 0.0027000378
0.43479961 0.24407181 -0.0047329869 -0.87950295 -0.47515845 0.026437601 0.002189148
-0.43111476 0.25174499 -0.0033976517 0.85930026 -0.5104143 0.032866124 0.0032275971
0.42766812 0.25642291 -0.0025291641 -0.83216006 -0.55378073 0.028924296 0.0023528573
-0.42199633 0.26364115 -0.0033379465 0.80362964 -0.59482217 0.019128397 0.002050827
-0.41917858 0.26684609 -0.0055171368 0.79374236 -0.60735196 0.033115406 0.0021022274
0.41953975 0.2666012 -0.0044640368 -0.79932201 -0.59991533 0.034436226 0.0019468637
0.42403269 0.26074219 -0.0044810385 -0.81311291 -0.58189827 0.015548915 0.0023162996
-0.41267437 0.27536455 -0.0053213984 0.79072666 -0.60987568 0.052943423 0.0017349587
0.41492432 0.27279767 -0.0036167006 -0.79203862 -0.60986441 0.027208421 0.0020176184
0.40752769 0.2823554 -0.0039987355 -0.79333746 -0.60548317 0.063291833 0.0015380331
-0.40029359 0.29134998 -0.0060188677 0.79044574 -0.61135256 0.037995003 0.0018452236
-0.39779869 0.2947247 -0.005443871 0.79082066 -0.61143917 0.027292831 0.0020077697
0.39814141 0.29424739 -0.0055861613 -0.78741252 -0.61506325 0.0409711 0.0021339671
-0.39239308 0.30233005 -0.0028291028 0.79903358 -0.60115969 0.012343893 0.0020862182
0.38943219 0.30507895 -0.0080040935 -0.79107839 -0.60960925 0.050710361 0.0014598875
0.39007789 0.30529183 -0.0030869208 -0.78882813 -0.61424369 0.021327736 0.0019542049
-0.38208532 0.31604871 -0.0014987373 0.78906143 -0.61378616 0.02546593 0.0018580207
0.37948123 0.31829756 -0.0068369731 -0.78930253 -0.61193991 0.050309282 0.0015745882
-0.37445047 0.32524344 -0.005020509 0.79809958 -0.60161746 0.033067644 0.001678385
0.37443566 0.32573068 -0.0028371392 -0.79493958 -0.60648537 0.015702287 0.0022442387
0.36610392 0.33574817 -0.0067585348 -0.79169732 -0.60809648 0.058600668 0.0016889122
0.37076211 0.3305113 -0.0028689839 -0.8022989 -0.59557408 0.040099271 0.001757179
-0.36102486 0.34241188 -0.0065510496 0.76912153 -0.63749814 0.045257956 0.0019665533
-0.35909843 0.34494439 -0.0064488337 0.75911409 -0.64975995 0.039468519 0.0022837115
0.35944676 0.34488857 -0.0045916256 -0.75405449 -0.65546334 0.042067025 0.0028272246
0.36165386 0.34183678 -0.0054096673 -0.76310372 -0.64379573 0.056567159 0.0026612889
-0.35259971 0.35325447 -0.0038628858 0.7067309 -0.70722538 0.019072665 0.0037615115
-0.34858936 0.35606885 -0.0078628911 0.67706192 -0.73234707 0.072490238 0.003237755
0.34828556 0.35659924 -0.0060558901 -0.66484767 -0.7446909 0.058421157 0.0024599405
0.35315052 0.3527526 -0.0036646596 -0.70555145 -0.70818532 0.025898719 0.0038826254
-0.34351584 0.36095509 -0.0018263306 0.63338757 -0.77377486 0.0096292198 0.0028269219
-0.33535832 0.3664341 -0.0065700999 0.60700548 -0.79297549 0.052289851 0.0018287118
0.33463824 0.36722082 -0.005146482 -0.60515678 -0.79516709 0.038659375 0.0014310462
0.34140629 0.3619782 -0.0054468866 -0.63955498 -0.76665407 0.056664329 0.0019551401
-0.32409614 0.37520504 -0.005784702 0.61208504 -0.78973633 0.040847056 0.0021594903
0.31902629 0.37875655 -0.0078437924 -0.60621691 -0.79305309 0.05973212 0.001466628
0.3255415 0.37407863 -0.0058898525 -0.59821081 -0.80036181 0.039556872 0.0017740135
-0.31362525 0.38286266 -0.0080760922 0.61083728 -0.78984368 0.054996841 0.0017725887
-0.30644733 0.38941577 -0.0017228595 0.60904205 -0.79308945 0.0087744156 0.0024628907
0.31392494 0.38326034 -0.0042615025 -0.61664927 -0.78686398 0.024263095 0.0019341792
-0.30352667 0.39135122 -0.003580533 0.60801083 -0.79350036 0.02607584 0.0025038114
-0.29835987 0.39484814 -0.0064230869 0.60206676 -0.79702568 0.047598548 0.0021700256
0.2949107 0.39824557 -0.0018601324 -0.608836 -0.79285198 0.02654111 0.0022017057
-0.28758705 0.40339595 -0.0047121872 0.60658818 -0.79384506 0.043137308 0.0021972542
0.28472048 0.40586555 -0.0030712665 -0.60915804 -0.79251754 0.029024307 0.0023282671
-0.27313158 0.41456613 -0.0042376514 0.61662054 -0.78688693 0.024249645 0.0025343923
-0.26717585 0.4190608 -0.0046950965 0.59996456 -0.79951596 0.028579731 0.0021505645
0.26688579 0.41878772 -0.0077078859 -0.6078577 -0.79126734 0.066370457 0.0015677362
0.27403229 0.41350675 -0.0064756954 -0.60508251 -0.79327327 0.067769617 0.001476608
-0.26317251 0.4218027 -0.0067005395 0.59463847 -0.80246907 0.049481045 0.0023523755
-0.25558093 0.42820323 -0.0032037124 0.55036533 -0.83460051 0.023236951 0.0029811703
0.25771001 0.42611751 -0.0059513575 -0.57154429 -0.8192206 0.047062483 0.0027008825
0.26096147 0.42412895 -0.0028735572 -0.58335489 -0.81206501 0.015733112 0.0024552196
-0.248181 0.43241677 -0.0095512262 0.4797807 -0.87456805 0.070294015 0.0021898036
-0.23407243 0.43871385 -0.006343829 0.39758125 -0.91671777 0.039468657 0.0022859273
0.23715958 0.43811542 -0.0015292156 -0.41599345 -0.90930647 0.010544611 0.0022068995
0.24429551 0.43451744 -0.0060746856 -0.46989179 -0.88152164 0.046057381 0.0029665285
0.25070655 0.4310329 -0.0087381369 -0.50608742 -0.85980844 0.067860581 0.0029799726
-0.22477733 0.44329354 -0.0011805169 0.37934276 -0.92524046 0.0053934115 0.0024117082
0.21560733 0.44653165 -0.0051460969 -0.38204622 -0.92366838 0.029622857 0.0023471843
0.22530451 0.4425028 -0.0052320412 -0.38187358 -0.9236874 0.031208208 0.0019192555
-0.20258412 0.45232973 -0.0022883455 0.38243392 -0.92380977 0.017883286 0.0025811545
-0.18644699 0.45852348 -0.0057598054 0.38461033 -0.92186219 0.047380965 0.0021938253
0.186361 0.45825481 -0.007913555 -0.39164004 -0.91854006 0.053872436 0.0017503647
0.19354689 0.45543417 -0.0068108081 -0.38787928 -0.92078602 0.04126513 0.0021609503
-0.18231477 0.46006596 -0.0069569889 0.38040501 -0.9226144 0.063833334 0.0018361245
-0.17949098 0.46167135 -0.0038724877 0.38639677 -0.92184848 0.029882573 0.0022604244
-0.16409661 0.46815979 -0.0030807974 0.39190358 -0.91998762 0.0058610053 0.0020580948
0.16625674 0.46731138 -0.0027532603 -0.38979504 -0.92060745 0.023274878 0.0025944354
0.17879979 0.46125889 -0.0088183489 -0.38277575 -0.92145193 0.066400766 0.0018329225
-0.15203747 0.47270632 -0.0062558134 0.3803229 -0.92262506 0.064166956 0.0012635777
-0.14398734 0.47644764 -0.0033758138 0.3571679 -0.93361002 0.028344367 0.001884873
-0.13828792 0.47889444 -0.0027670849 0.32397205 -0.94559163 0.029978992 0.002475108
0.14608656 0.47547042 -0.0041383877 -0.368725 -0.92880249 0.036983225 0.0017016769
0.1531639 0.47210783 -0.007189665 -0.37582403 -0.92515504 0.053333476 0.0015464899
-0.13328603 0.48015574 -0.0085050566 0.29930636 -0.95118457 0.075256847 0.0026275446
-0.12626396 0.48258549 -0.0060124705 0.25419331 -0.96585405 0.050118327 0.0032788503
-0.11418799 0.48459077 -0.0028573936 0.16961518 -0.98529822 0.020446461 0.002022892
-0.10369072 0.48594427 -0.0030733142 0.14032283 -0.98996621 0.016624654 0.002142546
-0.095517375 0.48669505 -0.0055432133 0.13405523 -0.99031538 0.036121596 0.0025068433
-0.083884485 0.48831895 -0.0048417351 0.12423374 -0.99123645 0.044902079 0.0020804519
-0.078930736 0.48916963 -0.0033340612 0.11911613 -0.99225223 0.035310518 0.0019309153
0.074304238 0.48901853 -0.0091078579 -0.12881483 -0.98988658 0.059424784 0.001558919
0.087856859 0.4879629 -0.0035744638 -0.1258938 -0.99177086 0.023268107 0.0017535669
0.095603816 0.48669744 -0.005440061 -0.12081108 -0.99120456 0.054020401 0.0014922525
0.10349333 0.48550567 -0.0066021895 -0.12140346 -0.99086303 0.058750678 0.0015169473
0.1146512 0.48372039 -0.0090050753 -0.16810498 -0.98316365 0.071623117 0.0017072161
0.12319811 0.48349547 -0.0021666486 -0.2071089 -0.97816366 0.017372243 0.0032265387
0.13016841 0.48191929 -0.0051617343 -0.2746267 -0.96056348 0.043564126 0.0031631358
-0.07046131 0.49012664 -0.0045351591 0.11942996 -0.99259853 0.022015136 0.0020236582
-0.068487726 0.49050611 -0.0036260774 0.11943688 -0.9925977 0.022014387 0.0020569488
-0.04418835 0.49305776 -0.0085439682 0.13037972 -0.98945844 0.06303291 0.0021322772
-0.035196178 0.49506003 -0.0023274634 0.14368692 -0.98961395 0.0042751478 0.0021297156
-0.024237299 0.49599758 -0.0061643468 0.1333546 -0.99038506 0.036797911 0.0023971491
-0.018758155 0.49681312 -0.0054484894 0.10346236 -0.99399042 0.035755649 0.0021896418
-0.0072969506 0.49839449 -0.004898225 0.040950395 -0.9989531 0.020388739 0.0024073236
0.0070254947 0.49804229 -0.0078444621 -0.048749413 -0.99728751 0.05514621 0.0015640914
0.019732142 0.49639094 -0.0076813879 -0.10804395 -0.99245721 0.0579236 0.0011231222
0.021841299 0.49647272 -0.004950908 -0.10595889 -0.99359763 0.039199501 0.0014134111
0.031181628 0.4954412 -0.0034457312 -0.1346333 -0.99078387 0.014871915 0.0019881686
0.043708518 0.49335352 -0.0067763701 -0.13721313 -0.98972267 0.040267657 0.0018138988
0.053367466 0.49194434 -0.0078210831 -0.12615715 -0.99059105 0.053044878 0.0020142123
0.065147385 0.49100852 -0.0031497029 -0.130573 -0.99140936 0.0076258783 0.0020199753
-0.0625965 -0.49099541 0.0058006006 0.12552978 0.99102777 -0.045893129 0.0020864194
-0.05393859 -0.49184102 0.0080353767 0.13097423 0.98862982 -0.073870644 0.001258585
-0.03339785 -0.49487224 0.0055516455 0.1309582 0.99081761 -0.033621117 0.0019967356
-0.021567717 -0.49648947 0.0050974982 0.12649778 0.9915601 -0.028405398 0.0022698045
-0.018616585 -0.49662295 0.0070346836 0.12561131 0.99110037 -0.044066221 0.0022069507
-0.0052783033 -0.49882704 0.0036312223 0.055444047 0.99802172 -0.0296409 0.0029586183
0.0037764232 -0.49843603 0.0081030447 -0.032651223 0.99804646 -0.053265423 0.0032340165
0.015117019 -0.49703148 0.00743121 -0.088275827 0.99521291 -0.041936118 0.0022246556
0.025886485 -0.49615812 0.0032954214 -0.13298889 0.99063969 -0.030773526 0.0020358886
0.032140683 -0.4951013 0.0050686728 -0.13867247 0.98969293 -0.035746448 0.0015809673
0.047188435 -0.49299932 0.0059870249 -0.12206113 0.99142545 -0.046655014 0.0019534591
0.052180629 -0.49242806 0.0053339652 -0.12042867 0.99244428 -0.023479898 0.0025766699
0.064041197 -0.49110866 0.003495509 -0.10976298 0.99387687 -0.012680381 0.0023124865
-0.13139929 -0.4810625 0.0076175295 0.28513071 0.95673472 -0.057957765 0.0031125576
-0.124308 -0.48329806 0.0025557687 0.22192225 0.97497088 -0.013499031 0.003241092
-0.11445354 -0.48412687 0.0061148154 0.16181794 0.98573971 -0.046175737 0.0024904392
-0.10652942 -0.48545456 0.0039542364 0.13287988 0.9903506 -0.039352924 0.002150557
-0.098476067 -0.48638743 0.004921556 0.12182294 0.99156773 -0.044187523 0.001999082
-0.084516451 -0.4887411 0.0010034175 0.11970176 0.99273044 -0.012557278 0.0022368964
-0.07548251 -0.48958421 0.0036334246 0.12381476 0.9920994 -0.02021651 0.0023274175
0.074372657 -0.48971948 0.0037155524 -0.13146324 0.99060595 -0.037647344 0.0015741775
0.08959946 -0.48725608 0.007200188 -0.13710226 0.98934722 -0.048940029 0.001916791
0.091415539 -0.48694572 0.0077415071 -0.13711891 0.98934454 -0.048947148 0.0019885004
0.10290835 -0.48559117 0.0065376237 -0.13276054 0.9893977 -0.058880344 0.0015676792
0.11583054 -0.48349655 0.0095256353 -0.1671717 0.98393452 -0.06266202 0.0019306252
0.12299129 -0.48308623 0.0054814941 -0.22495541 0.97369862 -0.03614166 0.0030708932
-0.15365618 -0.47232038 0.0042412034 0.38909629 0.92058426 -0.033597268 0.0021800839
-0.14487031 -0.47595561 0.0042697461 0.3694132 0.92852986 -0.03696223 0.0024031261
-0.13895845 -0.47860461 0.0028521563 0.33203262 0.94302118 -0.021573594 0.0029383274
0.13680802 -0.47851446 0.0097955484 -0.31996456 0.94507957 -0.066688016 0.00187913
0.14697245 -0.47515962 0.0037409193 -0.36749697 0.92986059 -0.01747432 0.0019233105
-0.17574994 -0.46370316 0.00045949098 0.38999006 0.92081213 0.0035872909 0.002115529
-0.16436939 -0.46816289 0.0022588915 0.39319295 0.91939366 -0.010705017 0.0020797788
0.16524452 -0.46800998 0.00077577488 -0.37718651 0.92612135 0.005445167 0.0022596084
0.1755228 -0.46309596 0.0054233139 -0.37912109 0.92416233 -0.046810698 0.0019763464
-0.20349632 -0.45131525 0.0067945835 0.37631008 0.92566848 -0.039097827 0.002265299
-0.19302088 -0.45611039 0.0035664784 0.3831268 0.92367727 -0.0058482285 0.0018982582
-0.18746327 -0.45812067 0.0056315516 0.38597208 0.92203981 -0.029464871 0.0016146655
0.18995591 -0.45741859 0.0032928213 -0.37564492 0.92580783 -0.042079728 0.0021699057
0.19470282 -0.45498928 0.0065704123 -0.37518907 0.92504793 -0.059325952 0.0023485564
0.20505789 -0.45135644 0.0019244323 -0.38774657 0.92171258 -0.0099265464 0.0029981493
-0.23075177 -0.44045985 0.0037211764 0.3913143 0.92011267 -0.016299836 0.0020837281
-0.22404321 -0.44317785 0.0041516051 0.3663649 0.93041676 -0.010070392 0.0020011668
-0.21261013 -0.44742164 0.0076336134 0.37813842 0.92468482 -0.044375554 0.0018512999
0.20915961 -0.4492031 0.0051404312 -0.37862056 0.92524046 -0.024011163 0.0030395763
0.21531796 -0.44677114 0.0042985072 -0.38819602 0.92151284 -0.010860133 0.0026177287
0.22609967 -0.44242769 0.0034315577 -0.39517212 0.91811156 -0.030166635 0.0023101345
-0.24742699 -0.43387848 0.0014156683 0.49079409 0.87116081 -0.01414438 0.0029018137
-0.2367802 -0.43776879 0.0050944346 0.43046084 0.90146148 -0.045504473 0.0021953057
0.23505603 -0.43881652 0.0027328844 -0.41855228 0.90818399 -0.0039756177 0.0020650539
0.24520314 -0.43398762 0.0071625756 -0.48315972 0.87472904 -0.037494142 0.0023606282
-0.26148045 -0.42299956 0.0073173521 0.57760149 0.81557226 -0.034905173 0.0018868844
0.2540521 -0.42952231 0.0023158421 -0.53320575 0.84596437 -0.0060035242 0.0028385101
0.26327673 -0.42151645 0.0079534547 -0.59725994 0.80085969 -0.043636911 0.0021249319
-0.27471435 -0.41305557 0.0060361992 0.60115993 0.79767847 -0.048122719 0.0019320931
-0.26877251 -0.41805565 0.0033576316 0.60744309 0.79431283 -0.0089467093 0.0020168396
0.26932251 -0.4175297 0.0039887466 -0.60794437 0.79381323 -0.016259063 0.00239392
-0.28908163 -0.40223777 0.0047807936 0.6104027 0.79049563 -0.0502511 0.0019962736
0.28331545 -0.40651453 0.0056782272 -0.6079461 0.7934382 -0.029279107 0.0017796687
-0.30088413 -0.39332294 0.0039207553 0.60729009 0.7928555 -0.050783932 0.0020999091
-0.2962496 -0.39682016 0.0042790473 0.6091814 0.79119241 -0.053969212 0.001718299
0.30093756 -0.39267695 0.0075971996 -0.60302657 0.79566622 -0.057221696 0.0018014469
-0.31464496 -0.3828741 0.003250493 0.62339139 0.78119075 -0.033530552 0.0020977708
0.30894354 -0.38698274 0.0048680846 -0.61711824 0.78599066 -0.037199892 0.0018738159
0.31360349 -0.38350099 0.0042968579 -0.61796552 0.78553391 -0.032480881 0.0019575977
-0.32412261 -0.37535882 0.0047268975 0.60271257 0.79775941 -0.017819198 0.0020208752
-0.31855193 -0.37886566 0.0093928194 0.60955614 0.78950226 -0.071607322 0.0014453279
0.32191658 -0.3766652 0.0070743659 -0.62120926 0.78170025 -0.055170212 0.0014185857
-0.3421661 -0.36158752 0.0042771171 0.62143117 0.78311068 -0.023683235 0.0030158013
-0.33608833 -0.36643776 0.0031428025 0.61213225 0.7904892 -0.020516943 0.0024439567
0.33591765 -0.36624897 0.0050858231 -0.6092962 0.79136425 -0.050007939 0.0013641064
-0.3532196 -0.35276797 0.0056920499 0.72151226 0.6909073 -0.045465831 0.0037099628
-0.34593177 -0.35860053 0.0048698084 0.6726799 0.73819327 -0.050719053 0.0036746881
0.35526982 -0.35112289 0.00090329396 -0.72930759 0.68410778 -0.010340212 0.0036259566
0.35904697 -0.34601089 0.0017872204 -0.7576139 0.65239888 -0.019919893 0.0031243851
0.36239016 -0.34106725 0.0045232391 -0.77790779 0.6280188 -0.021257209 0.002560023
-0.36559272 -0.33632633 0.0071690697 0.78211975 0.62180436 -0.040596154 0.0019541695
-0.37490219 -0.32482767 0.0042139417 0.78953695 0.61249369 -0.038508371 0.0020354541
0.37558487 -0.32437441 0.0021781649 -0.79309595 0.60907179 -0.0055203759 0.0024865705
-0.38256949 -0.31497073 0.0035827213 0.79137999 0.60913652 -0.051675986 0.0017106819
0.3849014 -0.31269419 2.6742167e-05 -0.78525281 0.61914444 -0.0061824406 0.0022362277
-0.39146858 -0.30246902 0.0077997902 0.79268503 0.60703045 -0.056252964 0.0019464499
-0.38717452 -0.30782402 0.0089245867 0.78885067 0.61107302 -0.065607987 0.0015993192
0.38826847 -0.30689365 0.0066143568 -0.79080075 0.61046135 -0.044396881 0.0023194156
0.39228949 -0.302113 0.004470598 -0.79377729 0.60714877 -0.035887577 0.0023259805
-0.39607072 -0.29778367 0.0016795795 0.79631722 0.60483479 0.0073353425 0.0024707576
0.3958188 -0.29671121 0.0082123401 -0.7910918 0.60903424 -0.05701888 0.0015126005
0.40024048 -0.29153359 0.0054846648 -0.79743296 0.60257149 -0.031752542 0.0019367647
-0.40450096 -0.28611556 0.0048585501 0.79370177 0.60759419 -0.029441338 0.0021156385
0.40502018 -0.28550404 0.0045544221 -0.79589605 0.60445213 -0.034453917 0.0020993487
-0.41069344 -0.27781802 0.0059187263 0.79147375 0.6098178 -0.041129429 0.0019153769
0.40924409 -0.27907446 0.0088679362 -0.79339975 0.60524803 -0.064742938 0.0014104953
0.41464749 -0.27305344 0.0041067563 -0.79543108 0.60513574 -0.033168811 0.0020553733
-0.41702831 -0.26906669 0.0082296841 0.79980117 0.59661657 -0.066081621 0.0015025227
0.41765133 -0.26905856 0.0044809193 -0.79525131 0.60537213 -0.033164002 0.0019006744
0.42368922 -0.26168725 0.0021610099 -0.79919726 0.60089797 -0.014327355 0.0026729871
-0.43090379 -0.25120425 0.007201171 0.84922963 0.52522564 -0.054286387 0.0023023316
-0.42812657 -0.25577724 0.0027535604 0.84127086 0.54042077 -0.014448823 0.0021717031
0.42606401 -0.2573837 0.0077980058 -0.82167363 0.56731457 -0.054833233 0.0025334626
0.43247303 -0.25056636 0.00063862902 -0.85996771 0.51024348 -0.010351976 0.0037936582
-0.43453678 -0.24435419 0.0057644336 0.87760133 0.47871438 -0.025466079 0.0031302818
0.43409455 -0.24572447 0.0048644799 -0.87789315 0.47693211 -0.042888418 0.0036209247
-0.43908471 -0.23425481 0.0031839195 0.9148739 0.40292645 -0.025615638 0.001739918
0.43912178 -0.23351315 0.0050963257 -0.91495287 0.39687997 -0.073127136 0.001835396
-0.44108948 -0.22898893 0.0044327294 0.91620535 0.39867598 -0.040314551 0.0018826636
0.4435173 -0.22349197 0.0033650398 -0.92776561 0.37239906 -0.023873327 0.002060015
-0.44734424 -0.21364281 0.0051533831 0.92336935 0.38333964 -0.020969795 0.0019516804
0.44697571 -0.21453488 0.0051466785 -0.92777461 0.37062916 -0.043222759 0.0019438178
-0.45273212 -0.20157382 0.0024017249 0.92210215 0.38680398 -0.010501413 0.0017263151
-0.44944891 -0.20756346 0.0080801751 0.92447984 0.37802532 -0.049334235 0.0017452536
0.45238698 -0.20116681 0.0060380362 -0.92179656 0.38545161 -0.041450601 0.0019017351
-0.45595479 -0.19302683 0.0046500037 0.92290932 0.38288417 -0.040472437 0.0023261742
-0.043141037 -0.19117145 0.0040559708 0.1985956 0.97989446 0.019149834 0.0048688278
-0.037960902 -0.19196884 0.0049325149 0.18708174 0.98208618 0.02252323 0.0050648171
-0.024676368 -0.19352703 0.0034833599 0.12318448 0.99238318 -0.0010665138 0.0022427468
-0.014805239 -0.19530737 0.0071351225 0.10492725 0.99319029 0.050629247 0.0032645208
-0.0038430816 -0.19669636 0.006723416 0.024309251 0.9994632 0.021958673 0.0069263396
0.0072330195 -0.19635223 0.0074994923 -0.078118339 0.99404848 0.075929657 0.00362408
0.015930448 -0.19531806 0.0083417688 -0.1102226 0.99223793 0.05757542 0.0022662908
0.024460796 -0.19352411 0.0032457244 -0.12996273 0.99105293 0.030394284 0.0026313304
0.03384633 -0.19197895 0.00089485495 -0.15199138 0.98837686 -0.0031198817 0.0037033691
0.04582734 -0.19077 0.00369308 -0.23589227 0.96987456 0.060812525 0.0042142924
0.45416242 -0.19782099 0.003280991 -0.92320657 0.38392749 -0.017008375 0.0020662623
-0.4606089 -0.1807014 0.0078438129 0.92176044 0.38166812 -0.068462104 0.001662601
-0.45887035 -0.18577084 0.0052868715 0.92440778 0.38054132 -0.025661232 0.0024887323
-0.075433709 -0.18082625 0.0098929023 0.38413981 0.92076701 0.06800507 0.0016202267
-0.065296173 -0.18425007 0.0044054436 0.34426552 0.9376747 0.047406156 0.0041001793
-0.056915835 -0.18716887 0.00049518963 0.32721311 0.94492042 -0.0075449948 0.0048335656
0.059721101 -0.18636739 0.0030470558 -0.32430163 0.94293809 0.075474329 0.0044617881
0.063341528 -0.18523838 0.0056701717 -0.37533674 0.92341685 0.080147512 0.0018329193
0.072789811 -0.18084003 0.0022389505 -0.36947262 0.9283253 0.041255508 0.0029125004
0.45895147 -0.18605787 0.0038712467 -0.92101294 0.38937235 -0.011149164 0.0022860314
0.46016249 -0.18282135 0.0047887377 -0.92273647 0.38503206 -0.017540751 0.0022373323
-0.46256858 -0.17798516 0.0019365775 0.92228472 0.38629588 -0.012900054 0.0025427865
-0.094152741 -0.17238703 0.0050398102 0.49164528 0.86901772 0.055615533 0.0052082953
-0.085392036 -0.1760124 0.0050156913 0.41596711 0.90736312 0.060526598 0.0040753558
0.07946007 -0.17854042 0.0055179675 -0.396458 0.91546029 0.068945087 0.0024808135
0.086531818 -0.17562306 0.0056017647 -0.40067726 0.91527581 0.041568208 0.0040004873
0.4630585 -0.17478621 0.0078480095 -0.92692953 0.37006646 -0.062067501 0.0013139066
-0.46682686 -0.16618001 0.0064071435 0.92844963 0.36666557 -0.05947822 0.0013023441
-0.11160961 -0.16077583 0.0065728528 0.59848738 0.79855865 0.064163737 0.0023256142
-0.1033854 -0.1666981 0.0042121331 0.54501939 0.83797419 0.027442267 0.0051210062
0.1057325 -0.16454555 0.0020759266 -0.54436469 0.83870542 0.015502889 0.005642612
0.46817777 -0.16402762 0.0031559567 -0.92503506 0.37805045 -0.037253417 0.0015720428
-0.47228819 -0.15492243 0.00075652887 0.92681348 0.37526134 -0.013989134 0.002436636
-0.12221733 -0.15199962 0.002703432 0.62110025 0.78345317 0.020872723 0.0026706462
-0.11560696 -0.15732926 0.0042675333 0.60138702 0.79852861 0.026183954 0.0032454573
0.11825553 -0.1555444 0.0057722125 -0.61783493 0.78529048 0.039987247 0.0023160283
0.12386902 -0.15135147 0.0064679524 -0.63555777 0.77104563 0.039434485 0.0024204655
0.47175226 -0.15466599 0.0053020907 -0.92125899 0.3879818 -0.027421957 0.0013879807
-0.47569051 -0.14469969 0.006646127 0.92875147 0.36802793 -0.044454392 0.0021220166
-0.1317507 -0.14537261 0.006886607 0.64728463 0.76019728 0.055882521 0.0038177648
-0.12723346 -0.14848563 0.0047398433 0.61592633 0.78605455 0.052469388 0.0023460882
0.12794045 -0.14857382 0.0085738851 -0.63289243 0.77226639 0.055243082 0.0021489738
0.13363762 -0.14393234 0.0069336169 -0.67856914 0.7315591 0.066069484 0.004699958
0.4758642 -0.14482579 0.0050471751 -0.930327 0.36450016 -0.040389307 0.002384821
-0.47905308 -0.13683501 0.0059036007 0.95176804 0.30315402 -0.047278836 0.0033274232
-0.14190124 -0.1357712 0.0045385384 0.7072193 0.70668602 0.020876726 0.0062429723
-0.13998638 -0.13795531 0.0030862035 0.69851977 0.71558416 0.0030469086 0.0071572396
0.13983327 -0.1390055 0.0070542032 -0.70067561 0.70974052 0.072952509 0.0051903278
0.14324328 -0.13432468 0.0059497901 -0.73487031 0.67684263 0.043006327 0.0046595102
0.47969526 -0.13531059 0.0058274204 -0.95079368 0.30470869 -0.056071274 0.0032429998
0.48114246 -0.13040051 0.0099795954 -0.95831364 0.27755278 -0.067818321 0.0031301542
-0.48330742 -0.12582217 0.00097015814 0.97140908 0.2373793 -0.0039249677 0.0032856099
-0.15301806 -0.12216657 0.008657353 0.78336012 0.62025619 0.040363435 0.0013990729
-0.14913747 -0.12729083 0.0089697409 0.77612501 0.62905186 0.043860991 0.0026635721
0.15269598 -0.12188467 0.0053855786 -0.77925986 0.62553424 0.038223933 0.0021711583
0.48276323 -0.12786405 0.002418878 -0.96776712 0.25109437 -0.019453567 0.0039994111
-0.48402324 -0.11749496 0.0038602559 0.98123187 0.19054976 -0.029577123 0.0021933212
-0.15824112 -0.11473612 0.0057489849 0.79903138 0.59947222 0.046712495 0.0023056956
0.15636891 -0.11703695 0.0051008863 -0.78985512 0.6117512 0.043465946 0.0020224045
0.16117285 -0.11075791 0.0050150244 -0.80201751 0.59390867 0.063564196 0.0022922074
0.48403344 -0.11561323 0.0056644431 -0.98468709 0.16457127 -0.057512462 0.0023110141
-0.48604748 -0.10419817 0.0017814646 0.99168736 0.12840554 -0.0082594594 0.0022538598
-0.16561587 -0.10531479 0.006633494 0.82403642 0.56623882 0.018370207 0.0049095126
0.16504663 -0.10527508 0.0029889189 -0.83195955 0.5522992 0.052998103 0.0038921095
0.48477376 -0.10893781 0.0067167352 -0.98725915 0.14421009 -0.0672521 0.0016981091
-0.48731872 -0.093712777 0.0026108732 0.99124414 0.13076869 -0.0182932 0.0020117187
-0.17308685 -0.093245775 0.0073345681 0.88100916 0.47155309 0.038216889 0.004773512
0.48653951 -0.096929267 0.0053127804 -0.98890764 0.13627908 -0.059073806 0.0014218441
-0.48739785 -0.089001492 0.0067212852 0.98979032 0.13528991 -0.044853337 0.002008161
-0.17678834 -0.084455937 0.0077637979 0.91409636 0.4034529 0.040663633 0.0024436389
0.17728716 -0.083413415 0.0082382634 -0.91051227 0.40976593 0.055310749 0.0033265897
0.48838168 -0.083208442 0.0050409799 -0.99126077 0.1277701 -0.03281571 0.001567197
-0.48976743 -0.07208851 0.0056353775 0.990421 0.1315092 -0.042091466 0.0013590588
-0.17891866 -0.078151748 0.0043596034 0.92185384 0.38674083 0.024838656 0.0025830287
0.1792932 -0.077243753 0.0043486413 -0.92269725 0.38470063 0.025203133 0.0025478916
0.18053615 -0.073714718 0.0027999023 -0.92157036 0.38739944 0.025094094 0.0021645809
-0.49071762 -0.065640286 0.0048661921 0.99117643 0.12753506 -0.036111392 0.0014055799
-0.18458991 -0.06439168 0.0041593048 0.93974042 0.34098032 0.024904799 0.0034610534
0.18489189 -0.063840024 0.0046792836 -0.93275297 0.35744253 0.046976034 0.0040039229
0.48992258 -0.069136627 0.0074084084 -0.99085206 0.12472922 -0.051525146 0.0017734156
0.49060866 -0.068487018 0.002846695 -0.99249744 0.12096564 -0.017779019 0.0023608932
-0.49189091 -0.05499249 0.0066020624 0.99055535 0.1297949 -0.044197254 0.0014947675
-0.1875115 -0.057733458 0.0053179902 0.95067614 0.30906057 0.026390929 0.0057438212
0.49200255 -0.055404771 0.0053412206 -0.99173892 0.12499003 -0.028834499 0.0023494361
-0.49307409 -0.044900119 0.0077074408 0.99039435 0.12873684 -0.050455693 0.0016098196
