# .PCD v0.7 - Point Cloud Data file format
VERSION 0.7
FIELDS x y z normal_x normal_y normal_z curvature
SIZE 4 4 4 4 4 4 4
TYPE F F F F F F F
COUNT 1 1 1 1 1 1 1
WIDTH 582
HEIGHT 1
VIEWPOINT 0 0 0 1 0 0 0
POINTS 582
DATA ascii
-0.11554407 -0.088926621 0.46777266 0.22570759 0.32535461 -0.9182595 0.0019598992
0.10904802 -0.08600989 0.46959463 -0.16642126 0.30988511 -0.93609565 0.00095512124
0.1185624 -0.085587852 0.46848193 -0.23256965 0.30721396 -0.92278427 0.0018654838
0.12629452 -0.083332404 0.46727788 -0.26258224 0.30633348 -0.91499203 0.0022465566
0.1338501 -0.080489248 0.46515954 -0.32066688 0.30826336 -0.89562637 0.0012229431
0.14503667 -0.081947632 0.46000719 -0.35608926 0.31207928 -0.88079911 0.00014131224
-0.1450357 -0.070595801 0.46404538 0.36371565 0.27873889 -0.88882822 0.00067982404
-0.1350117 -0.073454574 0.46718061 0.31745791 0.29325742 -0.90178746 0.0012415105
0.12732586 -0.075168312 0.46975461 -0.27552885 0.29393843 -0.91525078 0.001634028
0.13522443 -0.076532088 0.46599782 -0.33174425 0.30125922 -0.89397347 0.00081087329
0.14422858 -0.072470143 0.46371302 -0.35818931 0.28159177 -0.89017218 0.00069574837
0.15113619 -0.07136409 0.46124518 -0.36571449 0.28240696 -0.88684791 0.0005138141
-0.16090259 -0.06050114 0.46106371 0.36750647 0.22032502 -0.90354627 0.001784615
-0.15238155 -0.060327817 0.46465489 0.36170313 0.21951449 -0.90608186 0.0016441825
0.134719 -0.066795021 0.46967059 -0.32465059 0.25656152 -0.91037256 0.0015770583
0.14890569 -0.067830443 0.46342599 -0.36830306 0.25620684 -0.89370632 0.00092936686
0.15328868 -0.065385513 0.46248013 -0.36662066 0.25429666 -0.8949427 0.0010037326
-0.15747854 -0.057307169 0.46324575 0.36001104 0.20402075 -0.91036677 0.0015089484
0.14781371 -0.053100802 0.46778041 -0.3743864 0.17710707 -0.91020215 0.0011439414
0.15141596 -0.050066624 0.46663135 -0.3789295 0.16313308 -0.91093361 0.00094532582
-0.164719 -0.042729214 0.46195051 0.38198176 0.11695097 -0.91674 0.00020291354
-0.15625428 -0.047182441 0.4649533 0.37969416 0.13250984 -0.91557282 0.00068720395
-0.14475778 -0.044703577 0.46999556 0.37070075 0.12867622 -0.91979527 0.00050859642
0.14692542 -0.048209883 0.46870127 -0.37786531 0.15790787 -0.9122954 0.00072216685
-0.16276556 -0.036177844 0.46350029 0.38202459 0.11274216 -0.91724938 0.00010598161
-0.15743257 -0.036352042 0.46568966 0.38073483 0.10756148 -0.91840696 0.00026360253
0.14891243 -0.039495628 0.46886337 -0.38243097 0.12499864 -0.91548997 0.00038359922
0.15634409 -0.033964362 0.46641046 -0.38070285 0.1039077 -0.91884089 0
0.16393983 -0.032790963 0.46339679 -0.38072288 0.10418383 -0.91880131 0
-0.17126822 -0.0235068 0.46141091 0.38064998 0.10389719 -0.91886395 0
-0.16544916 -0.026234498 0.46351284 0.38065144 0.10391444 -0.91886133 0.00016292265
-0.15493496 -0.024531787 0.46806049 0.38076243 0.10391142 -0.91881573 0
0.16787927 -0.022607518 0.46291631 -0.38068685 0.10391705 -0.91884643 0.00014410849
0.17321147 -0.026215009 0.46029979 -0.38064411 0.10391549 -0.91886437 0.00014043481
-0.17205563 -0.018645465 0.46163434 0.38107264 0.09972991 -0.91915047 9.9159384e-05
-0.16648534 -0.013895078 0.46447864 0.37901083 0.094376087 -0.92056721 9.6863834e-05
-0.15782312 -0.015626092 0.46787095 0.38058445 0.102759 -0.91901898 0
0.15520808 -0.014951762 0.46903038 -0.38063231 0.10388032 -0.91887319 0
0.16566522 -0.014862276 0.46470898 -0.38015884 0.092252247 -0.92030901 0.00017825067
0.17512049 -0.019835033 0.46023035 -0.38074899 0.10263777 -0.91896445 0
-0.1773563 -0.0016994686 0.46135449 0.37350503 0.068418555 -0.92510164 0.00076512585
-0.16504851 -0.0050289365 0.46607614 0.37822163 0.077849157 -0.92243582 0.00038892866
0.16499971 -0.0059097428 0.46599677 -0.37976661 0.083456405 -0.92131013 0.00031105598
0.17923602 -0.0034082462 0.4603827 -0.38002178 0.068427622 -0.92244303 0.00076983415
-0.18188508 0.0083723292 0.46041989 0.37801358 -0.011509079 -0.9257285 0.0017635274
-0.17941825 0.0091589568 0.46135926 0.38204184 -0.018686473 -0.9239561 0.0019461064
-0.16593742 0.0077363839 0.4670915 0.37586686 -0.0095907282 -0.926624 0.0017158206
0.16551647 0.0032722668 0.46682078 -0.38228318 0.029658388 -0.92356908 0.0014909477
0.1767592 0.0076259184 0.46251246 -0.38211054 0.002446217 -0.92411333 0.0017891671
0.18181847 0.0084832041 0.46044147 -0.3807621 0.0079065477 -0.92463923 0.0016677522
-0.17324099 0.010089752 0.46381274 0.37878099 -0.018353546 -0.92530429 0.0018839153
-0.16048473 0.014634983 0.46858266 0.37280026 -0.041658934 -0.92697603 0.0016661623
-0.1584093 0.017333364 0.46913731 0.37878692 -0.073661275 -0.92254782 0.00069162337
0.16342759 0.014202054 0.46741268 -0.38615498 -0.044956908 -0.92133778 0.0012082367
0.17139371 0.012037343 0.46435773 -0.38844582 -0.030692205 -0.92096037 0.0014822168
-0.17327707 0.0240245 0.46222246 0.38579759 -0.083356515 -0.91881001 0.00037855442
-0.16490692 0.027769333 0.46526611 0.3801578 -0.10285128 -0.91918534 0
0.16421814 0.025096152 0.46585357 -0.38023612 -0.098110288 -0.91967112 6.6351611e-05
0.17462815 0.027392752 0.46128201 -0.38319805 -0.092695661 -0.91900313 0.00022308899
-0.17403544 0.032784991 0.46091792 0.38064921 -0.10383616 -0.91887122 0
-0.16283591 0.030605331 0.46580333 0.38018906 -0.10308003 -0.91914678 0
-0.15488653 0.03027124 0.46913385 0.37918678 -0.10127382 -0.91976142 0
0.15907091 0.033539191 0.46703118 -0.38054428 -0.10304042 -0.91900414 0.00014381815
0.16720104 0.039027814 0.46304303 -0.38059935 -0.10389011 -0.91888571 0
0.17361274 0.038808439 0.46041203 -0.38064459 -0.10389058 -0.91886693 0
-0.16240397 0.043383077 0.46453768 0.38061842 -0.10387921 -0.91887909 0
-0.15570918 0.044104461 0.46722922 0.38063741 -0.10388123 -0.91887093 0
0.14959653 0.049290061 0.46917489 -0.37690273 -0.10509671 -0.92027116 0
0.15040666 0.042216741 0.469639 -0.37815571 -0.10345025 -0.91994363 5.2234132e-05
0.16585799 0.043584831 0.46308422 -0.38065755 -0.10387474 -0.91886336 4.4967543e-05
-0.16336377 0.056058235 0.46270716 0.38102961 -0.1261009 -0.91592306 0.00058244052
-0.15909022 0.058098808 0.46424666 0.38347122 -0.13411242 -0.91376346 0.0008134754
0.16913088 0.057074599 0.46020347 -0.37914246 -0.11549186 -0.91810274 9.7212775e-05
-0.16287263 0.066107444 0.46177456 0.37824962 -0.14744657 -0.91388553 0.00062683556
-0.15589398 0.067891076 0.46446353 0.37842655 -0.1517456 -0.91310823 0.00065317552
-0.14666924 0.068557695 0.46820918 0.36772829 -0.16815804 -0.91460305 0.001195604
0.14862743 0.067554757 0.46751148 -0.36889085 -0.16819164 -0.9141286 0.0012355115
0.15522535 0.064292371 0.46514729 -0.37109509 -0.1522062 -0.91603589 0.0010100234
-0.14493418 0.072143711 0.46852249 0.36365169 -0.20369916 -0.90899068 0.0012705144
0.14698298 0.073455155 0.46732199 -0.37471977 -0.20081635 -0.90512872 0.0014920775
0.15381762 0.072417781 0.46481186 -0.3683418 -0.20000327 -0.90792233 0.0013999693
0.16584757 0.070496455 0.46004605 -0.36812329 -0.1949079 -0.90911835 0.0014760655
-0.15352701 0.082273841 0.46172985 0.37343735 -0.26322657 -0.88952589 0.00093703327
-0.1432136 0.081417844 0.46630624 0.35873163 -0.26377311 -0.89539671 0.00081123924
-0.13647771 0.081973344 0.46889877 0.32969782 -0.26240349 -0.90688682 0.0013854398
0.13755319 0.087692529 0.46641904 -0.33204263 -0.2886031 -0.89802897 0.0011890967
0.14557977 0.084508769 0.46422672 -0.35972857 -0.26950914 -0.89328623 0.00094673998
0.15173718 0.081522644 0.46273842 -0.37084484 -0.27035862 -0.88847077 0.00064795552
-0.13777311 0.094243295 0.46399784 0.34283215 -0.30675265 -0.88790143 0.00057069422
-0.12598547 0.099815108 0.46689862 0.26916727 -0.30987835 -0.91187954 0.0016814802
-0.11768875 0.098468706 0.46931809 0.21815905 -0.31076264 -0.92511249 0.002422085
0.12487409 0.094872504 0.46871144 -0.24174564 -0.30134982 -0.92235965 0.0012499224
0.13657627 0.093735009 0.46467441 -0.32972947 -0.30222982 -0.89439118 0.0008745197
-0.13340241 0.10411188 0.4622981 0.31796482 -0.3130219 -0.89493901 0.0010943343
-0.12594351 0.10467893 0.46518597 0.26996693 -0.3097766 -0.91167778 0.00184788
-0.11675901 0.10334454 0.46782434 0.21037622 -0.31697625 -0.92480695 0.0023029775
-0.10376175 0.10694039 0.46834359 0.13374808 -0.31325871 -0.94020236 0.00010591625
0.086502694 0.10886529 0.4699778 -0.12398808 -0.31221819 -0.9418847 7.9829741e-05
0.092520818 0.10745674 0.46965238 -0.12402017 -0.3122327 -0.94187558 6.9012109e-05
0.11354575 0.10247153 0.46853673 -0.18170497 -0.31071758 -0.93297255 0.0012992716
0.13378657 0.10558948 0.46161333 -0.32942766 -0.31357139 -0.89058989 0.00076255517
-0.12395249 0.11199643 0.46340781 0.27235627 -0.31758642 -0.90827358 0.0017172021
-0.11358353 0.11530311 0.4642787 0.18170564 -0.33242986 -0.92545855 0.0014845115
-0.10729134 0.11280687 0.46593446 0.15061443 -0.3207157 -0.93512392 0.00044339764
-0.093620002 0.11828396 0.4659189 0.12626873 -0.34054506 -0.9317109 0.00050858379
-0.087014474 0.1155713 0.46768764 0.12392908 -0.31884825 -0.93966883 5.4520027e-05
-0.078236543 0.11538216 0.46890599 0.12421177 -0.31809011 -0.9398883 0
-0.064963087 0.11858138 0.46959311 0.12368847 -0.31392074 -0.94135803 0.00013995438
0.084049612 0.11237779 0.46913654 -0.12224319 -0.31376293 -0.94159937 0
0.095534757 0.11520848 0.46668622 -0.12434107 -0.31220868 -0.9418413 1.6167276e-05
0.10447644 0.1141117 0.46587253 -0.13672765 -0.31399229 -0.93952876 8.2688108e-05
0.11843593 0.11337756 0.46427807 -0.21421516 -0.32435474 -0.92136091 0.0016269711
0.12192466 0.11263506 0.46397769 -0.26694897 -0.3196198 -0.9091652 0.0016521433
-0.12204379 0.12113489 0.46094796 0.23259392 -0.34848192 -0.90799803 0.0018913317
-0.11722024 0.12180488 0.46164486 0.20726159 -0.35241324 -0.91260481 0.0013621155
-0.10394108 0.12504135 0.46232039 0.14087614 -0.36755869 -0.91926855 0.00085064961
-0.093305863 0.12447385 0.46390858 0.12727015 -0.37112114 -0.91982144 0.0010617356
-0.087891191 0.12676422 0.46386233 0.12065554 -0.37834176 -0.91776884 0.0013160117
-0.071501493 0.12356592 0.46708018 0.12673105 -0.34924752 -0.92842096 0.00077151856
-0.049434081 0.12675098 0.46892971 0.12546358 -0.37649298 -0.91788447 0.0017372834
0.055546716 0.12761489 0.46783864 -0.1065256 -0.37778583 -0.91974455 0.0015861797
0.064043254 0.12575452 0.46733662 -0.11410386 -0.36451289 -0.92418104 0.0014313839
0.079308011 0.12578796 0.46531594 -0.12241037 -0.36327428 -0.92360568 0.0012968016
0.086024076 0.12305157 0.46533871 -0.11639939 -0.34670675 -0.93072319 0.001136721
0.094758242 0.12679084 0.46294942 -0.10606734 -0.37103087 -0.92254317 0.0013946092
0.11393211 0.12423999 0.46127066 -0.20295668 -0.35012233 -0.91445225 0.0023614531
-0.085014127 0.1344526 0.46160778 0.10438133 -0.4364295 -0.89366317 0.0016281197
-0.077095799 0.13259412 0.46335125 0.11803784 -0.41294739 -0.90307343 0.0017901693
-0.06694378 0.1336337 0.46414906 0.11597204 -0.42519981 -0.89763886 0.0013875151
-0.053939596 0.13270564 0.46636286 0.12434533 -0.42244437 -0.89781904 0.0014191028
-0.04522099 0.13346824 0.46706456 0.14107125 -0.42682886 -0.89326143 0.0011962127
-0.035791684 0.13487095 0.46767032 0.12558988 -0.43670884 -0.8907932 0.0017612757
-0.02264292 0.13639486 0.4689222 0.12199969 -0.44789669 -0.8857227 0.0016761202
-0.014597894 0.13975482 0.46794727 0.091549456 -0.47052819 -0.8776229 0.0017338387
0.0043815929 0.13927238 0.46958849 -0.01633021 -0.43510395 -0.90023202 0.0021537731
0.019312881 0.13765928 0.46861321 -0.1206617 -0.43309462 -0.89323562 0.0025604612
0.024665702 0.13784719 0.46779314 -0.12745742 -0.4414697 -0.88817739 0.0020477651
0.030741844 0.13566422 0.46799701 -0.12097226 -0.43883696 -0.8903864 0.0019656641
0.049176343 0.13668913 0.46527728 -0.13275625 -0.4306367 -0.89270812 0.0018927938
0.058649536 0.1354121 0.46481425 -0.11083518 -0.43862715 -0.89180809 0.0015101359
0.065595686 0.13479461 0.46369201 -0.11581216 -0.41858819 -0.9007616 0.0019019406
0.078905515 0.13343683 0.46283364 -0.11393792 -0.40222359 -0.90842408 0.0020659121
0.082936928 0.13037103 0.46331906 -0.12494802 -0.37705505 -0.91772419 0.0016067384
0.092541561 0.13217029 0.46145824 -0.11355367 -0.39051512 -0.91356635 0.0019476432
-0.044261821 0.14446087 0.46115232 0.1192501 -0.47683975 -0.87086356 0.0010047921
-0.020871967 0.14091183 0.46641085 0.11546735 -0.46667436 -0.87685931 0.0016673898
-0.016234342 0.1454971 0.46420598 0.084544137 -0.49597055 -0.86421376 0.0008980257
0.0092388531 0.14690407 0.46426305 -0.051264755 -0.50716996 -0.86032003 0.0013554384
0.016548445 0.14385679 0.46517181 -0.098912746 -0.50733793 -0.85605168 0.00041506437
0.027109217 0.14498314 0.46308985 -0.12273496 -0.49193454 -0.8619377 0.00060545589
0.034345839 0.14661869 0.46113288 -0.11997345 -0.48925638 -0.86384875 0.00075302779
0.012911018 0.15159082 0.46090189 -0.076240234 -0.51196378 -0.85561705 0.00082967151
0.1183765 -0.17297439 0.47398913 -0.98998934 0.11352114 -0.083869815 0.10434274
0.12028286 -0.17305279 0.47490531 -0.98998749 0.11349709 -0.083924294 0.10433701
0.11170616 -0.16391063 0.47493854 -0.98999494 0.1134414 -0.083911143 0.10433397
0.12683582 -0.16565007 0.47588518 -0.98891586 0.12099459 -0.086056642 0.095376492
0.11632129 -0.1581111 0.47656915 -0.98888701 0.12124968 -0.086028956 0.095352285
0.1248042 -0.1593971 0.47624892 -0.98889971 0.12117587 -0.085987508 0.095377244
-0.00097857625 -0.12349951 0.47047645 -0.009469307 0.44138417 -0.89726824 0.0029974813
0.0027247581 -0.12124459 0.47163111 -0.020766545 0.42514655 -0.90488625 0.0031939109
-0.031612147 -0.11099251 0.47150871 0.11284182 0.3615759 -0.92548883 0.0012320131
-0.024413846 -0.1165078 0.47062835 0.11998574 0.38812578 -0.91376245 0.0015040381
-0.011751607 -0.1198713 0.47118056 0.070423752 0.40711284 -0.9106589 0.0028615347
-0.0044128839 -0.1115711 0.4748978 0.033868391 0.36771846 -0.92932022 0.0028326297
0.016648492 -0.1158232 0.4718776 -0.094339669 0.38037336 -0.92000878 0.0013656828
0.026251571 -0.11422443 0.47114325 -0.11749265 0.38145369 -0.91689068 0.0015760638
0.032846838 -0.11330131 0.47058097 -0.12084146 0.37432313 -0.91939092 0.0015995003
-0.050907504 -0.10763754 0.47008044 0.12928319 0.33895981 -0.93187559 0.00079592515
-0.044516295 -0.10670516 0.47123089 0.12022237 0.32539126 -0.93790573 0.00022456904
-0.034832511 -0.10951611 0.4715741 0.11757319 0.3530924 -0.92817146 0.0011614796
-0.025320847 -0.10583846 0.47404534 0.11183735 0.34972486 -0.93015319 0.00081250799
-0.013664047 -0.10278475 0.47659215 0.10507605 0.32919711 -0.93839669 0.00045962498
-0.00586964 -0.1041528 0.47716483 0.049746547 0.3314577 -0.94215769 0.0015065281
0.00097912143 -0.1045386 0.4776808 -0.0018310007 0.33370665 -0.94267517 0.0019584983
0.026029652 -0.10630347 0.47379789 -0.11827536 0.33833969 -0.93356156 0.00057325227
0.034596864 -0.10450068 0.47326756 -0.12221352 0.33230713 -0.93521965 0.00037097459
0.043931317 -0.10554126 0.47169375 -0.12384263 0.32892084 -0.93620193 0.00023343193
0.053236675 -0.10443223 0.47083628 -0.12550674 0.32771102 -0.93640459 0.00031363452
-0.064021893 -0.092298046 0.47343817 0.12403414 0.31220818 -0.94188195 4.7202524e-05
-0.05555167 -0.095951065 0.47334251 0.12480533 0.31642428 -0.94037193 0
-0.048845343 -0.096287206 0.474114 0.12383803 0.31375891 -0.9413923 1.2205104e-06
-0.037280306 -0.096095569 0.47570011 0.12447866 0.31613165 -0.94051361 0
-0.025328828 -0.097013809 0.47696921 0.11941486 0.31690261 -0.94091064 2.4045879e-05
-0.015077825 -0.095025495 0.4789778 0.10349489 0.31425047 -0.9436819 0.00020541438
0.0044203531 -0.097356312 0.47960842 -0.01147618 0.3144837 -0.94919348 0.0020886119
0.017227981 -0.096154176 0.47832066 -0.098127596 0.31364742 -0.94445556 0.00053195661
0.037976816 -0.096541546 0.47546065 -0.1240438 0.31451231 -0.94111377 2.6543399e-05
0.055038992 -0.096218079 0.47332159 -0.12389874 0.31537494 -0.94084412 0
0.064289689 -0.091974556 0.47351024 -0.12399855 0.31219548 -0.9418909 0
0.073129617 -0.093856297 0.47172269 -0.12403747 0.31218219 -0.94189012 0
0.085556284 -0.092050925 0.47068509 -0.1240006 0.31221324 -0.9418847 0
-0.11064455 -0.082651272 0.4704977 0.16932483 0.30935624 -0.93574989 0.0010505065
-0.10034093 -0.080680475 0.47250742 0.12837689 0.31045777 -0.94187868 9.7340111e-05
-0.096024893 -0.080544665 0.47312063 0.12473834 0.31078348 -0.94226003 6.4598156e-05
-0.08148206 -0.08712136 0.47285539 0.12401465 0.31222028 -0.94188058 5.6151279e-05
-0.071400322 -0.087182969 0.47416222 0.12399995 0.3122232 -0.94188154 0
-0.06964992 -0.087805875 0.47418618 0.12401095 0.31221893 -0.94188142 0
-0.056001097 -0.084065601 0.47722283 0.12391134 0.31206602 -0.94194514 0
-0.046861745 -0.084051952 0.47843057 0.12394822 0.31204426 -0.94194758 0
-0.022985436 -0.08920031 0.47986752 0.11388236 0.31456867 -0.94237852 0.00020555366
0.035687093 -0.089381553 0.47813529 -0.12403667 0.3122263 -0.94187558 0.00015598653
0.043592822 -0.089762092 0.47696835 -0.12400797 0.31221718 -0.94188243 4.1860887e-05
0.055455383 -0.084324978 0.47720873 -0.12402321 0.31223017 -0.94187611 0
0.067570865 -0.088304356 0.47429478 -0.12399014 0.31221527 -0.94188535 2.1155671e-05
0.073398396 -0.085146412 0.47457424 -0.12400677 0.31221232 -0.94188416 7.6691038e-05
0.084316172 -0.085745662 0.47293827 -0.12401707 0.31220433 -0.94188547 0
0.097047113 -0.087508336 0.47067794 -0.1306113 0.31111377 -0.94135475 5.6805526e-05
0.10561595 -0.084748417 0.47046465 -0.14909624 0.30974388 -0.93905753 0.00041385301
-0.12513065 -0.070569962 0.47212783 0.24629018 0.28495026 -0.92636096 0.0019302985
-0.11522374 -0.076668978 0.47187766 0.19785529 0.30121621 -0.93280339 0.0015195961
-0.10562432 -0.075114332 0.47365674 0.14182121 0.29675752 -0.94436312 0.00027907657
-0.073826961 -0.074647211 0.47799778 0.12088019 0.29500234 -0.94781941 6.4086184e-05
-0.066007376 -0.07897041 0.47759429 0.12559976 0.30008757 -0.94560671 0
-0.058900584 -0.077060133 0.47916311 0.12990534 0.30011863 -0.94501501 0.0001698861
0.068732828 -0.073840678 0.47893581 -0.1247972 0.30179316 -0.94517004 0
0.071876585 -0.078828409 0.47686875 -0.12555858 0.30347168 -0.94453162 0
0.084503174 -0.074918956 0.47650221 -0.12430967 0.30319393 -0.94478595 0.00031780874
0.10173652 -0.077996999 0.47321314 -0.13427626 0.30773601 -0.94194925 0.00029873181
0.11988096 -0.075037338 0.47180536 -0.23311238 0.29929277 -0.92524719 0.0018850866
-0.128213 -0.064438857 0.4732036 0.27587661 0.24657235 -0.92902863 0.0019371036
-0.1147657 -0.06502708 0.47579673 0.18148723 0.24934302 -0.95125735 0.0018634548
-0.10829069 -0.068531096 0.47548777 0.1559495 0.26619929 -0.95121908 0.0012839353
-0.092172138 -0.063002221 0.47944242 0.12747711 0.24153709 -0.96198201 0.0014808946
0.073100373 -0.069599569 0.47976655 -0.13184008 0.2767241 -0.95186239 0.00092295784
0.096835077 -0.066265754 0.47774681 -0.12843521 0.28131971 -0.95098037 0.00045889497
0.10671041 -0.065771863 0.47661036 -0.16096187 0.26583332 -0.95048612 0.0012498484
0.11128427 -0.061481558 0.47743028 -0.17981929 0.22483794 -0.95766008 0.0020346581
0.1248747 -0.064375319 0.47444615 -0.24780288 0.24443302 -0.93746799 0.0024896192
0.13583499 -0.062773399 0.47063884 -0.32579219 0.23787607 -0.91502702 0.0018462824
-0.13849077 -0.05154277 0.47181827 0.33673325 0.15697999 -0.92842233 0.0014303774
-0.12528314 -0.054951094 0.47681552 0.25652015 0.20339833 -0.94489503 0.0023688998
-0.10726896 -0.056803364 0.47910064 0.15438215 0.19964662 -0.96762973 0.002262901
-0.099959426 -0.059061058 0.47972351 0.14173038 0.21002454 -0.96736872 0.0017919223
0.10491547 -0.059306536 0.47898966 -0.13734169 0.21905755 -0.96599746 0.0021620167
0.1184617 -0.056623496 0.47764602 -0.20434751 0.21010683 -0.95608431 0.0021570821
0.12587689 -0.054230135 0.47649002 -0.27795425 0.19382435 -0.94083661 0.0030646534
0.13888948 -0.054185662 0.47135428 -0.34538722 0.19736433 -0.91747212 0.0016390143
0.14009257 -0.05414978 0.47086 -0.35440275 0.19593373 -0.91433507 0.0013853317
-0.13879299 -0.042059515 0.47276515 0.34089053 0.11937026 -0.93249369 0.001195436
-0.12195806 -0.043579832 0.47855985 0.2374371 0.13539451 -0.96192098 0.0019408996
-0.11241923 -0.049340975 0.47920874 0.17967443 0.15669693 -0.9711659 0.0013648783
0.11936006 -0.04112513 0.47916049 -0.2072473 0.12335278 -0.97048062 0.0017905507
0.12078197 -0.048948545 0.47814912 -0.23060314 0.15599307 -0.96046257 0.0024898935
0.13486837 -0.046019588 0.47394311 -0.33880442 0.14891416 -0.92899734 0.001628421
-0.14667717 -0.032840401 0.47054166 0.37410888 0.10769109 -0.92111093 0.00016270613
-0.13088338 -0.039540369 0.4763262 0.30818945 0.11657769 -0.94415504 0.0023332003
-0.12475029 -0.031281415 0.47948787 0.26125827 0.09110485 -0.96095991 0.0028321438
0.12715359 -0.035520963 0.47832555 -0.27094218 0.11553006 -0.95563757 0.0018646253
0.13067417 -0.03905692 0.47646749 -0.29313889 0.11239842 -0.94943994 0.0018968461
0.14171106 -0.032724719 0.47261173 -0.35074258 0.10396571 -0.9306829 0.00045479054
-0.15028943 -0.022312915 0.47023559 0.37773514 0.10357771 -0.92010206 0.00010594235
-0.14415225 -0.025979498 0.47236311 0.37427253 0.10695515 -0.92113012 0.00038332373
-0.13456456 -0.021981645 0.47678643 0.31494778 0.11026849 -0.94268167 0.0021547738
-0.12984836 -0.026428506 0.47823721 0.28984562 0.097790197 -0.95206434 0.0022423726
0.13616025 -0.023272721 0.47597957 -0.32102439 0.11229703 -0.94038969 0.0015146149
0.14619213 -0.024103165 0.47173032 -0.37190658 0.10121703 -0.92273539 0.00022608139
-0.15074869 -0.012088529 0.47120121 0.38101956 0.089056075 -0.92026794 0.00020393063
-0.13294399 -0.018456046 0.47785628 0.29831582 0.099557713 -0.94926071 0.0022991013
0.1334506 -0.012637166 0.4783043 -0.30941871 0.093922034 -0.94627625 0.0015347534
0.14356168 -0.015256451 0.47382003 -0.37162983 0.097452536 -0.92325199 0.00025265536
-0.14387381 -0.0086917477 0.47443289 0.37525448 0.075747997 -0.92382157 0.00063282205
-0.13496861 -0.0047321352 0.47856921 0.32661238 0.06705986 -0.94277638 0.0014316539
0.13520552 -0.0093840668 0.47794512 -0.31743482 0.090169027 -0.94398344 0.0018243223
0.14072511 -0.0039058146 0.47627816 -0.35426527 0.061998002 -0.93308753 0.0016113726
0.1522384 -0.0075556287 0.47109661 -0.38273799 0.087017357 -0.91974974 0.00024681003
-0.15531568 0.0065170233 0.47141293 0.36888781 0.0026129156 -0.92947024 0.0018438852
-0.14464819 0.0065715713 0.47563931 0.3611576 0.0050870837 -0.93249089 0.0014640355
-0.13756366 0.00098951044 0.4781411 0.35367882 0.037745278 -0.93460506 0.00087621494
0.13884923 0.0086299311 0.47822329 -0.326554 -0.0095414529 -0.94513035 0.002316803
0.14329387 0.0054686666 0.47627401 -0.37238991 0.0067508318 -0.92805189 0.0018869832
0.15624513 0.0068145222 0.47106159 -0.38171747 -0.0074709295 -0.92424881 0.0013165723
-0.15419739 0.014589048 0.47119218 0.36890149 -0.042030834 -0.9285177 0.0015977925
-0.14643204 0.019306978 0.47387534 0.36189261 -0.062389769 -0.93012971 0.00074888539
0.13404955 0.017074944 0.47925666 -0.29582956 -0.049120095 -0.95397693 0.0026933781
0.14671868 0.014090481 0.47434631 -0.37616986 -0.035353798 -0.9258759 0.0015154766
-0.15098262 0.02890897 0.47090489 0.37671393 -0.099097043 -0.92101377 0
-0.14456405 0.025987843 0.47389379 0.36897564 -0.093352444 -0.92473906 0.00022951335
0.13820498 0.025169838 0.47662029 -0.3428705 -0.090876229 -0.93497658 0.0010772615
0.14644654 0.023372579 0.47340971 -0.3787356 -0.088960506 -0.92121953 0.00042048428
0.15377203 0.023144098 0.47040123 -0.38211837 -0.098338999 -0.9188661 0.00016433567
-0.1409808 0.033369783 0.47454345 0.35855302 -0.096176602 -0.92854178 0.00058718817
-0.12943962 0.039624337 0.47861689 0.28511149 -0.094649643 -0.95380962 0.0026141142
0.13709903 0.034720346 0.4759987 -0.32102263 -0.10849712 -0.94083631 0.0015444178
0.14545666 0.03009757 0.47305945 -0.37694168 -0.10273696 -0.92052162 7.4815493e-05
0.15138257 0.034893669 0.47006264 -0.37736964 -0.10286586 -0.92033184 7.6134107e-05
-0.1440548 0.047061577 0.4717223 0.36593768 -0.10711221 -0.92445475 0.00044957426
-0.12771413 0.040159278 0.47927117 0.26686344 -0.094897531 -0.95905071 0.0024225267
0.12565859 0.046112258 0.47910699 -0.27985707 -0.10834373 -0.95390868 0.00248772
0.13234188 0.04135507 0.47721907 -0.30988818 -0.099905469 -0.94550949 0.0018796237
0.14509247 0.045262326 0.4714959 -0.37501934 -0.10390007 -0.92117602 2.866748e-05
-0.14210561 0.05183053 0.47199053 0.35780439 -0.11358888 -0.92686224 0.00044384346
-0.13538198 0.05313234 0.47462836 0.31827155 -0.11853293 -0.94056004 0.0013955096
-0.12679181 0.05645046 0.47773844 0.2501606 -0.13681972 -0.95848846 0.0018590769
-0.11738384 0.055449769 0.47949773 0.2111109 -0.12384349 -0.969585 0.0018621859
0.12400677 0.053334195 0.47877783 -0.23549546 -0.1215873 -0.96423978 0.0021566884
0.13664894 0.057635751 0.47359446 -0.34167376 -0.12715571 -0.93117702 0.0010969175
0.14456704 0.051479537 0.47101068 -0.3705923 -0.1077029 -0.92252994 7.6422548e-05
-0.13486378 0.064157963 0.47359654 0.34247634 -0.15125151 -0.92727172 0.0011594674
-0.12252776 0.063856669 0.4779349 0.24487855 -0.15564285 -0.95697951 0.0025509775
-0.11651441 0.064001136 0.47871131 0.18744421 -0.15239672 -0.97038132 0.0018487326
0.1042661 0.068661295 0.47983292 -0.13494711 -0.19014631 -0.97243696 0.0012720715
0.11981164 0.062723219 0.47841188 -0.21222626 -0.14786673 -0.96596873 0.0021890556
0.12519178 0.066794686 0.47718814 -0.24944136 -0.17093556 -0.95318419 0.0027241285
0.13499308 0.067458153 0.47316989 -0.34630525 -0.17563939 -0.92153317 0.0018410103
0.14328858 0.061556652 0.47040099 -0.36857831 -0.14454302 -0.9182905 0.00094505923
-0.13342616 0.07343173 0.47281498 0.30899069 -0.21242864 -0.92703766 0.0023575462
-0.12388951 0.079146281 0.47490621 0.2441968 -0.24620186 -0.93795133 0.0024032597
-0.11627546 0.075068861 0.47726011 0.19827932 -0.22726709 -0.95343328 0.002250758
-0.10584276 0.075673863 0.47843307 0.14707033 -0.23209567 -0.96151024 0.0016452292
-0.092390038 0.078145511 0.4793849 0.12978166 -0.23570861 -0.96311897 0.0014488745
0.088587761 0.078947008 0.4796198 -0.12772647 -0.24587213 -0.96085006 0.0013115923
0.10581231 0.07524877 0.47826439 -0.14915612 -0.22025573 -0.96397096 0.0014178625
0.11450685 0.074551649 0.47763339 -0.18008409 -0.21440469 -0.96000016 0.0018785474
0.12555103 0.076640353 0.47480172 -0.25143763 -0.23454396 -0.93902516 0.0028631305
0.1344585 0.075370081 0.47208393 -0.30874303 -0.22753805 -0.92352813 0.002171594
-0.12238523 0.081309028 0.47438741 0.23194583 -0.25705156 -0.93815011 0.0025008288
-0.11975374 0.084686093 0.47361451 0.20961235 -0.26644635 -0.94078106 0.0019749238
-0.10416109 0.086834386 0.47495526 0.13647018 -0.2795223 -0.95039105 0.00087976025
-0.095478751 0.08482898 0.47676301 0.12536469 -0.27766913 -0.95246184 0.00071591494
-0.084697671 0.085291222 0.47802913 0.12529133 -0.27233207 -0.9540112 0.00074899924
-0.070083372 0.086980842 0.47939312 0.12318897 -0.27885261 -0.95239991 0.00085425557
0.088761777 0.08866547 0.4763757 -0.12678032 -0.29700387 -0.94642246 0.00035366428
0.09167017 0.085541457 0.47702825 -0.12677041 -0.27630761 -0.95267165 0.00089615659
0.10616004 0.087765276 0.47438353 -0.1416177 -0.28252977 -0.94874722 0.00081094104
0.1105972 0.086853176 0.47410169 -0.16846508 -0.28214875 -0.94446361 0.001105988
0.12422761 0.085556686 0.47241664 -0.25418478 -0.27633303 -0.92683882 0.0019019927
0.13268879 0.082090512 0.4704265 -0.29816505 -0.26092589 -0.91815865 0.0022067858
-0.11451904 0.095257089 0.47079986 0.18015596 -0.30039832 -0.93664551 0.0014416828
-0.10786434 0.096984178 0.47110352 0.14433546 -0.31466019 -0.93816638 0.00057669485
-0.096877925 0.094268732 0.47344995 0.12402959 -0.30433196 -0.94445676 0.00022140071
-0.085016705 0.097211242 0.47403622 0.12341926 -0.30991107 -0.94272095 0
-0.073901117 0.095875137 0.47594243 0.12294789 -0.30879968 -0.94314712 0
-0.065189883 0.099565312 0.4758662 0.12487648 -0.30858237 -0.94296485 6.8157438e-05
-0.059099689 0.097744033 0.47727162 0.12436885 -0.30761725 -0.94334722 8.1282051e-05
0.035841562 0.099265635 0.47982931 -0.12500039 -0.3096194 -0.94260848 9.3237286e-05
0.047202338 0.097601764 0.47888511 -0.12331361 -0.31014416 -0.94265813 0.00011867419
0.050146256 0.098673463 0.47814232 -0.12290329 -0.3102529 -0.94267595 4.9723192e-05
0.065609276 0.093558475 0.47780195 -0.1247033 -0.30769455 -0.94327778 1.0087902e-05
0.075716726 0.093419321 0.47651741 -0.12546234 -0.30803654 -0.94306558 0.0001274534
0.084641382 0.095905617 0.47451836 -0.1241291 -0.30760244 -0.94338363 0
0.1011356 0.090454563 0.47415364 -0.12739699 -0.28956026 -0.94864368 0.00032701506
0.11303025 0.095749266 0.47083277 -0.17428134 -0.30770683 -0.93538356 0.0012853657
-0.096033603 0.10149786 0.47116497 0.12404534 -0.31221059 -0.94187969 9.1134716e-05
-0.075800575 0.10552052 0.47249538 0.12400018 -0.31223816 -0.94187647 5.8124537e-05
-0.057439771 0.10081129 0.47647351 0.12403321 -0.31220874 -0.9418819 7.1642644e-05
-0.045197163 0.10306114 0.4773396 0.12403412 -0.3122226 -0.94187713 0.00010331362
-0.034203731 0.10430544 0.47837448 0.12399897 -0.3121967 -0.94189036 2.9831253e-05
-0.024650276 0.10717429 0.4786813 0.11802451 -0.31239006 -0.94259357 0.00019740421
0.017173776 0.10945941 0.47890824 -0.096672446 -0.31521389 -0.94408399 0.00064656697
0.035006236 0.10620052 0.47764069 -0.12400814 -0.3122043 -0.9418866 0
0.043936126 0.10596664 0.47654253 -0.12399347 -0.31221923 -0.94188362 1.3656711e-05
0.055075157 0.10222042 0.47631773 -0.12402645 -0.31225395 -0.94186777 0.00011747599
0.062556453 0.10608796 0.47405091 -0.12401457 -0.31218863 -0.94189095 0.00011604317
0.07071241 0.10235658 0.4742139 -0.12403007 -0.31214833 -0.94190234 0
0.085382253 0.10692826 0.47076732 -0.12400762 -0.31219846 -0.94188863 2.147409e-05
0.093878359 0.10371508 0.47071382 -0.12399275 -0.31222445 -0.94188195 0
-0.064760961 0.1142678 0.47104946 0.12341449 -0.31372488 -0.9414593 0
-0.058981217 0.11519818 0.47150201 0.12379959 -0.31403533 -0.94130522 0
-0.045105893 0.11931816 0.47196317 0.12531328 -0.3270489 -0.93666196 0.00028719535
-0.021482948 0.11590068 0.47620595 0.10609443 -0.32302648 -0.94042426 0.00036057516
-0.0086996593 0.11180109 0.47924772 0.040304095 -0.32617155 -0.94445103 0.001430005
0.0071620038 0.1149627 0.4784022 -0.055216704 -0.32873577 -0.94280642 0.0013817659
0.014662278 0.11303674 0.47805315 -0.094418451 -0.32236683 -0.94189429 0.00059643883
0.03614261 0.11456525 0.47471857 -0.12310215 -0.32138923 -0.9389115 1.9303439e-05
0.054358553 0.11609972 0.47181177 -0.12314385 -0.3166531 -0.94051391 6.0726383e-05
0.0650222 0.11374066 0.4711898 -0.1229306 -0.31539005 -0.94096601 0
0.075180456 0.1108664 0.47080511 -0.12293036 -0.31389868 -0.94146466 2.6166681e-05
0.080734394 0.11023366 0.47028363 -0.1228931 -0.31382108 -0.94149542 7.113858e-05
-0.042389248 0.12128132 0.47167009 0.12437648 -0.34174722 -0.93152529 0.00079660182
-0.036899444 0.1275814 0.4703047 0.13121928 -0.38684258 -0.91276193 0.0018022922
-0.02439771 0.12880215 0.47154599 0.12813815 -0.37963009 -0.91622138 0.00184566
0.015384736 0.12757707 0.4731386 -0.09932109 -0.36344686 -0.92630547 0.0015893116
0.044879846 0.12375077 0.47052372 -0.12059941 -0.35509583 -0.92701811 0.0013177663
-0.02387568 0.13153522 0.47070885 0.12107807 -0.40645295 -0.90561366 0.0019925726
-0.018251939 0.13014309 0.47191066 0.10499645 -0.36921924 -0.92339206 0.0013846511
-0.0043406584 0.13587442 0.47168028 0.018483244 -0.42651731 -0.9042905 0.002131151
0.008903577 0.13535744 0.47139698 -0.042824358 -0.42681053 -0.90332657 0.0027283228
0.022341089 0.13268074 0.47053117 -0.11657742 -0.3919079 -0.9125886 0.0018014146
0.11779374 -0.17291765 0.48486319 -0.99729776 -0.062732525 -0.038233444 0.16286886
0.12318806 -0.17197482 0.48479643 -0.99731082 -0.062605433 -0.038100962 0.16287488
0.11284138 -0.16558495 0.48675972 -0.99730664 -0.062568963 -0.038269773 0.16294317
0.12306048 -0.16709504 0.48897162 -0.99730271 -0.062736101 -0.038097013 0.16286142
0.11766655 -0.15815075 0.48695207 -0.997298 -0.062708408 -0.038266942 0.16294149
0.12221651 -0.15824896 0.48537984 -0.99730277 -0.06273035 -0.038106941 0.162864
-0.010852216 -0.092213124 0.48046631 0.064486563 0.32052946 -0.94504094 0.0014995451
-0.0053505776 -0.092079557 0.48123485 0.032005265 0.31350264 -0.9490478 0.002069799
0.0062941695 -0.092096627 0.481105 -0.035268523 0.31380925 -0.94883084 0.0022300927
0.016447747 -0.090677045 0.48023877 -0.096445121 0.31821573 -0.94309974 0.00051272224
-0.022900749 -0.085831471 0.48099527 0.11287069 0.31528834 -0.94225973 0.00017593104
-0.014574522 -0.084348127 0.48258311 0.10385888 0.31035793 -0.94492924 0.00024209257
-0.0041670548 -0.081401721 0.48492986 0.022539759 0.31631404 -0.94838673 0.0018785729
0.019750215 -0.085999049 0.48135456 -0.1094318 0.31388006 -0.9431352 0.00020934059
0.024000656 -0.084789827 0.48119578 -0.11464655 0.31242797 -0.94299781 8.1824757e-05
0.032105353 -0.080968574 0.4813953 -0.12401368 0.31218094 -0.94189364 0
-0.066019274 -0.070821151 0.48029384 0.12757058 0.27704382 -0.95235103 0.00095656654
-0.05295549 -0.073514849 0.48112091 0.12756878 0.30307183 -0.94439065 0
-0.043003775 -0.075982377 0.48161316 0.1258402 0.30720621 -0.94328606 0
-0.036097676 -0.071954846 0.48385727 0.12689836 0.29180136 -0.94802368 0.00046894324
-0.024802234 -0.072303049 0.48522896 0.11798578 0.30562112 -0.9448148 4.0678096e-05
-0.015668495 -0.074244037 0.48578811 0.10409476 0.30544871 -0.94650167 0.00027521609
-0.003704661 -0.07914757 0.48573792 0.022773191 0.31040406 -0.95033187 0.0017844016
0.0044409647 -0.075029269 0.48700601 -0.028071608 0.31187108 -0.94970959 0.002054665
0.014377793 -0.073448941 0.48622158 -0.10324447 0.30425867 -0.94697791 0.00050816039
0.026672827 -0.077204734 0.48335803 -0.12481527 0.30228785 -0.94500959 0.00015261395
0.035332367 -0.073447242 0.48346344 -0.12597176 0.28855798 -0.94913924 0.00035228289
0.048114527 -0.073253192 0.48184496 -0.12284352 0.28071284 -0.95189798 0.00056614936
0.051775672 -0.071551926 0.48192686 -0.119913 0.27068853 -0.95516944 0.00083762466
0.060527317 -0.070788354 0.48102778 -0.12398548 0.27362129 -0.9538129 0.00070677069
-0.090656638 -0.060362831 0.48051673 0.12647094 0.21985248 -0.96730036 0.0021352705
-0.087484404 -0.061092503 0.48069251 0.12086736 0.23860748 -0.96356499 0.0016563624
-0.075437523 -0.06392093 0.481341 0.12015764 0.24676871 -0.96159631 0.0016164427
-0.064766318 -0.065110423 0.48235163 0.12632307 0.25318667 -0.95913452 0.0013526176
-0.052798942 -0.063155361 0.48457518 0.1325866 0.2321045 -0.96361208 0.0013021813
-0.045447558 -0.065365523 0.48481044 0.13929169 0.22384146 -0.96462059 0.0017704321
-0.038813885 -0.061709501 0.48689559 0.12953871 0.22460464 -0.96580148 0.0016158305
-0.026049664 -0.065346308 0.48737055 0.12885338 0.22932567 -0.96478319 0.001488097
-0.014506459 -0.065694995 0.48877469 0.094345823 0.26616561 -0.95929909 0.0017061186
-0.0045896424 -0.068745688 0.48906913 0.045175299 0.27289861 -0.96098161 0.0020311251
0.0060527688 -0.066521809 0.48961359 -0.045416124 0.26623493 -0.96283764 0.0024907715
0.012514229 -0.063582644 0.48973712 -0.086606726 0.23779926 -0.96744549 0.0022920989
0.021333309 -0.060057335 0.48974454 -0.12213714 0.21748096 -0.96839279 0.0017171985
0.035174321 -0.065082557 0.48625672 -0.13721092 0.24108724 -0.96075499 0.0013236004
0.044845678 -0.06960088 0.48348588 -0.12341393 0.26680353 -0.95581633 0.00082313741
0.054889604 -0.06420289 0.48395276 -0.12084223 0.24693742 -0.96146715 0.0010888699
0.072193839 -0.0657335 0.48116732 -0.12338279 0.26449713 -0.95646113 0.0012410611
0.09039823 -0.061615415 0.48013559 -0.1143244 0.23368996 -0.96556664 0.001853183
-0.098262422 -0.058546789 0.48010269 0.1338716 0.2115131 -0.96816355 0.0019226162
-0.087071329 -0.052819181 0.4821794 0.11965533 0.15665461 -0.98037839 0.0010891795
-0.076287836 -0.053739525 0.48350209 0.10965914 0.17094815 -0.97915858 0.0017225747
-0.065076582 -0.054490354 0.48489901 0.12618347 0.19187725 -0.97327334 0.0014156661
-0.057917934 -0.054147054 0.48587763 0.13077514 0.19767842 -0.97150451 0.001224824
-0.043788485 -0.05871363 0.48719302 0.13567242 0.21550323 -0.96703225 0.0016903768
-0.032481562 -0.058031201 0.48871091 0.12896742 0.19037041 -0.97320426 0.0012243672
-0.026446693 -0.05955511 0.48923784 0.12924269 0.21165003 -0.9687624 0.0017279718
0.024126414 -0.05960048 0.48952824 -0.13735425 0.21365668 -0.96720451 0.001576965
0.044764441 -0.051822331 0.48785418 -0.14384216 0.16342404 -0.97601342 0.0010396091
0.062242731 -0.05422581 0.48529997 -0.13234994 0.17908238 -0.97489125 0.0010970825
0.08454708 -0.054666411 0.48227668 -0.10946215 0.18185303 -0.97721416 0.001237883
0.096670598 -0.053238582 0.48087147 -0.11677503 0.16858402 -0.97874564 0.0011980921
-0.094586857 -0.044292811 0.48208824 0.13472188 0.12997322 -0.98232222 0.00045355715
-0.088230364 -0.048353545 0.48249727 0.13035503 0.13058572 -0.98283005 0.00060025638
-0.073961101 -0.04419497 0.48481393 0.12108298 0.13046926 -0.98403084 0.00058038876
-0.062354941 -0.043916229 0.48637128 0.12923446 0.12940855 -0.98313373 0.00046586836
-0.045684967 -0.045026891 0.48844892 0.12902674 0.13409564 -0.98253268 0.00057524309
-0.039718375 -0.040487416 0.48971266 0.13027117 0.11841909 -0.9843812 0.00027492995
0.038970459 -0.048018962 0.4890177 -0.14081675 0.15565097 -0.9777236 0.001021499
0.046439994 -0.04597301 0.48824987 -0.14934108 0.14946461 -0.97742391 0.00085773697
0.053620957 -0.043957502 0.48751676 -0.13538407 0.1447984 -0.98015541 0.00057374855
0.079140387 -0.040970858 0.48447174 -0.12447786 0.12820499 -0.9839049 0.00043025037
0.10101776 -0.047719635 0.48088056 -0.13235621 0.12866922 -0.98281544 0.0003673195
-0.11352901 -0.037653264 0.48029393 0.18177161 0.11611592 -0.97646105 0.0013759484
-0.094692253 -0.030873159 0.48348808 0.12958081 0.10550934 -0.98593938 0.00010867316
-0.085733861 -0.036109507 0.48411584 0.12927203 0.11337442 -0.98510659 0.00011371676
-0.077629276 -0.031675179 0.48564994 0.12981273 0.10391042 -0.98607868 0.00012456311
-0.065248087 -0.035845429 0.48684067 0.12981673 0.11172064 -0.98522395 8.6341206e-05
-0.038952999 -0.039552569 0.48991191 0.13242894 0.11936052 -0.98397952 0.00023220546
0.04231419 -0.038447905 0.48958579 -0.13231045 0.11702163 -0.98427635 0.00024526331
0.062984422 -0.035300236 0.48719606 -0.13002707 0.10414508 -0.98602575 0
0.083283097 -0.033449646 0.48471871 -0.12993072 0.10822923 -0.9855985 0
0.094008461 -0.035465892 0.48309427 -0.1284139 0.10940899 -0.98566705 0
0.10469038 -0.033607829 0.48188367 -0.13831927 0.10798405 -0.98448324 0.0002089082
0.11425307 -0.035844494 0.48038912 -0.19215156 0.10509097 -0.97572213 0.0017079453
-0.12410212 -0.022187483 0.48053122 0.25964278 0.092690855 -0.96124613 0.0023570268
-0.11492175 -0.026146198 0.4813228 0.17795911 0.10347926 -0.97858191 0.0012824023
-0.10658941 -0.028505376 0.48217121 0.15481523 0.097868659 -0.98308396 0.00053898839
-0.098781362 -0.024042545 0.48366934 0.12979105 0.10388605 -0.9860841 3.946825e-05
-0.0855266 -0.026183661 0.48518878 0.12987305 0.10388835 -0.98607314 0
-0.071996585 -0.021579927 0.48745504 0.12982538 0.103778 -0.98609102 6.1371866e-06
-0.068063401 -0.020542523 0.48808211 0.1298358 0.10379593 -0.9860878 0
-0.055464625 -0.023195984 0.48946124 0.12983115 0.10387977 -0.98607957 0
0.058570676 -0.026305512 0.48872474 -0.12978797 0.10387599 -0.98608565 6.8266827e-06
0.06513878 -0.021571673 0.48835874 -0.12988077 0.10392455 -0.98606831 0.00012149532
0.07337001 -0.026516957 0.48675409 -0.12983404 0.10388132 -0.98607898 2.1548929e-05
0.086055525 -0.023714883 0.48537922 -0.1298178 0.10388637 -0.98608059 0
0.096262708 -0.023314537 0.4840776 -0.12981981 0.10388666 -0.98608035 0
0.10558075 -0.0268765 0.48247564 -0.138776 0.10816405 -0.9843992 0.0003023562
0.11085492 -0.024218313 0.4820613 -0.16208251 0.096361488 -0.98206097 0.0011402958
0.12299301 -0.023225443 0.48056787 -0.23399742 0.10113125 -0.96696311 0.0024189174
-0.11155827 -0.016138284 0.48281994 0.16378367 0.083436482 -0.98296148 0.00088173256
-0.105121 -0.015630826 0.48372084 0.14673883 0.093396604 -0.98475617 0.00037671413
-0.092996716 -0.012159373 0.48568276 0.13374458 0.09740065 -0.9862178 0.00014746327
-0.084828153 -0.014816584 0.48647824 0.12986006 0.10380112 -0.98608404 0.00018829202
-0.076562181 -0.01097891 0.48797074 0.12910587 0.097727977 -0.98680335 7.3683681e-05
-0.066626713 -0.016449364 0.48870245 0.12982485 0.098782085 -0.98660403 6.5102658e-06
-0.057256609 -0.017619612 0.48981279 0.12979837 0.10387126 -0.98608476 4.1323612e-05
0.05961505 -0.016591581 0.48961058 -0.12899192 0.099952452 -0.98659539 5.4278498e-05
0.062898882 -0.010214139 0.4898501 -0.13308592 0.079244636 -0.98793137 0.00053625141
0.07960631 -0.012052925 0.48745686 -0.13173522 0.090384312 -0.9871558 0.0002196959
0.083243713 -0.014660433 0.48670328 -0.12965134 0.098366827 -0.98666835 0.00022475807
0.11295067 -0.015186146 0.48273689 -0.1612871 0.095930129 -0.98223412 0.0010625889
0.12047376 -0.014235513 0.48184663 -0.23147473 0.098565102 -0.96783489 0.0020097666
-0.124933 -0.001333821 0.48219889 0.23219877 0.057989303 -0.97093821 0.0012982239
-0.10488415 -0.0035114912 0.48502877 0.1439124 0.066439398 -0.98735768 0.00065449078
-0.083466105 -0.0050136242 0.48769024 0.12958886 0.069753177 -0.9891113 0.00095239893
-0.075062335 -0.0034729175 0.48895895 0.12783958 0.063785784 -0.98974156 0.0010225627
-0.067833535 -0.0059914496 0.4896453 0.1337762 0.065107979 -0.9888705 0.00081724412
0.074551746 -0.0062660114 0.48873192 -0.12825575 0.07006932 -0.98926276 0.00076258252
0.099640556 -0.0055885655 0.48550031 -0.13226968 0.069839127 -0.98875034 0.00065016403
0.11346295 -0.0035139769 0.48389912 -0.18788606 0.049144372 -0.98096055 0.0016826661
0.12658599 -0.0066009033 0.48183012 -0.25852785 0.075089507 -0.96308094 0.0024704556
-0.085316315 0.0034979756 0.48834336 0.13003027 0.032285001 -0.99098426 0.0013614622
-0.07830824 0.0061626439 0.48952729 0.13301565 0.013369665 -0.99102384 0.0011726024
0.077629603 0.00019917311 0.4890078 -0.13397753 0.043502167 -0.99002916 0.0011970091
0.094890416 0.0066843377 0.48741859 -0.13708447 -0.0073171309 -0.99053228 0.0013335582
0.10469764 0.0061806124 0.48583427 -0.14091603 -0.004251021 -0.99001241 0.0011834491
0.12592316 0.0036786248 0.48301643 -0.23857175 0.023765381 -0.97083402 0.0022998862
0.13396521 0.0094938138 0.48014864 -0.30586448 -0.0091068316 -0.95203155 0.0027859078
-0.12470899 0.015271592 0.48276606 0.24668443 -0.044831418 -0.96805835 0.0022880242
-0.1188527 0.013565067 0.48371682 0.21666794 -0.036978494 -0.97554481 0.002363303
-0.10467283 0.011825426 0.48576689 0.13642079 -0.014404166 -0.99054629 0.0011908595
-0.080174506 0.01932664 0.48820192 0.12639222 -0.056438729 -0.99037349 0.00093291263
0.068934381 0.017785527 0.48984408 -0.1324424 -0.056663819 -0.98956972 0.0010749504
0.072488718 0.012125406 0.48997241 -0.14250688 -0.028243095 -0.98939079 0.0015703466
0.086528465 0.015175503 0.48780274 -0.13507029 -0.044319279 -0.98984438 0.0011771242
0.10273495 0.012336807 0.48596814 -0.13787401 -0.035652772 -0.98980784 0.0012903493
0.11290563 0.016135223 0.484229 -0.1706115 -0.057270877 -0.98367262 0.0010484046
0.13083269 0.01347521 0.48099604 -0.27377239 -0.035030026 -0.96115637 0.0024455192
-0.12432857 0.026812619 0.48160034 0.26680219 -0.07981737 -0.9604404 0.001960018
-0.1117366 0.026491916 0.48329186 0.13719332 -0.10626596 -0.9848277 1.875178e-05
-0.10621369 0.024639733 0.4842141 0.1370177 -0.086586393 -0.98677713 0.00050279399
-0.092991859 0.025578704 0.48585585 0.12881735 -0.097086042 -0.98690444 0
-0.086334765 0.025146371 0.48677781 0.12966388 -0.096011244 -0.98689872 9.3812414e-05
-0.078631237 0.026563521 0.48764271 0.13082509 -0.096572533 -0.9866907 8.894199e-05
-0.069520183 0.020559879 0.48947465 0.13063653 -0.056858987 -0.98979849 0.00075969857
0.066612348 0.020070659 0.48990902 -0.13498209 -0.07453604 -0.98804057 0.00060310296
0.087284103 0.027794076 0.4863739 -0.1288608 -0.092359148 -0.98735237 0
0.093856283 0.024739459 0.48583043 -0.12878914 -0.092846006 -0.98731613 2.2325839e-05
0.10482614 0.020890523 0.48479173 -0.1436182 -0.071762577 -0.98702782 0.0007076675
0.11652747 0.025757326 0.48273852 -0.17991912 -0.081601903 -0.98029089 0.0010902202
0.12502344 0.027131906 0.48147517 -0.26001319 -0.090326004 -0.961371 0.002415593
-0.12643674 0.032718576 0.48064142 0.26654541 -0.10226273 -0.95838183 0.00274886
-0.11412506 0.034329005 0.48215181 0.16772529 -0.10513904 -0.98021114 0.0015032362
-0.10488099 0.036562532 0.48313349 0.13595775 -0.10522348 -0.98511088 8.8427987e-05
-0.084815465 0.033911113 0.48605451 0.12950273 -0.10184304 -0.98633516 0
-0.072543852 0.036339663 0.48741424 0.12985004 -0.10388416 -0.98607653 0
-0.061290983 0.034374278 0.48910275 0.12985396 -0.1038971 -0.98607475 0
0.058806054 0.035939422 0.48926499 -0.12983964 -0.10389254 -0.98607707 0
0.062271528 0.033070542 0.48911101 -0.1296269 -0.10067767 -0.98643851 9.8365934e-05
0.072030604 0.033576578 0.48777291 -0.12991439 -0.1024318 -0.98622006 0
0.082782313 0.030336153 0.48669875 -0.1301049 -0.10157367 -0.98628366 2.7367741e-05
0.094999582 0.036161918 0.4844766 -0.12967268 -0.10302934 -0.9861896 0
0.10815926 0.033795901 0.48299336 -0.15467006 -0.10101619 -0.98278826 0.00065695198
0.11590669 0.035270527 0.48181805 -0.17204385 -0.093672864 -0.98062545 0.00093016931
0.12571841 0.033187307 0.48053294 -0.28064558 -0.11101105 -0.95337009 0.0021309301
-0.12235178 0.044338889 0.4800142 0.22578122 -0.1131685 -0.9675824 0.0026149107
-0.11288938 0.045117546 0.48117793 0.15381618 -0.10870714 -0.9821015 0.00089484238
-0.10555845 0.044801001 0.48217642 0.13730095 -0.10324953 -0.98513347 0
-0.094958328 0.046325963 0.48341128 0.12890691 -0.10631735 -0.98594105 0
-0.075068019 0.047089208 0.48594946 0.1306242 -0.10552418 -0.98580015 0
-0.062806219 0.048415206 0.48742408 0.12992707 -0.10409042 -0.98604476 0
0.048377339 0.042525705 0.4899441 -0.12979172 -0.10388227 -0.98608446 0
0.052204005 0.049845546 0.48866919 -0.13073023 -0.10739327 -0.9855842 0.00011819288
0.06007098 0.043802746 0.4882701 -0.12980141 -0.10389832 -0.98608148 0
0.088874973 0.042018391 0.48466599 -0.12980063 -0.1038903 -0.98608249 0
0.095921189 0.047511064 0.48315966 -0.13095018 -0.10688772 -0.98560995 0
0.10576478 0.048207179 0.48179039 -0.14049225 -0.10497457 -0.98450106 0.00014793237
0.11450902 0.045047458 0.48097205 -0.16675498 -0.10513654 -0.98037702 0.00092780445
-0.1063066 0.052582063 0.48125821 0.14774409 -0.11391128 -0.98244387 0.00056707446
-0.086447194 0.051423781 0.48399478 0.13137703 -0.11144256 -0.98504847 0
-0.0674804 0.0594365 0.48564765 0.13326906 -0.14664751 -0.98017031 0.00103133
-0.055501297 0.058716051 0.48730063 0.1320911 -0.13238242 -0.98235774 0.00057905732
-0.040430512 0.053657435 0.48981762 0.13068788 -0.11577185 -0.98464078 0.00033532685
0.041520521 0.056418195 0.48938328 -0.12902661 -0.12594953 -0.98361003 0.00067129976
0.053870827 0.050951842 0.48833323 -0.13047259 -0.10742692 -0.98561478 0.00022826799
0.065929294 0.058210768 0.48598099 -0.1322304 -0.13099755 -0.98252463 0.0005910921
0.085912876 0.051878147 0.48401722 -0.12915246 -0.1145601 -0.98498505 0.00011129771
0.098058648 0.058209587 0.4817512 -0.12575832 -0.12813117 -0.9837516 0.00055811973
0.10475898 0.057459928 0.48094806 -0.13182865 -0.12155109 -0.98379195 0.0002409822
-0.10167518 0.065741859 0.48048156 0.12952903 -0.16347776 -0.97800678 0.0013403348
-0.098314643 0.061916266 0.481327 0.13068688 -0.14647835 -0.9805432 0.00075059209
-0.08724229 0.064346045 0.48252875 0.12937579 -0.16438785 -0.97787452 0.0010258966
-0.066726558 0.063817032 0.4852854 0.1307441 -0.15780647 -0.97877634 0.00079399312
-0.047350198 0.06588164 0.48761883 0.12300462 -0.16297917 -0.9789319 0.0009523732
-0.039341733 0.064969897 0.4887692 0.12108631 -0.15192859 -0.98094636 0.00062356086
0.037743784 0.068294033 0.4886294 -0.12803306 -0.17045605 -0.97701192 0.0013692728
0.045079697 0.066665694 0.48783517 -0.13194926 -0.14605042 -0.98043805 0.0008661421
0.0520229 0.064853877 0.48711193 -0.13161835 -0.14538857 -0.98058087 0.00081354578
0.063120075 0.064397551 0.48569909 -0.12903459 -0.14408763 -0.98111618 0.00059687742
0.073636346 0.063694321 0.48438868 -0.13574046 -0.15308495 -0.97884601 0.00057884818
0.08206252 0.069493219 0.48266846 -0.1368075 -0.20006783 -0.97018379 0.0012306419
0.09798035 0.064259648 0.48112416 -0.13059737 -0.16626483 -0.97739464 0.0011985163
0.10377487 0.062678091 0.48052791 -0.12950695 -0.1559387 -0.97924006 0.001132932
