# .PCD v0.7 - Point Cloud Data file format
VERSION 0.7
FIELDS x y z normal_x normal_y normal_z curvature
SIZE 4 4 4 4 4 4 4
TYPE F F F F F F F
COUNT 1 1 1 1 1 1 1
WIDTH 575
HEIGHT 1
VIEWPOINT 0 0 0 1 0 0 0
POINTS 575
DATA ascii
0.035363518 -0.4874483 -0.063122898 -0.12933061 0.939022 0.31860831 0.0027455592
0.047989316 -0.48442766 -0.06608355 -0.1185753 0.93759084 0.32689971 0.0025432773
0.053845167 -0.48421845 -0.064914159 -0.11934733 0.93889451 0.32285178 0.0025261757
0.065139018 -0.48184526 -0.066759303 -0.12088615 0.92695343 0.35516754 0.0024438978
0.078676686 -0.48144343 -0.063885622 -0.12192265 0.93301624 0.33854932 0.0019650941
0.086268902 -0.4805626 -0.063638501 -0.13360666 0.93117511 0.33920813 0.0028223039
0.095314249 -0.48050439 -0.060351968 -0.12294046 0.94220847 0.31165493 0.0030258389
-0.13364688 -0.4726845 -0.063227892 0.26979208 0.9004162 0.34126657 0.0029202555
-0.12190917 -0.47681856 -0.061561044 0.206645 0.92954105 0.3053709 0.0033205154
-0.11525037 -0.47657382 -0.063932024 0.16276947 0.93230933 0.32296348 0.0033397188
-0.10599053 -0.47743055 -0.064538442 0.13821203 0.93948436 0.31347498 0.002994275
-0.093307398 -0.47752279 -0.068037704 0.13167317 0.93151921 0.33901939 0.0025427095
-0.080568954 -0.47974926 -0.06689395 0.10169419 0.93562919 0.33801824 0.0028193942
-0.078086019 -0.47937208 -0.068359613 0.11073281 0.93469954 0.33774993 0.002500684
0.082936525 -0.47877932 -0.068264186 -0.13147251 0.92182332 0.36463234 0.0017105762
0.099750921 -0.47827393 -0.064707942 -0.12202355 0.93386579 0.33616227 0.0023820074
0.10419502 -0.47732431 -0.065333717 -0.13323708 0.93488318 0.32900041 0.0025725949
0.1180284 -0.47406435 -0.068462074 -0.1785721 0.92096347 0.34632117 0.0027729224
0.12461851 -0.47524297 -0.063997015 -0.22372468 0.92182225 0.31652957 0.0031370814
0.13359849 -0.47217849 -0.064235121 -0.28114292 0.91462809 0.29054084 0.0032051627
-0.15590365 -0.46349806 -0.06307561 0.37317497 0.87495297 0.30854124 0.0043189363
-0.1443722 -0.46903083 -0.06134316 0.35227942 0.88978988 0.29012588 0.0036845952
-0.13954324 -0.46967945 -0.064444073 0.3046644 0.88335782 0.35617214 0.0022859897
0.13730024 -0.46868184 -0.0681815 -0.31376868 0.88219649 0.35111046 0.0027874655
0.14448169 -0.46576223 -0.068074644 -0.34455624 0.87059575 0.35120377 0.0024846296
0.15579894 -0.4629961 -0.064289078 -0.36370435 0.88031191 0.30458176 0.0036087807
0.16137035 -0.46229321 -0.060203925 -0.38277566 0.88464302 0.266251 0.002772744
-0.18721588 -0.45151958 -0.060619883 0.35272339 0.88707054 0.29781222 0.0032417809
-0.16457517 -0.45898089 -0.065084122 0.3696112 0.8608163 0.34983253 0.0024745285
0.15821266 -0.45935991 -0.069461226 -0.36927584 0.85504228 0.36405787 0.0022149757
0.16552551 -0.45884946 -0.064575158 -0.3587836 0.86681914 0.34626412 0.0026683498
0.18343969 -0.45152521 -0.064388767 -0.37148872 0.8733356 0.31508896 0.0024264269
-0.20719627 -0.44201279 -0.063753061 0.36159432 0.87122017 0.33200148 0.0031247681
-0.19821601 -0.44637644 -0.062146768 0.35230312 0.88720572 0.29790699 0.0040023103
0.18750855 -0.44886366 -0.066282399 -0.35725951 0.87357813 0.33049488 0.0026721635
0.19464596 -0.4459613 -0.066177487 -0.3476885 0.87646687 0.33304426 0.002629566
0.20554647 -0.44207466 -0.064958274 -0.3687914 0.86618483 0.33721915 0.0025213365
0.21322004 -0.44073951 -0.060671847 -0.36684814 0.88497263 0.28678572 0.0029134674
-0.23059861 -0.43259618 -0.063215807 0.38908479 0.86795127 0.30866429 0.002613662
-0.22647627 -0.4332785 -0.065165624 0.37639371 0.86746496 0.32531899 0.0022114988
-0.21402578 -0.43884876 -0.064403206 0.36795723 0.87058234 0.32664046 0.0030863467
-0.20927121 -0.43812183 -0.069633737 0.35537773 0.86008668 0.36600211 0.0024690095
0.22580042 -0.43460116 -0.06276013 -0.37810367 0.87804985 0.29336998 0.0031014213
0.23351292 -0.43098712 -0.063799396 -0.40436336 0.86331517 0.30195552 0.0033807226
-0.25307181 -0.42152208 -0.062033162 0.50669795 0.80921066 0.29738075 0.0030197962
-0.24582234 -0.4247205 -0.064856745 0.47700986 0.81485659 0.32934836 0.003245814
-0.23798957 -0.42733049 -0.067491703 0.42667443 0.83880997 0.33815193 0.0031318939
-0.22973582 -0.42954877 -0.069820642 0.39106229 0.85026199 0.35231364 0.0019524375
0.23532878 -0.42803884 -0.068254977 -0.41151729 0.84082645 0.35165951 0.0032784657
0.24400854 -0.42578614 -0.065642871 -0.46770415 0.81898731 0.33243436 0.0030528011
-0.26528487 -0.41133121 -0.062872492 0.57493615 0.75792319 0.30822217 0.0032181924
-0.25743377 -0.41600019 -0.065250605 0.55619681 0.76751292 0.31869894 0.0031556503
0.25691247 -0.41684794 -0.064909302 -0.54569829 0.7630955 0.3462638 0.0027020553
0.26242393 -0.41305697 -0.06406042 -0.57923901 0.74796706 0.3240793 0.002166935
-0.27384391 -0.40315145 -0.065924458 0.58011609 0.74794424 0.32255968 0.002450417
-0.26418969 -0.40909731 -0.068519145 0.57632291 0.74545944 0.33487639 0.0026684243
-0.28329396 -0.39658368 -0.064944975 0.57569021 0.74204493 0.34343863 0.0025952253
0.28427696 -0.39619911 -0.064328901 -0.56897873 0.7620796 0.30902734 0.0022423659
-0.30003044 -0.38132721 -0.06896618 0.57088464 0.73169309 0.37244591 0.0015835412
-0.29737431 -0.38580582 -0.064779364 0.57754773 0.74733329 0.3285293 0.0022243543
0.30178136 -0.38248801 -0.064794764 -0.55423027 0.75070685 0.35953873 0.0014895025
-0.31321472 -0.37344682 -0.065240942 0.58131278 0.74683392 0.32297775 0.0024939422
0.3085314 -0.37940449 -0.060423326 -0.5929085 0.75711685 0.27428743 0.0032101166
0.31515503 -0.3716796 -0.06570524 -0.57587457 0.74986964 0.32567471 0.0028710635
-0.32523489 -0.36399055 -0.065628849 0.56460315 0.76145488 0.31844878 0.0021128042
-0.31903788 -0.3680855 -0.066728584 0.57685298 0.74920994 0.32546151 0.0023358383
0.31990391 -0.36912489 -0.06389083 -0.5838995 0.74878478 0.3136602 0.0031379038
0.32412338 -0.36365086 -0.067616194 -0.59213418 0.73234248 0.33623147 0.0027084581
-0.34206867 -0.35129449 -0.065260708 0.62561458 0.71768659 0.30583045 0.0024182431
-0.33379921 -0.35787034 -0.064876921 0.59263974 0.74149704 0.31457946 0.0022420159
-0.32906914 -0.35966036 -0.067941025 0.57380325 0.75425255 0.31914371 0.0020175292
0.33614388 -0.35441968 -0.067628853 -0.60000461 0.72481656 0.33857858 0.0016512625
-0.35172108 -0.34155428 -0.065207519 0.6976881 0.63791537 0.32602969 0.0036092063
-0.34571716 -0.34618923 -0.068309367 0.65716523 0.65905088 0.36576739 0.003030675
0.35301882 -0.34257296 -0.061744895 -0.7046361 0.64478678 0.296206 0.002901329
-0.35650828 -0.33553329 -0.06492912 0.7253828 0.58829457 0.35739234 0.0021568581
0.35581467 -0.33717561 -0.063639797 -0.72877872 0.60499126 0.32072911 0.0024628479
0.3612988 -0.33085513 -0.062929958 -0.7474004 0.59012699 0.30519307 0.002498863
-0.36644715 -0.32401818 -0.0630918 0.75967413 0.564022 0.32368851 0.0025058382
0.36638919 -0.32347211 -0.063887469 -0.75756371 0.57599157 0.30713317 0.002774667
-0.37263262 -0.31439933 -0.065083049 0.75296253 0.56389463 0.33922014 0.0022223755
-0.36913973 -0.31693316 -0.06766279 0.7490983 0.56840795 0.34024131 0.0021899324
0.37462354 -0.31161603 -0.064979337 -0.74990797 0.57463956 0.3277612 0.0027276534
-0.38183334 -0.30307505 -0.06423147 0.75890863 0.57155627 0.31205946 0.0028277058
0.38223445 -0.30195206 -0.064916663 -0.75354612 0.5682655 0.33051857 0.002000642
-0.3873691 -0.29505074 -0.065042391 0.75423294 0.57197744 0.32245082 0.0022037625
0.38638014 -0.29748976 -0.063797265 -0.75497597 0.57892495 0.30798888 0.0028577948
-0.39591357 -0.28425181 -0.064836815 0.75177807 0.57159895 0.32879227 0.0023681025
0.39444244 -0.28496334 -0.066378325 -0.74296278 0.5727194 0.34640852 0.0020392328
-0.40216848 -0.27627933 -0.064607948 0.75068247 0.5773918 0.32108337 0.0023338879
0.39786786 -0.27925825 -0.067964517 -0.74846113 0.57154477 0.33636683 0.0023900068
0.40183976 -0.27486673 -0.066961423 -0.75755042 0.55879307 0.33744273 0.002241791
-0.41189876 -0.26428193 -0.063734569 0.74538201 0.57055181 0.34478432 0.0017914097
0.40972885 -0.26493198 -0.066518418 -0.75024492 0.56675279 0.34047589 0.0016967248
0.41027653 -0.26456314 -0.066077583 -0.75019443 0.56676847 0.340561 0.0018323495
-0.41807568 -0.25240427 -0.068627268 0.77523565 0.52173764 0.35608929 0.0020857791
0.42130816 -0.2512714 -0.064690724 -0.79829037 0.50755054 0.3242299 0.0030051426
-0.42426562 -0.24592541 -0.065991014 0.81672609 0.46291867 0.34447753 0.0027587966
-0.42911887 -0.23392935 -0.067284837 0.85112631 0.40532359 0.33361182 0.0024863719
0.42901462 -0.23611636 -0.065729938 -0.85776526 0.39089742 0.33382335 0.0023004203
-0.43287751 -0.22755446 -0.065115988 0.87162226 0.3725259 0.31858933 0.0024837791
0.43506774 -0.22600579 -0.061753001 -0.87673646 0.37977102 0.29513901 0.0021282528
-0.43769112 -0.2156183 -0.065369129 0.87196648 0.37111288 0.31929553 0.0023690497
0.4384506 -0.21462667 -0.06469281 -0.87165278 0.37123036 0.32001483 0.0019713987
-0.44299334 -0.2017262 -0.066246212 0.86626625 0.36692971 0.33903599 0.0019796956
0.43825179 -0.20915055 -0.06947884 -0.86550683 0.35487366 0.35350066 0.0021905305
0.4436053 -0.20158598 -0.064853564 -0.87505323 0.36263961 0.32058427 0.0021690684
-0.44608322 -0.19626383 -0.064598583 0.87263346 0.36666581 0.32259423 0.0019550996
0.4474583 -0.1936444 -0.064078808 -0.87675244 0.35584676 0.3235403 0.0022894093
-0.45211151 -0.18232143 -0.064150348 0.87955308 0.36442074 0.30591491 0.0031147152
-0.44834152 -0.18830314 -0.066657156 0.86921823 0.36053264 0.33834273 0.002686946
-0.45318627 -0.17328896 -0.069323093 0.86342078 0.36199808 0.35137153 0.0023401978
0.45474267 -0.1745183 -0.065058663 -0.86661929 0.35937765 0.34614828 0.0019275896
-0.45812553 -0.16395169 -0.067244351 0.86833036 0.36394984 0.33696112 0.0020093233
0.45807919 -0.16268811 -0.068349883 -0.86857766 0.36582556 0.33428207 0.0019889015
0.46022916 -0.16576464 -0.061693434 -0.88041949 0.36401245 0.30390194 0.0027740344
-0.46354425 -0.15477547 -0.063645065 0.87983167 0.36045274 0.30979028 0.0030745282
-0.45975265 -0.15863335 -0.068361424 0.86138731 0.35757223 0.36076874 0.0018838752
0.46100554 -0.15994072 -0.064880662 -0.8737936 0.36474884 0.32162547 0.002531097
-0.46815699 -0.14327176 -0.06440147 0.8894999 0.33478227 0.31098348 0.0025386077
0.46261352 -0.14991425 -0.06981799 -0.86476701 0.35104862 0.3590861 0.0020909314
-0.46906191 -0.13961092 -0.065587655 0.88744485 0.32049975 0.33124259 0.0024236254
0.46917 -0.13599373 -0.068284474 -0.88362485 0.30226886 0.35754803 0.0015483676
-0.47286463 -0.12275832 -0.069663279 0.91570222 0.21821739 0.33744711 0.0018944178
0.47308868 -0.12622783 -0.067746565 -0.90830237 0.23843144 0.34371102 0.0031510345
-0.47623602 -0.11443643 -0.064925939 0.93238771 0.178032 0.31457564 0.0029071525
0.47599569 -0.11523408 -0.06520731 -0.92773777 0.17322357 0.3305999 0.0030006012
-0.47657186 -0.1073476 -0.066169553 0.94152898 0.12467594 0.31301621 0.0024921775
0.47598177 -0.10821415 -0.067160159 -0.93300861 0.14262842 0.33038166 0.0026222281
-0.47668123 -0.099230804 -0.068166398 0.93428195 0.11144897 0.33866858 0.0020716935
-0.00041144263 -0.090647578 -0.069010213 -0.020565588 0.94084221 -0.33822027 0.0058829505
0.48029363 -0.093540862 -0.062205389 -0.94716209 0.13581353 0.29058355 0.0028575887
-0.033176571 -0.081749707 -0.065434925 0.35136497 0.86400372 -0.36061099 0.0082642324
-0.028851083 -0.082144894 -0.062726036 0.33965391 0.88062656 -0.33035144 0.0095504578
-0.015024174 -0.08772973 -0.066941001 0.1299298 0.91425639 -0.38373631 0.0074972236
-0.0044890312 -0.088857524 -0.066401377 0.09142033 0.92972893 -0.35671631 0.0062654717
0.0078427577 -0.087890856 -0.065308362 -0.078146331 0.93655986 -0.34168524 0.0083672442
0.011602244 -0.087040804 -0.064569116 -0.11894284 0.92785811 -0.35345697 0.0088846488
0.026580568 -0.084216259 -0.064920031 -0.27458915 0.90134084 -0.33494094 0.0077322889
0.031718735 -0.081320278 -0.063019827 -0.33611459 0.88394392 -0.32506973 0.0099712294
0.47776175 -0.085585088 -0.069656245 -0.9288913 0.12746103 0.34772784 0.0021533347
0.48117292 -0.085465938 -0.062587857 -0.94256783 0.13053514 0.30745167 0.0031455904
-0.4819015 -0.077724986 -0.063193299 0.94649392 0.12668526 0.29681662 0.0029578523
-0.055516906 -0.070953734 -0.069350347 0.56400585 0.73749334 -0.37148485 0.0082106739
-0.044810966 -0.077236526 -0.066613279 0.45665842 0.81676507 -0.35264412 0.0062219081
-0.03954047 -0.078393035 -0.064036705 0.42174032 0.83659106 -0.34964335 0.0064033619
0.044772714 -0.074725419 -0.061900713 -0.50459534 0.80316699 -0.31671199 0.0069856402
0.053100787 -0.071639806 -0.067405671 -0.5282132 0.7705729 -0.35666245 0.0069740433
0.48083061 -0.073608071 -0.066550106 -0.93398988 0.13264078 0.33176693 0.0023791667
-0.48240113 -0.06477908 -0.065701194 0.9372977 0.12767799 0.3243013 0.0025891573
-0.06340526 -0.062841654 -0.066363528 0.66140831 0.6858626 -0.30353203 0.0069800913
-0.05658019 -0.066738911 -0.063688569 0.61123496 0.72558182 -0.31610581 0.0086854827
0.059604134 -0.062992945 -0.060457218 -0.65612495 0.68987465 -0.30589706 0.0086648352
0.062195733 -0.064861521 -0.067739442 -0.67765164 0.64296389 -0.35691109 0.0069668782
0.48233566 -0.064863712 -0.065688469 -0.94249958 0.10984407 0.3156403 0.0029407314
-0.48384252 -0.054992873 -0.065268032 0.93648446 0.12727351 0.32679996 0.003166741
-0.070492879 -0.053268835 -0.065709651 0.76481223 0.57950377 -0.28149173 0.0068057547
-0.068982668 -0.054634918 -0.064839937 0.76481259 0.57950348 -0.28149134 0.0068051335
0.06678348 -0.05587415 -0.06252376 -0.73745322 0.61808562 -0.27227372 0.0086806361
0.48549068 -0.056572005 -0.061098706 -0.94905424 0.1200261 0.2913585 0.0027762218
-0.48512039 -0.045491815 -0.065286294 0.93576938 0.13400908 0.32615533 0.0026651302
0.076442577 -0.044655118 -0.065446056 -0.8130213 0.49934098 -0.29942426 0.0068006329
0.4831647 -0.048288874 -0.068629898 -0.9326694 0.12887377 0.33692619 0.0023441382
-0.4866825 -0.03591029 -0.064351469 0.93874836 0.12562317 0.32089004 0.0026200197
-0.081098713 -0.035525978 -0.066060074 0.86772406 0.37132433 -0.33041364 0.0081533119
-0.079107866 -0.035842311 -0.062199932 0.87936258 0.38258281 -0.28346419 0.0085186446
0.082019575 -0.034632679 -0.067128651 -0.86598444 0.38011208 -0.32493952 0.0066139083
0.48701209 -0.037089586 -0.063689962 -0.94130307 0.12187079 0.31479502 0.0022098399
-0.48834771 -0.027634213 -0.06350223 0.94545716 0.11471836 0.30487767 0.0026305702
-0.084567681 -0.022205641 -0.06232639 0.92518502 0.24400815 -0.29067639 0.0090067144
0.085589901 -0.021326534 -0.063834697 -0.92534685 0.21329841 -0.31342757 0.0085415971
0.48609388 -0.025876615 -0.068674251 -0.93222654 0.11251058 0.34394059 0.0017120392
-0.49076208 -0.013543383 -0.062229678 0.9504379 0.090996355 0.29730037 0.0029462574
-0.48796412 -0.016699759 -0.067297481 0.94182366 0.10546561 0.31913191 0.0031236187
-0.08751522 -0.015489964 -0.066621654 0.92481989 0.15911804 -0.34552792 0.0073699462
0.086595409 -0.014340393 -0.064359426 -0.94606656 0.1294484 -0.296987 0.0084023234
0.48754966 -0.014695319 -0.068708047 -0.93345124 0.095070578 0.34587613 0.0017278935
-0.49165905 -0.0016657739 -0.063726038 0.94775176 0.0031355042 0.31899333 0.0032560744
-0.48803002 -0.0075060334 -0.069679916 0.93818241 0.044576727 0.3432588 0.0029640254
-0.087786734 -0.0074386136 -0.064908922 0.93832129 0.10529335 -0.32934254 0.0092969295
0.48878446 -0.0075889416 -0.068085082 -0.94139427 0.052085154 0.33326253 0.0019131347
-0.4885461 0.0040637082 -0.069548979 0.93340969 -0.027322439 0.35777056 0.0033967157
-0.088433601 0.0025457388 -0.064703859 0.93180579 -0.015151211 -0.36264086 0.0056562782
0.087109596 0.008421734 -0.063840881 -0.93722808 -0.099344902 -0.33426651 0.0096974596
0.090376407 0.0017795844 -0.068821311 -0.92975396 -0.024401899 -0.36737192 0.006473274
0.48870042 0.0043632821 -0.0691441 -0.93604773 -0.02622195 0.35089448 0.0030267646
0.49097341 0.0091780797 -0.063092753 -0.944157 -0.052722678 0.32525042 0.0031615328
-0.4892908 0.015536454 -0.064854525 0.93761468 -0.086947449 0.33662862 0.0020845635
-0.086955339 0.013615921 -0.064897299 0.93765354 -0.10417575 -0.33159184 0.0075067794
0.087640151 0.015130734 -0.066783689 -0.92763948 -0.16132359 -0.3368378 0.0076857177
0.48837966 0.011442686 -0.067871712 -0.93165123 -0.073893115 0.35576075 0.0029781035
0.49040273 0.016587764 -0.062250093 -0.94370645 -0.097400352 0.31611925 0.0029411095
-0.083247013 0.025838044 -0.062112913 0.90278327 -0.31499827 -0.29284546 0.0094402181
0.084869333 0.024013527 -0.064659171 -0.91155207 -0.24860576 -0.32751778 0.0052540647
0.48762587 0.026046723 -0.065438606 -0.93518913 -0.13275583 0.32832485 0.0033435209
0.4902617 0.02122201 -0.060329854 -0.95048743 -0.12216692 0.28574273 0.0036589191
-0.48623079 0.035174686 -0.065842465 0.94088113 -0.13303798 0.31151819 0.0026417724
-0.081707858 0.032753974 -0.06501428 0.86340708 -0.38084897 -0.33088106 0.0063634813
0.078981236 0.036406904 -0.062657379 -0.86837995 -0.37947667 -0.31923935 0.0091415131
0.48616067 0.037572801 -0.065157093 -0.93295729 -0.1281852 0.3363916 0.002519272
-0.48553729 0.041626129 -0.065517955 0.9415856 -0.12769832 0.31162432 0.0024149439
-0.075650424 0.044430085 -0.063304164 0.8252241 -0.4742009 -0.30682042 0.0066058952
0.076333992 0.04729563 -0.067805 -0.79635161 -0.48845688 -0.35669884 0.0070489938
0.48581514 0.04599246 -0.063414544 -0.94363499 -0.12998466 0.30439597 0.0025670861
-0.48342282 0.051758401 -0.067142889 0.9349488 -0.12117039 0.33344945 0.0023428251
-0.070916936 0.05202128 -0.064821422 0.76218241 -0.55059755 -0.34047088 0.010240324
-0.067953102 0.055286251 -0.064057574 0.73280948 -0.58710462 -0.34394529 0.0078509944
0.067146502 0.058237761 -0.066486709 -0.69386864 -0.63644856 -0.33686712 0.0064792414
0.48222426 0.057352498 -0.068103969 -0.9253394 -0.11580805 0.36102006 0.0025956207
-0.063808851 0.062004395 -0.066279024 0.66628826 -0.66077745 -0.34559101 0.0056806603
-0.056095015 0.069393262 -0.067490101 0.59638739 -0.72128659 -0.35223243 0.006025394
0.057085149 0.065658771 -0.062359393 -0.62327725 -0.72193903 -0.30054864 0.0075994609
0.063358717 0.062080011 -0.065088183 -0.67047477 -0.6713565 -0.31582254 0.0046592969
0.48299298 0.065448724 -0.064279519 -0.94283909 -0.11169898 0.31397101 0.0032081078
-0.4822948 0.071174063 -0.064169958 0.93729305 -0.12740801 0.3244209 0.0025994733
-0.4792521 0.078610078 -0.068465926 0.9300344 -0.1234645 0.34611064 0.0021907303
-0.050996169 0.070573933 -0.062939234 0.58642244 -0.74383193 -0.32065964 0.0094609149
0.044691641 0.076765008 -0.065398723 -0.49927309 -0.8099848 -0.30765396 0.0077192439
0.48295268 0.074982814 -0.061371159 -0.95382714 -0.12454506 0.27331716 0.0035820985
-0.47966039 0.088702008 -0.064850263 0.93773961 -0.12155239 0.32537577 0.0025842935
-0.041687068 0.080220208 -0.069305986 0.46096098 -0.81282037 -0.35614312 0.0057560941
-0.038245842 0.080447853 -0.066982582 0.37124813 -0.85692012 -0.35757896 0.0060850354
-0.021927632 0.08471936 -0.062566258 0.21763009 -0.92472357 -0.31228748 0.0073469793
-0.012742111 0.08947441 -0.069947496 0.1397378 -0.92013657 -0.36581674 0.0070815389
-0.0052253925 0.087626815 -0.064041182 0.029751686 -0.93697089 -0.34813839 0.0056272405
0.0040758317 0.087127365 -0.062686607 -0.035293844 -0.95050925 -0.30868533 0.0061860052
0.020166617 0.088315174 -0.069569193 -0.20602834 -0.90386981 -0.37492889 0.0075799851
0.033579025 0.082072482 -0.066384792 -0.38122481 -0.86689836 -0.32117718 0.0060944473
0.47770521 0.088818178 -0.068888195 -0.93112564 -0.13589521 0.33843401 0.0021020365
0.48125267 0.085245796 -0.062099349 -0.94999164 -0.12059858 0.28804821 0.0034283008
-0.0064280997 0.090260103 -0.069852605 0.023780048 -0.9325549 -0.36024442 0.0047268532
0.47814357 0.093768254 -0.066618994 -0.93155742 -0.1355051 0.33740059 0.0026229043
-0.47828376 0.10799149 -0.062226083 0.94702464 -0.13447189 0.29165316 0.0032385064
0.47800118 0.10952582 -0.062596992 -0.94034219 -0.15255293 0.30411211 0.0028426684
-0.47449857 0.11478861 -0.068446159 0.92390299 -0.1539602 0.35028487 0.0026459438
-0.47500676 0.12551829 -0.064156882 0.92413229 -0.23790446 0.29896668 0.0034792065
0.4753657 0.1282275 -0.06250599 -0.91417772 -0.25945988 0.31138337 0.0042618192
-0.47343656 0.13213326 -0.062874466 0.91374308 -0.26985675 0.30372843 0.0036592579
0.47006857 0.13869062 -0.064374402 -0.89380288 -0.31727087 0.31694713 0.0031836815
-0.46657813 0.14709064 -0.06439577 0.87555593 -0.35343349 0.32937318 0.0023644564
0.46528006 0.14735043 -0.066705257 -0.86794084 -0.35347146 0.34890774 0.0023902776
0.46229243 0.15797664 -0.063856453 -0.87115413 -0.35854256 0.3354663 0.0024582413
-0.45910293 0.16790146 -0.061768278 0.88307548 -0.3666549 0.29281726 0.0030982196
0.4598783 0.16471431 -0.063231528 -0.87357163 -0.36763665 0.31892923 0.0033511878
0.46075347 0.16487719 -0.060736559 -0.88060266 -0.3737511 0.29128838 0.0032768548
-0.45380616 0.1731852 -0.068204075 0.86878437 -0.35498053 0.3452574 0.0026380662
0.45422468 0.17481253 -0.065948926 -0.86582625 -0.36453959 0.34271806 0.0029217647
-0.45174202 0.18502264 -0.062581278 0.87782228 -0.3729558 0.3005529 0.0027999158
-0.44967017 0.18724674 -0.064928621 0.87579185 -0.36414686 0.31683728 0.0027773937
0.4499678 0.1857477 -0.065555908 -0.86620796 -0.36440769 0.34189293 0.0028105041
0.45074019 0.18910338 -0.060605083 -0.88444221 -0.36497176 0.29078764 0.0036699062
-0.44423264 0.19600007 -0.068443105 0.86342299 -0.36041299 0.35299194 0.0024120968
0.44676501 0.19676098 -0.062919408 -0.87785459 -0.3606315 0.31514478 0.002602393
-0.44281429 0.20041966 -0.067643277 0.86150646 -0.36365357 0.35434815 0.0021445376
0.44265911 0.20342672 -0.065528244 -0.86929744 -0.37352413 0.32373103 0.0029740783
-0.4394244 0.21385495 -0.06306497 0.88004196 -0.36061531 0.30900294 0.0026618189
0.43830013 0.21534522 -0.064407326 -0.87195432 -0.3864066 0.30064204 0.0033159098
-0.43495834 0.22275859 -0.064933039 0.8818059 -0.35612297 0.30918398 0.0025072203
0.43370178 0.22684985 -0.063845381 -0.87643117 -0.37381083 0.30353582 0.0026743177
-0.43130359 0.23072723 -0.065619834 0.87107474 -0.37474948 0.31747684 0.0026670985
-0.42840013 0.23408374 -0.06855499 0.84727079 -0.40919799 0.33865795 0.0031518498
-0.42436594 0.24499391 -0.067101285 0.81521255 -0.46731782 0.34211487 0.0027228035
0.4256269 0.24256487 -0.066796318 -0.80815285 -0.45953178 0.3684012 0.0026624524
-0.42066556 0.25132665 -0.065690503 0.79192585 -0.51464224 0.32862869 0.0029619178
-0.41477823 0.25708017 -0.068143465 0.76336128 -0.53616929 0.36028028 0.002047319
0.41475984 0.25744247 -0.067711048 -0.76011008 -0.55287904 0.34140503 0.002093059
-0.40915883 0.26503336 -0.067338303 0.74072814 -0.57406723 0.34895378 0.0022267045
-0.40180755 0.27559453 -0.066084586 0.7515409 -0.56173241 0.3458944 0.0026301846
-0.39982724 0.27659473 -0.068104826 0.73489195 -0.56276625 0.37845445 0.0018309357
0.404118 0.27247211 -0.066227108 -0.74641162 -0.58360815 0.31979871 0.0021983285
-0.40026468 0.28072384 -0.062098101 0.76478201 -0.57093358 0.2985687 0.0039601456
-0.39098096 0.28985 -0.065897837 0.75220621 -0.56730145 0.33519372 0.0035184177
0.39449695 0.28428555 -0.067153856 -0.75249434 -0.56719577 0.33472562 0.0026864074
-0.39251357 0.29133749 -0.060863692 0.76063478 -0.58554703 0.28030238 0.0037584787
-0.38638112 0.29859948 -0.062376343 0.75768042 -0.58361781 0.29208001 0.0034441112
0.38544774 0.29931462 -0.063017756 -0.75314069 -0.58741182 0.29618636 0.002885778
-0.38174483 0.30308044 -0.064371847 0.74435252 -0.5831663 0.32535562 0.0030418369
-0.3771404 0.30677128 -0.067324251 0.73700368 -0.57968301 0.34755334 0.0032160135
0.37698829 0.30629236 -0.068190522 -0.74411565 -0.569664 0.34896237 0.002200048
0.38156632 0.30487201 -0.062142145 -0.75479537 -0.58904338 0.28863797 0.0029615285
-0.37315607 0.31459808 -0.063882135 0.74212897 -0.58766574 0.32232517 0.0024133967
0.37255168 0.31434122 -0.06529294 -0.74629647 -0.57958937 0.32728839 0.0025992007
-0.36489081 0.32330361 -0.066597626 0.73165506 -0.59772611 0.32772589 0.0021311906
-0.3591857 0.32854757 -0.069398329 0.73236394 -0.5901584 0.33964103 0.0018196736
0.36598799 0.32299006 -0.065171719 -0.75589156 -0.57364142 0.31553671 0.0027929237
-0.35701856 0.33341321 -0.066788934 0.73320436 -0.59764957 0.32438633 0.0020683664
0.35720223 0.33323878 -0.06670706 -0.739043 -0.57576239 0.34973314 0.0015349224
-0.34223151 0.34854561 -0.069631487 0.64794153 -0.68192065 0.33934647 0.002685318
0.34366602 0.3495605 -0.066108137 -0.64609903 -0.69049931 0.32521817 0.0027111871
0.35259664 0.34023118 -0.065441221 -0.70545447 -0.62562203 0.33306327 0.0024475551
-0.34336585 0.35035107 -0.065173812 0.66695535 -0.67954981 0.30558574 0.0027392006
-0.3352367 0.35677558 -0.064715512 0.58091611 -0.7470327 0.32323155 0.0033000649
0.33706155 0.3557587 -0.06392137 -0.60732073 -0.72913629 0.31547076 0.0024913773
-0.32533228 0.36584911 -0.062408194 0.57582814 -0.76582336 0.2862455 0.0032672307
-0.31966248 0.36761585 -0.066712208 0.56970364 -0.75346214 0.32822636 0.0024660048
0.32713351 0.36484748 -0.06130816 -0.58675563 -0.75274628 0.29848093 0.0028414263
-0.31686983 0.37305549 -0.060163915 0.58601713 -0.76068747 0.27917463 0.0029342929
-0.30493391 0.37809354 -0.068085045 0.56671953 -0.74640828 0.34886044 0.0020716181
0.31497172 0.37141633 -0.066377833 -0.57512683 -0.74631876 0.33501869 0.0017281198
-0.30560786 0.3815853 -0.060750119 0.58240706 -0.7594921 0.28978217 0.0030190879
-0.29453012 0.38818359 -0.064471684 0.56762737 -0.75481141 0.32872295 0.0024270951
0.30154195 0.38458756 -0.061367039 -0.58805037 -0.74963468 0.30371794 0.0026904994
-0.28538531 0.39502263 -0.064718187 0.58132601 -0.75341839 0.30727965 0.0026558184
0.27870232 0.39897019 -0.066838406 -0.57060283 -0.74927759 0.33614796 0.0025123612
0.28179759 0.39957988 -0.061675865 -0.57664639 -0.75846511 0.30366054 0.0036487232
0.29427528 0.39030528 -0.060623437 -0.58263081 -0.75888234 0.29092774 0.0026604841
-0.2737174 0.40609801 -0.060529992 0.5830518 -0.76297718 0.27913541 0.0023363519
-0.26599932 0.40768969 -0.068550959 0.57212788 -0.745978 0.34086135 0.00204443
0.27516571 0.40176961 -0.066695586 -0.57297158 -0.74387819 0.34401873 0.0022963914
-0.26358604 0.41084996 -0.066371366 0.56813985 -0.74713898 0.34496441 0.00221211
-0.25338444 0.41920531 -0.065493055 0.52590078 -0.78281558 0.33260807 0.0030098113
0.26748118 0.41093695 -0.060246244 -0.57467782 -0.77159494 0.27273935 0.0024976523
-0.25060734 0.42190871 -0.064504236 0.496499 -0.80785954 0.31757152 0.0035006143
-0.24503151 0.42507571 -0.06556949 0.47677144 -0.81770217 0.32257092 0.0034699452
-0.23172587 0.42923012 -0.068839967 0.39620063 -0.85067582 0.34550786 0.0020496263
0.24629155 0.42236483 -0.069295146 -0.4780187 -0.79519308 0.37304977 0.0016050569
-0.22037007 0.43587518 -0.065073997 0.37086678 -0.87103951 0.32209921 0.0024412447
-0.21165136 0.43871558 -0.066569619 0.37041134 -0.86993152 0.32559875 0.0024286741
-0.20716669 0.43884104 -0.069929756 0.35976395 -0.86578441 0.34783208 0.0022585373
0.21671802 0.43560112 -0.068539523 -0.35996091 -0.86604887 0.34696907 0.0022057954
0.22414249 0.43423018 -0.065090582 -0.3687878 -0.87222189 0.32128596 0.0026270752
0.2335574 0.43142715 -0.062809862 -0.39881435 -0.86681533 0.29929608 0.0027381773
-0.212028 0.44018644 -0.063413635 0.37753212 -0.86825228 0.32188106 0.0028073264
-0.20306493 0.44405934 -0.063102677 0.36193374 -0.88461876 0.29402989 0.0034648848
-0.1934939 0.44698042 -0.06512668 0.34741184 -0.88257891 0.31679589 0.002956697
-0.18567753 0.44831038 -0.068827368 0.35152334 -0.86444801 0.35938975 0.0022814369
0.18669513 0.44842097 -0.067794666 -0.36465377 -0.86367542 0.3479833 0.001847635
0.19571409 0.44690898 -0.063110337 -0.36322105 -0.87726539 0.31380859 0.0024908674
0.2055776 0.44232577 -0.064240351 -0.36972836 -0.87028027 0.32544297 0.0021085956
-0.18863536 0.45080987 -0.061362751 0.35600168 -0.88083637 0.31207392 0.0029801745
-0.175286 0.45498535 -0.064091243 0.35691097 -0.88046354 0.31208754 0.0034464418
-0.16499457 0.45831537 -0.066038035 0.36833981 -0.86935568 0.32946393 0.002621741
0.15938501 0.4595831 -0.068085775 -0.35748598 -0.8669591 0.34725463 0.0025047497
0.1668503 0.45708498 -0.066933393 -0.36417583 -0.86230695 0.35185611 0.0024843626
0.17397934 0.45413965 -0.066918552 -0.36153978 -0.86651903 0.34414205 0.0022952666
0.18423101 0.45237035 -0.062113419 -0.37057444 -0.8834374 0.28672796 0.0032802036
-0.15493178 0.46050501 -0.069875956 0.36331567 -0.85318172 0.37427625 0.0018653489
-0.14966024 0.46688643 -0.061732523 0.36786056 -0.8722297 0.32232577 0.0027203832
-0.13815916 0.46875569 -0.067347728 0.3058483 -0.88215035 0.35814473 0.0029095917
0.14418867 0.46766984 -0.064609163 -0.34196284 -0.88159025 0.32536122 0.0024788158
0.15292144 0.46397525 -0.064759254 -0.35415825 -0.86719435 0.35006541 0.0020548804
-0.14087386 0.47077525 -0.06025162 0.32058671 -0.88963532 0.32522789 0.0034036099
-0.13101242 0.47474644 -0.06094439 0.26643807 -0.91266888 0.30991352 0.0043071536
-0.12861842 0.47314 -0.066508979 0.26178303 -0.89806026 0.35349309 0.0033432276
-0.11236136 0.47610569 -0.065765254 0.14169812 -0.93574774 0.32295182 0.00252485
-0.096206725 0.47831634 -0.065590784 0.12972109 -0.93943775 0.31722105 0.0022149889
-0.074924558 0.4798497 -0.068231449 0.12012295 -0.93693775 0.32820439 0.0021080277
0.076390378 0.47917497 -0.069234267 -0.12247662 -0.92739731 0.35345957 0.0023379198
0.083121002 0.47874379 -0.068287224 -0.12625247 -0.93118322 0.34199148 0.002449515
0.097246625 0.4774698 -0.067068003 -0.13933533 -0.93755138 0.31872112 0.0029004766
0.10060056 0.47963324 -0.061498512 -0.13465789 -0.95090902 0.27863821 0.0029874542
0.11639401 0.47592869 -0.065028481 -0.17170124 -0.93452269 0.31174663 0.0025975672
0.12975506 0.47249424 -0.066848233 -0.26546174 -0.90562266 0.33072308 0.0038362611
0.13813309 0.47124314 -0.062543288 -0.32958585 -0.89173645 0.31012791 0.0030457634
-0.075541258 0.48084515 -0.065990247 0.12337964 -0.94050545 0.31658646 0.0022771233
-0.066312507 0.4828102 -0.064178288 0.12813954 -0.94255871 0.3084856 0.0024187937
-0.054313064 0.48241764 -0.068534717 0.13677317 -0.92592603 0.35207105 0.0022533652
-0.044053715 0.48448244 -0.06704805 0.13781825 -0.92836779 0.34516564 0.0022205324
-0.034522582 0.48779792 -0.062758289 0.13751027 -0.94360512 0.3011649 0.0025362009
-0.026139541 0.48868212 -0.063215196 0.12636019 -0.94074833 0.31468341 0.002098952
-0.016928043 0.48841709 -0.066291466 0.10463986 -0.92969686 0.35314909 0.0021208103
0.00063072721 0.48907787 -0.06938228 -0.0091005536 -0.93186671 0.36268687 0.00324042
0.016710075 0.48885176 -0.065446138 -0.10732132 -0.93876654 0.32741341 0.0030229266
0.027045816 0.48657638 -0.067350194 -0.12543595 -0.93553644 0.33020815 0.0025176671
0.03464498 0.48649073 -0.065445848 -0.12099437 -0.93969071 0.31990901 0.0030063316
0.04550276 0.48437652 -0.066871181 -0.14097568 -0.9348256 0.32592455 0.0029396354
0.051967844 0.4841153 -0.065643162 -0.11494924 -0.94472355 0.3070569 0.0025903124
0.062641554 0.48283413 -0.06538491 -0.11899437 -0.93891811 0.32291341 0.0023446174
0.075691618 0.4821766 -0.062986195 -0.12224962 -0.94798172 0.29391429 0.003433377
0.080885112 0.48142368 -0.063321181 -0.12685619 -0.94620931 0.29764995 0.0028369864
-0.013222684 0.49119332 -0.061129138 0.10004874 -0.94815671 0.30164385 0.0042083994
-0.00075830997 0.49260804 -0.061998595 -0.0084935017 -0.95319831 0.30222678 0.0039323471
0.017922666 0.49029836 -0.062102366 -0.10672592 -0.95044512 0.29199955 0.0034781527
-0.034264866 -0.49008182 -0.050264575 0.13332503 0.9688291 0.20879303 0.0014747246
-0.023230385 -0.49028897 -0.058422931 0.12095042 0.9546448 0.27207413 0.0030353034
-0.011126074 -0.49233031 -0.055490158 0.069261119 0.96420902 0.25593728 0.0034178924
-0.0080768559 -0.49341279 -0.051029269 0.05546961 0.97447509 0.217535 0.002578733
0.0034383638 -0.49309412 -0.057115506 -0.036528919 0.96197873 0.27067021 0.0037264291
0.011724201 -0.49237457 -0.0546836 -0.078327835 0.96674931 0.2434347 0.0026676001
0.02213232 -0.49061233 -0.05725136 -0.11304153 0.96011156 0.25574884 0.0027702432
0.030031526 -0.4904891 -0.051246975 -0.12576495 0.97218418 0.19758815 0.0013851321
-0.094886422 -0.48114485 -0.056526419 0.11425269 0.96374637 0.24112073 0.0027478794
-0.084639922 -0.48270762 -0.055125996 0.12401866 0.96687162 0.22311121 0.0023964425
-0.073943451 -0.48446938 -0.052810185 0.12312056 0.96890414 0.21463005 0.002032849
-0.061077155 -0.48595658 -0.054163966 0.13240848 0.96385354 0.23120219 0.0022393733
-0.042282201 -0.48815838 -0.055949558 0.13570423 0.96244311 0.23513322 0.0022225836
-0.031539157 -0.48964614 -0.05546876 0.1383342 0.96402931 0.22696069 0.0014007777
0.029110448 -0.48975593 -0.056843109 -0.13290721 0.95805961 0.25388473 0.0026701232
0.037501227 -0.48868147 -0.056645438 -0.13303114 0.95972514 0.24744757 0.002422299
0.04404426 -0.48815736 -0.054436415 -0.12600867 0.96355659 0.23596711 0.0026467771
0.050452653 -0.48662961 -0.058916979 -0.12758021 0.95993668 0.24948935 0.0030354292
0.062153578 -0.48559043 -0.055633742 -0.12364049 0.9650526 0.23105517 0.0023279458
0.075380743 -0.48401284 -0.054560948 -0.12106652 0.96566105 0.22987339 0.0016394991
0.082194559 -0.48292303 -0.055823311 -0.11911114 0.96385348 0.23832545 0.0020195579
0.095813334 -0.48126897 -0.054914128 -0.12837657 0.95089543 0.28163332 0.0029043476
0.10446703 -0.48083606 -0.050287452 -0.13966371 0.97037238 0.19715835 0.0011898273
-0.14446451 -0.47000995 -0.055845968 0.35265142 0.90422213 0.24087209 0.0027056816
-0.13411708 -0.47442371 -0.055066627 0.27143392 0.93373007 0.23339218 0.0029958792
-0.12341616 -0.47784537 -0.053536214 0.21717632 0.95064497 0.22160451 0.0031195295
-0.11553359 -0.47883931 -0.053823151 0.17694682 0.95578235 0.23488262 0.002642002
-0.10710502 -0.47910666 -0.059340104 0.13977624 0.94713676 0.28878108 0.0031142505
0.10718534 -0.4792794 -0.058139455 -0.1457122 0.94855726 0.28108197 0.0029221622
0.11443301 -0.47904798 -0.053405542 -0.1843611 0.958134 0.21906705 0.0022131987
0.12386034 -0.47779346 -0.05349334 -0.21988903 0.94624203 0.23722298 0.0026207855
0.135636 -0.47340688 -0.057432696 -0.30853605 0.91810447 0.24877641 0.0025889466
-0.16395412 -0.46197328 -0.0556251 0.3610068 0.90466368 0.2264016 0.0027448675
-0.15264921 -0.46622279 -0.058268793 0.37425587 0.89646637 0.2372351 0.003063099
-0.14775729 -0.46916923 -0.052652556 0.36567825 0.90552527 0.21518229 0.0023959423
0.14951739 -0.46733704 -0.05938559 -0.35728329 0.89562654 0.26495591 0.0022373239
0.15593229 -0.46536097 -0.055228412 -0.37267277 0.8938573 0.24926743 0.0026367842
0.16414565 -0.46230882 -0.053092495 -0.36918986 0.89908522 0.23525424 0.0021834602
-0.18134367 -0.45412567 -0.059559457 0.36783302 0.88555545 0.28370827 0.0038469625
-0.17807673 -0.45544982 -0.059736736 0.37922749 0.88080329 0.28349981 0.003709066
-0.16912118 -0.4591985 -0.059497692 0.37940529 0.88175857 0.28027394 0.0034435191
0.1741817 -0.45782575 -0.055081714 -0.37273669 0.89709562 0.23724848 0.0021291743
0.18958312 -0.45196617 -0.051908538 -0.37371156 0.9041217 0.20713156 0.0017820256
0.1930375 -0.45025003 -0.053649697 -0.36018953 0.89682299 0.25685018 0.0028031829
-0.21169919 -0.44169182 -0.058706123 0.37793571 0.88728279 0.26437438 0.0035595207
-0.20504737 -0.44489658 -0.055962488 0.37304839 0.89673185 0.23813224 0.0029377041
-0.19308975 -0.44922024 -0.059803978 0.36017078 0.89102715 0.27631071 0.003380392
0.19623838 -0.44837591 -0.056995615 -0.35637844 0.89779973 0.25874719 0.0028255114
0.20786446 -0.44415039 -0.053393736 -0.37256545 0.89787346 0.23455976 0.0023075298
-0.22194879 -0.43743926 -0.058748722 0.37912476 0.88487381 0.2706711 0.0027222943
0.22084609 -0.43847933 -0.05518692 -0.37884673 0.89408988 0.23891093 0.0017427308
0.23643309 -0.43201086 -0.055260763 -0.41043857 0.87317735 0.26287147 0.002997899
-0.25379229 -0.42235953 -0.055433191 0.53386539 0.80481982 0.25933143 0.0030929188
-0.24604517 -0.42822441 -0.052970637 0.46136081 0.85480917 0.23758692 0.0029256835
0.24847317 -0.42610654 -0.057182856 -0.49170086 0.82811886 0.26916423 0.0036748769
0.25232345 -0.42333516 -0.056223717 -0.52636087 0.8127169 0.24987082 0.0032877733
-0.26458919 -0.41417727 -0.054895777 0.58898073 0.77791977 0.21895769 0.0018550482
-0.25894019 -0.41900674 -0.052302286 0.58062524 0.78650004 0.21045676 0.0019825606
0.25943759 -0.41826224 -0.054200836 -0.55964142 0.79470974 0.23502733 0.0028170079
0.26210427 -0.41594636 -0.055613957 -0.58134979 0.77347511 0.25252473 0.002865857
-0.27493566 -0.4058941 -0.056698993 0.59776276 0.77052528 0.22129284 0.0021313683
0.27109051 -0.40882027 -0.05682382 -0.59589148 0.75432491 0.27551273 0.0026016731
-0.2926366 -0.39252627 -0.055573981 0.58938509 0.77756566 0.21912734 0.0016561815
-0.28618973 -0.3976385 -0.054707464 0.59094602 0.77601802 0.22040609 0.0016718884
0.28600931 -0.39785141 -0.054315109 -0.58903176 0.77679741 0.22277185 0.0020798263
-0.30225086 -0.38500085 -0.056349948 0.58851492 0.76908046 0.24933003 0.0024418237
-0.29906276 -0.38779402 -0.054532193 0.59359574 0.77386111 0.220869 0.0019228386
0.29717708 -0.38941595 -0.053613983 -0.57931012 0.77790368 0.24344549 0.0024445092
0.30496991 -0.3834739 -0.053417265 -0.59521729 0.7724703 0.22137314 0.0021689287
-0.32108274 -0.37078771 -0.055107184 0.59338433 0.77212036 0.22743174 0.0015284095
-0.31440601 -0.37645292 -0.052267108 0.59652096 0.77413422 0.21184637 0.001526802
0.3154774 -0.37476531 -0.056803267 -0.58467454 0.76690882 0.26458725 0.002887957
-0.32556641 -0.3669641 -0.057115287 0.58832395 0.76305908 0.26761106 0.002373138
0.32490408 -0.36754283 -0.056746855 -0.59635556 0.75406539 0.27521884 0.0027230973
0.33396327 -0.36066079 -0.056384087 -0.60061961 0.7548309 0.26360273 0.0026048953
-0.34724757 -0.3510201 -0.053485304 0.6594817 0.71943635 0.21793413 0.0019768423
-0.33944753 -0.35744375 -0.05118759 0.62912714 0.74640781 0.21696661 0.0017384337
0.33803621 -0.35854036 -0.051117204 -0.62231064 0.75772846 0.19641042 0.0016101985
0.34482586 -0.35311985 -0.052221466 -0.6564399 0.71595985 0.23767197 0.0027047654
-0.35234758 -0.34524846 -0.05456721 0.71041197 0.66656041 0.22585835 0.0027081121
0.34928039 -0.34981325 -0.05163734 -0.66829866 0.70308971 0.24298505 0.0032075304
0.35258496 -0.34568137 -0.05158519 -0.71123737 0.66702098 0.22186586 0.0029254032
-0.36031842 -0.33375576 -0.059010349 0.7631098 0.5907225 0.26212662 0.0025378754
-0.35702214 -0.33816504 -0.058553945 0.72924137 0.62450939 0.27963412 0.0031827767
0.35920957 -0.33635378 -0.054377783 -0.75415379 0.60681725 0.25104752 0.0032995881
0.36260808 -0.33165413 -0.055466257 -0.75699925 0.59605253 0.26771897 0.0027898948
-0.36955053 -0.32270479 -0.05506723 0.7794292 0.57964206 0.23770809 0.0020026779
0.36755279 -0.32523617 -0.055361003 -0.76633304 0.58380985 0.2681413 0.0033164318
-0.37587416 -0.31519577 -0.052123412 0.77338707 0.59174103 0.22740902 0.0013720932
0.3738139 -0.31676146 -0.056627821 -0.76580459 0.58182031 0.27391294 0.0030811965
-0.38272735 -0.30531359 -0.055947572 0.76912791 0.58852547 0.24915867 0.0025508541
0.37986845 -0.30846679 -0.05825337 -0.77145803 0.57986248 0.26193893 0.0026698955
0.38680005 -0.30131942 -0.05066793 -0.77308571 0.59744734 0.21306165 0.001982013
-0.3916221 -0.29420727 -0.053995285 0.77393776 0.58773816 0.23576321 0.0019735589
0.39046422 -0.294312 -0.059644736 -0.7585147 0.58256626 0.29201362 0.0030831308
-0.39882103 -0.28403407 -0.057178117 0.7760064 0.57131958 0.26722276 0.003047829
0.39823866 -0.28580007 -0.053129811 -0.77636021 0.59192985 0.21652696 0.0016882346
0.40174657 -0.28187096 -0.050546106 -0.77487254 0.59543449 0.21220355 0.0017717476
-0.40720576 -0.27429563 -0.052397754 0.77078897 0.59142649 0.2368525 0.0024291335
0.40525344 -0.27638039 -0.054247007 -0.77256066 0.58337712 0.25064179 0.0022704359
0.41355848 -0.26598305 -0.052533794 -0.77485746 0.59042531 0.22581807 0.0020008523
-0.42215824 -0.25407067 -0.055367768 0.80348241 0.53512824 0.26087111 0.0033275255
-0.41775352 -0.25911069 -0.058184143 0.77567452 0.56833649 0.27444977 0.0034606974
0.42357951 -0.25247937 -0.054318994 -0.81918949 0.52612078 0.2283098 0.0018947272
-0.42870584 -0.24540976 -0.052740604 0.85719889 0.45867282 0.23415622 0.0025056857
0.43020582 -0.24239242 -0.0512137 -0.85524321 0.47132859 0.21542618 0.0025574691
-0.43280703 -0.23401317 -0.056520838 0.87568581 0.40391761 0.2646223 0.0023275441
0.43305874 -0.23428059 -0.054308511 -0.87977546 0.40708786 0.24550892 0.0022223054
-0.43709442 -0.22485575 -0.053503919 0.8943696 0.3785376 0.23835324 0.0017155737
0.4375554 -0.22457312 -0.05140505 -0.90475887 0.36993182 0.21109673 0.0014703957
-0.44018054 -0.21787554 -0.052314956 0.89608675 0.38027173 0.22895841 0.001852367
0.44171816 -0.2128097 -0.055737577 -0.89681125 0.36535037 0.24949656 0.0025049793
-0.44570073 -0.20297377 -0.056296647 0.89326978 0.3749865 0.24789959 0.0025478397
0.44612154 -0.20168509 -0.056986108 -0.89498389 0.36183131 0.2609252 0.0028943829
-0.45071071 -0.19207168 -0.053280342 0.89980453 0.36977047 0.23156323 0.0021541568
-0.44840607 -0.19740883 -0.053853575 0.90218699 0.36715719 0.22639419 0.001895848
0.44854888 -0.19659604 -0.055036791 -0.89519691 0.3767975 0.23800468 0.0027841702
-0.45295769 -0.18484816 -0.057828464 0.89272499 0.36877975 0.25892761 0.0022884314
0.45313141 -0.18502487 -0.056321114 -0.89211297 0.38444135 0.23735915 0.0021863864
-0.45781198 -0.17450537 -0.054348357 0.89251429 0.36694881 0.26223427 0.0020407967
0.45933002 -0.17041817 -0.055416025 -0.90103084 0.36516336 0.23409219 0.001805246
-0.46257314 -0.1628096 -0.054857299 0.89879012 0.37112579 0.2333277 0.0015784673
0.46344867 -0.16168766 -0.052349791 -0.89907384 0.37516424 0.22564992 0.0022036189
-0.46508801 -0.15666535 -0.055041268 0.8933512 0.37819114 0.2426834 0.0018137655
0.46447301 -0.15789381 -0.055689324 -0.89168781 0.36359015 0.26962024 0.0021323019
-0.47075051 -0.14217515 -0.057114005 0.9085874 0.32304457 0.26478505 0.0020658539
-0.46973673 -0.14414582 -0.058319595 0.90280122 0.33397716 0.27094153 0.0021722217
0.46999559 -0.14645979 -0.050889138 -0.90223771 0.36192897 0.23446663 0.0022506998
0.47185466 -0.14054988 -0.054483805 -0.89941478 0.33632994 0.27916875 0.0017294703
-0.47459012 -0.13297367 -0.056941859 0.92066199 0.2834377 0.26841113 0.0023423005
0.4724803 -0.13814893 -0.056735173 -0.90595949 0.32656494 0.26943031 0.0024482899
-0.47770888 -0.12365273 -0.054226585 0.94312 0.22413497 0.24553677 0.0024592553
0.47726378 -0.12350539 -0.057269324 -0.94412541 0.22263321 0.24302612 0.0026837129
-0.47895008 -0.11180899 -0.056310523 0.95369178 0.15067779 0.26032346 0.0025180024
0.47813475 -0.11781119 -0.056474749 -0.95077217 0.18267226 0.25032598 0.0025499524
-0.47941995 -0.10692108 -0.057447542 0.95358902 0.14551322 0.26361689 0.0022198528
0.47970974 -0.10442227 -0.057703782 -0.9497152 0.13915628 0.28049338 0.0028245766
-0.48011351 -0.099868096 -0.058986783 0.95282179 0.12353972 0.27725163 0.0027166067
0.48230875 -0.091847442 -0.051524211 -0.96963149 0.11993415 0.21314423 0.0019883316
-0.48267299 -0.085404247 -0.054695029 0.96174246 0.11921836 0.24665463 0.0025134978
-0.030475633 -0.08027263 -0.057579279 0.3562355 0.89903075 -0.25463712 0.0090424474
-0.020647343 -0.082957774 -0.0517551 0.23935942 0.94257993 -0.23291655 0.0082101123
-0.017566765 -0.084347159 -0.058198757 0.18015651 0.94360584 -0.27776179 0.010821117
-0.0055870255 -0.085931078 -0.058242679 0.10846889 0.96146864 -0.25261137 0.0086042881
0.0038586196 -0.085455321 -0.053636849 -0.07580933 0.97164702 -0.22395279 0.0090514952
0.012396974 -0.08467555 -0.055891998 -0.15324409 0.95672607 -0.24736921 0.0075982469
0.026313633 -0.081446677 -0.054223739 -0.26936224 0.92859471 -0.25525653 0.005443864
0.031425223 -0.080078959 -0.05879876 -0.33073655 0.89968038 -0.28493595 0.0095337527
0.48250452 -0.085587397 -0.055639319 -0.96195418 0.12790512 0.24142183 0.0019792505
-0.48386472 -0.077268153 -0.053904962 0.96410483 0.13005699 0.23148896 0.0019950459
-0.034262255 -0.078253865 -0.054830492 0.41119483 0.88675392 -0.21115474 0.0072367718
0.035203252 -0.078092061 -0.056223217 -0.41007745 0.87916708 -0.24269657 0.0097340206
0.48510495 -0.070746608 -0.051403992 -0.96456438 0.12147851 0.23421884 0.0018875278
-0.4852536 -0.065472856 -0.054979302 0.96108299 0.13504659 0.2410017 0.0026636138
-0.052868087 -0.067331262 -0.05610393 0.59657943 0.75488281 -0.27247933 0.011120554
0.053198468 -0.067142963 -0.056447119 -0.56897217 0.77929646 -0.26261711 0.0079246303
0.061341714 -0.06126057 -0.058504343 -0.69780099 0.65273952 -0.29496565 0.0077896183
-0.48690185 -0.051284511 -0.056418438 0.95870638 0.12724043 0.25434613 0.0025096296
-0.068485938 -0.051688869 -0.057414513 0.7775504 0.56535268 -0.2753028 0.007490634
0.06684076 -0.052950401 -0.05386531 -0.77076066 0.59866923 -0.21799794 0.0063841147
0.4866991 -0.055766456 -0.053878956 -0.96101499 0.13209403 0.24290211 0.0019219039
-0.48758328 -0.047388218 -0.055314913 0.95553452 0.14023294 0.25940022 0.0025754692
-0.072839864 -0.046517901 -0.059438266 0.80970865 0.51249307 -0.28587183 0.0088349581
0.075471886 -0.041356023 -0.055786122 -0.82586598 0.50981241 -0.24090774 0.0069436976
0.48794174 -0.045692448 -0.054426473 -0.96232814 0.13640895 0.23519593 0.00202696
-0.48974639 -0.036383998 -0.050635912 0.97166389 0.12163165 0.20266952 0.0015972308
-0.079332277 -0.032910079 -0.057994682 0.89897633 0.35999864 -0.24948454 0.0082249045
0.077022985 -0.03684859 -0.053857572 -0.87349123 0.4206185 -0.24513882 0.0085754348
0.48914182 -0.035734184 -0.055152755 -0.96501845 0.11995862 0.23312958 0.0017217712
0.49000001 -0.030768551 -0.053813413 -0.96717012 0.11727691 0.22545065 0.0018591736
-0.49039629 -0.024015134 -0.057044894 0.95959723 0.1157765 0.25645462 0.0027758658
-0.082037792 -0.023763508 -0.052910615 0.93747073 0.26009288 -0.23130141 0.0080569582
-0.079721428 -0.028916646 -0.050273992 0.91609746 0.33322769 -0.22299032 0.0071880664
0.083203882 -0.022934543 -0.056404773 -0.92947805 0.25420597 -0.26730111 0.0058494415
0.49071789 -0.026453828 -0.052832223 -0.96783072 0.11886778 0.22175275 0.0015485527
-0.49267489 -0.014846673 -0.050026432 0.97305465 0.092864297 0.21104711 0.0017493346
-0.08470507 -0.012528618 -0.056196637 0.95691991 0.17882234 -0.22875088 0.0081327055
0.084280178 -0.012428674 -0.053330272 -0.96301049 0.11453217 -0.24391222 0.0079693906
0.49229059 -0.016367992 -0.051228091 -0.9736253 0.094050363 0.20786601 0.00097770058
-0.49368164 -0.0019148343 -0.054583907 0.97359639 0.010090652 0.22805323 0.0027873828
-0.085483752 -0.0060873753 -0.055741876 0.96374494 0.089952849 -0.25120541 0.0064304108
0.085771069 -0.0032697646 -0.055198655 -0.974527 0.023685811 -0.2230162 0.0068858806
0.49339113 -0.0047226213 -0.054060653 -0.9675892 0.040354405 0.24928448 0.0021300477
-0.4933224 0.008586837 -0.051183224 0.97568899 -0.037638865 0.21590337 0.0024434042
-0.085638858 0.0036850588 -0.054686282 0.9678632 -0.014573879 -0.25105467 0.0076316358
0.085113943 0.0043702926 -0.051843364 -0.97774959 -0.03847928 -0.20621608 0.0073640491
0.49302313 0.0061148494 -0.055269808 -0.97261739 -0.028822493 0.23061796 0.0029092443
-0.49098119 0.018953556 -0.057578444 0.95900947 -0.1088064 0.26165244 0.0023015032
0.084284544 0.015355699 -0.055882063 -0.94562125 -0.18968287 -0.26423624 0.0070001623
0.49147314 0.018698225 -0.054571223 -0.96625733 -0.098744825 0.23789944 0.0030392399
-0.49075708 0.024925504 -0.053896733 0.96465945 -0.12928517 0.22960271 0.0018400624
-0.48979548 0.027773468 -0.05773925 0.95840877 -0.11715499 0.26024467 0.0021573445
-0.081780508 0.025017321 -0.052983116 0.90890729 -0.32993272 -0.25501359 0.0078790262
0.083672002 0.020242771 -0.056083538 -0.93260938 -0.21932296 -0.28659582 0.0058289049
0.48955005 0.028170802 -0.058999412 -0.95233119 -0.13518508 0.27347836 0.0036353392
0.4912689 0.022283694 -0.052817106 -0.97109175 -0.11629093 0.20846428 0.0022157484
-0.48934224 0.033586074 -0.055695515 0.96302104 -0.12771031 0.23723543 0.0019541064
-0.077774845 0.034981504 -0.053726114 0.8801924 -0.41965029 -0.22170936 0.0059023593
0.077557981 0.035868138 -0.054644071 -0.86331588 -0.42852253 -0.26655966 0.0080441777
0.080382019 0.030369785 -0.057979345 -0.89656389 -0.3295604 -0.29591078 0.0083572725
0.48981184 0.033374466 -0.052797362 -0.96245712 -0.14275776 0.23086014 0.002172516
-0.48758042 0.046979468 -0.055686068 0.96073169 -0.14211491 0.2383232 0.0027339
