# .PCD v0.7 - Point Cloud Data file format
VERSION 0.7
FIELDS x y z normal_x normal_y normal_z curvature
SIZE 4 4 4 4 4 4 4
TYPE F F F F F F F
COUNT 1 1 1 1 1 1 1
WIDTH 596
HEIGHT 1
VIEWPOINT 0 0 0 1 0 0 0
POINTS 596
DATA ascii
0.25424513 -0.25791109 0.19410855 -0.98513758 0.13761622 -0.10279015 0.00021000208
0.25647122 -0.24017678 0.19518432 -0.99044573 0.11245128 -0.079824269 0.00073591841
-0.25693947 -0.23746523 0.19408312 0.99273634 0.097457819 -0.07054434 0.001244028
0.25700569 -0.23482031 0.19687444 -0.9908216 0.11032755 -0.078104734 0.00087127317
-0.25786319 -0.22623079 0.19958018 0.99406719 0.089752711 -0.061440513 0.0012478464
0.2578035 -0.22704726 0.1991066 -0.99633557 0.057235803 -0.063557066 0.0023042632
-0.25913319 -0.21913971 0.19624983 0.99836069 0.05061017 -0.026729617 0.0023716956
0.2593438 -0.21366765 0.19561806 -0.9999283 -0.0069060088 0.0097837541 0.0034780172
-0.25806987 -0.2000384 0.19856241 0.99681854 -0.050343171 0.061792012 0.0028050772
-0.25685203 -0.19197275 0.19584455 0.9917556 -0.090864621 0.090356544 0.001022941
0.25724548 -0.19794732 0.19312698 -0.99470609 -0.069321714 0.075857177 0.0017458942
0.25620037 -0.18718663 0.19456708 -0.98856068 -0.099761523 0.11311679 0.00034674836
-0.25507113 -0.17436075 0.19583133 0.98554975 -0.10480935 0.13306639 0.00010257262
0.25516894 -0.17860568 0.19331706 -0.98657012 -0.1075644 0.12291984 1.381433e-05
-0.25404149 -0.16643825 0.19408974 0.98382634 -0.10991216 0.14143899 0.00024964445
0.25465024 -0.16648972 0.19867395 -0.98445964 -0.10670853 0.13947253 0.00027748718
2.5668486e-17 -0.15183794 0.19121271 -1 3.1394699e-21 -1.1773076e-21 0
0.2526463 -0.15252851 0.19416529 -0.97107214 -0.14232044 0.1917385 0.0022781577
-0.2521956 -0.1435587 0.19762497 0.96665365 -0.16182204 0.19847986 0.0028630919
2.5668486e-17 -0.14009362 0.19535795 -1 -0 -0 0
0.25188443 -0.14440362 0.19461314 -0.95912772 -0.17597868 0.22159757 0.0030824745
-0.25163007 -0.13882948 0.19695804 0.95780671 -0.1730472 0.22947997 0.0037195375
-0.24990089 -0.13128361 0.19474705 0.94525176 -0.19884032 0.25876954 0.0035823474
2.5668486e-17 -0.13524787 0.1961655 -1 -1.5673763e-21 -1.659169e-21 0
0.25121802 -0.13369927 0.19776469 -0.94881129 -0.19212562 0.25068864 0.0040182029
-0.24771529 -0.12687978 0.19284967 0.93609178 -0.19235653 0.29450157 0.003010354
2.5668486e-17 -0.12661238 0.19893937 -1 3.2041253e-22 -2.0659246e-21 0
0.24666832 -0.12307975 0.19323796 -0.92679572 -0.1957802 0.3204996 0.0034754279
-0.24536267 -0.11858065 0.1935381 0.90904832 -0.21857671 0.35476097 0.0022897334
2.5668488e-17 -0.11997014 0.19226216 -1 -2.1749393e-21 -1.9480225e-21 0
-0.24242814 -0.10276375 0.19568014 0.88961267 -0.2208218 0.3997837 0.00037564363
2.5668486e-17 -0.10646376 0.19850339 -1 -9.2894231e-22 -1.1925855e-22 0
0.24094617 -0.10716705 0.19078395 -0.89640164 -0.21927734 0.38520333 0.00094095804
-0.24344796 -0.099740669 0.19904654 0.89880663 -0.20993564 0.38480338 0.0005831201
-0.23927575 -0.092207983 0.19351712 0.88766748 -0.18863791 0.42007414 0.00023513292
0.24052091 -0.097919755 0.19373262 -0.89063996 -0.18997467 0.41312236 0.00031986437
-0.24021795 -0.088875405 0.19685085 0.88845611 -0.17822438 0.42294407 6.4579137e-05
-0.23755667 -0.083524764 0.19354996 0.8845492 -0.17881249 0.43081185 4.5575369e-05
2.5668486e-17 -0.082033023 0.19380999 -1 -2.7722584e-22 -2.7065315e-21 0
0.2375847 -0.0839938 0.19341381 -0.88654351 -0.17935432 0.42646515 0
0.24000625 -0.088262208 0.19666597 -0.88893729 -0.17659833 0.42261529 5.3280597e-05
-0.23604774 -0.073063128 0.19475514 0.88349259 -0.17520434 0.43444708 7.7723089e-05
2.5668486e-17 -0.076408729 0.19341838 -1 -1.8622812e-21 2.9179321e-23 0
0.23713273 -0.070591837 0.1980281 -0.88703138 -0.16615085 0.43077737 0.00017005827
-0.23501085 -0.064023152 0.19634993 0.88191104 -0.15691291 0.44453481 0.00067624083
0.23727599 -0.067790955 0.19948524 -0.88598078 -0.15852313 0.43578488 0.00023355834
2.5668486e-17 -0.055363517 0.19201022 -1 2.5154849e-21 -8.1253063e-21 0
0.22929598 -0.050217461 0.19002955 -0.86288983 -0.12550116 0.48956177 0.0026508474
0.23324621 -0.053655133 0.19684948 -0.88402414 -0.11986193 0.45181227 0.00091729831
-0.23203501 -0.047698535 0.19565253 0.87781292 -0.1050593 0.46734044 0.0011976436
2.5668486e-17 -0.04738928 0.19366491 -1 -8.884566e-22 3.655438e-21 0
0.22987294 -0.042642631 0.1921414 -0.85793668 -0.10856348 0.50215399 0.0024461569
0.23219755 -0.04614884 0.19617057 -0.87451357 -0.11142539 0.47202802 0.0014690583
0.23191446 -0.034044474 0.19721727 -0.86647964 -0.077069543 0.49322751 0.0015131853
-0.23194465 -0.022371178 0.19881238 0.87309378 -0.048245739 0.4851594 0.0010525753
-0.2295641 -0.028447757 0.19341353 0.86854464 -0.062665485 0.49163342 0.0012493506
2.5668486e-17 -0.024959484 0.19794095 -1 3.5150453e-22 -2.8448702e-22 0
0.22911471 -0.025906432 0.19287996 -0.85434282 -0.065102778 0.51561606 0.0015248922
0.23058866 -0.025348686 0.19580086 -0.85704982 -0.065091982 0.5111053 0.0015311326
-0.22800425 -0.019547688 0.19157185 0.85099143 -0.053305425 0.52246732 0.0024925757
0.22767706 -0.0134223 0.19174625 -0.84472477 -0.05900253 0.53193873 0.0028183041
-0.23051739 -0.0039096358 0.19848567 0.89054149 -0.013599549 0.45469871 0.000715442
-0.22705613 -0.0034176512 0.19186381 0.85656893 -0.0085313451 0.51596206 0.003372008
0.23141304 -0.0089298608 0.19955498 -0.86451072 -0.039044082 0.50109565 0.0019413357
-0.23073603 0.0059037684 0.19864553 0.87669182 0.010911305 0.48092863 0.0016273224
-0.22912286 0.0055556847 0.19557494 0.87647706 0.0074349204 0.4813863 0.0018697905
0.22737698 0.00086879067 0.19281922 -0.84277976 -0.01341019 0.53809142 0.004127807
-0.23108059 0.016889075 0.1978649 0.86826134 0.046739452 0.49390051 0.0017962269
-0.2297547 0.011138069 0.19606061 0.86764562 0.042128492 0.49539512 0.0017204944
2.5668486e-17 0.01386423 0.19987498 -1 3.7296667e-22 9.557223e-21 0
0.22760448 0.013919303 0.19154055 -0.84032393 0.036601067 0.54084748 0.0032070202
-0.22875082 0.023338692 0.19251506 0.84893447 0.049471565 0.52617753 0.0025478147
-0.22878809 0.033179779 0.19129145 0.83389145 0.085634671 0.54524475 0.0027208037
2.5668486e-17 0.038996071 0.19917706 -1 -4.2743033e-22 -7.4708394e-24 0
-0.23352468 0.040632792 0.1994606 0.88382286 0.085028023 0.46002984 0.00062594924
2.5668486e-17 0.045686431 0.19577503 -1 -1.5994805e-21 -4.7539532e-21 0
0.23250395 0.042719837 0.19721393 -0.86975807 0.098171324 0.48361486 0.0016579039
-0.23279309 0.056260742 0.19496754 0.87722725 0.14168878 0.4586902 0.0010942265
0.23242845 0.053958405 0.19497871 -0.87573785 0.14097889 0.46174464 0.0017033538
-0.23300202 0.064789213 0.19186807 0.87248003 0.16842589 0.45870611 0.00068633823
2.5668486e-17 0.063723981 0.19374277 -1 0 0 0
0.2352767 0.060021088 0.19855884 -0.88793147 0.14428857 0.43675908 0.00058120373
-0.23660737 0.07384932 0.19558963 0.88635528 0.17615217 0.42818782 0
2.5668486e-17 0.071807973 0.19292934 -1 -1.3022094e-22 2.4390418e-21 0
0.23642805 0.074780606 0.19483215 -0.88496006 0.17652501 0.43091151 2.9964967e-05
-0.23828554 0.082670502 0.1954149 0.88643092 0.17707694 0.42764935 7.8397052e-06
2.5668486e-17 0.083333984 0.19646367 -1 -5.499394e-22 -3.9850965e-21 0
0.23566309 0.082171045 0.19018506 -0.88568282 0.17920691 0.42831162 3.3081811e-05
-0.24266334 0.094575018 0.1995596 0.89756644 0.16974053 0.40689403 0.00073460402
2.5668486e-17 0.097379953 0.1924482 -1 -9.9434481e-22 2.6174927e-21 0
-0.24074467 0.1028116 0.19217026 0.89188439 0.20281032 0.40424022 0.00076018902
2.5668486e-17 0.10135158 0.19428195 -1 9.8108962e-22 -2.6422536e-21 0
0.24427336 0.10426515 0.19888362 -0.91385156 0.19117548 0.35822791 0.0025688936
-0.24470907 0.11657204 0.1934866 0.91658258 0.21393095 0.33780161 0.0027412004
2.5668486e-17 0.1169043 0.19301623 -1 -1.9557599e-21 -1.8729066e-22 0
0.24657129 0.11508119 0.19914122 -0.92875487 0.17337453 0.32765183 0.0033248495
-0.24875888 0.12691644 0.19534105 0.9315328 0.2080505 0.29826429 0.0030211613
2.5668486e-17 0.127336 0.19075425 -1 1.400048e-21 -3.8567365e-21 0
0.24911401 0.12729663 0.19590668 -0.93629307 0.2045065 0.28553894 0.0039644823
-0.24925286 0.13001157 0.1941586 0.93741268 0.21150677 0.27662665 0.0031618667
2.5668486e-17 0.13223113 0.19688585 -1 0 0 0
0.25122067 0.13236088 0.19881201 -0.95366907 0.17856863 0.24213329 0.0033853487
2.5668486e-17 0.1470993 0.1943897 -1 2.1393884e-21 6.0795251e-21 0
0.25186267 0.14455266 0.19433327 -0.96372086 0.1714289 0.20458309 0.0028706428
-0.25307733 0.15441138 0.19599465 0.97743708 0.12307593 0.17166561 0.00083284889
2.5668486e-17 0.15570195 0.19080003 -1 -2.5949078e-21 -1.1929011e-21 0
0.25315866 0.15590875 0.19546342 -0.97649658 0.12640995 0.17457089 0.0015251462
-0.25441185 0.16776964 0.19588125 0.98248804 0.12354408 0.13947797 0.00038705018
2.5668486e-17 0.16346332 0.1972207 -1 -2.594789e-21 -1.0824933e-20 0
0.25432056 0.16418962 0.19793481 -0.98422289 0.10852863 0.13973902 0.0003843524
-0.25472158 0.17337501 0.19393267 0.9844889 0.11663631 0.13106319 0.00019244473
0.25558037 0.17525305 0.19901478 -0.98673987 0.10253975 0.1258174 3.6899826e-05
-0.25582233 0.18374732 0.1943347 0.98687869 0.1068653 0.12103821 8.3957209e-05
0.25699681 0.18930013 0.19899508 -0.99318665 0.083093628 0.081705362 0.0019592992
0.25722414 0.19778165 0.1931316 -0.99343455 0.072818957 0.08823327 0.002138793
-0.25866953 0.20693952 0.19550472 0.99889874 0.034401555 0.031902771 0.0035288103
0.25889921 0.20791689 0.19650453 -0.99887305 0.028929451 0.037625071 0.0036394636
-0.25926629 0.21847838 0.19579397 0.99888372 -0.024827462 -0.040186696 0.0031035661
0.25820801 0.22640547 0.19593911 -0.9963603 -0.071824074 -0.045905661 0.0029851785
-0.25758594 0.23398063 0.19222492 0.99351043 -0.089357674 -0.070372112 0.0012865264
0.25610328 0.24308383 0.19503818 -0.98831892 -0.12010197 -0.093815289 0.00019639758
-0.25501525 0.25330526 0.19248773 0.98554796 -0.13441361 -0.10309276 6.7365268e-05
-0.2528052 0.26690155 0.19664562 0.97430998 -0.18441969 -0.12926492 0.0019146997
0.2526657 0.26846147 0.19599366 -0.97528064 -0.16906726 -0.14228128 0.0016796861
-0.25183362 0.27540463 0.19518211 0.96621192 -0.21122792 -0.14770678 0.0024868895
0.25198528 0.27277493 0.19710757 -0.96428519 -0.20288107 -0.1702743 0.0027618182
-0.25147939 0.28155077 0.19067885 0.96149009 -0.22494932 -0.15790674 0.0031460694
-0.24863864 0.28694233 0.19655937 0.92364717 -0.31270775 -0.22156185 0.0017139164
0.24668619 0.28957769 0.19926782 -0.92119801 -0.30957568 -0.23570561 0.0024840096
0.25089541 0.28490776 0.19208451 -0.94461513 -0.2738224 -0.18089643 0.0031594506
-0.24526522 0.29534191 0.19622652 0.91509652 -0.32785258 -0.23475748 0.0017173027
0.24762151 0.2921336 0.19299412 -0.92656255 -0.30417413 -0.22126916 0.0023526
-0.24207471 0.30748498 0.19043951 0.89968741 -0.35544321 -0.25342205 0.0007867422
0.23852631 0.30879855 0.19989185 -0.88654989 -0.37035245 -0.27725139 2.7367199e-05
0.24156943 0.30427679 0.19621029 -0.89629453 -0.35747552 -0.26242599 0.00056346389
0.23793367 0.31278265 0.19656429 -0.88643438 -0.37418455 -0.27243343 8.9614929e-05
-0.23393182 0.32464328 0.193698 0.87659329 -0.40408152 -0.26134726 0.00062010559
0.23356013 0.32430169 0.19531266 -0.87574232 -0.40856203 -0.25720134 0.000728368
-0.22814605 0.33624512 0.19667581 0.84590852 -0.45586962 -0.27680627 0.0020576322
0.22895616 0.33470789 0.19623637 -0.84873867 -0.4505983 -0.27677399 0.0021556017
0.2309068 0.33261755 0.19272666 -0.86906725 -0.42816237 -0.24778835 0.0010953755
-0.22269458 0.34586874 0.19721961 0.79811502 -0.52723974 -0.29160005 0.0024401934
0.22329916 0.34540856 0.1962913 -0.80157804 -0.52655661 -0.28321496 0.0022871532
-0.21514677 0.35466489 0.1963762 0.74860346 -0.59187156 -0.29879898 0.0013200358
0.21526249 0.35518563 0.19480626 -0.75153226 -0.5907703 -0.2935808 0.0015084975
-0.20834637 0.36193311 0.19720222 0.7260074 -0.62498575 -0.28689006 0.00046219071
0.20635957 0.36526904 0.19451636 -0.72215271 -0.6287787 -0.28832763 0.00050480251
0.21029562 0.36109394 0.19396161 -0.72523439 -0.62497693 -0.28885794 0.0006252036
-0.19399396 0.37798294 0.19723122 0.68348378 -0.66870159 -0.29272529 0.00079602475
0.19703895 0.37593293 0.19395345 -0.70997596 -0.64912581 -0.27307445 0.00037338815
-0.1914857 0.38258556 0.19289625 0.67981112 -0.67281336 -0.29185453 0.00080714881
0.18745477 0.38544691 0.19687881 -0.65124249 -0.69495499 -0.30482897 0.0018695933
0.19029924 0.38130176 0.199201 -0.67446107 -0.67174709 -0.3063626 0.0012804501
-0.18078634 0.39153913 0.19698891 0.59595042 -0.74375731 -0.30276746 0.0014639656
-0.1735456 0.39743125 0.19428246 0.5824461 -0.75046867 -0.31233522 0.0013053528
0.17628853 0.39538264 0.19486485 -0.5915733 -0.74495763 -0.30834916 0.0018831489
0.18171054 0.39165568 0.19523729 -0.60475343 -0.73475111 -0.30726874 0.0017866096
-0.16400482 0.40342179 0.19499721 0.51999676 -0.7891444 -0.326886 0
-0.15690057 0.40852639 0.1939749 0.52005655 -0.78914797 -0.32678235 7.7299228e-06
0.15934469 0.40739679 0.19281392 -0.52000135 -0.78914404 -0.32687962 0
0.16354007 0.40385371 0.19469364 -0.52207279 -0.78842282 -0.32531437 0
-0.14473985 0.4162581 0.19465365 0.49973783 -0.79928499 -0.3337746 0.00028143285
0.14526567 0.41778249 0.19013709 -0.50883496 -0.79632241 -0.3270438 0.00021392979
0.15046597 0.41076794 0.19879918 -0.51745713 -0.79078758 -0.32694519 7.4102863e-06
-0.13638751 0.42238864 0.19314007 0.45347044 -0.82522601 -0.33669963 0.0013874383
-0.12566248 0.42613518 0.1980751 0.39863458 -0.85246515 -0.3382214 0.001249904
0.11599296 0.42942959 0.19842514 -0.34971982 -0.86614233 -0.3570624 0.0010369276
0.12793715 0.42608175 0.19625086 -0.40945652 -0.84253788 -0.34996471 0.0018411593
-0.11342201 0.4321467 0.19407323 0.33319327 -0.87273717 -0.35680816 0.00042399863
-0.10024657 0.43443769 0.19985634 0.31219634 -0.8776688 -0.36363563 2.639324e-05
-0.097385623 0.43807554 0.19353054 0.31218374 -0.87774694 -0.3634578 1.0925143e-05
0.09462864 0.43893164 0.19383116 -0.3113738 -0.87799305 -0.36355823 5.9891456e-05
0.10775281 0.43219358 0.19882827 -0.31221059 -0.87767929 -0.36359811 1.9700667e-05
-0.08703012 0.44270712 0.1912414 0.30330288 -0.88122815 -0.36255243 8.0262589e-06
-0.079326741 0.44246206 0.19844817 0.28086489 -0.89032954 -0.35836893 0.0004849887
-0.063087702 0.44760615 0.19754964 0.19152392 -0.91427654 -0.35695523 0.0014938083
0.066778235 0.449305 0.19202554 -0.21382391 -0.90335488 -0.37179223 0.0017060535
0.07741636 0.44563344 0.19243212 -0.27280527 -0.89451432 -0.35414892 0.00092043675
0.083074883 0.44269258 0.19467291 -0.3083342 -0.87918383 -0.36327103 2.1692058e-05
-0.046294063 0.45084691 0.19430937 0.1049737 -0.918639 -0.38089761 8.8107554e-05
-0.036853738 0.4532299 0.19113271 0.10389711 -0.91888613 -0.38059634 0.00012445057
-0.01601154 0.45456138 0.19360679 0.078970939 -0.92221916 -0.37851727 0.00043506565
-0.0089471005 0.45491585 0.19467925 0.058191616 -0.92652124 -0.37171513 0.0011973504
0.0035852846 0.45717886 0.19067913 -0.038319077 -0.92709178 -0.37287062 0.0010053497
0.011227682 0.45427835 0.1955958 -0.066056177 -0.92354834 -0.3777501 0.00064355676
0.025646791 0.45414326 0.19198655 -0.10390203 -0.91881895 -0.38075733 0
0.034077205 0.45202595 0.19479713 -0.10389365 -0.91887677 -0.38062021 9.6070125e-06
-0.021465678 -0.45003191 0.20305333 0.092732191 0.91852498 -0.38433403 0.00011760282
-0.013254234 -0.45114753 0.20260113 0.068023264 0.91937792 -0.3874495 0.00036361246
-0.0064800042 -0.45154718 0.20348515 0.05032897 0.92326409 -0.38085476 0.00072619558
0.0056984103 -0.4518272 0.20302255 -0.030185236 0.92248833 -0.38484305 0.0013467183
0.012721854 -0.45115089 0.20273826 -0.051617485 0.92171776 -0.38441136 0.00083025772
-0.078569368 -0.44107917 0.20243701 0.2666173 0.88772643 -0.37530932 0.0011774019
-0.061071239 -0.44630083 0.20125131 0.18072063 0.90793478 -0.37814623 0.0015733982
-0.056142729 -0.4450011 0.20573425 0.14754929 0.91364098 -0.37879989 0.0011403036
-0.049261432 -0.44579712 0.20569061 0.12036049 0.9194445 -0.37434646 0.00052274548
-0.027410975 -0.44895744 0.20402467 0.10389604 0.9188816 -0.38060755 2.3832014e-05
-0.011151409 -0.44845504 0.20967536 0.064289555 0.9196592 -0.38741925 0.00052386004
0.035008844 -0.4477973 0.2047518 -0.10386308 0.91886342 -0.38066044 1.3833534e-05
0.045884438 -0.44662529 0.20461294 -0.11150681 0.91661888 -0.3838962 6.9728078e-05
0.051905081 -0.44696701 0.20214476 -0.12826443 0.91568005 -0.38089144 0.00065387995
-0.10276667 -0.43183917 0.20396563 0.31222489 0.87766391 -0.36362299 0
-0.094790384 -0.43392521 0.20577887 0.31225595 0.87764215 -0.36364883 0.00012151612
-0.083139941 -0.43734771 0.20752065 0.2840037 0.8827818 -0.37421682 0.000601787
0.096636564 -0.43442911 0.202977 -0.31219894 0.87764388 -0.36369354 0
-0.11652657 -0.42588979 0.20651287 0.33705354 0.87068248 -0.35819945 0.00029560132
-0.10547586 -0.42845079 0.2098195 0.31230649 0.8776387 -0.36361402 6.1086452e-05
0.11504817 -0.42600006 0.20751609 -0.33712459 0.8699699 -0.35986048 0.00061065203
0.13015273 -0.42202446 0.20393723 -0.40873334 0.84405369 -0.34714609 0.0016503806
-0.14649913 -0.41140127 0.20358059 0.50024879 0.79946285 -0.33258122 0.00033299389
-0.13667402 -0.41800964 0.20325604 0.46028426 0.82359171 -0.33141363 0.0011641553
0.13688241 -0.41786844 0.20326543 -0.46874559 0.81339777 -0.344473 0.0012489115
0.14448687 -0.41305879 0.20277998 -0.5086726 0.79444242 -0.33183342 0.00023981782
-0.16064897 -0.40070996 0.20688251 0.52025127 0.78646874 -0.33287448 6.6488385e-05
-0.15752834 -0.40295428 0.20642847 0.52006882 0.78678197 -0.33241916 9.2622882e-05
0.15590511 -0.4047392 0.20470145 -0.51985925 0.78652728 -0.33334857 5.5573386e-05
-0.16293912 -0.39839956 0.20881718 0.52007592 0.7859174 -0.33444715 0.0001475735
0.16633201 -0.39733216 0.20599686 -0.53103721 0.77665097 -0.33884028 0.00034855894
0.17477636 -0.39147586 0.20670214 -0.56377548 0.75694752 -0.33043551 0.001379198
-0.1877396 -0.38185003 0.20479308 0.67550015 0.66976297 -0.30841073 0.0013176531
-0.17735392 -0.3899205 0.20635681 0.58475929 0.74822551 -0.31339264 0.0016387247
0.18558621 -0.38420653 0.20363165 -0.64848411 0.69705683 -0.30590859 0.0019085591
0.19079265 -0.38017794 0.20058121 -0.67761576 0.67070544 -0.30164737 0.0014582872
-0.19427751 -0.37303016 0.20842232 0.69372392 0.64013284 -0.33011663 0.0017861576
-0.18908562 -0.3787809 0.20856592 0.67804998 0.65837991 -0.32677838 0.0020239933
0.19475543 -0.37391198 0.2050021 -0.69850713 0.64021659 -0.3197037 0.0013591003
-0.20229509 -0.363675 0.209346 0.72445339 0.60067117 -0.33817363 0.0015293696
0.20117019 -0.36632279 0.20599283 -0.72221029 0.60801554 -0.32974136 0.0012193847
-0.21287398 -0.35391536 0.20412435 0.74409801 0.5824154 -0.32727721 0.0010633498
0.20772067 -0.35729718 0.20867391 -0.71439183 0.59972751 -0.36051524 0.00095382787
0.21523541 -0.35073838 0.20421469 -0.7395398 0.5770039 -0.34662277 0.0015295106
-0.21818009 -0.34483132 0.20715544 0.77409947 0.52951467 -0.34696436 0.0019267834
0.22198233 -0.34258604 0.20362391 -0.78886008 0.52369255 -0.32163018 0.0030338322
-0.22714585 -0.33268127 0.20457323 0.84171981 0.44614422 -0.30407754 0.001509398
0.2236017 -0.33742148 0.20760408 -0.80096024 0.495462 -0.33612517 0.0029737088
-0.22822163 -0.32761922 0.20778558 0.84260362 0.43524948 -0.31713867 0.001474419
0.22845845 -0.32798031 0.20656984 -0.84865963 0.42899343 -0.30942112 0.0023937116
-0.23348346 -0.31970805 0.20154044 0.87042791 0.39984524 -0.28719181 0.00058802357
0.23410268 -0.31529495 0.20534341 -0.88113755 0.38192251 -0.27880442 0.00018872989
-0.23821743 -0.30431503 0.20670676 0.88603354 0.36837679 -0.28150153 3.1916494e-05
0.23751567 -0.30643427 0.20615281 -0.88536084 0.36917859 -0.28256559 0
0.24140505 -0.30123332 0.20069373 -0.8984251 0.35054222 -0.26448533 0.00046671415
-0.2406581 -0.29631907 0.20944822 0.88807935 0.36546668 -0.27883551 0
0.23933193 -0.29968297 0.20923679 -0.89107454 0.35905299 -0.27760962 0.00018091347
0.24147116 -0.29672819 0.206357 -0.8942312 0.35499847 -0.27262935 0.00037064299
-0.24802318 -0.28399676 0.20233452 0.91899484 0.31326571 -0.23940139 0.0024225167
-0.25096685 -0.27659264 0.20221391 0.95058703 0.24471122 -0.19105154 0.0036342146
-0.25201112 -0.26392817 0.20838125 0.96364516 0.20693634 -0.16901265 0.0035741613
0.25193757 -0.26792866 0.20389578 -0.9601779 0.22308092 -0.16820605 0.0026561834
-0.25380641 -0.25225633 0.20582069 0.98366076 0.14210506 -0.11053325 0.00040338983
-0.25516275 -0.24354888 0.20374218 0.9862017 0.1311076 -0.10107929 0
0.25522786 -0.2431424 0.20362741 -0.98654521 0.12979314 -0.099409953 4.717732e-05
-0.2560575 -0.23452747 0.20664209 0.98729104 0.12382851 -0.09961427 2.1299817e-05
0.25582147 -0.23658521 0.2062968 -0.9869504 0.12560757 -0.10075532 4.9034239e-05
-0.25715053 -0.22515155 0.2080411 0.99195659 0.1019564 -0.075013623 0.0009199605
0.25709343 -0.22592215 0.20760199 -0.99055636 0.10556132 -0.087492786 0.0005922562
-0.25828356 -0.21593042 0.20884258 0.99674243 0.065342985 -0.047274958 0.0021698801
0.25876498 -0.2170704 0.20259134 -0.99630183 0.066026017 -0.054983266 0.00213045
-0.25926146 -0.20671804 0.20299888 0.99943006 -1.9220228e-05 0.033757623 0.0039077234
0.25907117 -0.20067111 0.20602578 -0.99980313 -0.0083045913 0.018022245 0.0030621761
-0.25859544 -0.19460794 0.20706484 0.99854416 -0.033401243 0.042353328 0.0044759735
0.25839454 -0.19363943 0.20628205 -0.99828732 -0.034524865 0.047227893 0.0031992062
-0.25758976 -0.18855789 0.2040683 0.99125791 -0.068598926 0.11270261 0.00096496101
0.25689805 -0.18543305 0.20121206 -0.99224538 -0.081888087 0.093506634 0.0013842145
-0.25664443 -0.17768203 0.2052332 0.99022472 -0.081931666 0.11288112 0.00069100776
0.25600731 -0.17460516 0.20275472 -0.98673224 -0.10082889 0.12725204 0
-0.25527585 -0.16426805 0.20513082 0.98639488 -0.099963173 0.13050869 0
0.25507188 -0.1625497 0.2049 -0.98587859 -0.10126256 0.1333764 9.0848189e-05
-0.25416422 -0.15733662 0.2020058 0.98399925 -0.1054696 0.1436028 0.00019539516
2.5668486e-17 -0.15134382 0.20363303 -1 4.2849123e-21 -2.5269097e-21 0
0.25389951 -0.15423571 0.20237456 -0.98270583 -0.1152838 0.14490981 0.00056845171
-0.25322205 -0.14581856 0.2036874 0.9776268 -0.12496614 0.16920218 0.0010232122
2.5668486e-17 -0.1461145 0.20392172 -1 -1.3133037e-21 3.8003044e-21 0
0.25287414 -0.1432306 0.20303059 -0.97759771 -0.12651311 0.16821744 0.0014885236
-0.25242275 -0.13658002 0.20470522 0.97232151 -0.14038846 0.18676722 0.0021364992
0.2526359 -0.13496396 0.20756426 -0.97630584 -0.11453574 0.18359838 0.0016958398
-0.25070775 -0.1241531 0.20246318 0.94689614 -0.1637197 0.27673736 0.0041044271
2.5668486e-17 -0.12608513 0.2042065 -1 7.1590705e-22 -9.1503737e-21 0
0.25080514 -0.12359871 0.20363602 -0.94674408 -0.17353478 0.2712217 0.0040598502
-0.25048909 -0.11198217 0.20857313 0.9523868 -0.1721352 0.25165224 0.0035278681
-0.24762288 -0.11256023 0.20239168 0.93573314 -0.18475527 0.30044788 0.003245054
2.5668486e-17 -0.11499482 0.20423235 -1 6.7698548e-22 1.8298901e-21 0
0.24729641 -0.11302307 0.20152317 -0.92540479 -0.17830743 0.3344135 0.0031850256
0.25087565 -0.11590274 0.20853293 -0.94954294 -0.144876 0.27817118 0.0035854646
-0.24522966 -0.1038952 0.20101938 0.91056192 -0.22340089 0.34780592 0.0020254704
2.5668486e-17 -0.10578609 0.20466304 -1 -3.3098223e-21 2.0621148e-21 0
0.24450502 -0.10160606 0.20046531 -0.90834337 -0.16940382 0.38238028 0.0022189245
-0.24530295 -0.099636883 0.20293514 0.91377234 -0.18626393 0.36100683 0.0023226624
2.5668486e-17 -0.095950216 0.20557725 -1 -9.4256514e-22 -8.1936338e-23 0
0.24604012 -0.095600404 0.20613541 -0.91010857 -0.15844704 0.38287979 0.0018322092
0.24231303 -0.083532915 0.20340714 -0.89481443 -0.16854383 0.41340065 0.00047038309
-0.24280383 -0.07121826 0.20952554 0.90018326 -0.15020359 0.40878958 0.00075864577
2.5668486e-17 -0.076700516 0.20666802 -1 -1.3474403e-22 -3.508701e-21 0
0.24397704 -0.078673832 0.20886956 -0.90146142 -0.15947869 0.40241 0.001240132
-0.24071154 -0.067060649 0.2069101 0.8956297 -0.14622776 0.42007732 0.00056121324
-0.23798513 -0.063603826 0.20268975 0.89198643 -0.14432715 0.42840388 0.00039739674
0.2386024 -0.066173263 0.20290518 -0.88864315 -0.15459274 0.43175742 0.0002452464
2.5668486e-17 -0.058196314 0.20290628 -1 1.3459549e-21 -4.966646e-22 0
0.23810172 -0.055089075 0.20639957 -0.88711882 -0.11576085 0.44678807 0.00052030606
-0.23793451 -0.044136729 0.20751846 0.88772786 -0.088866636 0.45171008 0.00021332965
0.23815705 -0.044639777 0.20788214 -0.88829058 -0.084780291 0.4513891 0.00038726878
-0.23594394 -0.038308844 0.20444021 0.88789177 -0.080720901 0.45291543 0.00020427775
2.5668486e-17 -0.033794563 0.20599872 -1 -0 -0 0
0.23561387 -0.033023525 0.2044984 -0.88575035 -0.064137816 0.45970932 8.4344501e-05
-0.23669654 -0.028497094 0.20718583 0.8864153 -0.060359582 0.4589386 0
2.5668486e-17 -0.023114134 0.20472902 -1 4.1087213e-22 -3.5430181e-21 0
0.23631395 -0.024038156 0.20703381 -0.88440722 -0.059578836 0.46289775 6.2339124e-05
-0.2343508 -0.018905971 0.20391691 0.88635087 -0.050946236 0.46020284 0.00010853609
2.5668486e-17 -0.013915625 0.20750768 -1 3.6067533e-22 3.1736953e-21 0
0.23331423 -0.015799979 0.20232338 -0.87551498 -0.063253477 0.47903281 0.00058652792
-0.23182417 -0.0018681807 0.2012789 0.88902521 -0.0079270136 0.45778966 0.00067935861
2.5668486e-17 -0.003965375 0.20658147 -1 -2.3543043e-22 1.1264933e-20 0
0.23191017 -0.0011098782 0.20154491 -0.87161475 -0.022144428 0.48969099 0.0014815315
-0.23495066 0.0074431868 0.20658489 0.88332772 0.02425376 0.46812806 0.00049762789
2.5668486e-17 0.0027183667 0.20964162 -1 -2.6694618e-23 -1.1685948e-24 0
0.23301493 0.0047502699 0.20319989 -0.8756308 0.0061602518 0.48294184 0.0014283764
-0.23485416 0.016089275 0.20526017 0.88475251 0.053112093 0.46302497 0.00012034214
2.5668486e-17 0.016439404 0.20416567 -1 0 0 0
0.23585203 0.016234685 0.20716879 -0.88246483 0.052183304 0.46747473 0.00028785795
-0.23591428 0.025978928 0.20600614 0.88574696 0.059692737 0.46031418 8.5868778e-06
2.5668486e-17 0.024208251 0.20426175 -1 2.5474424e-22 7.8278447e-24 0
0.2367914 0.024209246 0.20793363 -0.88622284 0.057383705 0.45969132 1.9092742e-05
-0.23614657 0.033771846 0.20542896 0.88568026 0.06274242 0.46003687 1.1232811e-05
2.5668486e-17 0.031938531 0.20944694 -1 1.7148706e-22 -2.7002736e-21 0
0.23700339 0.035063043 0.20691423 -0.88692343 0.066766404 0.45706567 3.0409339e-05
0.23425102 0.042148367 0.20066427 -0.87749106 0.082777619 0.47239533 0.00080434611
-0.23524249 0.052697033 0.20119081 0.87949413 0.12206316 0.45998985 0.00087229558
2.5668486e-17 0.064736627 0.20446593 -1 1.3362832e-22 2.6258416e-21 0
0.23734283 0.065220192 0.20068868 -0.88933527 0.15496223 0.430197 0.00022816427
0.24141175 0.065608419 0.20896327 -0.89701539 0.13857755 0.41971371 0.00061419758
-0.24118717 0.077625573 0.20352001 0.89230931 0.16905232 0.4185755 0.00049361773
2.5668486e-17 0.07463856 0.20325787 -1 3.553833e-22 1.9852244e-21 0
-0.24306317 0.083639137 0.20491831 0.9001801 0.17347695 0.3994765 0.0014205016
2.5668486e-17 0.088067643 0.20965481 -1 -5.8728672e-22 5.4029959e-21 0
0.24139658 0.080346018 0.2028273 -0.89296651 0.17288117 0.41559938 0.00030155451
-0.24667719 0.098843575 0.20611279 0.92380404 0.13992178 0.35638171 0.002690152
2.5668486e-17 0.094791338 0.20733097 -1 -9.8042764e-22 1.8537887e-21 0
0.24557605 0.097856194 0.20423898 -0.91593277 0.16299835 0.36674094 0.0018810488
-0.24864753 0.10895453 0.20600945 0.93456137 0.14456411 0.32510942 0.0033351723
2.5668486e-17 0.10716924 0.20462444 -1 -1.4384131e-21 2.1746172e-21 0
0.24606454 0.10558036 0.20205219 -0.92125249 0.18633215 0.3414298 0.0026428595
2.5668486e-17 0.11346661 0.20507187 -1 3.0633214e-21 -1.7473407e-21 0
0.24793114 0.1136126 0.20259486 -0.93709236 0.16502909 0.30760899 0.0042707422
0.25116247 0.11712585 0.20904408 -0.9537999 0.13515024 0.26832855 0.0039261389
-0.25134498 0.12706901 0.20381671 0.95706666 0.15639819 0.24405549 0.0035857081
2.5668486e-17 0.12468141 0.20316705 -1 -9.593e-22 -7.7325945e-23 0
-0.25244588 0.13468219 0.20633703 0.96959406 0.12640972 0.20954216 0.0021415823
2.5668486e-17 0.1326012 0.20479846 -1 2.3696277e-21 6.4504235e-22 0
0.2523936 0.1381034 0.20331463 -0.96532243 0.14987282 0.21375389 0.0026600959
-0.25297511 0.14185035 0.20485677 0.97170925 0.1374473 0.19206603 0.0020493898
0.25363338 0.14315069 0.20885891 -0.98207706 0.10846817 0.15414082 0.00068128569
-0.2541455 0.15550327 0.20327052 0.98205531 0.11161619 0.15201734 0.00032533487
2.5668486e-17 0.15164806 0.20422354 -1 0 0 0
0.25456661 0.15540367 0.20654538 -0.98636276 0.099969998 0.13074614 3.047566e-05
-0.25545609 0.16690564 0.20447607 0.98588908 0.10145418 0.13315305 0
0.25537276 0.16595738 0.20457059 -0.98637158 0.10030995 0.13041927 3.8331869e-05
-0.25625795 0.17448628 0.20474973 0.98760903 0.097344644 0.12309499 6.7074616e-05
0.25644261 0.17680968 0.20436978 -0.99009913 0.089028627 0.10852491 0.00081249507
-0.25680095 0.18143809 0.20354003 0.99079633 0.094184794 0.09722016 0.0008305615
-0.25832942 0.19504446 0.20470935 0.99741071 0.060600672 0.038721334 0.0022249711
0.2583032 0.19305669 0.20603549 -0.99657029 0.058373809 0.05865258 0.0030580072
0.25967363 0.2085399 0.20471367 -0.99880952 -0.035613127 -0.033334114 0.0026215112
-0.25886089 0.21621847 0.20275222 0.99778259 -0.050528649 -0.043320939 0.0030479855
0.25829718 0.21639922 0.20809701 -0.99628288 -0.063255049 -0.058474768 0.0024352993
-0.25660968 0.2292248 0.20808677 0.99004918 -0.1106414 -0.086954452 0.00056879612
0.25759715 0.22401467 0.20510183 -0.99429697 -0.084803335 -0.064667717 0.0021675541
-0.25615653 0.23251431 0.20828544 0.98952872 -0.11325751 -0.089474 0.00046383019
0.25532913 0.23915988 0.20781505 -0.98659968 -0.12905987 -0.099822573 0
-0.25511992 0.24574432 0.20130518 0.98595083 -0.13209227 -0.10223802 9.0936926e-05
-0.2531524 0.25568098 0.20783165 0.97835243 -0.16369066 -0.12661698 0.0014114449
0.25381687 0.25345179 0.20415954 -0.98069489 -0.15889284 -0.11397628 0.00073591364
-0.25233006 0.26498213 0.20385054 0.97282922 -0.1857065 -0.13826168 0.0020599351
-0.25118929 0.2706584 0.20774558 0.96784979 -0.20368676 -0.14757486 0.0024728633
-0.24899739 0.27953684 0.2050817 0.93631059 -0.28183645 -0.20950101 0.0036475444
0.24857655 0.27689058 0.20985445 -0.92943436 -0.2888011 -0.22966413 0.0028960416
0.25150377 0.2711184 0.20403297 -0.96187365 -0.21391726 -0.17040659 0.002788261
-0.24651581 0.28576937 0.20476693 0.9175964 -0.32054892 -0.23508568 0.0017856148
0.24680614 0.28120849 0.20979738 -0.92009437 -0.30802533 -0.24196452 0.0020342229
-0.24190173 0.29992989 0.2008298 0.89569503 -0.35355395 -0.26968512 0.00032516048
0.24219365 0.29661024 0.20423755 -0.89563143 -0.35335934 -0.27015075 0.00031876579
-0.23835868 0.30631483 0.20365614 0.88633567 -0.369627 -0.27889964 4.9190843e-05
0.23893219 0.30696467 0.20100483 -0.88702303 -0.36934844 -0.27707741 1.3122078e-05
-0.23418772 0.31647018 0.20354432 0.87796068 -0.38806209 -0.28034437 0.00071374909
-0.23074451 0.32004121 0.20972368 0.85864621 -0.41551372 -0.30012497 0.0014065567
-0.22893962 0.32723549 0.20602664 0.85545141 -0.42216739 -0.29996264 0.0017789688
0.2292338 0.32785347 0.20429564 -0.85272366 -0.42394453 -0.30517775 0.0020009608
0.23163942 0.32282549 0.20327961 -0.87515849 -0.39573663 -0.27837059 0.0005123209
-0.22360589 0.33866572 0.2053411 0.81146634 -0.49357179 -0.31290463 0.0024974337
0.2251817 0.33373439 0.20824838 -0.81904268 -0.46870884 -0.33087921 0.0027720698
-0.21904832 0.34608737 0.20404392 0.78607923 -0.53291738 -0.31317478 0.0024891424
0.21780622 0.34743118 0.20440225 -0.76818705 -0.54553485 -0.33508277 0.0019844645
0.2218937 0.34363386 0.20240884 -0.78778487 -0.52905065 -0.31543687 0.0023458784
-0.20986514 0.35755944 0.20365779 0.73161411 -0.60268432 -0.31861013 0.00098835456
0.20693 0.35951734 0.20665504 -0.72388202 -0.60602421 -0.32974139 0.001098744
0.2122021 0.35379553 0.20562607 -0.73861146 -0.58308452 -0.33832744 0.0012004205
-0.20466788 0.36323589 0.20399544 0.71747023 -0.62244391 -0.3127301 0.00065737939
0.19936706 0.3674244 0.20820498 -0.71263897 -0.62572843 -0.31719029 0.0008377654
0.20224249 0.3649143 0.20649616 -0.71961606 -0.61546844 -0.32148275 0.0010205383
-0.19351387 0.37579763 0.20380411 0.69083434 -0.65527207 -0.30555913 0.0009156958
0.1936211 0.37611219 0.20275488 -0.68276334 -0.65994096 -0.31354767 0.001338319
-0.1902741 0.3807328 0.20064245 0.67687732 -0.67617702 -0.29089817 0.0007965375
-0.17937428 0.38777903 0.20831281 0.58807039 -0.73285836 -0.3421869 0.0014970369
0.18523097 0.38484284 0.20318566 -0.64722365 -0.69123054 -0.32140628 0.0015566682
-0.17441867 0.39316666 0.20318912 0.57699609 -0.74995375 -0.32348862 0.0012000279
-0.165425 0.39783359 0.20622912 0.52084571 -0.78235501 -0.34152648 0.0003013431
0.16408099 0.39757764 0.20898503 -0.52987707 -0.7775206 -0.33866209 0.00045602731
0.17143101 0.39542043 0.20250079 -0.55302513 -0.76511192 -0.32979834 0.00076676038
-0.15651654 0.40419117 0.20505176 0.52000058 -0.7890802 -0.32703489 0
0.14971074 0.40979028 0.20236094 -0.51764053 -0.79086345 -0.326471 0
-0.14234769 0.41466692 0.2023005 0.49432915 -0.80162692 -0.33620372 0.00048596004
-0.13680665 0.41650891 0.20666812 0.46298358 -0.82018077 -0.33607998 0.0016224392
0.13641225 0.41631699 0.20775896 -0.46380273 -0.81668538 -0.34338343 0.0013194119
-0.13512202 0.42037401 0.20001678 0.44571513 -0.82848442 -0.33904523 0.0015500836
-0.12544262 0.42440063 0.20245147 0.39735222 -0.84990621 -0.34607899 0.001395818
-0.11442014 0.4265424 0.20674616 0.34209311 -0.86803937 -0.35983333 0.00060553901
-0.10917211 0.42818326 0.20729128 0.31965992 -0.87546849 -0.36245352 0.00027493972
0.10727696 0.42790991 0.20957857 -0.31388488 -0.87695819 -0.36389637 9.1818983e-05
0.11489089 0.42613706 0.20732048 -0.32580638 -0.87258261 -0.36393651 0.00030723776
-0.11175732 0.4302147 0.20016706 0.33760363 -0.87066925 -0.35771343 0.00046395476
-0.085924603 0.43803552 0.20346898 0.30094209 -0.88222313 -0.36209962 0.00025313487
-0.076683871 0.43882594 0.20949596 0.2845135 -0.88551074 -0.36731851 0.00045892279
0.076102376 0.43976307 0.2077328 -0.26703399 -0.88199729 -0.38829568 0.00084167952
0.086788043 0.43792963 0.20298319 -0.31029403 -0.87833166 -0.36366346 0
0.096271843 0.43388146 0.20461231 -0.31221959 -0.87767977 -0.36358938 4.3971511e-07
0.10389388 0.43089271 0.20528272 -0.31224343 -0.8776558 -0.36362678 4.897522e-05
-0.080363333 0.44011849 0.20321576 0.28950584 -0.88613325 -0.36187607 0.00036714892
-0.075534031 0.44124663 0.20463923 0.28866613 -0.88716716 -0.36000878 0.00029383699
-0.066679083 0.44308576 0.20711029 0.22058891 -0.90437698 -0.36529818 0.001281103
-0.059744451 0.44450021 0.2059605 0.16477507 -0.91338158 -0.37226775 0.0011304248
-0.045467705 0.44636124 0.20536411 0.10569317 -0.91858822 -0.38082093 1.0136426e-06
-0.034455296 0.44658521 0.20782913 0.10388903 -0.91889 -0.38058931 2.2903248e-05
-0.027141411 0.44746593 0.20769909 0.10389256 -0.91886306 -0.38065332 0.00010581964
-0.0035272513 0.44945729 0.20933664 0.015137793 -0.91935909 -0.39312822 0.001550559
0.021801872 0.44998705 0.20306982 -0.096071146 -0.91899151 -0.38239363 2.5381203e-05
0.033147927 0.44705757 0.20704557 -0.10388861 -0.91888845 -0.38059333 7.0474474e-05
0.043921083 0.44521895 0.20854402 -0.10749866 -0.91903758 -0.37922812 6.7107452e-05
0.069327503 0.44529706 0.20019031 -0.22434768 -0.89999497 -0.37373427 0.0015161206
0.080384031 0.44014573 0.20313227 -0.30060661 -0.87953538 -0.36885396 0.00011755445
-0.024452407 0.45061877 0.20082134 0.10388824 -0.91888905 -0.38059181 4.2414089e-05
-0.010784517 0.45222312 0.20067854 0.072063029 -0.92034465 -0.38441196 0.00066881953
-0.0024436705 0.45035493 0.20746522 0.006212973 -0.92038518 -0.39096344 0.0017187071
0.010455452 0.45234078 0.20048425 -0.062639065 -0.92174333 -0.38270819 0.00071386772
0.026504902 0.45014092 0.20141476 -0.10091256 -0.91902304 -0.38106871 0.00017341488
-0.062601529 -0.44219923 0.21073583 0.19279355 0.9031564 -0.38358727 0.0016519184
-0.050567731 -0.44066176 0.21773195 0.11486236 0.91854012 -0.3782734 0.0004317945
-0.042562038 -0.44413173 0.21153976 0.10385867 0.91885269 -0.38068753 1.3050042e-05
-0.037192874 -0.44210535 0.21789721 0.10390747 0.91887605 -0.38061798 0.0001341287
-0.022891244 -0.44563222 0.21328606 0.097392485 0.91868871 -0.38278678 0.00016107492
-0.014374767 -0.44728014 0.21163204 0.07390295 0.91991848 -0.38508222 0.00045755724
-0.0025094482 -0.44909614 0.21048623 0.019373499 0.91585213 -0.40104806 0.0012613165
0.0050658598 -0.44777578 0.21297607 -0.017211657 0.92403513 -0.38192004 0.0012295868
0.026304478 -0.44462338 0.21478996 -0.10138383 0.91948229 -0.37983367 5.5418706e-05
0.044282388 -0.44066483 0.21943997 -0.11099474 0.91806537 -0.38057342 0.00011131301
0.056040183 -0.44150504 0.21420246 -0.14322907 0.91487116 -0.37748674 0.00091766031
-0.084439501 -0.43484953 0.21243586 0.28879434 0.88319087 -0.36955595 0.00042542329
-0.076553047 -0.43599641 0.21643931 0.26848412 0.88882792 -0.37135053 0.0009792028
-0.063757218 -0.43960187 0.21669091 0.17585555 0.91107732 -0.37284449 0.0015365366
-0.056790687 -0.43918571 0.21959698 0.15253182 0.91514468 -0.37315452 0.0013529513
0.054016177 -0.43991923 0.21858338 -0.13945521 0.91473442 -0.37922698 0.00073631445
0.072011366 -0.43802807 0.21543449 -0.23838228 0.89935672 -0.36651254 0.0013015724
0.082490876 -0.43620858 0.21082813 -0.28316125 0.88534212 -0.36876702 0.00053980167
0.09642449 -0.43015352 0.21348126 -0.31218374 0.87767315 -0.36363602 0
-0.12054312 -0.42200309 0.21244697 0.371003 0.86096299 -0.34799367 0.0012050483
-0.11944032 -0.42148441 0.21464618 0.35378215 0.86300707 -0.36063418 0.00099729002
-0.10288016 -0.42797491 0.21319728 0.31228012 0.87766474 -0.36357349 8.4685409e-05
-0.097173885 -0.42836374 0.2171587 0.31170487 0.87656826 -0.36669895 6.8278387e-05
0.10364597 -0.42630967 0.21655993 -0.31233045 0.8756786 -0.36828899 0
0.11440148 -0.42395973 0.21299715 -0.33441055 0.87267333 -0.35582408 0.00059893646
0.12242401 -0.42182508 0.21126156 -0.37198862 0.85807091 -0.3540321 0.0011723676
-0.13341874 -0.41610003 0.21304454 0.44879827 0.82874119 -0.33431724 0.0013428644
-0.12598546 -0.41814533 0.21708699 0.37933773 0.85687137 -0.34910494 0.0017449072
0.12877968 -0.41902924 0.21255358 -0.41738376 0.8361758 -0.35581025 0.0017317994
0.13346967 -0.41575053 0.21380734 -0.45386949 0.82047057 -0.34760675 0.0015697149
-0.15372902 -0.40195024 0.2148962 0.52260405 0.77792889 -0.3488718 0.00039768775
-0.14290431 -0.40859061 0.21608454 0.49614501 0.79787791 -0.34239015 0.00098914455
0.14348143 -0.40699762 0.21901238 -0.49440035 0.78891343 -0.36494377 0.00082543137
0.15039362 -0.40338039 0.21674937 -0.5139932 0.78179193 -0.35300478 0.00056239817
-0.17159213 -0.39185202 0.21085942 0.55869907 0.7525664 -0.34856749 0.0015818061
-0.15754417 -0.39840442 0.21738769 0.51591349 0.76961255 -0.37620449 0.0012983616
0.16750634 -0.39344868 0.21350439 -0.53649604 0.76715279 -0.35163704 0.0010305354
-0.17577255 -0.38773629 0.2141456 0.57910937 0.7300579 -0.36283293 0.0021880248
0.17871465 -0.3861804 0.21322159 -0.58920479 0.73127216 -0.34362596 0.0019408768
0.184405 -0.38116717 0.21545097 -0.63423628 0.68392384 -0.36054486 0.0028448969
-0.19008031 -0.37386096 0.21704786 0.68145043 0.63283527 -0.36762038 0.0024380498
-0.18678336 -0.37853074 0.21538998 0.65140826 0.66770715 -0.36032552 0.0027919426
0.18637934 -0.37887537 0.21564952 -0.64513654 0.67012399 -0.36705956 0.0028710202
-0.20338067 -0.36159486 0.21044415 0.72558248 0.59163553 -0.3514221 0.0013830393
-0.19449735 -0.36694822 0.21855488 0.69746971 0.60345125 -0.38650039 0.0016594444
0.20088179 -0.3633225 0.21243672 -0.71774668 0.59370846 -0.36379951 0.00095152017
-0.20697777 -0.35455346 0.21351138 0.72387284 0.57449633 -0.38204992 0.00099630351
0.20498243 -0.35658744 0.21424946 -0.7183274 0.58191484 -0.38128835 0.00079622667
-0.21504143 -0.34312159 0.21471438 0.73730749 0.54284799 -0.40211144 0.00049741619
0.20994934 -0.34656781 0.21887153 -0.72914481 0.55746436 -0.39696524 0.00066319457
0.21337692 -0.34359005 0.21693075 -0.73198617 0.55330539 -0.39755437 0.00056148152
-0.22207123 -0.33377361 0.21495751 0.78034264 0.50945371 -0.36266005 0.002708412
-0.21962607 -0.33744964 0.21431965 0.77884954 0.51063484 -0.36420536 0.0025893464
0.22160722 -0.33727786 0.21117872 -0.7760632 0.50856197 -0.37294865 0.0023121121
-0.22621547 -0.32542661 0.21618365 0.83973736 0.43841529 -0.32036427 0.001857653
0.22613417 -0.32802895 0.21381924 -0.82339782 0.44256708 -0.35517672 0.0032709239
-0.23197186 -0.3116585 0.21678677 0.86578274 0.39823624 -0.30303147 0.00095255312
0.23063269 -0.31586826 0.21551377 -0.86663598 0.39683175 -0.30243456 0.00099923729
-0.23522493 -0.30595437 0.21398552 0.87768036 0.37757105 -0.29515636 0.0003875801
0.23600154 -0.30430147 0.21369618 -0.88544965 0.36890173 -0.2826488 2.077409e-05
-0.24230953 -0.29037699 0.21199638 0.89648998 0.35043573 -0.27110979 0.00061318051
-0.23944306 -0.29450077 0.21564072 0.88683838 0.36652488 -0.28138465 1.1292183e-05
0.23706877 -0.2983025 0.21815641 -0.8857671 0.36804044 -0.28277728 0
0.24096891 -0.2948305 0.21041027 -0.89659506 0.34994766 -0.27139249 0.00045149555
0.24305768 -0.28305447 0.21918534 -0.9005245 0.34498397 -0.26465392 0.00068706484
-0.24774289 -0.27645898 0.21303979 0.92831248 0.2944279 -0.22704221 0.0029127162
0.24641541 -0.27834246 0.21476182 -0.91460264 0.3263776 -0.23870447 0.0014369763
-0.2511948 -0.26568937 0.21416673 0.94630331 0.24747226 -0.20800859 0.0039802082
0.25131491 -0.26370931 0.21555834 -0.95085937 0.25643268 -0.17351842 0.0043287859
-0.25342235 -0.25161365 0.21046013 0.98173946 0.14633159 -0.12155145 0.00072371768
0.2524896 -0.25587565 0.21413915 -0.97283363 0.19034496 -0.13177077 0.0024083201
0.2541407 -0.24304929 0.21451011 -0.9819532 0.1491057 -0.11634149 0.0008044563
-0.25516081 -0.2342559 0.21587212 0.9861809 0.12808368 -0.10507978 5.1306026e-05
0.25508958 -0.23374093 0.21724859 -0.98710328 0.12127166 -0.10450047 6.5378634e-05
-0.25640073 -0.22346111 0.21766622 0.9876104 0.1154994 -0.1062336 7.0977061e-05
0.25650319 -0.22533479 0.21421015 -0.98854315 0.11128755 -0.10196801 0.0001950234
-0.2572327 -0.21465799 0.21945004 0.99128014 0.089887679 -0.096352391 0.00098586013
0.25740758 -0.21781136 0.21506256 -0.99359286 0.081760876 -0.078028806 0.0013567107
-0.25909325 -0.20281947 0.21440184 0.9984532 0.01432093 -0.053722061 0.0028665871
0.25880104 -0.20476116 0.21513157 -0.99808091 0.047874827 -0.039276037 0.0028567435
-0.2596699 -0.19767699 0.21396771 0.99976063 0.010642932 -0.019118162 0.004112808
0.2592622 -0.19504105 0.21179709 -0.99957567 -0.015498413 0.024662932 0.0033512115
-0.25937742 -0.18986788 0.21664184 0.99981421 -0.010570569 0.016119985 0.0041145389
0.25805473 -0.18296154 0.21189447 -0.99676275 -0.048546776 0.0640876 0.0024364432
-0.25769991 -0.17489274 0.21539058 0.99328864 -0.063760281 0.096500337 0.0021693422
0.25777435 -0.17465191 0.21614069 -0.9957155 -0.055370595 0.074059032 0.0022583595
-0.25644651 -0.16166332 0.21602133 0.98665035 -0.099335909 0.12904871 0
0.25696397 -0.16798776 0.21509901 -0.99058658 -0.087739855 0.10507116 0.00087903644
-0.25503859 -0.15167667 0.21299011 0.98597419 -0.10117929 0.13273175 4.5016815e-05
0.2549887 -0.1525941 0.21190736 -0.98649871 -0.099662341 0.12995291 5.7956229e-05
-0.25427359 -0.14352211 0.21343674 0.98351622 -0.11121355 0.14257421 0.00042517533
0.25393641 -0.14214173 0.21193489 -0.98111492 -0.11084179 0.15851699 0.00096265058
-0.25390339 -0.13479951 0.21731782 0.98256958 -0.10452975 0.1537223 0.00061719981
2.5668486e-17 -0.13856633 0.21319458 -1 1.58313e-21 -6.8870152e-22 0
0.25376207 -0.13159671 0.21870197 -0.98238242 -0.10106051 0.15719914 0.0009575673
-0.25325891 -0.12860079 0.21717905 0.97918105 -0.1124103 0.16902177 0.0012706753
2.5668486e-17 -0.1247257 0.2143746 -1 3.2609225e-21 -9.7550953e-21 0
0.2529881 -0.12555583 0.21737136 -0.98231596 -0.093038052 0.16247839 0.00094606628
2.5668486e-17 -0.11424822 0.21354505 -1 -0 -0 0
0.25198209 -0.11781541 0.21410453 -0.96605897 -0.12387406 0.22668321 0.0031369459
-0.25085905 -0.10595056 0.21332756 0.95045096 -0.15899619 0.26713881 0.0034149401
2.5668486e-17 -0.10421185 0.21326584 -1 -8.8937718e-23 2.2784858e-21 0
0.24935439 -0.1010664 0.21074224 -0.93654025 -0.14262523 0.32023492 0.0033415323
0.25128603 -0.10699587 0.21404593 -0.95455903 -0.1293177 0.2685031 0.0037627057
2.5668486e-17 -0.094890244 0.21560767 -1 -7.6872776e-22 -5.562937e-21 0
0.2476248 -0.093697868 0.21020871 -0.92793709 -0.14417504 0.3437241 0.0032814774
0.25119531 -0.09687826 0.21764497 -0.95134968 -0.12464561 0.28177512 0.0031861991
2.5668486e-17 -0.087610066 0.21392214 -1 -7.7978126e-22 1.8046199e-21 0
0.24803314 -0.082990304 0.21549045 -0.92966592 -0.1409954 0.34035525 0.0031477306
-0.24658233 -0.074296772 0.21608371 0.92129499 -0.11825763 0.37044668 0.0016873211
2.5668486e-17 -0.071320951 0.2129419 -1 -0 -0 0
0.24723342 -0.076707333 0.21643502 -0.92978024 -0.14486153 0.33841348 0.0032147425
-0.24382108 -0.064873643 0.21426244 0.90573967 -0.12031431 0.40639904 0.00083685754
2.5668486e-17 -0.065812416 0.21319228 -1 -9.9773027e-22 1.5588901e-21 0
0.24547295 -0.066035457 0.21720575 -0.91894597 -0.11033642 0.37863478 0.003179885
-0.2432456 -0.055881437 0.21623237 0.90269053 -0.086100228 0.42158806 0.00092345168
2.5668486e-17 -0.055389203 0.21771681 -1 -8.8246378e-22 3.2739833e-21 0
0.24321251 -0.056578834 0.21607667 -0.89594245 -0.11572915 0.42882845 0.001218677
-0.24187022 -0.043669309 0.2151832 0.89456946 -0.085656792 0.43864387 0.00051350897
2.5668486e-17 -0.044660583 0.21023838 -1 -9.7174608e-22 5.9587454e-23 0
0.23952514 -0.043118779 0.21072532 -0.88891679 -0.080597915 0.45092225 0.00026298393
0.24218518 -0.046170644 0.21546231 -0.89450115 -0.076810859 0.44041774 0.00091743714
-0.24110004 -0.03428283 0.2149311 0.88854945 -0.058176871 0.45507732 7.6706805e-05
0.24218953 -0.030404519 0.2175464 -0.89217317 -0.060928397 0.44756529 0.00041268294
0.24308476 -0.028754734 0.21949306 -0.89325035 -0.060999487 0.44540182 0.00046881329
-0.24026895 -0.018386224 0.21541835 0.89239562 -0.055649079 0.4478094 0.00029751621
-0.23757371 -0.013513742 0.21085301 0.88562322 -0.037913471 0.46285424 0.00027764004
2.5668486e-17 -0.014985147 0.21918984 -1 3.2846994e-22 1.9919787e-21 0
0.23896137 -0.018398436 0.2128907 -0.88618737 -0.055201355 0.46002686 5.6245462e-05
-0.24157616 -0.0046396116 0.21975347 0.89697599 0.0079607964 0.44200772 0.00097425323
-0.23742129 -0.0046873214 0.21172057 0.88766474 -0.015331031 0.460235 0.00051459868
2.5668486e-17 -0.0083527202 0.21392484 -1 1.2453626e-22 8.0278083e-24 0
0.23920295 -0.0094288113 0.21453825 -0.88758659 -0.031213932 0.45958224 0.00034163779
0.24008906 -0.0042073471 0.21693754 -0.89174879 -0.020054679 0.45208633 0.00085804355
-0.24074118 0.0044160713 0.21816984 0.8929354 0.022528889 0.44962078 0.00076994987
-0.23845036 0.0043064817 0.21375875 0.88712716 0.019457446 0.46111488 0.00044319977
0.23790455 0.00046016942 0.2132107 -0.88860917 -0.0079185842 0.45859677 0.00045371489
-0.2395193 0.014493945 0.21448256 0.88702315 0.038082462 0.46015182 0.00024427488
0.2411164 0.014372495 0.21758394 -0.89835632 0.041231595 0.43732801 0.0010616218
-0.24237776 0.022030815 0.21901247 0.893758 0.040159278 0.44674805 0.00047246768
-0.23884517 0.028691847 0.21131107 0.88662601 0.060498778 0.45851317 8.053662e-06
2.5668486e-17 0.035002906 0.2191375 -1 6.6904578e-22 -2.2705595e-21 0
0.24284621 0.036665298 0.21799076 -0.90226388 0.059888832 0.42700484 0.0012538757
2.5668486e-17 0.046670277 0.21564661 -1 2.0165009e-22 -2.2555901e-21 0
0.24192987 0.044430707 0.21519816 -0.89677829 0.0830127 0.43462351 0.00069850881
-0.24391501 0.05258853 0.2179592 0.90988737 0.10519616 0.40129653 0.0022192269
2.5668486e-17 0.056227308 0.21317115 -1 5.7313236e-22 -2.1145525e-21 0
0.24324353 0.055591844 0.216185 -0.89854968 0.098952048 0.427571 0.00089606113
2.5668486e-17 0.065591812 0.21451733 -1 -1.471712e-21 -1.898884e-21 0
0.24496287 0.062638476 0.21755536 -0.91406304 0.10367478 0.3920972 0.0027932257
-0.24937883 0.079351768 0.2197874 0.94122255 0.11808021 0.3164762 0.0041262973
2.5668486e-17 0.07482446 0.21496804 -1 -1.0340341e-21 -2.1394005e-21 0
0.24635431 0.073218472 0.21605767 -0.91724151 0.11947905 0.37999031 0.0021445171
