ply
format ascii 1.0
comment PCL generated
element vertex 1370
property float x
property float y
property float z
element camera 0
property float view_px
property float view_py
property float view_pz
property float x_axisx
property float x_axisy
property float x_axisz
property float y_axisx
property float y_axisy
property float y_axisz
property float z_axisx
property float z_axisy
property float z_axisz
property float focal
property float scalex
property float scaley
property float centerx
property float centery
property int viewportx
property int viewporty
property float k1
property float k2
end_header
-0.31001586 -0.035649937 -0.32303041
0.38128883 -0.045829147 -0.34075069
0.41800845 -0.033682283 -0.31259874
0.46246362 -0.024139214 -0.28411731
-0.57503587 0.036977686 -0.29662549
-0.53592116 0.047280416 -0.29518041
-0.35429484 0.043047182 -0.30453354
-0.32063314 0.03389506 -0.33454216
0.42505455 0.03647279 -0.32135314
0.46990174 0.047848582 -0.28642988
-0.56328762 0.094385363 -0.28960505
-0.53004712 0.11915597 -0.28623968
-0.36330643 0.1157564 -0.31254494
-0.30912575 0.081103109 -0.34758598
0.43965217 0.11072328 -0.32332703
0.47236353 0.11208975 -0.29734293
-0.52913207 0.16219753 -0.28538877
-0.37679687 0.18628702 -0.31513339
0.43935055 0.17438975 -0.33526415
0.47661853 0.18392634 -0.30576923
-0.40682447 0.25461116 -0.29106012
-0.38064516 0.25248373 -0.32110497
0.43923089 0.25640702 -0.33201739
0.47568613 0.2500625 -0.30313993
-0.41176885 0.32158098 -0.29084054
-0.38707092 0.32865745 -0.32392892
0.44303477 0.32126567 -0.33209732
0.47794348 0.32511589 -0.31215429
-0.41872212 0.39996955 -0.29204506
-0.39106175 0.39854661 -0.32432488
0.44530115 0.40208343 -0.32700351
0.47831309 0.39262548 -0.31270817
-0.42193222 0.47665265 -0.29255664
-0.38882247 0.46986571 -0.32835153
0.44641557 0.46485808 -0.3300083
0.48232973 0.47198495 -0.30813679
-0.41790122 0.54948127 -0.29942501
-0.38856605 0.54383093 -0.32792008
0.44665274 0.53598011 -0.3330704
0.48185039 0.54279077 -0.30652151
-0.41673192 0.61687779 -0.29899409
-0.38861096 0.62009287 -0.32954386
0.42805195 0.61453182 -0.33479837
0.47575462 0.60903031 -0.30993164
-0.4220292 0.68502617 -0.29548272
-0.39164883 0.68646121 -0.32525402
0.44332731 0.68793267 -0.33197665
0.47532159 0.67938739 -0.31264886
-0.41455001 0.75059122 -0.30031663
-0.38154677 0.75899112 -0.3194347
0.43872386 0.75133437 -0.32010296
0.47220331 0.74401045 -0.2974298
-0.35476822 0.82370132 -0.30134332
-0.30584913 0.83927542 -0.3245227
0.37585625 0.84552497 -0.29779834
0.40909061 0.84438181 -0.29574355
-0.0064748079 -0.86721134 -0.21410546
0.068408817 -0.86503702 -0.22001472
0.11752528 -0.86237454 -0.21506095
-0.12842005 -0.79267859 -0.21853575
-0.077134147 -0.81504416 -0.22677468
-0.0082395263 -0.81918442 -0.24498719
0.062070578 -0.81983155 -0.25520781
0.13642949 -0.82044625 -0.24589959
0.20048621 -0.81065655 -0.22997653
0.25261953 -0.78926831 -0.21390188
-0.13651168 -0.74748874 -0.21915779
-0.08188618 -0.74929446 -0.25243148
-0.019360507 -0.73640722 -0.2598407
0.065655075 -0.77122778 -0.26931036
0.13231818 -0.75547957 -0.26613042
0.20848227 -0.74871665 -0.25415835
0.26209661 -0.74514699 -0.22345363
-0.4217532 -0.65213591 -0.23874369
-0.36443546 -0.67206007 -0.2350421
-0.29778343 -0.66572827 -0.2197157
-0.23069647 -0.66265661 -0.21130088
-0.13653494 -0.67177975 -0.22305728
-0.081506684 -0.67790401 -0.25154829
-0.013475932 -0.67714095 -0.25611436
0.065208025 -0.69173026 -0.26260665
0.13352174 -0.67354798 -0.25725561
0.19875681 -0.67122132 -0.24199754
0.26048201 -0.70877379 -0.2132737
-0.48760614 -0.58494669 -0.23847629
-0.44286731 -0.60613418 -0.2473202
-0.37950549 -0.61661178 -0.23878929
-0.32554659 -0.63485074 -0.20979586
-0.07481955 -0.60433543 -0.23223352
-0.012284979 -0.60083133 -0.24849674
0.06436158 -0.60048115 -0.24840391
0.14034927 -0.60214627 -0.24090588
0.19797496 -0.6173209 -0.22693907
-0.51271564 -0.53157413 -0.24152508
-0.43345687 -0.54163492 -0.24188334
-0.13521041 -0.51979452 -0.22688875
-0.084075481 -0.53610927 -0.24832052
-0.0099878609 -0.54326111 -0.26443651
0.06648019 -0.55403912 -0.26284203
0.14264484 -0.54243141 -0.25918362
0.20453368 -0.52958393 -0.24043137
0.25187734 -0.52467012 -0.2192429
-0.56051415 -0.45230144 -0.24072215
-0.51379788 -0.45981142 -0.24316508
-0.46577004 -0.47233701 -0.24241194
-0.19902606 -0.43772402 -0.22084053
-0.15702704 -0.46169004 -0.2445108
-0.10557885 -0.46888465 -0.26792261
0.22328103 -0.46877721 -0.26251858
0.27528238 -0.45980567 -0.23425272
0.32162911 -0.43535647 -0.21510984
-0.58749568 -0.38576603 -0.23966195
-0.51470274 -0.38473588 -0.24818498
-0.2207859 -0.38767466 -0.23275365
-0.18031539 -0.40734062 -0.26051131
0.29314652 -0.39479032 -0.2569848
0.33522674 -0.38134265 -0.23151776
-0.62725556 -0.29849219 -0.21858443
-0.59612429 -0.32127127 -0.24816352
-0.52689201 -0.32051104 -0.25166512
-0.27635896 -0.30685854 -0.23022065
-0.23838453 -0.32275811 -0.25284514
0.35636798 -0.31386459 -0.24440953
0.38797256 -0.30251542 -0.22434266
-0.62898308 -0.2435267 -0.23100138
-0.58487344 -0.2422027 -0.23733763
-0.53862727 -0.2695578 -0.25379604
-0.33389291 -0.22144669 -0.21992736
-0.29566965 -0.24095476 -0.23876564
-0.25679451 -0.26816002 -0.25924471
0.37122554 -0.25082317 -0.26254535
0.40485108 -0.2427935 -0.23177512
-0.63186598 -0.17951252 -0.23046693
-0.58564305 -0.16917893 -0.24229178
-0.3433989 -0.15996733 -0.22835237
-0.31109321 -0.1801638 -0.25378361
0.41975513 -0.17791927 -0.24171078
0.45679021 -0.14121377 -0.22964002
-0.62885517 -0.105084 -0.23056152
-0.58855844 -0.10510853 -0.24089724
-0.35731286 -0.10460404 -0.23487362
-0.32306626 -0.1206619 -0.26559737
0.4344984 -0.11203277 -0.24962276
0.46735698 -0.09378098 -0.22695959
-0.62588501 -0.040976644 -0.22399068
-0.59416538 -0.030881368 -0.24471349
-0.54428458 -0.0040356927 -0.25711304
-0.3739517 -0.036027834 -0.24209532
0.44585297 -0.043489359 -0.25581771
0.47365576 -0.02840551 -0.23832545
-0.6249705 0.014911927 -0.21432136
-0.59151208 0.036703587 -0.2411963
-0.53659093 0.026411146 -0.2606506
-0.41536143 0.053994387 -0.22470367
-0.38512552 0.036400944 -0.25052646
0.48753774 0.037040167 -0.23714909
-0.56716907 0.11326071 -0.23893896
-0.53762698 0.11291177 -0.24576178
-0.41619781 0.11600465 -0.24091059
-0.39411727 0.1013527 -0.26472443
0.49795777 0.11101439 -0.24407244
0.5322668 0.1453059 -0.21864474
-0.55146879 0.15582389 -0.23592755
-0.51729739 0.1885404 -0.24267533
-0.42740703 0.18649566 -0.24578071
-0.38826257 0.15393949 -0.27197585
0.50638193 0.18205526 -0.25106949
0.53184867 0.18582502 -0.21853103
-0.49610397 0.23575634 -0.23070253
-0.44091797 0.25828058 -0.24389797
0.5033834 0.25412905 -0.24418876
0.53650439 0.24919194 -0.21400289
-0.47558743 0.35111454 -0.20813565
-0.44513124 0.32753226 -0.24140063
0.50873715 0.32375017 -0.25303501
0.53798425 0.32374606 -0.21682855
-0.47823083 0.39541367 -0.21092951
-0.44638512 0.40045911 -0.2447989
0.50714016 0.39513847 -0.25274801
0.53701413 0.39593035 -0.21744588
-0.48203892 0.482236 -0.22184828
-0.4475033 0.47032884 -0.24299526
0.5077818 0.46461508 -0.24930248
0.53314155 0.47635499 -0.22056332
-0.4783206 0.56542677 -0.21559857
-0.44854686 0.5431695 -0.24250695
0.50711262 0.53848916 -0.2476413
0.5334233 0.53699428 -0.22575156
-0.4791061 0.6074056 -0.20531274
-0.44910049 0.61650735 -0.24145406
0.50766623 0.61169916 -0.24254423
0.53176796 0.60565001 -0.22352727
-0.47766885 0.66609633 -0.21324611
-0.44745398 0.68990242 -0.24122986
0.49725544 0.68310165 -0.24101073
0.52925736 0.66124481 -0.22053359
-0.47598711 0.73650986 -0.21242055
-0.4409548 0.7531358 -0.24066791
-0.3947053 0.79084682 -0.25893882
0.45030856 0.74897087 -0.24210578
0.49099553 0.75068271 -0.23986872
-0.41727391 0.83495724 -0.23429014
-0.38043272 0.83745575 -0.24586549
0.42664757 0.848943 -0.25228325
0.47500241 0.85120833 -0.22319731
0.020535998 -0.92636895 -0.14923587
0.064266145 -0.92698342 -0.15027371
-0.12199418 -0.8568396 -0.14850686
-0.070300199 -0.87462348 -0.16711153
-0.006629575 -0.89549291 -0.17047091
0.064629905 -0.9013896 -0.17386015
0.13753514 -0.89457297 -0.16982503
0.20049378 -0.87342578 -0.16491288
0.24797919 -0.85467303 -0.14531013
-0.14489649 -0.81205183 -0.16670169
-0.097000018 -0.8339206 -0.18359435
-0.036049072 -0.85110563 -0.19794814
0.15190624 -0.84771639 -0.2047732
0.22621077 -0.83589739 -0.1824037
0.2748374 -0.8149969 -0.16475004
-0.20299751 -0.74765748 -0.15101917
-0.16241312 -0.74975467 -0.18179387
-0.08697255 -0.74952817 -0.16930297
-0.024366572 -0.75675893 -0.19754815
0.23960626 -0.71826202 -0.20459391
0.29616514 -0.74870878 -0.17881902
0.32773948 -0.74231136 -0.15471216
-0.42877036 -0.65582287 -0.17007351
-0.37073904 -0.67437655 -0.16603291
-0.2952317 -0.67614758 -0.17208894
-0.22205566 -0.67926526 -0.17995919
-0.16139029 -0.6782105 -0.18935353
-0.093246154 -0.67538106 -0.18231183
0.16802379 -0.64271951 -0.20130582
0.20983118 -0.70829177 -0.20492493
0.28162393 -0.69351715 -0.17042492
0.32316515 -0.70089591 -0.15597838
-0.49797842 -0.5984835 -0.16336067
-0.44458812 -0.61019301 -0.1728826
-0.36967304 -0.60934854 -0.17274624
-0.30294335 -0.62492454 -0.15982108
-0.22345316 -0.6302231 -0.1561017
-0.14983863 -0.61083758 -0.16797021
-0.10106291 -0.59842777 -0.20024286
0.21619436 -0.58608031 -0.18330847
0.25529304 -0.57558411 -0.15908703
-0.56197208 -0.5176658 -0.16239077
-0.52459061 -0.54436612 -0.17139684
-0.44757587 -0.53839815 -0.1613028
-0.20988363 -0.51105607 -0.15145616
-0.16214401 -0.54169464 -0.17618756
-0.091402397 -0.56472117 -0.20350352
0.23724988 -0.5487901 -0.19523785
0.28213486 -0.53107941 -0.16947459
0.31841695 -0.50762784 -0.14849716
-0.62233353 -0.42831156 -0.15432204
-0.58265221 -0.4600777 -0.17008643
-0.50675011 -0.45957279 -0.16699113
-0.46530816 -0.49034873 -0.1772067
-0.22280063 -0.45955643 -0.17429534
0.28912503 -0.48612481 -0.1908671
0.33647802 -0.45724106 -0.15983926
-0.63081038 -0.37662926 -0.16536862
-0.58743888 -0.39103904 -0.17756218
-0.52264005 -0.39018741 -0.18326439
-0.27965587 -0.38203305 -0.15835105
-0.24642228 -0.39213285 -0.19395453
0.36359739 -0.39068526 -0.17190386
0.39545214 -0.36379725 -0.14334439
-0.64086908 -0.31361631 -0.1637623
-0.58200169 -0.31535757 -0.17079487
-0.53513461 -0.34232563 -0.19409037
-0.34448871 -0.29262373 -0.14238776
-0.30144274 -0.31748778 -0.17710213
0.37112045 -0.336063 -0.19047602
0.40851644 -0.3099848 -0.16828682
-0.64748508 -0.24434894 -0.16582069
-0.59169108 -0.24379173 -0.17711851
-0.34924343 -0.23481461 -0.16724774
-0.31814095 -0.2636714 -0.18586914
0.43108934 -0.24674961 -0.16999403
0.4638809 -0.22675064 -0.14038152
-0.65631461 -0.17521727 -0.16510639
-0.59753138 -0.18552205 -0.1822653
-0.40376568 -0.15918563 -0.13734819
-0.36687389 -0.17563957 -0.1754698
0.44602355 -0.18394804 -0.18084016
0.47064984 -0.16733535 -0.1622801
-0.65456051 -0.10556033 -0.16825555
-0.60845917 -0.10663863 -0.17236553
-0.41559711 -0.095538378 -0.15018456
-0.37807196 -0.10965952 -0.18516615
0.48291296 -0.10392188 -0.16814172
-0.64728558 -0.031485371 -0.16719224
-0.6055451 -0.030581005 -0.17097776
-0.42728794 -0.034746602 -0.1641971
-0.39206013 -0.052918896 -0.19500796
0.49999368 -0.034737315 -0.17038801
0.53445727 0.0045225173 -0.13532454
-0.63316768 0.041507691 -0.1631905
-0.59660774 0.045807846 -0.17942742
-0.43671519 0.034081437 -0.17263962
0.51147765 0.037533209 -0.1702911
0.53261656 0.045963608 -0.15857396
-0.62662399 0.093044855 -0.14654605
-0.59129566 0.11530075 -0.1667414
-0.50044012 0.13465714 -0.15654856
-0.45354342 0.11240066 -0.17210515
0.51982856 0.1078198 -0.18327616
0.54061192 0.1124356 -0.16068977
-0.56789303 0.17646587 -0.16031806
-0.51550066 0.19731882 -0.17230709
-0.45434988 0.17304981 -0.19252329
0.52013421 0.18187064 -0.19299152
0.54256111 0.18612114 -0.16414787
-0.50357592 0.25363395 -0.16167091
-0.46889296 0.27193102 -0.18850997
0.5229997 0.24900341 -0.18992269
0.54600048 0.25527149 -0.16164984
-0.4836143 0.32729802 -0.15802898
-0.46598014 0.32816732 -0.17964609
0.51905578 0.3071261 -0.2012182
0.54937142 0.32566664 -0.1680301
-0.48635635 0.40331969 -0.16377026
-0.4663372 0.40158966 -0.18949294
0.52307355 0.40311491 -0.18385807
0.54717338 0.39470717 -0.16703071
-0.48751983 0.47288379 -0.16925168
-0.47076184 0.47592857 -0.19122805
0.51847667 0.4691855 -0.19746442
0.54548842 0.4664385 -0.16663307
-0.48699704 0.54286855 -0.16352801
-0.47151682 0.55220675 -0.18462871
0.5242784 0.5457707 -0.19260317
0.55145323 0.54207462 -0.16401549
-0.48617342 0.61665905 -0.1638006
-0.46970543 0.61697543 -0.18330562
0.52032292 0.61966491 -0.1893546
0.5434348 0.60870111 -0.16196056
-0.48750305 0.68447429 -0.15828389
-0.46589068 0.6917392 -0.18488152
0.51971859 0.6883809 -0.17670329
0.5423367 0.68765837 -0.16146532
-0.48475027 0.74352145 -0.15880053
-0.45234093 0.77277368 -0.17457698
0.50332588 0.75963998 -0.17555471
0.54248327 0.7453292 -0.15323474
-0.47483668 0.85649621 -0.14394481
-0.43022025 0.83578956 -0.17041972
-0.40185687 0.84394026 -0.19114061
0.49564797 0.83694142 -0.16648367
-0.071366735 -0.93299687 -0.08114405
-0.0034464672 -0.940853 -0.097213872
0.064150393 -0.94364232 -0.10656867
0.13298997 -0.93732071 -0.096202403
0.18003581 -0.92927188 -0.085622035
-0.13802713 -0.88610387 -0.088065952
-0.08155258 -0.89647919 -0.10645536
-0.028090926 -0.91623759 -0.10921334
0.027234472 -0.89074516 -0.068705365
0.14667277 -0.91606253 -0.12256007
0.20926768 -0.90234542 -0.10214428
0.26231739 -0.86861449 -0.093864605
-0.20538516 -0.79466981 -0.097227901
-0.15836167 -0.82355511 -0.11083575
0.29736686 -0.82750481 -0.10542761
0.32796124 -0.7995261 -0.095885947
-0.22918732 -0.75160038 -0.098440252
-0.12766416 -0.74602711 -0.10674995
0.35027996 -0.74610215 -0.099300079
-0.48690182 -0.64492965 -0.10339328
-0.44182706 -0.66838562 -0.1010472
-0.37015015 -0.68035895 -0.098525301
-0.30075374 -0.67412525 -0.10148968
-0.23538068 -0.69276494 -0.10609045
-0.16476348 -0.66787159 -0.085748583
-0.082936481 -0.65484166 -0.099696599
0.28846782 -0.70196551 -0.11933544
0.33344769 -0.68569452 -0.091109149
-0.54704201 -0.57297981 -0.11588623
-0.50608236 -0.60627443 -0.093221895
-0.43673152 -0.59728873 -0.091397233
-0.37013578 -0.61779428 -0.09400256
-0.29127434 -0.62413061 -0.098903343
-0.22732466 -0.61286718 -0.098352388
-0.17707261 -0.60042745 -0.10688183
0.2853258 -0.57392102 -0.10272211
-0.56435418 -0.53081119 -0.10782164
-0.51583838 -0.53150988 -0.097041555
-0.45688793 -0.54739916 -0.11543821
-0.26198199 -0.51297462 -0.075163648
-0.21636608 -0.5372088 -0.10506938
0.2990303 -0.54929852 -0.11034991
0.33124328 -0.52726811 -0.088384479
-0.62388551 -0.42536211 -0.13031766
-0.58224696 -0.460996 -0.1100401
-0.52727807 -0.47261772 -0.10101078
-0.27563566 -0.45662728 -0.10020908
-0.23403196 -0.48912105 -0.12058876
0.35667634 -0.46218479 -0.095135227
0.38488802 -0.43777639 -0.068954624
-0.62949419 -0.38577476 -0.11874762
-0.59336966 -0.39185625 -0.1127141
-0.54147172 -0.40784326 -0.12249853
-0.33761108 -0.37646681 -0.074478641
-0.30817294 -0.39526322 -0.098358266
0.37238741 -0.40807 -0.10597761
0.40544561 -0.37744033 -0.089919128
-0.62885225 -0.32473618 -0.1180163
-0.60749525 -0.32397908 -0.12221105
-0.3567189 -0.32010803 -0.087660819
-0.31787601 -0.34295008 -0.11718686
0.43250406 -0.30939493 -0.095936254
-0.64900571 -0.25166011 -0.12396486
-0.40525058 -0.21396035 -0.077175871
-0.38155109 -0.24931884 -0.096408285
0.4480249 -0.24752277 -0.10525747
0.46914446 -0.23818362 -0.087057389
-0.65330869 -0.17404421 -0.12304731
-0.41655743 -0.16981184 -0.089257978
-0.38789782 -0.19963971 -0.098635137
0.4835667 -0.17574671 -0.094345964
-0.65129185 -0.093557112 -0.12608781
-0.43549433 -0.10190789 -0.09337838
0.5021466 -0.10832869 -0.09830676
0.52750671 -0.083541363 -0.076531105
-0.64516181 -0.029099964 -0.12227555
-0.45276195 -0.032944929 -0.095662057
0.51523811 -0.042244807 -0.096576907
0.53498864 -0.017738461 -0.08853288
-0.63528466 0.037821546 -0.12133335
-0.61335111 0.043856852 -0.1149286
-0.47910982 0.047966771 -0.084507897
-0.46168008 0.035626873 -0.10760356
0.52317798 0.03267923 -0.10018158
0.54444557 0.047747083 -0.089467295
-0.62050366 0.11072711 -0.11838236
-0.59848398 0.1181822 -0.11891121
-0.48589513 0.11037537 -0.092990138
-0.46880084 0.086844482 -0.096643426
0.52547282 0.090426035 -0.12891501
0.54754066 0.11545674 -0.10219575
-0.57535124 0.18455869 -0.11237566
-0.49883997 0.18327281 -0.1016483
0.554892 0.18209228 -0.10072856
-0.55606198 0.23044521 -0.11114492
-0.51642656 0.25027856 -0.10068764
0.5618692 0.25335944 -0.096229412
-0.50245559 0.33047572 -0.095073789
0.56941557 0.32471555 -0.092253692
-0.50551987 0.39939785 -0.095389999
0.56699997 0.39872369 -0.096734159
-0.50459033 0.47216853 -0.099423334
0.56502199 0.46978149 -0.092283159
-0.50461185 0.54164135 -0.097460784
0.5670675 0.5396229 -0.093837
-0.50242805 0.61479235 -0.096846581
0.56276608 0.61392277 -0.096259519
-0.50173587 0.68792474 -0.093973808
0.55784768 0.68461293 -0.099712044
-0.49562871 0.75355875 -0.095967956
-0.46003884 0.78780818 -0.10311362
0.51966071 0.77447385 -0.1082634
0.55799586 0.75517905 -0.096628107
-0.47993836 0.84980851 -0.092784442
-0.44686767 0.84325606 -0.09806224
-0.4015168 0.84119892 -0.11376961
0.51027632 0.82792658 -0.10834654
0.53782743 0.82430935 -0.079146951
-0.13645077 -0.92958587 -0.024232551
-0.081353426 -0.9400273 -0.028204646
-0.011422608 -0.95585442 -0.025156401
0.063313283 -0.9647783 -0.026712179
0.13648869 -0.94919455 -0.026381332
0.18720739 -0.93318683 -0.026987951
-0.20043595 -0.88805747 -0.02489908
-0.16548215 -0.90063763 -0.025100086
-0.10334471 -0.89774138 -0.054763891
0.22029874 -0.91006064 -0.024224952
0.27386495 -0.87649852 -0.025292676
-0.2220448 -0.81239438 -0.023767728
-0.16543192 -0.83088017 -0.035459347
0.30094525 -0.84254533 -0.029582713
0.33386195 -0.80851209 -0.026608799
-0.26515287 -0.74380457 -0.026231989
-0.24498858 -0.76339006 -0.026880581
0.36883244 -0.7489208 -0.026131075
-0.43311703 -0.66487819 -0.047954936
-0.36407363 -0.6682741 -0.035440765
-0.2967681 -0.67420948 -0.026468217
-0.25072646 -0.69826055 -0.037611369
-0.13538146 -0.66953963 -0.019474372
0.3013635 -0.65403664 -0.046382133
0.35713691 -0.67287117 -0.033228688
0.40142623 -0.66140199 -0.0086270627
-0.49738395 -0.6071105 -0.051151536
-0.44516248 -0.62206566 -0.052269101
-0.35168135 -0.63291365 -0.051349178
-0.2888419 -0.62814975 -0.030557655
-0.23403408 -0.61330998 -0.02615549
0.22649795 -0.58775008 -0.031394474
0.35532594 -0.60416937 -0.023957375
0.41150537 -0.61200118 -0.0047690477
0.45946586 -0.62610561 0.0081810812
-0.27022707 -0.52148688 -0.0086406283
-0.24587215 -0.54992628 -0.019642029
0.23967406 -0.56337589 -0.019975167
0.2423346 -0.53646922 -0.018185275
0.35704038 -0.52840793 -0.023565684
-0.29996344 -0.46061295 -0.026326012
0.36847287 -0.46386519 -0.0212669
0.38801286 -0.4424209 -0.017473713
-0.34421051 -0.37529129 -0.024399541
-0.32549423 -0.40476257 -0.017379669
0.37807909 -0.41849086 -0.034811307
0.40942284 -0.38580278 -0.021117434
-0.3691459 -0.31234989 -0.022210859
0.43907994 -0.31839824 -0.025944289
0.45880741 -0.29189816 -0.014864111
-0.40863505 -0.2144143 -0.02182636
-0.39244699 -0.25310728 -0.025052447
0.45158711 -0.25981623 -0.013098203
0.47367334 -0.24156621 -0.026631657
-0.42253557 -0.16652346 -0.02581935
-0.39839536 -0.17825463 -0.042910699
0.4921844 -0.17857254 -0.023593202
-0.44286984 -0.10009949 -0.028904594
0.51075679 -0.1089529 -0.026138697
0.52982026 -0.078898348 -0.029577367
-0.46131796 -0.026289944 -0.027593248
0.52053434 -0.036438979 -0.031443123
0.53687888 -0.031232461 -0.024797421
-0.48174021 0.044732094 -0.029748779
-0.47081581 0.02786772 -0.018071806
0.54754907 0.039949968 -0.026970085
-0.49313912 0.1187214 -0.023672201
-0.47226194 0.094621621 -0.014734913
0.55848861 0.10986427 -0.026376549
-0.49784288 0.18842041 -0.022340827
0.56867373 0.18534827 -0.027020045
-0.5054754 0.25722587 -0.025689315
0.57188165 0.2562992 -0.026919946
-0.51056314 0.32699126 -0.027372152
0.57937223 0.32547089 -0.023911241
-0.51296121 0.40004015 -0.025834888
0.57786655 0.39921832 -0.022008091
-0.51528317 0.46635392 -0.027391151
0.57652909 0.47154626 -0.025370605
-0.51228416 0.53799647 -0.027074307
0.57611358 0.5424701 -0.023051195
-0.51018274 0.6169185 -0.027056381
0.57352829 0.61615366 -0.026718397
-0.5114367 0.68943983 -0.025464628
0.57410479 0.69070417 -0.0267593
-0.50351143 0.75618333 -0.024839159
-0.46745715 0.79222298 -0.029592276
0.56963098 0.76485151 -0.023101296
-0.49994695 0.85176682 -0.023644235
-0.44671541 0.84583896 -0.023999639
0.52185839 0.82806408 -0.018731838
0.54047042 0.82252711 -0.03085671
-0.12309174 -0.92775786 0.027839521
-0.076825619 -0.93857872 0.046340138
-0.010880668 -0.95666122 0.050514553
0.064390406 -0.96283025 0.045868635
0.13784173 -0.94686115 0.047211621
0.18706669 -0.93321705 0.046561919
-0.19778171 -0.86088747 0.04236079
-0.1542483 -0.89294171 0.051193871
-0.11489561 -0.91769934 0.07161893
0.21652165 -0.90814567 0.047520403
0.27097952 -0.87577409 0.044179082
-0.2242384 -0.81544113 0.050731972
0.29728973 -0.83551002 0.052203808
0.32963258 -0.81203717 0.046157628
-0.26431549 -0.74668908 0.045771193
-0.24658562 -0.74752617 0.048018228
0.36170694 -0.75104666 0.04758488
-0.27310321 -0.66632068 0.037054949
-0.25171468 -0.67770123 0.050871707
-0.13985705 -0.67645329 0.050935015
0.35158598 -0.68809408 0.047699731
0.4341099 -0.64538497 0.029862486
0.48949307 -0.64915687 0.06414979
-0.26282448 -0.63678092 0.020936407
-0.23286021 -0.60383683 0.054625779
0.22363558 -0.59661967 0.049602665
0.37676188 -0.622805 0.017343827
0.42424965 -0.60480642 0.042652924
0.48492211 -0.62059051 0.060329359
-0.26737064 -0.5159561 0.042135052
-0.24731189 -0.53927994 0.053546794
0.23689958 -0.54781801 0.047453087
0.27098012 -0.53271508 0.032065406
0.34249943 -0.517061 0.03494053
0.38912752 -0.55011028 0.012028325
-0.29708695 -0.46020272 0.046835639
0.2920123 -0.49195305 0.079754174
0.36056438 -0.46261209 0.049447548
0.3872202 -0.44259325 0.043863021
-0.34305444 -0.37191659 0.045826644
-0.31655973 -0.41224974 0.051010873
0.38111222 -0.41336963 0.044642098
0.40797651 -0.38508403 0.050372481
-0.36492595 -0.31177709 0.050300956
0.4372637 -0.31633109 0.046961628
0.45707387 -0.30032989 0.016084716
-0.40788746 -0.21645087 0.043028567
-0.38982913 -0.24618971 0.048761033
0.45082647 -0.2535533 0.056754015
0.47283435 -0.24091506 0.044759482
-0.42230079 -0.16734773 0.041381758
-0.39801517 -0.17383191 0.056302942
0.48907131 -0.17622362 0.046106074
-0.43955192 -0.10280264 0.045109201
0.51217669 -0.10800213 0.045634404
0.5299778 -0.077916086 0.033484507
-0.45549169 -0.028917689 0.045353275
0.52098149 -0.035583828 0.048056278
0.53798795 -0.02794119 0.040266637
-0.48174319 0.049810484 0.038726754
-0.46496007 0.031989694 0.048701156
0.54965442 0.040296979 0.043103393
-0.49045607 0.12037011 0.041723046
-0.46959105 0.098461308 0.049992301
0.55933362 0.1113263 0.045044322
-0.49611798 0.18651062 0.048310559
0.57166767 0.18361667 0.042491719
-0.50618398 0.25466678 0.046059787
0.57484478 0.25537881 0.043794081
-0.51157701 0.32458407 0.044489905
0.58258057 0.32420823 0.043563537
-0.51418447 0.3961525 0.043134596
0.58417904 0.39951217 0.046724919
-0.51648617 0.4700115 0.042881772
0.585504 0.47449484 0.045653835
-0.51415551 0.54280233 0.044394393
0.58198893 0.5468275 0.046095438
-0.5127781 0.61972338 0.042936169
0.58051324 0.61589557 0.039341222
-0.51013994 0.6916641 0.043294162
0.57672554 0.68390393 0.041118462
-0.50316346 0.75556207 0.043365791
-0.46695736 0.79237378 0.046655141
0.57355422 0.75872326 0.044072572
-0.48375598 0.84204513 0.044942364
-0.4576689 0.8424316 0.052605458
0.51833445 0.84003961 0.038871169
0.54428965 0.82318449 0.046108633
-0.058591317 -0.93452877 0.098191813
-0.0035848692 -0.93901294 0.11836661
0.062129088 -0.9413082 0.11918378
0.12822656 -0.93604523 0.11111557
0.17260005 -0.93255168 0.091569446
-0.14748251 -0.8753472 0.11332686
-0.085883848 -0.90776116 0.12424013
-0.033054117 -0.9213205 0.13914365
0.082771435 -0.92295426 0.14235039
0.15135705 -0.91447097 0.13090867
0.20496169 -0.89608216 0.11813517
0.261832 -0.86778206 0.10615233
-0.21282025 -0.8057037 0.11253703
-0.17969395 -0.82423425 0.13057643
0.28935534 -0.82656413 0.12232176
0.32506302 -0.80192721 0.10980848
-0.23417039 -0.74106324 0.122982
-0.17628217 -0.71480244 0.090560906
0.30739525 -0.77872825 0.13851474
0.34637672 -0.74337357 0.11580882
-0.23180662 -0.67395264 0.12314267
-0.13025445 -0.67317277 0.1059361
-0.10115704 -0.67947644 0.147506
0.2889185 -0.68279988 0.13983831
0.32830048 -0.691926 0.12685832
0.49483049 -0.64866489 0.10228725
0.52751869 -0.64609003 0.11562869
-0.21373259 -0.61049867 0.12104751
-0.18094388 -0.60204899 0.13980326
0.23232916 -0.59725565 0.10011706
0.44709679 -0.61801612 0.096224554
0.4971025 -0.62522686 0.10793793
-0.26171753 -0.49620703 0.10423925
-0.22853439 -0.53347218 0.12268098
0.22846806 -0.54578716 0.10810392
0.28659871 -0.51364231 0.11576971
0.32841152 -0.50490111 0.14168108
-0.28156322 -0.45284489 0.11470003
-0.254691 -0.47257662 0.14102113
0.29002076 -0.48896065 0.12196855
0.35054532 -0.46112844 0.11997885
-0.34196189 -0.35250291 0.1039194
-0.3104077 -0.39090195 0.11781579
0.37475196 -0.39728522 0.13022067
0.39869693 -0.3755478 0.11162644
-0.34903896 -0.31454295 0.11165429
-0.32111093 -0.33886626 0.12807441
0.42518407 -0.31348911 0.1168972
-0.37428331 -0.2440289 0.11905035
0.44338322 -0.25183472 0.12543854
0.46588832 -0.23770693 0.10560975
-0.41167635 -0.16646446 0.10628137
-0.39377815 -0.17743218 0.12396134
0.45038909 -0.20517471 0.15107769
0.481161 -0.17460835 0.11428805
-0.42480478 -0.10499904 0.11674839
-0.4004491 -0.11275793 0.13789408
0.49951059 -0.10854603 0.11988071
0.52865738 -0.068311922 0.087019853
-0.44367421 -0.033753179 0.11357652
0.51614696 -0.039241858 0.11634758
0.5323863 -0.017951056 0.10831553
-0.4769372 0.053705946 0.096846022
-0.45806378 0.039628007 0.12034159
0.52023214 0.031286009 0.13189517
0.54052895 0.042468965 0.11147457
-0.48175403 0.11617904 0.11902396
-0.4656142 0.10703268 0.12048719
0.55061281 0.10872012 0.11947486
-0.49005187 0.18440574 0.11241614
-0.47033027 0.18142495 0.1207037
0.56293231 0.18115172 0.11274601
-0.49503759 0.255705 0.11785019
-0.47221968 0.22154978 0.14715494
0.56802881 0.25302988 0.11321741
-0.50072521 0.32848689 0.12067303
0.57349896 0.32583809 0.11713646
-0.5039925 0.40031165 0.11983534
0.57577813 0.40054297 0.11976814
-0.50327396 0.47359011 0.11839221
0.57692617 0.47022822 0.12155009
-0.50374347 0.54822034 0.11925723
0.57528484 0.53695023 0.11797053
-0.50293994 0.61850613 0.11536875
0.57165396 0.6111052 0.11150295
-0.49982056 0.68763268 0.11739928
0.57160938 0.68412924 0.11431073
-0.49618521 0.75369465 0.11564507
-0.46519077 0.78786516 0.12195522
0.5653891 0.75646645 0.1127324
-0.48339704 0.84016395 0.11651013
-0.44776121 0.84066093 0.12509388
0.51849204 0.8315962 0.11844303
0.54209393 0.81556916 0.1065006
0.059221871 -0.92952883 0.15966655
0.11176291 -0.925143 0.15819538
-0.13070554 -0.86176753 0.1615776
-0.075190566 -0.87897605 0.18214984
-0.0090635046 -0.89654648 0.18940772
0.061785713 -0.90043795 0.19229776
0.13330589 -0.89058697 0.18675919
0.19705251 -0.87374234 0.17638883
0.2510151 -0.85883337 0.15716051
-0.19767477 -0.79282135 0.16386913
-0.1512295 -0.81635517 0.19109295
-0.094953746 -0.83566147 0.21123418
0.15210928 -0.84644532 0.21783534
0.22046411 -0.83185381 0.20135553
0.27414522 -0.80919319 0.18019123
-0.20564222 -0.74345273 0.1841512
-0.17510548 -0.73935181 0.20743671
-0.099667452 -0.71504211 0.21710065
0.29377475 -0.75119072 0.19832632
0.32852489 -0.73918456 0.1741991
-0.20329443 -0.67399371 0.18655393
-0.17491403 -0.67317325 0.20147948
-0.10112697 -0.68417138 0.20028606
0.29103783 -0.6784128 0.20200375
0.34814051 -0.6758948 0.20725022
0.4122968 -0.65773076 0.19726442
-0.20655335 -0.63176167 0.17212431
-0.15689492 -0.60263592 0.19033563
-0.092077464 -0.59322953 0.21473858
0.16853015 -0.60709208 0.21075326
0.21641669 -0.59692454 0.1964532
0.27958816 -0.59306425 0.20260932
0.35528785 -0.59993654 0.20299864
0.41151124 -0.6223262 0.2029372
-0.21114603 -0.51619864 0.17750628
-0.16593909 -0.54172039 0.19844411
0.22252965 -0.54170895 0.20517746
0.28470793 -0.5297237 0.19820961
0.32784104 -0.54801118 0.19397143
-0.27687597 -0.43637112 0.15919918
-0.23306966 -0.46295986 0.18952705
0.28904399 -0.47237158 0.20304419
0.32963273 -0.45368132 0.17716643
-0.28517473 -0.38865432 0.18180351
-0.24610075 -0.40374765 0.21123067
0.35354578 -0.3896865 0.19151807
0.39405996 -0.37281823 0.16189325
-0.33954468 -0.29900897 0.17585821
-0.30956089 -0.32327688 0.19193062
0.37730879 -0.32372794 0.19726348
0.40619561 -0.31351811 0.18167952
-0.35267669 -0.24354064 0.18447727
-0.31201959 -0.26091874 0.20610155
0.42639145 -0.24990457 0.18771189
0.4595325 -0.2160179 0.17162767
-0.40497971 -0.16087656 0.16725788
-0.37521479 -0.1776084 0.18655151
0.44184592 -0.18315518 0.19785373
0.46642554 -0.16473791 0.17912862
-0.41582274 -0.092096493 0.17838693
-0.39042777 -0.10882986 0.20045076
0.45412073 -0.13100369 0.21130227
0.48034835 -0.10189284 0.18621378
-0.42427915 -0.03232941 0.18673235
-0.39233208 -0.032980721 0.21417312
0.49701345 -0.032068182 0.19107972
-0.43956193 0.040253468 0.1914501
0.51266962 0.039475426 0.19317748
0.53268605 0.048534997 0.1708084
-0.47796729 0.10930159 0.15841495
-0.45313558 0.11486769 0.18919063
0.51685423 0.10842388 0.20319058
0.53861398 0.12037867 0.1802886
-0.48220181 0.19531202 0.17405951
-0.46157756 0.183193 0.19536684
0.51619643 0.17248186 0.21704791
0.54516089 0.18582734 0.18332452
-0.48571882 0.25928855 0.18036985
-0.46552569 0.25358471 0.19244714
0.55166709 0.25376695 0.18396449
-0.4883846 0.32716173 0.18643002
-0.46760526 0.32564333 0.19813862
0.55614132 0.32421961 0.18900035
-0.4883799 0.40301943 0.18218353
-0.46785778 0.39690474 0.20883921
0.5552398 0.39291859 0.19001383
-0.48804548 0.47269824 0.19135314
-0.46377453 0.47241947 0.20850305
0.55698717 0.46715453 0.19121036
-0.4887943 0.54049522 0.18989563
-0.46339035 0.54025894 0.21206991
0.5598011 0.54315698 0.18886337
-0.48839873 0.61331046 0.18695018
-0.46896613 0.60938287 0.20594046
0.55282152 0.61787224 0.18910287
-0.4876312 0.68628538 0.1776277
-0.46731341 0.68004298 0.20131479
0.55648774 0.68849409 0.18323651
-0.48632142 0.74395484 0.17939214
-0.46049428 0.76793593 0.19260328
0.52543145 0.78397399 0.21011439
0.54967958 0.75582224 0.18891878
-0.48020253 0.84977514 0.15352975
-0.42829114 0.84476429 0.18741424
-0.40189677 0.84399891 0.20136499
0.50780779 0.83106977 0.18885893
0.5409447 0.79497433 0.16850969
-0.050780676 -0.86227965 0.22560263
-0.00026264414 -0.8645671 0.23402387
0.062295355 -0.86533672 0.24097435
0.12073182 -0.86880052 0.23169212
0.17078711 -0.860044 0.22540911
-0.12855434 -0.79956955 0.23677301
-0.076815635 -0.81111658 0.25294536
-0.0083597898 -0.82091206 0.26491967
0.066776834 -0.82641208 0.2710236
0.13820706 -0.8177923 0.26379508
0.20010027 -0.81164896 0.24484056
0.250678 -0.80264139 0.22598732
-0.14237791 -0.74360549 0.24889588
-0.083744586 -0.74407965 0.27933559
-0.033313472 -0.78144956 0.28362688
0.078759536 -0.76972353 0.29320854
0.14390363 -0.74503481 0.2919406
0.21067929 -0.74732834 0.27053422
0.26535749 -0.74290085 0.23911685
-0.1442741 -0.67246974 0.24752681
-0.085756987 -0.67472738 0.27685523
-0.012486305 -0.67058045 0.29007617
0.066071264 -0.66846865 0.29388389
0.14685243 -0.67348558 0.28381738
0.21136305 -0.67320102 0.25989926
0.27610782 -0.67336982 0.23368496
0.34190333 -0.66756612 0.23018935
0.39634693 -0.65902942 0.22933117
-0.13471361 -0.62638521 0.23406756
-0.07599318 -0.60684204 0.25351757
-0.0085523464 -0.5956825 0.2668058
0.063069537 -0.60281742 0.26818836
0.13518851 -0.60239142 0.25720733
0.20468615 -0.60501504 0.23631461
0.28119636 -0.60551298 0.23126619
0.35094714 -0.61817878 0.22818917
0.3873615 -0.62195885 0.22670041
-0.14101815 -0.52093458 0.24133372
-0.082462385 -0.53016663 0.26513043
-0.010428544 -0.54012167 0.281495
0.068218835 -0.55302113 0.27929053
0.13804363 -0.53381377 0.27456364
0.2039813 -0.53118956 0.25209785
0.2563203 -0.5401296 0.22844121
-0.20730874 -0.44870663 0.23897208
-0.15623166 -0.46237332 0.26825953
-0.094447196 -0.47323447 0.28805205
0.21802574 -0.46917504 0.27262583
0.26856586 -0.45132449 0.25406951
0.32514846 -0.43067846 0.22537348
-0.27245355 -0.36114526 0.23036568
-0.22461024 -0.38673824 0.26020029
-0.17013314 -0.40756828 0.28269422
0.24007338 -0.42293066 0.28699216
0.28415141 -0.39465347 0.27004445
0.3339957 -0.37494722 0.24310726
-0.28409863 -0.31038597 0.25028104
-0.24305671 -0.3227725 0.27564242
0.30172992 -0.32967165 0.28946182
0.34676123 -0.31874213 0.25851536
0.38899389 -0.29529783 0.24405111
-0.33781773 -0.2409175 0.23969531
-0.29843304 -0.24702582 0.26706967
-0.25827038 -0.25509116 0.28125864
0.36526945 -0.25239739 0.27235836
0.4029566 -0.24200171 0.24375552
-0.3498418 -0.16854799 0.25432739
-0.31366333 -0.18721893 0.27538097
0.3778896 -0.1984885 0.28214011
0.41768879 -0.17437112 0.25785345
-0.36812994 -0.10157442 0.2575891
-0.31988901 -0.13339843 0.2954464
0.43189636 -0.11042401 0.26537365
0.46547997 -0.094284199 0.2444074
-0.40821418 -0.014694329 0.24101256
-0.38245785 -0.032351132 0.26452237
0.44069427 -0.039775103 0.27940848
0.47215545 -0.027805325 0.25180429
-0.41902032 0.044570528 0.24553518
-0.39306486 0.037745021 0.26984239
0.449314 0.0093692839 0.29495215
0.48238224 0.040992655 0.25790784
-0.42646781 0.11417358 0.25834414
-0.39736307 0.10832911 0.27757198
0.45358154 0.097285084 0.29470459
0.49535251 0.11368013 0.26260528
0.53156042 0.119695 0.22619954
-0.43264738 0.18466437 0.2619136
-0.39447027 0.1660462 0.28599265
0.50473207 0.18232819 0.26219144
0.53413242 0.18268546 0.24350339
-0.47534686 0.26698485 0.23600619
-0.44493961 0.2530525 0.26064283
0.51216269 0.25071526 0.26677701
0.53553039 0.25659755 0.24212863
-0.47822779 0.32134238 0.23380496
-0.44414076 0.32928926 0.2633613
0.51492453 0.3183679 0.26800036
0.53811073 0.32791567 0.24461713
-0.48099965 0.39894509 0.23335679
-0.45034513 0.39743268 0.26273215
0.51635492 0.40007731 0.2707459
0.53897119 0.39617825 0.24099134
-0.48228967 0.47017065 0.23765263
-0.45044079 0.47075197 0.26634747
0.51089829 0.4756712 0.28335059
0.54021341 0.47536662 0.24522269
-0.47855851 0.54208732 0.24607135
-0.4503437 0.54321194 0.26687601
0.52021533 0.54560453 0.26843244
0.53894329 0.5473386 0.24507023
-0.47712919 0.59155321 0.23678498
-0.44939288 0.61463583 0.26388809
0.51601911 0.61825818 0.26661193
0.53615087 0.61562955 0.24588433
-0.47785604 0.68151474 0.23366766
-0.44570264 0.68755955 0.26298806
0.51697713 0.6877802 0.26737642
0.53883219 0.68617731 0.24884835
-0.47510156 0.73547971 0.24864899
-0.43745667 0.76112366 0.26225638
-0.38608488 0.78785068 0.26207712
0.51012307 0.76833087 0.26652071
0.53803939 0.74842876 0.24680415
-0.42175448 0.83320051 0.24017932
-0.37488031 0.84248215 0.25874141
0.43309397 0.84381735 0.29060209
0.48254192 0.81732148 0.25487
0.0068344586 -0.79416788 0.29936635
0.061337352 -0.79906988 0.30098313
0.12286399 -0.79015774 0.29890496
-0.059923802 -0.74304974 0.30685872
-0.0065913722 -0.74565685 0.31309229
0.062414572 -0.74438918 0.31897226
0.13069731 -0.74362457 0.3092317
0.18135947 -0.73729289 0.30161706
-0.051362094 -0.66954678 0.30033433
-0.0056426264 -0.67234236 0.30716729
0.062349848 -0.67548698 0.31182566
0.12706843 -0.68136227 0.30448699
-0.0081986785 -0.62373686 0.29702982
0.071916059 -0.63733482 0.30900067
0.1121016 -0.63203967 0.30086532
-0.052654177 -0.51163632 0.29925993
0.0049691275 -0.51582819 0.30738467
0.056810603 -0.5163365 0.30861437
0.1312266 -0.51442361 0.30005759
0.17276812 -0.50584543 0.29926687
-0.131042 -0.43799415 0.30499175
-0.075283073 -0.45187742 0.31800878
-0.0091192797 -0.46402121 0.32643515
0.064821765 -0.45931655 0.33530936
0.13426439 -0.45664388 0.32398364
0.19789578 -0.45071191 0.31000066
0.24350682 -0.43605497 0.30148634
-0.20117299 -0.36415279 0.30734387
-0.14915043 -0.38551202 0.31876093
-0.08334446 -0.38798749 0.34623751
-0.0063454434 -0.40508801 0.3520532
0.058042057 -0.40890735 0.35453647
0.13823673 -0.39291415 0.35372454
0.20954293 -0.38711825 0.33327469
0.26355067 -0.37974757 0.31064248
-0.2150183 -0.307991 0.31589079
-0.15783283 -0.32037106 0.34402892
-0.09978395 -0.33816746 0.35568103
0.15583263 -0.33377048 0.36502224
0.22165364 -0.32775429 0.35168239
0.27728096 -0.31210724 0.33114752
0.32241103 -0.30320489 0.30291176
-0.2749677 -0.22305083 0.31695035
-0.22902226 -0.24463123 0.33798429
-0.17994827 -0.25991568 0.35430852
0.23417112 -0.27137724 0.35830674
0.2853829 -0.24718824 0.35153487
0.33406615 -0.24397713 0.31923902
-0.33666262 -0.13855579 0.29839954
-0.29071277 -0.1692619 0.32434073
-0.24197572 -0.178289 0.35426736
0.30204454 -0.19546017 0.3528699
0.35079464 -0.17204323 0.3310422
0.39491138 -0.16765247 0.31063473
-0.3402257 -0.08875227 0.31453207
-0.29974413 -0.10600139 0.33601105
-0.24224328 -0.13429497 0.36569709
0.3626315 -0.10561848 0.34589997
0.40203026 -0.095480114 0.32010457
-0.35286701 -0.02599477 0.32222503
-0.3094368 -0.040306821 0.35056412
0.37448469 -0.031840131 0.35790288
0.41276124 -0.030049644 0.33003029
0.45688534 -0.035264611 0.29823074
-0.36154747 0.040360138 0.3285099
-0.32240692 0.026444174 0.35788208
0.37505752 0.021245807 0.3636952
0.42775792 0.040719114 0.33485284
0.46498775 0.04597111 0.30223009
-0.41238946 0.099561475 0.30116343
-0.37193853 0.10959085 0.33480674
0.43276796 0.11008465 0.34477505
0.46937227 0.11491538 0.31479263
-0.41023278 0.18047917 0.32137111
-0.37969935 0.18190959 0.33753356
0.44149113 0.17884991 0.3502652
0.47507238 0.18591318 0.31965166
-0.41576415 0.25902954 0.32109702
-0.38641235 0.25587219 0.34027523
0.44804826 0.24912152 0.35293162
0.47736621 0.25122851 0.3275235
-0.42088234 0.32742968 0.32025674
-0.38887015 0.32594615 0.3507008
0.45412663 0.33983636 0.35349622
0.487131 0.3260881 0.32420686
-0.42476243 0.39753878 0.32285115
-0.38809243 0.39948967 0.35428578
0.44760624 0.40536931 0.35691079
0.4858582 0.4032155 0.32797319
-0.42355496 0.46870562 0.32214659
-0.39029706 0.46787992 0.34985286
0.44314718 0.45000473 0.36516345
0.48749232 0.47652987 0.33021203
-0.42521346 0.53914809 0.32104957
-0.39320254 0.54299879 0.34933674
0.49025524 0.5459615 0.32640767
-0.42340639 0.60925144 0.31802148
-0.38952824 0.61432189 0.34857991
0.44395202 0.63466209 0.35173169
0.48812413 0.615116 0.32559973
-0.41887757 0.68544888 0.3216579
-0.38981155 0.68257195 0.346921
0.44995782 0.68618006 0.35765442
0.48878384 0.68864185 0.32567045
-0.41458046 0.74858713 0.32278904
-0.37810361 0.76546615 0.33647504
0.44821143 0.7686044 0.3536247
0.48329312 0.7557649 0.32710254
-0.35611978 0.82818747 0.3224951
-0.30850458 0.84551787 0.34499428
0.42809775 0.82832664 0.33745745
0.47012866 0.79651761 0.32229182
-0.064969599 -0.36095744 0.37472269
-0.0033839494 -0.37867075 0.37561813
0.062867232 -0.37255132 0.37897673
0.12062328 -0.36347377 0.37911078
-0.13246518 -0.30576158 0.37688574
-0.080563396 -0.31228799 0.38426089
-0.0091161951 -0.3252486 0.3939043
0.065959714 -0.31822717 0.40135354
0.13509133 -0.31768656 0.39094931
0.19672039 -0.30428776 0.38136655
-0.20396543 -0.22727406 0.37337187
-0.15012699 -0.24242118 0.38660035
-0.078116134 -0.24612421 0.41142714
-0.0055030696 -0.25236097 0.42292604
0.067347787 -0.25245631 0.42394847
0.13585362 -0.24653006 0.41884443
0.20857954 -0.24267977 0.39952803
0.25604597 -0.23518887 0.38483071
0.31568667 -0.21253774 0.3678335
-0.25987473 -0.16333061 0.37310165
-0.21615873 -0.17073876 0.38631016
-0.15526772 -0.17090645 0.41238827
-0.091613993 -0.18249133 0.42687881
-0.010187563 -0.19159579 0.43398333
0.090360567 -0.19562998 0.4305363
0.14536239 -0.18977216 0.43343636
0.20828757 -0.1780116 0.42082047
0.27339706 -0.17313635 0.39299259
0.33635938 -0.16982581 0.37077394
-0.28189129 -0.093403682 0.37619847
-0.22811022 -0.10249029 0.39905044
-0.1651383 -0.11335941 0.42334744
-0.10010853 -0.13690716 0.43431401
0.21611848 -0.11601633 0.42912084
0.2733514 -0.10382604 0.41438764
0.33395877 -0.10181795 0.38239378
-0.28574613 -0.024359021 0.38728189
-0.23121239 -0.035125352 0.41606784
-0.16194938 -0.05977143 0.43662518
0.28877991 -0.036011517 0.42573228
0.34279492 -0.031792898 0.39226347
0.3882238 -0.013196386 0.38301024
-0.34060735 0.067973249 0.37911814
-0.29638967 0.042132139 0.3964287
-0.24088457 0.033732124 0.42794904
0.30054009 0.022320472 0.4348264
0.35235551 0.042063795 0.40511784
0.39839938 0.040756956 0.37802264
-0.34457928 0.12392204 0.3836208
-0.29887027 0.11712993 0.40767455
-0.25355992 0.099581577 0.42902282
0.35548976 0.10671131 0.41701713
0.39991507 0.11379387 0.38717437
-0.35034671 0.19243419 0.38404638
-0.30196866 0.18207517 0.4188762
0.3612909 0.17712006 0.42694548
0.40765059 0.1833078 0.39271095
-0.35827461 0.25616997 0.38724726
-0.31046042 0.25200319 0.42115086
0.37049004 0.25382781 0.42607671
0.41707629 0.25625664 0.3956089
0.46042126 0.25232169 0.37669125
-0.3582485 0.32877791 0.39618331
-0.31648687 0.33303761 0.42146716
0.37310052 0.33706984 0.42875943
0.41879633 0.32441413 0.40234035
0.46241456 0.35553291 0.38604018
-0.35988894 0.40543067 0.39718711
-0.31965783 0.39929178 0.42103037
0.37586764 0.39345208 0.43604788
0.42371744 0.3959794 0.40272701
0.46121377 0.43364489 0.39326864
-0.36236045 0.47368822 0.39598829
-0.31620035 0.47450808 0.42652985
0.4232223 0.47299913 0.40358248
0.46464992 0.47699723 0.38080645
-0.40333271 0.54797101 0.37173554
-0.35962123 0.54179835 0.39640319
-0.3168993 0.54243761 0.42883983
0.38252625 0.54652119 0.42668992
0.42666948 0.5454362 0.4044286
0.46833509 0.54604614 0.37874249
-0.40329987 0.58510274 0.36808559
-0.3563945 0.61646056 0.39490628
-0.31724778 0.61465657 0.42240405
0.37779692 0.6177004 0.43169791
0.42504928 0.61775881 0.40186727
0.47069037 0.6116668 0.37446666
-0.35546517 0.68619418 0.39760375
-0.31563964 0.68701363 0.4220753
0.37472481 0.68108135 0.43154901
0.42349613 0.68865001 0.40298426
0.46637607 0.67541301 0.37856385
-0.35369295 0.75191319 0.39113396
-0.30750468 0.76619172 0.40925685
0.36915562 0.76947153 0.43271765
0.41927952 0.75744641 0.40544161
0.46160668 0.75251126 0.37991312
-0.28947729 0.83452094 0.40060642
-0.23102848 0.84270793 0.41458887
-0.16756433 0.84530807 0.43802065
0.27538532 0.84673667 0.42870697
0.35390857 0.82525802 0.41570523
0.4003503 0.81468797 0.38776341
0.0060780309 -0.22655544 0.44367748
0.054997459 -0.2293818 0.44253975
0.11141995 -0.21240503 0.44431838
-0.12746984 -0.14450347 0.44272131
-0.071392246 -0.16682163 0.44729078
-0.0068999194 -0.16821788 0.45522097
0.065971233 -0.17625186 0.45583957
0.13926382 -0.16586545 0.45043376
0.18290706 -0.15129185 0.4438237
-0.19568177 -0.067879811 0.44863179
-0.13976254 -0.088133007 0.44980174
-0.080039576 -0.10585323 0.4607971
-0.0066900067 -0.10589071 0.47394386
0.069407061 -0.10682386 0.47467506
0.13713211 -0.10648848 0.46667382
0.20186959 -0.10261746 0.45310465
-0.21158871 -0.027490269 0.44677836
-0.15656599 -0.030798052 0.45833114
-0.081078872 -0.031603973 0.48232773
-0.005855184 -0.032619879 0.49442822
0.067900024 -0.033659298 0.49525455
0.13806054 -0.031648863 0.48817182
0.2084806 -0.037983809 0.46734565
0.26090753 -0.020637535 0.45249176
0.31960943 0.0050561577 0.44290295
-0.2741943 0.069880448 0.43928245
-0.22204895 0.04343649 0.45261246
-0.15430856 0.040629506 0.47706407
-0.077814609 0.041063145 0.49605101
-0.013483047 0.033919685 0.50083542
0.069382474 0.039061457 0.50391376
0.14389451 0.033864409 0.49864835
0.20659587 0.03856793 0.48514476
0.27419478 0.045923397 0.45949915
0.32597536 0.052491248 0.4433642
-0.26095992 0.12068578 0.45274562
-0.21845724 0.11366334 0.46321118
-0.15397142 0.11354247 0.49100271
-0.090516627 0.1095079 0.50238514
-0.021265827 0.094306283 0.5100351
0.14535818 0.097032852 0.50349331
0.20883465 0.10809579 0.49572164
0.28040102 0.11427022 0.46952245
0.33406353 0.11566854 0.44576475
-0.27366766 0.18529624 0.45206717
-0.22168379 0.18957615 0.47252813
-0.15795811 0.18140969 0.49848589
-0.092256144 0.17026836 0.50871968
0.21463162 0.17938295 0.50272083
0.27817383 0.1835368 0.48139265
0.33244008 0.1812917 0.45602897
-0.28166866 0.26262727 0.45450443
-0.22175257 0.25380906 0.48213327
-0.16018081 0.2583822 0.50356543
0.22061044 0.25287896 0.50330365
0.27921459 0.25419053 0.48752978
0.34110111 0.25458032 0.45477605
0.40159339 0.28225952 0.43967041
-0.28486395 0.33382437 0.45730433
-0.22449629 0.32788742 0.48716965
-0.17721391 0.33209726 0.50328755
0.22710219 0.31630948 0.50818676
0.28302789 0.32436377 0.49314547
0.3491433 0.32484767 0.45854914
0.39878657 0.35964078 0.44795996
-0.28739923 0.40113318 0.4576689
-0.2332066 0.40674585 0.48635218
-0.18546666 0.40223747 0.50472432
0.27945277 0.39815268 0.49905962
0.34546581 0.39641446 0.4671801
0.39846408 0.43378523 0.45574915
-0.2902196 0.47249326 0.45736369
-0.22976942 0.47447363 0.49026132
-0.18410702 0.45729819 0.50244927
0.28058922 0.4707509 0.49994081
0.34273717 0.46659157 0.47108877
0.39108163 0.46839646 0.44716507
-0.28674656 0.54346895 0.45895484
-0.23067725 0.54504186 0.49154276
-0.18274216 0.53742898 0.50352025
0.24077955 0.52631551 0.51018053
0.28655952 0.54059392 0.49485368
0.34946561 0.54014826 0.46897075
0.3936739 0.52986151 0.44637066
-0.28186965 0.61409563 0.45982096
-0.22583942 0.61377472 0.4915686
-0.18518029 0.60857457 0.50319803
0.2839317 0.61578399 0.49647182
0.34653777 0.61156589 0.46742186
0.39150679 0.60483176 0.45002246
-0.28529918 0.68770808 0.45705816
-0.22872345 0.68464309 0.49000683
-0.18101892 0.68731469 0.50321847
0.28567052 0.68646306 0.49783227
0.3439256 0.68327534 0.46734002
0.39314622 0.67934954 0.44969231
-0.27815384 0.7507714 0.45215735
-0.22769076 0.76087248 0.47713035
-0.16345194 0.77548617 0.49613035
-0.088686436 0.78679413 0.50258958
0.2268033 0.78375387 0.50428665
0.28331819 0.76326394 0.49169466
0.34323773 0.75468731 0.46501327
0.38582924 0.74365634 0.45069337
-0.21859725 0.83443075 0.45088163
-0.13512819 0.84254038 0.47608995
-0.085358396 0.84293061 0.49372688
-0.017219976 0.84549588 0.49111584
0.057839684 0.85074013 0.50466132
0.14266874 0.83671767 0.4992753
0.20824742 0.83685219 0.48992375
0.27273875 0.82972831 0.45982602
0.32823592 0.81481695 0.44880533
0.016790707 -0.0088678189 0.51216364
0.065557592 -0.018166434 0.51193988
-0.062728859 0.056938291 0.51555306
-0.0069906451 0.046142988 0.51941431
0.064017177 0.045848452 0.51953119
0.12626065 0.058736712 0.51752734
0.18703382 0.05216261 0.51289356
-0.13102402 0.14426762 0.51263803
-0.077296048 0.11734458 0.52137911
-0.0034865849 0.1180033 0.52580899
0.065055117 0.11315002 0.52615386
0.13224795 0.1137907 0.52174085
0.18953873 0.12651801 0.51455718
-0.13575676 0.19564828 0.51938164
-0.074695647 0.18947101 0.52637506
-0.0086932927 0.18305689 0.53366959
0.06865219 0.18395951 0.53708899
0.1371547 0.18725172 0.52716827
0.19324875 0.18684602 0.52286756
-0.14955938 0.25762856 0.52138466
-0.081960514 0.2583237 0.53188628
-0.0069611929 0.25354826 0.54287481
0.064152926 0.25532758 0.54219925
0.13452239 0.26106325 0.53666067
0.19769615 0.25915751 0.52614415
0.24983799 0.28023979 0.51183671
-0.20459262 0.32205176 0.51432979
-0.14793801 0.32713389 0.52552962
-0.082985878 0.32774282 0.54005712
-0.0064767152 0.32376164 0.55078107
0.057578892 0.3239578 0.55025452
0.13147895 0.33289233 0.54432797
0.20413649 0.3298769 0.52710694
0.25674489 0.32778019 0.51520592
-0.18864012 0.40648851 0.52098304
-0.14569578 0.40163985 0.52749872
-0.07780306 0.3991996 0.54528588
-0.0038057938 0.39626777 0.55566221
0.067450561 0.39483008 0.55733097
0.12960632 0.39687377 0.55228615
0.20757192 0.40340036 0.53476906
0.2683396 0.39823449 0.51877987
-0.1975719 0.46630016 0.52013981
-0.15182038 0.47385898 0.52532434
-0.081880286 0.46917972 0.54376495
-0.0030753016 0.46888277 0.55592692
0.068852313 0.46980467 0.55840713
0.13074158 0.46717116 0.55262268
0.20602721 0.4730238 0.53582972
0.26643735 0.46951529 0.51791847
-0.20135848 0.52980268 0.51928258
-0.15166864 0.54547203 0.52642417
-0.080847971 0.54020172 0.5474838
-0.0018113814 0.54122901 0.55807602
0.067517951 0.54876482 0.56029916
0.12791273 0.5401454 0.55523378
0.20354234 0.54241651 0.53597015
0.26378492 0.54804444 0.52034473
-0.19396667 0.61115777 0.5219596
-0.14848034 0.61246938 0.52724975
-0.082849145 0.61668712 0.54215139
-0.0050772019 0.6139791 0.55286968
0.066334151 0.6197446 0.55616534
