# .PCD v0.7 - Point Cloud Data file format
VERSION 0.7
FIELDS x y z normal_x normal_y normal_z curvature
SIZE 4 4 4 4 4 4 4
TYPE F F F F F F F
COUNT 1 1 1 1 1 1 1
WIDTH 587
HEIGHT 1
VIEWPOINT 0 0 0 1 0 0 0
POINTS 587
DATA ascii
-0.21716779 0.25349128 -0.37645838 0.36040688 -0.87242985 0.33011067 8.8407069e-05
-0.20636165 0.2598471 -0.37130994 0.32861394 -0.88729149 0.32361498 0.00078329665
-0.019016635 0.2533668 -0.37000379 -0.36112818 -0.87310117 0.32753742 0
-0.20160873 0.26092705 -0.37374419 0.31167024 -0.88870871 0.33624181 0.0011258861
-0.18341659 0.26535833 -0.37568799 0.18451424 -0.92374498 0.33563334 0.0013545956
-0.16237646 0.26907429 -0.37290755 0.12381302 -0.93629235 0.32867447 5.6500252e-05
-0.15704757 0.26833481 -0.37714297 0.12396518 -0.93450743 0.3336592 1.2799164e-05
-0.14257483 0.26979625 -0.37844777 0.11342891 -0.93638575 0.33213794 0.00020525901
-0.099132545 0.26943302 -0.3793346 -0.10774367 -0.93498415 0.33792901 0.00024780564
-0.083425008 0.26837668 -0.37636137 -0.12276804 -0.93468523 0.33360392 0.00014443195
-0.072322987 0.26641846 -0.37782103 -0.13301252 -0.93205434 0.33701983 0.00012384218
-0.065410979 0.26718858 -0.37288296 -0.14107002 -0.93198937 0.33390865 0.00017155179
-0.044729352 0.2620292 -0.37544909 -0.27751207 -0.90609676 0.31933647 0.0020608245
-0.13656545 0.27125707 -0.37647957 0.095875271 -0.9405371 0.3258802 0.00043366133
-0.12777072 0.2718882 -0.37802756 0.054643285 -0.94350463 0.32682264 0.0014793969
-0.11435594 0.27397379 -0.37187919 -0.03486912 -0.94492328 0.32542941 0.001637092
-0.096687339 0.27056396 -0.37506437 -0.1206241 -0.93519092 0.33296824 5.6522007e-05
-0.18231153 -0.27051869 -0.36094823 0.1855813 0.93055147 0.31564769 0.0012155576
-0.17281356 -0.27042004 -0.36491334 0.1398313 0.93565756 0.32402486 0.00027533917
-0.16177168 -0.27226013 -0.36377776 0.12339834 0.93908703 0.32076231 0
-0.15033476 -0.27183402 -0.36945575 0.12284682 0.93784672 0.32457983 4.7353667e-05
-0.13676313 -0.27514583 -0.36497325 0.083005585 0.94024891 0.33021522 0.00097376888
-0.12703648 -0.27678007 -0.36393368 0.05753231 0.9428736 0.3281453 0.0014927743
-0.11202285 -0.27540907 -0.36675784 -0.064484663 0.9408145 0.33273089 0.00099651492
-0.094025247 -0.27267873 -0.36781868 -0.12458707 0.9385854 0.32176939 0
-0.077956617 -0.2710799 -0.36630011 -0.12399468 0.93849969 0.32224768 3.3484262e-06
-0.064656042 -0.27093092 -0.36159137 -0.14402969 0.93754232 0.31665429 0.00024997746
-0.20397846 -0.26296961 -0.36546144 0.3121869 0.89555132 0.31706011 0.0012850686
-0.18003166 -0.26942715 -0.36503872 0.17294875 0.93091249 0.32169974 0.0010273239
-0.17710871 -0.26904699 -0.36728716 0.16202292 0.93069792 0.32794818 0.00082406809
-0.055885371 -0.2683621 -0.36574781 -0.20319878 0.92436707 0.32288677 0.0013921903
-0.048118979 -0.26756757 -0.36412564 -0.24908121 0.91293746 0.32327041 0.0014633094
-0.035099573 -0.26262411 -0.36289492 -0.33624893 0.88432419 0.3238942 0.00061933853
-0.23026969 -0.25282425 -0.36342153 0.36213934 0.87489706 0.32157466 2.9067398e-05
-0.21409354 -0.25830904 -0.36675084 0.35978651 0.87637389 0.32019135 0
-0.017873961 -0.25372002 -0.36774012 -0.36008877 0.87408513 0.32605419 1.7352822e-06
-0.25316739 -0.24304733 -0.36422229 0.44418004 0.83221519 0.33184618 0.001976951
-0.24511272 -0.24456257 -0.36921012 0.38523844 0.86286384 0.32719621 0.0002366852
0.002286433 -0.24645621 -0.36476317 -0.38483194 0.86428189 0.32391557 0.00041695568
0.024636967 -0.23340243 -0.36780781 -0.51184714 0.79089612 0.33540413 0.0013314276
-0.27736056 -0.22651038 -0.36497945 0.56390095 0.75963676 0.32398728 0.0002152495
-0.29480261 -0.21250814 -0.36643404 0.57841039 0.7482273 0.32495746 7.8787722e-05
-0.28756949 -0.21787742 -0.36685944 0.57492495 0.751499 0.32359004 3.6689005e-05
-0.14739826 -0.21197784 -0.36818331 0.11203297 0.91788423 0.38070604 0.0022933616
-0.12544125 -0.21576798 -0.36540371 0.050393682 0.92514342 0.37625802 0.0020979168
-0.11167064 -0.21566376 -0.36375099 -0.068124928 0.92290819 0.3789452 0.0013047631
-0.091600865 -0.21118815 -0.36937374 -0.069823638 0.89770144 0.43503654 0.0042703226
-0.0869129 -0.21187927 -0.36529431 -0.10547976 0.91435397 0.39093587 0.0025485512
-0.072064951 -0.2110959 -0.3618513 -0.20050842 0.91085851 0.36073986 0.0030556154
-0.067662105 -0.2109156 -0.3606776 -0.21815459 0.91022193 0.35200086 0.0030732288
0.045356818 -0.21711713 -0.36871663 -0.57691598 0.74801779 0.32808137 3.9551654e-05
0.052786209 -0.21188028 -0.3676255 -0.57685781 0.74876553 0.32647392 3.172717e-05
-0.31034115 -0.2023344 -0.36231962 0.63132459 0.70931339 0.31353435 0.0013619942
-0.3057431 -0.20421651 -0.36619103 0.61622947 0.71782267 0.32402447 0.0013023928
-0.19745953 -0.20060265 -0.36519983 0.34764186 0.86073107 0.37186986 0.0021019578
-0.17428228 -0.20800273 -0.36960059 0.18981786 0.88638484 0.42224532 0.007125637
-0.073693752 -0.2092699 -0.36799055 -0.1842594 0.90010315 0.39479458 0.0035075112
-0.06825453 -0.20864476 -0.36759397 -0.21071658 0.89448291 0.39433354 0.0035830881
-0.044116247 -0.20134105 -0.36249837 -0.34449232 0.87028801 0.35202816 0.00078512513
0.054423675 -0.2097643 -0.36964697 -0.57626778 0.74901837 0.32693565 1.6082409e-05
0.06029642 -0.20610401 -0.36765724 -0.5934642 0.73608959 0.32553416 0.00052446354
-0.31877184 -0.19510582 -0.3626945 0.67513108 0.65369296 0.3418825 0.0021853512
-0.22413509 -0.19035846 -0.36299455 0.42079535 0.82861447 0.36922801 0.0027783618
-0.2110714 -0.19605622 -0.36220959 0.37086937 0.85203832 0.36944088 0.0021563468
-0.2041434 -0.19780189 -0.36528808 0.35672742 0.85318834 0.38054588 0.0022275299
-0.032767285 -0.19425513 -0.36924252 -0.36129549 0.84207183 0.40047559 0.0050782417
-0.026486335 -0.19357187 -0.36377633 -0.40225485 0.84043926 0.3631154 0.0014562112
0.072834939 -0.19860858 -0.3626577 -0.64240885 0.69174141 0.3298555 0.0022972315
-0.32553512 -0.18463202 -0.36568987 0.72200805 0.60952151 0.32739565 0.00073041039
-0.2296018 -0.18834402 -0.36230999 0.46074438 0.80194628 0.38025901 0.0026487187
0.084997132 -0.18373574 -0.36345863 -0.74219096 0.58756369 0.32236865 0.00022878838
-0.33661723 -0.17158797 -0.36316609 0.75154322 0.57681286 0.32010874 0
-0.24627054 -0.17520574 -0.36327955 0.5611552 0.75239855 0.34496546 0.00047489174
-6.8147725e-05 -0.17885843 -0.36220402 -0.54189926 0.74516129 0.38868988 0.0017908574
0.005808115 -0.17246683 -0.36663172 -0.54115736 0.72663724 0.42325759 0.0040665655
0.089294851 -0.17775543 -0.36414337 -0.74391091 0.58447212 0.32401991 0.00014690138
0.094745532 -0.17094052 -0.36362261 -0.75108677 0.575665 0.32323143 0
-0.3431451 -0.16241957 -0.36435929 0.75160915 0.57685888 0.31987116 0
-0.26588252 -0.16058648 -0.36226937 0.61547559 0.70325929 0.35583171 0.0012188314
0.016130216 -0.16424917 -0.36743069 -0.55512112 0.70674133 0.4385854 0.0052627181
0.098491602 -0.16282323 -0.36946136 -0.75018412 0.57478356 0.32687566 0
0.10236084 -0.16209573 -0.36167407 -0.75093597 0.57688791 0.32139605 0
-0.34701863 -0.15619399 -0.36648431 0.7593056 0.56212193 0.32783216 0.00029563557
-0.27370599 -0.15255968 -0.3669965 0.64069241 0.64899176 0.41027179 0.0054226196
-0.26909503 -0.15740773 -0.36394793 0.62911326 0.68988657 0.35815239 0.0015535104
0.031488638 -0.15399626 -0.36372754 -0.62787515 0.6851567 0.36923313 0.0032159034
0.10852309 -0.15312687 -0.36336702 -0.76699132 0.54982454 0.33078283 0.00074856833
0.11025596 -0.15187883 -0.36154374 -0.77528673 0.53661913 0.3331221 0.0010249253
-0.28218567 -0.14007136 -0.36991683 0.66337168 0.57554859 0.4782069 0.0087124314
-0.27947909 -0.1439216 -0.36921486 0.68105251 0.58649504 0.43839592 0.0076429122
0.037376154 -0.14598446 -0.3651861 -0.6852448 0.62938029 0.36649689 0.0030446814
0.11298428 -0.14457363 -0.36831063 -0.78309506 0.52179271 0.33837041 0.0011864594
-0.36349744 -0.13152358 -0.36659867 0.83968186 0.43409207 0.326341 0.0019938294
-0.28636765 -0.13521832 -0.36861917 0.70594448 0.55538714 0.43953106 0.0084205214
0.12259522 -0.13211247 -0.3624461 -0.83726943 0.43903118 0.3259317 0.0013765772
-0.29513952 -0.12582974 -0.36482581 0.74008477 0.54896021 0.38848084 0.0028029857
0.049019285 -0.12952235 -0.36744207 -0.73788863 0.56233454 0.3732295 0.0012315181
0.05458311 -0.12496839 -0.36257485 -0.75112307 0.55531454 0.35698727 0.0011947725
0.1228423 -0.12760022 -0.36688846 -0.84331793 0.42640361 0.32710055 0.0012418285
-0.36995819 -0.11370373 -0.36911976 0.87371087 0.36130092 0.32571623 6.2016945e-05
-0.30548358 -0.111346 -0.36663619 0.780604 0.48326072 0.39637911 0.0035043203
0.13052137 -0.11339491 -0.36197203 -0.87516731 0.36248142 0.3204518 9.6570693e-06
-0.37622049 -0.10170754 -0.36557749 0.87360156 0.36328158 0.32380036 0
-0.30812046 -0.1068552 -0.36769596 0.78239363 0.46044475 0.41934568 0.0047041634
0.065553099 -0.10766778 -0.36765546 -0.79167229 0.45075428 0.41240221 0.0040494772
0.13109718 -0.10684658 -0.36782396 -0.87492949 0.36205313 0.3215836 0
-0.31341445 -0.099143438 -0.36203182 0.84308338 0.39109111 0.36913159 0.0030053414
0.070613682 -0.096767843 -0.36644235 -0.81997705 0.38898492 0.41991478 0.0048949141
-0.38319495 -0.088309094 -0.36167556 0.88130736 0.35032779 0.31712428 0.00037970283
-0.31607991 -0.086149111 -0.36977559 0.83648777 0.36595604 0.40787801 0.0046442598
0.077582963 -0.082341842 -0.36372033 -0.86329478 0.3544021 0.35933432 0.0014907345
0.14054675 -0.089046746 -0.3621363 -0.88524836 0.34464321 0.31233999 0.00040736599
-0.38623446 -0.07425157 -0.3692987 0.90391511 0.26974791 0.33192414 0.0017885366
-0.3238579 -0.074437141 -0.36145735 0.87263161 0.35174647 0.33880442 0.00021618805
0.14608359 -0.070319727 -0.36726886 -0.90867198 0.24253719 0.33983961 0.001811077
-0.32556197 -0.063620783 -0.36927909 0.87145764 0.28234044 0.4010554 0.00426646
0.083528131 -0.066928893 -0.36492303 -0.87839466 0.30462706 0.36827335 0.0029722864
-0.39141098 -0.05589306 -0.36358419 0.9352082 0.15422058 0.3187502 0.00038673531
-0.33135638 -0.053621303 -0.36250165 0.89420849 0.23352978 0.38190967 0.0039305058
-0.32951683 -0.055747274 -0.3664633 0.88968629 0.22812697 0.39549518 0.0047085942
0.087520383 -0.057543516 -0.36437905 -0.9015004 0.25232279 0.35161093 0.0034001865
0.14939186 -0.050477646 -0.36522311 -0.93765759 0.13156718 0.32169613 9.060141e-05
0.1502234 -0.054469757 -0.36123431 -0.93582875 0.14095376 0.32304278 0.00024748535
-0.39285797 -0.043722328 -0.36404061 0.93915075 0.1237663 0.32043368 0
-0.3309409 -0.040774517 -0.36883694 0.90052581 0.15679093 0.40554884 0.0028837298
0.088033959 -0.045643844 -0.36916065 -0.89749157 0.14365338 0.41698036 0.0064812596
0.15210265 -0.041030649 -0.36091113 -0.93920356 0.12364052 0.32032734 0
-0.39174241 -0.037431747 -0.36975366 0.93648839 0.12391172 0.32807839 9.063715e-05
0.089724325 -0.039245471 -0.36647025 -0.89735311 0.144399 0.41702083 0.0058335932
0.090838104 -0.032591961 -0.36577123 -0.9165768 0.11464735 0.38307047 0.0026540358
0.15144575 -0.032328673 -0.36620912 -0.93844438 0.12336668 0.32264981 5.2630435e-07
-0.39502543 -0.022994082 -0.36569086 0.93918866 0.11763326 0.32262525 4.4648663e-05
0.093350127 -0.024062885 -0.36168829 -0.93459064 0.11522931 0.3365449 0.00062185677
0.15320577 -0.02543778 -0.36370254 -0.93888861 0.12325568 0.32139727 1.2121805e-05
-0.33494449 -0.016319364 -0.3663896 0.92072672 0.082469091 0.38139364 0.0034809352
0.093620546 -0.014617032 -0.36454853 -0.93311679 0.10227124 0.34472245 0.0009438725
0.15273161 -0.017219376 -0.3682763 -0.93768638 0.10912845 0.3299017 0.00015891525
-0.39864817 -0.0098843658 -0.36011577 0.94611788 0.059603646 0.31828979 0.0013870138
-0.33612406 -0.0066794711 -0.36673698 0.91436166 0.032135952 0.4036212 0.0064558401
0.094872534 -0.007783148 -0.36351311 -0.93852139 0.037182815 0.34321287 0.002711209
0.1555512 -0.0026728446 -0.36561778 -0.94607002 0.022922276 0.32315046 0.0018782505
-0.39776012 0.0089262249 -0.36309662 0.94284505 -0.061800387 0.32745069 0.0011901715
-0.33750635 0.0044751158 -0.36344305 0.9250021 -0.022174688 0.37931442 0.0029283774
-0.39728794 0.015526583 -0.36193043 0.94201213 -0.10124387 0.31994191 0.00051532302
-0.33598766 0.01248357 -0.36480775 0.92576861 -0.072133504 0.3711457 0.0029977723
0.15344134 0.017084116 -0.36624259 -0.93991345 -0.10988849 0.32324472 0.00013965105
-0.39416665 0.021153405 -0.36892724 0.93888032 -0.11744877 0.3235887 7.9146914e-05
0.091732457 0.027803222 -0.36499557 -0.90962619 -0.10672065 0.4014858 0.0031201898
0.15277113 0.021339912 -0.3665657 -0.93936741 -0.11127453 0.32435617 0.00014706652
-0.33315271 0.032951348 -0.36531746 0.91489136 -0.10926981 0.3886309 0.0029240975
0.091186628 0.036371827 -0.36328423 -0.92397499 -0.14016597 0.35584232 0.00077388354
-0.39352256 0.040937744 -0.36316472 0.93904859 -0.12359145 0.32080036 0
-0.33208889 0.043245956 -0.36436737 0.90280306 -0.17752826 0.39170185 0.0039313305
0.088512212 0.04889854 -0.36629763 -0.90302193 -0.2002641 0.38005999 0.0034734488
-0.39058203 0.052403565 -0.36737081 0.93729419 -0.12375674 0.32582799 1.3203708e-05
-0.33150902 0.052271556 -0.36257532 0.904728 -0.21205978 0.36945629 0.0025817591
0.087607376 0.058172695 -0.36368418 -0.88645369 -0.28526312 0.36445144 0.0031593444
0.14928396 0.058559839 -0.36241281 -0.93674135 -0.15443584 0.31411001 0.0009181386
0.15032867 0.052413937 -0.36172041 -0.93779767 -0.13105087 0.32149839 4.8285634e-05
-0.38946745 0.068491772 -0.3644214 0.91429192 -0.23902903 0.3270098 0.0020663871
-0.32736054 0.065751731 -0.36171755 0.88254941 -0.31077814 0.35287896 0.0015983273
0.084105909 0.063885458 -0.36679325 -0.87997574 -0.29279739 0.37404856 0.0031815197
0.14870341 0.064814702 -0.36169887 -0.92146307 -0.20877066 0.32759801 0.0023846044
-0.3906348 0.070464507 -0.36022696 0.92186916 -0.22271746 0.31710273 0.0020140444
-0.32319853 0.071280561 -0.3668443 0.85280383 -0.34974572 0.38781902 0.0040860111
-0.31980181 0.077149972 -0.36979431 0.80615622 -0.37561637 0.45719191 0.0059856777
0.078260116 0.079203151 -0.36542651 -0.84954536 -0.35759315 0.38781404 0.0027614385
0.080995083 0.074956715 -0.36275327 -0.86480063 -0.35416374 0.35593256 0.0010202763
0.14543918 0.071864888 -0.36822903 -0.91558027 -0.24244486 0.32083201 0.0020163083
-0.32136077 0.081566401 -0.36020854 0.87384945 -0.35698262 0.33007681 0.0002368045
0.077859044 0.082652949 -0.36261126 -0.85704952 -0.3664068 0.36223227 0.0010529659
0.13945639 0.087829769 -0.3665033 -0.88003534 -0.35020754 0.32076854 0.00032599209
-0.31069794 0.099429786 -0.3693828 0.8005265 -0.37647006 0.46629137 0.0059980894
0.071797498 0.096449323 -0.36356139 -0.8301245 -0.39958835 0.38887361 0.0019455706
-0.37508291 0.10743161 -0.36219937 0.87541687 -0.36264569 0.31958339 0
-0.30851009 0.10870426 -0.36428556 0.80743492 -0.46811959 0.35904437 0.0043257312
0.068367705 0.10376878 -0.36465138 -0.81129718 -0.4335115 0.39225593 0.0020441678
0.13284712 0.10236936 -0.36811042 -0.87417603 -0.3614189 0.32433394 8.8678989e-06
-0.36918643 0.11557791 -0.36910728 0.87157786 -0.36369687 0.32875019 3.7226127e-05
-0.3048299 0.11343536 -0.36440289 0.79479367 -0.48853672 0.36004859 0.004166041
0.057233628 0.11772592 -0.36970115 -0.74913865 -0.49258929 0.44288486 0.0039082342
0.12880564 0.1148439 -0.36502743 -0.87464434 -0.36210203 0.32230321 0
-0.3652457 0.1260469 -0.36802363 0.8600108 -0.40879664 0.30539623 0.00057474448
-0.29523569 0.12546712 -0.36525404 0.71824867 -0.57401305 0.39322767 0.0028953452
0.05395272 0.12365858 -0.36642128 -0.73348135 -0.53699082 0.41670865 0.0047533526
0.12481739 0.12555201 -0.36380258 -0.8665266 -0.3876693 0.31439492 0.00077125576
0.046363793 0.1354288 -0.36302823 -0.72929817 -0.56625777 0.38402653 0.0029257601
0.050401032 0.13181834 -0.36004871 -0.75038791 -0.56089127 0.34974125 0.0012974346
0.11927708 0.1391156 -0.36336052 -0.82969064 -0.46590176 0.30748799 0.0023987608
0.12161679 0.13403699 -0.36294264 -0.84251004 -0.44219613 0.30763534 0.0018445258
-0.35844314 0.14011984 -0.36862367 0.80664468 -0.49136257 0.3284618 0.0018920578
-0.28572613 0.14045402 -0.36057299 0.73732597 -0.56823885 0.36531496 0.0018166658
0.037269294 0.14553851 -0.36617562 -0.69136441 -0.60884655 0.38900006 0.003202047
0.041606538 0.14075474 -0.36460525 -0.70850086 -0.59101647 0.38565031 0.0025687404
0.11503944 0.14326859 -0.3658323 -0.79770595 -0.51503599 0.3136926 0.00164204
-0.35156584 0.15372238 -0.36025006 0.75321066 -0.57385474 0.32150355 0
-0.27044064 0.15625699 -0.36422595 0.64759439 -0.65878898 0.38290802 0.0034336017
0.025363877 0.15946591 -0.36191669 -0.60114855 -0.71028548 0.36621702 0.0023401128
0.031208917 0.15326637 -0.36540294 -0.65811986 -0.6561231 0.3692975 0.0029030382
0.10606527 0.1559857 -0.36398831 -0.7565853 -0.56838769 0.32328653 0.00016322614
-0.34266713 0.16107979 -0.36790133 0.75123441 -0.57602566 0.32224429 0
-0.33928889 0.16822436 -0.36295289 0.75149417 -0.57672626 0.32037991 0
-0.26307374 0.16048065 -0.36758727 0.60389596 -0.67859781 0.41810852 0.00397484
-0.25512609 0.16783415 -0.3646355 0.57904458 -0.73174793 0.35951689 0.0014330979
0.012853873 0.16846228 -0.36333466 -0.56797433 -0.73765135 0.36506945 0.00095635833
0.022795957 0.1600123 -0.36526597 -0.59736437 -0.71061879 0.37172118 0.002143821
0.10357963 0.161322 -0.36020392 -0.75166237 -0.57669324 0.32004467 5.6742431e-07
-0.33079696 0.17611617 -0.36868301 0.74743217 -0.57837284 0.3268486 5.7318546e-05
-0.32951662 0.1781131 -0.36809033 0.74813175 -0.57901561 0.32409856 0
-0.24385023 0.1749377 -0.36833593 0.53769541 -0.73388559 0.41508487 0.0050415928
0.0061915196 0.1728832 -0.36496052 -0.55246168 -0.72856122 0.40495011 0.0034091889
0.08815363 0.17718165 -0.36786291 -0.74997091 -0.57754517 0.3224673 1.0088589e-05
0.093798079 0.17376995 -0.36074468 -0.75079256 -0.57759935 0.320452 5.1353963e-06
-0.32666534 0.18482564 -0.36268237 0.72875303 -0.60665965 0.31762087 0.00077840005
-0.23300636 0.18649317 -0.36067018 0.48655453 -0.79224205 0.36826253 0.0022878544
-0.012419201 0.1876099 -0.36383677 -0.46265629 -0.79936463 0.38336062 0.00408345
-0.0071626003 0.1821782 -0.36731875 -0.48789677 -0.7530151 0.44150308 0.0043595815
0.082995631 0.18597387 -0.36412686 -0.71950728 -0.62054801 0.31181663 0.0011318914
-0.3193444 0.1938832 -0.36355454 0.69706446 -0.64175707 0.31976399 0.0015517208
-0.21862344 0.19197936 -0.36480793 0.38762355 -0.83043122 0.40016481 0.0029369118
-0.20544644 0.19773385 -0.36399615 0.3519685 -0.85226321 0.38699561 0.0030593362
-0.035170913 0.19824232 -0.36083707 -0.35297069 -0.86061555 0.36708656 0.0021442887
-0.02783535 0.19288869 -0.36717793 -0.37218395 -0.84142578 0.39176762 0.0033858779
-0.01885194 0.19069687 -0.36298954 -0.42071879 -0.83150661 0.36275679 0.0031026567
0.074400082 0.19507629 -0.36791587 -0.67492509 -0.6723246 0.30406529 0.0017400065
-0.19582111 0.2021178 -0.36290884 0.35368067 -0.85775262 0.37305552 0.0016923904
-0.18504 0.20570014 -0.36537814 0.29267392 -0.86796951 0.40121171 0.0054358183
-0.1738193 0.20818681 -0.36875838 0.20048624 -0.86702269 0.45615461 0.0066066943
-0.063220069 0.2094633 -0.36192542 -0.26740122 -0.89759803 0.35044879 0.0026113831
-0.058247723 0.20751823 -0.36161166 -0.29401207 -0.88955861 0.34963164 0.0023748428
0.067083851 0.20326969 -0.36207408 -0.6270355 -0.71362013 0.3123664 0.0011488424
-0.2945902 0.21445581 -0.36223656 0.5766449 -0.75139475 0.32075918 7.0547801e-05
-0.14582111 0.21225852 -0.36783257 0.11019514 -0.87726104 0.46719381 0.0066318926
-0.1365183 0.21453872 -0.36473039 0.084284469 -0.92733514 0.3646172 0.0017395926
-0.110357 0.21547736 -0.36379057 -0.081812173 -0.9423759 0.32439852 0.0013512769
-0.081017874 0.21110034 -0.36530259 -0.15151991 -0.92639005 0.34473619 0.00096260436
-0.074311011 0.21034281 -0.36493391 -0.19159663 -0.90154946 0.38794234 0.0040740585
0.045335941 0.21759179 -0.36763793 -0.57646298 -0.74937141 0.32578039 7.2465933e-05
-0.28323522 0.2228696 -0.36294025 0.57659632 -0.75124741 0.32119164 0
0.031887382 0.22814749 -0.36708227 -0.56275976 -0.76101792 0.32272783 0.00046903538
0.042771164 0.22107831 -0.36406657 -0.5768829 -0.75043356 0.32257643 4.1481842e-05
-0.26594767 0.23468743 -0.36634442 0.50733477 -0.79452783 0.33367175 0.0013639387
0.026820526 0.23336622 -0.36395234 -0.534666 -0.780303 0.32443735 0.001384792
0.032898493 0.2301241 -0.36060867 -0.55539787 -0.76950705 0.31526506 0.00089897285
-0.25602055 0.24145809 -0.36533809 0.42325547 -0.84224963 0.33387178 0.0010482733
-0.24841523 0.24461266 -0.36532623 0.4028036 -0.85347348 0.33065441 0.00088179595
-0.23548618 0.24897316 -0.36805108 0.36290368 -0.87363893 0.32412338 0
-0.0043492997 0.24840733 -0.36694741 -0.36577573 -0.87241518 0.32419106 0
0.0080240071 0.24361539 -0.3660346 -0.43392614 -0.83753204 0.33203638 0.0013793681
-0.23001598 0.2529729 -0.36330217 0.36261514 -0.87508529 0.32052472 3.9984789e-05
-0.22988907 0.25260559 -0.36445212 0.36265042 -0.87501162 0.32068583 0.00010746875
-0.21869053 0.25804788 -0.36225098 0.36286405 -0.87501705 0.32042912 2.8182905e-05
-0.024030454 0.25656426 -0.36693442 -0.35876334 -0.87620425 0.32179952 0
-0.20679359 0.26291731 -0.3624109 0.32993558 -0.88706106 0.3229011 0.00083980249
-0.18552001 0.26923746 -0.36347246 0.19727777 -0.92333561 0.32944319 0.0016184144
-0.067024179 0.26990688 -0.36551753 -0.13415419 -0.93605036 0.32528809 0.00017044992
-0.051065281 0.2672523 -0.36714455 -0.24385934 -0.91348141 0.32570571 0.0016631135
-0.036113147 0.26277569 -0.36362958 -0.35256881 -0.87706017 0.32628325 0.00010694229
-0.18032534 0.27020097 -0.36265066 0.1776517 -0.92763352 0.3285358 0.0014056208
-0.17293376 0.27086586 -0.36355668 0.12638015 -0.93826932 0.32199195 0
-0.14483437 0.27348498 -0.36673164 0.11222775 -0.94083816 0.31973189 0.00019792354
-0.13483007 0.2746996 -0.36703277 0.082196906 -0.94351423 0.32097441 0.00072874711
-0.1157334 0.27664661 -0.36455622 -0.029815318 -0.94569576 0.32368293 0.0017471666
-0.10659198 0.27565974 -0.36391968 -0.07282497 -0.93996495 0.33341038 0.00099208136
-0.096376628 0.27450663 -0.3633559 -0.12284484 -0.9392342 0.32054356 0
-0.12356295 -0.28164089 -0.35099089 -0.0087183425 0.94768959 0.31907406 0.001988274
-0.11448488 -0.28015912 -0.35374928 -0.059141044 0.94601667 0.31867683 0.0012743329
-0.1916637 -0.27146357 -0.35455221 0.24546604 0.91730642 0.31352091 0.0014596932
-0.17468432 -0.27394825 -0.35381943 0.13680667 0.93768746 0.31941536 0.0002207973
-0.16528071 -0.27506173 -0.35418558 0.12375043 0.93942082 0.3196471 0
-0.15585423 -0.27576303 -0.3557719 0.12372675 0.93939692 0.31972656 0
-0.12705626 -0.27853352 -0.35877225 0.049036324 0.94417268 0.32578102 0.0013738563
-0.10286845 -0.27785194 -0.35603556 -0.10541151 0.94119734 0.32099229 0.00019868203
-0.09461432 -0.27687407 -0.35571572 -0.12033311 0.94004542 0.31911513 0
-0.087730348 -0.27782956 -0.35024363 -0.12366946 0.93942428 0.31966841 0
-0.077195525 -0.27424413 -0.35670537 -0.12354206 0.9392302 0.32028744 0
-0.053818177 -0.27143526 -0.35591531 -0.2160836 0.91737884 0.33425134 0.0019824819
-0.21595217 -0.26025653 -0.3593083 0.35954905 0.87677914 0.31934735 4.5334691e-05
-0.2092199 -0.26306105 -0.35926467 0.33646744 0.8856675 0.31997296 0.00044524367
-0.19991395 -0.26922482 -0.35294026 0.27460134 0.90796351 0.31653827 0.0012673733
-0.040789474 -0.26865649 -0.35282809 -0.28140891 0.90347755 0.3233225 0.0015531429
-0.034517851 -0.26553777 -0.35425493 -0.3322767 0.88661689 0.32171845 0.00055575714
-0.026307942 -0.26253653 -0.35316086 -0.35217625 0.87887996 0.32177916 0.00015876394
-0.24184757 -0.250714 -0.35606632 0.37611732 0.86963135 0.31980789 0.00030669104
-0.23767886 -0.25432974 -0.35089248 0.3626731 0.8753975 0.31960514 0.00010147383
-0.22670078 -0.25699466 -0.35604805 0.36265695 0.87539649 0.3196263 4.7881844e-05
-0.21977136 -0.25954852 -0.3569147 0.36259466 0.87543565 0.31958961 2.332367e-05
-0.015092621 -0.25773984 -0.35357478 -0.36260897 0.8754006 0.31966946 0
-0.0064816261 -0.2544404 -0.35284257 -0.36260843 0.87541682 0.31962571 0
-0.25259569 -0.24776778 -0.35194209 0.40944207 0.84894747 0.33413374 0.0013322206
-0.27571499 -0.23033479 -0.35895437 0.55349571 0.76735884 0.32373288 0.00048235903
-0.26673082 -0.23889369 -0.3550382 0.51133204 0.79162264 0.33447447 0.0015717505
0.029034313 -0.23345502 -0.35974827 -0.55409682 0.76658905 0.32452741 0.00034593226
0.033443216 -0.23058978 -0.35853034 -0.57044637 0.7564919 0.31986082 1.2158189e-05
0.039056353 -0.22635165 -0.3583681 -0.57676142 0.75160122 0.32006544 0
0.042322896 -0.22561064 -0.35421574 -0.57683206 0.75169891 0.31970823 0
0.050064329 -0.22101322 -0.35105765 -0.57682568 0.75171185 0.31968972 0
-0.30169725 -0.21230653 -0.35446543 0.58970737 0.7431922 0.31608632 0.00022099665
-0.29525876 -0.21754131 -0.35377315 0.57685131 0.75171334 0.31964007 0
-0.18148731 -0.21193446 -0.35228357 0.28810656 0.90378928 0.31648007 0.0016534253
-0.17260335 -0.21281515 -0.35583314 0.2135988 0.91593575 0.33976045 0.0024502145
-0.1506643 -0.21581638 -0.35550135 0.1237424 0.9346025 0.33347562 0.00030467074
-0.14154971 -0.21871559 -0.35050693 0.1213235 0.94030941 0.31796041 7.8138997e-05
-0.13348046 -0.21887963 -0.35314715 0.10149189 0.93972015 0.32653549 0.00065202411
-0.12725429 -0.21737882 -0.35996756 0.051508769 0.93173045 0.35947901 0.0027805637
-0.1023808 -0.21760382 -0.3544541 -0.094316475 0.94102377 0.3249287 0.00039540403
-0.094256818 -0.21557368 -0.35727748 -0.12057871 0.93827468 0.3241933 5.5957091e-05
-0.088862985 -0.2143238 -0.35886392 -0.12310272 0.93245339 0.33967096 0.00070400181
-0.068364188 -0.21232447 -0.35680827 -0.21621822 0.91961592 0.32795775 0.0026713673
-0.059218235 -0.21037939 -0.35487628 -0.28349832 0.903633 0.32105485 0.0020860049
0.053514555 -0.2167612 -0.35483152 -0.57684076 0.75170875 0.31966954 0
0.060326621 -0.21145397 -0.35502005 -0.58374161 0.74517852 0.32242006 0.00014175431
-0.31425315 -0.20122263 -0.35787436 0.63799959 0.70395339 0.31209955 0.0011471043
-0.20071006 -0.20305172 -0.35480446 0.35385424 0.87864977 0.32056472 9.9939862e-05
-0.19224243 -0.2046939 -0.35991314 0.33708429 0.87662953 0.34335831 0.00091632543
-0.042812619 -0.20506001 -0.35083354 -0.3513352 0.87892425 0.32257676 0.00013716859
0.072951846 -0.20178907 -0.3549664 -0.63099647 0.70240188 0.32935551 0.0015514651
-0.32336861 -0.19392045 -0.35402262 0.69494057 0.64371085 0.32045889 0.0019956746
-0.22665574 -0.19209462 -0.35537982 0.41855359 0.84568948 0.3310926 0.0017223157
-0.21348283 -0.19633928 -0.35869855 0.37358165 0.86448723 0.33630139 0.00076442934
-0.20981187 -0.19859996 -0.35667148 0.37012079 0.86741614 0.33256555 0.00074325158
-0.026065843 -0.19622289 -0.35603848 -0.38302255 0.86367381 0.3276605 0.00040079185
-0.0099522769 -0.19083524 -0.35187325 -0.46594846 0.81671917 0.34038481 0.0018094465
0.079005845 -0.19728044 -0.35310563 -0.68459189 0.65609336 0.3176088 0.0023583861
0.080076419 -0.19357952 -0.35726672 -0.6952523 0.64309329 0.32102233 0.0027589914
-0.32749322 -0.18798311 -0.35503685 0.72165358 0.60987639 0.32751632 0.00097333523
-0.24045733 -0.18114445 -0.35980335 0.55629575 0.75670838 0.34340581 0.00069929333
-0.23544089 -0.18837497 -0.35185075 0.48866576 0.80632281 0.33324051 0.0021565871
-0.0080535747 -0.187507 -0.35627446 -0.48956427 0.80196553 0.34231281 0.0016684581
0.087512605 -0.18757361 -0.35061619 -0.74067026 0.5924167 0.31693858 0.00018727101
-0.25377554 -0.17108689 -0.35942256 0.57429552 0.74509549 0.33914226 0.00025367227
0.01523965 -0.17206916 -0.35054591 -0.57987279 0.74828207 0.32221335 4.8004153e-05
0.094084196 -0.17633979 -0.35543394 -0.75173748 0.57682604 0.31962866 3.963039e-06
-0.34303957 -0.16667721 -0.35692367 0.75171232 0.57684845 0.3196474 2.2051243e-05
-0.25824594 -0.16912453 -0.3559702 0.57624209 0.74580652 0.3342419 0.00025519266
0.019512333 -0.16678387 -0.35526562 -0.58533394 0.73679763 0.33839852 0.0004786044
0.022840381 -0.16270791 -0.35884586 -0.59872371 0.72141004 0.34799063 0.0010891056
-0.35486618 -0.1532544 -0.35333252 0.77382272 0.54226905 0.32732669 0.00098003959
-0.34922171 -0.15804832 -0.35795641 0.75697708 0.56850863 0.32215476 0.00017943358
-0.27185225 -0.15913041 -0.35492039 0.64718336 0.68748754 0.32941559 0.0012577126
0.035444584 -0.15257628 -0.35776338 -0.67046279 0.66295755 0.33311707 0.0026127615
0.11136429 -0.15137064 -0.35985413 -0.77767527 0.53196532 0.33501336 0.0011611206
-0.36285174 -0.14140482 -0.35593596 0.81183642 0.48644918 0.32293779 0.0021133898
-0.35825059 -0.14750873 -0.35574186 0.78031665 0.53583741 0.32246569 0.0010604034
-0.28495744 -0.14582925 -0.3526803 0.71934617 0.61696768 0.31920525 0.00097456091
0.1152899 -0.14701915 -0.35847461 -0.79773569 0.50445539 0.33036706 0.0016251993
-0.36615106 -0.13446338 -0.35599563 0.82868487 0.457344 0.32267302 0.0020682695
0.052787501 -0.13311304 -0.35209936 -0.7507149 0.57506323 0.32516083 4.1174062e-05
-0.36730829 -0.12960166 -0.35834154 0.85577601 0.40607494 0.32054722 0.0012014458
-0.29853591 -0.12698203 -0.35475823 0.76248437 0.56106281 0.32222056 0.00037592347
0.059439141 -0.12315966 -0.35441798 -0.75442493 0.5667786 0.33106661 0.00031511587
0.061280832 -0.12148738 -0.35310447 -0.77741003 0.53243947 0.33487594 0.0013593136
0.1270339 -0.12839524 -0.35450622 -0.84954113 0.41604617 0.32432321 0.0012270411
0.13053352 -0.12307084 -0.35096163 -0.86453968 0.38962916 0.31742737 0.00046240067
-0.37391403 -0.11542089 -0.35633701 0.87469649 0.36450356 0.31944212 0
-0.30355012 -0.11944 -0.35657629 0.7774061 0.53524512 0.33038238 0.0012351758
0.065039292 -0.11559519 -0.35489845 -0.7980209 0.50499433 0.32885143 0.0019624839
0.070095658 -0.11147305 -0.35044545 -0.81785709 0.48354164 0.31192517 0.0023204486
0.13298799 -0.115251 -0.35311064 -0.87541258 0.36263108 0.31961137 0
-0.38038686 -0.1010986 -0.35485715 0.87536716 0.36265299 0.31971085 0.00010311761
-0.31452331 -0.10213152 -0.35560486 0.84290433 0.42960984 0.3239564 0.0019881758
0.07241261 -0.10461123 -0.35261711 -0.83405912 0.45805326 0.30746159 0.0022267408
-0.31839535 -0.09448757 -0.3536717 0.86201215 0.38718638 0.32714161 0.00077518506
0.07626088 -0.096372038 -0.3514244 -0.8627395 0.40464655 0.30321881 0.0010114908
-0.3888877 -0.081631295 -0.35365975 0.891868 0.31555316 0.32403344 0.0015349457
-0.32534879 -0.080451488 -0.35055068 0.87589139 0.35960442 0.3217127 4.2035514e-05
0.14400312 -0.087574504 -0.35433996 -0.88479906 0.34202319 0.316466 0.00046174644
-0.32879877 -0.071428522 -0.35133797 0.8857944 0.33994868 0.31591654 0.00084849121
0.082132004 -0.075429603 -0.3591029 -0.86618751 0.35443142 0.35227478 0.0013677627
0.14795399 -0.076518588 -0.35605469 -0.91348541 0.26354843 0.30997831 0.0023291248
-0.39471135 -0.064362705 -0.35060632 0.92550671 0.17730649 0.33466363 0.0010324558
-0.3320933 -0.064090088 -0.35064003 0.90076274 0.29712513 0.31676993 0.0013932124
0.1517981 -0.064443871 -0.35274652 -0.92232549 0.19668147 0.33261421 0.0018315153
-0.33205968 -0.059561253 -0.35587001 0.90614527 0.27414349 0.32209638 0.0021101709
0.092256375 -0.053223252 -0.3536194 -0.92315 0.22719836 0.31012103 0.0017118367
-0.39636642 -0.042657923 -0.35414052 0.93940461 0.12366236 0.31972888 2.7334705e-05
0.15397727 -0.044233881 -0.35416174 -0.93941158 0.12369075 0.31969738 0
-0.39694053 -0.036682434 -0.35476539 0.93942904 0.12367089 0.31965366 0
-0.33701259 -0.034021251 -0.35346127 0.93496907 0.12742059 0.33105412 0.00026957021
0.095234767 -0.036460288 -0.35135186 -0.93926346 0.13559856 0.31527326 0.00020248664
-0.33756766 -0.023772744 -0.35579547 0.93675905 0.11421777 0.33081242 0.00029556951
0.095134571 -0.020143624 -0.35796005 -0.93786383 0.1095098 0.32927042 0.00051628135
0.15644296 -0.024720982 -0.35446516 -0.93946505 0.1237045 0.31953505 2.8351053e-05
-0.40157577 -0.013539381 -0.35009664 0.9448117 0.080073565 0.31767774 0.00081203145
-0.33798504 -0.014603071 -0.35811698 0.94206274 0.077918008 0.32626155 0.00095315347
0.15697809 -0.015629863 -0.35641021 -0.94070816 0.10838129 0.32143691 0.00027873917
-0.40164518 -0.0027853881 -0.35405394 0.94181466 0.0079144062 0.3360393 0.0011883887
-0.33899343 -0.0045211157 -0.35905433 0.94371116 0.039810136 0.32836628 0.0013965078
0.098046817 -0.0060070003 -0.35487059 -0.94856918 0.030797087 0.31506842 0.0023424877
-0.40208498 0.0074781589 -0.35094541 0.94644189 -0.05123619 0.31878304 0.0017227413
-0.39952329 0.006852 -0.35871699 0.9438327 -0.043186247 0.32758936 0.0014945143
-0.34006953 0.0096908398 -0.35389099 0.93970686 -0.072051629 0.33430466 0.0013080962
0.098885871 0.0045296252 -0.35297614 -0.94519436 -0.032208908 0.32491568 0.0018098828
-0.39982301 0.017992308 -0.35352534 0.94069666 -0.10509141 0.32256088 0.00034204702
-0.33935243 0.017511053 -0.35297269 0.93967998 -0.10407913 0.32583609 0.00020734075
0.096011817 0.017867465 -0.35626245 -0.93645227 -0.1062994 0.33430165 0.00048716576
-0.3364706 0.025672903 -0.35828468 0.93927246 -0.12172529 0.32085842 0
0.09578608 0.020266222 -0.35599771 -0.93679971 -0.10736881 0.33298385 0.00046221478
-0.39690009 0.031400327 -0.35692808 0.93919897 -0.12387414 0.32025075 0
-0.33461186 0.035756961 -0.35984576 0.93496227 -0.13626242 0.32753342 0.00046625451
0.15611531 0.033790249 -0.35191882 -0.93943858 -0.12367892 0.31962267 0
0.093643241 0.044261973 -0.35301074 -0.93169773 -0.16574349 0.32321575 0.0010504986
0.15262026 0.043004192 -0.35862607 -0.93944806 -0.12367138 0.31959805 5.7418447e-07
-0.39517897 0.055975039 -0.35247764 0.93789124 -0.15274373 0.3114953 0.00065105723
-0.33359283 0.056437466 -0.35453597 0.91008866 -0.24409884 0.3348946 0.0020056404
0.089977652 0.058928907 -0.35633436 -0.9036181 -0.27559856 0.32790184 0.0021723951
0.09107364 0.053750817 -0.35689151 -0.91609508 -0.22151583 0.33421651 0.0022906808
0.15202405 0.055166464 -0.35567227 -0.938564 -0.13584615 0.31724346 0.0001256719
-0.32794923 0.068946868 -0.35648024 0.8796981 -0.33529434 0.33720762 0.000844097
0.0874293 0.064624295 -0.35685262 -0.89717215 -0.29501581 0.32870641 0.0016875516
0.084276728 0.07456743 -0.35420689 -0.8785975 -0.34823343 0.32680231 0.00021749212
0.14794886 0.075473569 -0.3572613 -0.91308379 -0.25693479 0.31664249 0.0021209749
-0.3880786 0.082118213 -0.35532328 0.8952325 -0.3044365 0.32538778 0.0013627904
-0.3192547 0.087782443 -0.35892496 0.86916792 -0.37349221 0.32411522 0.0002466116
0.078349456 0.085841745 -0.35765046 -0.87104154 -0.35835499 0.33595902 0.00037899351
0.080637641 0.082834609 -0.35479492 -0.87382507 -0.36166587 0.32500401 7.0598056e-05
0.14481814 0.084932223 -0.35510534 -0.88699067 -0.33084935 0.32215872 0.0010082998
-0.38565689 0.091712542 -0.35107142 0.87850261 -0.35358417 0.32126516 6.0243212e-05
0.075161293 0.094070241 -0.35704738 -0.86684656 -0.38153607 0.3209475 0.00059500342
0.14246365 0.092380121 -0.35310447 -0.8798244 -0.35029793 0.3212482 0.00027567672
-0.37881878 0.10309868 -0.35688287 0.87538558 -0.36259809 0.31972283 0
0.07107079 0.1025954 -0.35857913 -0.82750505 -0.43358609 0.35670504 0.0016887233
0.13563919 0.10769404 -0.35442254 -0.87541491 -0.36261356 0.31962505 2.5371246e-05
-0.37386084 0.11603854 -0.35578203 0.87541044 -0.36266175 0.31958282 3.0114017e-05
-0.30795756 0.11673062 -0.35109988 0.787247 -0.53006411 0.31507808 0.0013576378
0.13235599 0.11729335 -0.35252455 -0.87502885 -0.363592 0.31957072 0
-0.3684485 0.12831417 -0.35667926 0.85724682 -0.40686774 0.31557322 0.00090813841
0.057486292 0.12277575 -0.35970384 -0.75282145 -0.54759926 0.36523262 0.0016930264
0.12597787 0.1265354 -0.35950857 -0.86572009 -0.38770109 0.31656989 0.00058590673
-0.28992856 0.13592738 -0.35885841 0.74207532 -0.58043742 0.33528581 0.00020535161
-0.36184651 0.14561377 -0.35070425 0.79913157 -0.50929332 0.31938857 0.0020417923
-0.35726297 0.14867298 -0.3559635 0.780505 -0.5324772 0.32753605 0.0011593247
-0.28514004 0.146018 -0.35191014 0.72798061 -0.6045149 0.32342857 0.00098910986
0.038927518 0.14976318 -0.35464859 -0.71003383 -0.62085658 0.33224839 0.0010856793
0.042156924 0.1455531 -0.35465118 -0.72120821 -0.60889459 0.33031207 0.00097921619
0.11394902 0.14842343 -0.3590939 -0.78784829 -0.52214038 0.32659522 0.0011659286
-0.277917 0.15424386 -0.35360754 0.67327416 -0.66071969 0.33189049 0.0018109223
0.031672765 0.15696202 -0.35641998 -0.65390199 -0.68120569 0.32919729 0.0023638583
-0.34556559 0.16568524 -0.35277289 0.75173604 -0.57685286 0.31958371 1.3757392e-05
0.023279564 0.16255021 -0.35842422 -0.61257654 -0.71713895 0.33235788 0.0016357815
0.10424173 0.16548347 -0.35113651 -0.75170219 -0.57686269 0.31964549 0
-0.33760047 0.17328897 -0.35778388 0.75151163 -0.57684064 0.32013303 0
0.0052228044 0.17760831 -0.35559562 -0.56562352 -0.75693697 0.32728663 0.000202283
0.012803337 0.17184305 -0.3554745 -0.57383758 -0.75090516 0.326882 6.2063111e-05
0.096826218 0.17500214 -0.35139892 -0.75175625 -0.57680696 0.31961915 1.1616606e-06
-0.23386322 0.18877465 -0.35375798 0.49483609 -0.80698395 0.32235703 0.0019953048
-0.011847097 0.18957944 -0.35810319 -0.46030051 -0.82307738 0.33266667 0.0029501109
-0.0047013951 0.18443057 -0.35746029 -0.52643907 -0.77708519 0.34496456 0.0013602868
0.087982662 0.18562934 -0.35301948 -0.73519903 -0.59957039 0.31622437 0.0006264649
-0.32322049 0.19460094 -0.35314283 0.70236105 -0.62831032 0.33453703 0.00097731256
-0.22210085 0.19464618 -0.35355875 0.39828974 -0.86017406 0.31853706 0.0011528244
-0.21593395 0.1963844 -0.35579422 0.38128886 -0.86626542 0.32280493 0.00046424984
-0.030893287 0.19999549 -0.35118243 -0.36704171 -0.87474775 0.31638068 3.8019662e-05
-0.025147965 0.19596156 -0.35571289 -0.38676476 -0.86302018 0.32497579 0.00092565286
-0.012810528 0.19264314 -0.35080507 -0.4488622 -0.83850282 0.30892661 0.0020552471
-0.30660325 0.20798737 -0.35576996 0.58814907 -0.7426281 0.32028747 0.00015700611
-0.20622952 0.20033355 -0.35598749 0.36120549 -0.87269264 0.32853964 0.00015757031
-0.057248633 0.20931046 -0.35556951 -0.29465359 -0.89633656 0.33130062 0.0019832768
-0.042928372 0.20485179 -0.3515352 -0.35722637 -0.87840456 0.3174817 2.9696801e-05
0.066443481 0.20642723 -0.35580343 -0.61681247 -0.72185028 0.31380659 0.0010410916
-0.29519749 0.21762203 -0.35369387 0.57688826 -0.75167513 0.31966305 0
-0.1769172 0.2138347 -0.35116723 0.24087243 -0.91791677 0.31529236 0.0018373808
-0.16194743 0.21366738 -0.35745153 0.14212434 -0.93065166 0.33717665 0.00062910753
-0.1568462 0.21383692 -0.35892725 0.1293056 -0.93308073 0.33561939 0.000316288
-0.14935741 0.21675944 -0.35323519 0.12380916 -0.94007283 0.31770164 0
-0.11186116 0.2178542 -0.35738665 -0.077000402 -0.94185311 0.32708383 0.00094929285
-0.10177153 0.21805997 -0.35287768 -0.10737824 -0.94123101 0.32024068 0.00017630561
-0.085380644 0.21495444 -0.35566294 -0.14158119 -0.93217534 0.33317259 0.00068247091
-0.067498267 0.21166278 -0.35841811 -0.24148846 -0.91626525 0.31959555 0.0020784664
-0.059967786 0.21001273 -0.35673088 -0.2867693 -0.89868474 0.33185706 0.0019786612
0.056030329 0.2138232 -0.35720125 -0.57712233 -0.75142628 0.3198255 2.3029534e-06
0.063144088 0.2102937 -0.3526642 -0.58077663 -0.74740499 0.32262087 2.1994436e-05
-0.12206145 0.22076046 -0.35203761 0.015753914 -0.944646 0.32771286 0.0018474101
0.035132475 0.22901645 -0.35918206 -0.57634342 -0.75174582 0.3204785 4.4124907e-05
0.045840677 0.22191803 -0.356552 -0.57685083 -0.75167155 0.31973889 0
-0.26660708 0.23851214 -0.35615888 0.49097472 -0.81052864 0.31935427 0.0018389109
0.032631237 0.23186678 -0.35699233 -0.55345654 -0.77000624 0.31745276 0.00071612897
-0.26621217 0.24087134 -0.35132295 0.48834136 -0.80958277 0.3257274 0.0021423155
-0.25648683 0.24392144 -0.35806224 0.42264891 -0.84178293 0.33581156 0.0010473019
-0.24897286 0.24860689 -0.35375386 0.39975929 -0.85972631 0.31790435 0.00071614113
0.0097173955 0.24685021 -0.3552537 -0.41701937 -0.84666985 0.3305223 0.0018035403
0.019297024 0.24240261 -0.35627705 -0.4559741 -0.8218345 0.34157825 0.0016876298
-0.24031217 0.25142306 -0.35586613 0.37788326 -0.86916065 0.31900474 0.00026233197
-0.23583385 0.25450125 -0.35251591 0.36275852 -0.87543303 0.31941065 9.1777947e-05
-0.22614233 0.25787506 -0.35427031 0.36262217 -0.87543279 0.31956601 5.6310317e-05
-0.023476481 0.25984585 -0.3573181 -0.36118752 -0.87585282 0.32003981 3.283747e-05
-0.015441244 0.25787967 -0.35358736 -0.36264852 -0.87542075 0.31956938 4.130018e-05
-0.0050042779 0.25371209 -0.35316133 -0.3631219 -0.87518334 0.31968218 1.878767e-05
-0.2061646 0.2658813 -0.35500658 0.32084954 -0.88943106 0.32552725 0.001257991
-0.19387449 0.26939082 -0.35933727 0.24803688 -0.91395122 0.32120213 0.0019386068
-0.049808867 0.26973763 -0.3593536 -0.26646385 -0.90483797 0.33206221 0.0021944018
-0.037564054 0.26709694 -0.35344028 -0.31126967 -0.89489394 0.31980622 0.0019240022
-0.027542461 0.26306823 -0.35310516 -0.35957637 -0.87612152 0.32111669 4.9993196e-06
-0.19473284 0.27038699 -0.35563511 0.24731946 -0.9123565 0.32624936 0.0021668747
-0.17732948 0.27310774 -0.35526636 0.15099224 -0.93559498 0.31916049 0.00071525271
-0.16522181 0.27485487 -0.35481638 0.12568527 -0.93909055 0.31986254 0
-0.15593909 0.27608183 -0.35480207 0.1236935 -0.93936843 0.31982321 0
-0.14721142 0.27671936 -0.35630536 0.11855673 -0.94018209 0.31937742 0
-0.13442343 0.27827877 -0.35667029 0.074010663 -0.94444722 0.32022157 0.00087966194
-0.1128265 0.278844 -0.35697293 -0.049403589 -0.94239652 0.33082938 0.0010936614
-0.1012267 0.27696556 -0.35800552 -0.1218032 -0.93991768 0.31893393 0
-0.092105508 0.2776863 -0.35235766 -0.12363769 -0.93942791 0.31966996 0
-0.064156495 0.27285475 -0.35574353 -0.15693554 -0.93492264 0.31826219 0.00070792733
-0.11811595 0.28016633 -0.35513321 -0.0052223047 -0.94507265 0.32681867 0.0018464774
-0.16293147 -0.28009832 -0.34029108 0.1237324 0.93941176 0.31968105 0
-0.14312667 -0.28155512 -0.34367278 0.11289499 0.94110018 0.31872445 0.00018191544
-0.12380078 -0.28372002 -0.34466472 0.0016244596 0.94860339 0.31646302 0.0023029998
-0.11728237 -0.28264657 -0.34752083 -0.040043958 0.94361961 0.32860085 0.0021922709
-0.10603352 -0.28279251 -0.34273905 -0.095689103 0.94201863 0.32162768 0.00045900405
-0.095870435 -0.28079781 -0.34466919 -0.1177442 0.94018137 0.31968004 2.9112167e-05
-0.1907346 -0.27412593 -0.34708664 0.22722565 0.92337447 0.30943191 0.0014555142
-0.18176937 -0.27672669 -0.34291163 0.13986176 0.93675172 0.32083482 0.00021779012
-0.17322853 -0.27725524 -0.34466296 0.13978639 0.93674576 0.32088488 0.00019881752
-0.091265351 -0.27890962 -0.34843704 -0.12368052 0.93941349 0.31969562 0
-0.083785102 -0.27909362 -0.3450017 -0.12370586 0.93936247 0.31983602 0
-0.076210834 -0.27917498 -0.34183174 -0.12367638 0.939417 0.31968698 0
-0.065907262 -0.27650073 -0.34570479 -0.13954668 0.93564016 0.32419795 0.00032532727
-0.05447723 -0.27639911 -0.34158066 -0.19877797 0.9292565 0.31139955 0.0016172096
-0.045299575 -0.27404869 -0.34249246 -0.25937763 0.91098744 0.3206636 0.0016826425
-0.22474614 -0.2635546 -0.34029862 0.36263445 0.87541246 0.31960809 5.9397109e-05
-0.21612422 -0.26623833 -0.34272975 0.35413516 0.87867504 0.32018512 9.3464594e-05
-0.036423735 -0.26962242 -0.34522966 -0.31402913 0.89538759 0.3157005 0.00094845321
-0.22873542 -0.2588878 -0.34855476 0.36264566 0.87538844 0.31966108 0
0.0094641335 -0.25158074 -0.34258467 -0.41756782 0.8441655 0.33618706 0.0014055063
0.010409228 -0.25113568 -0.34273148 -0.41756782 0.8441655 0.33618706 0.0014055063
-0.25980875 -0.24562252 -0.34963459 0.4531891 0.82756793 0.33128685 0.0018056786
0.01862341 -0.24672046 -0.34550542 -0.45571378 0.82594806 0.33186546 0.001154423
-0.28518033 -0.23089045 -0.34056544 0.57685286 0.75168669 0.31969982 7.2910098e-06
-0.27187145 -0.23738019 -0.34932053 0.54745108 0.77226269 0.32234699 0.00049761951
0.029298384 -0.23799029 -0.34860504 -0.53055185 0.78861099 0.31081733 0.00091594143
-0.28747505 -0.22917831 -0.34045097 0.57681519 0.75171357 0.3197045 1.8535591e-05
-0.14375508 -0.22011341 -0.34554502 0.12136095 0.93981898 0.31939268 0.00011703475
-0.13490808 -0.22165072 -0.34445003 0.12059464 0.93967873 0.32009518 1.2837732e-05
-0.12993354 -0.22082463 -0.34880298 0.070467688 0.94235194 0.32711923 0.0016694907
-0.11940868 -0.22198778 -0.34815782 -0.025223678 0.94547063 0.32472911 0.0019439205
-0.097272351 -0.22065777 -0.34350133 -0.11757095 0.94085729 0.31774947 8.2224389e-05
-0.30218589 -0.21610776 -0.34464335 0.57689345 0.7517153 0.31955919 0
-0.18697318 -0.21381599 -0.34090671 0.29653072 0.89930791 0.32142621 0.001846585
-0.17656349 -0.2152586 -0.34679312 0.23533919 0.92071491 0.31128693 0.0024807525
-0.16672833 -0.2177913 -0.34348068 0.14683615 0.93639284 0.3187592 0.00046921789
-0.15847895 -0.21781197 -0.34661201 0.14012611 0.93897295 0.31415674 0.00035598947
-0.14975308 -0.21833943 -0.3484382 0.12428147 0.93941325 0.31946319 1.0430418e-05
-0.092520252 -0.21894352 -0.34670097 -0.12376819 0.93957549 0.3191855 3.7052843e-05
-0.08394178 -0.2196293 -0.34136581 -0.14652085 0.93626684 0.31927425 0.00050915719
-0.079257503 -0.21742986 -0.34601781 -0.14759329 0.93744969 0.31528446 0.0006434549
-0.065181538 -0.21660505 -0.34299538 -0.21993783 0.92778152 0.30141139 0.0025676754
-0.057602756 -0.21201293 -0.34856951 -0.29039937 0.90685052 0.3054347 0.0015933644
-0.048956379 -0.21033184 -0.34336466 -0.33419377 0.88486338 0.3245478 0.0004446292
0.062371433 -0.21217628 -0.34963089 -0.58382404 0.74511701 0.32241312 0.00015999138
-0.21024725 -0.20403311 -0.34129679 0.36765829 0.87331921 0.3195948 5.6591663e-05
-0.20691937 -0.20471461 -0.3432056 0.36463374 0.87446082 0.31993821 1.8597948e-05
-0.036034185 -0.20413375 -0.34568048 -0.36359495 0.87500417 0.31963462 0
-0.026439874 -0.20046721 -0.34483811 -0.38179982 0.86555463 0.32410488 0.00045495926
0.07958357 -0.20111929 -0.34457344 -0.66211885 0.67741901 0.32047188 0.0016809115
-0.23410323 -0.19217569 -0.34495726 0.44513229 0.83484012 0.32388133 0.0021025818
-0.22413279 -0.19841345 -0.3409355 0.37945232 0.86823314 0.31966734 0.00018245449
-0.33078435 -0.18837857 -0.34658274 0.73588681 0.59195709 0.32872105 0.0005921516
-0.0024252809 -0.18613535 -0.34934309 -0.50773501 0.79339796 0.33574507 0.001787029
-0.34046966 -0.17775577 -0.34297448 0.75174028 0.57680947 0.31965208 2.6455929e-05
-0.33756536 -0.17914264 -0.34730232 0.75170457 0.57682866 0.31970143 1.17437e-05
-0.26541302 -0.17039695 -0.34004313 0.59587735 0.739443 0.31329578 0.00027745604
-0.25929561 -0.17362311 -0.34349549 0.58266723 0.7475673 0.31881359 0.00015674207
0.011219865 -0.17939618 -0.34056777 -0.57278883 0.7553609 0.31834388 8.7109838e-05
0.098719887 -0.1777617 -0.34196502 -0.75170785 0.57685095 0.31965318 0
0.1026115 -0.17178768 -0.34359354 -0.75174063 0.57683742 0.31960076 2.0063226e-06
-0.27166617 -0.16375163 -0.34438741 0.64524198 0.69430166 0.31875992 0.0017185354
-0.2662611 -0.16759765 -0.34509641 0.60903317 0.72434676 0.3231104 0.00084588258
0.028370442 -0.16441186 -0.34485817 -0.61080223 0.72119731 0.32679519 0.0012500203
0.11119497 -0.16020146 -0.34431541 -0.75825524 0.56949514 0.31737089 0.00018548527
-0.36193672 -0.15063773 -0.34142536 0.79098833 0.52431464 0.31532773 0.0017354741
-0.35479388 -0.15696143 -0.34681255 0.75521147 0.57097584 0.32193521 0.00024087672
-0.28230214 -0.15469952 -0.34291714 0.68768823 0.65436786 0.31446391 0.0018983516
-0.2747477 -0.15960322 -0.34858292 0.64899296 0.68653286 0.32784247 0.0014285316
0.035280213 -0.15823233 -0.34692198 -0.65242267 0.68829411 0.31716841 0.0020643163
0.11309565 -0.1546497 -0.34986442 -0.76153606 0.56263351 0.32172421 0.00033180372
-0.3675521 -0.14360233 -0.3409152 0.80480963 0.50920111 0.30495194 0.0013883971
-0.29013303 -0.14534235 -0.34138635 0.73507071 0.5940116 0.32683516 0.00051429291
-0.28839093 -0.143768 -0.34832492 0.73435217 0.59851503 0.32016668 0.00055319292
0.043485228 -0.14683749 -0.34920913 -0.72703385 0.61264312 0.30998412 0.0011017146
0.11795478 -0.14854042 -0.3494615 -0.80213791 0.50534964 0.31811419 0.0016561996
0.1226437 -0.14497827 -0.3448621 -0.82054895 0.4782024 0.31308463 0.0012393524
-0.37218171 -0.13091272 -0.34350652 0.85367352 0.41420254 0.31571785 0.0015581058
-0.29876906 -0.13373232 -0.34202754 0.75182015 0.57683724 0.3194139 5.2555086e-05
0.05794514 -0.13093129 -0.34390634 -0.75167698 0.57686412 0.31970215 0
0.12782907 -0.13601355 -0.34368554 -0.83727098 0.45054948 0.30981043 0.0015678392
-0.30321738 -0.12631552 -0.34495065 0.76722556 0.55534285 0.32087272 0.00047812451
0.0575638 -0.12929608 -0.3477543 -0.75774401 0.56637222 0.32410878 0.00030120873
