# .PCD v0.7 - Point Cloud Data file format
VERSION 0.7
FIELDS x y z normal_x normal_y normal_z curvature
SIZE 4 4 4 4 4 4 4
TYPE F F F F F F F
COUNT 1 1 1 1 1 1 1
WIDTH 586
HEIGHT 1
VIEWPOINT 0 0 0 1 0 0 0
POINTS 586
DATA ascii
-0.22865577 0.32994708 -0.14678282 0.36286163 -0.9318369 -0.0033714508 0.0859458
-0.0073988554 0.32529759 -0.14363739 -0.34679577 -0.93652719 0.051473115 0.076226451
0.056034163 0.329142 -0.14247763 -0.41608828 -0.90475488 -0.091044322 0.08400175
0.066649966 0.32414576 -0.14782932 -0.51027364 -0.85978401 0.019806916 0.15408069
-0.29990035 0.33087513 -0.1428199 0.47729304 -0.84374094 -0.24554549 0.1487027
-0.28199551 0.33824116 -0.1456309 0.30809361 -0.90840393 -0.28263167 0.20507444
-0.27868551 0.33960289 -0.14420187 0.20346434 -0.93532944 -0.28941497 0.19317514
-0.22544672 0.33126727 -0.14776424 0.33484152 -0.93658692 -0.10337331 0.15979975
-0.21724465 0.33464158 -0.14705791 0.29742646 -0.94211298 0.15479222 0.23364855
-0.051807642 0.33846945 -0.14680409 -0.1374373 -0.99041498 -0.013756284 0.12111599
-0.04545828 0.33761799 -0.14458191 -0.32343459 -0.94218135 -0.087660648 0.12547961
-0.038372219 0.33666775 -0.14637792 -0.21497183 -0.96720749 -0.13526556 0.15468355
-0.020326633 0.33068895 -0.14967999 -0.36895975 -0.9294427 -0.0021986777 0.12473071
0.035497524 0.33770651 -0.14431566 -0.1584793 -0.90962487 0.38401404 0.19026634
0.043689251 0.33429027 -0.14011113 -0.31297123 -0.94658774 0.077592626 0.086875476
0.052449312 0.33063701 -0.14186954 -0.44066802 -0.89476204 -0.07219848 0.065859422
-0.27519786 0.34103769 -0.14773419 0.42641509 -0.76971281 -0.47509196 0.28860232
-0.25810483 0.3480697 -0.14695899 0.47588813 -0.87902373 -0.029115325 0.10067998
-0.16619137 0.34242225 -0.141736 0.13663702 -0.99060738 -0.0052211243 0.079003587
-0.15020344 0.34448791 -0.14065693 0.1916853 -0.98138851 0.011551852 0.17291908
-0.14419045 0.34526485 -0.14550808 0.18064928 -0.96597469 0.1850912 0.20190744
-0.12836155 0.34731004 -0.1445587 0.5137549 -0.73647964 0.44006097 0.2091931
-0.1102279 0.3463037 -0.14185095 -0.29113975 -0.95654678 0.015997147 0.22221854
-0.094352864 0.34417486 -0.14481491 -0.18509769 -0.9826079 -0.01484929 0.081146792
0.013975689 0.34668189 -0.14535367 -0.53085536 -0.82072115 0.21120949 0.20406151
0.027031062 0.34123731 -0.1402525 -0.3230086 -0.93255812 0.16124779 0.25073037
-0.23274989 0.35850066 -0.1446216 0.38553882 -0.9189176 0.083368979 0.18913734
-0.017218882 0.35969111 -0.14063466 -0.39801973 -0.91697776 -0.027057815 0.13184173
-0.0085946145 0.35609448 -0.14151703 -0.50252324 -0.86415881 0.026455298 0.19062603
-0.22485475 0.3617487 -0.14387572 0.29314256 -0.95516551 0.041549481 0.07541465
-0.21489991 0.3643252 -0.14260942 0.22864331 -0.97350878 -0.0016903974 0.002108122
-0.20128149 0.36608478 -0.14617996 0.17605439 -0.98270899 -0.057340957 0.17127639
-0.18352132 0.36837947 -0.14557585 0.15105295 -0.9871183 0.05272929 0.063831948
-0.17761613 0.36914244 -0.14948645 0.1852425 -0.97659552 0.1092995 0.13279504
-0.073432542 0.36958361 -0.14255315 -0.198008 -0.97737509 0.074370019 0.10655534
-0.061456695 0.36797765 -0.14705282 -0.31306165 -0.94558638 -0.088649511 0.21451326
-0.048402578 0.36622703 -0.14388269 -0.072474748 -0.98661059 -0.14610614 0.23416814
-0.031633135 0.36397827 -0.14954212 -0.1871686 -0.98090732 0.052809227 0.15345559
-0.16759878 0.37043673 -0.14468542 0.13804343 -0.99002641 -0.028138014 0.065115362
-0.15720098 0.37178019 -0.14233956 -0.10805094 -0.99104363 0.078470133 0.20899189
-0.14607272 0.373218 -0.14595935 0.2385167 -0.97089887 0.021566378 0.16435523
-0.13509083 0.37463689 -0.14429338 0.013556837 -0.99647546 -0.082781605 0.14109839
-0.12430069 0.37603104 -0.14550304 0.02022367 -0.99964583 -0.017296506 0.088057756
-0.1121913 0.37478125 -0.14459407 -0.16167568 -0.9864192 -0.028951805 0.17703502
-0.10573829 0.37391582 -0.14526893 -0.11669184 -0.9918015 -0.052083436 0.13965201
-0.095547415 0.37254927 -0.14903688 -0.1138292 -0.99290985 -0.034248311 0.1290943
-0.14941488 -0.37289906 -0.13843656 0.079865068 0.99238259 -0.093799874 0.15516892
-0.13641083 -0.37464291 -0.13546583 0.099297509 0.99226576 -0.074489534 0.12622556
-0.12699331 -0.37590584 -0.13521557 0.0069217617 0.99959844 0.027476663 0.062876217
-0.1197522 -0.3755765 -0.13545987 -0.016736604 0.99129033 0.13062674 0.12451175
-0.10214615 -0.37330171 -0.13153951 -0.17677084 0.98000222 -0.091366008 0.17320885
-0.094739653 -0.37234473 -0.13495778 -0.22263874 0.96667391 0.12638706 0.18558098
-0.078699708 -0.37027231 -0.13233355 -0.54485387 0.83645159 0.059016 0.19748247
-0.22591211 -0.36154267 -0.13184714 0.33065945 0.94071126 0.075675361 0.11869311
-0.21494883 -0.36411086 -0.13714975 0.30939168 0.95036721 0.032848667 0.12743281
-0.20500347 -0.36544454 -0.1338806 0.0045065591 0.99639833 -0.084676176 0.14165765
-0.19504327 -0.36678022 -0.13366944 -0.5547961 0.69653594 -0.45501515 0.23055023
-0.17612292 -0.36931744 -0.13595609 0.023578722 0.98767167 0.15475373 0.14229582
-0.074001148 -0.36966524 -0.13251205 -0.60504603 0.78517669 -0.13197286 0.19102049
-0.25093389 -0.35110772 -0.13210128 0.44658539 0.89345843 -0.047890108 0.085229985
-0.24278972 -0.35450411 -0.13062641 0.33472356 0.94170636 -0.033900581 0.13504954
-0.23710191 -0.35687613 -0.1364529 0.32499292 0.94571543 0.0013437268 0.074440658
-0.014289212 -0.35828191 -0.13807891 -0.35497332 0.93487614 0.00074685254 0.00048129723
0.0028955168 -0.35121214 -0.13548967 -0.23741424 0.92900759 0.28386512 0.22195408
-0.27502605 -0.3410604 -0.1352572 0.44953018 0.88908458 -0.086319864 0.19948272
-0.25700629 -0.34857529 -0.13665748 0.40079629 0.91438007 -0.05719585 0.11778923
-0.18362208 -0.34009761 -0.13126059 0.05232292 0.99802297 -0.034820851 0.094681211
-0.16188614 -0.34301242 -0.13687959 0.095516793 0.99530667 -0.01553103 0.059491854
-0.14633995 -0.34509718 -0.13548242 -0.021910312 0.99953246 -0.021325961 0.22186822
-0.1377596 -0.34624779 -0.1351361 0.57716012 0.81620622 -0.026336493 0.25122502
-0.12314078 -0.34781799 -0.13916756 0.046984676 0.9981575 0.038394105 0.19449843
-0.094610102 -0.34413165 -0.13534188 -0.072936445 0.99051076 -0.11648514 0.18067946
-0.076020375 -0.34172976 -0.13200381 -0.1398007 0.98852086 -0.057290625 0.13920887
0.0073667923 -0.34937266 -0.13480498 -0.34163961 0.85851544 0.38240501 0.16678977
0.025847273 -0.34176984 -0.13741097 -0.27894738 0.89944583 -0.33643052 0.25870374
-0.29527497 -0.33261588 -0.13195834 0.42929518 0.90094268 -0.06330882 0.07511425
-0.28394991 -0.33733884 -0.13529946 0.39325684 0.91904193 -0.026664691 0.073815145
-0.22444697 -0.33185548 -0.13409875 0.1182247 0.97471726 -0.18960273 0.18691429
-0.21573627 -0.3353478 -0.13472308 0.7003715 0.059566531 0.71128863 0.2523208
-0.19631715 -0.33839518 -0.1343075 0.15411928 0.97788447 -0.14138316 0.19059943
-0.18934223 -0.33933052 -0.1307219 0.074015021 0.99142683 0.10767836 0.14040565
-0.054151095 -0.33890414 -0.13758212 -0.14223447 0.98983204 -0.0013550915 0.00012822603
-0.045868948 -0.33783406 -0.1334288 -0.066736929 0.99298429 0.097614005 0.09171503
0.033715531 -0.33853289 -0.13151702 -0.2136156 0.97575861 -0.047575716 0.16653673
0.045496378 -0.33368629 -0.13083977 -0.52700502 0.84605867 0.080314443 0.1407852
-0.3188031 -0.32063434 -0.13438603 0.57796782 0.81569356 0.024436252 0.08791434
-0.24977052 -0.32129464 -0.13858449 0.50139815 0.86507517 -0.015647897 0.13475661
-0.013885448 -0.32787791 -0.13304211 -0.39979708 0.91060537 0.10469064 0.14121005
-0.33125642 -0.31103086 -0.13613561 0.5516507 0.83129799 0.068008132 0.18456274
-0.32555431 -0.31542808 -0.1361756 0.65344805 0.75297427 0.077687554 0.19512999
-0.27147076 -0.31224486 -0.13325451 0.39167073 0.91808969 -0.060870726 0.18434288
-0.25715461 -0.31821522 -0.13687404 0.28048769 0.9582417 0.055672612 0.10530765
0.0078071817 -0.3189536 -0.13388866 -0.30853713 0.95109636 0.014850575 0.12807076
0.014731202 -0.31610507 -0.13345188 -0.073603168 0.98902637 -0.12809867 0.14551231
0.020439187 -0.31375682 -0.13071899 -0.29016566 0.94717073 -0.13664365 0.17887627
-0.33698016 -0.30661696 -0.13367528 0.54358089 0.83826339 0.042828143 0.11020379
0.032659125 -0.30872959 -0.13526911 -0.40782964 0.9122377 0.038696382 0.076434761
0.043688405 -0.30419216 -0.13104776 -0.57007575 0.82151514 -0.011249105 0.06652151
0.087461464 -0.30799812 -0.13714372 -0.69237953 0.7098313 0.12942286 0.15655886
0.096565433 -0.30104712 -0.13404216 -0.56414527 0.82315183 0.064507887 0.094537616
-0.30802217 -0.29363507 -0.13565296 -0.17685834 0.63141471 0.75500762 0.23329547
0.056237709 -0.29665488 -0.13402456 -0.63020754 0.77630746 -0.013603893 0.12281131
0.063540518 -0.2910791 -0.13687089 -0.38559198 0.91487229 -0.11969755 0.11542745
0.10902216 -0.2915363 -0.1339453 -0.57361698 0.81712914 -0.057127595 0.16035892
-0.36693186 -0.28351948 -0.13520193 0.51132125 0.85778266 -0.052532032 0.18118069
-0.31596971 -0.28750625 -0.13731283 0.34947717 0.085311405 0.93305284 0.22696494
0.077516958 -0.28040794 -0.13659604 -0.54242992 0.79594845 -0.26876727 0.21679805
0.11671488 -0.28566283 -0.1340965 -0.55146343 0.76914591 0.32295924 0.24065565
-0.38422683 -0.27018231 -0.13783957 0.71768737 0.69401079 0.057217192 0.14933942
-0.3791889 -0.27406737 -0.13528614 0.50995094 0.86002666 -0.017441962 0.082782201
0.12603346 -0.278548 -0.13565341 -0.07769154 0.91020501 0.40680578 0.21184073
-0.39322469 -0.26174891 -0.13673332 0.74676234 0.66267812 -0.0566011 0.12185268
-0.38691792 -0.26810709 -0.13708183 0.71296757 0.69857574 0.060573459 0.13669056
-0.34718999 -0.26343054 -0.13447483 0.55962282 0.82828265 0.027751818 0.092902698
0.095029339 -0.26703706 -0.1379292 -0.68526536 0.72816718 -0.01356216 0.20418534
0.10189116 -0.26179799 -0.1378869 0.05135544 0.92336524 0.38047248 0.25969127
0.14658186 -0.26020157 -0.13795787 -0.77706611 0.62919742 -0.016695948 0.153138
-0.39695591 -0.25686193 -0.13212207 0.73715192 0.67568713 -0.0073447628 0.09963686
-0.35592747 -0.25669253 -0.13577849 0.56842726 0.81836927 -0.084630109 0.20110649
-0.37303871 -0.24210693 -0.13061383 0.66450429 0.7346552 -0.13680559 0.13951473
0.11946051 -0.2483836 -0.1311285 -0.6163668 0.77505898 0.13919614 0.099716432
0.12662178 -0.24029258 -0.13150206 -0.81177783 0.57722396 0.08848305 0.17576595
0.16125759 -0.24117079 -0.13697816 -0.76660216 0.64038008 -0.047271159 0.13056459
-0.41564721 -0.23238122 -0.13399714 0.82496107 0.5472042 0.14144526 0.10370531
0.12893966 -0.23728687 -0.13180906 -0.8481279 0.4732596 0.23812664 0.2032793
0.13734238 -0.22639064 -0.13799959 -0.74843478 0.65539151 -0.101525 0.12963374
0.17279148 -0.22621423 -0.13955112 -0.7990787 0.59245437 -0.10232756 0.16193718
-0.42670199 -0.21790236 -0.13429543 0.81479204 0.57946342 0.018332886 0.15015595
0.14596711 -0.2152065 -0.13538095 -0.74783587 0.66244543 -0.04367622 0.074128874
0.17983112 -0.21708556 -0.13402988 -0.89171547 0.44688401 -0.071680896 0.16485642
0.18142024 -0.21502486 -0.13786563 -0.81973469 0.55078429 -0.15707234 0.17327389
-0.43747252 -0.20379579 -0.13706109 0.55389971 0.83196032 0.032204822 0.18573239
-0.4047223 -0.20060962 -0.13241301 0.67417657 0.73677987 -0.051394802 0.16269511
0.15698917 -0.20091361 -0.1372578 -0.85477191 0.46439731 -0.23173302 0.27656487
-0.44337749 -0.19606179 -0.13447629 0.84194458 0.53089643 -0.096324354 0.15701771
-0.40916386 -0.19479236 -0.13376251 0.57293224 0.79226291 -0.20992433 0.22093858
0.16390572 -0.19194458 -0.13397089 -0.86517894 0.49951747 0.044133186 0.17529716
0.19937259 -0.1917451 -0.13095286 -0.82714558 0.52912706 -0.18935327 0.12336193
-0.41319481 -0.18951288 -0.13782389 0.87048513 0.28971091 -0.39789858 0.16517748
-0.45630139 -0.17212644 -0.13728137 0.93527687 0.34294847 0.08742746 0.16297333
-0.42467234 -0.17448029 -0.13364054 0.8440733 -0.0081557129 -0.53616583 0.22987291
0.18157361 -0.16419673 -0.13585834 -0.90968013 0.41356647 -0.038009867 0.10402341
0.21287382 -0.16179408 -0.13153888 -0.87416488 0.48439151 -0.034649555 0.14985561
-0.43285152 -0.15562657 -0.13952659 0.99945563 0.027133532 0.018768361 0.20110618
0.18705247 -0.15105909 -0.13405855 -0.90108591 0.39183912 0.1857587 0.14642675
0.21467757 -0.15746891 -0.13452756 -0.8436408 0.52865547 0.093774334 0.12787242
-0.46886948 -0.14157668 -0.13810638 0.90655452 0.41208905 0.091332264 0.13932198
-0.43687457 -0.14584751 -0.13693151 0.92298967 0.38272795 -0.040116884 0.087292075
-0.4411881 -0.13536251 -0.1388014 0.9581573 0.2836307 -0.038576987 0.18885709
0.22364356 -0.13596961 -0.13189641 -0.93152326 0.3617146 0.037775859 0.19534963
-0.44510886 -0.12583217 -0.13909452 0.89217585 0.44123867 -0.096595444 0.19289751
0.19736826 -0.1263231 -0.13579679 -0.91508383 0.40323871 0.0044886102 0.14297922
0.2288363 -0.12351808 -0.13158706 -0.99928939 -0.033773251 0.016735889 0.19763982
-0.47909573 -0.11671929 -0.13809508 0.91637784 0.38986462 -0.0908693 0.18287592
-0.45119458 -0.11103939 -0.13294649 0.91357523 0.40422192 -0.044551808 0.14866292
-0.44899106 -0.11639553 -0.13546285 0.91777521 0.39635742 0.024276882 0.14049082
0.20069233 -0.11835244 -0.13799237 -0.88985825 0.370767 0.265865 0.18188329
0.23282744 -0.11394776 -0.13102749 -0.95098186 0.30427539 -0.055226766 0.14309546
-0.45368323 -0.10499014 -0.13219738 0.87966365 0.4164345 -0.22972615 0.1535587
0.20659748 -0.10419255 -0.1351507 -0.95264792 0.29796275 0.06066398 0.12158117
-0.48762155 -0.094899364 -0.132631 0.97483158 0.22284476 0.0065963976 0.13213822
0.2397994 -0.095086165 -0.13592407 -0.96791661 0.25105536 -0.010425506 0.0015518151
-0.48840851 -0.088808767 -0.13453811 0.96671617 0.25488105 -0.022263657 0.10806403
-0.46084067 -0.083943859 -0.13391143 0.91741568 0.37695625 -0.12748526 0.20574881
0.24099326 -0.086183377 -0.13458019 -0.99244285 0.094247818 0.078578211 0.083152778
0.31786859 -0.082302421 -0.13962649 -0.38678953 -0.90611774 0.17130232 0.054257374
0.32586122 -0.083938144 -0.1364999 -0.192054 -0.96634889 0.17112912 0.043229181
0.33154148 -0.084134728 -0.13009639 0.2109019 0.97715473 -0.026248721 0.044859316
0.34903151 -0.080627158 -0.1381516 -0.31672624 0.91485107 0.25046343 0.015346129
-0.49082649 -0.070094235 -0.13906859 0.99329066 -0.010228125 -0.11519173 0.19248511
-0.46251267 -0.07100331 -0.13010231 0.89810377 0.047996476 -0.43715683 0.22252354
0.21446194 -0.073633954 -0.13964176 -0.9946788 -0.042212095 0.09397953 0.17214556
0.24278796 -0.072800428 -0.13302363 -0.97601175 0.21711154 0.016237371 0.18970369
0.30951801 -0.073546275 -0.13364919 -0.61043221 -0.68171346 0.40328556 0.011096952
0.3565374 -0.076387525 -0.13800208 -0.46463969 0.82146388 0.33061618 0.022645259
0.3639634 -0.073999509 -0.13148335 -0.61134124 0.69617027 0.37630963 0.022176586
-0.49185798 -0.062110957 -0.13559616 0.99049926 0.13740718 0.005516585 0.12566939
-0.46303937 -0.066926777 -0.13215956 0.89389461 0.23907036 -0.37920687 0.16783942
0.30262864 -0.0649608 -0.1347279 -0.68963659 -0.53700125 0.48583019 0.0048967977
-0.46418875 -0.058031168 -0.13732831 0.99945438 -0.032371107 0.0065624528 0.15811628
0.24559142 -0.051894866 -0.1344575 -0.93566012 0.30840862 0.17153481 0.15134388
0.37868437 -0.050945964 -0.13441348 -0.7770465 0.34566414 0.5260371 0.0083634024
0.3812927 -0.051010184 -0.13060609 -0.77425694 0.37137586 0.51245105 0.0084426934
-0.49348485 -0.049519312 -0.13433811 0.99789757 0.063216656 -0.014285038 0.13604629
0.24669345 -0.043676972 -0.13545181 -0.99257034 0.11889581 -0.025844894 0.072328247
0.37706283 -0.048566815 -0.13834944 -0.7879582 0.30699167 0.53373963 0.006877589
0.38027024 -0.040648978 -0.13670629 -0.83118671 0.15180849 0.53486711 0.0047865836
-0.49526507 -0.03574134 -0.13567942 0.9973948 0.069709599 0.018555498 0.18326758
-0.4672603 -0.034258712 -0.13868627 0.99813056 0.019376075 -0.057965554 0.15311143
0.21951213 -0.035974592 -0.1318042 -0.91349 0.40344608 0.052605122 0.20317917
0.24830323 -0.031672679 -0.13260031 -0.98209459 0.11635225 -0.1481633 0.19183421
0.29526022 -0.033040505 -0.13745579 -0.79441643 0.12848713 0.59362751 0.0074112834
-0.46803337 -0.028275356 -0.13440076 0.98196107 -0.12707181 -0.14001831 0.18574147
0.22102305 -0.024707381 -0.13133213 -0.97693157 0.20862143 0.045627374 0.17736103
0.24893399 -0.026969042 -0.13018586 -0.98737288 0.12260447 -0.10031453 0.16959542
0.30068281 -0.020128032 -0.13414615 -0.77628243 0.34488082 0.52767682 0.0043694684
0.38170257 -0.027726311 -0.13675028 -0.84464085 -0.02017526 0.53495306 0.0074519338
-0.46943805 -0.017403755 -0.13405268 0.99361068 0.11282526 -0.0028851458 0.00036157176
0.38386199 -0.012477834 -0.13071504 -0.84127015 -0.18426748 0.50824219 0.0065423972
-0.49965391 -0.0017733385 -0.13519637 0.99515468 0.056330331 0.080585971 0.19309707
-0.47117931 -0.0039266851 -0.13410755 0.99818558 0.035091743 0.048929412 0.11259326
0.22389314 -0.0033050049 -0.13074534 -0.99759805 0.067918703 0.013609579 0.075967066
0.30511898 -0.0054675504 -0.13901052 -0.70318365 0.50569499 0.49980527 0.0083805379
0.31259924 -0.0015212746 -0.13256621 -0.6840657 0.56668901 0.45925763 0.0087528955
0.22302812 0.0084185302 -0.1361289 -0.9904139 -0.13747065 0.013498928 0.2229147
0.31771684 0.0062263701 -0.13666163 -0.55190057 0.6913923 0.46624288 0.008918887
0.32144639 0.0064531285 -0.13167776 -0.55994904 0.70019358 0.44292894 0.0084478259
0.37658548 0.0011759131 -0.13203689 -0.72543365 -0.48465118 0.48873231 0.019805562
-0.49837911 0.01299206 -0.13930807 0.96250236 -0.094433695 0.25430566 0.23381083
-0.47054702 0.010142753 -0.13355651 0.99526346 0.014417068 0.096139453 0.157868
-0.46969062 0.016528761 -0.13673276 0.98856145 0.098486558 -0.11422195 0.1579068
0.22208288 0.015734352 -0.13554639 -0.98246992 -0.17193824 -0.072042413 0.16992787
0.25036332 0.015083618 -0.13781549 -0.83249849 0.44940546 -0.32400754 0.213324
0.33070529 0.014323579 -0.1382663 -0.30218989 0.94466752 0.12761113 0.029123008
0.34198436 0.015762253 -0.13190271 -0.1039893 0.99249637 -0.064320728 0.02839925
0.35594031 0.013850354 -0.13880455 -0.29796281 -0.91231698 0.28088403 0.026521895
-0.49652284 0.026834598 -0.13852859 0.72015077 -0.65201432 -0.23719215 0.24720569
-0.46847063 0.02562668 -0.13528581 0.99405628 -0.10574557 -0.025885006 0.061650138
0.22096372 0.024396315 -0.13138142 -0.99944425 -0.032199372 -0.0086217718 0.15669757
-0.4674103 0.033533402 -0.136639 0.95016229 -0.24251354 -0.19590528 0.20083366
0.21938747 0.036595646 -0.13524435 -0.98413628 -0.17674798 0.015358955 0.1255444
0.24799781 0.033392001 -0.13912116 -0.99535197 -0.079375982 -0.054533102 0.17026815
-0.49432877 0.043196026 -0.13895907 0.98751926 -0.14611301 0.058794454 0.12388226
0.21862245 0.042516708 -0.13592181 -0.99649614 -0.079774074 -0.025129415 0.1498452
0.24699903 0.041122094 -0.13530113 -0.98933285 -0.09233959 0.11266773 0.2485514
-0.49296191 0.053388741 -0.13388066 0.99432707 -0.029086491 0.10231198 0.087551318
-0.49171317 0.06270054 -0.13237727 0.96918511 -0.20045148 -0.14317589 0.13894822
0.21577074 0.064587846 -0.13469802 -0.99892479 -0.0091053071 -0.045456905 0.11800894
0.24376911 0.066120416 -0.13755749 -0.98472583 -0.13319723 -0.11213113 0.14162996
-0.49014452 0.074398071 -0.13428995 0.91549009 -0.40179229 0.020997165 0.22351158
-0.48888582 0.083784409 -0.13887094 0.95620257 -0.28477111 0.067690887 0.18057171
-0.46073785 0.083290182 -0.13263772 0.84234089 -0.40297851 -0.35786876 0.21905495
0.24142198 0.084286422 -0.13405409 -0.9789508 -0.19656044 -0.05494852 0.077007607
-0.45691574 0.097604699 -0.13501 0.93243623 -0.34953219 -0.091596581 0.12636237
0.23925413 0.097841457 -0.13680258 -0.95927304 -0.28247839 0.0011001432 0.0022445144
0.24066967 0.090109028 -0.1375394 -0.97673172 -0.19811714 -0.082126327 0.065367796
-0.48272777 0.10836196 -0.13741754 0.96601492 -0.25841364 -0.0061302516 0.15087895
-0.45484224 0.10257661 -0.13143605 0.92843211 -0.37063938 -0.025301263 0.06466262
0.20457864 0.10871823 -0.13302666 -0.99998653 -0.0041021393 -0.0031777276 0.21885225
0.23628911 0.10513873 -0.13703626 -0.92385614 -0.32610607 0.2003611 0.1271311
0.20153078 0.11612681 -0.13420543 -0.98073626 -0.17636241 0.083980516 0.2727358
0.23089699 0.11824565 -0.13931942 -0.9220987 -0.38170692 0.063513391 0.16875787
-0.47568941 0.12523907 -0.13774441 0.90173793 -0.43196926 0.016467014 0.06496419
-0.44492298 0.12636182 -0.13332555 0.92890638 -0.37031338 -0.00095580076 0.10693033
0.19849607 0.12350337 -0.13637224 -0.91453797 -0.37810224 -0.14373246 0.16736379
0.22670214 0.12844226 -0.13527961 -0.94228518 -0.31559291 -0.11180204 0.20868437
-0.47020021 0.13840145 -0.13547152 0.84516883 -0.50500011 0.17511266 0.13509479
0.19256811 0.13791274 -0.13301839 -0.91621625 -0.35931 0.17732474 0.16736743
0.18969977 0.14488491 -0.13856353 -0.93000746 -0.36036059 -0.072293214 0.078892224
-0.4344238 0.15153754 -0.13869318 0.90020406 -0.4353798 -0.0087773437 0.071161211
-0.43018144 0.16171008 -0.13095954 0.91454571 -0.40256837 0.039305359 0.14015548
-0.42917168 0.16413146 -0.13264196 0.87991297 -0.47347516 0.039679792 0.14191882
0.17975955 0.16904704 -0.13767235 -0.81938964 -0.566984 0.084438041 0.19231121
0.2112406 0.16602521 -0.13204047 -0.92493886 -0.37417883 -0.066921234 0.1386238
-0.45485577 0.17519553 -0.13375565 0.94929844 -0.3014667 0.089164771 0.18096067
-0.42511368 0.17350873 -0.13739404 0.96195018 -0.26688638 0.058511876 0.18818218
0.17565617 0.17637332 -0.13640736 -0.66346592 -0.67721516 0.31810787 0.24547835
0.20832708 0.17310722 -0.13536143 -0.83295953 -0.5367437 -0.13447931 0.17877533
-0.44893306 0.18916507 -0.13103537 0.86629307 -0.49813032 0.037450138 0.07058347
-0.41571611 0.18644692 -0.13036907 0.83171606 -0.55466849 0.024316352 0.10188202
0.16691419 0.18782303 -0.13905895 -0.79915977 -0.5973559 -0.067154571 0.13099509
0.17112681 0.18230559 -0.13635314 -0.98395348 -0.014648218 0.1778228 0.2384188
0.20483901 0.18158579 -0.13667861 -0.85806149 -0.51307333 -0.022052933 0.1425278
-0.44530988 0.19386347 -0.13381831 0.85660368 -0.51542515 0.023814015 0.060872119
-0.40795612 0.19650969 -0.1359255 0.79710239 -0.60209084 -0.045982469 0.14447156
0.19477227 0.19741662 -0.13325953 -0.81356132 -0.57350469 0.095970757 0.17326592
-0.43740854 0.20410949 -0.13460194 0.81714946 -0.57568628 -0.029189032 0.085739397
-0.40310329 0.20280263 -0.13966075 0.68027514 -0.73295557 0.0013771278 0.18381257
-0.39966151 0.20726579 -0.13763081 0.74148685 -0.6709345 -0.0066539752 0.14001738
0.15230796 0.20695338 -0.13915391 -0.78538507 -0.6172986 -0.045964979 0.15417057
-0.42913091 0.21484351 -0.13002767 0.78594083 -0.61829585 0.0027151909 0.11477229
0.14478537 0.21680599 -0.13166298 -0.7512185 -0.66001999 0.0066693942 0.15296705
-0.42200002 0.22409059 -0.13685012 0.79985458 -0.59793055 0.052074876 0.13469131
-0.38645548 0.22439072 -0.1333472 0.74600339 -0.66592914 0.0041788337 0.12850048
0.13781619 0.22593379 -0.13627625 -0.78414726 -0.62053347 0.007170612 0.076029703
0.17412683 0.22445676 -0.1368981 -0.7466377 -0.62033886 0.24023271 0.19089271
-0.41413862 0.23428488 -0.13269547 0.65871876 -0.75195456 0.025571575 0.12602551
-0.38207734 0.23006809 -0.13145362 0.76381671 -0.64329493 -0.052494418 0.14667967
-0.37609535 0.23782523 -0.13148761 0.023049973 0.43312916 0.90103704 0.15713713
0.13094766 0.23492979 -0.13885054 -0.71724725 -0.69589174 0.035931289 0.15458965
0.16765104 0.23293833 -0.13456771 -0.7745322 -0.61585945 -0.14428063 0.13856632
-0.40719128 0.24329385 -0.13227546 0.81735551 -0.56910264 -0.08973407 0.14827469
-0.3669489 0.24844658 -0.13343614 0.20951866 -0.84201479 -0.4971047 0.19426246
0.11877214 0.24866058 -0.13179868 -0.63601506 -0.28511271 -0.71707439 0.23485316
0.12641536 0.24086592 -0.13668185 -0.72217965 -0.68823463 -0.069207035 0.21510185
0.15906988 0.24417743 -0.1345422 -0.37984386 -0.57688075 -0.72313702 0.2152839
-0.40150738 0.25066438 -0.13460565 0.79036677 -0.60823971 -0.07324516 0.12148631
-0.39572549 0.25816208 -0.13792711 0.76190519 -0.64639688 -0.040883455 0.16760796
-0.36215413 0.25210744 -0.13575572 0.61316842 -0.78353119 -0.10051542 0.16170496
-0.3570649 0.25599313 -0.13764465 0.62328964 -0.78024024 -0.052300256 0.087985478
0.1096457 0.2556985 -0.13975789 -0.63944507 -0.76827466 -0.029394211 0.1263729
0.11321776 0.25294387 -0.13292615 -0.64945722 -0.7484504 0.13426633 0.18415475
0.14987537 0.25621983 -0.13834843 -0.80307108 -0.58215058 -0.12719107 0.21333456
-0.39074108 0.26462567 -0.13943259 0.68365479 -0.72978097 0.0059867464 0.1652233
-0.38730544 0.268087 -0.13421912 0.52089602 -0.84723169 0.10423989 0.15633295
-0.35038194 0.26109564 -0.13765568 0.60683596 -0.79482716 3.7799316e-06 0
-0.34669471 0.26391086 -0.1370939 0.60684711 -0.79481864 3.3241565e-06 1.5954787e-05
0.097368382 0.26516622 -0.13602929 -0.5376423 -0.83530641 -0.11490878 0.12278254
0.14132506 0.26658177 -0.13455722 -0.73931199 -0.6733523 0.0037993272 0.1420707
-0.33738205 0.27102119 -0.13748464 0.6069532 -0.79473752 -3.605626e-06 0
-0.32640862 0.27939948 -0.13511948 0.67624146 -0.73585612 0.034833267 0.11041792
0.079016998 0.27931803 -0.13117763 -0.6106804 -0.79187721 -1.2924495e-05 1.23568e-05
0.085005209 0.27470022 -0.13342473 -0.60289741 -0.79763478 0.017130377 0.073469274
0.090246946 0.27065799 -0.13710457 -0.66332567 -0.7468155 -0.047597475 0.071353041
0.12644449 0.27805704 -0.13709199 -0.47144088 -0.86992931 0.14479806 0.20477767
-0.32431769 0.28099594 -0.13148473 0.73348784 -0.67954779 -0.01450179 0.16684704
0.11754531 0.28491974 -0.13834009 -0.58303261 -0.81240654 -0.0082877073 0.067591853
-0.30617183 0.2948505 -0.13701364 0.56530976 -0.82487035 -0.0037080266 0.074539058
0.054097395 0.29853496 -0.13574962 -0.42349991 -0.89936972 0.10854462 0.24917915
0.064478152 0.29052979 -0.13142964 -0.65018147 -0.75825763 -0.048056345 0.2164572
-0.33598399 0.30727148 -0.13803641 0.81637388 -0.5696525 -0.095024846 0.20017883
-0.29360721 0.30322623 -0.13706341 -0.47301525 -0.8752932 0.10059078 0.25412744
-0.28486723 0.30682188 -0.13351147 0.22795101 -0.97354752 -0.015606386 0.20742233
0.041602343 0.30486232 -0.13285682 -0.47934836 -0.86770159 -0.13160223 0.14284201
0.087598726 0.30801326 -0.13644099 -0.58506286 -0.80894315 -0.057553872 0.076852828
-0.32710481 0.31405082 -0.1356543 0.55665284 -0.83044559 0.022312367 0.06445241
-0.26298743 0.31582314 -0.1353558 0.36184019 -0.91917288 -0.15554044 0.1673061
-0.25390008 0.31956163 -0.13959372 0.37960261 -0.92405617 -0.044966448 0.18316773
0.012017688 0.31720021 -0.13749304 -0.3596186 -0.93243748 -0.035140589 0.15746431
0.02120064 0.31337059 -0.13290727 -0.26129693 -0.96517855 -0.012422972 0.19762243
0.07751295 0.31579101 -0.13336928 -0.67429024 -0.7331475 0.088472389 0.21683596
-0.31383359 0.32417586 -0.13897939 0.48806641 -0.87262022 -0.018028658 0.075204983
-0.25247759 0.32014686 -0.13125506 0.39887649 -0.91472691 -0.064593457 0.095700257
-0.23997805 0.3252891 -0.13176456 0.35530433 -0.90007347 0.25224325 0.22802167
-0.011857698 0.32715708 -0.13505667 -0.44463 -0.89025569 -0.098736957 0.1570226
0.0034372304 0.32077855 -0.13547687 -0.31242159 -0.94794148 -0.061640475 0.23172869
0.064973295 0.32503083 -0.13737471 -0.52857536 -0.84712577 -0.054644354 0.074708931
-0.20196304 0.33780032 -0.13664484 0.39741725 -0.87347478 0.28124979 0.22169007
-0.19320667 0.33893168 -0.13852386 -0.067452207 -0.99765962 -0.011201813 0.20566477
-0.18705665 0.3397263 -0.13471255 0.029305154 -0.99953717 0.0081648799 0.12868069
-0.059890714 0.33955342 -0.13983512 -0.066469394 -0.99258149 -0.10180263 0.14333785
-0.042747706 0.33725452 -0.13304116 -0.3043336 -0.95172399 -0.04003026 0.083655469
-0.028825158 0.33423311 -0.1367802 0.18785799 -0.77883619 0.59843427 0.27685472
-0.019707132 0.33043057 -0.13807416 -0.41779125 -0.89776057 -0.13955779 0.21423271
0.041306496 0.33528396 -0.13291286 -0.19051871 -0.96548003 0.17762569 0.14849995
-0.27313298 0.34188718 -0.13504595 0.59661865 -0.65276498 -0.4668448 0.25946274
-0.25955409 0.3474735 -0.13834223 0.52976465 -0.83747029 -0.13413732 0.15012185
-0.17586622 0.34117216 -0.1333364 0.051308285 -0.99561405 -0.078231074 0.080800153
-0.16059266 0.34314561 -0.1304689 0.16371149 -0.98636425 0.016854024 0.075355597
-0.15056436 0.34444129 -0.13219425 0.38412344 -0.83108205 0.40218383 0.25101563
-0.14749634 0.34483773 -0.13589013 0.062393211 -0.99781829 -0.021582928 0.15850705
-0.13103402 0.34696472 -0.13473073 0.20884669 -0.97782969 0.015233207 0.20947726
-0.097520724 0.34459966 -0.13388439 -0.23983227 -0.97075719 -0.010538884 0.072156824
-0.076003656 0.34171417 -0.13109881 -0.22178335 -0.96631461 -0.1305684 0.16561197
0.01350333 0.34687889 -0.13621739 -0.5102793 -0.85921168 0.037015293 0.16947612
-0.25084129 0.35105792 -0.13167399 -0.096226178 -0.99530268 -0.010640527 0.24274588
-0.24545324 0.35327455 -0.1331785 0.31858242 -0.93788999 -0.13735966 0.16553466
-0.23990294 0.35555792 -0.13460796 0.34222674 -0.93269241 -0.11386693 0.082772456
-0.016744668 0.35949337 -0.13147901 -0.32231507 -0.94255579 0.087758154 0.23535761
-0.0079982504 0.35584581 -0.13798913 -0.40734017 -0.91228878 0.042461116 0.15189719
0.0048679896 0.35048014 -0.13599065 -0.53237712 -0.84633011 0.017317291 0.21212398
-0.22252218 0.36270833 -0.13851656 0.28910315 -0.95329666 0.087434426 0.070315756
-0.21743891 0.36399716 -0.13414344 0.22359762 -0.9731921 -0.053863902 0.074526899
-0.20221014 0.3659648 -0.13793638 0.12851462 -0.99143678 0.023174718 0.14480375
-0.19618316 0.36674351 -0.1382359 0.17200243 -0.98324144 -0.060425483 0.16731735
-0.18451731 0.36825079 -0.13919535 0.093805842 -0.99245393 -0.078965761 0.11670919
-0.07326296 0.3695609 -0.13827027 -0.14408441 -0.98828864 -0.050252777 0.073660739
-0.044428155 0.36569411 -0.13313815 -0.14914611 -0.98536229 -0.082562193 0.13504033
-0.027062988 0.36336541 -0.13358283 -0.3052035 -0.95113784 -0.046772156 0.16464046
-0.018853087 0.36037266 -0.13258657 -0.17879657 -0.97138035 -0.15637159 0.20577824
-0.14896299 0.37284455 -0.13546368 0.53099859 -0.82964569 0.17241998 0.21846935
-0.13131072 0.37512532 -0.1349684 0.044375557 -0.99885964 0.017612815 0.12821876
-0.11353367 0.37496123 -0.13887706 -0.14177257 -0.98957062 -0.025504187 0.099972032
-0.10132967 0.37332466 -0.13888511 -0.10834327 -0.99071103 -0.082178667 0.14852285
-0.078551494 0.37027007 -0.1386238 -0.27616543 -0.95872527 -0.067665011 0.075641841
-0.16041905 -0.37142336 -0.12220468 -0.20819001 0.9607169 -0.18352069 0.17349054
-0.15542996 -0.37209243 -0.12707219 -0.23097666 0.94422209 -0.23472227 0.18836887
-0.14750665 -0.37315497 -0.12712947 0.70409745 0.58435011 0.40346235 0.25823238
-0.12144598 -0.37579536 -0.12304509 -0.016271487 0.99917793 -0.037130885 0.073060185
-0.11067279 -0.37440342 -0.12587723 -0.20715041 0.97751743 -0.039350625 0.080245256
-0.10514048 -0.37368858 -0.12722245 -0.20394707 0.97761667 -0.051684182 0.087375656
-0.096646391 -0.37259114 -0.12528804 -0.10933585 0.99400485 0.00017004594 0.067597389
-0.22652243 -0.36128816 -0.12548947 0.17866097 0.97798163 0.10785247 0.16988195
-0.21588846 -0.36398485 -0.1259129 0.31312835 0.9207564 0.23271923 0.13546319
-0.20491439 -0.36545649 -0.12034062 0.19889668 0.97993302 -0.01309487 0.19825308
-0.19377284 -0.36695057 -0.12113877 -0.35469931 0.76815832 0.53303021 0.24504246
-0.040629819 -0.36535347 -0.12458425 0.62925398 0.70818222 0.3201831 0.12901102
-0.033474714 -0.364429 -0.12497302 -0.32155761 0.94654226 -0.025659045 0.11740713
-0.018757908 -0.3601203 -0.12123835 -0.11523145 0.98575169 -0.1225371 0.15371537
-0.25217095 -0.35059181 -0.12227616 0.34778211 0.93476254 -0.072571971 0.18726747
-0.24510598 -0.35353816 -0.12815885 0.41181755 0.90984523 -0.050872747 0.083792247
-0.0040773619 -0.35408074 -0.12401068 -0.37690899 0.92601961 -0.020668248 0.27286154
0.0038811399 -0.35080662 -0.12393153 -0.72144479 0.5040682 -0.47479752 0.21796887
-0.27386701 -0.34154376 -0.12630051 0.38996768 0.91563016 -0.097706974 0.12876862
-0.26725572 -0.3443009 -0.12547688 0.41591141 0.90924245 0.017199451 0.15785661
-0.25656623 -0.34875882 -0.1283277 0.44635507 0.89279348 -0.060720861 0.13744724
-0.18040004 -0.34052968 -0.12161259 0.13418593 0.98279375 0.12692758 0.15691447
-0.17890653 -0.34072998 -0.12075365 0.15880592 0.98683536 0.030603757 0.081750184
-0.15118213 -0.34444785 -0.12217681 0.25394836 0.9669646 -0.022128558 0.22887908
-0.14304337 -0.34553924 -0.12413888 -0.080223814 0.99512064 -0.057438098 0.22052917
-0.13312334 -0.34686953 -0.12635884 -0.035939995 0.99744493 -0.061741289 0.16832763
-0.10412549 -0.34536111 -0.12459856 -0.32136828 0.91702223 -0.23620482 0.23221622
-0.083348267 -0.34267658 -0.12122931 -0.10836404 0.99410951 -0.0018771263 0.067327924
-0.077222057 -0.34188503 -0.12526749 -0.2002001 0.97897017 -0.039205559 0.16724901
-0.063507192 -0.34011298 -0.12587516 -0.12811384 0.99175948 1.4192909e-05 0
0.012901243 -0.34709582 -0.12554884 -0.43854973 0.88215148 -0.17170598 0.2377526
-0.28714749 -0.33600533 -0.12372681 0.38486668 0.9229722 -3.1136049e-05 0.00011635447
-0.2095703 -0.33661789 -0.12632355 0.17004494 0.98516798 0.022994649 0.14764437
-0.19604468 -0.33843172 -0.12605789 0.1456569 0.98830932 0.045040291 0.19856082
-0.1854787 -0.33984861 -0.12773719 -0.040262088 0.9987756 0.028746596 0.14748089
-0.054686453 -0.33897334 -0.12461579 -0.020156773 0.99964768 -0.017265428 0.096680634
-0.030922003 -0.3348867 -0.12741727 -0.35640863 0.92670494 0.11912501 0.15688451
0.034535125 -0.33819568 -0.12892473 -0.35687304 0.93415278 -0.0003714062 0.097907476
0.046964727 -0.33308217 -0.12038776 -0.6921857 0.55470234 0.46171892 0.17733
-0.31141001 -0.32588699 -0.12964728 0.50594813 0.86254925 0.0050307061 0.0033234952
-0.25218147 -0.32028919 -0.12427603 0.72956699 0.63694787 -0.24905702 0.19492906
-0.24770719 -0.32215515 -0.12935656 0.90970105 0.35848406 -0.20960255 0.23131175
-0.23612672 -0.32698461 -0.12203668 0.41785511 0.79357451 -0.44230843 0.19644661
-0.017491668 -0.3293615 -0.12335636 -0.42391735 0.90480924 -0.040180694 0.079419948
-0.008228098 -0.3255505 -0.12305318 -0.48925704 0.86380851 -0.12025987 0.13081346
0.0046527646 -0.32025135 -0.12331672 -0.3907536 0.92004818 -0.028688155 0.084270604
0.068332307 -0.32260346 -0.12627718 -0.52106023 0.85145134 0.059387375 0.15650485
-0.26332432 -0.31564224 -0.1260201 0.4645589 0.881365 0.08591181 0.22412518
0.080241866 -0.31351036 -0.12499659 -0.33349803 0.94261605 -0.015936906 0.15890197
-0.28706959 -0.30573958 -0.12415768 0.47357944 0.88072515 0.0067605134 0.16956411
0.044966869 -0.3036662 -0.12393859 -0.61765158 0.76829207 0.16802901 0.1332211
-0.35609013 -0.29188013 -0.12660748 0.61794674 0.78183109 0.082957938 0.10985292
-0.30652404 -0.29479036 -0.12278578 0.47112191 0.88146263 0.03267505 0.079942994
0.055503473 -0.29721546 -0.12107073 -0.4185057 0.90778476 -0.027926009 0.18040873
0.061089322 -0.29295063 -0.12709746 -0.55633175 0.83090502 0.009576831 0.071793489
0.097939998 -0.29999766 -0.1234547 -0.61885673 0.78280818 -0.065021284 0.1625319
-0.31888637 -0.28525704 -0.12080754 0.8472271 0.52024454 0.10747944 0.16053464
0.06504488 -0.28993049 -0.12820563 -0.55630738 0.83092141 0.009575285 0.071782917
0.073100924 -0.28377965 -0.12273016 -0.5284422 0.848032 -0.039881129 0.072387181
0.11508518 -0.28690711 -0.12641227 -0.62689131 0.77779633 -0.045169249 0.21918754
0.12129231 -0.28216791 -0.12838958 -0.52282703 0.77659947 0.35148978 0.24700086
-0.38177967 -0.27206951 -0.12262553 0.094653964 0.96014982 -0.26296958 0.19463186
-0.3779031 -0.27505893 -0.12600337 0.57269031 0.81957519 -0.017947752 0.086728454
-0.335181 -0.27269134 -0.12804788 0.62909001 0.77490759 0.061351009 0.11280093
0.089343779 -0.27137804 -0.12522429 -0.7569797 0.62265378 -0.19820206 0.18025336
0.12477585 -0.27950817 -0.12630223 -0.521056 0.85125452 0.062179036 0.16560218
-0.38541213 -0.2692683 -0.12438091 0.70548248 0.70722979 -0.046048511 0.063620396
-0.3505438 -0.2608442 -0.12964571 0.62739134 0.77578682 -0.067341246 0.072946519
0.094691359 -0.26729509 -0.12193273 -0.56425297 0.82530415 -0.022170601 0.071607962
0.10293488 -0.26100108 -0.12921587 0.52212673 0.83651036 0.16623496 0.23240624
0.14655007 -0.26024282 -0.12757003 -0.78103954 0.61246383 0.12192337 0.21520467
-0.35750335 -0.25547731 -0.12458813 0.57131529 0.81956762 -0.043678444 0.18042403
0.10772727 -0.25734204 -0.1299016 -0.690516 0.72174948 -0.047595788 0.18995
-0.40801352 -0.24237943 -0.12660575 0.78863984 0.61414945 -0.029455084 0.075707011
0.15689157 -0.24683246 -0.12676457 -0.71036446 0.70084268 -0.064821213 0.17345424
-0.41214445 -0.23696895 -0.12470674 0.78118408 0.62273949 -0.044123087 0.070932619
-0.37661463 -0.23742335 -0.12103762 0.7456308 0.66548097 0.034204379 0.092117198
0.12739892 -0.23928481 -0.1247599 -0.79238373 0.61001718 0.0026804674 0.097771078
-0.4244484 -0.22085398 -0.12140083 0.83444381 0.44926703 -0.31915915 0.24714755
-0.3827132 -0.22943585 -0.12002544 0.66939378 0.74172318 0.04193693 0.17638126
0.13885359 -0.22443095 -0.12954828 -0.8013621 0.59588325 -0.052364264 0.14413176
-0.43129674 -0.21188444 -0.12777099 0.43284386 0.85922086 0.27273735 0.20699039
0.14644398 -0.21458811 -0.12609883 -0.79188317 0.61067259 -2.2664572e-05 5.2528803e-06
0.17764552 -0.21991973 -0.12435123 -0.76312476 0.6454547 -0.032074932 0.092040949
0.18248808 -0.21364015 -0.12586817 -0.85180396 0.52311528 -0.027935484 0.13509011
-0.43710482 -0.20427737 -0.12544651 0.80602509 0.59176034 -0.011967134 0.12527724
-0.40429559 -0.20116851 -0.12025452 0.88244182 0.46707192 -0.056038003 0.22904052
0.15331468 -0.20567854 -0.12529486 -0.77181846 0.63576287 -0.010087845 0.073313445
0.19091061 -0.2027182 -0.12047303 -0.6385482 0.76801014 -0.049159944 0.15632695
-0.44745815 -0.19071721 -0.1264033 0.87064517 0.49108109 0.028571747 0.11658861
-0.41151139 -0.19171768 -0.1223726 0.73007709 0.48927125 -0.47707555 0.25666708
-0.40536982 -0.19976154 -0.12263881 0.88531858 0.28472427 -0.36761817 0.25183132
0.1630687 -0.19302997 -0.12306812 -0.69331431 0.71052808 -0.120271 0.17111565
-0.41780329 -0.18347694 -0.1262922 0.78498268 0.43870071 -0.4374288 0.14780036
0.17015997 -0.18383436 -0.12886862 -0.82807899 0.55134273 0.10152045 0.092439681
0.20192459 -0.188049 -0.12062596 -0.84836078 0.52913141 0.017433956 0.10334115
-0.45464808 -0.17614517 -0.12319326 0.9254632 0.3468602 0.1523345 0.21465749
-0.42585617 -0.17263049 -0.12004954 0.84325457 0.53602821 0.039942831 0.23475434
0.17523094 -0.1772503 -0.12304461 -0.91108453 0.40939659 0.048160244 0.19529523
0.2092173 -0.170562 -0.12348514 -0.92525423 0.3788408 0.019606324 0.1667807
-0.46019596 -0.16265976 -0.12349932 0.89937723 0.43695736 0.013743831 0.0606241
-0.45917216 -0.16514838 -0.12874639 0.87139308 0.49052867 0.007467587 0.14402224
-0.4301452 -0.16220497 -0.12528548 0.92858922 0.3690196 0.039324902 0.19741181
-0.42937613 -0.16407438 -0.1233324 0.93631989 0.34994063 0.029096957 0.16283618
0.18222421 -0.16263667 -0.12530079 -0.93650389 0.34320882 0.071889624 0.13131484
-0.43112776 -0.15981659 -0.12358537 0.90260416 0.41915271 -0.098064683 0.22493729
0.18489118 -0.15624164 -0.12367298 -0.87513489 0.48214886 0.040883426 0.17647372
-0.46667016 -0.14692268 -0.12455551 0.92354381 0.38346589 0.0045488817 0.1919059
-0.438813 -0.14113578 -0.12989154 0.91306931 0.40606242 0.037653115 0.065129936
0.21804819 -0.14938661 -0.12223311 -0.90708899 0.41598701 0.064376436 0.15228173
0.22171921 -0.14058393 -0.12031318 -0.92763096 0.36701107 0.069308348 0.1210802
-0.47157681 -0.13499582 -0.12540707 0.9595297 0.27153519 -0.074641295 0.16125703
-0.44105673 -0.13568181 -0.12104852 0.92193425 0.36623675 0.12612639 0.15815543
0.19267973 -0.13756561 -0.1272192 -0.92377967 0.38013545 0.046130899 0.078124553
0.22561759 -0.13123614 -0.12138124 -0.9371435 0.33734319 0.0892286 0.15347879
-0.47384685 -0.12947795 -0.12692663 0.98799735 0.14972702 -0.037987553 0.22379705
-0.44500437 -0.12608621 -0.12635452 0.87573022 0.4665466 0.12422095 0.16157091
0.19931667 -0.12165107 -0.125753 -0.99066359 0.13582499 0.01171201 0.15648888
0.23017424 -0.12030982 -0.12247361 -0.95846903 -0.26515675 -0.10501923 0.15633902
-0.45070633 -0.11222623 -0.12674066 0.94283867 0.33299607 0.012999342 0.068404153
-0.44826305 -0.11816519 -0.12007584 0.95035905 0.3111344 -0.0036174539 0.1699428
-0.48348606 -0.10604762 -0.12475102 0.9566924 0.2830779 0.067871861 0.1442332
0.20634691 -0.10479339 -0.12719779 -0.97802067 0.20602599 0.03207678 0.16862102
-0.45651376 -0.098109812 -0.12642027 0.95327067 0.30211675 0.00064519246 0.093012482
-0.48932311 -0.081729844 -0.12592113 0.96975261 0.23697446 0.058505636 0.15850842
-0.46042353 -0.087172627 -0.12602511 0.89416087 0.36446208 -0.26008406 0.22972083
0.21270479 -0.086736828 -0.12288013 -0.94493949 0.32724476 -0.00032983432 0.12253422
0.24149957 -0.082407922 -0.12507471 -0.70395827 0.70126027 -0.11259139 0.16436608
0.33278304 -0.084012605 -0.12718984 0.21875916 0.97567785 -0.014043885 0.04135669
0.34663355 -0.084223427 -0.1247474 -0.19256756 0.96974385 0.1500486 0.014432826
0.3564043 -0.082125545 -0.12284002 -0.2742849 0.94433469 0.1816584 0.022201186
-0.48967889 -0.07897611 -0.12249357 0.991382 0.11927296 0.054182485 0.16851637
0.21450233 -0.073332697 -0.12641695 -0.98324907 0.17937621 0.032334868 0.17918688
0.24236533 -0.075951725 -0.12042923 -0.98785472 0.10568842 0.11389913 0.22426619
0.31773698 -0.074431762 -0.12305373 -0.58928263 -0.66867834 0.45344812 0.0072602467
0.36642423 -0.07459563 -0.12688369 -0.58810282 0.73449254 0.33860874 0.023657475
-0.49125156 -0.06680432 -0.12038304 0.9927392 -0.11708722 0.027554695 0.17000251
-0.46328318 -0.065039806 -0.12277497 0.97503155 0.004890562 0.22201221 0.21546833
0.21586061 -0.063203886 -0.12436366 -0.997958 -0.062725239 0.01205436 0.197312
0.24380623 -0.065207131 -0.123005 -0.99159884 0.12542278 0.031636909 0.20131645
0.31206137 -0.06577599 -0.12174574 -0.60817188 -0.60904706 0.50910556 0.015581413
0.37812096 -0.062636077 -0.12609121 -0.70860147 0.54129738 0.45263791 0.0068544359
-0.49291909 -0.053898439 -0.12364096 0.99607486 0.086258814 -0.019856539 0.12318783
0.24561909 -0.051688559 -0.12893042 -0.98044169 0.1804826 0.078486107 0.11246524
0.30940184 -0.058467392 -0.12042817 -0.80353868 -0.25921705 0.53584713 0.0054903408
0.38272211 -0.055522114 -0.12503974 -0.74265158 0.47166348 0.47539684 0.0035305992
-0.46625721 -0.042021926 -0.12793092 0.99670917 0.015620063 -0.07954172 0.11587774
0.2178205 -0.048588902 -0.12869963 -0.97244537 0.20630941 0.10856514 0.18485577
0.24649817 -0.04513333 -0.12889394 -0.85494 0.28233278 0.43516183 0.19542725
0.38438168 -0.048985094 -0.12750614 -0.82285184 0.24267042 0.5138346 0.003492126
-0.46745026 -0.032788187 -0.12298404 0.97683495 0.21293955 0.021219201 0.12618811
0.21998997 -0.03241118 -0.12547311 -0.90223926 0.41363427 -0.12194652 0.19762778
0.248202 -0.032427728 -0.12662038 -0.92960244 0.21276192 -0.30095124 0.25292608
0.38583848 -0.036906451 -0.12988657 -0.84595883 0.10566431 0.52267456 0.0048291199
-0.49623778 -0.028212754 -0.12505034 0.75668699 0.63450986 -0.1575501 0.26746106
-0.46805134 -0.028136028 -0.12373187 0.98105419 0.18710068 0.050259452 0.14384899
0.24977174 -0.020721672 -0.12790744 -0.98928821 0.13837047 -0.046501245 0.18879254
0.30788553 -0.025278918 -0.12175742 -0.78517783 0.2893573 0.54751074 0.0039823344
-0.47010764 -0.012220981 -0.12671565 0.99454767 0.10427178 -0.0015737781 0.00047138755
-0.46927634 -0.018655058 -0.12196211 0.99939322 0.034760367 -0.0022130606 0.12240104
0.22241777 -0.014306717 -0.12808765 -0.99899459 -0.044655301 0.0039622481 0.16823433
0.25032973 -0.016560987 -0.12296756 -0.99779773 0.061030265 0.02598072 0.12152363
0.3076005 -0.016586058 -0.1265379 -0.75276452 0.40004253 0.52279204 0.005586239
0.31136423 -0.010286827 -0.12533085 -0.73954463 0.43510908 0.51356965 0.0050374339
-0.4992215 -0.0051198252 -0.12469511 0.99217451 0.10698413 0.064375117 0.21473281
-0.4709549 -0.0056636026 -0.12509848 0.99817508 0.059627868 0.0095353965 0.071752571
0.31630933 -0.0032197442 -0.12533882 -0.6771549 0.55763119 0.48011315 0.0095539503
0.38349465 -0.0087260026 -0.12993294 -0.80264825 -0.31112841 0.50887614 0.014449984
-0.49884343 0.0095299743 -0.12760985 0.98892426 0.14810887 -0.0096241347 0.19568875
-0.47154886 0.0026699395 -0.12619014 0.98863524 -0.1101943 0.10226222 0.24961664
0.25222027 0.00071146421 -0.12932259 -0.99993891 0.01003413 0.0046434863 0.065891311
0.37892002 0.0060077659 -0.12207548 -0.59730136 -0.69660664 0.39745486 0.011097163
-0.49771628 0.017935218 -0.12511773 0.99464184 -0.089872226 0.05109356 0.14795339
-0.46945632 0.018276284 -0.12669039 0.96714914 -0.050929617 0.24905582 0.19301744
0.25094485 0.010582814 -0.12846853 -0.99902302 -0.032660339 0.029771665 0.091680996
0.33760953 0.012202762 -0.12169062 -0.42942172 0.84412861 0.32100457 0.025487434
0.34473717 0.015842853 -0.12869191 -0.14317717 0.98877263 0.042765595 0.033456195
0.36809316 0.013428851 -0.1224409 -0.35354507 -0.89920747 0.25774387 0.030632865
-0.49715716 0.022104498 -0.12059521 0.98267138 -0.15501739 -0.10161938 0.17165117
-0.46856585 0.024916599 -0.12248372 0.9393639 -0.31882408 0.1262801 0.16819213
0.24915975 0.024398666 -0.12998581 -0.98674995 -0.07092122 0.14592694 0.15407611
-0.46744013 0.033311062 -0.12737677 0.99112856 -0.13290639 -2.992221e-05 6.1431034e-05
0.21977684 0.033582065 -0.1264776 -0.99990666 -0.013005765 0.0041969735 0.18166308
0.24763101 0.036230743 -0.12419845 -0.96974641 -0.21536213 0.11493925 0.15294629
0.2187424 0.041588262 -0.12943083 -0.87499642 -0.2661652 0.40439752 0.23179495
0.24627312 0.046740524 -0.12299375 -0.99043548 0.053314846 0.12725975 0.18455365
-0.49312514 0.052171454 -0.12073287 0.99674731 0.005235075 0.080419637 0.19141753
-0.46423876 0.057183646 -0.12524575 0.98176938 -0.18679254 -0.035175644 0.18567502
0.21696466 0.055347372 -0.12976377 -0.89359629 0.43866012 -0.095199727 0.17164133
0.24550167 0.052711122 -0.1261014 -0.9675895 -0.24636766 -0.055439685 0.16634212
-0.46337637 0.063614652 -0.12346516 0.96681404 -0.24459091 -0.073795967 0.14650311
0.24422053 0.062626705 -0.1200211 -0.98852396 -0.045606244 -0.14401555 0.16784804
-0.46247452 0.070339635 -0.12994164 0.98789585 -0.15088058 -0.036010835 0.071844257
0.24242978 0.076486312 -0.12949225 -0.99729925 -0.071957953 0.014703852 0.069583572
-0.48898375 0.083054066 -0.12380931 0.95858389 -0.27916691 0.056415841 0.13759109
-0.4599303 0.089312084 -0.12188641 0.69033265 -0.61755329 0.37691996 0.1893672
0.21310738 0.085201435 -0.12791468 -0.65002519 -0.70113492 -0.29304779 0.19182129
0.24145785 0.084008843 -0.12546152 -0.97957051 -0.20078845 0.011206252 0.08155074
-0.45971513 0.090772316 -0.12369766 0.97260672 -0.23082089 -0.027527919 0.088423297
0.2088646 0.098300189 -0.12664121 -0.95678395 -0.28752035 0.043549631 0.13302422
0.21011251 0.095266834 -0.12075705 -0.68690908 0.63146865 0.35972688 0.16233467
0.23941483 0.097540982 -0.12996541 -0.97247535 -0.2328231 0.0092241522 0.096569099
-0.48480743 0.10337519 -0.12521625 0.97508353 -0.21744767 -0.043916054 0.17643549
-0.4542768 0.10393245 -0.12043425 0.88829887 -0.43065026 0.15957902 0.16189587
0.2073334 0.10202213 -0.12480138 -0.94429469 -0.3278192 0.029019056 0.14655806
0.23455466 0.10935478 -0.12612435 -0.86995071 -0.3665725 -0.3298642 0.1749133
-0.45154512 0.1104827 -0.12024591 0.91853327 -0.38869119 0.072220311 0.14013545
0.23289922 0.1133787 -0.12101659 -0.96226192 -0.23696753 -0.13378435 0.21402714
-0.44617352 0.12336314 -0.12544087 0.92492414 -0.37980014 0.016348884 0.0724978
0.1981165 0.12442605 -0.12913413 -0.87923461 -0.43432429 0.19572671 0.21452653
0.22760649 0.12624398 -0.12599003 -0.88726127 -0.44010916 0.138099 0.15491885
-0.47318056 0.13125493 -0.12488377 0.84353524 -0.51829237 0.1407882 0.15954909
0.22605558 0.13001385 -0.12518114 -0.88867712 -0.44184145 0.12259328 0.10945108
-0.46665478 0.14690293 -0.12060349 0.82743841 -0.5537324 0.093414612 0.18106234
-0.43919855 0.14008825 -0.12001742 0.8548643 -0.49390575 -0.1589472 0.23447914
0.18777163 0.14957172 -0.1263617 -0.94447714 -0.32561311 0.044035081 0.18448339
0.21924013 0.14658043 -0.12014963 -0.91277605 -0.40751314 -0.027802683 0.057845805
0.22056943 0.14334923 -0.1291945 -0.91808408 -0.39241925 0.055934381 0.11419018
-0.46221197 0.1575563 -0.12743437 0.93090934 -0.36225861 0.046653058 0.17980504
-0.43343472 0.15390918 -0.12536579 0.90980661 -0.41073969 0.059538759 0.14085265
0.18622267 0.15333682 -0.12584615 -0.80159241 -0.59499365 0.058584843 0.26039815
