# .PCD v0.7 - Point Cloud Data file format
VERSION 0.7
FIELDS x y z normal_x normal_y normal_z curvature
SIZE 4 4 4 4 4 4 4
TYPE F F F F F F F
COUNT 1 1 1 1 1 1 1
WIDTH 582
HEIGHT 1
VIEWPOINT 0 0 0 1 0 0 0
POINTS 582
DATA ascii
0.18179965 0.14093487 -0.063945621 -0.91874236 -0.39321819 -0.035944287 0.13234317
-0.4624579 0.15367118 -0.062171727 0.93693495 -0.34727836 0.039379172 0.1857776
0.17556831 0.15597859 -0.062865287 -0.72531378 -0.6448186 -0.24109934 0.15879382
-0.45798653 0.16446605 -0.064005546 0.88222659 -0.46236047 0.088877015 0.16115642
0.14863162 0.16319764 -0.066995159 -0.64353067 -0.76451683 -0.037178598 0.22436225
0.17111617 0.16672707 -0.063205205 -0.71052271 -0.6949113 0.11070555 0.21334609
-0.45338681 0.17557073 -0.06955865 0.93438679 -0.35268545 -0.050341662 0.17100127
-0.42929906 0.17197604 -0.069759369 0.80649841 -0.52612704 0.26972321 0.22194308
0.14444917 0.17056343 -0.066819392 -0.9711656 -0.21588202 -0.10115457 0.22546126
0.16808672 0.17404075 -0.063301601 -0.95039046 -0.2978746 0.089603573 0.23260784
-0.41850063 0.18604884 -0.068235189 0.66894519 -0.73779571 0.090386666 0.19875565
-0.44066086 0.19351113 -0.061353937 0.76584792 -0.64141768 -0.045390923 0.17347595
-0.43738791 0.19777656 -0.064520828 0.6009202 -0.79254633 -0.10375547 0.18923652
-0.41292453 0.19331574 -0.068772197 0.38515851 -0.86673248 0.31690341 0.19757977
-0.40993243 0.19721511 -0.069710605 0.40084782 -0.9156425 0.030328292 0.18515112
0.15503657 0.19310774 -0.061227724 -0.74760324 -0.64923847 -0.13992392 0.19275688
-0.43516469 0.20067388 -0.068334304 0.53181636 -0.82817954 0.17688997 0.20164713
-0.42990854 0.20752385 -0.060960054 0.52334142 -0.85204226 0.011738623 0.25516868
-0.40532783 0.203216 -0.062177729 0.78051484 -0.61314237 0.12187294 0.18623106
0.11716807 0.20611686 -0.065288953 -0.75061256 -0.65332675 -0.098716713 0.19749416
-0.42097723 0.21916337 -0.067736655 0.73118436 -0.66034389 0.17121726 0.23024292
-0.39597631 0.21540315 -0.064934604 0.69138938 -0.65672481 0.301153 0.19836664
0.10775053 0.21839005 -0.068912655 -0.9508785 -0.29318485 -0.099361748 0.21526268
0.13734972 0.21615769 -0.064600505 -0.59588957 -0.76173258 -0.25432113 0.18920603
-0.39225432 0.22025369 -0.066703171 0.66894448 -0.73666 -0.099223658 0.16550261
-0.38610479 0.22826791 -0.064579353 0.7495023 -0.65519875 0.094662152 0.18718448
0.12747061 0.2290324 -0.06441918 -0.8224473 -0.50320137 -0.26527122 0.22688515
0.13230775 0.22272854 -0.063872956 -0.91468 -0.3194015 -0.24767552 0.19947542
-0.38164976 0.23407383 -0.060189713 0.71500856 -0.698843 -0.019523043 0.19373415
-0.37986708 0.23639706 -0.069287047 0.82970256 -0.55538124 -0.056084331 0.18675321
0.097852975 0.23128878 -0.060425371 -0.69955933 -0.63053602 -0.33621591 0.22937007
0.12264791 0.23531747 -0.065490022 -0.89846706 -0.42956942 -0.090703659 0.19686514
-0.36954361 0.24443561 -0.063968688 0.6061331 -0.79433143 -0.040498897 0.1129585
0.087389849 0.24153504 -0.062469691 -0.37375778 -0.86938131 -0.32323575 0.17833731
0.11506948 0.2451939 -0.069294259 -0.55764341 -0.80199653 -0.21409176 0.1858137
-0.39281052 0.25446853 -0.065371789 -0.20938063 -0.94087672 -0.26629078 0.23888727
-0.34991401 0.25949794 -0.063326567 0.63453668 -0.73681599 0.23337804 0.19298023
0.068087354 0.25634637 -0.069705516 -0.24144499 -0.66515607 -0.70659167 0.18744521
0.070424311 0.25455317 -0.064666241 -0.53960854 -0.76831245 -0.3442654 0.21829763
0.10510124 0.25583088 -0.068388775 -0.68643516 -0.70139116 -0.19198254 0.17770405
0.11091869 0.25060332 -0.069474339 -0.47135583 -0.86178011 -0.18750691 0.1769502
-0.34659287 0.26204628 -0.064909309 0.69302332 -0.6770373 0.24766766 0.23357476
-0.3397769 0.26727641 -0.065439053 -0.0028123485 -0.99417561 0.10773552 0.21512786
0.058926303 0.26337588 -0.065297663 -0.4892154 -0.83106685 0.26456818 0.26873991
0.09730649 0.261812 -0.069354929 -0.52330381 -0.70853382 -0.47342688 0.15021122
-0.36262351 0.27763185 -0.065897785 0.65212154 -0.74140108 -0.15831003 0.25920898
0.045503974 0.2736752 -0.066453546 -0.6581068 -0.71681726 0.23036584 0.16961113
0.074604541 0.27923185 -0.060969479 -0.83289951 -0.55248237 -0.03227555 0.20699406
0.08169663 0.27378988 -0.063165143 -0.54693997 -0.83505708 0.059467383 0.23244889
-0.35743642 0.28161204 -0.066009536 0.65625989 -0.72910392 -0.19424278 0.25888231
-0.32095739 0.28171712 -0.064005852 0.43210143 -0.85067177 0.29940924 0.23846853
-0.31998187 0.28246564 -0.063105628 0.51643628 -0.85144639 0.091283768 0.22277287
0.024376724 0.2898812 -0.06730435 -0.73279464 -0.64786988 0.20803021 0.17085139
0.067490563 0.28469056 -0.064907894 -0.65106243 -0.7119419 0.26316643 0.21542834
-0.33433241 0.2993404 -0.064389601 0.58689028 -0.72390264 0.36266351 0.21318607
-0.29708505 0.29535937 -0.069589503 0.66636282 -0.65078491 0.36392257 0.21205178
-0.28900945 0.29870442 -0.066117354 -0.3112843 -0.94952941 -0.038676128 0.22707382
0.020944675 0.2913028 -0.060340673 -0.44239584 -0.87312847 -0.20477472 0.22547708
0.051603924 0.29688084 -0.061190665 -0.49585432 -0.85858035 0.13026237 0.19608574
-0.33136317 0.30161875 -0.063018873 0.4841876 -0.79912782 0.35631031 0.1901792
-0.32512751 0.30640355 -0.06791243 0.6092968 -0.7787087 -0.14956683 0.18308075
-0.28550577 0.30015567 -0.065042593 0.21245874 -0.97699022 0.018746616 0.21574096
-0.27752128 0.30346298 -0.064400353 0.43856394 -0.89832461 0.025972297 0.21222301
-0.26297671 0.30948752 -0.062330414 0.45305103 -0.8545109 -0.25407851 0.23022032
-0.012638756 0.30521351 -0.064678356 -0.19277634 -0.97556531 0.10540216 0.18906964
-0.0075314688 0.30309802 -0.06567739 -0.15705109 -0.97582066 -0.15201662 0.1497367
0.035593029 0.3088921 -0.064715549 -0.522241 -0.85205537 -0.035580546 0.19795322
0.042681217 0.30372745 -0.063107401 -0.37324068 -0.90488589 -0.20462865 0.16922796
-0.31268489 0.31284422 -0.062049486 0.19222184 -0.87644798 -0.44146317 0.22356524
-0.30430129 0.31631681 -0.066483252 0.31627807 -0.94559294 0.076303162 0.24277517
-0.29888231 0.31856143 -0.069470055 0.5380137 -0.76428831 0.35553437 0.21820103
-0.25520396 0.31270713 -0.064326651 0.36024186 -0.9328199 0.0085329255 0.26580989
-0.24504772 0.31691396 -0.064477533 0.37075952 -0.92398089 -0.093790397 0.26064265
-0.034920979 0.31444311 -0.063849069 -0.36787295 -0.92987102 -0.0030478996 0.17960395
-0.027095741 0.31120181 -0.065664835 -0.27096394 -0.9613626 -0.048586622 0.18143168
0.0099757621 0.31979275 -0.063429594 -0.19264512 -0.95017421 0.24506488 0.22404569
0.016081834 0.31726354 -0.065135732 -0.42997503 -0.90181303 0.043066446 0.2382814
0.02241897 0.31463861 -0.064280719 -0.69372416 -0.63987052 0.33062446 0.20607211
-0.29052377 0.32202366 -0.064704552 0.47871521 -0.86169058 0.16828856 0.19491184
-0.28366867 0.32486311 -0.066114791 0.41265202 -0.91044128 -0.028550237 0.20499483
-0.27748281 0.32742539 -0.065570354 0.3385852 -0.93313521 -0.1209079 0.19513217
-0.22788012 0.32353947 -0.0647441 0.45447171 -0.89062792 0.015406794 0.22377607
-0.21558702 0.32515791 -0.064251192 -0.39064094 -0.86886078 -0.30410627 0.19520637
-0.20191415 0.326958 -0.063620001 0.16949096 -0.97064018 -0.17067657 0.19375269
-0.19316107 0.32811034 -0.060939342 0.0007915009 -0.97775179 -0.20976353 0.18418263
-0.18564367 0.32910001 -0.06447266 -0.057855412 -0.99121737 -0.11891585 0.22096245
-0.090053476 0.32775235 -0.061997257 -0.28600046 -0.85331559 -0.43595436 0.16650872
-0.063023344 0.32419378 -0.064122744 -0.37205726 -0.91679633 -0.14511302 0.214994
-0.0051989523 0.32607836 -0.069971517 -0.20492446 -0.96097064 -0.1858533 0.20522885
0.0052764192 0.32173929 -0.065392897 -0.0092991712 -0.99882162 -0.047633398 0.21439077
-0.26388961 0.33305585 -0.061288267 0.32018879 -0.93006968 -0.18013786 0.24653392
-0.25725371 0.33580452 -0.069978796 0.34956706 -0.93607605 -0.039554257 0.22987306
-0.17879421 0.33000177 -0.064763911 -0.10355458 -0.99438667 -0.021714894 0.17227234
-0.16395578 0.33195531 -0.063002601 0.34158209 -0.93964428 0.019753663 0.17938958
-0.15226802 0.33349401 -0.062270604 0.22050355 -0.9532851 0.20645967 0.21730065
-0.14140445 0.33451283 -0.062870711 -0.15852742 -0.90126401 0.40322736 0.19643033
-0.1264074 0.3325384 -0.065337159 0.38211864 -0.91724283 0.11247635 0.12578544
-0.11584464 0.33114779 -0.066161484 0.11703263 -0.92317003 -0.36614248 0.2283476
-0.10919984 0.33027297 -0.063826352 -0.18673703 -0.93103707 -0.31352702 0.2100938
-0.033915497 0.33797312 -0.063227236 -0.50084096 -0.85621291 0.12671925 0.21400113
-0.022560278 0.33326963 -0.069255039 -0.60189033 -0.79311514 -0.093254112 0.15611219
-0.24498077 0.34088817 -0.06607841 0.31874743 -0.94632131 -0.053628955 0.21744998
-0.23601097 0.34443593 -0.066337496 0.26725796 -0.95770168 -0.10668035 0.19982336
-0.21471375 0.34758741 -0.06580139 0.11811832 -0.99213433 0.041439902 0.2283186
-0.20607927 0.34872419 -0.069296516 -0.13062942 -0.96671265 -0.22000562 0.23568062
-0.084312566 0.34931111 -0.068456642 -0.21026361 -0.97547376 -0.065116972 0.19161952
-0.074260697 0.34798771 -0.064540543 0.093583882 -0.92977405 -0.35603675 0.19264883
-0.065960199 0.34689495 -0.06554608 -0.052595422 -0.99774557 -0.041683886 0.18211988
-0.053270154 0.34522426 -0.063103154 -0.26684952 -0.95027941 -0.1605002 0.16348979
-0.19299325 0.35044694 -0.068101041 -0.24794696 -0.96871537 -0.0106225 0.25181201
-0.15505444 0.35544169 -0.066106766 0.32348564 -0.94579571 -0.028766243 0.23744732
-0.14606144 0.35659426 -0.06572596 -0.11961692 -0.99001223 -0.074615516 0.21430905
-0.12785774 0.35504389 -0.066795103 -0.13966872 -0.98544312 0.096925519 0.21166205
-0.10962115 0.35264301 -0.069946684 0.13031755 -0.97791404 -0.16340587 0.19982864
-0.096572101 0.35092509 -0.068458743 -0.18065913 -0.95977747 -0.2149176 0.18888758
-0.19212326 -0.35056153 -0.055028856 -0.11099384 0.97393459 -0.19781771 0.20201935
-0.17958707 -0.35221195 -0.056138098 0.39317808 0.91543049 -0.086011797 0.2151141
-0.14604862 -0.35654604 -0.050214734 0.34109589 0.93919647 0.039541036 0.21377288
-0.12059184 -0.35408732 -0.057031326 -0.1767406 0.96412516 -0.19805416 0.14878294
-0.10496204 -0.35202962 -0.053899296 -0.26797009 0.74533671 -0.61046314 0.20041403
-0.094304897 -0.35062659 -0.058228031 0.17028823 0.94670504 -0.27340695 0.18827075
-0.22488345 -0.34624854 -0.057975799 0.16726583 0.9842028 -0.058026329 0.13827601
-0.21557482 -0.34747407 -0.055278506 0.052807819 0.99562949 -0.07702814 0.16516989
-0.20221066 -0.34923348 -0.05255077 0.015972348 0.93145025 -0.36351806 0.18451177
-0.19847432 -0.34972537 -0.056391466 -0.066465072 0.99261165 -0.10151142 0.20021515
-0.086338535 -0.34957778 -0.051028334 0.10103036 0.93813813 -0.33119437 0.2191564
-0.073471777 -0.34788388 -0.058731042 0.082563482 0.93373334 -0.34831798 0.1573666
-0.068366341 -0.34721172 -0.051811337 -0.039144121 0.95837766 -0.28280741 0.21522334
-0.044706192 -0.34244278 -0.057870984 -0.31075835 0.94531953 -0.098995946 0.14990772
-0.27057213 -0.3302879 -0.052865431 -0.017087901 0.99577874 -0.090181932 0.20390551
-0.26092294 -0.33428472 -0.054212615 -0.035925385 0.99910527 0.022317408 0.21913993
-0.17637166 -0.33032072 -0.055326458 -0.23578937 0.96706635 -0.095844142 0.21415062
-0.15341538 -0.33334294 -0.054831181 0.24607918 0.95398486 -0.17134109 0.16670139
-0.13079302 -0.33311582 -0.056726635 -0.14248541 0.83606684 -0.52980196 0.17542358
-0.11410451 -0.3309187 -0.053192545 -0.20325933 0.84929937 -0.4872126 0.19385175
-0.034713656 -0.33830371 -0.055150494 -0.13057522 0.98571789 -0.1063496 0.15355514
-0.02012654 -0.33226153 -0.050879527 -0.63294852 0.67999357 -0.37011471 0.19457388
-0.018004751 -0.33138266 -0.054371074 -0.59524477 0.79388273 -0.12423295 0.17492095
-0.29242229 -0.32123727 -0.059640426 0.53455782 0.84260929 0.065249868 0.21610411
-0.28204635 -0.32553512 -0.059486195 0.27702406 0.89723063 0.34385297 0.19467351
-0.27335325 -0.32913589 -0.055560403 0.25649461 0.88573021 0.38690117 0.20508485
-0.23470125 -0.32119963 -0.057145588 0.3550894 0.93292838 -0.059633337 0.19669709
-0.20589134 -0.32643437 -0.055610243 0.20601635 0.90240252 -0.37845334 0.25591916
-0.19295159 -0.3281379 -0.05438751 0.33367881 0.85318917 -0.40090743 0.21319418
-0.1872049 -0.3288945 -0.053280346 0.31865266 0.90279281 -0.2888352 0.21883279
-0.10357848 -0.32953292 -0.051451363 -0.0093161771 0.99342567 -0.11409935 0.19979919
-0.098157026 -0.32881919 -0.056067802 -0.12530231 0.99085665 -0.050023299 0.20087302
-0.084720597 -0.32705024 -0.053563252 0.40326884 0.88735628 -0.22354627 0.15144704
-0.079756916 -0.32639676 -0.056480225 -0.27804762 0.93601066 -0.21580894 0.23157907
-0.054364301 -0.3224968 -0.051242888 0.039146774 0.97281313 -0.22825892 0.22559369
-0.013035939 -0.32932454 -0.057098325 -0.45582908 0.87475985 -0.16436261 0.21111406
0.004284922 -0.32214999 -0.058434017 -0.42894208 0.79517007 -0.42861778 0.15637599
-0.29723352 -0.31924438 -0.059097476 0.36227992 0.92782289 -0.088870205 0.21929571
-0.25296694 -0.31363374 -0.055264432 0.2557295 0.96633983 -0.028102718 0.22373776
-0.24453302 -0.31712714 -0.05801687 -0.10862326 0.97977984 0.16802496 0.22274023
-0.047343869 -0.31958884 -0.0503776 -0.26122928 0.93851906 -0.22570166 0.25192392
0.015095063 -0.31767228 -0.053829432 -0.089673445 0.97524846 -0.2021118 0.17135732
-0.33195883 -0.30116168 -0.052444115 0.77212495 0.61034828 -0.17691226 0.16558844
-0.32538694 -0.30620444 -0.0587124 0.60919797 0.7917524 0.044786569 0.12702619
-0.28271016 -0.30131364 -0.056602642 -0.32898846 0.8142578 -0.47827902 0.22304662
-0.27925032 -0.30274674 -0.058845967 0.27340782 0.96189684 -0.0016304285 0.24982882
-0.020629127 -0.30852324 -0.053862117 -0.31823379 0.76703501 -0.55712175 0.18654042
-0.017913738 -0.3073985 -0.054180302 -0.53357887 0.75798404 -0.37517169 0.21376404
0.036268078 -0.30864844 -0.052323006 -0.66842902 0.74087507 -0.065625757 0.19069834
-0.34190136 -0.29353252 -0.053954914 0.77192432 0.61097997 0.17560288 0.22304335
-0.33630008 -0.29783052 -0.057462081 0.69141418 0.66249079 0.28818828 0.17782578
-0.29618555 -0.29573196 -0.053959258 -0.52416569 0.84924811 -0.063467577 0.20511435
0.0061205383 -0.29744315 -0.055179343 -0.45951298 0.88711339 -0.043332502 0.21583089
0.020048279 -0.29167408 -0.054580279 -0.78145969 0.60220736 0.16330035 0.19351846
0.057459146 -0.29238796 -0.050390311 -0.64277405 0.63219351 0.43263471 0.24882405
-0.35695922 -0.28197819 -0.052467756 0.50282806 0.8061074 0.3120175 0.21683474
-0.34905761 -0.28804132 -0.052021373 0.56913751 0.82108015 0.043702118 0.26907825
0.025332414 -0.2891534 -0.059403643 -0.65812021 0.72000754 -0.22015214 0.20183709
0.036961798 -0.28022987 -0.058712095 -0.66427702 0.74677575 0.032587595 0.14572065
0.066462472 -0.28547943 -0.05708281 -0.19094752 0.95411259 -0.23066886 0.20650148
-0.35955384 -0.27998731 -0.051240116 0.71309072 0.69798499 -0.065715797 0.2241354
-0.328623 -0.2758351 -0.056320202 0.85960329 0.46759081 0.20601229 0.21803191
0.037805758 -0.27958226 -0.05700551 -0.61025721 0.79220229 0.0012713361 0.17509332
0.046516724 -0.27289811 -0.053866088 -0.58011264 0.81197536 -0.064538397 0.20493713
0.081453845 -0.27397618 -0.054995652 -0.78639203 0.34251916 -0.51407009 0.26624629
-0.37586337 -0.26747254 -0.054351062 0.7334125 0.67929542 -0.025765024 0.16800463
-0.34549516 -0.26288861 -0.056964796 0.2388877 0.94795227 0.21052139 0.21026561
-0.33943361 -0.2675398 -0.054946154 0.44114283 0.84458244 0.30343619 0.23618788
0.05746951 -0.26449373 -0.055007502 -0.53752297 0.76324147 0.35851288 0.13319047
0.088371865 -0.26866779 -0.059138127 -0.91539073 0.34735072 0.20348816 0.22834365
0.094858944 -0.26369008 -0.055231765 -0.24111199 0.96509874 -0.10222213 0.23898116
-0.3526938 -0.25736493 -0.058043487 0.42197654 0.83662528 0.34927636 0.27727312
0.06720835 -0.25702086 -0.055034526 -0.53931683 0.82828879 0.15190464 0.15007308
0.07400775 -0.25180352 -0.055872932 -0.47732097 0.87825382 0.028896898 0.20591678
-0.40492624 -0.24008143 -0.055904038 0.79705143 0.60056633 -0.063474551 0.17057784
-0.37157494 -0.24287689 -0.054980196 0.87034541 0.35144857 0.34493867 0.20749359
-0.3628881 -0.24954256 -0.05901245 0.58271855 0.77412933 -0.24731129 0.21459186
0.078920603 -0.24803373 -0.052974388 -0.4618845 0.87745649 -0.12935525 0.22741692
0.083119594 -0.24481171 -0.054686464 -0.84944671 0.26580042 0.45584029 0.24190947
0.11613025 -0.24381146 -0.051396541 -0.76538855 0.64265174 -0.034337617 0.19060329
-0.40720206 -0.23711552 -0.053013176 -0.33532089 0.92029905 0.20151836 0.17163238
0.091202818 -0.23860925 -0.051093608 -0.68196732 0.72312999 -0.10956024 0.21970592
-0.41527343 -0.22659667 -0.059437536 0.68116999 0.72920024 -0.065380029 0.19566287
-0.39077801 -0.22217768 -0.055585288 0.52636033 0.85025775 0.0025545321 0.23315103
-0.38729995 -0.22671033 -0.054384589 0.54736501 0.83561444 -0.046261128 0.24241535
0.1050252 -0.22194174 -0.053682931 -0.82544267 0.45731986 -0.33091232 0.25977486
-0.42505553 -0.21384844 -0.05999402 0.85276842 0.44979632 -0.2654607 0.2213202
-0.39744666 -0.21348691 -0.052336894 0.91585606 0.39960811 -0.038999885 0.19955115
0.1126439 -0.21201289 -0.054667439 -0.89578891 0.42392585 -0.1336007 0.20693594
0.13686173 -0.21679367 -0.053750247 -0.7645312 0.590689 -0.25802824 0.20439731
-0.43499893 -0.20088989 -0.057807829 0.41259679 0.87543702 -0.2517418 0.24768732
-0.40256718 -0.20681374 -0.056575522 0.91237032 0.4087036 -0.02327192 0.18858199
0.11550167 -0.20828855 -0.052117947 -0.79715484 0.60351372 0.01775842 0.20824789
0.12115029 -0.20092715 -0.051667508 -0.69861269 0.689152 -0.19237943 0.23624739
0.14573738 -0.2052267 -0.05460668 -0.77853739 0.59670305 -0.19448653 0.20066202
-0.44112536 -0.19290575 -0.050670296 0.66369408 0.74652892 0.046954092 0.21159571
-0.41403845 -0.19186404 -0.056139152 0.52211058 0.85062015 0.062016066 0.24010958
-0.4099555 -0.19718508 -0.05201222 0.75379544 0.58584505 0.29762059 0.23909445
0.12731867 -0.19288833 -0.057539955 -0.71886593 0.68305862 -0.12908393 0.18162209
0.15415369 -0.19425833 -0.057235017 -0.79705125 0.60366708 -0.017184487 0.22546044
-0.45093969 -0.18011551 -0.054579057 0.85897434 0.50941342 0.051586267 0.21170676
-0.44367483 -0.18958326 -0.056741349 0.67004645 0.71312648 0.2061272 0.22034124
-0.41646361 -0.18870358 -0.05275511 0.6088891 0.78438866 0.11827331 0.22696912
0.16273847 -0.18307044 -0.050744526 -0.97389483 0.22219917 -0.046436183 0.22000948
-0.45382941 -0.17450218 -0.054013222 0.90793812 0.40227184 -0.1175825 0.21394925
-0.42739189 -0.17446154 -0.054755781 0.67073631 0.73484993 0.10054114 0.23322645
0.13888437 -0.17781565 -0.052021608 -0.76886326 0.6384595 -0.034912352 0.23154052
0.14322264 -0.17216188 -0.05830843 -0.9118703 0.40468606 0.068714939 0.21660618
0.16735387 -0.17537685 -0.053642154 -0.88725394 0.46123964 0.0062005548 0.24976091
-0.4559294 -0.16943242 -0.059602641 0.84729856 0.52954233 -0.040867325 0.21851982
-0.43328312 -0.1657221 -0.056106169 0.74057555 0.46988311 -0.48037258 0.24689598
0.14809555 -0.16414954 -0.056350093 -0.97982538 0.19925091 0.015533444 0.2169922
-0.46300721 -0.15234508 -0.054715816 0.87216699 0.46135077 -0.16272758 0.19643149
0.15235156 -0.15421692 -0.0533581 -0.91157168 0.36732423 0.18468909 0.18872437
0.17716306 -0.15212855 -0.050394025 -0.89297146 0.4463605 -0.05800239 0.21652897
-0.46677509 -0.14324862 -0.05907838 0.97268403 0.1862184 0.13859455 0.21819487
0.15525937 -0.14719686 -0.053309813 -0.84355754 0.53329021 -0.063342705 0.19704397
0.18174019 -0.1410784 -0.059628531 -0.89773583 0.43202177 -0.086183392 0.18711017
-0.47012043 -0.13517222 -0.05654069 0.98887759 -0.094744906 0.1146497 0.26787162
-0.46910512 -0.13762331 -0.056554049 0.41622755 -0.8800478 0.22862743 0.27548385
0.16154125 -0.13203102 -0.0508921 -0.60748088 0.76778251 0.2036591 0.23481007
0.18272376 -0.13870384 -0.059482373 -0.8879469 0.45763552 -0.046042487 0.1784187
-0.47252142 -0.12937573 -0.059359103 0.94126242 0.32602775 0.087926082 0.20637648
-0.45050967 -0.12470485 -0.052395523 0.97493929 0.20779675 0.079460911 0.2830255
-0.44940296 -0.12737678 -0.057954982 0.99320728 0.065108046 -0.096438028 0.21595263
0.16549411 -0.12248797 -0.055221751 -0.73689127 0.66277474 0.13311975 0.18056819
0.189667 -0.12194137 -0.050814517 -0.83371609 0.49111444 0.25243607 0.18657999
-0.47770223 -0.11686811 -0.054110974 0.96863341 0.24521229 0.040250406 0.21553726
0.19315556 -0.11351922 -0.052732062 -0.91242927 0.40079951 0.08265914 0.2478286
-0.48285231 -0.10443477 -0.053729884 0.89951748 0.38673607 0.20323272 0.16340019
-0.45830068 -0.10589574 -0.050749362 0.8107146 0.52562588 0.25779706 0.19361603
0.17274344 -0.10498656 -0.059824776 -0.97683549 0.0023301013 0.21397872 0.24453366
0.19740637 -0.10325689 -0.052517176 -0.92473578 0.33664545 0.17757705 0.18590833
-0.48673868 -0.095052317 -0.053992011 0.91854662 0.38295174 0.098082326 0.12882376
-0.46273929 -0.095179893 -0.057555251 0.76433289 0.46910542 0.44241983 0.23690461
0.17702121 -0.094659165 -0.056440089 -0.9914422 -0.01808003 0.12928872 0.25580978
0.20129472 -0.093291722 -0.053707369 -0.93182534 0.33971897 -0.12764196 0.18859994
-0.48838848 -0.088198431 -0.053897008 0.98968774 -0.06316153 0.12856498 0.1977651
-0.4666222 -0.083401009 -0.055132877 0.90162152 0.073281661 0.42627275 0.23645811
0.18067852 -0.083913855 -0.054653868 -0.78956205 0.38591588 0.4771381 0.23039414
0.20300713 -0.084001705 -0.056022465 -0.98739618 0.15326375 -0.039483439 0.17984384
-0.49003276 -0.075708702 -0.050873078 0.97701079 -0.12592416 -0.17202607 0.15851735
-0.48974401 -0.077901959 -0.059648655 0.99816555 -0.05808391 0.017084645 0.20528777
-0.46843731 -0.070246518 -0.051382523 0.29080531 -0.95472467 0.062714264 0.17388417
0.18171717 -0.076219141 -0.056212284 -0.95916283 0.18126127 -0.21714288 0.25043121
0.20475012 -0.070762329 -0.059562095 -0.98737466 0.15769744 -0.014927854 0.190121
-0.46870559 -0.068208806 -0.058262598 0.25003642 0.92305279 0.29232743 0.24620046
-0.4700616 -0.05790903 -0.052229136 0.99991953 -0.0093215881 -0.0086116083 0.21636321
-0.49387866 -0.046496086 -0.057411406 0.99462599 0.094670601 0.041911494 0.15293236
0.18560499 -0.046688139 -0.05570212 -0.92518264 0.28550434 -0.2500487 0.18513103
0.20833878 -0.043503869 -0.053228032 -0.94135839 0.23048614 -0.24641526 0.21836898
0.47417086 -0.043889351 -0.053403065 -0.1690079 -0.98518944 -0.028952127 0.061454736
-0.49603945 -0.030083273 -0.050391361 0.95976955 0.11920831 0.2542277 0.22254221
-0.4729549 -0.035931934 -0.057263151 0.88755316 -0.086065628 0.45259494 0.21634674
0.18696922 -0.03632573 -0.05901818 -0.91203904 0.40962118 -0.01988163 0.18573877
0.20964152 -0.033608511 -0.057535563 -0.84904957 0.30129254 -0.43397895 0.18167211
0.45367703 -0.03158249 -0.054830849 -0.70437485 -0.70615363 0.072133169 0.027628692
0.48820665 -0.036392607 -0.055581383 -0.65855253 0.74125314 0.12981686 0.045992222
0.49147391 -0.03227428 -0.0544893 -0.81875348 0.57410485 -0.0068119732 0.031962667
-0.49733517 -0.020241508 -0.055946454 0.92806721 0.0016181495 0.37240914 0.19458848
-0.47477287 -0.02212313 -0.053635933 0.73095721 0.084941886 0.67711627 0.20551671
0.18836874 -0.025695452 -0.051389355 -0.97196347 0.15956385 -0.17270313 0.23479441
0.21034855 -0.028238021 -0.054452434 -0.93674725 0.28645101 -0.20112306 0.20937608
0.44911242 -0.021558888 -0.053024419 -0.92262226 -0.38308153 0.044909734 0.011181133
0.49633306 -0.022355355 -0.055284187 -0.91529053 0.40257156 0.013394551 0.014953892
-0.49756694 -0.018480994 -0.056360066 0.93417448 -0.039919905 0.35457659 0.20449311
-0.47623515 -0.011015698 -0.056444753 0.45673883 -0.049384095 0.88822907 0.16469882
0.2118047 -0.017177476 -0.052987907 -0.93631124 -0.047089834 -0.34799954 0.1727241
0.49913383 -0.010807726 -0.057812642 -0.98400658 0.173171 0.041747466 0.0082172984
-0.49917954 -0.0062319781 -0.058559068 0.99772066 0.034860961 0.057776779 0.21619348
0.19108215 -0.0050849007 -0.055597089 -0.93554497 -0.1278411 0.32926011 0.25196964
0.4996767 -0.0040340996 -0.05442702 -0.99414051 0.10447328 0.027748775 0.0056244801
-0.47648495 0.0091186715 -0.055735569 0.9717989 -0.23097941 0.047490437 0.2827782
0.21306276 0.0076215626 -0.055807043 -0.9251039 -0.10179856 -0.36581397 0.18126808
0.49968064 0.0039848764 -0.057139773 -0.9954372 -0.074119955 0.060091566 0.0051371949
-0.49767148 0.017686874 -0.055166606 0.45480064 -0.043733027 0.88951892 0.23202628
-0.47562394 0.015658792 -0.05882439 0.96918988 -0.24539322 0.021287609 0.2241302
0.18953337 0.016849183 -0.059978008 -0.99266732 -0.11263636 0.043870512 0.19802786
0.21229541 0.013450071 -0.050234288 -0.84811902 0.28969771 -0.44358686 0.18422432
0.44735923 0.014360554 -0.054688394 -0.96080852 0.27425766 0.040369719 0.0084086144
0.49825445 0.014802186 -0.056941971 -0.97773409 -0.20116009 0.0597555 0.0070413942
-0.49702212 0.022619287 -0.050328955 0.99313086 0.062782481 0.098739259 0.2412169
-0.4744778 0.024364276 -0.055266235 0.96269047 -0.17897263 -0.20296775 0.24147816
0.18858448 0.024056653 -0.052774336 -0.95803463 -0.27366129 -0.085317783 0.19986407
0.44880974 0.020358693 -0.057650678 -0.91912621 0.3913573 0.04523718 0.015489968
0.45133013 0.026654422 -0.053325836 -0.85379136 0.51980418 0.029050123 0.019449018
0.49386442 0.02765736 -0.054428384 -0.85342085 -0.52121496 0.0027918082 0.014535523
-0.49504301 0.037652124 -0.050588474 0.99557811 -0.0048622084 -0.093811482 0.23749696
0.18725471 0.034157287 -0.050753564 -0.97875208 0.16418311 0.12283461 0.22636014
0.20996144 0.031178437 -0.052367732 -0.97817904 -0.20091349 -0.052910883 0.19949456
0.21010478 0.030089755 -0.055513844 -0.95861745 -0.21151921 -0.19055782 0.1846645
0.45886514 0.038061339 -0.056397866 -0.53393781 0.84518099 0.024074009 0.06103139
0.48799777 0.036655933 -0.05441393 -0.66655821 -0.74275488 0.06336651 0.053595327
0.49138191 0.032390304 -0.051756859 -0.77476597 -0.63202584 0.016764171 0.027122796
-0.49411041 0.044735949 -0.053171095 0.99281311 0.092800476 0.075566925 0.22514245
0.18638813 0.040739596 -0.055072363 -0.91736966 -0.30547422 0.25518316 0.21708964
0.20749125 0.049941339 -0.058490701 -0.98600096 -0.063771531 -0.15406273 0.1990463
0.4661859 0.042604119 -0.053842328 -0.29652882 0.95443702 0.033474836 0.068610623
-0.49326137 0.051185116 -0.05461121 0.93381053 -0.17108995 -0.31420708 0.18782324
-0.47047222 0.054789566 -0.054613292 0.81381035 0.51196486 -0.27496293 0.21985553
0.18435225 0.056203689 -0.054833211 -0.94676179 -0.26502261 0.18277076 0.23637579
0.20698674 0.053773496 -0.055131909 -0.981363 0.034660209 -0.18901135 0.22201224
-0.46970338 0.060629696 -0.053197429 0.98427427 0.043774419 -0.1711375 0.22670609
0.18288371 0.067358345 -0.053425349 -0.92649454 -0.1254008 0.35479936 0.21051404
0.20544747 0.065465376 -0.052354619 -0.76554751 -0.6275481 0.1418467 0.23607865
0.20431896 0.074037455 -0.05517881 -0.97621155 -0.2068232 0.0650796 0.22798647
-0.48918995 0.082110599 -0.050025612 0.97978806 -0.060460627 -0.19068274 0.17129269
-0.46625805 0.086685039 -0.056600604 0.85700721 -0.24536107 -0.45314091 0.23950858
0.18060654 0.084002003 -0.055835877 -0.99682671 -0.033459846 -0.072227769 0.23405048
0.20313255 0.083048984 -0.053680707 -0.84318465 -0.50586218 0.18205267 0.2067989
-0.46199343 0.096980654 -0.058429278 0.75785518 -0.63534868 -0.1482816 0.27045697
0.1765832 0.095716566 -0.057356119 -0.97795117 -0.20057784 0.058138561 0.20698418
0.19897006 0.099481814 -0.052808058 -0.97260493 -0.17186835 0.1565274 0.20578539
-0.48344547 0.10300267 -0.056282829 0.91660309 -0.20138317 -0.34537446 0.18715188
-0.47871354 0.11442657 -0.050025664 0.90973532 -0.3092851 -0.27699187 0.26129216
-0.47536841 0.1225025 -0.05990744 0.98243749 -0.18649018 0.006166562 0.24745657
-0.45167649 0.12188797 -0.057517603 0.87462926 -0.36118522 -0.32337126 0.20478944
0.16577756 0.12180369 -0.059412725 -0.98558784 -0.15800905 -0.060412269 0.21272895
0.16117169 0.13292325 -0.053999837 -0.95006627 0.0054201842 -0.31200111 0.24693012
0.18502697 0.13314341 -0.054685831 -0.88934582 -0.43095621 -0.15277644 0.15489423
-0.46492165 0.14772312 -0.054325853 0.97140431 -0.17067914 -0.16505252 0.18533882
-0.44245708 0.14414555 -0.052599333 0.98322058 -0.17830402 -0.038536921 0.21839751
0.17928095 0.14701554 -0.054944813 -0.94576198 -0.21641481 -0.24227858 0.22536068
-0.46362031 0.15086488 -0.053992175 0.91542768 -0.38413796 -0.12012523 0.16637936
-0.43824029 0.15432581 -0.0579703 0.79708797 -0.60360092 0.017795905 0.23345332
0.15340833 0.15166566 -0.050587788 -0.73368579 -0.63665634 0.23743187 0.21158606
0.17661159 0.15345994 -0.050948907 -0.84662616 -0.45094141 -0.28262311 0.16073421
-0.43269953 0.16661161 -0.054848738 0.85710257 -0.39827335 0.32673177 0.22699337
0.14835291 0.16387053 -0.056879833 -0.68556434 -0.72713846 0.035653088 0.21687913
-0.42886716 0.17253894 -0.053525202 0.91469985 -0.33806583 0.22143982 0.24960177
0.13755925 0.17954256 -0.051312428 -0.93704933 -0.34465995 -0.05610742 0.22143166
0.14162076 0.1742495 -0.055298686 -0.98125035 -0.15063401 -0.12023764 0.21792559
0.16755916 0.17531441 -0.053035527 -0.94691175 -0.30314887 0.10704678 0.23333304
-0.45029858 0.180951 -0.054943673 0.91985816 -0.37490076 -0.11537024 0.15995729
-0.41575474 0.18962735 -0.052780353 0.67268348 -0.72857022 -0.12916039 0.21458118
0.13358125 0.18472677 -0.055664543 -0.80101895 -0.59737301 -0.038911812 0.14122595
0.16396819 0.18146783 -0.051121511 -0.98612034 0.056245606 -0.15621495 0.22743876
-0.43821955 0.19669276 -0.052925378 0.66200393 -0.74750727 0.054622144 0.19283822
-0.40927759 0.19806857 -0.056928445 0.47335023 -0.86951619 -0.14100079 0.21147758
0.12656175 0.19387478 -0.059911788 -0.66327929 -0.71775144 -0.21188082 0.18291147
0.15113272 0.19819535 -0.058913797 -0.76451111 -0.62586212 -0.1543352 0.16807808
-0.43355536 0.20277125 -0.052325942 0.58573043 -0.80742407 0.070613638 0.19198181
-0.40070027 0.20924671 -0.055860519 0.74651521 -0.636136 0.19505413 0.21873765
0.11794902 0.20509912 -0.050073799 -0.89819092 -0.43490276 -0.06412971 0.17436856
0.12123682 0.20081435 -0.050716832 -0.71954507 -0.68500859 -0.11409699 0.16716011
0.14735045 0.20312449 -0.058503576 -0.75955194 -0.6303578 -0.16040547 0.17908467
-0.42382017 0.21545833 -0.056104332 0.76369596 -0.27154213 -0.5856905 0.25184688
0.1090913 0.21664271 -0.057854336 -0.90765399 -0.41948417 -0.014044307 0.20995396
0.11201054 0.21283829 -0.054200098 -0.92606306 -0.37092769 -0.069425374 0.17694406
-0.41932011 0.22132297 -0.054202519 0.59076136 -0.71431434 0.37517461 0.22138144
-0.3904804 0.22256547 -0.055006891 0.6429199 -0.64887279 0.40696192 0.171625
-0.38985893 0.22337542 -0.057313561 0.66278797 -0.57362759 0.48131439 0.18270826
-0.41096923 0.23220606 -0.05410834 0.63465869 -0.70671546 0.31266853 0.2345181
-0.38242173 0.23306778 -0.054938667 0.59736103 -0.72399068 0.34495974 0.17484257
-0.37826613 0.23774259 -0.054845523 0.58691949 -0.80779052 0.054772381 0.14980035
0.092617325 0.23752387 -0.056271277 -0.47682098 -0.65026283 -0.59143895 0.18438451
0.11907141 0.23997846 -0.058300193 -0.41126984 -0.6581108 -0.6306721 0.18132958
-0.39883184 0.24802379 -0.053053737 0.17306982 -0.91593653 0.36208722 0.19671598
-0.37044781 0.24374178 -0.059834734 0.62839729 -0.77563906 -0.059167612 0.14002644
0.079522625 0.24757178 -0.051098615 -0.68126142 -0.73185003 0.016682094 0.1879302
0.11726134 0.24233739 -0.056718983 -0.68654579 -0.59471238 -0.41829655 0.19175933
-0.39364153 0.25364512 -0.053594004 0.23700023 -0.93004888 0.28078467 0.20349297
-0.35272458 0.2573413 -0.056079365 0.7230615 -0.6854372 -0.085778825 0.18485831
0.065257542 0.25851777 -0.0568958 -0.77905911 -0.61786598 -0.10634179 0.21495473
-0.33869112 0.26810953 -0.055113271 0.35168305 -0.91857433 -0.18038924 0.19830595
0.055030961 0.2663649 -0.057220548 0.02861191 -0.92116439 0.3881205 0.20412607
0.060598537 0.26209274 -0.058636703 -0.29036877 -0.89024675 0.35092264 0.23845124
0.088102072 0.26887479 -0.055590063 -0.13048351 -0.48276699 0.86597359 0.22384314
-0.36728549 0.27405459 -0.052467532 0.75168371 -0.65944165 -0.010411109 0.23455422
-0.33416829 0.27158004 -0.055338807 0.383847 -0.91833144 -0.096585765 0.22400568
0.044503059 0.27444324 -0.054307204 -0.59153914 -0.80627495 0.0014790773 0.21900879
0.081524879 0.27392167 -0.059182785 -0.75370467 -0.60372567 0.25970078 0.25142074
-0.35852587 0.28077605 -0.052683115 0.88205487 0.38503948 -0.27152145 0.23514166
-0.3498393 0.28744152 -0.055334665 0.74506879 -0.66697115 -0.004699904 0.23019139
-0.31576037 0.28570491 -0.054210413 0.59552926 -0.7678501 -0.23611675 0.18959796
0.064513274 0.28697512 -0.054389745 -0.63975674 -0.76159018 0.10340021 0.19631152
0.070277005 0.28255248 -0.053289473 -0.47630882 -0.85770357 0.19358341 0.21322505
-0.34618595 0.29024482 -0.054534622 0.39981818 -0.83847737 -0.37027156 0.20765319
-0.30184248 0.29338878 -0.059337631 0.31110212 -0.92558366 -0.21566248 0.23757431
-0.2944417 0.29645431 -0.054134153 0.46550825 -0.75857043 -0.45593092 0.25219631
0.0044830628 0.29812142 -0.058156524 -0.41690707 -0.90883952 0.014116081 0.2073784
0.019562069 0.29187548 -0.052961163 -0.49160174 -0.85587829 -0.16062412 0.24839316
-0.32598653 0.30574441 -0.054338057 0.45137879 -0.78688872 -0.42078882 0.20186354
-0.27596983 0.30410561 -0.05005005 0.32884833 -0.92657441 -0.18253402 0.21501893
-0.26264766 0.30962384 -0.052706107 0.49925157 -0.8420648 -0.20414393 0.19935544
-0.018727189 0.30773544 -0.054345444 -0.47777995 -0.84868556 -0.22684608 0.19740333
-0.0054514389 0.30223644 -0.054258872 -0.12100771 -0.99080801 -0.060471755 0.1938331
0.045917466 0.3012442 -0.055094279 -0.40378678 -0.91131586 0.08037249 0.21293664
-0.31439254 0.31213689 -0.055791523 0.21732131 -0.90162504 -0.37395671 0.21260007
-0.30578706 0.31570137 -0.056344882 0.33592752 -0.93245035 0.13299993 0.21288835
-0.29827765 0.31881189 -0.050770119 0.66868263 -0.7367357 -0.10041913 0.25523463
-0.25125408 0.31434321 -0.054982841 0.50023925 -0.85119706 -0.15882139 0.24479166
-0.24704862 0.31608516 -0.050817456 -0.18480125 -0.97278273 -0.13979346 0.25748977
-0.043579563 0.31802964 -0.056001451 -0.31365618 -0.94813997 -0.051480424 0.22513318
-0.026346816 0.3108916 -0.059158586 -0.57018214 -0.74839383 -0.33881974 0.22140057
0.017135935 0.31682694 -0.0541436 -0.40733609 -0.88391376 -0.22972542 0.21182236
0.020187004 0.31556311 -0.059280612 -0.38770422 -0.92094433 -0.039332904 0.19481227
0.031097567 0.31104383 -0.052973568 -0.56487799 -0.82094467 0.083442375 0.16458522
-0.28494287 0.32433534 -0.059412867 0.3585766 -0.92964631 -0.084737971 0.20808111
-0.27571476 0.32815772 -0.05426845 0.31928998 -0.94369882 -0.086524449 0.19372183
-0.23540705 0.32090724 -0.056947481 0.080926746 -0.92764038 -0.36460137 0.22747408
-0.22751056 0.32358813 -0.050210178 0.039175108 -0.98020571 -0.1940674 0.20973706
-0.21569054 0.32514429 -0.053322088 -0.14330778 -0.97573954 -0.16551521 0.17709184
-0.2082087 0.32612929 -0.054792311 0.060755927 -0.99143368 -0.11561939 0.15984571
-0.185986 0.32905495 -0.056254756 0.2199371 -0.9731347 -0.06809216 0.17739365
-0.17983651 0.32986456 -0.055549316 0.018120857 -0.99924803 0.034277394 0.19489411
-0.094139673 0.32829028 -0.058448926 -0.091116428 -0.99566746 -0.018552382 0.24986479
-0.084344931 0.32700077 -0.054799717 -0.001271316 -0.99188966 -0.12709571 0.20257264
-0.069852516 0.32509282 -0.051737666 -0.2628442 -0.9616701 -0.078125 0.23129004
-0.051390242 0.32126492 -0.054047331 -0.48814017 -0.87260628 -0.016655056 0.19718871
-0.27110109 0.33006877 -0.058566824 0.30039391 -0.94155294 -0.15245178 0.22096756
-0.26149878 0.33404619 -0.056257099 0.31441945 -0.91354388 -0.25802708 0.242173
-0.25495359 0.3367573 -0.052187622 0.63763005 -0.6770677 -0.36743322 0.22297455
-0.24921703 0.33913344 -0.050771497 0.2606945 -0.96332395 0.063603245 0.22147943
-0.15418513 0.33324161 -0.054752864 0.31698921 -0.81549138 0.48424336 0.17649825
-0.14457431 0.3345069 -0.051956028 -0.30544683 -0.90027618 0.31016943 0.20912769
-0.12057506 0.3317706 -0.052499406 -0.046645276 -0.99129313 0.12313475 0.2334678
-0.11673325 0.33126479 -0.053068049 0.019819574 -0.9656049 -0.25925729 0.21638472
-0.032001249 0.3371802 -0.0505336 -0.40011138 -0.89825839 0.18177675 0.24470255
-0.02221046 0.33312473 -0.058217242 -0.61020958 -0.77022815 -0.18545309 0.21452704
-0.017339824 0.33110726 -0.058369983 -0.079409838 -0.94046789 0.33047575 0.24713627
-0.24569371 0.34059286 -0.059522502 0.41377175 -0.87192458 0.26180252 0.20854756
-0.22487427 0.34624976 -0.052243873 0.23816963 -0.97115219 -0.011777655 0.19572519
-0.21933061 0.34697962 -0.056088384 0.077655628 -0.99580681 0.04835736 0.21326059
-0.059839465 0.34608912 -0.059798129 -0.3277888 -0.92008531 -0.2144703 0.16213664
-0.045242261 0.34266481 -0.05751285 -0.15812865 -0.97847843 -0.13257147 0.17844717
-0.19615969 0.35003012 -0.051620305 -0.16612624 -0.96229863 0.21536805 0.19939877
-0.18652433 0.35129863 -0.056330543 0.42531404 -0.90419436 -0.039248627 0.2067996
-0.15880874 0.35494745 -0.05379691 -0.23893003 -0.96569449 0.10171875 0.18059865
-0.13794684 0.35637218 -0.050344758 0.19256772 -0.95416301 0.22910827 0.1798836
-0.12269282 0.35436395 -0.052846394 -0.062053636 -0.99495685 0.078804508 0.25590262
-0.11001422 0.35269478 -0.057141289 -0.11552814 -0.98759729 -0.10632454 0.19573417
-0.10370114 0.35186362 -0.054493871 -0.052820895 -0.97363347 -0.22191869 0.19172949
-0.19229785 -0.35053852 -0.046162292 0.26507762 0.96397871 0.021885226 0.23896648
-0.18992709 -0.35085064 -0.045820337 -0.066035256 0.9873085 0.14443487 0.20712708
-0.14538689 -0.35671449 -0.048916161 0.48508865 0.81637663 0.31339777 0.23446114
-0.10657986 -0.35224265 -0.047064528 -0.069389679 0.99010104 -0.12200392 0.24903482
-0.092285104 -0.35036069 -0.048078321 0.13190697 0.95532042 -0.26450625 0.20948249
-0.2418147 -0.34219959 -0.047198206 0.55000561 0.82985991 -0.093948185 0.16082394
-0.22533751 -0.34618878 -0.043969311 0.21493769 0.96464109 -0.15254311 0.19757587
-0.21681254 -0.34731111 -0.046182305 0.10647905 0.95159602 -0.28831774 0.14591236
-0.071981184 -0.34768763 -0.041628003 0.23899578 0.96868223 -0.067349203 0.19635311
-0.055268962 -0.34548742 -0.046172477 -0.3088437 0.95095944 -0.017078122 0.21200241
-0.25531134 -0.3366091 -0.046278551 -0.033125233 0.9951157 0.09299171 0.23969533
-0.175715 -0.33040714 -0.043475207 0.003379866 0.96963191 -0.24454539 0.23801625
-0.15487254 -0.33315113 -0.042502716 0.015326105 0.99954158 -0.02611048 0.18429847
-0.14500931 -0.33428529 -0.045448534 -0.62659031 0.75603038 0.18921593 0.23803376
-0.12552409 -0.33242214 -0.045408666 0.04448067 0.98207235 -0.18318111 0.16990088
-0.1093829 -0.33029711 -0.048759386 -0.078207865 0.97671682 -0.1997695 0.20849331
-0.031528518 -0.3369844 -0.045251094 -0.040436227 0.9985742 0.034848973 0.18140246
-0.028319962 -0.33565536 -0.047281124 -0.18898258 0.98122436 0.038528092 0.20008619
-0.29149005 -0.32162336 -0.045528699 0.68625534 0.72727978 -0.010851806 0.1685493
-0.21269336 -0.32553887 -0.042054638 -0.07102526 0.98958367 -0.12521791 0.25468007
-0.20694306 -0.32629591 -0.043654475 -0.30376825 0.79420316 -0.52627581 0.20640013
-0.18618098 -0.32902929 -0.043323971 0.30831385 0.82952875 -0.4656443 0.18044722
-0.09267775 -0.32809785 -0.041346971 -0.14346333 0.94186872 -0.30381179 0.23898584
-0.08928252 -0.32765085 -0.048724942 0.079614185 0.72071022 -0.68864965 0.20134437
-0.074579544 -0.32571518 -0.047120675 -0.058661241 0.87386775 -0.48261169 0.18268387
-0.066884831 -0.32470211 -0.045782365 -0.16119736 0.89514124 -0.41561705 0.22587259
-0.054216012 -0.32243538 -0.04386415 -0.012625651 0.98779619 -0.15523943 0.23552278
-0.013589596 -0.32955384 -0.04777164 -0.57110065 0.80959588 -0.1356412 0.20385218
0.0034384234 -0.32250065 -0.048721038 -0.24177116 0.89963365 -0.3636013 0.17522071
-0.31737435 -0.31090176 -0.041642234 0.40529165 0.893951 -0.1912856 0.14378045
-0.30848724 -0.31458294 -0.042845964 0.0031956546 0.99752706 -0.070211172 0.16097365
-0.29856461 -0.31869301 -0.0487771 0.38194582 0.92094201 -0.077351429 0.19094731
-0.25978032 -0.31081152 -0.047233343 0.38095146 0.88800424 -0.25753534 0.20955586
-0.24656254 -0.3162865 -0.042486861 0.87379837 0.3125838 -0.37251544 0.24779242
-0.2384757 -0.3196362 -0.044860516 0.36200279 0.59323746 -0.71904331 0.21836792
-0.044761553 -0.31851923 -0.045586698 -0.49266118 0.75534737 -0.43212897 0.22104144
0.013632491 -0.31827807 -0.049547434 -0.38728738 0.91964346 0.065302692 0.18043073
0.022617158 -0.31455651 -0.042855248 -0.55468512 0.82166213 0.13113251 0.25347513
0.033256967 -0.31014937 -0.045226652 -0.51796746 0.80881751 0.27843133 0.16190982
-0.32533109 -0.30624732 -0.044721227 0.71680838 0.65169352 -0.2479542 0.10095272
-0.020778634 -0.30858517 -0.046476349 -0.34389105 0.77429324 -0.53123337 0.19087528
-0.014349438 -0.30592209 -0.04560541 -0.6003316 0.73772043 -0.30882111 0.18285084
-0.0073686978 -0.30303058 -0.044374876 -0.20623495 0.92380869 -0.3225596 0.2047067
0.037148856 -0.30797258 -0.044765651 -0.56198233 0.71061528 0.42332229 0.19903575
-0.33461541 -0.29912323 -0.043541603 0.63826376 0.74742246 -0.18433408 0.16311748
-0.29359576 -0.2968047 -0.045075215 -0.49642882 0.80765003 -0.31821358 0.17638011
-0.28939921 -0.29854298 -0.045320608 -0.4730759 0.86019027 -0.19045156 0.17385137
0.0048493147 -0.2979697 -0.044349324 -0.19065656 0.97203517 -0.13710426 0.21409935
0.012071395 -0.29497823 -0.049262717 -0.52050835 0.85351676 -0.024085646 0.24645425
0.055234157 -0.29409522 -0.046372756 -0.65805769 0.71174002 0.24573618 0.22483814
-0.35586581 -0.28281721 -0.043531943 0.81454158 0.56713879 -0.12196568 0.21458742
-0.34856576 -0.28841871 -0.040504176 0.62801296 0.77807933 0.013862509 0.2108829
-0.32210001 -0.28084034 -0.043175489 0.94375581 0.20332383 -0.26073819 0.16184101
0.02849751 -0.28672475 -0.047121391 -0.36373281 0.790236 0.4931789 0.19610354
0.036879905 -0.28029269 -0.048084073 -0.69574308 0.71825314 -0.0073569822 0.21781254
0.065442793 -0.28626186 -0.04357776 -0.49995115 0.70599449 0.50161797 0.20041361
0.072116978 -0.2811406 -0.044285484 -0.39492661 0.800026 0.45165399 0.23285778
-0.36148933 -0.27850217 -0.049276233 0.43561515 0.89892155 0.046684876 0.21571593
-0.32581571 -0.27798924 -0.047138885 0.90730882 0.40536886 -0.11165479 0.17161141
0.044601034 -0.27436805 -0.047033954 -0.50236368 0.86283064 0.056160569 0.20079829
0.076385453 -0.27786529 -0.044213723 -0.25529808 0.77547395 0.57746255 0.22115372
-0.38429746 -0.26100087 -0.040842943 0.80306208 0.57336992 0.16229013 0.15370145
-0.37501818 -0.26812106 -0.046270307 0.59289855 0.80170143 -0.075804152 0.17379139
-0.34629625 -0.26227391 -0.04345873 0.44023117 0.8884691 0.12968861 0.19535656
0.057177033 -0.26471817 -0.045190781 -0.56967044 0.77384621 0.27683482 0.18355985
0.060079306 -0.26249117 -0.042974092 -0.56150478 0.74580711 0.35844699 0.22227536
0.096107885 -0.26273173 -0.049361445 -0.43500537 0.79615301 0.42060763 0.22210047
-0.35376632 -0.25654194 -0.045106821 0.8296212 0.53471005 0.16066718 0.20302822
0.10556652 -0.25547385 -0.045702517 -0.25958261 0.9410488 -0.2168961 0.23178498
0.11007966 -0.25169674 -0.044525664 -0.49997124 0.86575747 0.022200754 0.25330663
-0.4012906 -0.24481949 -0.041831821 0.62656546 0.76759696 0.13494657 0.16647547
-0.39783457 -0.24932347 -0.044499472 0.63043487 0.77426583 0.055357084 0.22655846
0.079770513 -0.24738158 -0.045290723 -0.46410358 0.87108958 -0.16065745 0.15532653
0.086012654 -0.24259181 -0.042503029 -0.55550444 0.83119208 0.023120802 0.18069123
-0.40634346 -0.23823451 -0.045337811 0.2611421 0.95863855 0.11321174 0.21926847
-0.38351077 -0.2316485 -0.049821548 0.58968288 0.76916242 0.24629915 0.20883091
0.09756396 -0.23166543 -0.046672828 -0.78861934 0.59493119 0.15535931 0.2168901
0.12384544 -0.23375681 -0.041695017 -0.81974983 0.57233858 -0.02094537 0.22701046
-0.41681564 -0.22458684 -0.042920418 0.9378317 0.347038 -0.0060241111 0.18687986
0.10286494 -0.22475708 -0.049674124 -0.61469805 0.52734852 -0.58655769 0.22012733
0.1287801 -0.22732586 -0.048194706 -0.58254564 0.7760731 -0.24156022 0.26451918
0.13332272 -0.2214058 -0.047049269 -0.74602497 0.61583823 -0.2533575 0.23845047
0.10944226 -0.21618535 -0.044100288 -0.73403239 0.67345279 -0.087508626 0.24453299
0.11322858 -0.2112509 -0.043318462 -0.70250225 0.67440772 0.22729896 0.22040491
0.13674423 -0.2169468 -0.042186439 -0.61566162 0.77874428 -0.12049102 0.26458555
-0.43228868 -0.204422 -0.046927068 0.51437265 0.85679722 0.036321692 0.23932329
-0.42959169 -0.20793676 -0.046153463 0.6681236 0.73013651 0.14321858 0.23167875
-0.40224499 -0.20723364 -0.043633338 0.78290111 0.61411816 -0.099623144 0.20891342
0.1448323 -0.20640619 -0.042962898 -0.67443955 0.73426729 0.077348426 0.24740613
-0.43718535 -0.19804053 -0.046491094 0.48871335 0.86598772 -0.10594565 0.18842255
-0.41261983 -0.19371283 -0.045226429 0.56120956 0.80805415 0.179143 0.22155716
-0.4095214 -0.19775084 -0.047829658 0.663993 0.69934857 0.26462194 0.26530477
0.12446257 -0.1966105 -0.04244164 -0.73981291 0.67275912 0.0084939785 0.25384742
0.15350443 -0.19510445 -0.042733222 -0.79955441 0.59184706 0.10212652 0.21332361
-0.42262039 -0.18067987 -0.04567213 0.79691374 0.55024874 0.24930856 0.25394002
-0.41670319 -0.1883913 -0.04810939 0.716003 0.67689174 0.17075488 0.2410748
0.12980361 -0.18964991 -0.049986869 -0.83605093 0.52243781 -0.16756377 0.23780335
0.13239355 -0.18627465 -0.049898256 -0.68249983 0.69197667 0.23529194 0.22386451
0.1588327 -0.18816051 -0.041409902 -0.90403098 0.42418399 0.052877061 0.22430634
0.16108933 -0.18521963 -0.045387931 -0.93203491 0.33912483 0.12769283 0.2338438
-0.45283365 -0.17690614 -0.047769919 0.93418682 0.35512456 -0.034374192 0.2202282
0.14330967 -0.17204845 -0.048731662 -0.94970596 0.25248596 -0.18522835 0.24594396
0.16715112 -0.17629951 -0.043973915 -0.7918179 0.5955562 0.13541511 0.20636183
-0.45735487 -0.16599092 -0.044269733 0.91197062 0.31654072 -0.26098162 0.14846222
0.14813602 -0.16439413 -0.044917986 -0.90841192 0.39563632 -0.13512845 0.21265039
-0.43731385 -0.15656239 -0.040158279 0.67253035 0.71249396 -0.20013849 0.22983962
0.17625114 -0.15433009 -0.046391405 -0.89400321 0.44769427 -0.018115971 0.26111823
-0.46461183 -0.14847112 -0.049989089 0.93331426 0.30891538 -0.18301839 0.19481793
-0.44188008 -0.1455386 -0.044506185 0.87678987 0.46541342 0.12095453 0.209108
0.15689668 -0.14324403 -0.042877831 -0.7444759 0.58059806 0.32963842 0.23986992
0.18007267 -0.14510414 -0.041581005 -0.74714738 0.6577751 0.095407657 0.23779663
-0.47066852 -0.13384902 -0.040253997 0.99781299 -0.031424053 -0.058152754 0.22552119
-0.46847802 -0.13913739 -0.049021885 0.99510127 0.098515205 -0.0082521308 0.22151618
-0.44453198 -0.13913628 -0.044544358 0.8794961 0.45215064 -0.14848015 0.24135129
0.16181287 -0.13137528 -0.049392827 -0.57011688 0.77767789 0.26492256 0.23515847
0.1832488 -0.13743627 -0.041625336 -0.85489243 0.50670505 -0.11139507 0.20927715
-0.47562289 -0.12188809 -0.042550512 0.91478235 0.39428926 -0.087802552 0.20491469
-0.45145124 -0.12243175 -0.044824831 0.95083177 0.18944687 0.2450075 0.26619673
-0.44928148 -0.12767003 -0.047747608 0.9645676 -0.19004396 0.1830097 0.21922822
0.18945578 -0.12245134 -0.04468558 -0.91187048 0.41030738 -0.011837439 0.16672271
-0.47808832 -0.11593603 -0.046036959 0.89135253 0.44071588 0.10611425 0.21113385
-0.454135 -0.1159526 -0.045633323 0.98676294 -0.15823068 0.035526238 0.22381487
0.16770253 -0.11715643 -0.045746379 -0.8994109 0.42843828 -0.086606599 0.21156055
0.19315724 -0.1135152 -0.049625173 -0.96331912 0.24559803 0.10815626 0.19962566
-0.48304728 -0.10396406 -0.049210362 0.9194116 0.39285558 -0.018623361 0.16818595
-0.46051013 -0.10056159 -0.049762391 0.69203353 0.68565047 0.22577222 0.1730493
0.19698928 -0.10426381 -0.045277212 -0.95632982 0.29215893 -0.0087472135 0.18573704
0.17515209 -0.099171579 -0.044155803 -0.97014362 -0.010194484 -0.24231693 0.23080294
0.19955508 -0.098069444 -0.041540604 -0.96366608 0.24784122 -0.099611305 0.17164642
0.20075831 -0.095164582 -0.046368953 -0.98133904 0.18945765 -0.032856859 0.16477044
-0.48871779 -0.085696936 -0.04726712 0.99611765 -0.087655745 -0.0081381556 0.17916428
-0.46676242 -0.082968622 -0.042839307 0.89713156 0.43598059 -0.071244836 0.23760241
0.20329389 -0.081823677 -0.049492612 -0.95164227 0.077779256 -0.2971991 0.19020286
-0.49039763 -0.072937429 -0.043699019 0.9876588 0.1560428 -0.013447321 0.18451279
