# .PCD v0.7 - Point Cloud Data file format
VERSION 0.7
FIELDS x y z normal_x normal_y normal_z curvature
SIZE 4 4 4 4 4 4 4
TYPE F F F F F F F
COUNT 1 1 1 1 1 1 1
WIDTH 567
HEIGHT 1
VIEWPOINT 0 0 0 1 0 0 0
POINTS 567
DATA ascii
-0.47092474 -0.042105 -0.01254436 0.1845993 -0.98057657 -0.066276819 0.042065151
-0.46517357 -0.042105 -0.012413037 0.57366633 -0.81783849 -0.045244496 0.084410489
-0.16785617 -0.04426913 -0.01667884 0.99144614 0.13051644 6.7214995e-07 2.4354355e-05
0.49386251 -0.046617292 -0.010739058 -0.99144232 0.13054523 9.1124284e-06 0
-0.499589 -0.035968985 -0.015580456 0.85523254 0.51397395 0.066393383 0.086183652
-0.45675293 -0.036585879 -0.018805617 0.73235327 -0.67985195 0.038210817 0.10130892
-0.1689765 -0.035758864 -0.016527353 0.99144608 0.13051704 5.3031187e-07 3.2621326e-06
0.49504453 -0.037639171 -0.016264882 -0.99144095 0.13055593 -3.1596021e-06 0.00016123096
-0.49970663 -0.025753515 -0.013964806 0.96192747 0.27074635 0.037309859 0.055953648
-0.45738631 -0.027575837 -0.014205756 0.9499166 -0.31229624 -0.011384059 0.060035221
-0.1704955 -0.024220353 -0.015242778 0.9919458 0.12666117 0.00067456969 4.8676568e-05
0.49657989 -0.025977589 -0.015968643 -0.99204534 0.12587726 0.0009434463 0
-0.49935308 -0.0120239 -0.017293708 0.99972659 0.0038270173 0.023068024 0.0025037269
-0.45692247 -0.015785165 -0.016281635 0.99779898 -0.062310193 0.022683864 0.0095948083
-0.17139578 -0.017381616 -0.01639124 0.99373758 0.11172934 0.0015014901 0.00032947963
0.49856791 -0.010877342 -0.013060972 -0.99538362 0.095656209 0.0078297826 0.00089315837
-0.49954686 -0.0046276287 -0.015886799 0.9998073 -0.0018225941 0.019546378 0.0022347742
-0.45680183 -0.0042989999 -0.0184507 0.99981016 0.0068456591 0.018244298 0.0020506417
-0.17301701 -0.005066501 -0.01367748 0.99870473 0.050628759 0.0050510056 0.0017282814
0.49875724 -0.0094392141 -0.015852988 -0.99681395 0.078418694 0.014580636 0.0016218824
-0.49962506 0.0071315663 -0.015318781 0.99911612 0.0037186798 0.041870393 0.0019652047
0.49952647 0.0035968018 -0.013979726 -0.99975812 -0.018790014 0.011432733 0.0024206683
-0.49959546 0.015385542 -0.015533725 0.99874991 0.0021690705 0.049938098 0.0018261658
-0.45701721 0.013338079 -0.015208455 0.99897301 0.04101276 -0.019255247 0.0072989981
-0.17175861 0.014625668 -0.016090497 0.995381 -0.095767066 0.0067343237 0.0005230211
0.49843055 0.011920592 -0.013886316 -0.99704856 -0.0767731 -0.00018662587 0.0011019061
-0.49898347 0.024182383 -0.019977661 0.97351331 -0.22860523 -0.0033945371 0.042095043
-0.4566471 0.022906685 -0.019573979 0.94270486 0.33332705 0.014160655 0.059991453
0.4968068 0.02425394 -0.019991383 -0.99144667 -0.13051286 -2.7152764e-06 0
-0.4995563 0.031198792 -0.015818097 0.90929013 -0.40585771 -0.092037983 0.066366792
-0.45692852 0.035186179 -0.017530583 0.80163485 0.59689522 -0.033132367 0.11075384
-0.16947153 0.03199859 -0.013377162 0.99144554 -0.13052122 1.6007485e-06 1.4315591e-06
0.49572292 0.032486573 -0.014617659 -0.99144351 -0.13053675 8.6222262e-06 0
-0.48546147 0.042105 -0.015490971 0.32508737 -0.94364148 -0.062119529 0.059381403
-0.47686473 0.042105 -0.016429696 0.022701668 -0.99951917 -0.021120252 0.10063235
-0.46515355 0.042104997 -0.013033178 0.54176956 0.83851171 -0.058171093 0.10679177
-0.45976216 0.042105 -0.019374624 0.67431885 0.73746455 0.037947796 0.10217346
-0.1681077 0.042358454 -0.016921252 0.99144459 -0.13052812 7.9218025e-06 0
0.49435049 0.042910516 -0.015784333 -0.9914453 -0.13052282 -1.0626444e-06 0
-0.16610704 0.057555657 -0.015982337 0.99136418 -0.13113727 0.00020542523 0
0.49271402 0.055340629 -0.017528385 -0.99144548 -0.13052183 -4.3388031e-06 0.00010187855
-0.16555746 0.061730467 -0.015170559 0.99138421 -0.13098635 0.00010535225 0
0.49114442 0.067262433 -0.012340277 -0.9904508 -0.13784762 -0.0022954904 5.4106211e-05
-0.16427454 0.0714757 -0.016235236 0.98543197 -0.16988125 -0.0080084158 0.00074362318
0.49038756 0.07301122 -0.012497485 -0.98643255 -0.164116 0.0040952675 0.00099138799
0.4892464 0.081678882 -0.015369298 -0.97493857 -0.2223632 -0.0070253564 0.00232635
-0.16010141 0.092264332 -0.0145755 0.95345467 -0.30153519 0.00096897501 0.0014793138
-0.15863411 0.095806673 -0.010654099 0.94431108 -0.32904175 -0.0028441697 0.001426791
0.48473012 0.096335582 -0.019071616 -0.94459516 -0.32822028 -0.0033929662 0.0012632034
-0.153303 0.10867698 -0.015248924 0.92530572 -0.37922099 0.00087165128 6.6817709e-05
0.48085007 0.10570307 -0.01868137 -0.930718 -0.36572921 -0.002493063 0.00046290178
-0.15107569 0.11405412 -0.016327774 0.92387313 -0.38269883 -2.961184e-07 1.049757e-05
0.47666454 0.11580798 -0.011275575 -0.9238922 -0.38265279 9.9140925e-07 0
-0.14717634 0.12346789 -0.012362733 0.92388004 -0.38268226 -4.5273049e-07 1.2591712e-05
0.47193941 0.12721573 -0.010978176 -0.92387348 -0.38269794 4.2749007e-06 6.8130677e-05
-0.14276296 0.13412267 -0.014985051 0.92388558 -0.38266891 -1.8570291e-06 1.2847078e-05
0.4674283 0.13810676 -0.015177987 -0.92385679 -0.38273832 9.4705074e-06 1.7285929e-05
0.47043389 0.13085043 -0.013011709 -0.92386985 -0.38270667 -2.202022e-06 0.0001363538
-0.13880812 0.14367044 -0.015390981 0.92337149 -0.38390777 -0.00032284841 1.069277e-05
0.46416554 0.14598396 -0.015444677 -0.92202443 -0.38713172 0.00027602466 0
-0.13279384 0.15819003 -0.011341412 0.8990528 -0.43774429 0.0091675017 0.0016273569
0.45857838 0.15947282 -0.014180429 -0.88758224 -0.46045294 0.013450121 0.0017390043
0.46038955 0.15510011 -0.015070707 -0.90742505 -0.42013308 0.0082443375 0.00076004531
-0.13164517 0.16096312 -0.01680696 0.89224154 -0.45155045 0.0026595781 0.0018858357
-0.12847081 0.16853203 -0.013141574 0.86097765 -0.50856632 0.0088231033 0.0021938982
-0.1224011 0.17644212 -0.014397268 0.83168674 -0.55524188 -0.001890408 0.0016161369
-0.11984078 0.17977874 -0.014299467 0.81225777 -0.58329821 -0.0006817095 0.00066032819
0.44948721 0.17543846 -0.017365605 -0.82941324 -0.55863518 0.00059577276 0.0013717685
0.45243317 0.17159936 -0.015611783 -0.85446548 -0.51942778 0.0091362149 0.0018551326
-0.11833567 0.18174021 -0.014854928 0.81026447 -0.58606339 0.0011336022 0.00060852472
0.43837741 0.18991686 -0.013589971 -0.79332668 -0.60879612 8.3412751e-06 0.00011665693
0.44303763 0.18384366 -0.011291109 -0.80696398 -0.59059089 0.0033964831 0.00056901231
-0.10885055 0.19410127 -0.014287186 0.79335397 -0.60876065 2.4830319e-07 1.2476135e-05
0.43165818 0.19867343 -0.016162917 -0.79334271 -0.60877532 3.8900544e-06 0
-0.10365558 0.20087142 -0.016353413 0.79334694 -0.60876983 -1.1023192e-06 0
-0.097331189 0.2091134 -0.012538951 0.79334891 -0.60876715 -3.6816832e-07 5.0212157e-07
0.42532179 0.2069311 -0.015462175 -0.79337323 -0.60873544 1.1718383e-05 0
-0.092413403 0.2155223 -0.017691653 0.79333258 -0.60878855 -2.4127003e-05 1.8670982e-05
-0.089507297 0.21930957 -0.017042451 0.78552765 -0.61882043 0.0027469469 0.00021746608
0.42110148 0.21243098 -0.014822003 -0.79331702 -0.60880876 2.0258644e-06 0
-0.084204346 0.22622041 -0.01165048 0.76500392 -0.64400738 0.0048469226 0.0010579716
0.4129374 0.22307047 -0.014949018 -0.77934831 -0.62659091 0.00022934706 0.00059916562
0.40242934 0.23676467 -0.011875408 -0.70204294 -0.7120263 0.012424811 0.0025554206
-0.066216379 0.24494219 -0.014348321 0.65453076 -0.75599307 -0.0080052698 0.0014450661
0.38604051 0.24992365 -0.015363365 -0.61528403 -0.78830451 0.0012210862 4.1446674e-06
0.39409858 0.24374039 -0.012789469 -0.65809613 -0.75291348 0.0055544847 0.0019454622
-0.056748062 0.25220758 -0.01359374 0.61441636 -0.78898019 -0.0016557748 0.00011684244
0.3770524 0.25682056 -0.011986418 -0.60878938 -0.7933318 5.9143053e-07 1.5214254e-05
0.38253909 0.25261042 -0.016411997 -0.61338943 -0.78978062 0.00019602112 1.4159042e-05
-0.043027401 0.26273596 -0.016726457 0.60877204 -0.79334527 7.5977255e-08 0
-0.036276486 0.2679162 -0.015238636 0.60876501 -0.79335064 2.5505772e-06 0
0.36684567 0.26465258 -0.012354642 -0.6087811 -0.79333824 3.7595287e-06 0
0.37094861 0.26150423 -0.01523426 -0.60871005 -0.79339272 3.2238029e-06 1.8513732e-05
-0.031455766 0.2716153 -0.015194188 0.6087805 -0.79333866 -5.5770543e-06 1.25477e-05
-0.025466934 0.27621076 -0.013514496 0.60816801 -0.7938084 0.00027746777 1.0250245e-05
0.35643661 0.27263984 -0.014071907 -0.60902387 -0.79315186 3.2896212e-05 0
-0.016745396 0.28290313 -0.012413792 0.58601195 -0.81028521 0.0052665211 0.00068902673
0.33863395 0.28630048 -0.013508111 -0.56760472 -0.82321978 -0.011575229 0.0016812317
0.342852 0.28306383 -0.014401393 -0.58522785 -0.81085652 -0.0044755582 0.00078332791
0.0031509416 0.29519913 -0.013901964 0.45214757 -0.8919242 -0.0058227084 0.0015115271
0.012178865 0.29893848 -0.015759505 0.39739594 -0.91763753 -0.0042266878 0.00015297855
0.33139002 0.29179227 -0.012722477 -0.48245707 -0.87591559 0.0026477221 0.0026010037
0.020576838 0.30241698 -0.015707288 0.38288116 -0.92379761 2.7557018e-05 7.6981911e-07
0.034042727 0.30799463 -0.013692804 0.38269183 -0.92387611 -3.1845552e-06 2.851631e-05
0.28876984 0.30944574 -0.016065001 -0.38263988 -0.9238975 -1.0888828e-05 6.0535269e-05
0.29856795 0.30538732 -0.01717709 -0.38274872 -0.9238525 -7.789803e-06 2.4597598e-06
0.30704594 0.30187574 -0.019178987 -0.38491976 -0.92294985 0.00064554461 5.2653908e-05
0.046224307 0.31304032 -0.019546613 0.38268682 -0.92387819 -1.5507203e-06 0
0.0586823 0.31820044 -0.01250691 0.36053705 -0.9327448 0.00050374103 0.00048889127
0.060069673 0.31877512 -0.013252199 0.36051297 -0.93275404 0.00056267023 0.00050962012
0.26518989 0.31921268 -0.012782689 -0.35924464 -0.93324238 -0.0014116431 0.00043643822
0.27784753 0.31396985 -0.016454428 -0.38269433 -0.92387497 -2.1179064e-06 2.908955e-05
0.06750869 0.32185638 -0.014675796 0.31786641 -0.94811499 -0.0062310407 0.0013552079
0.083557703 0.32636204 -0.015638122 0.20382312 -0.97896534 -0.0091165705 0.0015771213
0.097081028 0.32814249 -0.012660488 0.13653247 -0.99063557 -0.00011863915 5.2335632e-05
0.10746802 0.32951 -0.016319469 0.13054301 -0.99144262 -3.2883759e-06 3.8025952e-05
0.11081725 0.32995099 -0.015252024 0.13058832 -0.99143666 -1.7450187e-05 7.2393268e-05
0.21677274 0.32978323 -0.010970667 -0.1305404 -0.99144304 7.2421261e-07 7.6157921e-05
0.22292279 0.32897353 -0.015756542 -0.13050491 -0.99144769 -6.5231548e-06 5.4572982e-05
0.23249219 0.32771367 -0.01616687 -0.15447688 -0.98799628 0.00056894741 0.00042948723
0.24614111 0.32591668 -0.010689698 -0.2133902 -0.97696561 -0.0017148876 0.0018484313
0.2591182 0.3217276 -0.01720389 -0.30986509 -0.95077527 -0.0031573311 0.0016587769
0.11349486 0.33030349 -0.011506178 0.13054147 -0.99144286 -7.3708779e-06 7.8652694e-05
0.12360673 0.33163479 -0.014205135 0.1304916 -0.99144942 4.6941022e-06 0
0.13193177 0.33273083 -0.012671508 0.1305476 -0.99144202 1.6168059e-07 1.8874463e-05
0.14275251 0.3341555 -0.017667133 0.12977563 -0.99154329 -0.00022193961 1.6466136e-05
0.15565372 0.33585399 -0.016081333 0.034394506 -0.99940318 -0.0032002784 0.002346308
0.16167897 0.33664727 -0.01618734 -0.0082849562 -0.99996567 -1.6276588e-05 0.0021826157
0.18395631 0.33410373 -0.015457963 -0.11267582 -0.99362785 0.0027951624 0.00032068678
0.19387926 0.33279732 -0.018336266 -0.13058494 -0.99143708 2.528762e-06 0
0.20250702 0.3316614 -0.01658478 -0.13047743 -0.99145132 -1.4943638e-05 3.4602443e-05
0.21007895 0.33066455 -0.014124634 -0.13048236 -0.99145061 3.4532936e-06 6.8500303e-05
0.11683683 -0.33074349 -0.0036614835 0.13049707 0.9914487 -1.0242665e-07 0
0.12619798 -0.33197597 -0.0032926425 0.13049553 0.99144894 3.0213182e-06 0
0.13742997 -0.33345473 -0.0098892599 0.12785964 0.99179214 -0.00056105404 4.0103809e-05
0.14643773 -0.33464068 -0.0082310922 0.093941934 0.99557763 -0.00042965889 0.0008764817
0.15964982 -0.33638012 -0.0070994645 0.013012271 0.99984902 0.011520882 0.0024631631
0.16435285 -0.33640158 -0.0044915006 0.001096059 0.99997026 0.0076355655 0.0023492756
0.17477188 -0.33531296 -0.0044655069 -0.088162653 0.99610496 -0.0015129981 0.001030994
0.18749772 -0.33363751 -0.0033926107 -0.12356777 0.99233615 -7.6027769e-05 9.859151e-05
0.19613904 -0.3324998 -0.0054383855 -0.13055579 0.99144095 2.5350239e-06 4.0075793e-05
0.20597024 -0.33120546 -0.0054995716 -0.13051975 0.99144572 1.7991449e-06 4.1286985e-05
0.21038565 -0.33062413 -0.0074071363 -0.13063265 0.99143082 1.7158594e-06 0
0.069236748 -0.32257214 -0.004282102 0.31493634 0.94905168 -0.010768495 0.0019846554
0.076128364 -0.3253839 -0.0039289743 0.27139127 0.96245062 -0.0059717274 0.0023921086
0.081150047 -0.32604507 -0.0010505468 0.22532889 0.97428137 0.0016796949 0.0028228785
0.094263457 -0.32777154 -0.0047753723 0.15179171 0.98840368 0.0041852752 0.0004681318
0.10784002 -0.329559 -0.00810422 0.13051137 0.99144679 -5.6994468e-06 0
0.11049692 -0.32990879 -0.0058330297 0.13052504 0.991445 -3.716832e-07 5.387721e-07
0.21748912 -0.32968891 -0.0047733393 -0.13054517 0.99144244 -1.2307846e-06 8.9423695e-05
0.22318809 -0.3289386 -0.0045555048 -0.13043103 0.99145746 -1.5844424e-05 0.00010938282
0.23502325 -0.32738042 -0.0042938837 -0.16472319 0.98633122 0.0041109961 0.00087289169
0.2451618 -0.32604563 -0.0042070672 -0.2219805 0.9750334 -0.0058592358 0.0017195059
0.25718918 -0.32252663 -0.0086266547 -0.30800727 0.95127547 -0.014366563 0.00089958229
0.26288205 -0.32016861 -0.0086725801 -0.3358421 0.94179988 -0.014935344 0.001004464
0.04566852 -0.31281006 -0.0046663014 0.3826898 0.92387688 1.8611732e-07 1.3022736e-05
0.054906741 -0.31663659 -0.0061263219 0.37567708 0.92674595 -0.0029448627 0.00018607067
0.27531287 -0.3150197 -0.0042629894 -0.38275072 0.92385167 5.5370683e-06 0
0.2849713 -0.31101915 -0.0064099943 -0.38264632 0.92389494 -3.48399e-06 0
0.019691372 -0.30205023 -0.0073495507 0.38419852 0.92325014 -0.00079659739 5.4852662e-05
0.021636497 -0.30285591 -0.0072960146 0.38272873 0.92386079 -8.1523476e-06 5.3182877e-05
0.037904028 -0.30959401 -0.0095407534 0.38268924 0.92387712 7.8318294e-07 1.676459e-05
0.2882812 -0.30964816 -0.0016969126 -0.38267386 0.9238835 1.4348505e-07 5.2979642e-05
0.30537203 -0.30256903 -0.0095475316 -0.38267267 0.92388391 8.6635725e-07 1.6187636e-05
0.31021619 -0.30056259 -0.0039347038 -0.39148352 0.92018318 -0.0019140125 0.00022088963
-0.0033148229 -0.29252097 -0.0092506856 0.48237291 0.87591588 -0.0093671856 0.0024526378
0.0085370028 -0.29743004 -0.0048688427 0.41849241 0.90822029 0.00012788379 0.00087288016
0.31713483 -0.29769686 -0.0037257846 -0.40997022 0.91209882 -0.00038087118 0.00064152863
0.3258802 -0.29407448 -0.006853214 -0.45937368 0.88822514 0.005649942 0.0017738158
0.33034182 -0.29222643 -0.0023459792 -0.48747253 0.87312192 0.0053493269 0.0027153227
-0.01651101 -0.28308299 -0.0054329089 0.56923831 0.82216227 0.0041247848 0.0014231992
0.33522415 -0.28891695 -0.0080362111 -0.52430803 0.85141391 0.013978673 0.0024280935
0.34015989 -0.28512955 -0.0085901469 -0.56761819 0.82327813 0.0047537582 0.0016179325
-0.024464304 -0.27698013 -0.0059494972 0.60260326 0.79804087 0.00023842734 3.164079e-05
0.34778252 -0.27928042 -0.00059433281 -0.60112393 0.79915428 0.00152325 0.00021063523
0.35232881 -0.27579188 -0.0060086939 -0.60758692 0.79425317 -0.00029058568 0
-0.043687988 -0.26222908 -0.0049232272 0.60879141 0.79333037 5.4066068e-06 1.4182108e-05
-0.03662185 -0.2676512 -0.0040500462 0.60878289 0.79333693 -4.4762348e-07 9.3219096e-06
0.36602053 -0.26528573 -0.0040768487 -0.60889745 0.79324901 -1.1733222e-06 0
0.37113702 -0.26135963 -0.0059445389 -0.60876858 0.79334784 9.5780717e-07 0
-0.053248659 -0.2548928 -0.005774498 0.6087805 0.79333872 -1.162803e-06 0
0.38210353 -0.25294468 -0.0065710298 -0.61472934 0.7887367 -0.0014770081 3.3775028e-05
-0.071875028 -0.24060009 -0.0053047189 0.68709344 0.72653443 -0.0070865327 0.0015253362
-0.065851264 -0.24522236 -0.0057816878 0.645033 0.76412499 -0.0067455154 0.001432761
0.38716593 -0.24906006 -0.0032788254 -0.62524426 0.78042912 4.0897092e-05 0.00017915576
0.39492133 -0.24310903 -0.0035119355 -0.66018671 0.75107008 0.0068777977 0.0015979089
-0.076580763 -0.23601517 -0.0056049097 0.74107116 0.67139369 -0.0066374498 0.0013822542
0.40388459 -0.23486817 -0.0026537552 -0.72882468 0.68468964 -0.0038218678 0.0021791293
-0.084154971 -0.22628474 -0.0035487853 0.76747811 0.64104825 0.0058709751 0.0010551037
0.41257635 -0.22354098 -0.0044422224 -0.77530932 0.63157636 -0.0026068764 0.00063083414
-0.090968251 -0.21740565 -0.0047608837 0.79225761 0.6101864 0.00075396133 1.5923477e-05
0.41825962 -0.2161345 -0.0038351063 -0.79314649 0.60903096 -9.9954486e-05 0
0.42277867 -0.21024527 -0.0029126778 -0.79332471 0.60879862 -3.9303618e-06 1.1566184e-05
-0.099864632 -0.2058118 -0.0099344701 0.79332674 0.60879594 7.5933908e-06 0
0.4303897 -0.20032652 -0.0086374432 -0.79338115 0.60872513 -3.782192e-07 1.6061481e-06
-0.11040239 -0.19207892 -0.0066313222 0.79336464 0.60874671 8.0540826e-07 6.6335351e-06
-0.1086593 -0.1943505 -0.0031265568 0.79334611 0.60877091 -2.4136418e-07 0
0.43470502 -0.1947028 -0.0068219714 -0.79336494 0.60874635 -3.9508762e-07 0
-0.1171631 -0.18326831 -0.00057724118 0.79975361 0.60032338 0.0024692088 0.00018926604
0.44217032 -0.1849739 -0.0045618191 -0.79876631 0.60163832 -0.0019032382 8.7909548e-06
-0.12277132 -0.17595962 -0.0041950718 0.83186072 0.55497879 -0.0025016556 0.0013444562
0.45147184 -0.17285216 -0.0073199486 -0.84864891 0.52827448 -0.026855465 0.0019414971
-0.1307286 -0.16317593 -0.0064420751 0.88504952 0.46537983 -0.010439262 0.0017555022
-0.134408 -0.15429315 -0.0031998716 0.9130162 0.40791449 0.0026645795 0.00060939463
-0.14023036 -0.14023685 -0.0088601112 0.92387384 0.38269722 5.5387613e-07 0
0.46371233 -0.14707813 -0.006331414 -0.91943216 0.3932468 -0.0012171142 0
-0.14223063 -0.13540782 -0.0067085959 0.92387199 0.38270149 4.875389e-07 0
-0.14472011 -0.12939775 -0.0029602479 0.92387766 0.38268799 1.3126035e-08 1.4867115e-05
0.47147304 -0.12834167 -0.0010298155 -0.92388844 0.38266191 -2.0782252e-06 0
-0.15157647 -0.11284515 -0.0047933916 0.92387253 0.38270029 1.4495432e-06 5.6237946e-06
0.47615427 -0.11704007 -0.0050998032 -0.92386806 0.38271111 3.6477097e-06 0
-0.15497285 -0.10464568 -0.0039999448 0.9255684 0.37857971 -0.00080226519 3.8229966e-05
0.47940332 -0.10919593 -0.005444821 -0.92689496 0.37531692 -0.001718621 0
-0.15858899 -0.095915578 -0.0051055127 0.94400483 0.32992986 -0.0010649472 0.0011865273
-0.16242079 -0.084811218 -0.0054886788 0.96702898 0.25466573 0.0005300208 0.0018147771
-0.16375172 -0.075447142 -0.0045125918 0.98305726 0.18325983 0.0037613271 0.0009708812
0.48989484 -0.076753601 -0.0069009438 -0.98300821 0.18353526 0.0031074143 0.001626239
0.49072295 -0.070463762 -0.0014230758 -0.98895383 0.14821155 -0.0019243552 0.00043978594
-0.16531131 -0.063600264 -0.0024877377 0.99136901 0.1311007 0.0002072052 0
0.49182451 -0.062096808 -0.0091672838 -0.99138933 0.13094664 -0.00040253281 0
-0.16681397 -0.052185774 -0.0071058124 0.99144572 0.13051976 3.1349936e-07 3.7609682e-06
-0.49507594 -0.042105 -0.0019805245 0.50969815 0.86032921 -0.0064432616 0.069533207
-0.48198086 -0.042105 -0.0031980674 0.15024321 0.98860443 -0.0093953265 0.069171287
-0.47066709 -0.042104997 -0.0011042345 0.24082789 -0.96954268 0.044596918 0.075388804
-0.46909517 -0.042105004 -0.0039846417 0.46936077 -0.88296443 -0.0086166393 0.078774698
-0.45801103 -0.042104214 -0.0067663328 0.68598527 -0.7274465 0.015677437 0.086700208
-0.16805348 -0.042770252 -0.0021971315 0.99144542 0.13052194 -1.4127768e-07 0
0.49418095 -0.044198547 -0.0065166387 -0.99144214 0.13054676 -5.9209179e-07 5.0956106e-07
-0.49845928 -0.035022274 -0.001407315 0.83414543 0.55008638 -0.040077854 0.081677422
-0.45602304 -0.039240908 -0.0010859058 0.75862885 -0.64921337 -0.054810796 0.081587017
-0.16924678 -0.0337057 -0.0070134774 0.99144626 0.13051555 -9.2481321e-07 1.9566756e-05
0.49545047 -0.034555823 -0.0049676159 -0.99144423 0.13053086 -2.276638e-06 2.2227066e-05
-0.49905604 -0.025526116 -0.0057409834 0.97327256 0.22766978 -0.030116435 0.040149592
-0.45713633 -0.026726639 -0.0091705741 0.94311428 -0.33238181 0.0076002371 0.068050317
-0.17012681 -0.027020941 -0.0036053285 0.99144524 0.13052352 2.4674816e-07 1.4752499e-05
-0.16974148 -0.029948015 -0.0012108311 0.99144554 0.13052084 -3.6195487e-07 5.488615e-06
0.49679342 -0.024355311 -0.0039588222 -0.99266875 0.12086242 0.00098396989 0.00021102456
-0.4988052 -0.015862292 -0.0039196787 0.9976629 0.012265206 -0.067218833 0.00192676
-0.45692396 -0.015190993 -0.0076281154 0.99540383 -0.085884333 -0.042368159 0.014826621
-0.17168961 -0.015149657 -0.0090590045 0.99488431 0.10094441 -0.0039327713 0.00083742425
0.49827516 -0.013101049 -0.0007353276 -0.99652869 0.083244577 -0.00099585613 0.0012931481
-0.49840575 -0.0090982355 -0.0010188022 0.99662673 0.0012822085 -0.082057863 0.0011185076
-0.45715281 -0.0067150048 -0.0092900945 0.99946243 0.0014257757 -0.032754038 0.0023546205
-0.17259331 -0.0082849674 -0.0065666288 0.99710894 0.075980894 -0.00089592539 0.0013787032
0.49945712 -0.0041235327 -0.0051202923 -0.99978876 0.017204924 -0.011247024 0.0023968013
-0.49905705 0.0035663408 -0.0057484717 0.99765587 0.0050852085 -0.068241164 0.0011252717
-0.45645848 0.002887534 -0.0042478773 0.998083 0.0036133293 -0.061785113 0.0014683962
-0.17290094 0.0059482381 -0.0045833848 0.99873805 -0.04960623 0.0078422027 0.0017076818
0.49940458 0.0045226286 -0.0043471875 -0.99969989 -0.015529648 -0.018946137 0.0018700422
-0.49856105 0.019356038 -0.0021465062 0.98469377 -0.16429088 -0.058195356 0.02670631
-0.45606798 0.015424731 -0.0014124066 0.9937045 0.061809201 -0.093439922 0.011819544
-0.17187694 0.013726765 -0.0018563941 0.99757171 -0.069480181 0.0048258547 0.0013565525
0.49746805 0.019231264 -0.0046096519 -0.99311346 -0.11712912 -0.0025355024 0.00024475149
-0.45714402 0.021764852 -0.0092264172 0.97140348 0.20531595 -0.1192503 0.046768524
0.49674821 0.024698846 -0.0042840345 -0.99203652 -0.1259508 -1.6336171e-06 9.1289494e-06
-0.49950102 0.032855779 -0.0089724893 0.89361215 -0.44185659 -0.078867659 0.062979981
-0.45644459 0.034349356 -0.0041468372 0.85701847 0.50782275 -0.08738032 0.085075833
0.49544129 0.034625735 -0.0071260226 -0.99144393 -0.13053297 -2.4822191e-06 6.8839479e-05
-0.48734242 0.042105004 -0.0075377868 0.43466553 -0.89737773 -0.076020315 0.051758584
-0.47303358 0.042105 -0.0081291022 0.10220741 0.99433333 -0.029239172 0.077692755
-0.16721718 0.049122997 -0.0024194419 0.99144578 -0.13051923 1.7617879e-07 0
0.49408221 0.044948641 -0.00063101947 -0.99144417 -0.13053194 2.4962142e-07 0
0.49276438 0.05495796 -0.0082497457 -0.99144167 -0.13055022 -2.3324556e-06 0.00010971585
-0.16564316 0.061079413 -0.0028429031 0.99144655 -0.13051373 3.0960632e-07 0
0.49159065 0.063872993 -0.0045373477 -0.99054521 -0.13717635 -0.0016653339 0.00012305105
-0.16425467 0.071626589 -0.0051576495 0.98532104 -0.17070737 0.0011985421 0.00062742335
0.48987573 0.076898739 -0.0038445592 -0.97885191 -0.20447528 -0.0062399399 0.0022604263
0.49016368 0.074711479 -0.009116143 -0.98387259 -0.1788251 0.0040279967 0.0013648471
-0.16301231 0.081063785 -0.0014802441 0.97698772 -0.21329504 -0.00052008138 0.0017254172
0.48906764 0.083036363 -0.0059346491 -0.97113287 -0.23853795 0.00076121406 0.0025149575
-0.16018796 0.09205538 -0.0052690804 0.94916183 -0.31453535 0.012623631 0.0015507807
-0.15842077 0.09632168 -0.007951472 0.94324946 -0.33207983 0.0018547348 0.0015264092
0.48664737 0.091706753 -0.0031845409 -0.95933557 -0.28225717 0.002493171 0.0021857009
-0.15432328 0.10621382 -0.003287293 0.92871398 -0.37078485 -0.0029945965 0.00024567361
0.47951287 0.1089314 -0.0028705522 -0.9261896 -0.37705702 0.00083785533 0.00010273125
0.48152286 0.10407879 -0.0055552386 -0.93227309 -0.36175096 0.0017549989 0.00067918591
-0.14779747 0.12196841 -0.002631139 0.92388195 -0.38267747 -2.6943869e-07 1.8685376e-05
0.47273842 0.1252867 -0.0048187347 -0.92388785 -0.38266355 -8.8876328e-07 0
-0.14160596 0.13691592 -0.004614016 0.9238714 -0.3827031 -2.6827643e-06 0
0.46347889 0.14764167 -0.0042850771 -0.91947442 -0.39314419 0.0020873507 0.00010510197
-0.1348387 0.15325336 -0.0064711221 0.91042763 -0.41364172 0.0046801753 0.00085313554
0.45917609 0.15802981 -0.0042868182 -0.89470559 -0.44660661 0.0066654063 0.0017930719
0.46120968 0.15312012 -0.0048384205 -0.91323417 -0.4074316 0.0016854154 0.00053884211
-0.13086993 0.16283475 -0.004730985 0.88673031 -0.46228498 0.0013969358 0.0021134347
-0.12819843 0.16861047 -0.0039834133 0.85984635 -0.51055127 0.0012569119 0.0026032021
0.45618021 0.16526264 -0.0055759144 -0.87917191 -0.47648424 0.0044268263 0.0016738476
-0.12244281 0.17638774 -0.0040603727 0.82618463 -0.56337178 -0.00559005 0.0013153248
0.45194355 0.17223743 -0.00016744249 -0.84494126 -0.53480959 0.0072713993 0.0018404024
-0.11598293 0.18480633 -0.0035846669 0.8011291 -0.59847003 -0.0050771241 0.00021439772
0.43864506 0.18956807 -0.008405149 -0.79330218 -0.60882813 -1.3177922e-05 0
0.44345483 0.1833 -0.0051067271 -0.81129473 -0.58458066 0.0081414152 0.0008375555
-0.11120947 0.19102713 -0.0086744577 0.79375911 -0.60823226 -0.00012825317 2.0307925e-05
-0.10860775 0.19441772 -0.00089188293 0.79333019 -0.60879159 7.9288493e-06 0
0.43503726 0.19426984 -0.0064200806 -0.79329562 -0.60883671 1.3357136e-05 0
-0.10209912 0.20289981 -0.0038442193 0.79336149 -0.60875082 1.6579545e-06 6.0025427e-06
0.42615685 0.20584281 -0.0058023557 -0.79332072 -0.60880393 -2.5698148e-06 0
-0.094562314 0.21272182 -0.0060696765 0.79331422 -0.60881239 1.2407681e-05 1.0526719e-05
0.41716975 0.21755484 -0.0053140633 -0.79084647 -0.61201346 -0.0012234303 5.0126619e-05
0.42100054 0.21256255 -0.0054147206 -0.79330713 -0.60882163 4.7956036e-07 1.8481809e-05
-0.085576668 0.22443199 -0.0054493546 0.77555305 -0.63127542 0.0029749183 0.00059804798
0.41152766 0.22490767 -0.0052503347 -0.77611136 -0.6305958 5.3649783e-05 0.00068821845
-0.077604637 0.2348009 -0.0056440243 0.73317039 -0.67997986 0.0094115064 0.0018758217
0.39975089 0.23940314 -0.0019673556 -0.69318873 -0.72075152 0.0025700219 0.0028850527
0.40256661 0.23653977 -0.0055343565 -0.70585454 -0.70834565 -0.0039802468 0.0025928274
-0.072069325 0.24045101 -0.0097481608 0.69045973 -0.72337061 0.00063196197 0.0019911071
-0.063607335 0.24694422 -0.0088968351 0.64117813 -0.76739097 -0.0013236805 0.00099476299
0.39416438 0.24368992 -0.0057252496 -0.66371787 -0.7479825 0.00090697949 0.0020272091
-0.051009342 0.25661111 -0.0045241807 0.60876393 -0.79335147 1.6464746e-06 0
-0.048927743 0.25820842 -0.0024477374 0.60876781 -0.79334843 -9.2132785e-07 1.2453103e-05
0.37657484 0.25718701 -0.0046470165 -0.60885227 -0.79328364 -1.1966824e-05 0
0.38364291 0.2517634 -0.0025480241 -0.61518085 -0.78838575 -0.00067222008 7.8913945e-05
-0.045519345 0.26082385 -0.00040152669 0.60877109 -0.79334593 1.6674404e-07 0
-0.039006479 0.2658214 -0.0085164141 0.60876161 -0.79335314 -1.0932506e-06 0
0.36765972 0.26402792 -0.0037411724 -0.6087299 -0.79337752 -1.638144e-06 1.1713363e-05
0.37032363 0.26198381 -0.00032336265 -0.60885549 -0.7932812 1.0457893e-05 0
-0.031444389 0.27162406 -0.0067932755 0.60878617 -0.79333425 4.9965359e-07 2.7198725e-05
-0.026295587 0.27557492 -0.0024204254 0.60746986 -0.79434252 -0.00058500003 1.5069762e-05
0.34956515 0.27791256 -0.0019068718 -0.60848832 -0.79356283 3.824337e-06 6.6514818e-05
0.35846263 0.2710852 -0.0032077059 -0.60880756 -0.79331791 1.3141484e-05 0
-0.020099346 0.28032953 -0.0099467635 0.59782296 -0.80162394 0.0026094511 0.00037915504
-0.015278603 0.28402868 -0.0033962179 0.59283561 -0.80530614 0.0052936086 0.00043182989
-0.0086419154 0.28912121 -0.0055360198 0.53084642 -0.8474043 0.010395628 0.0023680173
0.33678326 0.28772059 -0.006843721 -0.54369152 -0.83927757 -0.0035641026 0.0025166939
0.34266862 0.28320453 -0.0053357654 -0.58462542 -0.81127405 -0.0068997638 0.00074217864
0.31613222 0.29811215 -0.0048844367 -0.40345165 -0.91498947 0.0045894268 0.00041899597
0.32416821 0.29478359 -0.0089411438 -0.4420239 -0.89697319 0.0073476569 0.0016093798
0.33198056 0.29140592 -0.0098875314 -0.48107481 -0.87665564 0.0064835893 0.0026310394
0.015202144 0.30019078 -0.0011177212 0.39306691 -0.91950977 0.0003316979 0.00011508581
0.02811688 0.30554008 -0.0059519075 0.38269907 -0.92387307 -8.1944017e-06 2.0074307e-05
0.036051031 0.30882648 -0.0049952217 0.38271114 -0.92386806 3.382188e-06 4.6721751e-05
0.28938639 0.30919039 -0.0020014942 -0.38268349 -0.9238795 -1.7282133e-08 7.1767492e-05
0.29397744 0.30728877 -0.006344676 -0.38255316 -0.92393351 -1.9011508e-05 1.4909706e-06
0.30547449 0.30252662 -0.0065596402 -0.38314602 -0.92368776 0.00018771391 0
0.05419457 0.31634161 -0.0044062557 0.38208884 -0.92412561 6.0833263e-05 0
0.060295187 0.31886852 -0.0053514838 0.35747281 -0.93391848 0.0030756716 0.00061900687
0.26671046 0.31858289 -0.0068495907 -0.363675 -0.931521 -0.0030281988 0.00032449016
0.28066564 0.31280258 -0.0056505147 -0.38264537 -0.92389536 -8.8005021e-07 8.0405145e-05
0.067157403 0.32171088 -0.0063300282 0.31332868 -0.94963765 -0.003667372 0.0015971008
0.074553601 0.32459286 -0.0036151707 0.26113513 -0.96530139 0.0012353242 0.0017664705
0.084155753 0.32644081 -0.0076267198 0.20189302 -0.97940755 5.9784645e-05 0.0017419726
0.094313473 0.3277781 -0.0057117939 0.16113769 -0.9869318 0.00042549041 0.00062700815
0.10799181 0.32957897 -0.00048324466 0.13051496 -0.99144632 -5.0284734e-07 0
0.21888235 0.3295055 -0.0075880885 -0.13048774 -0.99144995 -2.4268595e-06 2.67385e-05
0.22916259 0.32815203 -0.007382676 -0.14263237 -0.9897722 -0.0026401135 0.00014944517
0.23377727 0.32754445 -0.0054012965 -0.15590715 -0.98776627 0.0032832418 0.00043270542
0.24456017 0.32612482 -0.0053201369 -0.21043134 -0.97759122 -0.0058211018 0.0019770381
0.25569129 0.32314706 -0.0051290244 -0.29172969 -0.95650071 0.00042445262 0.0020128717
0.11713109 0.3307822 -0.0055619874 0.13052531 -0.991445 7.9098936e-07 0
0.12203453 0.33142781 -0.0071283169 0.13056962 -0.99143916 -5.4074621e-06 3.3840002e-05
0.13329595 0.33291045 -0.0033046231 0.13056536 -0.9914397 -7.204934e-07 5.3131655e-05
0.14261444 0.33413732 -0.003848087 0.12991351 -0.99152529 0.00012433872 0
0.15010229 0.33512312 -0.00055021048 0.092673384 -0.9956938 -0.002343847 0.0015267013
0.16298321 0.33665553 -0.007632941 -0.0093757706 -0.99995595 -0.00050876033 0.0021469051
0.17591445 0.33516252 -0.0023380965 -0.078997359 -0.99687308 0.0018867175 0.00098695513
0.18770748 0.33360988 -0.0027504414 -0.12605645 -0.99202293 0.00050536345 5.3215499e-05
0.19541311 0.33259535 -0.0087178685 -0.13058908 -0.9914366 9.9313453e-08 0
0.20612513 0.3311851 -0.0056233951 -0.13050693 -0.99144739 2.1547787e-06 0
0.11486658 -0.33048409 0.0019746879 0.13055906 0.99144053 4.537033e-06 1.3789708e-05
0.12620436 -0.3319768 0.0037275085 0.13050996 0.99144703 3.334537e-07 2.5765477e-05
0.13887589 -0.33364508 0.00049221516 0.12741894 0.99184883 0.00067445438 5.462183e-07
0.14385551 -0.3343007 0.0012125373 0.11998574 0.99277407 0.0017381704 6.0288152e-05
0.15795928 -0.33615756 0.0044062249 0.034674864 0.99934334 0.010507477 0.0019022308
0.17995425 -0.33463064 0.0094806552 -0.10757338 0.99419183 -0.0032516883 0.00033500622
0.18500385 -0.33396584 0.005685851 -0.11993786 0.99277747 0.0028007645 0.00020215609
0.19206372 -0.33303636 0.0076255053 -0.1301385 0.99149591 -5.5418914e-05 0
0.2030329 -0.33159217 0.0027349752 -0.13049379 0.99144912 -5.999517e-07 7.0747592e-05
0.065551624 -0.32104576 0.0053961873 0.33842358 0.94091582 -0.012114567 0.0012025277
0.078321256 -0.32567263 0.0048863492 0.24694027 0.96894723 -0.012723519 0.0025648475
0.084237799 -0.3264516 0.0041369274 0.18583724 0.98253554 0.009402046 0.0012781685
0.096511386 -0.32806748 0.0092021152 0.14270845 0.98976368 -0.0014784242 0.00027831161
0.10678848 -0.32942057 0.0018525422 0.13055056 0.99144167 -1.9695369e-06 5.8338082e-05
0.21873528 -0.32952484 0.0080229938 -0.1306518 0.99142843 5.703053e-07 0
0.22527422 -0.32866395 0.0047029704 -0.13052697 0.99144483 -1.7154393e-06 1.4300329e-06
0.23674531 -0.32715371 0.0033429265 -0.18189093 0.98327249 0.0095350165 0.0012318317
0.24364753 -0.32624495 0.0043969378 -0.21450703 0.97670788 -0.0053411876 0.0019314027
0.25682542 -0.32267731 0.0054801852 -0.30602324 0.95199126 -0.0079088835 0.0010020043
0.039487667 -0.31024992 0.00026799738 0.38269499 0.9238748 1.9392928e-06 1.6048267e-05
0.044847872 -0.31247014 0.0057102358 0.38267872 0.92388147 1.1084084e-07 0
0.054996349 -0.3166737 0.0046490952 0.37316692 0.92776364 -0.0010548948 0.00011327161
0.26468447 -0.31942201 0.00037017465 -0.34388086 0.9390009 -0.0048229513 0.00071077124
0.27011386 -0.31717315 0.0044525862 -0.36306769 0.93176281 -6.6117638e-05 0.00029007217
0.014993079 -0.30010414 0.0015235841 0.3893739 0.92107838 -0.0016013923 0.00016518378
0.021234151 -0.30268925 0.0023892 0.38396806 0.92334628 -0.00040179849 5.4868956e-06
0.03084025 -0.30666816 0.006864816 0.38267401 0.92388338 -2.9824741e-07 0
0.2877551 -0.30986607 0.0026636422 -0.38268518 0.92387885 -3.9451547e-07 0
0.29875588 -0.30530947 0.0025114166 -0.38267216 0.92388421 6.4672645e-07 0
0.30014756 -0.30473307 0.0083476854 -0.38271952 0.9238646 -4.3632124e-07 0
-0.0045801103 -0.29161373 0.0067422092 0.48323473 0.8754527 -0.0081730541 0.002145183
0.0087840874 -0.29753238 0.0014905259 0.42550048 0.90495533 -0.0022691269 0.001168696
0.3152796 -0.29846528 0.0032017056 -0.40204585 0.91561443 -0.0030659521 0.00038783092
0.32831591 -0.29306561 0.003245905 -0.47701368 0.87884349 -0.0095974458 0.0025147819
0.33153877 -0.29163054 0.0044667176 -0.50176293 0.86497754 -0.0069228285 0.0027945903
-0.016433792 -0.28314224 0.0078773275 0.57346475 0.8192119 0.0054878779 0.0013175636
0.33512443 -0.28899348 0.0069428906 -0.51915181 0.85461658 -0.010577624 0.0033535368
-0.031856488 -0.27130783 0.0075043868 0.60876888 0.79334766 -2.0405096e-06 0
-0.023942228 -0.27738076 0.0055456758 0.60245389 0.79815328 0.00077546574 0.00011068085
0.34846151 -0.27875942 0.0070793293 -0.60439879 0.79668158 0.00069382833 9.6543386e-05
0.35906833 -0.27062044 0.006221693 -0.60877454 0.79334325 -1.607166e-06 0
-0.044087175 -0.26192278 0.003759231 0.60876447 0.79335099 -9.2389985e-07 0
-0.037162114 -0.26723662 0.0064374506 0.60878152 0.793338 2.6883945e-06 8.1622302e-06
0.36001286 -0.26989567 0.0041741282 -0.60883427 0.79329747 -1.6121703e-05 0
-0.054567304 -0.25388098 0.0046078213 0.61162949 0.79114431 -2.4834979e-05 1.802109e-05
0.37528661 -0.25817552 0.0058604209 -0.60885262 0.79328334 -3.6581514e-05 0
0.38116318 -0.25366622 0.0077627674 -0.6127817 0.79025197 0.00067123841 3.8249051e-05
-0.064648539 -0.24614525 0.0061743832 0.65565515 0.7550599 -0.00096972485 0.0017230677
0.39411885 -0.24372479 0.0023621321 -0.66653603 0.74542266 0.0086493585 0.0017712233
-0.08041954 -0.2311528 0.0077458769 0.75562459 0.65500152 0.0021246066 0.0013607355
0.40356797 -0.23513933 0.0054603638 -0.72748691 0.68612158 7.3623902e-05 0.0023080267
-0.084426843 -0.22593044 0.0061187465 0.76702082 0.64161938 0.0019720243 0.0011375855
-0.093715869 -0.21382491 0.0036167577 0.79310137 0.60908955 0.00023277514 3.7829375e-06
0.41982985 -0.21408822 0.00030361116 -0.79309016 0.60910422 -7.3026225e-05 0
-0.1015612 -0.20360081 0.0063462928 0.79336244 0.60874951 -1.7735188e-06 3.5242354e-07
-0.097639449 -0.20871168 0.0042351559 0.79335928 0.60875362 9.2181409e-07 4.9070836e-06
0.42619854 -0.20578846 2.0578504e-05 -0.79328245 0.60885376 2.0224054e-06 0.00019473532
0.43057781 -0.20008136 0.0091422927 -0.79326558 0.60887581 1.4237467e-05 0
0.43587846 -0.19317353 0.0046585128 -0.79329526 0.60883713 1.9049789e-05 0
-0.11821894 -0.18189235 0.0036042854 0.80451387 0.59393358 -0.00058831612 0.00038598097
0.43839681 -0.18989158 0.0050171241 -0.79332507 0.60879827 1.2089748e-05 8.0800732e-05
0.44489741 -0.18141997 0.0050511248 -0.80899769 0.58769506 -0.011714923 0.00032270353
-0.12401559 -0.1743381 0.0031843272 0.8415795 0.54012275 -0.0033966242 0.0019688203
0.45112628 -0.17330244 0.0087609924 -0.84212482 0.53891432 -0.019924726 0.001412898
0.45636415 -0.16481847 0.0056964564 -0.87894922 0.4768362 0.0086887674 0.001652024
-0.13374923 -0.15588354 0.0032932952 0.90757596 0.41979644 0.0087660886 0.0010133004
0.45851451 -0.15962711 0.0081959777 -0.90042627 0.4350082 0.00057518337 0.0013673068
0.46229956 -0.15048894 0.0094128251 -0.9185822 0.39518419 0.0060057272 5.617956e-05
-0.1387953 -0.14370134 0.002486293 0.9235658 0.3834399 -0.00021669728 2.8542279e-06
0.46417838 -0.14595291 0.006051993 -0.92385989 0.38273081 -2.0968384e-06 2.1629019e-05
-0.14133622 -0.13756709 0.0035117231 0.9238795 0.38268337 -3.9310947e-07 1.595555e-06
0.46880615 -0.1347803 0.005678934 -0.92388254 0.38267612 -2.6914206e-06 0
0.47015503 -0.1315238 0.0029000863 -0.92385733 0.38273701 3.2493547e-06 0
-0.14457506 -0.12974793 0.0080830986 0.92387867 0.38268554 -7.3846053e-07 2.2416188e-07
0.47294122 -0.12479711 0.0042423354 -0.92388153 0.38267854 1.6242047e-06 0
-0.15122509 -0.11369342 0.0022885799 0.92388529 0.38266951 -1.6513696e-06 0
-0.14937028 -0.11817133 0.0016112458 0.92388815 0.38266253 2.858887e-06 3.4950324e-05
0.47508663 -0.11961753 0.0082598254 -0.923814 0.38284156 2.4395024e-05 0.00011655104
-0.15438183 -0.10607249 0.0031577423 0.9280715 0.37238687 -0.0033746355 0.00012567929
-0.15787607 -0.097636715 0.0045770928 0.94291335 0.33299583 -0.0053020315 0.0010420792
-0.16225712 -0.086800411 0.0097160935 0.96643066 0.25689942 0.0037954869 0.0024761725
0.48879305 -0.084413372 0.0076382631 -0.97003883 0.24292526 0.0034668911 0.002494006
-0.16366464 -0.076108575 0.0036835447 0.98314166 0.18282494 0.0027421075 0.0009850827
-0.16487038 -0.066949561 0.0040934943 0.98940241 0.14517203 -0.0028343233 0.00033236638
0.49091202 -0.069027498 0.0069174096 -0.99057311 0.13697566 -0.0016099262 0.00023776428
-0.16671185 -0.052961577 0.0071701072 0.99144536 0.13052221 1.6433225e-06 1.6436379e-05
0.49329877 -0.050899126 0.0036610365 -0.99144351 0.13053656 -1.6167184e-06 0
-0.49661988 -0.042105 0.0081307385 0.65232551 0.75793201 0.003219971 0.083121315
-0.48036301 -0.042105 0.0024238341 0.20400521 0.97809774 -0.041312817 0.05094872
-0.47380883 -0.042105004 0.0073234374 -0.032277405 0.99947786 0.0014591172 0.090247408
-0.46915209 -0.042105 0.0045795133 0.24547605 -0.96934414 -0.010651667 0.080874585
-0.4567548 -0.042105 0.0080211693 0.65640134 -0.75380474 0.030259198 0.082400218
-0.16712677 -0.049809657 0.0014189295 0.9914456 0.13052067 1.6957026e-07 3.6596434e-06
0.49389952 -0.046335939 0.0026090443 -0.99144632 0.13051526 1.2731631e-06 0
-0.49731758 -0.035575703 0.0068834079 0.75906324 0.64992666 -0.03766124 0.10413701
-0.45557338 -0.033900458 0.0021797717 0.87398553 -0.4820013 -0.061838485 0.086521365
-0.16923364 -0.033805542 0.0034554694 0.991445 0.13052447 6.013326e-07 1.0445455e-05
0.49524784 -0.036094945 0.0049424991 -0.99144483 0.13052672 -4.9201373e-07 1.7200672e-06
-0.49743447 -0.024381012 0.0060345577 0.9512887 0.30405882 -0.050970208 0.060384296
-0.45502326 -0.020552646 0.0061747078 0.96772504 -0.24066325 -0.074762151 0.048300628
-0.16982748 -0.02929467 0.0040457286 0.99144506 0.13052465 1.055942e-07 0
0.49712807 -0.021813553 0.0086024851 -0.99240774 0.12298524 0.0012376203 0.00012286313
-0.45524821 -0.017078349 0.0045411568 0.97689366 -0.17486812 -0.12288159 0.030520894
-0.17192583 -0.013355424 0.0059554116 0.99610931 0.08784695 0.007015672 0.0010335681
0.49800816 -0.015128929 0.0022201017 -0.99431098 0.10651535 0.0004581385 0.00041263524
-0.49759808 -0.0054134317 0.0048463186 0.99509919 0.0071193292 -0.098625198 0.00080285739
-0.45514956 -0.0043260902 0.0052573592 0.99490881 9.1482281e-05 -0.10077883 0.00078109372
-0.17328064 -0.0030639542 0.007006539 0.99948967 0.030561879 0.0092954058 0.0021943727
0.49908495 -0.0069502234 0.0026279886 -0.99860823 0.05026333 -0.015977038 0.002177913
-0.4979628 0.0097126588 0.0021979068 0.99499017 0.00071134255 -0.099969827 0.0006239193
-0.45512122 0.0038348739 0.0054632006 0.99391228 0.00027897957 -0.11017393 0.00046691773
-0.1732775 0.003087847 0.0069607422 0.99956971 -0.028838841 0.0053627412 0.0026260561
0.49965563 0.0026158239 0.0075694127 -0.99992657 -0.0043812627 -0.011303842 0.0021981122
-0.49793458 0.012807898 0.0024031277 0.99319047 -0.01386011 -0.11567452 0.00045700095
-0.45501557 0.013079711 0.0062305913 0.99490577 0.0093811229 -0.10037223 0.0010546463
-0.17192885 0.013332442 0.0040750094 0.99591345 -0.090040244 0.0070040422 0.0010134449
0.49796647 0.015445678 0.0079709888 -0.99502558 -0.099609338 0.0014358008 0.00066975888
-0.49775127 0.025246926 0.0037338694 0.97403759 -0.21468951 -0.071827613 0.026804581
-0.45492128 0.022569919 0.006915147 0.9830727 0.15903378 -0.090974092 0.02910368
-0.4969433 0.032839131 0.0096014403 0.91857809 -0.38502583 -0.089272 0.064874917
-0.45538366 0.033150308 0.0035573626 0.92512381 0.37547511 -0.056252215 0.082002752
0.49536112 0.03523428 0.0054562297 -0.99143946 -0.13056728 -8.0683467e-06 0.00011472573
-0.49496648 0.042105 0.0058097392 0.62740678 -0.77711767 0.049485672 0.06712503
-0.48182452 0.042105 0.0069503635 0.23744841 -0.97090858 0.030898707 0.069876321
-0.46772906 0.042105 0.0029376647 0.39830548 0.91521031 -0.061179638 0.078406066
-0.45675698 0.042048395 0.0064107613 0.81226611 0.58284724 -0.02264636 0.10136206
-0.16725388 0.048844162 0.0060302764 0.99144566 -0.13052011 2.3548514e-06 2.4140812e-05
0.49406862 0.045051813 0.0064844755 -0.99144423 -0.1305313 2.3298986e-08 8.2172664e-06
-0.166915 0.05141845 0.0027338043 0.99144608 -0.13051678 4.6500315e-07 4.1721578e-06
0.49299574 0.053200848 0.0026924442 -0.99144202 -0.13054742 7.201433e-08 0
-0.16542676 0.062723301 0.0045562088 0.99144661 -0.13051271 1.4153925e-08 2.5965914e-05
0.49132717 0.065874472 0.0024940968 -0.99024701 -0.13932253 0.00023381565 0
0.49067891 0.070798099 0.0043679792 -0.98780119 -0.15563646 -0.0051076072 0.00051246444
-0.16270751 0.083379105 0.0029665045 0.97349274 -0.22862983 -0.006346012 0.0018845114
0.48802692 0.088376194 0.0065358756 -0.96426016 -0.26477465 0.0098324632 0.0022653602
-0.15818799 0.096883684 0.0051058037 0.94222856 -0.33493292 -0.0050309221 0.0014435805
0.48472938 0.096337378 0.0075239055 -0.94909358 -0.3149527 0.0051155873 0.0014552467
-0.15466794 0.10538173 0.0028014891 0.92837173 -0.37165284 -0.00032362484 0.00019477423
0.48200741 0.10290892 0.0086929724 -0.93451893 -0.35590258 0.0027784675 0.00071954879
-0.15066585 0.11504358 0.0099228024 0.9238795 -0.38268352 9.6950259e-07 8.6941081e-06
-0.14874622 0.11967792 0.0072501004 0.92388499 -0.38267025 -2.853714e-06 1.2969138e-05
0.47675443 0.11559097 0.0030623619 -0.9238714 -0.38270313 2.3375164e-06 0
-0.14662465 0.12479977 0.0041825566 0.92387635 -0.38269129 3.4293396e-07 0
0.47208759 0.12685803 0.0034390762 -0.92385614 -0.3827399 -4.4380699e-06 0.00013180806
-0.14085893 0.13871935 0.0086604599 0.92388445 -0.38267151 4.7158642e-06 1.6533319e-05
0.46818662 0.13627613 0.0047408207 -0.92388511 -0.38267002 9.8102696e-08 0
-0.13794293 0.14575917 0.0085069686 0.92346615 -0.38367939 0.00055866968 2.4520883e-05
0.46656287 0.14019623 0.003966935 -0.92376882 -0.38295066 -7.4839103e-05 3.1929307e-05
-0.13355008 0.15636432 0.0084366761 0.91104645 -0.41229758 -0.0022698301 0.00082062907
0.45974991 0.15664449 0.0088155791 -0.90822154 -0.41846851 -0.0042150929 0.00077238557
0.46121827 0.15309949 0.0039565749 -0.91490233 -0.40367413 -0.0010178734 0.00036922924
-0.13046691 0.16380771 0.0070675928 0.87798244 -0.47856149 -0.011214451 0.0025458587
-0.12949857 0.16614543 0.003505019 0.87225664 -0.48897007 -0.0087541053 0.00223335
0.45581427 0.16593526 0.0062118559 -0.87802935 -0.47855178 0.0072532743 0.001778485
-0.12318055 0.17542633 0.0031688968 0.82918215 -0.55894929 -0.0057159737 0.0013966279
0.44916707 0.1758557 0.0078751147 -0.83658135 -0.54779637 0.0071337395 0.0016204701
0.45303789 0.17081124 0.0051722974 -0.85271776 -0.52236897 0.0017949981 0.0024524354
-0.1167037 0.18386701 0.0075926557 0.80301529 -0.59595734 -0.001099012 0.00024957248
0.43833357 0.18997398 0.0019988716 -0.79372144 -0.60828125 -0.00038892601 0
0.44384372 0.18279314 0.0015306696 -0.80416632 -0.5944013 0.0019023612 0.00047622048
-0.11060844 0.1918104 0.0024216473 0.79371226 -0.60829347 1.3879599e-05 0
-0.10695183 0.19657572 0.0090390742 0.79333925 -0.60877985 -1.6862625e-06 0
0.43536726 0.19383973 0.005658038 -0.79332185 -0.6088025 -4.1262438e-06 0
-0.10395372 0.20048288 0.0029511116 0.79335779 -0.60875559 -5.0091955e-07 0
-0.09932442 0.20651582 0.0047161798 0.79333597 -0.60878402 -1.0039728e-06 0
0.4269532 0.20480505 0.0088249566 -0.79333472 -0.60878569 5.6833069e-06 0
-0.094014727 0.21343546 0.0064706481 0.79332852 -0.60879374 1.4158249e-05 0
-0.089496359 0.21932383 0.0093419626 0.79059196 -0.61234343 -0.00023826279 7.0540162e-05
0.4212701 0.21221125 0.0039663054 -0.7932626 -0.60887969 2.1528635e-07 3.8086389e-05
-0.086582281 0.22312146 0.0014414974 0.78798556 -0.61569363 0.00033268833 0.00012378722
0.40875199 0.22852492 0.0013300925 -0.76298052 -0.64640558 -0.0045369328 0.0011700898
-0.078554355 0.23358355 0.0040405602 0.74251676 -0.66982555 0.0016203444 0.0014630178
0.39975804 0.23939767 0.0042771995 -0.70081925 -0.71332461 -0.0045172893 0.0020817711
0.40405092 0.23465146 0.0062696864 -0.7261163 -0.68741548 -0.014665828 0.0025517254
-0.061458066 0.24859342 0.005866304 0.63147306 -0.77539045 -0.0033889683 0.00049827964
0.3889448 0.24769506 0.0054815859 -0.62597668 -0.77983958 0.0018215774 0.00055519014
0.39636302 0.24200282 0.0046288669 -0.6659041 -0.74602807 -0.0037246416 0.0015785933
-0.054661185 0.25380895 0.0040666377 0.60877508 -0.79334289 2.4846111e-07 2.0847851e-07
-0.048475806 0.2585552 0.00099159777 0.60876954 -0.79334712 -1.5971183e-08 0
0.37593931 0.25767466 0.0098952539 -0.60874021 -0.79336965 -8.202191e-07 1.2376408e-05
0.38511115 0.25063676 0.0037402883 -0.61463106 -0.78881431 0.0008378505 0
0.36362106 0.26712698 0.0070522577 -0.60878813 -0.79333282 4.237399e-06 7.5007396e-05
0.37101579 0.26145267 0.0071023554 -0.60888362 -0.79325956 -4.8110919e-06 9.907465e-06
-0.030186523 0.27258927 0.0085300207 0.60876656 -0.79334944 -5.1848676e-08 0
-0.023506362 0.27771518 0.0074205128 0.60515904 -0.79610425 -0.00072670513 3.3825847e-05
0.35527363 0.27353218 0.0044249496 -0.60881329 -0.7933135 1.134465e-05 0
-0.020095482 0.28033248 0.00076340884 0.60416496 -0.79685903 -0.00055111106 8.0030863e-05
-0.014835631 0.28436857 0.0031765625 0.58271992 -0.81267297 -0.00010104121 0.00080906128
-0.0088093523 0.28899276 0.0030958503 0.51441395 -0.8575002 0.0084652295 0.0026757899
0.34421211 0.28202015 0.004895404 -0.59019244 -0.80726236 0.00049322564 0.00063726341
-0.0045705754 0.29174173 0.0063255765 0.5016703 -0.86478442 0.021792162 0.00234089
0.01338773 0.29943925 0.0083897263 0.39475024 -0.91878587 0.0021956409 0.00016521673
0.31364948 0.29914051 0.0076160654 -0.39461365 -0.91884345 0.0026063416 0.00018157599
0.32348508 0.29506654 0.0039247274 -0.44482744 -0.89561427 0.0019325046 0.001574486
0.33227557 0.29117954 0.0027549416 -0.49931693 -0.86641926 -0.00041704293 0.0023558985
0.017847564 0.30128652 0.0049081072 0.38897988 -0.92124546 0.0012173502 8.6971457e-05
0.033553407 0.30779195 0.0058260444 0.38268763 -0.92387778 -1.4098167e-06 9.8471337e-06
0.294958 0.30688262 0.0032220408 -0.3826763 -0.92388248 -1.2147675e-08 0
0.30347583 0.30335447 0.0056465282 -0.3827177 -0.92386532 5.1698325e-06 6.8130932e-05
0.31145665 0.3000488 0.00051887333 -0.38972631 -0.92092395 0.0035358809 0.00016501333
0.0398665 0.31040686 0.0058811307 0.38269058 -0.92387658 -1.5703456e-06 2.0930256e-05
0.045482703 0.31273311 0.0044512972 0.38267514 -0.92388296 1.9966403e-06 0
0.052491404 0.31563616 0.002643358 0.3820653 -0.92413527 0.0001053307 1.2554591e-05
0.26813158 0.31799424 0.0056099892 -0.36218697 -0.9320991 0.0034548629 0.00049043819
0.27907139 0.31346291 0.0017863512 -0.38263339 -0.92390025 3.8083301e-06 0
0.28507218 0.31097734 0.0079152593 -0.38267347 -0.92388368 3.5727325e-07 4.8502025e-05
0.068060726 0.32208502 0.0059103668 0.31244421 -0.94991755 -0.0059368778 0.0014215857
0.083920546 0.32640982 0.0042991689 0.21333039 -0.97697616 -0.0027764214 0.0015357361
0.094065152 0.32774541 0.003051122 0.1564167 -0.98769009 0.0014731823 0.00050013122
0.10021904 0.32855564 0.001230076 0.13336508 -0.99106693 0.00044101608 0
