# .PCD v0.7 - Point Cloud Data file format
VERSION 0.7
FIELDS x y z normal_x normal_y normal_z curvature
SIZE 4 4 4 4 4 4 4
TYPE F F F F F F F
COUNT 1 1 1 1 1 1 1
WIDTH 581
HEIGHT 1
VIEWPOINT 0 0 0 1 0 0 0
POINTS 581
DATA ascii
-0.02427103 0.45453537 -0.36506066 0.00027062889 0.057855643 0.99832493 0.014700445
-0.0054113423 0.45996958 -0.36506063 -0.039652318 0.066438213 0.9970023 0.015263707
0.015307832 0.45426658 -0.36506063 0.021748492 0.11157386 0.99351817 0.013977241
0.0355931 0.45273554 -0.36506069 0.050474491 0.1352028 0.98953146 0.05284841
0.046210617 0.45336932 -0.36506066 0.026982119 0.069928847 0.99718702 0.019915728
0.052288666 0.45544881 -0.36506066 0.034580026 0.048932176 0.99820334 0.01651918
0.062256072 0.45291349 -0.36506066 0.0068591177 0.10285006 0.99467319 0.016160818
0.076712504 0.45175114 -0.36506066 -0.023013689 0.10195157 0.99452311 0.01569037
0.084487401 0.45737898 -0.36506066 0.0030043221 0.020214004 0.99979115 0.01897461
0.099149525 0.45617288 -0.36506066 0.0070948391 -0.073866829 0.99724293 0.020091556
0.11163625 0.4557305 -0.36515754 -0.062772937 -0.20109147 0.97755915 0.031131905
0.12550279 0.45054355 -0.36513141 -0.098142877 -0.27152842 0.95741332 0.028560266
0.1378364 0.4567613 -0.36219263 -0.12998623 -0.40427598 0.90535325 0.026841758
0.14357609 0.45680881 -0.36075413 -0.20070079 -0.53574258 0.82018232 0.044448346
-0.12514761 0.46120334 -0.36256978 0.15446945 -0.55135363 0.81984657 0.052925069
-0.10287651 0.46281648 -0.36469021 0.16751842 -0.37333792 0.91244525 0.023787603
-0.092760518 0.46120474 -0.36506066 0.035047933 -0.12343685 0.99173331 0.017985519
-0.071786329 0.46671733 -0.36506063 0.035572886 -0.24289323 0.96940058 0.034896355
-0.062295198 0.46593851 -0.36506066 0.0090432446 -0.15760066 0.98746163 0.034311328
-0.045419082 0.46861184 -0.36506066 0.01641671 -0.081952766 0.99650097 0.023087451
-0.022504814 0.46677524 -0.36506066 0.0063797929 -0.028696811 0.99956775 0.015263729
-0.0070812339 0.46279067 -0.36506069 -0.069044374 0.081754602 0.99425811 0.014493356
0.0042226012 0.46379068 -0.36506066 -0.02540797 0.032098465 0.99916166 0.014058426
0.015908925 0.46571037 -0.36506066 0.031654034 0.037235104 0.99880505 0.014962249
0.040407773 0.46290433 -0.36506069 -0.029058486 0.011347108 0.99951327 0.014629079
0.05014918 0.46439886 -0.36506066 -0.015611382 -0.042429127 0.99897754 0.02326392
0.077345125 0.46705693 -0.36506066 -0.056697901 -0.2038819 0.97735226 0.028349666
0.0841676 0.46526 -0.36509293 0.0014621624 -0.16448784 0.98637795 0.028524034
0.1075407 0.46202937 -0.36463949 -0.12402511 -0.28761896 0.94968045 0.021178786
0.1251545 0.46257657 -0.36186901 -0.15834709 -0.50206339 0.85021091 0.052753676
-0.10185048 0.47281885 -0.36143902 0.26665089 -0.58468872 0.76618302 0.04560129
-0.095929205 0.47601148 -0.36105162 0.28934136 -0.61778128 0.73118258 0.045178954
-0.085170709 0.47598296 -0.36321953 0.10740197 -0.51962692 0.84761596 0.031079672
-0.075413577 0.47923484 -0.36226237 0.061655521 -0.56165463 0.82507128 0.043711342
-0.064822584 0.47240686 -0.36485898 0.089916594 -0.34559327 0.93406653 0.030238757
-0.058787771 0.47977018 -0.36306685 0.00013878771 -0.61483246 0.78865772 0.054218743
-0.046984062 0.47367376 -0.36507481 -0.028372524 -0.34538516 0.93803197 0.028394809
-0.015644347 0.47165442 -0.36506066 0.010570034 -0.084286667 0.99638551 0.013280035
-0.001563638 0.47781366 -0.36508131 0.0068537095 -0.27268696 0.96207839 0.02030563
0.0055868262 0.47488749 -0.36506066 -0.035509586 -0.14200783 0.98922837 0.019174693
0.020718925 0.47530627 -0.36516669 0.019714769 -0.10744134 0.99401593 0.014332472
0.038005449 0.47372207 -0.36495081 -0.0501776 -0.11287178 0.99234176 0.01393021
0.047598541 0.47420287 -0.3649205 -0.095371194 -0.25751826 0.96155536 0.026148951
0.056145303 0.47514766 -0.36446977 -0.02495631 -0.32473716 0.94547504 0.03004195
0.074706674 0.47832224 -0.36275163 -0.099850103 -0.43483996 0.8949548 0.026593005
0.086292729 0.47562608 -0.3633109 -0.0325455 -0.39926377 0.91625828 0.026561167
-0.081617527 0.48017982 -0.36118251 0.12671886 -0.65009922 0.74920851 0.039347943
-0.076855935 0.48053053 -0.36135307 0.099223688 -0.5966174 0.79636818 0.046812229
-0.036783058 0.48127609 -0.36362988 0.056660064 -0.51991206 0.85233861 0.033650827
-0.0090018734 0.48476654 -0.36369127 0.0045888769 -0.39245233 0.91976082 0.032049492
0.0076479246 0.48249525 -0.36444515 -0.013777157 -0.3361541 0.94170618 0.037883777
0.01258769 0.48824388 -0.36181504 -0.16052452 -0.57457078 0.8025586 0.048464227
0.046958741 0.48454642 -0.36124337 -0.009485418 -0.56971598 0.82178688 0.056831691
0.052566811 0.48186266 -0.36244723 -0.024931192 -0.38339293 0.92324883 0.034167167
-0.0024806508 0.49047339 -0.36125976 0.0041888468 -0.42638829 0.90453047 0.03700541
-0.013459026 -0.19022654 -0.35249633 0.089592516 0.90038842 0.42576271 0.03964055
0.006894487 -0.19061539 -0.35333771 -0.016075676 0.83081084 0.55632275 0.041976903
-0.081838772 -0.18058197 -0.35363331 0.18386474 0.83592629 0.51712775 0.039144099
-0.04548654 -0.18464355 -0.35442814 0.10217463 0.83940125 0.53382188 0.033263721
-0.014023969 -0.18521464 -0.35888439 0.12166912 0.74224079 0.65899563 0.031897433
0.0016079615 -0.18821634 -0.357537 -0.041288827 0.78820527 0.61402583 0.039969686
0.016479293 -0.1877872 -0.35565263 -0.13980027 0.79279292 0.59324127 0.043870095
0.034132794 -0.18409038 -0.35735753 -0.098196752 0.79566181 0.59772873 0.041326869
0.048712991 -0.18154328 -0.35804242 -0.025153998 0.74395806 0.66775274 0.046828259
0.054409787 -0.18378207 -0.35421973 -0.013576255 0.81103158 0.58484489 0.050647531
0.071003109 -0.18308988 -0.35150653 -0.11642479 0.86662501 0.48518699 0.041037351
-0.11016338 -0.17138368 -0.35289651 0.30348131 0.85620177 0.4181121 0.056308381
-0.10617489 -0.1718937 -0.35431388 0.22621854 0.80487001 0.54864323 0.055015281
-0.064513169 -0.17741844 -0.35988206 0.14738815 0.69292349 0.70578593 0.050635573
-0.046030771 -0.17990823 -0.35983872 0.12312298 0.80001044 0.58721727 0.033477228
0.066272877 -0.17734507 -0.35976064 -0.05765225 0.55305803 0.83114558 0.035649605
0.075057507 -0.17707311 -0.35898429 -0.13441017 0.63946474 0.75698 0.047680631
0.093655474 -0.17574939 -0.35633948 -0.31919524 0.75006598 0.57923692 0.024709815
-0.12668668 -0.16446435 -0.35269219 0.35865337 0.79328686 0.49199972 0.054621611
-0.11603546 -0.16547355 -0.35713956 0.20914136 0.62295038 0.75378555 0.051046122
-0.10937827 -0.16892834 -0.35667017 0.21050052 0.72810858 0.65234005 0.055953316
0.12157588 -0.16751584 -0.35132119 -0.2846528 0.82173902 0.49367782 0.03468984
-0.15339145 -0.15493779 -0.3500469 0.33872744 0.80668092 0.48428243 0.03578911
-0.14494233 -0.15102707 -0.35964009 0.26508057 0.60401314 0.7515986 0.046477199
0.145322 -0.15618134 -0.35347012 -0.30702555 0.85827345 0.41122028 0.028903699
0.15372398 -0.15182571 -0.3550992 -0.23047765 0.70150173 0.67437035 0.046738464
0.16020036 -0.15163517 -0.35107058 -0.30823848 0.81431651 0.49181062 0.034339491
-0.00040348026 -0.14269094 -0.35831994 0.0086780898 -0.3479296 0.93748045 0.15841849
0.0086550387 -0.14109805 -0.35831994 -0.047903389 -0.34685746 0.93669373 0.17172371
0.015150161 -0.14094768 -0.35831994 -0.066793166 -0.38866627 0.91895443 0.21963483
0.15798053 -0.14703479 -0.35843432 -0.23478889 0.70141697 0.67296988 0.044846058
0.16638339 -0.14582582 -0.35502231 -0.39696398 0.66449499 0.63313979 0.043375265
0.17069767 -0.14370538 -0.35648108 -0.37695929 0.65137482 0.65849257 0.042359967
-0.18312691 -0.13515779 -0.35556275 0.46235543 0.70146805 0.54237449 0.032994926
-0.17793074 -0.13729496 -0.35749066 0.36329269 0.6650784 0.65244853 0.056371003
-0.066614918 -0.13382024 -0.35831994 0.082809657 -0.49459678 0.86516863 0.1948718
-0.053047732 -0.1379997 -0.35831994 0.073610164 -0.31025535 0.94779915 0.13100721
-0.042132035 -0.1334219 -0.35831994 -0.10910611 -0.19424276 0.97486699 0.22655159
-0.036563683 -0.13631552 -0.35831991 -0.17712674 -0.47521093 0.8618589 0.22965297
-0.023276387 -0.13590857 -0.35831994 -0.15729807 -0.40508202 0.90064746 0.21489798
-0.019663911 -0.13997874 -0.35831994 -0.0097003598 -0.61442637 0.78891456 0.24054092
-0.0096468404 -0.13108137 -0.35831994 0.12003324 -0.3006548 0.94614947 0.20499551
0.0032539903 -0.13828312 -0.35831994 0.040165145 -0.38118035 0.92362779 0.18393244
0.016603434 -0.13771194 -0.35831994 0.0020234534 -0.24163489 0.97036517 0.2201622
0.027470499 -0.13476796 -0.35831991 0.22623536 -0.30872455 0.92385429 0.1788578
0.032949608 -0.13651043 -0.35831991 0.12553927 -0.22531389 0.96616435 0.20609683
0.042754412 -0.13190648 -0.35831994 -0.053985469 -0.23860256 0.96961558 0.18319054
0.053051405 -0.13569143 -0.35831994 -0.10789126 -0.25576746 0.96069896 0.17907436
0.072287805 -0.13392933 -0.35831994 0.12855387 -0.48105589 0.86721349 0.20487697
-0.19374324 -0.12675771 -0.35601008 0.49909866 0.63865918 0.58567482 0.04191329
-0.10708656 -0.12232143 -0.35831994 -0.0019652226 -0.35332286 0.93549931 0.18866582
-0.087324433 -0.126698 -0.35831991 0.019124746 -0.38008702 0.92475295 0.24209297
-0.076634854 -0.12227052 -0.35831994 0.0065254108 -0.043046836 0.99905169 0.22955668
-0.056665815 -0.12438593 -0.35831994 0.027950363 -0.14195566 0.98947835 0.15519032
-0.048997998 -0.12992796 -0.35831994 0.10405488 -0.28458861 0.95298576 0.15178071
-0.039661437 -0.12752609 -0.35831994 -0.039860487 -0.016583392 0.99906772 0.20355979
-0.021326974 -0.12727216 -0.35831994 -0.068804346 0.0021822087 0.99762779 0.21655387
-0.014511392 -0.12222439 -0.35831991 0.027398182 -0.0039667832 0.99961674 0.18565039
0.0080871368 -0.12540399 -0.35831991 0.014246115 -0.27042153 0.96263659 0.19559121
0.028210035 -0.12420743 -0.35831991 0.12647083 -0.11836534 0.98488313 0.17461622
0.041524891 -0.12130708 -0.35831994 0.050115582 -0.068029627 0.99642378 0.16409051
0.055319902 -0.12599635 -0.35831994 -0.1525867 0.098388933 0.98338032 0.16085654
0.066959031 -0.12452112 -0.35831994 -0.27182969 0.12971671 0.95356292 0.21292555
0.070833348 -0.12520602 -0.35831994 -0.052127685 -0.018652979 0.99846619 0.20935819
0.19158356 -0.12710974 -0.35722277 -0.26906234 0.47583726 0.83736753 0.05032564
0.20093335 -0.1244365 -0.35193723 -0.38721994 0.70790213 0.59070742 0.051521819
-0.21304247 -0.11133295 -0.35658824 0.42899087 0.61988956 0.65704173 0.048304785
-0.20286345 -0.11649181 -0.35881877 0.4315933 0.66276115 0.61194348 0.029766696
-0.12061024 -0.11417261 -0.35831994 0.013752319 -0.38245669 0.9238711 0.19242358
-0.10095587 -0.11584675 -0.35831994 0.052219138 -0.35781989 0.93232942 0.19583675
-0.092778936 -0.11826402 -0.35831994 -0.18507947 -0.34667465 0.91954464 0.21625474
-0.085407585 -0.11788714 -0.35831991 0.044197142 -0.18744232 0.9812808 0.23912023
-0.076486498 -0.11679418 -0.35831994 -0.096444987 -0.086310662 0.99158913 0.21863928
-0.069488704 -0.11566843 -0.35831997 0.12413651 0.080915123 0.98896056 0.19543299
-0.043849807 -0.11618107 -0.35831994 0.076350532 -0.09051311 0.99296421 0.17412299
-0.033076487 -0.11111464 -0.35831994 -0.072388642 -0.19375896 0.97837484 0.19827601
-0.015042593 -0.11845995 -0.35831994 -0.014308404 -0.10792173 0.9940564 0.20026685
-0.0081355684 -0.11601077 -0.35831994 0.06229993 -0.016946642 0.99791354 0.18757811
0.0079289293 -0.11052141 -0.35831994 -0.00043453806 -0.01684243 0.99985802 0.18546407
0.01787241 -0.11887563 -0.35831991 0.071453378 0.013490234 0.99735272 0.1948517
0.02196929 -0.11508071 -0.35831994 -0.096819349 -0.017723467 0.99514413 0.1641826
0.04007021 -0.11030919 -0.35831994 0.14030646 -0.12301372 0.9824366 0.13472416
0.055065203 -0.11332452 -0.35831994 -0.18889803 0.14257896 0.97159082 0.17484276
0.066317558 -0.11159176 -0.35831994 -0.065019548 0.0893659 0.99387431 0.18323933
0.076113626 -0.11008459 -0.35831997 -0.17600925 0.00027855608 0.98438841 0.21246271
0.097784124 -0.11856768 -0.35831994 0.08134979 -0.23460956 0.96867979 0.24988544
0.11156498 -0.11834746 -0.35831994 -0.043348193 -0.68614596 0.72617126 0.2495105
0.19856298 -0.11844581 -0.35977319 -0.24233435 0.36954042 0.89705849 0.030099511
0.20912682 -0.11194063 -0.35862702 -0.35750899 0.29268312 0.8868618 0.028442532
-0.22456443 -0.10317858 -0.35592997 0.55382228 0.60727727 0.56964481 0.040639613
-0.21961406 -0.10289398 -0.3593789 0.37657386 0.49041414 0.78593016 0.053955428
-0.13612464 -0.10586704 -0.35831994 -0.23734924 -0.47213084 0.84897453 0.21836735
-0.11920943 -0.10660403 -0.35831994 -0.14421597 -0.50542521 0.85073328 0.21468998
-0.10551067 -0.10392388 -0.35831991 0.10413028 0.13028044 0.98599386 0.20885697
-0.094817601 -0.10595206 -0.35831991 0.13522378 0.077294864 0.98779553 0.1980035
-0.084967345 -0.10409044 -0.35831994 0.14680625 0.074678391 0.98634225 0.18065573
-0.076006129 -0.10529852 -0.35831994 -0.10392618 0.004697409 0.99457389 0.19103785
-0.055376697 -0.10793752 -0.35831994 -0.057523467 -0.16411875 0.98476195 0.16301234
-0.04470532 -0.10662396 -0.35831994 0.020943101 0.045129869 0.99876153 0.19458716
-0.034307607 -0.10738462 -0.35831994 0.005764117 -0.1352046 0.99080098 0.19567509
-0.026500167 -0.10541686 -0.35831994 -0.11901138 -0.01542393 0.99277306 0.21084285
-0.017962448 -0.10783818 -0.35831994 -0.026767693 -0.030147783 0.99918699 0.21628159
0.015397592 -0.10613378 -0.35831991 0.053680822 -0.20755753 0.97674882 0.20619996
0.026364686 -0.10122921 -0.35831994 0.059005927 -0.11884921 0.99115753 0.19060394
0.043509141 -0.10438935 -0.35831991 0.24092515 0.0019258028 0.97054178 0.12623049
0.062666059 -0.10295123 -0.35831994 -0.22064804 0.12018995 0.96791983 0.15669802
0.071485929 -0.10484034 -0.35831994 0.068930663 -0.057254784 0.9959771 0.20686768
0.082634605 -0.10106315 -0.35831991 -0.19185294 0.053762384 0.97995001 0.22459899
0.11443691 -0.10336269 -0.35831994 -0.13125189 0.15643001 0.97892934 0.23463029
0.12717238 -0.105445 -0.35831994 0.22564949 -0.074762553 0.97133565 0.26448101
0.13944709 -0.10699448 -0.35831994 0.41379443 -0.49869749 0.76162654 0.28200698
0.14895904 -0.10424329 -0.35831994 0.28876737 -0.40308294 0.86841089 0.19894715
0.21625343 -0.10963859 -0.35583618 -0.51774746 0.69454271 0.49954778 0.030296447
0.22216947 -0.10534666 -0.35555559 -0.50772023 0.70250434 0.49870616 0.029682446
-0.22692755 -0.098624289 -0.35829669 0.49726754 0.54939723 0.67148167 0.050286904
-0.15554477 -0.099646218 -0.35831994 -0.3234556 -0.30304518 0.89640397 0.21227969
-0.14665276 -0.097113565 -0.35831994 -0.37375 -0.27693966 0.88522047 0.23179889
-0.12222693 -0.093223721 -0.35831994 0.18447426 0.245003 0.9518103 0.22547142
-0.11869569 -0.098550431 -0.35831994 0.087293312 -0.05125336 0.99486321 0.22064643
-0.0945113 -0.099826269 -0.35831994 0.17413311 0.13954227 0.97478491 0.1488618
-0.070757501 -0.093210667 -0.35831991 -0.16427298 0.094480917 0.98187965 0.14821385
-0.052222352 -0.099474654 -0.35831994 0.1981414 -0.1530461 0.96815127 0.19486453
-0.044351503 -0.09623085 -0.35831994 -0.039106224 -0.26339656 0.96389472 0.19578633
-0.0056548435 -0.096625455 -0.35831991 0.15147546 -0.11478148 0.98177415 0.22611676
0.011271174 -0.093445107 -0.35831994 -0.19550617 0.13341981 0.9715845 0.18863158
0.02696109 -0.093080379 -0.35831991 -0.2112589 0.13358214 0.96825898 0.20897451
0.036596987 -0.099846721 -0.35831994 0.1532317 -0.094411962 0.98366988 0.17028981
0.054597646 -0.096660718 -0.35831994 -0.077037878 -0.20592548 0.97553056 0.12594384
0.067874134 -0.092413932 -0.35831994 -0.12964372 -0.23869343 0.96240211 0.215386
0.074981384 -0.097813129 -0.35831997 -0.28439632 -0.029223198 0.95826125 0.22744192
0.089129455 -0.098755531 -0.35831991 -0.028357295 0.036898773 0.99891657 0.21414228
0.093730517 -0.09593454 -0.35831991 -0.080493048 0.21410432 0.97348863 0.21325415
0.10605281 -0.091532603 -0.35831994 -0.14985806 0.081370749 0.98535341 0.21456233
0.13495232 -0.097801477 -0.35831994 0.087820038 0.098238729 0.99128032 0.2427665
0.14020824 -0.09084934 -0.35831994 -0.03253052 0.30826083 0.95074552 0.2329637
0.16416606 -0.093176052 -0.35831994 0.2534802 -0.1700346 0.95227939 0.20747967
0.23566115 -0.091378301 -0.35877877 -0.60836309 0.58153421 0.54010397 0.037824705
-0.24507737 -0.086098924 -0.35597381 0.5497576 0.56031972 0.61952269 0.048015311
-0.16728061 -0.085570574 -0.35831991 -0.2258756 -0.30669188 0.92461902 0.22356693
-0.15847403 -0.088940851 -0.35831994 -0.2261472 -0.16097112 0.96070063 0.20628992
-0.13740107 -0.085871622 -0.35831994 -0.026329722 -0.11917315 0.99252433 0.21632101
-0.1144693 -0.087949432 -0.35831994 0.07484556 -0.068910055 0.99481136 0.20225675
-0.10142329 -0.087830931 -0.35831994 0.25808379 0.058856536 0.96432805 0.17523272
-0.092836931 -0.080611393 -0.35831994 0.12317707 -0.24324344 0.96211231 0.15526432
-0.054203887 -0.084034659 -0.35831994 -0.31603763 0.035530258 0.94808114 0.2177863
-0.045736142 -0.085356459 -0.35831994 -0.1182439 0.01616795 0.99285299 0.20146406
-0.012147367 -0.088379957 -0.35831994 0.056026816 0.036251124 0.99777097 0.20023574
0.0039779535 -0.084174179 -0.35831994 -0.14710386 -0.032742616 0.98857898 0.18630803
0.011521364 -0.082278371 -0.35831994 -0.064164065 0.091118976 0.99377078 0.19623365
0.026529506 -0.086072817 -0.35831994 -0.10951483 -0.010756567 0.99392694 0.21672051
0.031231066 -0.088986576 -0.35831994 0.097064763 0.05920608 0.99351549 0.20996201
0.04473142 -0.083681554 -0.35831994 0.17400649 0.13467994 0.97549117 0.19650942
0.062960386 -0.089947328 -0.35831994 -0.19256005 -0.30998802 0.93103606 0.18214029
0.10937899 -0.085348479 -0.35831991 -0.10730815 0.10737219 0.98841095 0.22930701
0.11026695 -0.08715184 -0.35831994 -0.059130684 0.10279576 0.99294341 0.2452482
0.15578547 -0.08731167 -0.35831994 0.018870972 0.10619824 0.9941659 0.22144899
0.16629615 -0.08695136 -0.35831994 0.35000026 -0.16261593 0.9225269 0.20556
0.17405964 -0.082809471 -0.35831994 0.24264519 0.037382152 0.96939456 0.21268417
0.24599223 -0.085762493 -0.35522106 -0.64221531 0.56273586 0.52046883 0.033322085
-0.25506923 -0.073432364 -0.35566506 0.51329625 0.51971924 0.68294871 0.048285112
-0.17518461 -0.076888397 -0.35831994 0.53450924 0.74787599 -0.39367676 0.25651121
-0.16121143 -0.074335352 -0.35831994 -0.24280176 -0.33451858 0.91057372 0.21501499
-0.15790145 -0.078539334 -0.35831994 -0.50184864 -0.2273791 0.83453381 0.25209239
-0.14510262 -0.074238233 -0.35831994 -0.037196498 -0.020345327 0.99910086 0.22713555
-0.1380378 -0.077534154 -0.35831994 0.00022325492 0.088418789 0.99608332 0.20394978
-0.12615825 -0.07473094 -0.35831994 0.20934671 0.20821185 0.95541704 0.1995509
-0.11769759 -0.071103081 -0.35831994 -0.087148562 0.072106048 0.99358231 0.15843354
-0.10504255 -0.078877494 -0.35831994 0.38838527 -0.062418513 0.91938066 0.1987841
-0.092336521 -0.073869184 -0.35831994 0.10494079 -0.04321586 0.99353909 0.18371999
-0.075108364 -0.075236037 -0.35831994 -0.1510873 -0.026490988 0.98816544 0.16260186
-0.068629354 -0.078924671 -0.35831991 -0.10458977 -0.1948382 0.97524297 0.17038013
-0.056568727 -0.072999865 -0.35831997 0.086020239 0.06813699 0.99396074 0.21040986
-0.043481793 -0.077640906 -0.35831991 -0.011936035 0.084799722 0.99632651 0.22232518
-0.028399047 -0.076376699 -0.35831994 0.088268667 -0.13941127 0.9862926 0.17151612
-0.0097134989 -0.074018359 -0.35831994 0.23420209 -0.0043762992 0.97217804 0.21016659
0.01560422 -0.074300453 -0.35831994 -0.019233391 0.069951728 0.99736494 0.19827792
0.02829276 -0.074947715 -0.35831994 0.068221584 0.096428998 0.99299908 0.19251388
0.03687948 -0.076239958 -0.35831994 0.10349546 0.097467571 0.98984283 0.186812
0.041555405 -0.075297259 -0.35831994 0.12643956 0.12664209 0.9838571 0.20080867
0.053883459 -0.074274376 -0.35831994 -0.010232251 -0.043205101 0.99901378 0.19315119
0.063139103 -0.075368665 -0.35831991 -0.1569967 0.030566491 0.98712605 0.20490745
0.077641353 -0.073263228 -0.35831994 -0.023235237 0.054854546 0.99822396 0.17038091
0.10323222 -0.075674787 -0.35831994 -0.23603472 0.022370517 0.9714871 0.20111978
0.14717631 -0.077144198 -0.35831991 -0.033853762 0.13565668 0.99017733 0.19926013
0.15739812 -0.073549815 -0.35831994 -0.13213401 0.071858995 0.98862368 0.20988938
0.17462257 -0.073967233 -0.35831994 0.060357559 0.022418935 0.99792498 0.21602604
0.18230887 -0.076079205 -0.35831994 0.18001647 -0.30142823 0.93634135 0.21562257
0.25533801 -0.071532339 -0.35683563 -0.56142616 0.44614163 0.69696361 0.039787281
-0.20041624 -0.062012963 -0.35831994 -0.22736402 -0.36540818 0.90265298 0.2140402
-0.14479192 -0.063192144 -0.35831994 0.27486655 0.065502308 0.95924854 0.20203689
-0.12727712 -0.06033453 -0.35831994 0.020943886 0.11267707 0.99341094 0.20503026
-0.11444965 -0.062895179 -0.35831994 -0.07128749 0.014362838 0.99735236 0.18320899
-0.10207493 -0.068023853 -0.35831991 -0.046888571 0.021953089 0.99865884 0.19828017
-0.086487263 -0.063681826 -0.35831994 0.0065102633 -0.24041297 0.97064883 0.20365468
-0.074985832 -0.064791128 -0.35831994 0.15623036 0.070158809 0.9852258 0.17408484
-0.065486796 -0.06630832 -0.35831997 -0.021404656 0.19749121 0.98007089 0.16739073
-0.054160859 -0.068388045 -0.35831994 0.049167059 0.13289347 0.98991007 0.20079795
-0.044705823 -0.064848013 -0.35831994 -0.27797303 0.15172319 0.94853097 0.16543515
-0.01607926 -0.066314109 -0.35831994 0.13474096 -0.038125172 0.99014717 0.21192537
0.0034655798 -0.065474346 -0.35831994 -0.13244626 0.0017671707 0.99118865 0.19722602
0.035103399 -0.068232112 -0.35831991 0.067514189 0.0036819647 0.99771148 0.20782542
0.054972764 -0.068184935 -0.35831994 -0.082033299 -0.18210924 0.97985035 0.19442105
0.070476934 -0.060326237 -0.35831994 0.092337184 -0.17067583 0.98099107 0.17294325
0.08618667 -0.065550543 -0.35831994 -0.19797999 0.07884074 0.97703022 0.18964817
0.091488376 -0.062535882 -0.35831994 -0.19685657 -0.30512047 0.93174511 0.2007855
0.10500646 -0.067720234 -0.35831994 -0.29664031 -0.16684984 0.94030082 0.18568797
0.11565218 -0.064199328 -0.35831991 -0.10835937 -0.037043236 0.99342132 0.21175015
0.12898763 -0.060878891 -0.35831994 0.11125699 -0.15950781 0.98090732 0.17434047
0.14040367 -0.064967081 -0.35831994 0.10992796 -0.037509158 0.99323153 0.189505
0.15480669 -0.069257692 -0.35831994 0.072384231 0.013334509 0.99728769 0.16279274
0.16221341 -0.060603492 -0.35831994 0.15788502 -0.12083916 0.98003578 0.1624373
0.18532389 -0.061039671 -0.35831994 -0.18776305 -0.025918167 0.98187238 0.20278955
0.19459988 -0.066836767 -0.35831991 -0.66350955 0.35911086 0.65634942 0.24862187
-0.27009922 -0.056844421 -0.35279295 0.74752247 0.45427424 0.4846082 0.043484338
-0.20272897 -0.054561555 -0.35831994 -0.31336597 -0.11127854 0.94309014 0.22315617
-0.19089806 -0.056767032 -0.35831994 -0.089794397 -0.16866827 0.98157424 0.24024647
-0.18638073 -0.058060288 -0.35831994 0.13066615 0.08376193 0.98788178 0.24352592
-0.17490688 -0.051689126 -0.35831994 -0.14816439 0.028800659 0.98854333 0.20691462
-0.13523513 -0.052430648 -0.35831994 0.36809373 -0.063246556 0.92763513 0.2188576
-0.12543321 -0.050596088 -0.35831994 -0.013666369 -0.17621306 0.98425716 0.20481335
-0.10477927 -0.05191664 -0.35831994 -0.041619331 -0.34690899 0.93697488 0.21399711
-0.092379786 -0.055930465 -0.35831994 -0.0022653225 -0.19921254 0.97995371 0.19254339
-0.088150263 -0.053738527 -0.35831994 0.13474916 -0.21105334 0.96814215 0.198523
-0.07122314 -0.051112153 -0.35831994 0.0027603386 0.031277198 0.99950695 0.14876087
-0.069677427 -0.05778522 -0.35831994 0.078965478 -0.0025987045 0.99687403 0.16157731
-0.053985257 -0.056363788 -0.35831994 -0.22253722 0.20162787 0.95384657 0.1832093
-0.04537965 -0.059123207 -0.35831994 -0.22620243 0.073250361 0.97132218 0.1739898
-0.03408546 -0.055091895 -0.35831994 -0.020870093 0.28178647 0.95925009 0.20769136
-0.020710846 -0.050855957 -0.35831994 0.18674318 -0.1237378 0.974585 0.20304836
-0.015945632 -0.056412831 -0.35831994 -0.032666083 -0.28056312 0.95927954 0.20842727
-0.0055061462 -0.057487871 -0.35831997 0.10165615 0.1197345 0.98758781 0.19568878
0.0029635201 -0.050392121 -0.35831994 -0.2123085 -0.0022883334 0.97720009 0.19569093
0.022478985 -0.055259295 -0.35831994 -0.034517352 -0.030068239 0.99895167 0.18040277
0.042052798 -0.050136942 -0.35831994 -0.073207431 -0.27010697 0.96004319 0.18246351
0.057781268 -0.059418492 -0.35831994 0.010265426 -0.14415047 0.98950255 0.17342627
0.075575672 -0.055775512 -0.35831994 0.039897889 -0.12539019 0.99130493 0.18786569
0.084468819 -0.052438326 -0.35831994 -0.19762924 -0.25358987 0.94690806 0.18064265
0.09999387 -0.056430832 -0.35831994 -0.030838173 -0.27006143 0.96234906 0.18215036
0.10049763 -0.051170796 -0.35831994 0.074865125 -0.18959175 0.97900468 0.22785582
0.12435552 -0.055384446 -0.35831994 0.13447997 0.080519557 0.98763949 0.1873268
0.13369 -0.050955806 -0.35831994 0.2545664 0.048030395 0.96586174 0.16751991
0.14620748 -0.053992748 -0.35831994 0.04373638 -0.11486349 0.99241799 0.17482483
0.15228462 -0.052288111 -0.35831994 -0.0018849117 -0.14640552 0.98922282 0.16005532
0.16971152 -0.053449623 -0.35831994 0.0018266406 -0.056808729 0.99838352 0.17241542
0.17238657 -0.05768498 -0.35831994 0.049191494 -0.099102244 0.9938606 0.19239117
0.18767276 -0.054739833 -0.35831994 -0.098375522 0.21745612 0.97109997 0.2090154
0.19625433 -0.054389834 -0.35831994 -0.31255108 0.056424052 0.94822377 0.2235488
0.2054363 -0.054492533 -0.35831994 0.50129217 -0.25546753 0.82670575 0.21538951
-0.27317175 -0.045963336 -0.35836256 0.60806519 0.4365373 0.66309267 0.061270699
-0.19855525 -0.044333287 -0.35831994 -0.10015047 -0.097768217 0.99015713 0.20137024
-0.18614788 -0.049291059 -0.35831994 -0.17752783 -0.062094782 0.98215485 0.23031265
-0.1731904 -0.046296 -0.35831994 -0.054361351 0.092769049 0.99420255 0.22565342
-0.165443 -0.049260393 -0.35831994 0.049270876 0.024234179 0.99849141 0.20810409
-0.14518897 -0.047002934 -0.35831994 0.022205427 0.053031646 0.99834591 0.20814066
-0.12228106 -0.048730515 -0.35831994 0.0096553704 -0.12975326 0.99149936 0.18168594
-0.11838745 -0.043303635 -0.35831994 -0.26076502 -0.3039861 0.91629356 0.15019855
-0.10525943 -0.041663732 -0.35831994 0.070304222 -0.033213254 0.99697256 0.19743051
-0.096159339 -0.047389906 -0.35831991 0.09908735 0.11798909 0.98805881 0.19849807
-0.088958427 -0.048712745 -0.35831994 0.072471939 -0.024216533 0.99707633 0.17988598
-0.06247576 -0.04467126 -0.35831994 -0.078818031 -0.0030818505 0.99688429 0.14311166
-0.053922214 -0.046157904 -0.35831994 -0.14092274 -0.11215912 0.98364675 0.18298642
-0.044418868 -0.043887801 -0.35831994 -0.11434411 0.035454974 0.99280834 0.19327885
-0.035131998 -0.040107287 -0.35831994 -0.069451943 -0.050167281 0.99632311 0.1829762
-0.018513285 -0.046969809 -0.35831994 0.02368788 -0.18432066 0.98258066 0.21564031
-0.0042794072 -0.043848053 -0.35831994 0.0072979913 0.0098332549 0.99992502 0.22389978
0.017278561 -0.046046775 -0.35831994 0.060493216 -0.088559978 0.99423224 0.20289847
0.033128008 -0.042716559 -0.35831994 -0.2466583 0.083027363 0.96553928 0.19347939
0.05626829 -0.043085851 -0.35831994 0.23215701 -0.034528632 0.97206521 0.17020056
0.07401824 -0.044948034 -0.35831994 -0.22740427 -0.20941196 0.95101726 0.16264032
0.080467932 -0.041344978 -0.35831994 -0.13170178 -0.11133683 0.98501718 0.18703648
0.097792722 -0.043074038 -0.35831994 -0.010847647 0.072021581 0.99734408 0.20499802
0.12982535 -0.040486179 -0.35831994 -0.0063037146 -0.13340941 0.99104095 0.1845381
0.13408101 -0.047439419 -0.35831994 0.036067046 -0.12985066 0.99087745 0.21170416
0.14488658 -0.044756174 -0.35831991 0.0015881988 0.080678053 0.99673891 0.1808718
0.16385967 -0.041446213 -0.35831994 0.15394826 0.053056784 0.98665339 0.17064385
0.17622805 -0.044410504 -0.35831994 0.10857509 -0.03396032 0.99350804 0.18282597
0.18766958 -0.046467401 -0.35831994 -0.1690473 0.13941742 0.97569764 0.21564443
0.1985025 -0.046032283 -0.35831991 -0.13507161 0.12064288 0.98346382 0.22220512
0.20827578 -0.046643004 -0.35831994 0.28553215 -0.46844593 0.83608001 0.2330786
0.22266521 -0.040138762 -0.35831994 0.22922462 -0.50024045 0.83499432 0.21838963
0.27346152 -0.049771063 -0.35539716 -0.58473569 0.48228696 0.65229094 0.03070738
0.28195375 -0.040910453 -0.35302287 -0.67739719 0.5099352 0.53018779 0.033894699
-0.29180217 -0.030633364 -0.35011303 0.72506648 0.561216 0.39914304 0.031888451
-0.2816568 -0.034642242 -0.35846001 0.63000947 0.48093107 0.6097486 0.042471785
-0.2216965 -0.039821878 -0.35831994 -0.22970746 -0.25796148 0.93845105 0.1748616
-0.20091136 -0.037455931 -0.35831991 0.088705756 -0.081219234 0.99274099 0.2207704
-0.19047353 -0.036787253 -0.35831994 -0.12934937 -0.040223837 0.99078286 0.21559794
-0.17693511 -0.031755656 -0.35831994 0.048158735 0.1484739 0.98774296 0.17258275
-0.14945354 -0.036718294 -0.35831991 0.021873575 0.14529559 0.98914647 0.1826643
-0.13279916 -0.032488339 -0.35831994 -0.063262366 -0.08352147 0.99449587 0.21242751
-0.12304671 -0.039066616 -0.35831994 -0.27942783 -0.13704658 0.95033586 0.19193785
-0.046966508 -0.034800254 -0.35831994 -0.15628725 0.048600897 0.98651522 0.18112242
-0.037772909 -0.036747333 -0.35831994 -0.031994134 -0.001132213 0.9994874 0.18168798
-0.018750694 -0.036882266 -0.35831994 0.03078929 -0.030925211 0.99904728 0.17923711
-0.0058170916 -0.034856841 -0.35831994 0.16910961 -0.18271072 0.96851361 0.17185476
0.028487263 -0.030381493 -0.35831994 0.1272081 0.21800655 0.96762139 0.17448185
0.035284005 -0.035643235 -0.35831994 -0.1627727 0.30277494 0.93905938 0.19499131
0.042419426 -0.036857538 -0.35831994 -0.096882172 0.22789131 0.96885473 0.19343875
0.06704957 -0.031162895 -0.35831994 0.095045306 0.069048762 0.99307537 0.15928212
0.098131143 -0.034748651 -0.35831994 0.040109944 0.042656064 0.99828434 0.21547528
0.12298058 -0.03708598 -0.35831994 0.12237113 0.058569055 0.99075478 0.17060332
0.1392073 -0.036778208 -0.35831991 0.11589022 -0.016651118 0.9931224 0.17693739
0.16503902 -0.039102182 -0.35831994 0.0562732 -0.01159476 0.99834812 0.18611673
0.17511484 -0.036341477 -0.35831994 0.053500749 0.085625321 0.99488997 0.16543545
0.18722707 -0.035347037 -0.35831994 -0.10304505 -0.053783126 0.99322158 0.18406658
0.19640215 -0.037744537 -0.35831994 -0.38234746 0.12118436 0.9160375 0.22155979
0.20192547 -0.034234751 -0.35831994 -0.050967965 -0.0002729847 0.99870026 0.22280516
0.21633178 -0.031711947 -0.35831994 0.29103917 -0.80926263 0.51028442 0.23057787
0.27630287 -0.038885228 -0.35999227 -0.59045559 0.44981375 0.67009693 0.033597589
0.2875534 -0.034840919 -0.35197258 -0.70964807 0.51838708 0.4771525 0.030627772
-0.28616023 -0.027447794 -0.3592512 0.63524139 0.4085409 0.65541035 0.049976211
-0.23566794 -0.022033891 -0.35831994 -0.58478069 -0.34006271 0.73647052 0.1777305
-0.2121146 -0.028897332 -0.35831994 -0.077589922 0.15376335 0.98505664 0.22333619
-0.20380296 -0.026062191 -0.35831991 0.21238264 0.2061246 0.95519954 0.19921026
-0.18296005 -0.024249975 -0.35831994 0.067022763 0.12309289 0.99012929 0.16365232
-0.17157891 -0.020175412 -0.35831994 0.079563536 0.16009192 0.98389035 0.1651338
-0.16996945 -0.029894155 -0.35831994 -0.069036461 0.20992787 0.97527647 0.19719683
-0.15335897 -0.021842161 -0.35831994 0.033087105 0.19284336 0.98067153 0.18959689
-0.13161311 -0.021045916 -0.35831994 -0.034884244 0.088599399 0.99545634 0.18573654
-0.12134199 -0.022330385 -0.35831994 -0.15002601 0.18578066 0.97107047 0.18758333
-0.11495408 -0.021666873 -0.35831994 -0.044767275 0.27061149 0.96164715 0.18127109
-0.10379237 -0.026660353 -0.35831994 0.16459072 0.11262893 0.97991049 0.17240338
-0.077196211 -0.023505986 -0.35831994 -0.10009521 -0.19170325 0.97633541 0.19351566
-0.067266613 -0.025075158 -0.35831991 -0.097646646 -0.22726063 0.96892607 0.20735095
-0.05639974 -0.020820267 -0.35831994 -0.0045138779 -0.17155521 0.98516417 0.18275021
-0.045481373 -0.02383153 -0.35831991 -0.094924174 0.0067929779 0.99546134 0.20249459
-0.014332689 -0.023673244 -0.35831994 -0.12702851 0.16310136 0.97839749 0.17343754
-0.0058880313 -0.021933418 -0.35831994 -0.038146481 0.051467899 0.99794585 0.19192396
0.0020178691 -0.024810959 -0.35831994 0.18380061 0.022018598 0.98271692 0.16759759
0.011054229 -0.02754049 -0.35831994 0.039745916 0.04764374 0.99807328 0.1669607
0.026552092 -0.02618644 -0.35831994 0.25496864 0.19470942 0.94714266 0.14304735
0.042778011 -0.022006817 -0.35831994 -0.16851407 0.16884328 0.97113073 0.14654726
0.064818978 -0.022258177 -0.35831994 -0.1342171 0.18570344 0.97339612 0.18828724
0.076024622 -0.024563745 -0.35831994 -0.039373171 0.015750844 0.99910045 0.20679957
0.10892397 -0.028505147 -0.35831994 0.028501308 0.1590666 0.9868564 0.15820302
0.11562572 -0.027895272 -0.35831994 0.12031081 0.14771363 0.98168528 0.16561389
0.12715085 -0.025502421 -0.35831994 -0.18205816 0.18947555 0.96485949 0.18597701
0.13354549 -0.023179993 -0.35831994 -0.26088762 -0.0066496558 0.96534628 0.18106638
0.14546227 -0.024503142 -0.35831994 0.033442188 0.1292655 0.99104595 0.1444039
0.15555072 -0.025850421 -0.35831991 0.20748475 0.11768543 0.97113353 0.17889881
0.16040328 -0.022588324 -0.35831994 0.0097558079 0.17729233 0.98410982 0.15427968
0.1952008 -0.026180008 -0.35831991 -0.16206564 -0.020596622 0.98656499 0.20049705
0.21314888 -0.029377969 -0.35831994 -0.3578797 0.37609667 0.85467744 0.25751927
0.22960195 -0.024740571 -0.35831994 0.75065148 -0.33153877 0.57149309 0.22037987
0.29364571 -0.026243236 -0.35266334 -0.72582257 0.48952925 0.48326269 0.034898791
-0.29889864 -0.01417685 -0.35590589 0.73593444 0.38428962 0.55742437 0.044845484
-0.23287936 -0.013447882 -0.35831991 -0.14419219 -0.32008821 0.93635035 0.19309318
-0.21650423 -0.011430971 -0.35831994 0.19958137 0.053867847 0.97839946 0.21453024
-0.20338482 -0.018608514 -0.35831994 0.075484462 0.13330552 0.98819625 0.20023704
-0.18635175 -0.016748913 -0.35831994 -0.048475247 0.018724464 0.99864888 0.18415697
-0.16327624 -0.01554991 -0.35831991 0.016947664 0.15535258 0.98771369 0.19014794
-0.15256914 -0.018475609 -0.35831994 -0.10316872 0.12875693 0.98629504 0.18193297
-0.1359397 -0.019345798 -0.35831994 -0.1942731 0.036156531 0.98028088 0.19240719
-0.11841453 -0.012195431 -0.35831994 0.0831571 0.11228296 0.99019063 0.21349204
-0.10408987 -0.015669852 -0.35831994 0.15788423 0.3719478 0.91472805 0.18476054
-0.07317809 -0.015965125 -0.35831991 -0.18723981 -0.015414513 0.98219323 0.20616828
-0.055096209 -0.016865976 -0.35831994 0.042767212 -0.23193489 0.97179067 0.18137486
-0.047221214 -0.015490301 -0.35831994 0.38780859 -0.20603514 0.89841753 0.16896755
-0.036279783 -0.012615465 -0.35831994 0.18691492 -0.050966751 0.98105311 0.17255495
-0.028114554 -0.014647137 -0.35831994 0.017533513 0.005790404 0.99982953 0.13963675
-0.014856776 -0.014087789 -0.35831994 -0.096071318 0.086407736 0.9916169 0.16813642
-0.0016885108 -0.013530075 -0.35831994 -0.1532332 0.12759759 0.97991753 0.19396594
0.038696028 -0.018815085 -0.35831994 -0.12834729 0.20585014 0.97013026 0.13934022
0.040412657 -0.01742994 -0.35831994 -0.11777711 0.25411776 0.95997536 0.13930587
0.095165104 -0.014259513 -0.35831994 0.26659498 -0.0210118 0.96357954 0.17777188
0.11870386 -0.01122389 -0.35831994 -0.10052642 -0.022124544 0.99468833 0.16809131
0.12824801 -0.01335559 -0.35831994 -0.090486512 -0.0082783634 0.99586326 0.18081786
0.1418505 -0.010465298 -0.35831994 0.18057272 0.16161177 0.97019333 0.18496238
0.16486488 -0.011906676 -0.35831994 -0.15319091 0.075066417 0.98534131 0.16559418
0.18149143 -0.010574304 -0.35831994 -0.099535488 -0.082842246 0.99157941 0.19523747
0.22466221 -0.014403813 -0.35831994 0.31814155 0.073877662 0.94516039 0.21683209
0.2410858 -0.01733534 -0.35831994 0.47454274 -0.2584452 0.84143639 0.19982699
0.29687536 -0.013352873 -0.35836288 -0.67114788 0.32745609 0.6650812 0.037464056
-0.30336842 -0.0071150046 -0.35380629 0.82828051 0.40920481 0.38275695 0.013181503
-0.25112787 -0.0049393876 -0.35831997 -0.34859574 -0.18767408 0.91829157 0.19396709
-0.24767941 -0.0018433062 -0.35831994 -0.47217849 -0.03356408 0.88086385 0.19706464
-0.23500717 -0.0022265855 -0.35831994 -0.33051234 0.010701361 0.94374096 0.21005887
-0.22814089 -0.0038197674 -0.35831994 0.1123918 0.007316662 0.99363703 0.20632485
-0.21105064 -0.0044382652 -0.35831997 0.19095112 0.054045152 0.98011065 0.1944875
-0.20304878 -0.0054192543 -0.35831994 0.078784198 -0.14746325 0.98592478 0.19937405
-0.19386952 -0.0076866411 -0.35831994 0.012128174 -0.041464746 0.99906635 0.14892963
-0.17207885 -0.0084561855 -0.35831994 0.10198017 -0.11899906 0.9876433 0.14309496
-0.16584621 -0.0011320859 -0.35831994 0.067066722 -0.097309172 0.99299192 0.12033359
-0.15598305 -0.0060024005 -0.35831994 0.06132606 -0.02722967 0.99774629 0.1570017
-0.11040366 -0.0033353493 -0.35831994 0.17216358 0.0037535348 0.98506123 0.18848449
-0.10247317 -0.0052746907 -0.35831994 0.060534637 0.040587053 0.99734062 0.1945827
-0.092979208 -0.0029587522 -0.35831994 -0.032208361 -0.032543894 0.9989512 0.17336218
-0.080066286 -0.0073748194 -0.35831994 -0.19554082 -0.15374054 0.96856993 0.18217869
-0.058661807 -0.0088455901 -0.35831994 0.020132598 -0.039564058 0.9990142 0.19604208
-0.046736319 -0.0063528605 -0.35831994 0.095913418 0.071448743 0.99282205 0.19945623
-0.014868092 -0.0023437589 -0.35831994 -0.020073067 -0.058459785 0.99808794 0.14610471
-0.006524784 -0.0055515151 -0.35831997 -0.10939665 0.070870966 0.99146843 0.16335855
0.0051483014 -0.0072232857 -0.35831994 0.2297681 0.020786708 0.97302341 0.17979074
0.018021788 -0.0053595193 -0.35831994 0.16291665 -0.045026429 0.98561192 0.17315699
0.020732902 -0.0031338967 -0.35831994 0.17673483 0.038218584 0.98351616 0.15456808
0.037237026 -0.0059479214 -0.35831994 -0.027133469 -0.021064557 0.99940985 0.12487128
0.041889366 -0.0011540428 -0.35831994 -0.098068394 0.079661161 0.99198627 0.14922021
0.05369569 -0.0044337083 -0.35831994 -0.14503913 0.049601603 0.98818177 0.1546495
0.063774914 -0.003169015 -0.35831994 -0.21222137 0.13953954 0.96720773 0.16402574
0.076747946 -0.0091574155 -0.35831994 -0.14082809 -0.0832486 0.9865278 0.22769143
0.084469959 -0.0076377802 -0.35831994 -0.088969171 -0.051746979 0.99468923 0.21651192
0.095344931 -0.0049270317 -0.35831994 0.24268289 -0.21372567 0.94626975 0.17948432
0.10360043 -0.0054117255 -0.35831994 0.20952393 -0.12239262 0.97011328 0.14189288
0.12381889 -0.0048638703 -0.35831994 0.074820384 0.062654115 0.9952268 0.171794
0.16402519 -0.0077331588 -0.35831994 -0.23315302 -0.12515688 0.96435237 0.19191602
0.18047294 -0.0078672264 -0.35831994 -0.15969682 0.0270673 0.98679501 0.2062366
0.23696917 -0.0049015526 -0.35831994 0.27385589 -0.20151961 0.9404217 0.23806733
0.24617046 -0.0039547239 -0.35831994 0.27237749 -0.37145576 0.88759857 0.24017385
0.30497593 -0.0013624271 -0.3548907 -0.77449399 0.20640393 0.59796035 0.049696721
-0.3077558 0.0099677714 -0.35716301 0.82083982 0.3066135 0.48188183 0.036189701
-0.2443001 0.0063356068 -0.35831994 -0.24660863 -0.039608482 0.96830541 0.23673767
-0.2377374 0.0064255912 -0.35831994 -0.23580891 0.20881882 0.949099 0.20198759
-0.21536906 0.006618951 -0.35831997 0.15285096 0.20499904 0.96675336 0.17457972
-0.18429716 0.0059292316 -0.35831991 -0.082069404 -0.056667745 0.99501431 0.15767284
-0.17484426 0.0075404383 -0.35831994 0.087430626 -0.051724948 0.99482685 0.16578752
-0.15739183 0.0046074023 -0.35831991 0.091652855 -0.012784474 0.99570894 0.13608323
-0.14695534 0.0076769292 -0.35831994 -0.034773886 -0.13578571 0.99012774 0.15798488
-0.13805057 0.0031319223 -0.35831994 -0.064784758 -0.13219534 0.98910427 0.18569583
-0.12828699 0.0076411702 -0.35831994 -0.085598357 -0.10505 0.99077618 0.18699083
-0.11990073 0.00026342273 -0.35831994 0.11901975 0.012256091 0.99281627 0.19355308
-0.095927753 0.0034538954 -0.35831994 -0.12433545 -0.1268083 0.9841038 0.17271294
-0.087223396 0.0049987044 -0.35831994 -0.22823408 0.021813197 0.97336185 0.17348079
-0.074817948 0.0032595024 -0.35831994 -0.14050138 -0.031184137 0.98958933 0.17188071
-0.069632314 0.0062955096 -0.35831994 -0.10049182 0.083745629 0.9914071 0.191245
-0.04431469 0.0058192462 -0.35831994 0.10790161 -0.050086576 0.99289906 0.19079517
-0.034178004 0.006443657 -0.35831994 0.35266316 -0.10164557 0.93021339 0.16615917
-0.025456369 0.0029622391 -0.35831994 0.064077199 -0.12137781 0.99053597 0.1616797
-0.013265489 0.007853426 -0.35831994 0.013682441 0.074788541 0.99710548 0.15329014
-0.0089899814 0.0096076839 -0.35831994 0.053877428 0.11834066 0.99151027 0.148193
0.010099119 0.00079298764 -0.35831991 0.082076572 0.054609604 0.99512881 0.15083212
0.029589526 0.0051294938 -0.35831994 0.027092615 -0.061230138 0.99775589 0.14549346
0.057978548 0.0029730722 -0.35831994 -0.10629211 0.01756506 0.99417984 0.15261601
0.063003525 0.0047800206 -0.35831994 -0.21858577 0.053873677 0.97432947 0.17536458
0.081570745 0.00090703368 -0.35831994 -0.158217 0.20380545 0.96614218 0.21400732
0.095298134 0.0035149679 -0.35831994 0.16349128 0.045760177 0.98548299 0.20002599
0.10805999 0.0037875175 -0.35831994 0.17460963 -0.11821359 0.97751576 0.16864277
0.11369676 0.0044708201 -0.35831991 0.089909896 -0.0039910092 0.99594194 0.17791779
0.14915995 0.0050463951 -0.35831994 0.13294104 -0.0495537 0.98988438 0.18189272
0.17985876 0.0027173907 -0.35831994 0.0021281242 -0.21215044 0.97723472 0.19693346
0.18283601 0.0035703517 -0.35831994 -0.019307675 -0.22664215 0.97378677 0.19948798
0.19360141 0.0017278828 -0.35831994 -0.38685572 0.075743876 0.91902417 0.23566292
0.20025206 0.0081644133 -0.35831994 -0.023292188 0.19261198 0.98099852 0.21789841
0.21142185 0.0054305457 -0.35831991 -0.057115208 0.036053475 0.99771643 0.19101493
0.23746663 0.0068486026 -0.35831994 -0.1188146 -0.0020108598 0.99291444 0.20480962
0.24278787 0.0073064249 -0.35831994 0.021150908 -0.010098983 0.99972528 0.20860998
0.25528169 0.0021819193 -0.35831994 0.12763585 -0.38637581 0.91346747 0.2107542
0.3058185 0.0033806502 -0.35548601 -0.75570774 0.22795601 0.61395591 0.040285345
-0.25943834 0.017129458 -0.35831994 -0.25469291 0.02305696 0.96674705 0.24837793
-0.24337232 0.016284918 -0.35831994 0.27694076 0.061802953 0.95889741 0.23621407
-0.23177215 0.010926593 -0.35831994 -0.039305177 0.19314323 0.98038304 0.18942092
-0.20775136 0.016035363 -0.35831994 -0.075989082 0.0003940489 0.99710852 0.16919851
-0.18485829 0.016406417 -0.35831994 -0.12279295 -0.047048301 0.9913165 0.15217486
-0.17517245 0.014456593 -0.35831991 -0.026291592 -0.061430927 0.997765 0.17185514
-0.16852252 0.015511714 -0.35831994 0.14581963 -0.032182757 0.98878765 0.17407626
-0.1538725 0.015355019 -0.35831994 -0.042100873 -0.07856147 0.9960199 0.15943459
-0.14787067 0.015677802 -0.35831991 -0.031525727 -0.081694454 0.99615866 0.18401302
-0.1375553 0.015014023 -0.35831994 -0.14404242 -0.036606628 0.98889422 0.2134511
-0.12501509 0.010992832 -0.35831994 0.040837921 0.048836462 0.99797165 0.2019079
-0.10032427 0.017718121 -0.35831994 -0.12880114 0.062971883 0.98966908 0.15870818
-0.095681399 0.012962997 -0.35831994 -0.061686955 -0.071326986 0.99554366 0.17276861
-0.08719597 0.015845308 -0.35831994 0.027469015 0.098704182 0.99473763 0.20061767
-0.078995734 0.011990942 -0.35831994 -0.19577159 0.051983763 0.97927082 0.18980117
-0.0543244 0.016244618 -0.35831994 -0.20421404 0.15057819 0.96727604 0.21627128
-0.036446083 0.010070696 -0.35831994 0.18968137 -0.047111955 0.98071468 0.16972455
-0.027043909 0.013201423 -0.35831994 0.13162963 -0.053268772 0.98986673 0.16754173
-0.014812134 0.016540468 -0.35831991 0.061714206 -0.010442423 0.99803925 0.19483802
-0.0022119232 0.012419726 -0.35831994 0.062720984 0.13537391 0.98880732 0.1377039
0.0099041145 0.015799604 -0.35831994 0.10465143 0.082255818 0.9911015 0.16361059
0.016539004 0.016483516 -0.35831994 0.0041123023 0.091178522 0.99582613 0.15560788
0.029624304 0.014599465 -0.35831994 -0.0095620761 0.091361634 0.99577183 0.15530351
0.037318684 0.017948516 -0.35831994 -0.11657123 -0.044022053 0.99220622 0.13312639
0.051369492 0.015248574 -0.35831994 0.011824134 -0.10286386 0.99462521 0.18081251
0.073079079 0.011930539 -0.35831994 -0.15478715 0.13516551 0.9786579 0.19306746
0.085269332 0.01445888 -0.35831991 -0.096501209 0.25082463 0.96321052 0.1852362
0.099856585 0.01147785 -0.35831994 0.070651278 0.26688978 0.96113384 0.17052244
0.11520706 0.019487657 -0.35831994 0.24015035 0.13040932 0.96193618 0.18846843
0.12584724 0.016978778 -0.35831994 -0.22947732 -0.012790521 0.97323 0.19463617
0.13469657 0.015566666 -0.35831994 -0.11123463 -0.016430905 0.9936583 0.2012874
0.14578091 0.015421001 -0.35831994 -0.020527229 -0.011475348 0.99972343 0.21783471
0.15806863 0.019347683 -0.35831994 -0.087638341 -0.18911053 0.97803712 0.18051097
0.1633141 0.012646295 -0.35831994 -0.10085923 -0.15794614 0.98228323 0.18851405
0.18426046 0.016620366 -0.35831994 0.14024152 0.10363066 0.98467916 0.18218537
0.19117129 0.014991045 -0.35831994 0.040830221 0.022489889 0.99891293 0.19990066
0.21693933 0.011912219 -0.35831997 0.0097409189 -0.040467229 0.99913341 0.19652948
0.22183529 0.012805361 -0.35831994 0.061470572 -0.032141261 0.99759126 0.17673475
0.23346993 0.019396592 -0.35831994 0.063652463 -0.14332478 0.98762661 0.18500237
0.24750583 0.01170234 -0.35831994 -0.2472305 -0.12776023 0.96049696 0.22953506
0.25999519 0.010686882 -0.35831994 0.32988995 -0.23299122 0.91481566 0.21118732
-0.3145231 0.025611553 -0.35631976 0.85577387 0.1678499 0.48936453 0.051447574
-0.25057021 0.024959479 -0.35831994 -0.073062539 0.003126468 0.99732244 0.19170189
-0.24609497 0.026857223 -0.35831994 0.40384069 -0.055867329 0.91312182 0.20215145
-0.23586084 0.023903301 -0.35831991 0.052851383 -0.0057371482 0.99858588 0.19484128
-0.22788273 0.023807004 -0.35831994 -0.065132909 0.13461158 0.98875552 0.20000984
-0.19095404 0.028158464 -0.35831994 -0.0092227152 -0.053586394 0.99852067 0.15901801
-0.17522186 0.026044577 -0.35831994 0.036607672 -0.0107334 0.99927205 0.17530377
-0.1631684 0.022061832 -0.35831994 0.090013616 -0.015964486 0.99581259 0.15593901
-0.15360659 0.020841198 -0.35831994 0.028919179 -0.13661742 0.99020165 0.18178959
-0.13566074 0.02231602 -0.35831994 -0.09046793 0.03247989 0.99536961 0.18458849
-0.12139154 0.023013862 -0.35831991 0.092165418 -0.10898691 0.98976123 0.19247121
-0.10802408 0.026457615 -0.35831994 -0.0066032489 -0.13520172 0.99079609 0.18534359
-0.093794845 0.021513555 -0.35831994 -0.044622932 0.0095965322 0.99895781 0.16442119
-0.076025829 0.022315204 -0.35831994 -0.089469247 -0.0050950451 0.99597657 0.22844934
-0.062837541 0.020620584 -0.35831994 -0.018858798 0.048145339 0.99866229 0.19375294
-0.051764041 0.026319727 -0.35831994 -0.036661182 -0.018820969 0.99915045 0.19949305
-0.034870233 0.023281205 -0.35831994 0.23796163 -0.027335236 0.97088987 0.20936996
-0.025081804 0.024103252 -0.35831991 0.090744041 -0.14088632 0.98585826 0.21194972
-0.012785556 0.02701081 -0.35831994 0.041822035 -0.054375846 0.99764436 0.15365267
0.0014123702 0.026813313 -0.35831994 0.03018604 0.013193365 0.99945724 0.13522783
0.016522767 0.026346885 -0.35831994 0.067848697 0.091829531 0.99346054 0.14258696
0.037229802 0.023565086 -0.35831991 -0.14684437 -0.075684071 0.98625994 0.15245228
0.044844311 0.024401128 -0.35831994 -0.11061462 -0.077863969 0.99080855 0.15728468
0.05474047 0.02682329 -0.35831994 0.0089608384 -0.10938011 0.99395967 0.15294206
0.062067904 0.025247484 -0.35831994 -0.095423386 -0.13670437 0.98600519 0.18402721
0.096317925 0.026544616 -0.35831991 0.15342197 0.17109703 0.97323561 0.15380375
0.10609436 0.023794236 -0.35831991 0.11022987 0.13236278 0.98505294 0.16363241
0.11453757 0.025467319 -0.35831991 0.13459946 0.18355712 0.97375029 0.16153893
0.12588671 0.026192682 -0.35831994 -0.242144 0.0099787777 0.97018903 0.19348304
0.1320256 0.026387274 -0.35831994 -0.19124132 -0.041065723 0.98068362 0.17832066
0.15766108 0.027179942 -0.35831994 0.019255031 -0.1569062 0.9874258 0.18846259
0.16835988 0.026254959 -0.35831994 0.084104501 0.11929619 0.98929012 0.189404
0.17715466 0.027185889 -0.35831994 0.13495556 0.12443193 0.98300749 0.19255115
0.1934728 0.022256173 -0.35831994 0.20421384 0.12413141 0.97102427 0.19750391
0.20567003 0.02546192 -0.35831994 -0.03683269 0.038751889 0.99856979 0.18641077
0.2183274 0.024411254 -0.35831994 -0.021005008 0.083564371 0.99628097 0.19095664
0.22508964 0.025955327 -0.35831994 -0.16686963 0.04325543 0.9850297 0.17533697
0.2466431 0.026061427 -0.35831994 0.12811387 0.018377014 0.99158913 0.1948863
