# .PCD v0.7 - Point Cloud Data file format
VERSION 0.7
FIELDS x y z normal_x normal_y normal_z curvature
SIZE 4 4 4 4 4 4 4
TYPE F F F F F F F
COUNT 1 1 1 1 1 1 1
WIDTH 573
HEIGHT 1
VIEWPOINT 0 0 0 1 0 0 0
POINTS 573
DATA ascii
-0.069312394 -0.49087486 -0.11959285 0.17703903 0.98419029 0.0051606614 0.0010594401
-0.042823605 -0.49436218 -0.11989082 0.13051608 0.9914462 2.75819e-05 1.6092228e-05
-0.035925586 -0.49527034 -0.1136693 0.13054696 0.99144214 -1.5548181e-05 0
-0.025824308 -0.49660015 -0.11641866 0.13054624 0.9914422 0.00011449309 0
-0.0057766107 -0.4992395 -0.11630255 0.045573503 0.99895632 -0.0030625593 0.0015933012
0.0073471898 -0.49903274 -0.11562343 -0.068983972 0.99760765 0.0044981716 0.0010741444
0.033997852 -0.49552408 -0.11519959 -0.13051793 0.9914459 -1.3065973e-05 0
0.041481845 -0.49453881 -0.11625299 -0.13055658 0.99144083 -7.1876643e-06 0
0.055784255 -0.49265587 -0.1181482 -0.13179623 0.9912768 -0.00010284794 5.6939567e-05
0.075009845 -0.49012476 -0.11842334 -0.18730062 0.98221266 -0.013294777 0.0013309538
-0.093605757 -0.48478568 -0.11583705 0.324303 0.94591731 -0.0082438011 0.0012358379
-0.085490108 -0.48814732 -0.11805546 0.28498712 0.95853108 0.0007677995 0.0015203066
-0.077979006 -0.4897339 -0.11856887 0.2096871 0.97773415 0.0081999302 0.0016360286
0.09171728 -0.48556793 -0.11501649 -0.31956673 0.94756174 0.0019710064 0.0010292443
-0.12224203 -0.47292417 -0.11339939 0.38274083 0.92385572 -3.0167483e-05 0.00011029631
-0.11640661 -0.47534126 -0.11173372 0.38266867 0.92388564 6.6568118e-06 0
-0.10828552 -0.47870517 -0.11469796 0.3827596 0.92384803 -8.8287834e-06 0.0001334476
0.1055764 -0.47982728 -0.11590222 -0.38271719 0.9238655 4.7434032e-06 1.5680681e-06
0.11274834 -0.47685659 -0.11199221 -0.38270226 0.92387176 1.35042e-05 0
-0.15239918 -0.46043265 -0.11232577 0.4436402 0.89615071 0.0098612579 0.00199373
-0.14792708 -0.46228507 -0.11429445 0.40511519 0.91422182 0.0089493617 0.00042191503
-0.1379132 -0.46643296 -0.11486654 0.39091155 0.92042816 0.00043410511 0.00011434792
-0.12990057 -0.46975186 -0.11145565 0.38270876 0.92386913 4.2925243e-05 0
0.13190682 -0.46892086 -0.11486533 -0.38270712 0.92386973 -4.1598782e-05 9.7411539e-06
0.14201567 -0.46473366 -0.11413103 -0.39740208 0.91763783 -0.0035070204 0.00030366945
0.15325002 -0.46008024 -0.11536573 -0.43273476 0.90148193 -0.0084287608 0.0010706558
-0.16478437 -0.45381156 -0.11435655 0.53067321 0.84757149 0.0029342629 0.003502059
-0.15597078 -0.45895323 -0.11347477 0.45033792 0.89274424 0.01426524 0.0024525425
-0.065037116 -0.45082331 -0.11451404 0.1901564 0.98172832 0.0070714499 0.0015635036
-0.050093867 -0.45279062 -0.11891195 0.13601157 0.99070621 0.0014470913 0.00010497821
-0.030668959 -0.45534796 -0.11445826 0.13052167 0.99144548 1.8342416e-05 0
-0.027571822 -0.45575571 -0.11112314 0.1305289 0.99144453 1.0050326e-05 3.4399109e-05
-0.016556183 -0.45720595 -0.11454275 0.088636309 0.99604934 -0.005419794 0.00040823282
0.0073084445 -0.45842341 -0.11452518 -0.044256378 0.9989922 -0.0074823918 0.0017480942
0.01602878 -0.45727539 -0.11658518 -0.11937411 0.99283254 0.0057743709 0.00036916701
0.026604652 -0.45588303 -0.11371064 -0.13051708 0.99144608 -1.1784362e-05 0
0.031729493 -0.45520833 -0.11591083 -0.13053368 0.99144381 2.7216294e-05 0
0.043945082 -0.45360011 -0.11512809 -0.13054374 0.99144256 9.6910308e-06 5.3118973e-05
0.15720837 -0.4584406 -0.11528571 -0.45677343 0.88948399 -0.013271477 0.0019372914
0.16360113 -0.45489803 -0.11580545 -0.52819628 0.84908849 -0.0075785718 0.0019968655
-0.18189026 -0.44086432 -0.11288356 0.6080482 0.79390013 -7.221775e-05 0
-0.17552774 -0.44574645 -0.11513454 0.59081203 0.80680919 0.00023511756 0.00062084617
-0.085496485 -0.44456005 -0.11375669 0.35488436 0.93490708 0.0024033054 0.00092239224
0.084200561 -0.44509685 -0.11552183 -0.3502838 0.93662459 -0.0059729372 0.00077885523
-0.19431102 -0.43133354 -0.11907415 0.60874724 0.79336429 1.1665071e-07 0
-0.1871787 -0.43680635 -0.11727735 0.60798299 0.79395008 -0.00027212338 0
-0.11184454 -0.43364635 -0.11680133 0.38268977 0.92387694 -6.5111744e-06 5.8509818e-06
-0.10197962 -0.43773252 -0.11238475 0.38269264 0.92387563 4.4697385e-06 0
0.11532784 -0.43220353 -0.11411481 -0.3826929 0.92387563 -8.8425795e-06 5.3893022e-05
0.18668309 -0.43718666 -0.11991867 -0.60879141 0.79333031 5.2177086e-07 1.5163036e-07
-0.20083305 -0.42632902 -0.11902716 0.60878134 0.79333812 5.3526574e-06 0
-0.19849341 -0.42812428 -0.11323675 0.60874587 0.7933653 -1.0555469e-05 0
-0.13988978 -0.42202961 -0.11735103 0.48898524 0.87222439 -0.010859436 0.0026220921
0.12527999 -0.42808115 -0.11545767 -0.41798088 0.90845329 0.0021360083 0.0011621589
0.13389011 -0.42451477 -0.11015031 -0.45802587 0.88887614 -0.010555325 0.0018773022
0.14024307 -0.42188329 -0.11643685 -0.47257164 0.88120872 -0.012130246 0.0023347004
0.20508054 -0.42306978 -0.11554863 -0.61046183 0.79204571 0.00016542363 0
-0.21619126 -0.41454422 -0.11718592 0.6384365 0.76964372 0.0068862145 0.0014426284
-0.15173551 -0.41324753 -0.11527454 0.60438508 0.79669225 0.00037342877 2.6434707e-05
0.1478591 -0.41622204 -0.11383853 -0.55340832 0.83285129 -0.0098977787 0.0019567355
0.15128691 -0.41359174 -0.1146409 -0.5705995 0.82122535 -0.0022893762 0.0012511609
0.20994136 -0.41933995 -0.11692135 -0.61055624 0.79197288 3.1237221e-05 2.3859175e-05
0.21668145 -0.41416815 -0.11036746 -0.65144426 0.75861782 0.01092637 0.001322687
-0.22581388 -0.40716055 -0.11060723 0.70379019 0.71030968 -0.011814103 0.0022346803
-0.16559912 -0.40260962 -0.11721185 0.60875088 0.79336143 4.1484898e-05 0
0.16738793 -0.40123701 -0.11521481 -0.60880381 0.79332078 3.1483974e-05 0
0.22840527 -0.40483925 -0.11170755 -0.70829308 0.70569736 0.017668776 0.0024538967
-0.23431286 -0.39714032 -0.11324289 0.75933796 0.65069622 0.00062248122 0.0010815857
-0.1767647 -0.39404196 -0.11255737 0.60880256 0.79332185 -1.9068919e-05 0
0.16999349 -0.39923769 -0.11495451 -0.60880589 0.79331928 2.2882528e-05 0
0.17662886 -0.3941462 -0.11727454 -0.60868376 0.79341286 2.2383345e-05 0
0.23499702 -0.3962487 -0.11632976 -0.74779451 0.6639269 -0.0021262546 0.0021136813
-0.19242369 -0.38202637 -0.11867749 0.65632635 0.75443292 -0.0081605539 0.001340811
-0.18478931 -0.38788441 -0.11704145 0.63532984 0.77220416 -0.0075331461 0.00062281644
0.18577245 -0.38713002 -0.11519279 -0.63383955 0.77346146 0.0022055546 0.00060822401
0.24026376 -0.38938493 -0.11881795 -0.79338121 0.60872495 2.1519661e-05 5.2314092e-05
-0.24879304 -0.37826937 -0.11608912 0.79329872 0.6088326 -2.7215503e-05 3.5252226e-05
-0.20164654 -0.37356627 -0.1191816 0.72401273 0.68978047 0.0029047832 0.0024043026
-0.195234 -0.37987 -0.11316549 0.66761148 0.74450964 0.00068008323 0.001352214
0.20322147 -0.37151372 -0.11436599 -0.73157382 0.68174344 -0.0050681103 0.002061523
-0.25674927 -0.36790058 -0.11461557 0.79324967 0.60889655 2.2803388e-05 0
-0.20537503 -0.36870718 -0.11846342 0.75592053 0.65466106 0.001730757 0.0016813512
0.20853916 -0.36458361 -0.11850551 -0.7819463 0.62334567 0.00048085104 0.00053622673
0.26095432 -0.3624205 -0.11087 -0.79339695 0.60870463 -3.0226644e-05 5.6555065e-05
0.21321294 -0.35849258 -0.11962327 -0.79333174 0.60878962 8.1773924e-06 0
-0.22312398 -0.34557629 -0.11185118 0.79336125 0.60875118 -4.2298711e-06 5.251633e-06
0.21992221 -0.34974894 -0.11056839 -0.79337573 0.60873222 -6.4971457e-05 7.890784e-05
0.22432356 -0.34401301 -0.11415297 -0.79327834 0.60885924 -5.3633312e-06 0
0.27517888 -0.34388268 -0.11263099 -0.83519018 0.54980725 0.013015837 0.0014045605
-0.28206107 -0.3314878 -0.11075985 0.90097868 0.4337917 0.0078797815 0.0013131906
-0.23475593 -0.33041728 -0.11578469 0.81954265 0.57297581 -0.0069689974 0.0010466368
0.23115441 -0.33511084 -0.11910321 -0.80369282 0.59501505 -0.0059179077 0.00034121409
0.28102574 -0.3339873 -0.11975542 -0.87294799 0.48745847 0.018606314 0.0018331488
-0.28641811 -0.32096893 -0.11815849 0.91955739 0.39294586 0.0027685021 0.00035181726
0.23803595 -0.32614267 -0.11673708 -0.83260751 0.55342376 -0.022064183 0.0017889871
0.24202374 -0.32094568 -0.11568399 -0.84250426 0.53820366 -0.022877378 0.0018157313
-0.28914243 -0.31439185 -0.11247965 0.92388237 0.38267663 5.6168451e-06 0
-0.24610536 -0.31307006 -0.11648816 0.86683846 0.49836889 -0.014813223 0.001253666
0.24674411 -0.31152797 -0.11131386 -0.88923681 0.45744693 0.00045849534 0.0026470395
-0.25076586 -0.30181858 -0.11809927 0.91376281 0.40624598 0.0013544543 0.0005969184
0.24791133 -0.30871001 -0.11788858 -0.9081766 0.41856149 -0.0046375138 0.00087026012
0.25134259 -0.30042621 -0.11310661 -0.91765076 0.39736548 0.0042119869 0.00034205898
-0.29678354 -0.29594457 -0.11590128 0.92385805 0.38273528 -6.0304668e-05 0
-0.25230446 -0.29810411 -0.11626348 0.92285132 0.38515559 0.00082232221 0
0.2549594 -0.29169449 -0.1117962 -0.92392176 0.38258153 -6.4215717e-05 0
0.29689288 -0.29568058 -0.11209254 -0.92385548 0.38274136 2.7541642e-05 0
-0.30211708 -0.28306824 -0.11662692 0.92384923 0.38275656 1.6322683e-05 0
-0.25772291 -0.28502274 -0.11727527 0.92387819 0.38268673 -2.6624966e-05 1.5846963e-05
0.25816041 -0.28396657 -0.11606795 -0.92390317 0.3826265 1.8000348e-05 0
-0.30641934 -0.27268165 -0.11879718 0.93645334 0.35076979 -0.0039777439 0.00072449911
-0.26182461 -0.27512044 -0.11520742 0.92388338 0.38267419 1.9704084e-05 1.425212e-05
0.26232469 -0.27391309 -0.11608552 -0.92643309 0.37645623 0.0015666111 4.1159499e-05
0.30993432 -0.26419574 -0.11089592 -0.96027756 0.27901834 0.0039837146 0.002346664
0.31057376 -0.26265207 -0.11748113 -0.96656907 0.2561807 -0.010755052 0.0025768408
-0.31235403 -0.25216162 -0.11197436 0.98106283 0.19362356 -0.005065985 0.0013753234
0.26932433 -0.25701445 -0.11709242 -0.95025462 0.31147137 -0.0013211062 0.0023185629
0.27128875 -0.25225723 -0.11465982 -0.96413815 0.26533246 -0.0060312431 0.0028422824
0.31243086 -0.25157815 -0.11341566 -0.98258293 0.18580008 -0.0030083226 0.0013414443
-0.27256507 -0.24589187 -0.111781 0.9781208 0.20800395 0.0037305239 0.0014507978
0.27236223 -0.24743235 -0.11427778 -0.97339964 0.22895317 -0.0085784914 0.0022353246
0.31295753 -0.24757762 -0.11502697 -0.98665106 0.162637 -0.008298303 0.00086750346
-0.31493217 -0.23257868 -0.11426808 0.99144572 0.13051948 3.8996764e-05 0
0.27355218 -0.23839408 -0.11148275 -0.98653603 0.16351825 -0.0029115176 0.00059402076
0.31457743 -0.23527324 -0.11490451 -0.99080729 0.13528113 -6.3594409e-05 4.9763024e-05
-0.31560847 -0.22744176 -0.1112988 0.99144602 0.1305173 2.7029886e-05 0
0.27518314 -0.22600555 -0.11636734 -0.99052733 0.13731572 8.4233616e-05 4.7580757e-05
-0.31684953 -0.21801484 -0.11709997 0.99144387 0.1305338 1.665814e-06 0
-0.27659011 -0.21531852 -0.11518025 0.99144548 0.13052131 5.4093775e-06 2.1861792e-05
0.27639574 -0.21679498 -0.11536509 -0.99144477 0.13052675 -1.4229002e-05 4.2398842e-05
0.31672066 -0.21899384 -0.1108086 -0.99144566 0.13052015 -1.5416545e-05 7.6438037e-06
0.27809167 -0.20391318 -0.11359678 -0.99144018 0.13056198 2.0074497e-06 0
0.31812066 -0.20835961 -0.11668754 -0.99144471 0.13052714 -3.0017301e-05 0
-0.32003558 -0.19381459 -0.11958038 0.99358922 0.11303046 -0.0021370379 0.00045133379
-0.3199642 -0.19435659 -0.11867771 0.99358529 0.11306558 -0.0021289887 0.00044895985
-0.27921733 -0.19536293 -0.11289056 0.99481851 0.1011075 0.010646556 0.00046058212
0.27964312 -0.19212876 -0.11495706 -0.99573284 0.092182182 -0.0043131877 0.00097912934
-0.28075671 -0.18367006 -0.11484589 0.99944323 0.032926466 0.0053918413 0.0014841611
0.32102722 -0.18628219 -0.11890214 -0.99666101 0.081635319 0.0015676122 0.0010833773
-0.32195753 -0.17921583 -0.1112707 0.9997493 0.022149758 0.0032769036 0.0024731769
-0.28079307 -0.17233506 -0.11757969 0.99950039 -0.030964147 0.0063304184 0.0016398852
0.32110465 -0.17003508 -0.11547174 -0.99854004 -0.054015774 0.00045482389 0.0016325584
-0.32004189 -0.16196248 -0.11976058 0.99434745 -0.10615635 -0.0019914864 0.00050201162
-0.28035492 -0.169007 -0.11605256 0.9989444 -0.045757499 -0.0040400238 0.0016444277
-0.2793318 -0.16123568 -0.11781115 0.99386281 -0.11061942 -1.8691382e-05 0.00042363454
0.27991998 -0.1657037 -0.11091177 -0.99744958 -0.070612624 0.010403164 0.0013620248
0.32064202 -0.16652113 -0.11433585 -0.99669749 -0.08113312 0.003388542 0.00079527136
0.31886053 -0.15298915 -0.11692149 -0.9917742 -0.12799828 0.00062196504 0
-0.27746248 -0.147037 -0.11484338 0.99144965 -0.13048992 7.0881815e-06 0
0.27729675 -0.14577802 -0.11531488 -0.99144524 -0.13052364 -7.7275545e-06 0
0.31808984 -0.14713538 -0.11647467 -0.99144 -0.13056298 -1.3501656e-05 5.0418552e-05
-0.27567017 -0.13342296 -0.11998454 0.99144906 -0.13049421 -5.5195346e-06 5.4369393e-06
0.27554703 -0.1324876 -0.11646733 -0.99080318 -0.13530239 0.0015144539 1.4851431e-05
0.2747716 -0.12659757 -0.11445241 -0.99046236 -0.13777874 0.0011046549 5.1738367e-05
-0.31337246 -0.11130336 -0.1139745 0.98600155 -0.16671365 -0.0027525073 0.00087603321
-0.31311882 -0.10937667 -0.11644734 0.98590606 -0.16728973 -0.001838154 0.00099677173
-0.27203149 -0.10578437 -0.11807274 0.96882915 -0.24762696 -0.0071334331 0.0023844747
0.27113348 -0.10308237 -0.11962822 -0.96465307 -0.26347074 0.0052614342 0.0028957769
0.31310558 -0.10927602 -0.11717466 -0.9815647 -0.19009086 -0.019904478 0.0010446188
-0.31176853 -0.099120453 -0.11191992 0.97240067 -0.2332004 -0.0073853815 0.0021882735
-0.30999807 -0.09168721 -0.11942413 0.95487982 -0.29689428 -0.007636901 0.0021636412
-0.26779193 -0.09501522 -0.11550346 0.93909144 -0.34366018 0.0022188846 0.00083290396
0.26766562 -0.094710216 -0.11920233 -0.92638624 -0.3765721 0.0013901268 2.9361059e-05
0.30988893 -0.091423742 -0.11973827 -0.9646517 -0.26334825 -0.00974066 0.0021139779
-0.30620006 -0.082518071 -0.11488007 0.94300443 -0.3327803 -0.0001032709 0.0016375748
-0.26364136 -0.084994778 -0.11417639 0.92442673 -0.38135955 0.00030282949 1.5711716e-05
0.26262778 -0.082547836 -0.11583625 -0.92553788 -0.37865043 0.0018789899 5.0239101e-05
0.30550998 -0.080852047 -0.11583734 -0.93866402 -0.34480703 -0.004244877 0.0011097748
-0.30266035 -0.073972419 -0.11748978 0.92787039 -0.37288719 -0.0034197567 0.00018885684
-0.25900981 -0.073813215 -0.11550097 0.92386883 -0.38270926 1.1716232e-05 3.0751769e-05
0.30218562 -0.072826326 -0.11679118 -0.92517889 -0.379527 0.001786263 7.116609e-05
-0.29971051 -0.066850893 -0.11528496 0.92388064 -0.38268086 1.5250226e-05 4.773126e-06
-0.25476867 -0.063574202 -0.1143158 0.92388219 -0.38267723 -2.505581e-05 0
-0.29427204 -0.053721178 -0.11262459 0.92387778 -0.38268763 1.2180397e-05 0
-0.25213686 -0.057220459 -0.11363327 0.92148966 -0.38840038 0.0013749414 9.4714023e-06
0.25138244 -0.055399135 -0.11559244 -0.91490555 -0.40366626 0.001177903 0.00056212605
0.29344279 -0.051719233 -0.1158376 -0.92388088 -0.38268018 9.0487492e-06 0
-0.2909779 -0.045768514 -0.11704874 0.92387813 -0.38268682 3.4411201e-05 3.8557328e-06
-0.24626777 -0.04305122 -0.11763326 0.89019144 -0.45557934 -0.0025898169 0.0021980358
0.24764834 -0.046384245 -0.11715814 -0.90080959 -0.4342106 0.0017560432 0.0014417816
-0.24264686 -0.035595566 -0.11586653 0.8556152 -0.51710647 0.022882961 0.0021355571
0.23847209 -0.030154895 -0.11955585 -0.83006155 -0.55745757 -0.015455836 0.0017658025
0.24376003 -0.037555326 -0.11617664 -0.85981989 -0.51016003 -0.021131882 0.0015400245
0.28687745 -0.0358692 -0.11477569 -0.92300785 -0.38478047 -0.00075869361 0
-0.28153437 -0.022969756 -0.1165554 0.89359194 -0.44887984 -0.00060448289 0.0020951421
-0.23335372 -0.023484498 -0.11489388 0.80981797 -0.58667731 -0.0021303897 0.00060679606
0.23683766 -0.028024849 -0.11495213 -0.81834298 -0.57469821 -0.0060717962 0.00098335918
0.28258234 -0.025499878 -0.1138777 -0.89771551 -0.4405753 -0.00043239672 0.0019451798
-0.2800141 -0.019299576 -0.11795533 0.8725794 -0.48846957 0.0016359631 0.0035250112
-0.275805 -0.012662445 -0.11454726 0.8262682 -0.56327415 -0.001761067 0.0014709466
-0.22746369 -0.015808471 -0.1140844 0.79335111 -0.60876429 7.0872386e-07 1.849669e-06
0.22398221 -0.01127131 -0.11762576 -0.79333633 -0.60878366 -3.5793524e-05 2.2693433e-05
0.2789982 -0.016846931 -0.11898486 -0.86955947 -0.49367225 -0.012413071 0.0024515023
-0.27017522 -0.0053255903 -0.11785907 0.81093585 -0.58510208 -0.0062094857 0.00052296667
-0.22277534 -0.0096984953 -0.11231714 0.79334527 -0.60877204 8.9825871e-06 8.6995933e-06
-0.21577735 -0.00057853665 -0.11483144 0.79131132 -0.61141348 -9.9905854e-05 8.4304302e-06
0.21872109 -0.0044148844 -0.11374621 -0.7933538 -0.60876083 -6.5893182e-06 0
0.22054324 -0.0067895595 -0.11676846 -0.79335409 -0.60876054 -1.8124233e-07 0
0.2724821 -0.0083319442 -0.11064274 -0.81112295 -0.58487535 -0.00058735337 0.00075727794
-0.2623513 0.0048707421 -0.11729946 0.79547781 -0.60598272 -0.00032914156 1.0945861e-05
-0.20940328 0.0077283275 -0.11903162 0.78230518 -0.62288952 0.0026872861 0.00022280344
0.21271738 0.0034092902 -0.11503024 -0.78737533 -0.61647326 0.0009580825 7.5757365e-05
0.26424888 0.0023977675 -0.11596864 -0.79501498 -0.6065892 0.00074922742 2.5471663e-05
-0.25801468 0.010522363 -0.11441857 0.79334533 -0.60877192 -1.6381751e-05 8.5709216e-06
-0.20604414 0.012106056 -0.11539077 0.75481629 -0.6559335 -0.001898134 0.0015625051
0.20267609 0.016495371 -0.116821 -0.73893619 -0.67349219 0.019533604 0.0022601166
0.25445065 0.015167081 -0.1179834 -0.7933526 -0.60876232 2.864039e-05 0
-0.25067684 0.020085212 -0.11535823 0.79335129 -0.60876411 5.2480996e-06 0
-0.24925837 0.021933809 -0.11035093 0.79335052 -0.60876507 -1.2014845e-05 0
-0.19735575 0.022508418 -0.11574388 0.68943048 -0.72419792 -0.014934473 0.0021932235
0.19562009 0.023844551 -0.11499049 -0.69021749 -0.72357118 0.0066681593 0.0024014607
0.24533916 0.027041407 -0.11392335 -0.79334003 -0.60877877 -2.4554898e-05 2.1471596e-05
-0.18421093 0.032599118 -0.11590424 0.62819302 -0.77805656 -0.0012427126 0.00060443877
-0.17774412 0.037561268 -0.11749595 0.60892308 -0.79322922 -1.4629913e-05 3.8099204e-06
0.17853884 0.036951464 -0.11738582 -0.60885668 -0.79328018 4.1995059e-05 6.9711059e-06
0.18148482 0.034690935 -0.11584556 -0.61425936 -0.78910339 0.0011381832 0.00015913515
0.23836279 0.036133185 -0.11368264 -0.773857 -0.63336033 0.00028986303 0.00080961239
-0.2332132 0.042844269 -0.11227491 0.74830723 -0.66327018 -0.010441999 0.0020263169
-0.17383614 0.040559966 -0.11727246 0.60897684 -0.79318804 -1.3593506e-05 4.1493963e-06
-0.16579506 0.046730101 -0.1114317 0.60876274 -0.79335231 -2.5020565e-06 3.4188058e-06
0.16946201 0.04391636 -0.11286129 -0.60876316 -0.79335201 -4.6726873e-06 0
0.1700038 0.043500625 -0.11951678 -0.60877615 -0.79334199 8.9432497e-06 0
0.22874293 0.048670027 -0.1149928 -0.71270901 -0.70145124 0.0034642001 0.0022459431
0.23380476 0.04207335 -0.11172001 -0.7513541 -0.65988833 0.0037972201 0.0013254764
-0.22295612 0.053624235 -0.11528965 0.68718195 -0.72646797 -0.0050350903 0.0023010636
-0.15528855 0.054792047 -0.11745933 0.58865899 -0.8083601 -0.0058782734 0.00053813955
0.15909924 0.051867992 -0.11687753 -0.60551256 -0.79583544 0.00068465393 4.7814483e-05
0.16104016 0.050378677 -0.11229093 -0.60558397 -0.79578125 0.00042516005 3.42147e-05
0.21857804 0.056983635 -0.11133554 -0.66318333 -0.74839401 0.0097101899 0.0019185196
0.22244668 0.05401513 -0.111922 -0.69524872 -0.71876609 -0.0021058973 0.0021888975
-0.14586392 0.062023811 -0.11592408 0.54527164 -0.83786362 -0.025758158 0.0020102933
0.13859391 0.066837229 -0.11794742 -0.50741911 -0.86166209 -0.0080157518 0.0024199309
0.14721678 0.060985714 -0.1190713 -0.5573678 -0.83017945 -0.011965909 0.001962902
0.20647299 0.066272169 -0.11563448 -0.61053109 -0.79199231 -0.00010755766 1.1488662e-05
-0.19102702 0.0781243 -0.11007649 0.60877258 -0.7933448 1.1986443e-05 2.9986513e-06
-0.13077866 0.070074409 -0.1163623 0.45834246 -0.88876545 -0.0042514126 0.0021026051
-0.1192733 0.074840084 -0.11427507 0.39570582 -0.91837656 -0.0011450069 0.00025661255
0.1091248 0.079043724 -0.1120296 -0.38268873 -0.92387736 1.3009186e-06 0
0.11871906 0.075069651 -0.11560221 -0.38268504 -0.92387885 4.7787807e-06 0
0.12672797 0.071752258 -0.11583403 -0.41306922 -0.91069371 0.0032822764 0.00058406475
0.19558534 0.074626565 -0.11145996 -0.60881209 -0.79331452 -1.331435e-05 0
-0.10267377 0.08171583 -0.11162209 0.38268945 -0.92387712 -9.5838896e-06 5.2025839e-06
-0.096492976 0.084276006 -0.11559923 0.3826884 -0.92387748 2.8559141e-06 2.4399305e-06
-0.088224672 0.087700844 -0.11905646 0.35924286 -0.93323809 0.0033555119 0.00054989825
0.087442219 0.088024944 -0.1193565 -0.36375648 -0.93149209 0.0019523581 0.00030913748
0.10459267 0.080921002 -0.11548284 -0.38268569 -0.92387861 1.2638286e-05 0
0.18581367 0.082124636 -0.11537219 -0.60877115 -0.79334581 -1.7180365e-06 0
-0.17538853 0.090124123 -0.11640218 0.58545047 -0.81062651 -0.011507579 0.0004904627
-0.16973442 0.094462678 -0.11126874 0.56632119 -0.82416832 -0.005171217 0.0011916311
-0.081391081 0.090531409 -0.11398751 0.31818277 -0.94800436 -0.0068966709 0.0016407009
-0.074554227 0.093363315 -0.1171345 0.2813102 -0.95957476 -0.0089887539 0.0023860403
-0.064474329 0.09516824 -0.11414506 0.19948649 -0.97987098 -0.0076103797 0.0017478717
-0.054423783 0.096491419 -0.11334945 0.15091936 -0.98854226 -0.0027454891 0.00039189169
-0.042347942 0.098081231 -0.11586746 0.13053179 -0.99144411 3.4816981e-06 0
-0.039753411 0.09842281 -0.11073616 0.13052663 -0.99144483 5.3429007e-06 2.1773251e-06
-0.028071653 0.099960744 -0.1152496 0.13052578 -0.99144495 8.1654371e-06 0
0.055549584 0.096343204 -0.11671297 -0.14881212 -0.98886019 -0.003223358 0.00034964204
0.079793215 0.091193266 -0.11580808 -0.31749201 -0.94823885 0.0064658779 0.0016524809
0.17465334 0.090688244 -0.11234252 -0.5893656 -0.80785847 -0.0035988316 0.000401539
-0.15648758 0.10301001 -0.11745676 0.47002417 -0.88265342 -0.0004223687 0.0021603189
-0.021318411 0.10084983 -0.11746054 0.11636449 -0.99320197 0.0030148963 0.00019365297
-0.0038454647 0.10315019 -0.11190724 0.047228549 -0.99883544 0.0098540746 0.001244068
0.010477286 0.1022771 -0.11196676 -0.094389059 -0.99552906 -0.0035611147 0.00077054318
0.15481171 0.10370418 -0.11489147 -0.47106066 -0.88208562 -0.0051729376 0.0021598341
-0.13323015 0.11264358 -0.11622003 0.3826752 -0.92388296 2.8617292e-06 9.0939729e-06
-0.12986749 0.11403643 -0.11266495 0.38268232 -0.92388004 1.3375927e-06 1.904613e-06
-0.11825955 0.11884461 -0.11947277 0.38269082 -0.92387646 5.2490877e-06 0
0.12405919 0.11644232 -0.11879919 -0.38267753 -0.92388195 -8.0692744e-06 7.7853711e-06
0.13389662 0.1123675 -0.11794014 -0.38266733 -0.92388618 -9.8484434e-06 4.4054887e-06
-0.093516216 0.12909362 -0.11491261 0.34658182 -0.93800414 0.0054147854 0.00082296366
0.097287312 0.12753159 -0.11639263 -0.36193222 -0.93219638 -0.0038736225 0.00048903393
0.10877545 0.12277304 -0.11221153 -0.38250577 -0.92395312 -0.00010098778 8.2735062e-07
0.11235143 0.12129182 -0.1156517 -0.38251859 -0.92394775 -8.434787e-05 0
-0.090319999 0.13041754 -0.11400938 0.2977168 -0.9546479 0.0034770193 0.001970967
-0.071929514 0.13480113 -0.11931507 0.18586865 -0.98256528 0.004287919 0.0014817151
-0.061376229 0.1361905 -0.11572395 0.14668407 -0.98918313 -0.00067146058 0.00033694223
-0.052836586 0.13731477 -0.11490176 0.13052353 -0.99144518 -2.0925305e-05 2.4255578e-06
-0.048966043 0.13782433 -0.11867239 0.13052252 -0.9914453 -1.6246136e-06 3.9732677e-06
0.039089113 0.13912465 -0.11636299 -0.13052963 -0.99144441 2.4945532e-05 3.6588754e-06
0.044014264 0.13847625 -0.11464577 -0.13052778 -0.99144465 -2.5894046e-06 0
0.089600012 0.13071577 -0.11455318 -0.31162652 -0.9501906 -0.0051606698 0.0023234414
-0.025766741 0.14087859 -0.11101179 0.1287902 -0.99167186 0.00033566964 7.2363464e-06
0.0012387682 0.14410776 -0.11681722 -0.015558342 -0.99982518 -0.010372741 0.0027270948
0.030300802 0.14028166 -0.11326347 -0.13052924 -0.99144447 3.9218489e-06 0
-0.024664229 0.36949787 -0.11679842 -0.31193316 -0.88006264 0.35803291 0.027210142
-0.014316904 0.36503458 -0.11670623 -0.15414223 -0.90357214 0.39974681 0.046017244
-0.0044405377 0.36514884 -0.11475512 -0.10249935 -0.89433002 0.43550849 0.090950824
0.0048401169 0.36460581 -0.11450895 -0.019425502 -0.90233988 0.43058738 0.095712744
0.013730277 0.36642256 -0.11417725 0.14753434 -0.90348268 0.40243345 0.079178169
-0.030686609 0.37371755 -0.11527364 -0.50887787 -0.79548174 0.32901686 0.012850705
-0.027802119 0.3720617 -0.11397681 -0.41683471 -0.83629185 0.35618082 0.027275855
-2.2080159e-17 0.37143934 -0.11531475 -0.069994681 -0.90337378 0.42310357 0.14456378
0.036857169 0.37743792 -0.11855869 0.65523821 -0.70048636 0.28281033 0.01095757
-0.040458065 0.38162407 -0.11625081 -0.7348271 -0.6205197 0.27383307 0.0066470788
-0.048621226 0.39342085 -0.11660136 -0.85034531 -0.49317628 0.18354861 0.014021805
-2.6839195e-17 0.39157832 -0.11232768 -0.9944073 -0.089713708 0.0557275 0.047463719
0.050703488 0.39918301 -0.11339458 0.88932055 -0.41906822 0.18300487 0.008906058
-0.053639729 0.40807956 -0.11028154 -0.95258719 -0.29081798 0.089457326 0.0072034495
-3.4495675e-17 0.40476584 -0.11613796 -1 -3.061163e-16 4.9219146e-17 0
0.054228753 0.40757537 -0.11518292 0.94300884 -0.29907289 0.14590998 0.0094374036
-0.055302314 0.41479152 -0.11340548 0.99457979 0.096902847 -0.037694167 0.0098173246
-3.5764219e-17 0.4163115 -0.11530342 -1 -2.5385659e-16 7.3307128e-17 0
0.054965407 0.41259515 -0.1120781 0.97698361 -0.19498749 0.08650364 0.0083616711
-0.056080017 0.42729107 -0.11760334 0.99540859 -0.08707457 0.039747957 0.0054437984
-3.5764216e-17 0.42130771 -0.111849 -1 -1.4401185e-16 1.1483153e-17 0
-0.05473122 0.43837285 -0.11739237 0.97436297 -0.19812517 0.10659789 0.0072695031
0.05602086 0.43008837 -0.11201419 -0.99602866 -0.075099215 0.047822885 0.0049611842
-0.053271651 0.44391975 -0.11406879 0.95029789 -0.27616143 0.14376611 0.0088194106
-0.048568103 0.45650935 -0.11163976 0.84463412 -0.51158154 0.15772662 0.013212264
0.049518663 0.45169306 -0.11910006 -0.86750877 -0.46109486 0.18660107 0.0081293732
0.045819551 0.46043691 -0.11201236 -0.81243026 -0.55390173 0.18207119 0.0092966408
-0.031127267 0.474911 -0.1143602 0.55377936 -0.79605985 0.24416614 0.0067297914
-0.027982451 0.47583663 -0.11810306 0.5112403 -0.81048566 0.28591314 0.0073746867
0.027688995 0.47742066 -0.11426573 -0.51696402 -0.8053081 0.29021901 0.0092402063
0.038410775 0.47025889 -0.11111213 -0.6866501 -0.69530177 0.21229045 0.0064894389
-0.015864374 0.48263299 -0.11429899 0.25956848 -0.91956949 0.29498494 0.0067843618
-0.0075170728 0.48475975 -0.11330856 0.17975789 -0.93509167 0.30543521 0.006911559
0.0037699789 0.48375607 -0.1170097 -0.08911591 -0.94814843 0.30507848 0.0047209635
0.014729946 0.48335797 -0.11416673 -0.29763085 -0.91915357 0.25801662 0.0075662513
0.024521543 0.48025393 -0.11115275 -0.45653266 -0.8490265 0.26595449 0.009410928
-0.075856164 -0.49001336 -0.101192 0.2226882 0.97458255 -0.024469612 0.0021681765
-0.068865567 -0.49093372 -0.10407748 0.17538728 0.98443335 -0.011414781 0.0011446194
-0.053519342 -0.49295405 -0.10657682 0.130539 0.99144322 -2.2005524e-05 0
-0.03723532 -0.49509788 -0.10346688 0.13051033 0.99144691 3.4293291e-06 2.3214028e-05
-0.026228765 -0.49654689 -0.10447464 0.13053098 0.99144423 5.4333887e-06 0
-0.0015513026 -0.49979576 -0.10344829 0.0086337887 0.99996263 0.00038496242 0.002363157
0.0049573965 -0.49934736 -0.10297902 -0.035270382 0.99934405 -0.0082166279 0.0017348351
0.013873014 -0.49817359 -0.10429265 -0.10437039 0.99453843 0.00044047783 0.00064512389
0.024722613 -0.49674523 -0.10515554 -0.12858313 0.99169874 0.00013555051 0.00011208953
0.038815372 -0.49488986 -0.10533015 -0.13055898 0.99144053 9.0623616e-06 0.00012498538
0.048219346 -0.49365178 -0.10680142 -0.13052453 0.99144512 3.6996589e-05 3.5444078e-05
0.059016585 -0.49223033 -0.10595939 -0.13055679 0.99144083 3.0542877e-05 0
0.063309573 -0.49166515 -0.10659684 -0.13202702 0.99124604 0.00047030774 6.4846918e-06
0.073375076 -0.49033999 -0.10251819 -0.19870682 0.98005682 0.0020438854 0.0014784925
-0.097549625 -0.48315209 -0.10908416 0.34178704 0.93977255 0.0030268743 0.00072946656
0.098857261 -0.48261046 -0.10478843 -0.34866253 0.93723422 -0.0051434864 0.00083958183
0.10451809 -0.48026562 -0.1043551 -0.38271245 0.92386752 -4.3542881e-05 0
-0.11945292 -0.47407946 -0.10560879 0.38271657 0.92386585 -7.3007923e-06 0
0.10932884 -0.478273 -0.10244046 -0.38275021 0.92385185 -1.1820517e-05 0.00011994606
0.12234388 -0.47288197 -0.10160521 -0.38271326 0.92386717 -4.5886145e-07 0
-0.14531067 -0.46336877 -0.10424223 0.39318773 0.91945684 0.001598504 0.00030329914
-0.13712461 -0.46675962 -0.1056675 0.38618004 0.92242306 -0.00082588877 0
0.13364713 -0.46820003 -0.10676602 -0.3826856 0.92387861 2.2091244e-05 1.4982457e-05
0.14768738 -0.46238437 -0.10484712 -0.41119516 0.91149533 -0.0097324559 0.00070250517
0.15097974 -0.46102062 -0.10096253 -0.4392271 0.89836329 -0.0047883675 0.0014943063
-0.16274892 -0.45555198 -0.10396092 0.49457768 0.86913055 -0.0022153805 0.0022858623
-0.15754715 -0.45830029 -0.10537429 0.46199527 0.88687456 0.00374071 0.0020431371
-0.057595409 -0.45180303 -0.10419267 0.15717916 0.98754388 0.0071992478 0.0008119453
-0.032950446 -0.45504761 -0.10178822 0.13053264 0.99144399 -3.9588125e-05 4.7944581e-05
-0.028276896 -0.45566288 -0.10949997 0.13052383 0.99144518 1.2631622e-05 0
-0.015830442 -0.45730147 -0.10494914 0.086517222 0.99614161 0.014716355 0.00040649099
0.0033231019 -0.45894811 -0.10387136 -0.039782312 0.99917614 -0.0080269882 0.0015905967
0.01103637 -0.45793262 -0.10716535 -0.046212137 0.99886781 -0.011292023 0.0017103571
0.022031555 -0.45648509 -0.10189535 -0.13053434 0.99144375 1.2652893e-05 6.0074712e-05
0.052762151 -0.45243931 -0.1043646 -0.13866013 0.99033892 0.0014732711 5.3728261e-05
0.061866559 -0.45124072 -0.10332882 -0.18622272 0.98234981 0.017608386 0.00059282873
0.16554497 -0.45340648 -0.10754273 -0.53428727 0.84530288 0.00042948042 0.0021967632
-0.085119292 -0.4447163 -0.10800005 0.34300801 0.93932116 -0.0046105837 0.0012543621
-0.073366269 -0.44958454 -0.10351736 0.2646035 0.96434951 -0.0038750675 0.002417041
0.07560046 -0.44858319 -0.10279579 -0.25450683 0.96698803 0.012668065 0.0020011573
0.091206998 -0.44219467 -0.10706447 -0.38241258 0.92399168 -2.7404176e-05 8.4130334e-05
0.17793924 -0.44389603 -0.10470338 -0.59849852 0.80112368 0.00059904688 0.00024149212
0.18156916 -0.4411107 -0.10444012 -0.60883158 0.7932995 -1.8013139e-05 9.8345285e-05
-0.11349653 -0.43296209 -0.10953948 0.38274738 0.92385304 9.9136157e-09 1.0302446e-05
-0.10574999 -0.43617079 -0.10331833 0.38268483 0.92387891 -1.0878935e-05 0
0.10599826 -0.43606794 -0.10651963 -0.38267031 0.92388499 -2.2743561e-06 0
0.11753622 -0.43128878 -0.1045299 -0.38940829 0.92106521 0.00021955131 0.00019324286
0.18745001 -0.43659815 -0.10644763 -0.60877973 0.79333931 -3.9138959e-05 0
0.19454879 -0.43115109 -0.10642351 -0.60878104 0.7933383 -2.117769e-05 9.6580901e-05
-0.20510626 -0.42305008 -0.10564085 0.60892981 0.79322416 -0.00010114967 0
-0.12559462 -0.42795086 -0.10187086 0.40573701 0.91398686 0.0023635945 0.00059968681
0.12453363 -0.42839035 -0.10527867 -0.40581375 0.91392875 0.0070266076 0.00064114993
0.1302031 -0.42604196 -0.10855165 -0.44860634 0.89372063 -0.0039796964 0.0017627486
0.1419293 -0.42077208 -0.10327651 -0.49573383 0.86838096 -0.012750316 0.0020491937
0.20460072 -0.42343798 -0.10472624 -0.60875452 0.79335856 -7.2927607e-05 2.8206554e-05
-0.20948398 -0.41969091 -0.10109794 0.60905343 0.79312915 -1.6132417e-05 0
-0.14565006 -0.41791707 -0.10596557 0.55228293 0.83359569 -0.010096206 0.0016671899
0.14442185 -0.41885951 -0.10309506 -0.52082276 0.85365325 0.0044384729 0.0024302425
0.1551 -0.41066587 -0.10300674 -0.58624274 0.81012857 -0.0033416629 0.00089931156
0.21501122 -0.41544968 -0.10666794 -0.6323505 0.7745471 0.01447649 0.00076866808
-0.22281376 -0.4094626 -0.10762063 0.67046022 0.74194485 0.0009023879 0.0020404062
-0.16463871 -0.40334657 -0.10430133 0.60884851 0.79328656 8.401782e-06 0
-0.15834281 -0.40817755 -0.10131101 0.60767436 0.7941857 0.00089809613 1.0919684e-05
0.16590646 -0.40237376 -0.10950121 -0.6088264 0.79330355 -3.8167658e-05 6.4899046e-05
-0.23574546 -0.39527333 -0.10835724 0.76407576 0.64512193 -0.002418715 0.00093979022
0.1799434 -0.39160284 -0.10895482 -0.60881358 0.79331344 1.6095224e-06 5.5939672e-05
0.2367259 -0.39399558 -0.10336992 -0.7716701 0.63600403 0.0049055973 0.00094405003
-0.24390906 -0.38463429 -0.10571608 0.788957 0.61444813 -0.00063461415 0.00013332748
-0.18766204 -0.38568014 -0.1050699 0.64872962 0.76101518 -0.0024173411 0.0011748793
0.18742564 -0.38586152 -0.10398194 -0.63776797 0.77022183 0.0032391725 0.00069884589
0.24160084 -0.38764244 -0.10392271 -0.79321241 0.60894507 -4.8582227e-05 0
-0.25131953 -0.37497678 -0.10126889 0.79338789 0.60871637 -1.0966203e-05 2.1763972e-05
-0.20258065 -0.37234887 -0.10616858 0.72506082 0.68864638 0.0072841314 0.0013388674
0.19849175 -0.37737018 -0.10013368 -0.67750835 0.73551303 0.0017312926 0.0011830399
0.24747983 -0.3799808 -0.10887036 -0.79316133 0.60901165 -5.5543645e-05 0
0.25089121 -0.37553495 -0.10243504 -0.79333627 0.60878372 -2.6398007e-05 4.6379912e-05
-0.20805144 -0.36521921 -0.10568836 0.77030224 0.63764346 0.006731838 0.00114945
0.20541963 -0.36864907 -0.10687902 -0.74585086 0.66597474 0.013572352 0.0024420554
0.25728768 -0.36719894 -0.10789409 -0.79336578 0.60874522 -3.6560635e-07 7.4670563e-05
-0.21599047 -0.35487288 -0.10424547 0.79333174 0.60878962 3.5389112e-07 0
0.26610377 -0.35570958 -0.1060352 -0.80191857 0.59742385 0.0033841345 0.00019882004
0.27010474 -0.3504954 -0.10525984 -0.80744797 0.58992672 -0.0037786399 0.00039536215
-0.22180037 -0.34730124 -0.1071008 0.79334712 0.60876948 -1.9409941e-05 1.1716299e-05
0.22329247 -0.3453567 -0.10613675 -0.79333049 0.60879111 -2.6649425e-06 2.8693643e-05
0.27705276 -0.34144059 -0.10682347 -0.85569096 0.51739818 0.0096034147 0.0025101844
-0.28168416 -0.33239779 -0.10095007 0.89450216 0.44694844 -0.010148239 0.0019064683
-0.27979457 -0.3369596 -0.104759 0.88234401 0.47058502 -0.0043464182 0.0022397863
-0.23262323 -0.33319664 -0.10359953 0.81024969 0.58608133 0.0020226203 0.00040481353
-0.22999653 -0.33661979 -0.10407177 0.80143142 0.59808588 0.00096697884 0.00026461878
0.23319921 -0.33244604 -0.1034084 -0.81111127 0.58488381 -0.003037269 0.00048743241
0.27937913 -0.33784851 -0.10421613 -0.88175076 0.47157148 0.011657523 0.0028058004
0.28075314 -0.33464539 -0.10469932 -0.8857913 0.46405649 0.0050391834 0.0025619359
-0.28283277 -0.32962474 -0.10454731 0.91003007 0.41449368 -0.0063415705 0.00069737359
-0.23845015 -0.32560283 -0.10764714 0.83984864 0.54281831 -0.0015906234 0.0014814785
0.238354 -0.32572815 -0.10082969 -0.83646679 0.54799974 -0.0044186581 0.0016597839
-0.290463 -0.31120378 -0.1024175 0.92386842 0.38271022 5.5624764e-07 4.2164436e-05
-0.28714925 -0.31920379 -0.10992946 0.92362422 0.38329878 -0.00055463909 7.8270619e-05
-0.24660431 -0.31186548 -0.10484619 0.87718952 0.48002967 -0.010489463 0.0015887273
0.2455456 -0.31442139 -0.106245 -0.8786245 0.47743759 -0.0085002156 0.0019855034
0.28803235 -0.3170718 -0.10841902 -0.92229629 0.38648349 0.00025103876 2.634068e-05
0.29042 -0.31130749 -0.10116147 -0.92380255 0.38286909 4.9627521e-05 4.2733278e-05
-0.25106135 -0.30110517 -0.10592192 0.91866708 0.39503258 0.00020320834 0.00042751117
-0.24959365 -0.30464855 -0.10663104 0.9170717 0.39872217 0.00024520958 0.00045151182
0.24971583 -0.30435359 -0.10231654 -0.91124541 0.41182718 0.0054926411 0.00066544028
0.29495656 -0.30035535 -0.10225819 -0.92387623 0.38269138 -1.4452384e-05 0
-0.29806337 -0.29285485 -0.10714465 0.92385262 0.38274851 4.0240073e-05 1.0825894e-05
0.25407296 -0.29383457 -0.10686275 -0.92389047 0.38265696 2.3812863e-06 8.0557044e-07
-0.30081084 -0.28622177 -0.10399849 0.92386162 0.38272664 4.1009909e-05 1.9555964e-05
0.25726199 -0.28613558 -0.10091162 -0.92387134 0.38270324 -4.5197235e-06 9.5745345e-06
0.30136269 -0.28488949 -0.10195478 -0.92492229 0.38015619 -0.00026662028 3.7891537e-06
-0.26076135 -0.27768731 -0.1067811 0.92390734 0.38261631 8.4133171e-06 0
0.26127392 -0.27644983 -0.10619614 -0.92388988 0.38265854 3.3541859e-05 3.1232554e-05
0.30588907 -0.27396193 -0.10698441 -0.94247991 0.33418009 0.0074309693 0.0016705219
-0.30839062 -0.26792258 -0.10543656 0.94944477 0.31362873 -0.013840636 0.0015240475
-0.26630172 -0.26431164 -0.10452599 0.93052959 0.36620682 0.0026862139 0.0002941385
-0.31203601 -0.25457704 -0.10626303 0.98092973 0.19407286 -0.010611692 0.0016188311
-0.26986414 -0.25571126 -0.1004446 0.95384938 0.29900798 0.027671302 0.0019569311
0.26890126 -0.25803584 -0.10011659 -0.9518885 0.30640447 -0.004961567 0.0015858423
0.27108717 -0.25275859 -0.10476795 -0.96345699 0.26780483 -0.0055848723 0.0026169741
0.31147823 -0.2588141 -0.10461128 -0.97274512 0.2318121 0.0054830038 0.0024049506
-0.31312466 -0.24630807 -0.1056214 0.98758358 0.15702684 -0.0046152286 0.00051713816
0.27297035 -0.24281348 -0.10112683 -0.982355 0.18658063 -0.012893817 0.0012652937
0.31328657 -0.2450783 -0.10840462 -0.98649156 0.16379863 0.0021082379 0.0010156624
-0.31483635 -0.23330669 -0.10775423 0.9914462 0.13051572 5.5905161e-06 4.1337316e-06
0.27395642 -0.23532331 -0.10569346 -0.98683554 0.16172189 0.0012496884 0.00058627099
0.31472492 -0.23415267 -0.1003969 -0.99144065 0.13055815 -8.1788867e-06 4.8369035e-05
-0.27480108 -0.22890756 -0.10279576 0.98978901 0.14253403 0.001280483 0.00011480395
0.27559549 -0.22287336 -0.10765086 -0.99144059 0.1305587 6.7552269e-06 0
0.31592217 -0.22505872 -0.10276018 -0.99143922 0.13056862 -1.1246603e-05 0
-0.27618614 -0.21838716 -0.10399783 0.99144745 0.13050613 -1.1506102e-05 3.3065549e-05
0.27656361 -0.21551983 -0.10388383 -0.99144971 0.13048913 3.7602676e-05 0
0.31778407 -0.21091643 -0.1042048 -0.99144858 0.13049789 -3.8884266e-07 3.6894206e-05
-0.31840697 -0.20618494 -0.10362284 0.99144375 0.13053401 1.3631407e-05 5.3725222e-07
-0.27857289 -0.20025787 -0.10230697 0.99194449 0.12667002 -0.00089120789 9.34786e-05
0.31871104 -0.20387536 -0.10021377 -0.99144733 0.13050757 -1.7425189e-05 0
-0.32001817 -0.19394666 -0.10722335 0.99527663 0.097007997 -0.0037083931 0.0010471249
-0.31960008 -0.19712248 -0.10499315 0.99421269 0.10718474 -0.0072490401 0.00074790436
-0.2795164 -0.19309095 -0.1032555 0.99493957 0.10031257 0.0057280972 0.00073961157
-0.32089728 -0.18726918 -0.10421029 0.99822688 0.058628578 -0.010281785 0.0016309025
-0.28043464 -0.18611641 -0.10692609 0.99964762 0.026534777 0.0007345535 0.0015603099
0.28012654 -0.18845674 -0.10577974 -0.99728227 0.073671699 0.00075875927 0.0012168697
0.32105631 -0.18606111 -0.10436564 -0.99808431 0.061725356 -0.0041966978 0.0016787547
-0.32192844 -0.17943689 -0.10019884 0.99976236 0.01950236 -0.0097419946 0.0023512323
-0.28140599 -0.17812385 -0.10469072 0.99995232 0.0060024927 -0.0077063763 0.0019849334
0.28140217 -0.17871773 -0.1041604 -0.99961716 0.026356012 -0.0084179062 0.0018826696
0.32172865 -0.174775 -0.10859969 -0.9990049 -0.044594266 0.00071302534 0.001939992
-0.32075471 -0.16737682 -0.10421063 0.99919355 -0.039943755 0.0041044862 0.0020147546
-0.27952325 -0.16269013 -0.10177951 0.99638915 -0.084792554 -0.0043433071 0.00073876639
0.28034258 -0.16891354 -0.10218666 -0.99783766 -0.065400168 0.0065406496 0.0014818488
-0.31888002 -0.1531373 -0.1048468 0.99201196 -0.12614299 -0.00026346496 0
-0.27800196 -0.15113471 -0.10583121 0.99152666 -0.12990336 2.7105185e-05 0
0.31944919 -0.15746064 -0.10619126 -0.99400294 -0.10933956 -0.001710302 0.00046162316
0.2767553 -0.14166537 -0.1064294 -0.99144262 -0.13054314 -1.1583809e-05 1.0794493e-05
0.31795686 -0.14612532 -0.10660476 -0.9914459 -0.13051818 9.3315393e-08 3.5425877e-05
-0.31605035 -0.13164379 -0.10571161 0.9914434 -0.13053742 -1.4675259e-05 0
-0.31501669 -0.12379225 -0.10453986 0.99144518 -0.13052388 5.3955132e-06 0
-0.27459326 -0.12524292 -0.10491565 0.9914121 -0.13077457 -1.2821096e-05 4.773181e-05
0.27416831 -0.12201498 -0.10363173 -0.98738164 -0.15804173 0.010020755 0.00056441315
0.31493291 -0.12315594 -0.10882059 -0.99144679 -0.13051118 -1.6823594e-06 3.9732463e-06
-0.31375089 -0.11417765 -0.10243399 0.98861831 -0.15044473 -0.00032659285 0.00043047342
-0.2733351 -0.11568631 -0.10957166 0.98330426 -0.1818677 0.0060761385 0.00093429664
0.31374645 -0.11414409 -0.10721797 -0.98598135 -0.16535227 -0.022350583 0.00051066605
-0.31236154 -0.10362451 -0.10566101 0.97958469 -0.20103201 2.8851413e-05 0.0018304532
0.271137 -0.1030909 -0.10140613 -0.96520275 -0.26147777 0.0036001448 0.0024866965
0.31191945 -0.10026653 -0.10395017 -0.97827804 -0.20715134 -0.0077661802 0.0016013328
-0.31158522 -0.097727776 -0.10528948 0.97238761 -0.23331191 0.0052718441 0.0021745698
0.26838496 -0.096446879 -0.10717443 -0.94764757 -0.31922603 -0.0076682535 0.0020797262
0.30936044 -0.090147942 -0.10252394 -0.95456648 -0.29798773 0.002479454 0.0022376894
-0.26406658 -0.086021364 -0.10612489 0.92533034 -0.37915978 -0.0012607409 5.8186115e-06
0.30746824 -0.085579745 -0.10383175 -0.94902629 -0.31519687 -6.725682e-05 0.0019760034
-0.30496261 -0.079530507 -0.10955196 0.93157363 -0.36352548 -0.0044474052 0.0004440716
0.25816089 -0.071763732 -0.10360049 -0.92387474 -0.3826949 -4.5915313e-06 2.2114233e-05
0.30455703 -0.078551382 -0.10390311 -0.92818874 -0.3721098 7.7884622e-05 0.00026613451
-0.29976252 -0.066976413 -0.10998596 0.92387921 -0.38268429 -3.4224928e-07 3.0135e-06
0.29909363 -0.065361723 -0.1051561 -0.92388111 -0.38267952 3.4275283e-06 2.765802e-06
-0.29446942 -0.054197773 -0.10135286 0.9238683 -0.3827107 -8.8484439e-06 4.4998047e-05
0.25113919 -0.054811951 -0.10525808 -0.92308873 -0.38458678 0.00046603126 2.0441885e-05
0.29516071 -0.055866674 -0.10553071 -0.92387301 -0.38269928 -1.9757323e-05 1.3312592e-05
-0.29133353 -0.046627074 -0.10285302 0.9238556 -0.38274094 -9.122894e-06 6.3067877e-05
-0.24720806 -0.045321308 -0.10409902 0.8934328 -0.44919577 0.0010338934 0.0018455865
0.24902277 -0.049702372 -0.10652474 -0.90092844 -0.43336743 -0.022815483 0.00096543069
0.2893199 -0.041765757 -0.10666154 -0.92324996 -0.3841998 -0.00032132788 0
0.29213876 -0.048571058 -0.10429104 -0.92387599 -0.38269183 -3.2435466e-06 0
-0.28608009 -0.033944119 -0.10474627 0.91484565 -0.40380365 0.0003393722 0.00056383503
0.28638509 -0.034680448 -0.10162344 -0.91765374 -0.39737868 -0.001305145 0.00045742068
-0.28166401 -0.023282802 -0.10478468 0.8906799 -0.45456153 -0.0079445653 0.0021772955
-0.23253189 -0.022413457 -0.10307427 0.8059848 -0.59193295 0.001962004 0.00045075329
0.23181403 -0.021477925 -0.10433666 -0.80274045 -0.59625542 -0.0093431128 0.00035583464
-0.22432455 -0.011717465 -0.10456684 0.79332113 -0.60880351 -6.4470569e-06 2.3040799e-05
0.22719657 -0.015460338 -0.10560777 -0.79434085 -0.60747236 0.00025728651 0
0.27808881 -0.015638806 -0.10728215 -0.86160821 -0.50757289 -0.0010387311 0.0027933558
-0.27281162 -0.0087614208 -0.1096952 0.82165837 -0.56997865 -0.0013619636 0.0013312899
-0.22042561 -0.0066362694 -0.10705709 0.79335433 -0.60876012 2.7864042e-05 6.2365376e-07
-0.21786992 -0.0033056375 -0.10791892 0.79335171 -0.60876352 -1.0170385e-07 1.149427e-06
0.22077748 -0.007094821 -0.10432783 -0.79335332 -0.60876149 3.9121473e-06 1.2471284e-06
0.2683852 -0.0029927688 -0.10832401 -0.80886984 -0.58795965 0.0057579135 0.00064457289
0.27316573 -0.009222893 -0.10165222 -0.82996893 -0.55779707 -0.0037408145 0.0018622681
-0.26380762 0.0029728415 -0.10509411 0.79339486 -0.60870731 -5.0000875e-05 0
0.21035926 0.0064824587 -0.10953304 -0.78590477 -0.61834759 -0.00019778266 0.0001001413
0.26462165 0.0019119969 -0.10877577 -0.7954573 -0.60600853 0.0011350281 5.8908663e-05
-0.2560668 0.013060837 -0.10583775 0.79335457 -0.60875988 -1.4587247e-05 0
0.20359591 0.015296645 -0.10053531 -0.7466256 -0.66508365 -0.01463341 0.0018341684
0.25477722 0.014741498 -0.10403284 -0.79334497 -0.60877234 -3.5545869e-05 8.3718978e-06
0.19748622 0.02241263 -0.10565495 -0.69432437 -0.7195639 -0.011890419 0.0023829855
0.24762264 0.024065543 -0.10861133 -0.7933535 -0.60876131 -4.4966306e-05 0
-0.23963651 0.034473244 -0.10329056 0.78173983 -0.6235922 0.0039478112 0.0002506708
-0.18623176 0.031048477 -0.10957794 0.62796277 -0.77823675 0.0032199437 0.0006534633
-0.17703575 0.038104821 -0.10596064 0.60895073 -0.793208 0.00010837155 0
0.18451265 0.032367598 -0.10643385 -0.62533665 -0.78035247 -0.0020142805 0.00039188858
0.23827261 0.036250733 -0.10829283 -0.7676897 -0.64082074 0.0010867065 0.0012832832
-0.22979337 0.047301088 -0.10420279 0.7173475 -0.6967122 -0.0021735507 0.0018608737
-0.16454032 0.047692906 -0.1099907 0.60879952 -0.79332411 3.8080182e-06 0
0.16356021 0.048444971 -0.10377166 -0.60875833 -0.79335576 -3.1139573e-06 1.9987208e-07
0.17449994 0.040050611 -0.1057889 -0.60878986 -0.7933315 1.0295074e-05 0
-0.22320506 0.053433202 -0.10603814 0.66984338 -0.74247271 0.0066478681 0.0021376163
-0.21605891 0.058916643 -0.10716403 0.64134312 -0.76724851 0.002962712 0.0011619288
-0.15940383 0.051634274 -0.10462695 0.60879928 -0.79332429 1.076875e-05 0
0.15549441 0.054634072 -0.10479689 -0.5989942 -0.80075246 -0.0011710196 0.0001698804
0.16051103 0.050784685 -0.10789866 -0.6061489 -0.79535109 0.00047492798 2.6958562e-05
0.21859646 0.056969501 -0.10177141 -0.65446794 -0.75608927 0.00090488791 0.001379099
0.22182989 0.054488413 -0.10247493 -0.68129903 -0.73199052 0.0046392893 0.0022479738
-0.21414649 0.060384087 -0.10942537 0.62205547 -0.78296036 0.0044786623 0.00042379825
-0.14473356 0.062891148 -0.10203647 0.54780614 -0.83655751 -0.008941236 0.0015236055
-0.13417538 0.068667449 -0.10380315 0.45834613 -0.88874769 0.0068040565 0.0017071977
0.14653039 0.061512411 -0.10842494 -0.56136626 -0.82753056 -0.0078226114 0.0014421131
0.20997861 0.063582219 -0.10664652 -0.61722833 -0.78677201 -0.0043458249 0.00017596396
-0.2013011 0.070240714 -0.1052036 0.60878909 -0.7933321 4.920043e-06 0
-0.19523233 0.074897438 -0.10753097 0.60874975 -0.79336232 -6.8999775e-06 6.5493523e-06
-0.1249955 0.072469875 -0.10737239 0.40646425 -0.91365588 0.0044566849 0.00033764643
0.12779149 0.071311735 -0.10559404 -0.40507114 -0.91427189 0.0049229967 0.00055348879
0.18905714 0.079635844 -0.10988207 -0.60874772 -0.79336387 -1.114003e-06 8.641171e-06
0.1948228 0.075211689 -0.10698335 -0.60876191 -0.79335302 -3.2368268e-06 1.3211949e-06
-0.18297309 0.084304295 -0.10718831 0.60876143 -0.79335338 6.5039417e-06 3.8323887e-07
-0.17555308 0.089997858 -0.10370341 0.58807409 -0.80880427 0.0021323264 0.00046284261
-0.095902406 0.084520616 -0.10525063 0.38267833 -0.92388159 -3.2710193e-07 3.5933795e-06
0.085545927 0.088810414 -0.10596438 -0.34413025 -0.93889385 0.007263043 0.0010709236
0.0964287 0.084302627 -0.10637891 -0.38148272 -0.92437601 0.00017033936 4.269069e-06
0.10321677 0.081490912 -0.1082078 -0.38269183 -0.92387605 1.6914213e-06 0
0.17773029 0.088327214 -0.10837173 -0.59073395 -0.8068397 0.0065767146 0.00044927647
0.1820243 0.085032322 -0.10681579 -0.60877603 -0.79334217 3.4640088e-05 0
-0.17017271 0.094126366 -0.10950731 0.56852108 -0.82266867 7.8383971e-05 0.00099560025
-0.073069952 0.093978129 -0.10662685 0.27595764 -0.96112347 -0.0094322124 0.0017777277
-0.060636315 0.095673531 -0.10293527 0.17604043 -0.98437077 -0.0048965034 0.0011418135
-0.053001367 0.096678689 -0.10194837 0.13687499 -0.99058771 0.001109511 4.4138353e-05
-0.033811085 0.099205136 -0.10041165 0.13052486 -0.991445 9.9709405e-06 0
0.0364866 0.098852903 -0.10044076 -0.13052529 -0.991445 -1.8801045e-06 9.8555506e-07
0.042519726 0.098058626 -0.1075791 -0.13052066 -0.9914456 1.9354212e-07 3.8666508e-06
0.057888739 0.096035257 -0.10610215 -0.16596787 -0.98612201 -0.0042636925 0.00097144162
0.073841147 0.093480669 -0.10550064 -0.2579079 -0.96611184 -0.010555561 0.0020301288
0.17410509 0.091108955 -0.10602159 -0.58333206 -0.81211436 0.013931502 0.00056526589
-0.15267918 0.10458752 -0.10472268 0.45065868 -0.89262491 0.011287565 0.0016954764
-0.14903791 0.10609578 -0.10616992 0.42452917 -0.90541399 0.00077445101 0.00097500475
-0.022600211 0.10068107 -0.10170636 0.12845896 -0.99171466 0.0005567699 6.8121435e-06
-0.0094588883 0.10241117 -0.10941961 0.062602423 -0.99796575 0.012055836 0.0012019797
