# .PCD v0.7 - Point Cloud Data file format
VERSION 0.7
FIELDS x y z normal_x normal_y normal_z curvature
SIZE 4 4 4 4 4 4 4
TYPE F F F F F F F
COUNT 1 1 1 1 1 1 1
WIDTH 568
HEIGHT 1
VIEWPOINT 0 0 0 1 0 0 0
POINTS 568
DATA ascii
-0.49158385 0.06216896 -0.095156997 0.98572791 -0.16834614 -2.6983036e-05 2.2475133e-05
-0.45901152 0.066257611 -0.092192933 0.96209389 -0.27271834 -6.1248233e-05 7.9243146e-05
0.13167702 0.068421736 -0.096933708 -0.9695549 -0.24487413 -4.2589791e-06 1.6782101e-06
0.16636831 0.064784519 -0.091423266 -0.98842043 -0.1516345 0.0056628976 0.0013542109
-0.4562822 0.075886816 -0.095837489 0.96210182 -0.27269047 -2.054059e-06 0
0.12947083 0.077156506 -0.093516387 -0.9695515 -0.24488759 4.9714163e-06 0
0.16469331 0.075867236 -0.09280394 -0.97428393 -0.22485307 0.014556793 0.002549456
-0.48695454 0.089274533 -0.096258625 0.96869934 -0.24686371 -0.026075408 0.001721633
-0.45243853 0.089447543 -0.090003304 0.96209401 -0.2727181 -6.4641616e-05 0.0001552453
0.12746833 0.085084811 -0.093387805 -0.96955252 -0.24488364 -3.2930013e-06 1.6647009e-07
0.16184209 0.08445394 -0.098429821 -0.96253151 -0.27094412 -0.011061936 0.0019323609
-0.45021975 0.097275466 -0.097424433 0.96164638 -0.2742919 -0.00035183944 1.8629689e-05
0.12488837 0.0952994 -0.095097251 -0.96583748 -0.25913838 -0.0022877785 0.00026429439
-0.44839436 0.10371565 -0.090999454 0.96015477 -0.27945822 -0.0024564574 6.1046558e-05
0.12248595 0.10481112 -0.095765412 -0.94982982 -0.31236881 0.015782379 0.089931116
0.15388063 0.10596729 -0.091857314 -0.93783528 -0.34708065 -2.6232353e-06 0
-0.47615781 0.11925949 -0.099339835 0.90852582 -0.41782862 1.325989e-05 6.2060557e-05
0.1174593 0.11816195 -0.095663719 -0.90889549 -0.41696948 -0.0067415596 0.0021651266
0.12085788 0.11125695 -0.091484703 -0.91444373 -0.11595085 0.38774735 0.23041181
0.14957003 0.11761527 -0.097464956 -0.93783343 -0.34708592 2.6299219e-06 0
0.15024334 0.11579584 -0.093865491 -0.92024362 -0.39123577 0.0092900088 0.1581291
0.11387555 0.12458086 -0.096769035 -0.88597941 -0.46370041 0.0047367383 0.00046675769
-0.47049415 0.1315777 -0.090122692 0.91485471 -0.40247735 -0.032447778 0.073237479
-0.46663943 0.1399616 -0.093417875 0.90857178 -0.4177289 -1.6476404e-06 6.0849266e-06
-0.43496132 0.1352341 -0.09550184 0.8646155 -0.50242668 -0.0027377089 0.00019656081
0.14364381 0.13362898 -0.091363646 -0.9368977 -0.349603 0.00067508139 1.1293315e-05
-0.46374834 0.14624956 -0.096761957 0.90854937 -0.41777745 -3.0023377e-05 0
-0.4318755 0.14040552 -0.098943405 0.86086208 -0.50883824 -0.00025487077 0.00012093627
0.10164191 0.14649279 -0.098936573 -0.87312031 -0.48750463 -1.0383487e-05 0
0.1390388 0.14607258 -0.093941614 -0.9176501 -0.39738917 -0.00045697141 0.0010919003
-0.42028248 0.15983371 -0.092173479 0.85871738 -0.51244956 1.9985962e-05 0
0.0964818 0.15573515 -0.094766334 -0.87313873 -0.48747191 6.6684953e-07 4.0932873e-06
-0.45400733 0.16743588 -0.09473452 0.89526689 -0.44552961 0.00077144994 0.00087975309
0.092164598 0.16346781 -0.09800563 -0.87313569 -0.48747718 7.1878908e-06 2.4803558e-06
0.12879924 0.16585886 -0.097928487 -0.85684973 -0.51556301 0.0017991232 0.0013233558
-0.45078406 0.17444645 -0.0960977 0.87288105 -0.4879289 -0.0020103033 0.0018997296
-0.4103424 0.17649195 -0.09670002 0.83595812 -0.54878312 0.0033443477 0.0010797204
-0.40870988 0.17922775 -0.099898815 0.82163876 -0.56994855 0.0082750786 0.0014302557
0.086330444 0.17391747 -0.094665982 -0.83932281 -0.54363114 -0.0016019986 0.0013867756
0.12262539 0.17457588 -0.095925875 -0.81904024 -0.57373571 0.00061235635 1.5471567e-05
-0.44059324 0.18900566 -0.095078148 0.80548471 -0.59253198 -0.010012011 0.0013366047
-0.40305805 0.18869939 -0.096555099 0.7582019 -0.65186065 -0.014407302 0.085670285
0.075324036 0.18882491 -0.095215 -0.74992442 -0.6615169 0.0029533426 0.00038862159
0.11408738 0.18663095 -0.093618922 -0.81606239 -0.57796383 1.1883442e-05 5.5802084e-06
-0.39505017 0.19673491 -0.091741309 0.74889344 -0.66261119 0.010250784 0.0015430497
0.071523614 0.19273639 -0.097696863 -0.7478981 -0.66381359 0.00020340575 0.000505217
0.10809021 0.19509852 -0.097716808 -0.81603134 -0.5780077 1.1983879e-05 0
-0.42514819 0.20761468 -0.097116902 0.76498091 -0.64383435 -0.016778074 0.082928903
-0.38306609 0.20837876 -0.096072607 0.69762498 -0.71646315 0.00013426415 0
0.061631605 0.2029174 -0.092007816 -0.71720451 -0.69686276 8.1556236e-06 0
0.098553315 0.20856392 -0.093493335 -0.81605601 -0.57797289 -3.7722339e-06 0
-0.41589767 0.21876015 -0.097771078 0.76948172 -0.63866884 4.0939235e-06 0
-0.38116643 0.21022448 -0.094696045 0.69688886 -0.71717912 2.6700423e-05 1.0625272e-05
-0.37995359 0.21140291 -0.091605879 0.69690871 -0.71715981 -9.0847643e-06 0
0.046799164 0.21818325 -0.093683511 -0.7172392 -0.69682699 -2.7006019e-05 1.9013314e-05
0.091722041 0.21820919 -0.094356857 -0.7926718 -0.60964853 -0.00027697004 0.001374871
-0.37032053 0.22076251 -0.097074114 0.69676691 -0.71729755 -5.0650448e-05 3.1996085e-05
0.037959136 0.22728157 -0.099819355 -0.70637316 -0.70783526 -0.0025069569 0.00033191449
0.040213764 0.22496107 -0.096592292 -0.70621771 -0.70799428 -0.00081957236 0.00034909643
0.084586293 0.22828434 -0.098940447 -0.73733556 -0.67551887 0.0032281601 0.0022080059
-0.4025749 0.23481213 -0.097111732 0.74918628 -0.66231871 -0.0073298858 0.00071214535
-0.35540485 0.23525472 -0.096232325 0.68900543 -0.72475511 0.0012051177 5.545669e-05
0.028906051 0.23659919 -0.096533462 -0.65383363 -0.75661856 0.005476092 0.089316837
0.032619126 0.23277761 -0.091081493 -0.67622399 -0.73659796 0.012020905 0.0013449508
0.07989163 0.23248947 -0.095960692 -0.71150047 -0.70268381 0.0015958273 0.0022630091
-0.39048907 0.24850392 -0.096206605 0.64351076 -0.76542914 0.0034919037 0.0020613251
-0.34363317 0.24574706 -0.092500463 0.59854215 -0.80100578 0.011703212 0.13419959
0.01407766 0.24666166 -0.097697586 -0.55550271 -0.83151323 0.0015916013 0.00088935485
0.066912346 0.24326199 -0.094470866 -0.64556873 -0.76370198 0.00048945867 0.00012359135
0.070089161 0.24062529 -0.090062022 -0.64696103 -0.76252156 -0.0014814823 0.00013565068
-0.38334745 0.25356197 -0.090610892 0.62118316 -0.78364658 -0.0054336307 0.0013082912
-0.3750757 0.25942045 -0.097904362 0.5783155 -0.8158133 -4.092509e-05 0
-0.3278603 0.25471041 -0.093171664 0.49840382 -0.86692566 -0.0057946006 0.00028081448
-0.0047207335 0.25787884 -0.098133869 -0.51241678 -0.85873687 6.0279808e-06 0
0.0073703346 0.250664 -0.09306144 -0.51778197 -0.8555122 0.00089169492 0.00010297575
0.048509948 0.25853556 -0.094593786 -0.62304282 -0.78180033 0.024614712 0.075357974
0.054019824 0.25396249 -0.093748607 -0.63866621 -0.76948392 -2.1641742e-06 0
-0.3124536 0.2633121 -0.09632358 0.48763147 -0.87304956 3.8481729e-05 0
-0.30570835 0.26707801 -0.095465578 0.48746294 -0.87314373 -3.5432484e-05 2.0673137e-05
-0.016353523 0.26482022 -0.093231939 -0.51242405 -0.85873252 5.2197893e-06 5.5735832e-06
-0.35272408 0.27525106 -0.09791933 0.578174 -0.8159135 -1.1267419e-05 0
-0.34688649 0.27938554 -0.094750248 0.57805061 -0.81600094 4.4900768e-05 9.8953187e-06
-0.3002038 0.27015129 -0.096844353 0.48742676 -0.87316388 -8.1604803e-06 1.2263563e-05
-0.29497615 0.27306992 -0.094547659 0.48206723 -0.87612045 0.0049160295 7.8249786e-06
-0.28587735 0.2781499 -0.091137998 0.44504964 -0.89547026 0.0079923533 0.0014801346
-0.038086098 0.27778828 -0.093660951 -0.42709693 -0.90420091 0.002973293 0.10018839
0.026441026 0.27685231 -0.091540374 -0.59653044 -0.80256522 -0.0063664066 0.0013256619
0.032897644 0.27149343 -0.091062173 -0.63207984 -0.77490199 -0.0014211456 0.00019925964
-0.34038854 0.2839877 -0.096795022 0.57325768 -0.8193751 0.00023836381 9.8388802e-05
-0.33432567 0.28828171 -0.091177344 0.55679327 -0.83059579 0.0095887352 0.00058246311
-0.27750936 0.2828218 -0.095169045 0.3869887 -0.92193812 0.016427906 0.0020911815
-0.25569183 0.2888068 -0.095748268 0.25869858 -0.96593559 -0.0065945727 0.00026666626
-0.066450797 0.28715938 -0.092297621 -0.28267902 -0.95921427 -0.00074747973 0.0001459272
0.0084939357 0.28883874 -0.097052865 -0.46455881 -0.88553792 0.0027707759 0.0012620435
0.018556491 0.28339627 -0.097928822 -0.5293026 -0.84840798 0.0065264083 0.0020639598
-0.32337216 0.29603958 -0.092051417 0.51510346 -0.85704911 0.011632593 0.0019646776
-0.31623477 0.29967248 -0.096059904 0.45881182 -0.88852358 0.0041852496 0.0021525552
-0.24204263 0.29225427 -0.098772287 0.24496837 -0.96953106 5.6170018e-07 0
-0.23927966 0.29295212 -0.096603058 0.24490446 -0.96954721 -1.0380753e-05 0
-0.22614349 0.29626998 -0.095641412 0.24492508 -0.96954203 2.9896184e-05 1.2521281e-05
-0.21559405 0.29893452 -0.094609268 0.22199993 -0.97504151 0.0031600504 0.0004756487
-0.085737951 0.29262617 -0.097279154 -0.27277818 -0.96207696 -1.2597559e-05 8.8913075e-05
-0.01456995 0.29944301 -0.098303735 -0.41776776 -0.90855384 -1.7896926e-05 4.1183845e-05
-0.0048778215 0.29498678 -0.095092714 -0.42191011 -0.90663701 0.00110328 4.5012013e-05
-0.20874497 0.30066442 -0.093719214 0.20602611 -0.97852278 0.0068184966 0.00057050731
-0.19498265 0.30315021 -0.095181994 0.13221224 -0.9908911 0.025588851 0.081898719
-0.18772657 0.30304572 -0.092152052 0.051951382 -0.99864924 0.00092576689 0.0018720052
-0.17582437 0.30287433 -0.094663993 -0.014385642 -0.99989653 1.7497005e-05 0
-0.16616182 0.30273521 -0.095974661 -0.014382111 -0.99989659 -5.8327028e-06 3.0968633e-05
-0.15514278 0.30257654 -0.094525248 -0.014398269 -0.99989635 -6.2972008e-06 0
-0.13061862 0.30222344 -0.091419362 -0.05162733 -0.99865168 0.0054229954 0.0008356545
-0.12999249 0.30221444 -0.092511855 -0.05167152 -0.99864966 0.0053930371 0.00092066784
-0.11686333 0.3014484 -0.096512035 -0.17290123 -0.98492849 0.0045748185 0.0017908423
-0.026285267 0.30482945 -0.093169928 -0.41151971 -0.91137809 -0.0064450456 0.057085942
-0.04457964 0.3132408 -0.09632504 -0.40316191 -0.91511661 0.0046783653 0.0003003086
-0.038842767 0.31060308 -0.093201444 -0.4177843 -0.90854621 -3.3162521e-06 5.8523732e-05
-0.25687101 0.32164133 -0.091708302 0.33964556 -0.94055086 0.002247632 6.3540327e-05
-0.24513561 0.32598427 -0.094345532 0.28808281 -0.95757812 0.0072392244 0.0013626919
-0.070075534 0.32308832 -0.09848576 -0.25974107 -0.96567011 0.0039952733 0.001933342
-0.20765416 0.33146536 -0.093115687 0.092570603 -0.99570614 1.3873063e-06 0
-0.19713736 0.33244246 -0.094241947 0.13114409 -0.99112517 0.021727454 0.12742798
-0.17549594 0.3344532 -0.099136382 0.092556514 -0.99570745 1.2790587e-05 0
-0.16308951 0.33560586 -0.097089171 0.034928121 -0.99931121 -0.012533742 0.0011425114
-0.1583422 0.3360469 -0.095452487 0.01436451 -0.99989206 -0.0030768197 0.0016575209
-0.14329179 0.33559278 -0.096042216 -0.082404122 -0.99658668 0.0049550263 0.0017394589
-0.12651597 0.33272767 -0.096399382 -0.16837385 -0.9857232 5.1316229e-06 3.5823796e-05
-0.1188895 0.33142516 -0.09197031 -0.16837117 -0.98572361 1.7925555e-05 0
-0.20448594 -0.33194426 -0.086599469 0.19647492 0.98037261 -0.016342623 0.12731591
-0.19277808 -0.33394381 -0.080178589 0.12929255 0.99160641 -0.00056115189 0.00075017172
-0.173932 -0.3365092 -0.084625304 0.016167259 0.99960393 -0.023035372 0.0024688246
-0.16542673 -0.33580106 -0.083229899 -0.044868488 0.99894768 -0.0095083471 0.0016948793
-0.15769979 -0.33508319 -0.082698449 -0.074280605 0.99723691 -0.00092870946 0.0004089362
-0.14612237 -0.3340075 -0.085716784 -0.09213578 0.99574643 7.4802978e-05 0
-0.1315722 -0.33265567 -0.085952096 -0.092520207 0.99571079 2.0693376e-05 1.6378348e-05
-0.12530102 -0.332073 -0.086718023 -0.15756868 0.98743719 0.011832207 0.1134223
-0.11629759 -0.33123648 -0.08554998 -0.092526592 0.99571025 1.1026507e-06 1.9024208e-05
-0.26448661 -0.3212173 -0.089240193 0.31492105 0.94911766 0.00057754054 0.0024265104
-0.25546658 -0.32323736 -0.085244931 0.21728016 0.97608924 -0.0062490413 0.0012492955
-0.23261914 -0.32713944 -0.083369344 0.16837472 0.98572302 2.9002807e-05 0
-0.10023478 -0.3297441 -0.083685994 -0.14175911 0.98989844 0.0023242701 0.0016915675
-0.06910459 -0.32147875 -0.085931182 -0.33990386 0.94045949 0.0011456412 5.5587694e-05
-0.2759771 -0.31593424 -0.085055701 0.37480494 0.92701215 0.013029239 0.0012267425
-0.064144932 -0.31964332 -0.089240506 -0.34711713 0.93782187 6.3917382e-06 3.866676e-05
-0.045571979 -0.31277001 -0.083762266 -0.34706041 0.93784279 8.0801274e-06 0
-0.2032823 -0.30211562 -0.086235769 0.1925088 0.98129255 -0.002309175 0.083143242
-0.18320322 -0.30240476 -0.084650308 0.016796865 0.9998588 -0.00042289885 2.8290482e-05
-0.16275719 -0.30269915 -0.08328639 0.014355499 0.99989706 -9.8331802e-06 2.9277007e-05
-0.14468537 -0.30295935 -0.082074925 -0.016730314 0.99985063 0.0043378184 0.0004079986
-0.12481575 -0.30246931 -0.085772589 -0.1932763 0.98113042 -0.0052281893 0.091598466
-0.11945979 -0.30111653 -0.088098481 -0.14984518 0.98865169 -0.010692273 0.0016967733
-0.032552399 -0.30795184 -0.080473006 -0.34983751 0.93681031 -0.00044888447 1.5018271e-05
-0.028383669 -0.30640912 -0.080776796 -0.35431415 0.93512642 -0.00010857125 0.00010295434
-0.013135234 -0.30076611 -0.083826922 -0.41168654 0.9113254 0.00060261344 0.0016983702
-0.32761395 -0.29219279 -0.08164563 0.44840035 0.89378691 -0.0090592876 0.00033651601
-0.31384003 -0.29852569 -0.088362858 0.41766742 0.90859997 -7.5948874e-06 7.7759169e-06
-0.2442885 -0.29160252 -0.083455369 0.2727038 0.962098 -2.3803511e-06 0
-0.23777315 -0.29344922 -0.085689127 0.27275231 0.96208429 -1.0484294e-05 0
-0.21776894 -0.29911926 -0.086649902 0.24486399 0.96955711 0.00076748902 0.00063435751
-0.11206231 -0.29924807 -0.082609788 -0.2448751 0.96955466 9.3459184e-06 0
-0.1041863 -0.29725882 -0.081789926 -0.24491389 0.96954477 -1.0056434e-05 5.3115498e-05
-0.0046166503 -0.29715431 -0.08196792 -0.45994821 0.88794386 0.0018159793 0.0030879099
-0.34537649 -0.28306001 -0.084484905 0.55338067 0.83274353 0.017551662 0.001901085
-0.28337216 -0.28052455 -0.082090542 0.3800908 0.92399943 0.041904375 0.11959702
-0.2797637 -0.28154737 -0.082526073 0.35012591 0.93667585 -0.0070890677 0.0022114487
-0.25299698 -0.28913414 -0.083214782 0.27275804 0.96208268 -1.7086057e-06 0
-0.074065089 -0.28965092 -0.081194125 -0.25123239 0.96792674 0.0002815277 6.9989735e-05
-0.064511754 -0.28723797 -0.085370235 -0.2833693 0.95900834 -0.0021760929 0.00065920554
-0.059053555 -0.28585938 -0.0869321 -0.3149496 0.94909936 -0.0041390606 0.0015162752
-0.04670452 -0.28159297 -0.084063217 -0.40037152 0.91631651 -0.0081641711 0.0021203014
0.016795076 -0.2819894 -0.084616765 -0.57701224 0.81673551 -7.5163089e-06 0
-0.34923249 -0.27985966 -0.083555117 0.57660258 0.81693715 0.011958233 0.0020625014
-0.29580706 -0.27332592 -0.080058321 0.48131412 0.87654817 8.7805049e-05 0.0012598712
-0.28607306 -0.27913433 -0.088527769 0.41380391 0.91036564 0.00087761472 0.0020734868
-0.034428328 -0.27473906 -0.088807054 -0.46965757 0.88284802 0.0010767315 0.00037601669
-0.027084274 -0.27063882 -0.087700799 -0.48748031 0.87313402 -8.9845144e-06 0
0.02787579 -0.27414149 -0.087046109 -0.58224362 0.8128404 0.016813021 0.070784472
0.031339183 -0.27168852 -0.087934434 -0.55615628 0.83107764 0.00030217331 0.068203345
-0.36337772 -0.26811942 -0.083416864 0.63863564 0.76950926 -1.7510727e-05 1.5197867e-05
-0.3143121 -0.26228374 -0.086078055 0.51242852 0.8587299 -7.8957137e-06 1.2818658e-05
-0.02244232 -0.26804712 -0.088451833 -0.48747745 0.87313557 -1.8815962e-06 0
-0.016071394 -0.26449019 -0.08825963 -0.48747951 0.87313443 -8.3989044e-06 0
0.03687527 -0.26776761 -0.085428819 -0.56719756 0.82350212 -0.011452126 0.074468568
0.044630475 -0.26227495 -0.086130142 -0.58313859 0.81237239 -0.0007547366 4.8243164e-05
-0.37794352 -0.25603014 -0.08276692 0.63868415 0.76946908 1.8837589e-05 1.169936e-06
-0.32083181 -0.25839341 -0.087067761 0.51238561 0.85875547 -3.3807577e-05 1.2104652e-05
-0.0063639497 -0.25907046 -0.088729389 -0.48782468 0.87294155 0.00029495574 0
0.053206109 -0.25620127 -0.085425273 -0.60682964 0.79480088 -0.0070322794 0.00073757715
-0.34297442 -0.2451807 -0.0846439 0.56123424 0.82762945 -0.0067532598 0.0013365125
-0.33949143 -0.24725904 -0.082157716 0.5230307 0.85230958 -0.0027110199 0.00021800681
0.014984593 -0.24715135 -0.086823627 -0.5864144 0.80999231 0.0055247787 0.14548996
-0.40411729 -0.23430645 -0.086887509 0.69642079 0.71763021 -0.0022356967 0.002024892
0.024571851 -0.23954742 -0.084480613 -0.63210481 0.77487183 0.0041433764 0.0022317267
0.030409461 -0.23387551 -0.084325753 -0.67223555 0.7403363 0.0012418451 0.00085153221
0.073014945 -0.23860145 -0.086959474 -0.73053384 0.68287569 -0.0010509567 0.001266023
-0.41310424 -0.22531496 -0.083416067 0.75993729 0.64957505 -0.023402331 0.0021658093
-0.3648791 -0.22676173 -0.082972504 0.69895077 0.71516436 0.002786485 0.00080435793
0.036829032 -0.22763821 -0.089457065 -0.69291419 0.7210198 -0.00055319205 9.7412914e-05
0.086377084 -0.22250208 -0.083186574 -0.76947641 0.63867527 -4.4613373e-07 0
-0.37730315 -0.21397465 -0.084138997 0.71710676 0.69696325 8.623326e-05 0
0.046190407 -0.21854258 -0.082471684 -0.696863 0.71720427 -2.690851e-06 9.582368e-06
0.054828029 -0.21015018 -0.089858346 -0.69684738 0.71721941 1.2761982e-06 0
0.094645515 -0.21253985 -0.084458321 -0.76949763 0.6386497 -1.6191003e-05 8.684503e-06
-0.42600799 -0.20709582 -0.088097721 0.81559187 0.57862753 0.00026958145 0
-0.38934779 -0.20157808 -0.084753454 0.7190721 0.69493484 0.00094827724 6.7628389e-05
0.057400353 -0.20765088 -0.085741721 -0.69686061 0.7172066 5.6689005e-06 0
0.06505841 -0.20021024 -0.089887112 -0.71084398 0.70334148 0.0034022958 0.00041675899
0.098656081 -0.2077077 -0.080385908 -0.76312935 0.64604735 -0.01601102 0.10741068
0.10128876 -0.20453572 -0.0862111 -0.76950139 0.63864499 -5.4347242e-06 1.9050225e-05
-0.43368036 -0.19626297 -0.089392096 0.73367923 0.65871674 0.16675471 0.13027149
-0.39353931 -0.19726412 -0.086365186 0.72419876 0.68959111 0.00040398701 8.3178922e-05
0.067149445 -0.19817856 -0.085173048 -0.71124798 0.70293289 0.0034132379 0.00035305123
0.10857476 -0.19575717 -0.080154605 -0.77444559 0.63264012 -0.00075528165 0.00010832427
-0.44256473 -0.18371889 -0.086205527 0.8160212 0.57802206 3.3496278e-07 4.6249152e-05
-0.43942171 -0.1881566 -0.08283297 0.81601816 0.57802624 2.367629e-05 0
-0.40368864 -0.18681821 -0.082881331 0.77524334 0.63166219 0.0007811836 0.0021450554
0.07963416 -0.18368694 -0.087097988 -0.81957501 0.57297081 -0.0011237673 0.0017443516
0.11886781 -0.18335557 -0.085184202 -0.82422823 0.56623453 0.0051221228 0.0024516056
-0.44586632 -0.17905731 -0.084957667 0.81603348 0.57800454 -6.9206467e-06 8.1990693e-05
0.085611194 -0.17367031 -0.086531512 -0.84923816 0.52798653 -0.0049795704 0.00030436233
0.12325924 -0.17686053 -0.086872563 -0.86047632 0.5093981 0.0097052716 0.0019946946
-0.4182446 -0.16406763 -0.085183069 0.86740869 0.4975799 -0.0040285811 0.00025126067
0.091682576 -0.16349553 -0.083572149 -0.85858679 0.51266819 -6.989012e-05 0
0.12706591 -0.16858116 -0.081262551 -0.88355088 0.46831781 0.0040249117 0.001289007
0.13093036 -0.16017613 -0.085706674 -0.90421993 0.4270606 -0.002368361 0.00013544764
0.097200185 -0.15424879 -0.08091493 -0.85873461 0.51242065 1.1604443e-06 2.4211492e-06
0.13381685 -0.15389811 -0.083744891 -0.90856987 0.41773275 8.3604698e-07 8.7338358e-06
-0.42943493 -0.1440244 -0.083548151 0.87311316 0.48751768 5.658478e-05 0
0.10255099 -0.14528163 -0.082892373 -0.8587454 0.51240253 9.783108e-06 1.3219613e-06
0.13648748 -0.14808959 -0.086756244 -0.90856457 0.41774446 -3.9340921e-06 6.9748326e-06
0.4056614 -0.14178532 -0.083427526 0.28610396 0.94358462 -0.16671133 0.033520952
0.41536966 -0.14344338 -0.082837805 0.16826922 0.98574108 -1.059354e-05 6.0684847e-06
0.42592856 -0.14524671 -0.084313042 -0.099337749 0.97855419 0.18045472 0.049133778
0.43763828 -0.14724657 -0.088163629 -0.18252528 0.9531824 0.24109685 0.049693868
0.44811952 -0.14498992 -0.085121952 -0.43782616 0.83951467 0.32175058 0.060313892
-0.43539867 -0.13334259 -0.085943244 0.87451947 0.4849903 -0.00036127723 7.0126174e-05
0.37585598 -0.13274588 -0.086794488 -0.62082434 -0.56866843 0.53962344 0.10602085
0.3815645 -0.13506114 -0.083266489 -0.54305631 -0.7187044 0.43422779 0.089567319
0.39283356 -0.13959448 -0.088821463 -0.33693999 -0.899858 0.27699637 0.064876638
0.44918597 -0.13513371 -0.086612649 -0.79111511 0.42432171 0.44055429 0.046486568
0.45021912 -0.13598761 -0.083763763 -0.77936876 0.45911044 0.42638242 0.05469916
-0.44188651 -0.12172207 -0.088106588 0.90615571 0.42294168 -0.001473825 0.0022442057
0.115437 -0.12368651 -0.085246667 -0.90403485 0.42745146 0.0025071083 0.0020330455
0.37526283 -0.12540229 -0.088695385 -0.69713473 -0.32478294 0.63915515 0.084008105
-0.4775393 -0.11341506 -0.084756605 0.91291445 0.40793729 0.013204087 0.12291151
-0.44510594 -0.11595568 -0.084792405 0.90581167 0.42125967 0.045227911 0.089345612
0.15260333 -0.11303816 -0.087617531 -0.92895657 0.37018791 0.00073680148 0.00087274879
0.3798188 -0.11351584 -0.086096287 -0.71615499 -0.010693249 0.69785935 0.021098867
0.45215321 -0.11500674 -0.087748803 -0.88420612 0.15413259 0.44093382 0.001273148
-0.48213705 -0.10099114 -0.085209414 0.93880314 0.34445414 4.7879021e-05 0.00022815184
-0.44863343 -0.10586984 -0.082861096 0.95857245 0.2842541 0.018399496 0.11648293
0.12133555 -0.1059874 -0.083680369 -0.95167482 0.30710715 -0.00047014732 0.00095004955
0.15558012 -0.10656375 -0.083722614 -0.94434553 0.32856277 -0.016065411 0.00134373
0.3787123 -0.10982646 -0.087883182 -0.70468795 0.080996729 0.70487899 0.0053847004
0.38236099 -0.10273629 -0.085374728 -0.72062743 0.12423291 0.68210149 0.00020304772
0.4564262 -0.10156596 -0.082970597 -0.89017034 0.15817656 0.42729035 0.00077792187
-0.45030004 -0.099271327 -0.0844137 0.95966285 0.28114086 -0.0026555285 0.001007446
0.15975419 -0.09387356 -0.089376755 -0.96852022 0.24883603 -0.0070192069 0.0011679748
0.38800842 -0.099733233 -0.080091372 -0.75244486 0.13789442 0.64405894 0.0019582452
0.45599714 -0.095196426 -0.086635932 -0.88851595 0.14020662 0.43689993 0.00086615374
-0.48795193 -0.08527828 -0.082926631 0.96029282 0.27877825 -0.010974361 0.001529709
-0.45494536 -0.080879495 -0.087073758 0.96954405 0.24491712 -4.3765416e-05 0.00011325396
0.12807623 -0.082205907 -0.082590416 -0.9621008 0.27269405 -5.3288204e-06 1.7456308e-06
0.16185512 -0.081572242 -0.085535787 -0.98151767 0.19135979 -0.0021083457 0.00051267806
0.38316303 -0.081535526 -0.088275261 -0.71586692 0.122494 0.68740803 7.8941899e-05
0.45884791 -0.086290687 -0.083422728 -0.89685941 0.03433802 0.44098079 0.015273328
-0.49171293 -0.073684148 -0.083125725 0.96860963 0.24857984 -0.0018761521 0.0021365413
-0.45689833 -0.073147371 -0.088338748 0.96955466 0.24487492 4.9636299e-05 1.6312308e-05
0.12979199 -0.076152563 -0.087655179 -0.96210194 0.27268991 -9.561616e-06 1.0551508e-05
0.13110819 -0.071508944 -0.083661668 -0.96272165 0.27049398 -0.00012026836 1.4275583e-05
0.16336916 -0.072707139 -0.085022114 -0.98572594 0.16835763 9.9873214e-06 0
0.38881046 -0.075967789 -0.083442584 -0.67102766 0.23967198 0.701626 0.015248664
0.45888984 -0.079120174 -0.08628054 -0.85642767 -0.13370416 0.49865294 0.037872463
-0.49282488 -0.064336114 -0.082230292 0.98366892 0.17982566 -0.0076227225 0.00098043436
-0.45792994 -0.069062814 -0.087227441 0.96954465 0.24491473 -1.1257262e-05 4.9837858e-05
0.13247818 -0.066675566 -0.08291509 -0.96387601 0.2663514 4.2883776e-06 2.7253469e-05
0.16530663 -0.061362933 -0.082847595 -0.98572731 0.16834974 -1.0429255e-05 1.2132939e-05
0.3899492 -0.06800238 -0.083670676 -0.65709585 0.36454818 0.65979522 0.028801594
0.39393947 -0.065371908 -0.080027007 -0.60079598 0.51948863 0.6075983 0.072976366
0.45627862 -0.061171282 -0.0844706 -0.71713036 -0.56194115 0.41224539 0.074751407
-0.49348173 -0.057266202 -0.081522249 0.99202478 0.12597695 0.0040815999 0.0010082144
0.13673152 -0.051669486 -0.085122645 -0.97165674 0.23638812 -0.0019687992 0.0006592673
0.16676092 -0.052847683 -0.085497811 -0.98768187 0.15644629 0.0030298112 0.051574603
0.38708746 -0.058897637 -0.088215373 -0.48389739 0.66895717 0.56421584 0.06590306
0.40739012 -0.052821726 -0.087652333 -0.14849058 0.95806056 0.24509281 0.079881169
0.41598958 -0.054290406 -0.089807108 0.033845469 0.99532104 0.090500914 0.035721481
0.44600683 -0.059416991 -0.084757857 -0.53266293 -0.77654475 0.33652413 0.09434665
-0.46274972 -0.049980387 -0.088322252 0.98010421 0.19847818 -0.0014796148 0.0011958228
0.13887115 -0.042648263 -0.085077137 -0.99553323 0.094314232 0.0042990884 0.08295165
0.16894349 -0.040068246 -0.086349875 -0.98572683 0.16835278 1.5274175e-06 6.9787711e-06
-0.49561191 -0.034338832 -0.087784082 0.98270231 0.18477583 0.012409375 0.094154559
-0.46542865 -0.039374009 -0.080890343 0.99013329 0.1398482 0.0088626817 0.0021165814
0.13899286 -0.034194712 -0.084080398 -0.99793792 0.064173102 -0.0013335372 0.0011208165
0.16981372 -0.034973018 -0.085916929 -0.98746127 0.15786077 -0.0003946459 0.00021867741
0.17035559 -0.03180024 -0.083972737 -0.98912728 0.14700375 -0.004145639 0.00047179946
-0.49602002 -0.029946301 -0.089762449 0.99571061 0.092522562 -1.2971116e-05 0.00010075196
-0.46623436 -0.023213707 -0.081884548 0.99914718 0.040573645 0.0076643517 0.0015104414
0.17160502 -0.024484467 -0.084537029 -0.99132043 0.13145214 -0.0019995405 0.00061968243
-0.49741942 -0.01488418 -0.082238629 0.99570447 0.092588246 -7.7346427e-05 0.00041659983
-0.46611544 -0.014955325 -0.082301885 0.99997842 -0.0065335468 0.00074781082 0
0.13927461 -0.014628552 -0.085440338 -0.99989629 0.014398701 1.9690227e-05 0
0.1735159 -0.013295935 -0.082315147 -0.99840569 0.055968326 -0.0073192059 0.0021798681
-0.49828973 -0.0055169575 -0.084168032 0.99825418 0.059057806 0.00091457687 0.00056449632
-0.46595341 -0.00370022 -0.08699175 0.99989629 -0.014407007 -2.5186207e-05 0.00012154975
0.13937372 -0.0077455589 -0.084682442 -0.99989629 0.0143982 -1.4952659e-05 0
0.17286995 -0.0051933704 -0.086323097 -0.99996364 0.0085145347 0.00056241517 0.0025521584
-0.49903595 0.0025145635 -0.0860852 0.99964589 0.026098359 0.0051933038 0.0013375432
-0.46581584 0.0058528241 -0.087553754 0.99989641 -0.014394936 3.0048792e-05 0
0.17186728 0.0055985297 -0.080103405 -0.99633491 -0.085525982 0.0014322584 0.00011063191
-0.49908295 0.018260159 -0.081724003 0.99570018 -0.092357971 -0.0071530896 0.0019742171
-0.46563599 0.01834562 -0.082309432 0.99981296 -0.019320328 0.0008663584 0.00021115443
0.13971001 0.015609346 -0.081671402 -0.99996728 0.008071295 -0.00051491626 1.4866814e-05
-0.49839306 0.022299506 -0.087448046 0.99481028 -0.10170884 -0.0028104282 0.0016505218
-0.46552145 0.026296521 -0.084595688 0.99900103 -0.044565763 0.0032716496 0.00043776724
0.13982418 0.023538129 -0.083436862 -0.99993128 -0.010937133 0.004230821 0.00043147444
0.16981705 0.027665487 -0.088888139 -0.9957118 -0.092509396 1.7107692e-06 0
-0.49682114 0.031503528 -0.085884318 0.99038607 -0.13833025 -0.00032494153 0.000634133
-0.46535704 0.037717752 -0.085253417 0.99696523 -0.077741981 -0.004075808 0.00098428223
0.13982654 0.03332819 -0.085280359 -0.99802613 -0.017183019 -0.060403533 0.14532933
0.16910765 0.035300739 -0.083598517 -0.99665254 -0.08110027 -0.010312183 0.14684424
-0.49535266 0.040101804 -0.080584854 0.98572481 -0.16836448 6.6633966e-06 0
-0.46445566 0.047050282 -0.084892154 0.98812902 -0.1534005 0.0083301421 0.0025975171
0.16858225 0.040955685 -0.08821594 -0.99736369 -0.072383083 -0.0051375921 0.095423445
-0.4622961 0.05466935 -0.081750698 0.97832179 -0.20679231 -0.011111846 0.0022614917
0.13473004 0.05633416 -0.08347936 -0.97184151 -0.23563495 0.00054881856 4.9868235e-05
-0.45816225 0.069253914 -0.089404255 0.96209323 -0.2727209 -3.8889062e-05 3.4898254e-05
0.16670181 0.061195072 -0.086707428 -0.99200147 -0.12606762 -0.0063273464 0.00084949855
-0.48939416 0.074990191 -0.088377453 0.98372185 -0.17969573 -0.00086608657 0.00027205847
-0.45712137 0.072926112 -0.087679148 0.96210063 -0.27269468 -1.2186655e-05 0
0.13092005 0.071418703 -0.082560025 -0.96955216 -0.24488488 -1.7959621e-06 8.5481624e-06
0.16483955 0.076354258 -0.083491996 -0.96878803 -0.24768968 0.0099785933 0.0023471536
-0.45384338 0.084491149 -0.087793604 0.96208501 -0.27274966 -4.7483805e-05 0.00016280703
0.1272271 0.086039916 -0.085278586 -0.96955228 -0.24488452 9.7242664e-06 0
-0.48648372 0.092031352 -0.08913219 0.9659043 -0.25873506 -0.0092160227 0.0015803608
-0.45136213 0.093245156 -0.084465593 0.96170652 -0.27408132 0.0002428499 8.8181851e-06
-0.44967932 0.099182151 -0.086940154 0.96166641 -0.27422225 3.0625088e-05 1.9161766e-05
0.15826079 0.094131276 -0.086202562 -0.93893033 -0.34410509 0.0011872462 8.4327439e-06
-0.48303434 0.10430324 -0.088636003 0.94755024 -0.31949413 0.0084846886 0.0017586723
-0.44826159 0.10418401 -0.085427776 0.9558776 -0.29371497 -0.0054360041 0.00049353682
-0.47780392 0.11567921 -0.088528812 0.92204648 -0.3870759 0.0015887617 0.0006253958
-0.44496003 0.11583211 -0.080586895 0.92743808 -0.37268382 0.031069046 0.0023282003
0.14941397 0.11803697 -0.087142803 -0.93017054 -0.36661482 0.019398313 0.086735502
0.15032732 0.11556894 -0.084040612 -0.93784606 -0.34705168 -5.8796982e-06 0
-0.4429661 0.12181928 -0.083997414 0.93605 -0.35151157 0.015810631 0.12883262
0.11201956 0.12790518 -0.084259868 -0.88220483 -0.47086594 -0.00010492244 0.00034933214
0.14790913 0.12210333 -0.088601388 -0.94007671 -0.3405337 0.017105453 0.06392061
-0.43285862 0.13875797 -0.087443419 0.86464769 -0.50237632 0.0015352345 0.00016752983
0.1073141 0.13633321 -0.081456877 -0.87313038 -0.48748681 1.9239135e-07 2.2842316e-06
0.14236191 0.1370929 -0.086049125 -0.93655217 -0.35052794 0.00038983332 1.8214583e-05
-0.46398252 0.14574027 -0.082139499 0.90853566 -0.4178074 -4.1940053e-05 0
-0.4275071 0.14772631 -0.085298665 0.85870802 -0.51246524 7.6520337e-06 0
0.13806441 0.14870556 -0.081870236 -0.91681647 -0.39930734 0.0010797502 0.0013930949
0.14049968 0.14212501 -0.088716321 -0.92748612 -0.37384292 -0.0033187701 0.00084368256
-0.46105084 0.15211663 -0.086126842 0.90855819 -0.41775826 -3.0798059e-05 0.00016242641
-0.45821327 0.15828812 -0.089793466 0.9085269 -0.41782638 -2.5806443e-05 0
0.099324837 0.15064295 -0.080051534 -0.87313646 -0.48747587 -1.3615141e-06 5.5329298e-07
-0.4539237 0.1676178 -0.081100278 0.89126486 -0.45341572 -0.0078118253 0.0011399841
0.12790596 0.16712013 -0.08630906 -0.85008323 -0.52660197 0.0069848597 0.0014069362
-0.45144343 0.17301239 -0.086567342 0.87617224 -0.48193139 -0.0080126505 0.001437391
-0.41082108 0.17568959 -0.084605478 0.83573282 -0.54902893 -0.010858071 0.00097255543
-0.40822032 0.18004817 -0.084859625 0.82949257 -0.55834514 -0.01388416 0.00086953561
0.11236186 0.18906724 -0.087118365 -0.81605566 -0.57797331 8.1019789e-07 0
-0.43728024 0.19299735 -0.08538004 0.78656578 -0.61750656 -8.5803891e-05 0.00040303284
-0.4007448 0.19120193 -0.083960406 0.76274484 -0.64325416 0.066666193 0.071981788
-0.39743942 0.19441345 -0.086099058 0.74896938 -0.66257483 0.0062853708 0.0017184389
0.1056518 0.19854137 -0.083789386 -0.8160513 -0.57797939 9.6956292e-06 0
-0.38366234 0.2077994 -0.086383909 0.69748205 -0.71660227 0.00021188334 6.4107935e-06
0.060132541 0.20446029 -0.086359352 -0.71721685 -0.69685012 -5.7417054e-07 5.3014708e-07
0.1037901 0.20116997 -0.086114153 -0.81606114 -0.57796568 1.2762071e-05 8.8088827e-06
-0.42057699 0.21312229 -0.081922509 0.7996887 -0.60039717 0.0046054902 0.099438503
-0.41688728 0.21756785 -0.086134113 0.76946688 -0.63868672 -9.975086e-06 1.1794315e-05
-0.37957287 0.2117728 -0.081322879 0.69691122 -0.71715742 -1.5182555e-05 0
0.047617674 0.21734083 -0.083003297 -0.71723819 -0.69682807 -2.0830772e-05 1.8933637e-05
0.051359598 0.21348956 -0.089182675 -0.71722871 -0.69683778 -7.8217972e-06 1.1873495e-05
0.095935486 0.21226013 -0.082858361 -0.81072515 -0.58542466 0.0016323561 0.00018132295
-0.41329336 0.22189796 -0.084298879 0.76947749 -0.63867402 -2.095994e-06 6.6336761e-06
-0.36599767 0.22496262 -0.0830395 0.69661987 -0.71744043 -4.6755616e-05 0
0.037271328 0.22798946 -0.088849083 -0.70215559 -0.71202201 -0.0014259671 0.00042864383
0.086890824 0.22503051 -0.084646344 -0.74987239 -0.66149753 0.010601597 0.0024928008
-0.40040034 0.23743218 -0.081345215 0.73689061 -0.67598397 0.0061678402 0.0014798415
-0.35070845 0.2398178 -0.084270589 0.63334107 -0.77374321 -0.014162078 0.0021901701
0.031172616 0.2342664 -0.084058434 -0.7211265 -0.69279575 -0.0032597277 0.063011885
0.074465625 0.23699294 -0.080100551 -0.67050636 -0.74186122 0.0079427594 0.0012930888
-0.3965477 0.24207398 -0.085664831 0.7286557 -0.68487078 -0.0035811141 0.0015048797
-0.34683028 0.24358587 -0.080319889 0.66824096 -0.74140024 -0.061478652 0.1162055
0.019094225 0.24366823 -0.08800932 -0.58986652 -0.80737168 0.014441824 0.0021616905
0.069299489 0.2412807 -0.086795628 -0.64706004 -0.7624374 0.0015658996 0.00016558837
0.070802644 0.24003312 -0.084763691 -0.64758319 -0.76199049 0.0025471502 0.00013155912
-0.38592711 0.25173491 -0.08564508 0.63684571 -0.77096462 -0.0064115482 0.0019993407
-0.37888533 0.2567223 -0.086796403 0.60668349 -0.79489535 -0.0087505868 0.00090011558
-0.33206794 0.25236121 -0.085803039 0.50244105 -0.86460942 -0.0019066716 0.00024648703
-0.32036817 0.25889334 -0.082408562 0.48858216 -0.87251776 0.00039248652 0
0.048852447 0.25825128 -0.083268948 -0.62696719 -0.77901793 0.0065828902 0.093867868
0.05327566 0.25458014 -0.082031876 -0.63866609 -0.76948404 -1.8221583e-05 1.7461305e-05
-0.36211729 0.26859829 -0.08514645 0.59006888 -0.80632079 -0.040809695 0.071897484
-0.31540638 0.26166353 -0.08457908 0.48760858 -0.87306237 4.1008916e-05 0
-0.30919015 0.2651341 -0.080480494 0.48745537 -0.8731479 2.6570258e-05 0
-0.017108332 0.26527065 -0.084335826 -0.51242959 -0.85872924 2.6543685e-05 1.016582e-05
0.036568731 0.26844651 -0.084834874 -0.63868731 -0.7694664 -2.111393e-05 3.2417054e-05
0.044256397 0.26206595 -0.085423797 -0.63866949 -0.76948118 5.045742e-06 0
-0.35946745 0.27047503 -0.087540507 0.58635485 -0.80985689 0.017879365 0.069613628
-0.34645128 0.27969375 -0.083371341 0.57791859 -0.8160944 1.8749075e-05 4.4090302e-05
-0.28336525 0.2795524 -0.086068749 0.42433134 -0.90549421 -0.0048123416 0.0020520207
-0.0410158 0.27953646 -0.0858882 -0.4549349 -0.88766688 -0.071286239 0.10221048
-0.027220439 0.27130464 -0.08717972 -0.50507903 -0.86306608 0.0034768535 8.7793858e-05
0.025358893 0.27775043 -0.080081254 -0.5867303 -0.80975461 0.0067147072 0.0015881921
-0.34507984 0.2806651 -0.088470846 0.57799643 -0.81603926 -1.0676928e-05 0
-0.33198979 0.28993613 -0.080909356 0.54622906 -0.83763134 0.0027244762 0.0010901919
-0.28150353 0.28059182 -0.084090792 0.40233421 -0.91530889 0.018353492 0.0025176657
-0.26737547 0.28585577 -0.08877252 0.30473009 -0.95243853 -0.00059878686 0.0010913366
-0.25666475 0.28856105 -0.08172296 0.26555499 -0.96409261 0.0024438289 0.00042158429
-0.072429165 0.28885388 -0.083324261 -0.27271205 -0.96209568 8.4036679e-07 0
-0.062026061 0.28590524 -0.082516789 -0.28727764 -0.95783681 0.0045013963 0.00018833039
-0.055287872 0.28399533 -0.082333699 -0.31668091 -0.94851047 0.0064055016 0.0014020402
0.0087014455 0.28874335 -0.080201477 -0.46382612 -0.88591421 -0.0046199746 0.0012462466
0.010753127 0.28780001 -0.082516074 -0.48688617 -0.87341505 0.0093775103 0.0020029866
-0.3305338 0.29096732 -0.080368817 0.53537345 -0.84461546 -2.0781088e-05 0.0015934613
-0.32620752 0.29403141 -0.082951069 0.52516502 -0.85096872 0.0073506655 0.0018292785
-0.31965619 0.29840633 -0.080991983 0.46657461 -0.88444775 0.0077613653 0.0021296015
-0.23556304 0.29389083 -0.082006916 0.24488723 -0.96955162 1.2151313e-05 0
-0.22725214 0.29598996 -0.084828235 0.24496257 -0.96953255 -2.5990035e-05 0
-0.21780096 0.2983771 -0.08686886 0.22983353 -0.97320181 0.0073971436 0.00012252232
-0.10148758 0.29709026 -0.081517339 -0.25307643 -0.96743619 -0.0044332747 0.00038666057
-0.093118683 0.29471818 -0.085371271 -0.27272877 -0.96209097 -4.3789269e-06 5.795528e-05
-0.089893743 0.29380411 -0.08514671 -0.27269459 -0.96210063 2.6432366e-05 0
-0.079268783 0.29079255 -0.089182086 -0.27272379 -0.9620924 -1.7634031e-05 2.679659e-05
-0.01421521 0.29927993 -0.08693859 -0.41773868 -0.90856719 3.9528961e-05 0
-0.0030772174 0.29415894 -0.08509846 -0.42637962 -0.90454423 -0.00040093798 0.00018695486
0.0017412221 0.29194346 -0.08459802 -0.45111382 -0.89245903 -0.0036208911 0.0010464829
-0.31504342 0.30011338 -0.08365646 0.4285197 -0.90349656 -0.0080606798 0.0024905708
-0.30540666 0.30367965 -0.082018286 0.39331123 -0.91940546 5.1086072e-06 0.0018231098
-0.29551846 0.30733898 -0.084407687 0.34704393 -0.93784887 -2.7353396e-06 0
-0.19674216 0.30317554 -0.080368929 0.2323298 -0.96767342 -0.098138042 0.17330627
-0.15379706 0.30255717 -0.084788948 -0.014322956 -0.99989742 3.7266269e-05 0
-0.14869463 0.30248374 -0.089157276 -0.014385972 -0.99989653 -8.8410361e-06 2.077661e-05
-0.13554972 0.30229443 -0.082126737 -0.033762749 -0.99942869 -0.0015582086 0.00037176491
-0.12459149 0.30213666 -0.084916085 -0.088949271 -0.99597275 -0.011240705 0.0018794623
-0.11681899 0.30143583 -0.084497347 -0.19846749 -0.97997725 0.015973998 0.14153515
-0.033135965 0.30797923 -0.085447453 -0.42806822 -0.90351367 -0.020509001 0.079529718
-0.019112041 0.30153134 -0.084924757 -0.41773966 -0.90856683 -6.9299535e-06 0
-0.28412229 0.3115564 -0.084496006 0.34706143 -0.93784243 -1.5374595e-05 0
-0.27526355 0.31483477 -0.082231484 0.34705931 -0.9378432 -4.2619172e-06 0
-0.26611507 0.31822038 -0.085622564 0.34703422 -0.93785244 2.1548453e-06 0
-0.054521613 0.31781188 -0.082203805 -0.36431414 -0.93116492 0.014388083 0.0010355003
-0.047511935 0.31458899 -0.08942762 -0.40347871 -0.91496992 0.0059142583 0.00028044393
-0.03915989 0.3107489 -0.082678467 -0.4177433 -0.90856516 -8.6015198e-06 0
-0.25427255 0.32260296 -0.087564863 0.33840749 -0.94099516 0.0029332975 9.9961704e-05
-0.24951404 0.32436395 -0.083556995 0.30984166 -0.95077538 -0.004933605 0.001283629
-0.23503165 0.32892171 -0.089567602 0.18256015 -0.98319417 -0.0010405543 0.0019970045
-0.10934348 0.32979482 -0.081234396 -0.17220874 -0.9848246 -0.021557484 0.13589826
-0.09723708 0.3277272 -0.081594467 -0.16834505 -0.98572814 1.9458226e-05 0
-0.08629702 0.32585877 -0.086967275 -0.17379299 -0.98477793 -0.0029266942 0.00010951183
-0.076555565 0.32419503 -0.08612594 -0.21214415 -0.9772312 0.0037406078 0.00081655063
-0.063573003 0.32197353 -0.082961351 -0.32598266 -0.94535464 0.0063067712 0.0019752833
-0.20558716 0.33165741 -0.085620157 0.092514977 -0.99571127 7.623968e-06 0
-0.19428748 0.33270726 -0.083925158 0.13368075 -0.99102265 -0.0018875033 0.11122963
-0.18555546 0.33351853 -0.089111596 0.092513025 -0.99571151 -1.8505036e-06 1.7541601e-05
-0.17802535 0.33421814 -0.08478111 0.092540868 -0.99570888 -3.8941507e-06 0
-0.15531866 0.33632782 -0.085301876 -0.0070180767 -0.99997318 -0.0021139178 0.0023867628
-0.13567576 0.33429205 -0.085325941 -0.12817842 -0.99175107 0.00030039306 0.00079392706
-0.12594217 0.33262965 -0.0823761 -0.15940589 -0.98721302 0.00046694532 0.00015195699
-0.11537575 0.33082506 -0.084523104 -0.18871163 -0.98147637 -0.033047426 0.11005279
-0.20535527 -0.33179578 -0.077126384 0.16839783 0.98571914 -5.0443214e-06 0
-0.19528085 -0.33351636 -0.074953884 0.14374265 0.98959923 -0.0056076357 0.00048478073
-0.18354966 -0.33551991 -0.073875703 0.073051438 0.99732816 -3.015692e-05 0.0022306091
-0.17512043 -0.33656758 -0.073694028 0.024562204 0.99966931 -0.0076087113 0.0022849536
-0.15480298 -0.33481404 -0.07583005 -0.081925713 0.99663812 0.00079679542 0.00021867141
-0.14674062 -0.33406496 -0.078684404 -0.091463841 0.99580836 -0.00014978633 1.3156808e-05
-0.13677981 -0.33313951 -0.077513307 -0.092558183 0.99570727 -1.8599914e-05 8.2981685e-05
-0.12826401 -0.33234829 -0.0754802 -0.092567742 0.99570644 -3.062317e-05 5.489981e-05
-0.26229531 -0.32189447 -0.075874463 0.28648242 0.95793533 -0.01696207 0.0030156274
-0.24095401 -0.32571596 -0.077977926 0.18331304 0.98305333 0.0015902813 0.00029382246
-0.22999567 -0.32758749 -0.072305083 0.16836013 0.98572558 -7.7019577e-06 0
-0.10164732 -0.32987535 -0.078098089 -0.12007163 0.9927637 0.0017434079 0.00072379649
-0.085969076 -0.32771981 -0.074948214 -0.28104192 0.95969468 0.0012479417 0.0012478213
-0.076237604 -0.32411849 -0.071547359 -0.3022162 0.95322704 0.0048575713 0.0010802941
-0.06735079 -0.32082972 -0.071976304 -0.34707808 0.93783623 -5.1212275e-05 5.4009564e-05
-0.28582323 -0.31140721 -0.076065123 0.4140386 0.91025889 -0.00093010097 4.5535231e-05
-0.27256143 -0.3175047 -0.076640666 0.36835426 0.92965001 0.0081221843 0.0013795432
-0.2695511 -0.31888878 -0.077528834 0.33506292 0.94219464 -0.0014907576 0.002751159
-0.061737217 -0.31875229 -0.076025009 -0.3471002 0.93782806 3.0996998e-05 3.9911964e-05
-0.050766099 -0.31469223 -0.079589367 -0.34707153 0.93783867 2.5797446e-05 0
-0.043810502 -0.31211814 -0.072964177 -0.35765707 0.9336046 0.021538459 0.081080489
-0.30070314 -0.30456573 -0.078383267 0.36257774 0.93114936 0.038708016 0.071354955
-0.21405254 -0.30017263 -0.075919524 0.20831804 0.97796267 -0.013877131 0.0017094462
-0.20905386 -0.30158946 -0.078042381 0.14525256 0.98939449 0.00044396438 0.0024209311
-0.19731668 -0.30220151 -0.07105729 0.093624003 0.99559528 -0.0049564228 0.0018070769
-0.16801965 -0.30262339 -0.079873018 0.014406072 0.99989617 -5.1318912e-06 0
-0.14634627 -0.30293545 -0.076680928 -0.0089736376 0.99995959 0.00050942076 0.00034750099
-0.033284042 -0.30822259 -0.070030257 -0.3470605 0.93784273 -1.1130035e-05 0
-0.028437501 -0.30642903 -0.072532028 -0.35857099 0.93349326 0.0041451519 0.00016985091
-0.32538927 -0.29321563 -0.076680191 0.44798779 0.89399368 -0.0090628592 0.00033478707
-0.31311196 -0.29886046 -0.071159348 0.41782507 0.90852749 -2.7200174e-05 0
-0.24394448 -0.29170001 -0.074372262 0.27270234 0.96209842 8.8118186e-06 0
-0.23493764 -0.29425293 -0.073850915 0.27275887 0.96208239 -7.0806031e-08 0
-0.22403021 -0.29734454 -0.078458779 0.24999462 0.96824086 -0.0035106579 0.00056457397
-0.21750341 -0.29919448 -0.078667119 0.23915888 0.97095644 -0.006832846 0.00087048818
-0.10171597 -0.29663485 -0.078999236 -0.2448929 0.96955019 1.3633567e-05 0
-0.087202549 -0.29296911 -0.076626316 -0.24489273 0.96955019 -7.3307765e-06 2.4286053e-05
-0.075906321 -0.29011595 -0.075513035 -0.24489388 0.96954989 1.9876834e-06 0
-0.0037751598 -0.29628593 -0.077489197 -0.47753152 0.87860054 -0.0049817977 0.0025465772
-0.34694302 -0.28175989 -0.075535923 0.56000412 0.82847244 -0.0053660306 0.002373687
-0.33319902 -0.28962487 -0.073106289 0.47303289 0.88093889 -0.013661644 0.0010211885
-0.27478105 -0.28295964 -0.076667562 0.33627766 0.94171154 -0.0098341517 0.0017563401
-0.26698554 -0.28516921 -0.07585644 0.28452224 0.95866299 -0.0035201523 0.00014236635
-0.25426012 -0.2887761 -0.076885618 0.27279598 0.9620719 1.4469616e-05 3.9245235e-05
-0.070100024 -0.28864944 -0.07021682 -0.26712358 0.96366102 -0.0015738028 0.00032327767
-0.064984277 -0.28735733 -0.071279436 -0.27683708 0.96090794 -0.0041341321 0.00067223463
-0.054072425 -0.28460127 -0.071952969 -0.3634882 0.93159467 -0.0027862804 0.085142046
0.0094471676 -0.2871936 -0.072962075 -0.55827606 0.82964563 0.0040038913 0.00051874598
0.016520534 -0.28218386 -0.07135959 -0.57702029 0.81672955 0.00073191931 0
-0.35627872 -0.27401143 -0.076374412 0.6237753 0.78160363 0.00046202997 0.00070217071
-0.29610437 -0.27314851 -0.07441324 0.47791749 0.87839794 -0.003453884 0.0013914314
-0.28783005 -0.27808589 -0.072491914 0.43502182 0.90036374 -0.010051584 0.0019547844
-0.043809809 -0.27997681 -0.076264359 -0.41046706 0.91186327 -0.0047177919 0.0018133562
-0.035122171 -0.27512643 -0.073336504 -0.46917129 0.88309604 0.0044342019 0.0003599388
-0.029688265 -0.27209264 -0.078514099 -0.48284784 0.87570351 -0.0011853517 6.844465e-05
-0.3706224 -0.26210648 -0.076937109 0.63868618 0.76946735 3.1074407e-05 0
-0.366207 -0.26577118 -0.0746684 0.63863659 0.76950848 -8.573692e-06 2.3037648e-05
-0.31732321 -0.26048702 -0.074434191 0.51246315 0.85870934 -7.5537328e-06 0
-0.30697125 -0.26666415 -0.072376132 0.51172173 0.85915118 0.00040518655 0
-0.022339823 -0.26798993 -0.077253751 -0.48748752 0.87312996 -1.0992592e-05 1.2023995e-05
-0.016112192 -0.26451299 -0.073157556 -0.48747501 0.87313694 9.6004396e-06 0
0.047155458 -0.26048663 -0.073350877 -0.58281118 0.81260651 0.0013604311 5.0030379e-05
-0.38021028 -0.25414875 -0.074762464 0.63859165 0.76954585 2.3375775e-07 1.6637874e-05
-0.32918024 -0.2534118 -0.075578585 0.51238352 0.85875678 -7.4056061e-07 2.3918014e-05
-0.0025257892 -0.25692758 -0.076276541 -0.48913977 0.87220532 -0.00029016979 3.2405692e-06
0.0014477301 -0.25470909 -0.076327384 -0.50460875 0.86334318 0.0029380228 0.0004782191
0.049380928 -0.25891045 -0.075119823 -0.59152877 0.80628306 0.0011469623 0.00034089651
0.051736072 -0.25724241 -0.073252261 -0.59253836 0.80554134 0.0011641125 0.00034330031
-0.39233351 -0.24408676 -0.072707877 0.64736283 0.76218146 -0.00087906537 0.00024065739
-0.33580452 -0.24945906 -0.076624475 0.52439135 0.85147727 -0.00046566292 0.00022748673
0.0099952901 -0.24993691 -0.076685444 -0.53338665 0.84587103 -0.00092121511 0.0014179155
0.019345213 -0.24462566 -0.078284338 -0.59867042 0.79905438 -0.055729199 0.10117871
0.066178016 -0.24608585 -0.077484451 -0.67023146 0.74210745 0.0081438515 0.0020250096
0.071294971 -0.2406738 -0.073045403 -0.71790916 0.69602656 0.012390004 0.0019038948
-0.40603167 -0.23271759 -0.075328372 0.70188916 0.71164656 -0.030180445 0.0017545915
-0.35646269 -0.23542407 -0.070547149 0.63712829 0.77073663 -0.0057032043 0.0016136904
0.025370734 -0.23877122 -0.073004954 -0.64435089 0.76472974 0.00062037585 0.0023792621
0.033802148 -0.23057914 -0.074846104 -0.68809265 0.72562206 -0.0010546602 0.00016884018
0.076996341 -0.23380446 -0.075961009 -0.75688225 0.65353662 -0.0043716384 0.00043523297
-0.41243923 -0.22625393 -0.073267467 0.75053 0.6607731 -0.0091468291 0.0023208281
-0.36715147 -0.22442296 -0.079140991 0.71716774 0.69690067 -9.9236274e-07 0
0.087589085 -0.2210418 -0.076440863 -0.76949191 0.63865662 -5.3237995e-06 4.803338e-06
-0.42110974 -0.21401179 -0.073893286 0.8033582 0.59544665 0.0076818382 0.00043218079
-0.37713277 -0.21415003 -0.077395529 0.71710175 0.69696838 2.9070587e-05 0
0.045648359 -0.21906926 -0.078323506 -0.69684923 0.71721768 2.6540827e-06 5.9948718e-07
-0.42650211 -0.20639813 -0.07463865 0.81604707 0.57798535 2.3712271e-05 0
-0.38476577 -0.20629399 -0.077477522 0.71712583 0.69694376 -1.7207054e-05 5.2194271e-05
0.057579495 -0.20747682 -0.074619651 -0.69940645 0.71472418 -6.7034016e-05 3.4952598e-05
0.10144742 -0.20434456 -0.074727237 -0.75916713 0.65089065 -0.0025751707 0.088481642
-0.43243855 -0.19801632 -0.075835302 0.81997401 0.57226521 0.012459089 0.072192818
-0.39347106 -0.19733435 -0.075579196 0.72309297 0.69075072 1.8964329e-05 4.7995039e-05
0.068065941 -0.19728808 -0.075049177 -0.71336222 0.70074409 0.0084921028 0.00029931412
0.07320381 -0.19229609 -0.07249178 -0.76198179 0.64758837 -0.003630833 0.0022200651
0.11278045 -0.19068992 -0.070687309 -0.78532916 0.6190117 0.0090914546 0.00074392627
-0.44494829 -0.18035352 -0.074358374 0.81608057 0.57793808 8.1523576e-06 5.8807236e-06
-0.4050383 -0.18542913 -0.07475429 0.78148156 0.62380344 -0.012479551 0.0025208187
0.077513181 -0.18719214 -0.075743414 -0.79176491 0.61040747 -0.02260795 0.15134177
0.11618738 -0.18658508 -0.076926887 -0.8064397 0.59114581 0.014197594 0.0019542067
0.12047981 -0.18141334 -0.071252376 -0.8447631 0.53493893 0.014688035 0.0022526742
-0.44686162 -0.17765202 -0.075758778 0.81937551 0.57325703 -0.00040288075 0
-0.41418666 -0.17133582 -0.074710108 0.85233033 0.5227291 -0.01695122 0.0010471225
-0.40986422 -0.17907783 -0.075075679 0.83468097 0.55050796 -0.015771391 0.094227947
-0.41679049 -0.16667208 -0.077069283 0.86373562 0.50389469 -0.0071304049 0.0003351004
0.1296768 -0.16290255 -0.074041322 -0.90060282 0.43463966 0.001703934 0.00036037809
-0.45953363 -0.15976006 -0.072697051 0.86992472 0.49316728 0.0041098637 0.0020725748
-0.42376915 -0.15417244 -0.078482829 0.87313163 0.48748446 -1.6043505e-05 3.5073799e-07
0.09640798 -0.15557642 -0.071029693 -0.85874099 0.51240993 -1.3983428e-06 4.6608143e-06
