# .PCD v0.7 - Point Cloud Data file format
VERSION 0.7
FIELDS x y z normal_x normal_y normal_z curvature
SIZE 4 4 4 4 4 4 4
TYPE F F F F F F F
COUNT 1 1 1 1 1 1 1
WIDTH 595
HEIGHT 1
VIEWPOINT 0 0 0 1 0 0 0
POINTS 595
DATA ascii
-0.10470264 -0.45243832 0.22508843 0.33117238 0.94354695 -0.0066394997 0.0018188023
-0.09848243 -0.45502865 0.22689848 0.29419199 0.95560503 -0.016434891 0.0022928673
-0.076074928 -0.45858979 0.22547407 0.1563417 0.98751616 0.019212279 0.00055992301
-0.065634996 -0.45995176 0.22371867 0.13056682 0.99141341 0.0071911789 8.7926228e-06
0.066466615 -0.45986399 0.22676338 -0.13056849 0.99141389 0.007098549 0
0.07676404 -0.45848602 0.22363906 -0.13500872 0.99082059 0.006865547 8.123157e-05
0.084709994 -0.45742667 0.22177964 -0.1833545 0.98301679 0.0076890136 0.001319253
0.09023878 -0.45670977 0.22332424 -0.20823142 0.97804368 0.0083850343 0.0017987221
0.11014849 -0.45016766 0.22313671 -0.34434229 0.93879187 0.0099117607 0.00072557991
-0.13041842 -0.44180244 0.22717853 0.38270167 0.92384481 0.0070802569 0
-0.12594105 -0.44364092 0.22506592 0.38271934 0.92383754 0.007083619 7.2649949e-05
-0.11155099 -0.44960153 0.22507717 0.36944872 0.92925084 0.00069662806 0.00051807816
0.11699744 -0.44733396 0.22355755 -0.37081951 0.9286834 0.006329929 0.00019955572
-0.15359461 -0.43218642 0.22506845 0.38271448 0.92383939 0.0071021696 0
-0.14383164 -0.43620014 0.22111315 0.38267353 0.9238565 0.0070801247 0
-0.13883112 -0.43830001 0.22485334 0.38268855 0.92384994 0.0071188328 0.00010354973
0.13965924 -0.43792638 0.22084241 -0.38275263 0.92382425 0.0070144227 0
0.14817122 -0.43445367 0.22777307 -0.38271233 0.92384052 0.0070758746 9.8508215e-05
0.15441182 -0.43182266 0.22175957 -0.38275427 0.92382354 0.0070273881 2.9332396e-05
-0.17708461 -0.42247748 0.22779807 0.43653345 0.89967108 0.0055344868 0.0014322432
-0.16701266 -0.42663321 0.22568017 0.39632416 0.91808528 0.006821739 0.00031535936
0.16277707 -0.42838731 0.22563352 -0.38416481 0.92323965 0.0067785308 3.4916044e-05
0.17646624 -0.42268515 0.22146349 -0.44513053 0.89542806 0.0082128132 0.0019520355
-0.19190951 -0.41418931 0.22062096 0.54254287 0.83998704 0.0083042346 0.0022021604
-0.1864733 -0.41837499 0.22223182 0.51196676 0.85897285 0.007456684 0.0022195904
0.18321319 -0.41995037 0.22929235 -0.50465983 0.8633129 0.0030442653 0.001877341
-0.20386894 -0.40507123 0.2272108 0.60430676 0.79669148 0.0098001212 0.00014021446
0.19894913 -0.40885612 0.22830978 -0.58785796 0.808945 0.0055690068 0.00036346857
-0.22285253 -0.39050078 0.22678116 0.60881132 0.79328352 0.0070689521 0
0.21504924 -0.39647341 0.2250983 -0.60884744 0.79325581 0.0070694527 0
0.22306508 -0.3903448 0.22757882 -0.60878813 0.79330152 0.0070443829 0
-0.23074393 -0.38442305 0.22426124 0.60873908 0.79333866 0.0071041505 4.9112656e-05
-0.22514553 -0.38871777 0.22413941 0.60881203 0.79328257 0.0071184388 0
0.22475773 -0.38903773 0.22665203 -0.6088084 0.79328579 0.0070724972 7.4217045e-05
0.23898125 -0.37806934 0.22055858 -0.60880619 0.79328769 0.007040293 0
-0.25350162 -0.36697435 0.2258209 0.65040648 0.7595821 0.0025631618 0.0016178128
0.24979626 -0.36983061 0.22728798 -0.63442469 0.7729373 0.0085594961 0.00056393765
0.25313473 -0.36727005 0.22741462 -0.64659745 0.76281804 0.0045222724 0.00094293954
-0.26627105 -0.35544068 0.22519781 0.74259114 0.66959757 0.014059771 0.0017011326
0.26725185 -0.35418376 0.22703156 -0.7487042 0.66290355 0.0010212833 0.0015922521
-0.27482992 -0.34427804 0.22447272 0.77955961 0.62629443 0.0064910008 0.00045920425
0.27543867 -0.343474 0.22354873 -0.78908795 0.61423886 0.0071271155 0.000153143
-0.28368494 -0.33276376 0.226693 0.7933594 0.60871249 0.0070738499 1.7699898e-05
0.27969041 -0.33796698 0.22647384 -0.79322392 0.60888964 0.0070145503 0
0.2821357 -0.33479375 0.22763401 -0.79335773 0.60871458 0.0070792129 2.7721633e-05
-0.2872363 -0.32814115 0.22717728 0.79324096 0.60886723 0.0070293164 0
0.28597492 -0.32974213 0.22348326 -0.79333967 0.60873854 0.0070391996 3.2149961e-05
-0.29521409 -0.31777087 0.22945912 0.79329145 0.60880166 0.0070104795 0
0.29693353 -0.31547111 0.22438991 -0.79333878 0.6087386 0.0071381191 4.8488364e-05
0.30049175 -0.31078956 0.22056563 -0.79327106 0.60882735 0.0070938547 0
-0.30737743 -0.30190229 0.2280004 0.79329461 0.60879689 0.0070804534 6.076581e-06
-0.31343994 -0.2939696 0.22525434 0.82028204 0.57187599 0.0097541064 0.001163021
0.31453562 -0.29254049 0.22515228 -0.80215973 0.59706408 0.0073644617 0.00024696911
-0.3209711 -0.28416008 0.2257074 0.856471 0.51578194 0.020647317 0.0020943165
-0.3186022 -0.28724355 0.22538367 0.83758396 0.54611754 0.014441813 0.0017040271
0.3165217 -0.28990328 0.22094175 -0.82862657 0.55964631 0.013188641 0.0019019122
-0.32492802 -0.27591649 0.22484173 0.89270204 0.45053828 0.009917479 0.0015593809
-0.32784915 -0.26884234 0.22365965 0.90375543 0.42799276 0.0069439742 0.0011393589
0.32906383 -0.26584876 0.22035667 -0.91041404 0.41364038 0.0069247293 0.00065858907
0.33049476 -0.2624709 0.22450846 -0.92364269 0.38319045 0.0070099379 6.700524e-05
-0.33526218 -0.25093362 0.22300251 0.92386419 0.38265499 0.007075476 5.4071115e-05
0.33279502 -0.25689748 0.22341737 -0.9238593 0.38266706 0.0070666899 3.1757041e-05
-0.33980936 -0.24002504 0.22675595 0.92386627 0.38264948 0.007112362 4.0649564e-05
0.3380838 -0.24419822 0.22714698 -0.92385381 0.38268107 0.0070246868 5.598845e-05
-0.34155014 -0.23578422 0.22468917 0.92387027 0.38264135 0.0070136809 0
0.34327206 -0.23171586 0.22948699 -0.92386854 0.38264388 0.0071100802 5.6479905e-05
0.34476471 -0.22802679 0.22485118 -0.92382717 0.38274238 0.0071854056 4.2182048e-05
-0.35081062 -0.21345587 0.22623044 0.92961055 0.36846411 0.0076486231 0.0002806519
-0.34990215 -0.21557386 0.22215083 0.9267301 0.37563187 0.008487056 9.2644703e-05
-0.35346043 -0.20704257 0.2253595 0.93615949 0.35153928 0.0050488813 0.00059132703
0.35570762 -0.2016186 0.22540624 -0.94654846 0.32251528 0.0054816566 0.001661413
-0.35874447 -0.19371782 0.22434127 0.95518482 0.29553294 0.016800394 0.0018492353
-0.36042851 -0.18459857 0.22716388 0.98037028 0.19674477 0.012868892 0.0017442366
-0.36204952 -0.17209098 0.22356492 0.98980516 0.14201219 0.010876563 0.00019258649
0.36161169 -0.17554092 0.22584973 -0.98654622 0.16338935 0.0055325893 0.00069642207
-0.36319685 -0.16344823 0.22489534 0.99141818 0.13053618 0.0070865154 0
0.36295742 -0.16513403 0.2224344 -0.99136841 0.13091329 0.0070963642 0
-0.36390871 -0.15811357 0.2262305 0.99141794 0.13054056 0.0070535913 6.0444101e-05
0.36451894 -0.15320557 0.22118936 -0.99142307 0.13049777 0.0071120774 3.0351202e-05
0.36553073 -0.14593388 0.22882503 -0.99141437 0.13056673 0.007075795 0
0.36689436 -0.13513896 0.22076002 -0.99141639 0.13055404 0.0070129964 0
0.36814213 -0.12581354 0.22355805 -0.99141812 0.13054103 0.0070110299 0
0.36976326 -0.11330847 0.22003868 -0.9948498 0.10080152 0.010621892 0.00090787467
-0.37149459 -0.10067979 0.22966608 0.99956942 0.02920172 0.0028660723 0.0026459184
0.37100154 -0.1039653 0.22118776 -0.99954486 0.028510172 0.0098610278 0.0017986635
-0.37136811 -0.091662399 0.22791576 0.99908656 -0.04184692 0.0086512258 0.0017854251
0.37128958 -0.091070972 0.22782901 -0.99895465 -0.043216061 0.014895873 0.0017094983
-0.36955118 -0.077773742 0.22954571 0.99504632 -0.099228449 0.0060499497 0.00054866006
0.36934736 -0.076550484 0.22354463 -0.99405283 -0.10841528 0.010255594 0.00044202362
-0.36831391 -0.068845145 0.22087629 0.99146771 -0.13015674 0.0071342485 8.2726692e-05
0.36752191 -0.062571593 0.22563015 -0.99141651 -0.13054968 0.0070843445 5.6267007e-05
-0.36670619 -0.056227311 0.22837508 0.99141765 -0.13054024 0.0070947483 3.082534e-05
0.3665399 -0.055408251 0.22016965 -0.99141949 -0.13052171 0.0071749887 0
-0.36503997 -0.043735262 0.22534484 0.99141741 -0.1305428 0.0070811156 3.6164427e-05
0.36511928 -0.04426197 0.22673991 -0.99142593 -0.13048343 0.0069835712 0
-0.36395475 -0.035348102 0.22800636 0.99142069 -0.13051905 0.0070621911 1.581114e-05
0.3638736 -0.034849703 0.22583143 -0.99142027 -0.13052252 0.0070443377 0
-0.36226737 -0.022674249 0.22537021 0.99056989 -0.13688025 0.0059271553 0.00010874819
0.36267081 -0.02579926 0.22423923 -0.99141574 -0.1305467 0.0072389757 1.8200617e-05
-0.36140883 -0.016254151 0.22349927 0.98621428 -0.16493721 0.013307389 0.001206192
0.36165261 -0.017912254 0.22706568 -0.98803753 -0.15375125 0.011937394 0.0005201163
-0.35933003 -0.00032308587 0.22610472 0.96262592 -0.27021077 0.01836866 0.002433707
0.3602024 -0.0071647936 0.22212559 -0.97476286 -0.22324133 -0.00084719178 0.002319013
-0.35819173 0.0023408302 0.22150877 0.9626748 -0.27016768 0.016329933 0.0027921891
0.35718164 0.0048488383 0.22526334 -0.95029712 -0.31130654 -0.0048635816 0.0016054651
-0.35395053 0.012621574 0.22376078 0.94684136 -0.32170066 0.00032738689 0.0016494248
0.35326141 0.014269395 0.22289947 -0.9314236 -0.36393163 0.0019358153 0.00029655159
-0.34930936 0.023839505 0.22446559 0.92427135 -0.38169178 0.0058216671 7.1047914e-05
0.34772262 0.027669588 0.2244314 -0.92385262 -0.3826817 0.0071447999 2.4331533e-05
0.35014498 0.021895804 0.22845414 -0.92465609 -0.38075179 0.0062620738 8.2795261e-05
0.34644789 0.030692207 0.22146058 -0.92385072 -0.38268694 0.0071099624 1.4876974e-05
-0.34050941 0.045094699 0.22502232 0.92385477 -0.38267767 0.0070868907 1.3428496e-05
-0.33920467 0.048158925 0.22038251 0.92385381 -0.38268071 0.0070482679 1.6215992e-05
0.33977279 0.046852108 0.22388655 -0.92385787 -0.38267013 0.0070876814 1.1451497e-05
-0.33761346 0.052121766 0.22694916 0.92382044 -0.38276026 0.0070985067 0.00011149651
0.33734965 0.052762777 0.22716436 -0.92384815 -0.3826952 0.0069920486 0
-0.33278519 0.063747749 0.22529805 0.92385364 -0.38268086 0.0070562498 0
0.33348984 0.061950605 0.220098 -0.92385864 -0.38266867 0.0070629818 0
-0.3286421 0.073806137 0.22833425 0.91531312 -0.40271413 0.0048070829 0.00024546671
0.32728583 0.077020831 0.2250997 -0.90882069 -0.41701987 0.011809024 0.0012772369
-0.32405889 0.084765546 0.22262308 0.89093274 -0.45410639 0.00512332 0.0017595405
0.324117 0.084700868 0.22671387 -0.88739067 -0.46074498 0.015871603 0.0019663249
-0.320858 0.091038667 0.22049071 0.8551138 -0.51840848 0.0057492438 0.002172105
-0.31864321 0.093996435 0.22664472 0.84067756 -0.54142374 0.011020509 0.0019874494
-0.31290939 0.10145257 0.225235 0.80391657 -0.59465218 0.010337466 0.00029276442
0.31371337 0.10034747 0.2202875 -0.82398367 -0.56648839 0.011908473 0.0011905943
-0.30133411 0.11655806 0.22698222 0.79333007 -0.60875142 0.0070083751 0
-0.2995933 0.1187616 0.22137286 0.79334211 -0.60873491 0.0070779375 6.4463261e-06
-0.29629096 0.12311474 0.22563265 0.7933532 -0.60872096 0.0070298496 0
0.29408029 0.1260175 0.2275064 -0.79330164 -0.60878718 0.0071228161 3.2069453e-05
-0.28449088 0.13844752 0.22172242 0.79331493 -0.60876906 0.0071936683 1.4119474e-05
-0.28257594 0.14097275 0.224271 0.79318523 -0.60894018 0.0070045465 9.6675221e-06
0.2771616 0.14800701 0.22239153 -0.78665739 -0.61735409 0.0066363183 0.00014022317
-0.27306753 0.15334219 0.22236809 0.77474779 -0.63221312 0.0085142702 0.00074483745
0.26847523 0.15931186 0.22106344 -0.74205887 -0.67015713 0.015426573 0.0017170425
0.27273321 0.15380837 0.22499129 -0.76478857 -0.64426452 0.0046551405 0.00082816556
-0.26530451 0.16350873 0.22663215 0.72383392 -0.68996 -0.004427772 0.0026302922
0.25861031 0.16986877 0.22836523 -0.6797111 -0.73334116 0.014267944 0.0020714432
0.26660511 0.16179998 0.22544746 -0.73604566 -0.67684084 0.011102306 0.0017753704
-0.24621168 0.17935914 0.22573757 0.61705512 -0.78689182 0.0066556628 0.00011672644
0.24935299 0.1769489 0.22575474 -0.63436788 -0.77301556 0.0049457788 0.00077512459
0.255869 0.17197384 0.22854295 -0.66577113 -0.74613667 0.0053760782 0.0016299906
-0.24087855 0.18342164 0.22239938 0.608724 -0.79335082 0.0070501729 0
-0.23634687 0.1869444 0.22750139 0.60876352 -0.79332036 0.0070560221 0
0.23633207 0.18691978 0.22346194 -0.60879737 -0.79329485 0.0070077688 0
0.24302664 0.18179232 0.22452241 -0.61041856 -0.79204345 0.0075098868 1.5501326e-05
-0.22400135 0.1964267 0.22854088 0.60876405 -0.79331982 0.0070618144 9.1538362e-07
0.2258554 0.19495034 0.22251125 -0.60876256 -0.79332113 0.0070511154 1.2251219e-05
0.20882635 0.20805538 0.22679543 -0.60595971 -0.79545927 0.0075799148 0
0.21330631 0.20459454 0.22418551 -0.6087659 -0.79331791 0.0071232836 2.8281645e-06
-0.20363715 0.21200286 0.22294873 0.60650599 -0.79504049 0.0078210998 6.991093e-05
-0.19528393 0.21843417 0.22537704 0.55090594 -0.83456647 0.0012311353 0.0016554316
0.20188569 0.21340393 0.22935379 -0.59716713 -0.80211055 0.0031913805 0.00014068437
-0.19134447 0.22141746 0.2209343 0.52883214 -0.84863806 0.012250972 0.0021541642
-0.18615676 0.2254543 0.22724058 0.49322122 -0.8698529 0.0094154421 0.0021324502
-0.17546204 0.22995818 0.22999437 0.43280616 -0.90140051 0.012491816 0.0015714847
0.18501462 0.22542933 0.22479264 -0.52307194 -0.85221946 0.010848473 0.0017203069
0.19175333 0.22110437 0.22100756 -0.54762495 -0.83670741 0.0052688019 0.0012588445
-0.17224932 0.23126426 0.22677042 0.41585481 -0.90942061 0.0043447409 0.00096271827
-0.16429454 0.23453797 0.22399256 0.38381562 -0.92338133 0.0072437827 1.6505692e-05
-0.15429525 0.23868717 0.22495377 0.3826499 -0.92386627 0.0070774765 0
0.15442492 0.23862787 0.22421141 -0.38269436 -0.92384827 0.0070274393 0
0.16061094 0.23605348 0.22263527 -0.38460681 -0.92305773 0.006476955 2.358331e-05
-0.1470947 0.2416735 0.22544557 0.38269711 -0.92384642 0.0071208407 9.2046166e-06
-0.13494772 0.24670467 0.22540975 0.38267878 -0.92385459 0.0070526521 0
0.1370106 0.24583256 0.22309303 -0.38266569 -0.9238596 0.0071039447 3.3585729e-05
-0.1241195 0.25116971 0.22277899 0.38271111 -0.92384106 0.0070617492 2.3596556e-06
0.12454925 0.25101694 0.226059 -0.3826912 -0.92384917 0.0070871762 0
-0.095894635 0.2624841 0.22478206 0.23534538 -0.97183329 -0.012349568 0.0022049849
-0.084086567 0.26432508 0.22522604 0.16229138 -0.98674065 -0.0020835516 0.00046728604
-0.074872069 0.26553917 0.22536263 0.13917555 -0.99024385 0.0068735499 0.00017240286
-0.054232735 0.26826403 0.22642812 0.13052586 -0.99142003 0.0070268051 0
-0.048523817 0.26898694 0.22240794 0.13053963 -0.99141794 0.0070556914 0
0.04566792 0.26938617 0.22566603 -0.13053448 -0.99141818 0.0071235378 2.7059348e-05
0.054689664 0.26820433 0.22649321 -0.13051532 -0.99142116 0.0070655877 0
0.066634566 0.26663095 0.2263823 -0.13052265 -0.99142045 0.0070264786 5.5443311e-06
0.074529253 0.26558578 0.22557056 -0.14668946 -0.98916715 0.0055323183 0.00032247047
0.086065903 0.26406103 0.22474225 -0.17602442 -0.98423684 0.017128918 0.00088493101
0.096079826 0.2627683 0.22833338 -0.24228556 -0.9698922 0.024635037 0.0024200541
0.10259435 0.26011711 0.2268808 -0.30359724 -0.95275956 0.0088207265 0.0025949969
-0.032360069 0.27113265 0.22488563 0.1305256 -0.99141973 0.007077585 0
-0.014789848 0.27341616 0.22072315 0.089588493 -0.99597877 0.00022260654 0.0010644533
-0.0081814313 0.27431175 0.22431003 0.050538477 -0.99871904 0.0024711462 0.0017179558
0.0099470709 0.27410796 0.22833183 -0.063214079 -0.99795657 0.0093102492 0.0014173202
0.014393752 0.27347931 0.22226998 -0.085105672 -0.99635041 0.0065526753 0.00099187251
0.020159103 0.27276319 0.22828884 -0.11834285 -0.9929297 0.00924851 0.00032975458
0.038767733 0.27029365 0.22553405 -0.13052782 -0.99141985 0.0070160176 0
0.19693652 0.33940524 0.22963467 0.079404645 -0.37099341 -0.92523438 0.025024084
0.18488567 0.34658059 0.22898339 -0.11754382 -0.28389069 -0.95162469 2.5853225e-05
0.1991166 0.34564331 0.22750472 0.083819337 -0.40902761 -0.90866429 0.027348615
0.20535463 0.34640846 0.2265058 0.24798435 -0.37962615 -0.89128435 0.050788965
0.21291582 0.34610015 0.22566357 0.32895011 -0.43932945 -0.83593148 0.053964071
0.15926823 0.35584843 0.22938403 -0.70495546 -0.030833557 -0.70858103 0.10480987
0.16345929 0.35855997 0.22805746 -0.61361748 -0.12605081 -0.77947724 0.0907887
0.18421569 0.35619307 0.22619903 -0.14910173 -0.25939709 -0.95419174 0.0091300625
0.1969272 0.35166872 0.22597802 0.030893901 -0.36132464 -0.93192816 0.020414805
0.20567198 0.35161173 0.22491461 0.17542069 -0.38664305 -0.90539205 0.049934205
0.21996543 0.3598353 0.22069581 0.43120167 -0.42173758 -0.7976231 0.063743129
0.16037926 0.36556888 0.22645289 -0.78612053 0.094315514 -0.61083484 0.095253892
0.17582838 0.36496294 0.22461945 -0.41786981 -0.17948975 -0.89059991 0.076517969
0.18798204 0.36467057 0.22320509 -0.15753676 -0.27519983 -0.94839191 0.0089890929
0.19291036 0.36426193 0.22271809 -0.11826356 -0.28391173 -0.9515292 0
0.2040109 0.36437586 0.22131267 0.06417951 -0.34836042 -0.93516093 0.030103676
0.21322107 0.3639423 0.22030406 0.24673872 -0.35770813 -0.90064692 0.065838486
0.22523767 0.36790693 0.2247708 0.61932951 -0.40347177 -0.67352915 0.066051602
0.16561037 0.37369061 0.22342238 -0.64015412 0.088998742 -0.76307398 0.10647017
0.17199709 0.37495083 0.22211371 -0.46893626 0.045056086 -0.88208199 0.096936621
0.18731661 0.3732067 0.22074124 -0.20979312 -0.19074674 -0.9589591 0.028778469
0.19123974 0.37365368 0.22012323 -0.11815958 -0.2837826 -0.9515807 4.9108919e-05
0.16803414 0.38009194 0.22106987 -0.51952469 -0.01821721 -0.85426122 0.096440166
0.17089948 0.3804498 0.22060914 -0.47757027 -0.029576378 -0.87809563 0.094076648
0.23233899 0.38505107 0.22688875 0.83436835 -0.4843078 -0.26320201 0.045781374
0.17362033 0.39753559 0.22870587 -0.90051246 0.25555852 -0.35180575 0.079027891
0.23633723 0.39470366 0.22603917 0.85148698 -0.43998495 -0.2852774 0.058101572
0.17697662 0.40563846 0.22720835 -0.93125218 0.26985499 -0.24484207 0.052880414
0.23945738 0.40223643 0.22890772 -0.90043026 0.42957407 0.068494357 0.0085282205
0.24153544 0.40725327 0.22748685 -0.8893038 0.44225708 0.11639353 0.021470547
0.18230256 0.41849643 0.22750962 -0.92967671 0.32605687 -0.1714296 0.046714745
0.24394104 0.4130609 0.22083342 0.85157853 -0.49128863 -0.18289222 0.047829568
0.18536851 0.42589822 0.22968993 -0.93626302 0.34109521 -0.08405716 0.016240004
0.24867272 0.42448437 0.22642212 -0.92390907 0.38261211 -3.1562198e-05 0
0.25156426 0.43146524 0.2268109 -0.92384773 0.38276023 4.4244687e-05 2.1617339e-05
0.25707376 0.44476628 0.22724235 -0.95702404 0.28582394 0.049088825 0.013497263
0.19692366 0.45379493 0.22445154 -0.92245251 0.38610005 -0.0028385692 3.2796928e-05
0.20315962 0.4688499 0.22591901 0.86487824 -0.47337171 0.16704756 0.035775509
0.26515746 0.46428198 0.22367236 -0.98228586 -0.14454289 0.11925556 0.089062355
0.20524903 0.47389412 0.22439432 0.84572029 -0.49677578 0.19486165 0.040150501
0.25942349 0.47902465 0.22885887 -0.6395157 -0.68677998 0.3454749 0.07012099
0.26109177 0.47227994 0.22026442 -0.7157957 -0.52546096 0.459921 0.077710725
0.21148136 0.4889403 0.22120699 0.46613419 -0.77166605 0.43272448 0.089578167
0.23576963 0.48772031 0.22720882 -0.17983176 -0.89567637 0.40672398 0.032975778
0.24330139 0.48279929 0.22451191 -0.33343872 -0.79530346 0.50627184 0.013314296
0.21718532 0.49330637 0.22404698 0.23215774 -0.88096631 0.41231182 0.077244125
0.22339056 0.49234489 0.22645566 0.017821807 -0.90212113 0.4311147 0.052085012
-0.055390552 -0.46137506 0.23417649 0.13049091 0.99142426 0.007079551 8.9689065e-06
-0.042490676 -0.46307716 0.23470466 0.13053267 0.9914183 0.0071343845 7.3670388e-05
-0.032349601 -0.46442318 0.23623431 0.13051334 0.99142194 0.0069919387 0
-0.022948109 -0.46566334 0.23657721 0.12743448 0.9918257 0.0065116771 0
-0.015190117 -0.46667314 0.23495325 0.10636105 0.99431056 0.0058193309 0.00024882276
-0.0044858926 -0.4680917 0.2362545 0.030008424 0.99954963 0.00014041761 0.0020297426
0.007505442 -0.46770203 0.23736216 -0.039474379 0.99918437 0.0085097309 0.0017958399
0.018308157 -0.46627504 0.23668669 -0.11786004 0.99300969 0.0063765347 9.8460267e-05
0.022847388 -0.46567833 0.23681854 -0.11887893 0.99289012 0.0060843504 8.8988796e-05
0.056080986 -0.46127424 0.23278236 -0.13057134 0.99141353 0.0071006315 0
-0.10489699 -0.45243663 0.23538837 0.32836723 0.94432825 -0.020472182 0.001656742
-0.095658869 -0.45605576 0.23167592 0.23285896 0.9721815 -0.025294108 0.0020381419
-0.086776465 -0.4572717 0.23820567 0.19879638 0.98003739 0.0025974154 0.0013729652
-0.07655102 -0.45860305 0.23611991 0.15928818 0.98714834 0.01285936 0.00051389274
-0.066809326 -0.45986825 0.23368579 0.13051011 0.99142224 0.007014486 0
0.067647047 -0.45978519 0.237506 -0.13212742 0.99121094 0.0065777735 6.1181468e-05
0.07222192 -0.4591729 0.23610571 -0.13251586 0.99115855 0.0066520073 0.00017560591
0.093725659 -0.45630807 0.23136379 -0.22040138 0.97540826 0.0013774213 0.0019444801
0.10331994 -0.4531033 0.23714709 -0.32035765 0.94722515 0.011640668 0.0010180798
-0.1293477 -0.44229186 0.23317114 0.38268229 0.9238537 0.0069744526 0
-0.11560489 -0.44800264 0.23556688 0.38194737 0.9241575 0.0070128622 0.00011886094
0.12347072 -0.44471607 0.23184723 -0.38270921 0.92384166 0.0070843832 0
-0.15486731 -0.43174171 0.23584363 0.38269299 0.92384821 0.0071131294 4.0066083e-05
-0.13772358 -0.4388521 0.23704596 0.38268277 0.92385346 0.0069708326 0
0.13616829 -0.43949413 0.23675418 -0.38273275 0.92383289 0.0069624814 0
0.14505354 -0.43581262 0.23661238 -0.38261956 0.92387909 0.0070585469 3.3575336e-05
0.15182452 -0.43300897 0.23673692 -0.38272896 0.92383361 0.0070761908 1.8959081e-05
-0.17659707 -0.42272288 0.23347309 0.43684113 0.89952761 0.0044546695 0.0013359917
-0.16730672 -0.42659584 0.23670952 0.38974047 0.9208957 0.0073028984 0
0.17331745 -0.42410204 0.2361777 -0.41450229 0.90995723 0.012870359 0.0011540828
-0.19401352 -0.41269943 0.2346002 0.56231457 0.826877 0.0087523144 0.0014026784
-0.18612075 -0.41835982 0.23505305 0.50709951 0.86188668 0.0012097172 0.0022549385
0.18609528 -0.41854355 0.23607202 -0.50938129 0.86049342 0.0090432987 0.0019357828
-0.20508063 -0.40423667 0.23789449 0.60776275 0.79408634 0.0071643242 9.6051481e-05
-0.19872659 -0.40908641 0.23499112 0.56848061 0.8226918 0.0028451162 0.0012862525
0.20514219 -0.40416527 0.23519047 -0.60453254 0.79654169 0.0078549879 0.00018157896
-0.21265641 -0.39843318 0.23897189 0.60875225 0.79332876 0.0070834556 0
0.21741498 -0.39474517 0.2348617 -0.6087631 0.79332155 0.0069694649 7.1899813e-05
-0.23333508 -0.38253462 0.23546261 0.60878772 0.79330176 0.0070485668 2.2938235e-05
-0.24419884 -0.37421069 0.23682427 0.60879236 0.79329771 0.0071132109 6.0823255e-05
-0.23843025 -0.37861812 0.2346947 0.60881668 0.79328001 0.0070023332 0
0.24484108 -0.37367508 0.23202658 -0.61718333 0.7867555 0.010016514 0.00018202032
-0.25693515 -0.36443225 0.23620644 0.66858578 0.74330938 0.022005998 0.002210266
0.26093283 -0.36136058 0.23573789 -0.68705153 0.72601914 0.029265501 0.0014518711
-0.26950949 -0.35132712 0.23439802 0.76323068 0.64595819 0.014729213 0.0010601494
0.26651055 -0.35524014 0.23480704 -0.72452801 0.68880773 0.024558678 0.0023771594
-0.27189088 -0.34823209 0.23513101 0.77180976 0.635584 0.018511454 0.00083284901
0.27201313 -0.34804893 0.233077 -0.77419001 0.63288772 0.0091101071 0.00098115904
-0.28395194 -0.3325606 0.23916054 0.79337966 0.60868645 0.007034108 7.3966519e-05
0.28174794 -0.33539206 0.23564158 -0.79339796 0.60866249 0.0070397938 0
0.28808141 -0.32712078 0.23414321 -0.79337633 0.60869074 0.0070387353 1.0905352e-05
-0.29368117 -0.31986961 0.23816217 0.79339921 0.60866076 0.0070534404 2.3110157e-05
0.29400164 -0.31941444 0.23492736 -0.79337174 0.60869515 0.0071690427 9.1736743e-05
-0.30583304 -0.30397853 0.23347194 0.79333103 0.60874861 0.0071385568 0
0.30460057 -0.30556124 0.23145345 -0.79334021 0.60873711 0.0070992787 5.9781109e-06
-0.31180122 -0.29623052 0.23604204 0.80439609 0.5940153 0.0096282661 0.0004394401
0.31400895 -0.29331911 0.23310129 -0.80270189 0.59627545 0.011186237 0.00023430087
0.31744182 -0.28885645 0.23405574 -0.84081966 0.54126948 0.0070368168 0.0019027835
0.32230741 -0.28231782 0.23883381 -0.86758441 0.49708295 0.014347921 0.0018227558
-0.32490835 -0.2761648 0.23571265 0.88604063 0.4634833 0.010733607 0.0019886687
0.32359281 -0.2793656 0.23705804 -0.88969463 0.45625082 0.016693758 0.001254349
-0.33383656 -0.25462684 0.23661599 0.92384613 0.38269806 0.0071156537 0
0.33411565 -0.25387672 0.23248683 -0.92385286 0.38268399 0.0069920458 0
0.33764082 -0.24539977 0.23429824 -0.92382658 0.38274711 0.0070109456 0
0.3399412 -0.23983067 0.23345369 -0.92388374 0.38260695 0.0071207969 0.00012115192
0.34060642 -0.23825386 0.23503135 -0.92386848 0.38264474 0.0070820702 7.9607118e-05
-0.34732598 -0.22205172 0.23614343 0.92387205 0.38263625 0.0070734909 6.5157328e-05
0.34682712 -0.22324881 0.23574564 -0.92385972 0.38266662 0.0070296838 1.7920764e-05
-0.34918177 -0.21753472 0.23415393 0.92458004 0.38091195 0.0076006604 0
0.34840727 -0.21941541 0.23473768 -0.92396295 0.38241717 0.0070400452 0
0.35031554 -0.21481663 0.23516686 -0.92398882 0.38235363 0.0070946566 4.1855539e-05
-0.35275733 -0.20892748 0.23550764 0.9361676 0.35147667 0.007370689 0.00048534278
0.35486898 -0.20382671 0.23533694 -0.94038987 0.3400881 0.0026352571 0.00095353369
0.35837689 -0.19513185 0.23361588 -0.96369064 0.26688531 -0.0085147629 0.0019990995
-0.36033124 -0.18551917 0.23052123 0.97649944 0.21485443 0.016924731 0.0021221903
-0.36145863 -0.17711897 0.23353086 0.98948735 0.14431736 0.0093433177 0.00019266797
0.36232883 -0.17048824 0.23313341 -0.9908933 0.13448273 0.006701896 2.2358101e-05
-0.36305335 -0.16508277 0.23494586 0.99141371 0.13057078 0.0070766141 0
0.3623848 -0.16998054 0.23160861 -0.99088538 0.13454635 0.0065923552 1.6251959e-05
0.36541897 -0.14736024 0.23947844 -0.99142438 0.13049139 0.0070417528 0
-0.36726078 -0.13310988 0.23467402 0.99142069 0.13051835 0.0070752334 8.2767692e-05
0.36749184 -0.1314652 0.23671982 -0.9914158 0.13055223 0.0071309283 0
-0.3681519 -0.12646347 0.23693986 0.99141783 0.1305391 0.0070845801 1.7753984e-05
-0.36952892 -0.11596902 0.23628739 0.99271113 0.11919964 0.017777571 0.00018487773
0.36947644 -0.11619571 0.23311965 -0.99307644 0.11717748 0.0082816696 0.0002056369
0.37003839 -0.112187 0.23792011 -0.99541408 0.095466346 0.0060850587 0.0010309294
-0.37081879 -0.10629014 0.23847902 0.99889106 0.039013434 0.026354546 0.0029222602
0.3708742 -0.10548066 0.23130521 -0.99913365 0.041124266 0.0063833389 0.0025567142
0.37170479 -0.095358975 0.23431268 -0.99979502 -0.017103726 0.010832515 0.0016941109
-0.36993635 -0.080581069 0.23172523 0.9950496 -0.099193171 0.0060945419 0.00055013289
0.37059078 -0.085309066 0.23621644 -0.99717283 -0.075091779 0.0027524992 0.0011336561
0.36969638 -0.078772619 0.2314699 -0.99444634 -0.10503606 0.0066273408 0.00044135359
-0.36796671 -0.065520145 0.23357135 0.99141818 -0.13053793 0.0070633381 0
0.36641431 -0.053667653 0.23469318 -0.99142146 -0.13051334 0.0070463861 0
-0.3652854 -0.045163721 0.23338944 0.99142116 -0.13051616 0.0070465412 4.3143409e-05
0.36557761 -0.047506649 0.23110202 -0.991422 -0.1305106 0.0070308079 3.7840513e-05
-0.36425519 -0.037267923 0.2346939 0.99141866 -0.13054091 0.0069338991 0
0.36405417 -0.035811543 0.23339415 -0.99141943 -0.13052678 0.0070952941 0
0.36276925 -0.02621628 0.23034739 -0.9914214 -0.13051127 0.0070969667 0
-0.36098662 -0.012367048 0.23605907 0.98511976 -0.17143784 0.01216719 0.0013889804
0.36116147 -0.013669173 0.23653078 -0.98506325 -0.17215617 0.0035525763 0.00098549761
-0.36035991 -0.0075697107 0.23673865 0.98033643 -0.1969763 0.011873682 0.0016768705
-0.3595683 -0.0017130555 0.23552433 0.95897299 -0.28317645 0.013491893 0.0018179024
0.35959566 -0.0016303373 0.23922072 -0.96546412 -0.26008993 0.015238988 0.0024496175
0.36023337 -0.0065935873 0.23701648 -0.97841817 -0.20642504 0.0093064439 0.001979117
-0.35739014 0.0044519268 0.23102865 0.9533 -0.30187711 0.0094446233 0.0019596014
0.35673195 0.0061651622 0.23775309 -0.95238686 -0.30466387 0.011801257 0.0013908343
0.35164523 0.018380363 0.23422009 -0.93277436 -0.36039254 0.0070194965 0.00040265542
-0.35007089 0.022117637 0.23077971 0.92463291 -0.38080588 0.0063865674 2.1194959e-05
-0.34830719 0.026498508 0.23743491 0.92385226 -0.38268393 0.0070663984 1.3227303e-05
0.34964681 0.023157613 0.23165292 -0.92466247 -0.38072932 0.0066634081 9.4924631e-05
0.34448087 0.035674989 0.23412724 -0.92385644 -0.38267335 0.0070923078 4.3531204e-06
0.34030139 0.045740526 0.23279037 -0.92385572 -0.38267523 0.0070907781 8.4328522e-06
-0.33490336 0.05873571 0.23080648 0.92384899 -0.38269171 0.0070754583 1.0635882e-05
0.3362484 0.055570439 0.2352322 -0.9238404 -0.38271293 0.0070548533 3.9035815e-05
-0.33307865 0.063285373 0.23862022 0.92385358 -0.3826814 0.0070351758 0
-0.32769346 0.076198444 0.23385717 0.91290003 -0.40816307 0.0040663327 0.00025841841
0.32868752 0.073853321 0.23681509 -0.9174661 -0.39779332 0.0040555885 0.00022996354
-0.3246918 0.083484419 0.23598915 0.89016509 -0.45559463 0.0062916097 0.0020497213
-0.32002926 0.092294827 0.23565471 0.8459931 -0.53300363 0.014246859 0.0019832626
-0.31843829 0.094338052 0.23305824 0.84176916 -0.53978068 0.0078467466 0.0020488063
-0.31157213 0.1033469 0.23828824 0.79985315 -0.60012293 0.0093495017 0.00021065572
-0.30771387 0.10832463 0.23394081 0.79333794 -0.60874009 0.0070983386 1.5016526e-05
-0.30191553 0.11590191 0.23572294 0.79332376 -0.60875821 0.0071320394 2.7502438e-06
0.2988809 0.11985216 0.23533478 -0.79327202 -0.60882521 0.0071714791 2.2194661e-05
0.30568063 0.110961 0.23278733 -0.79330403 -0.60878432 0.0070888903 3.0846568e-05
-0.29386055 0.12638964 0.23488706 0.79335451 -0.6087184 0.0071051796 0
0.29331708 0.12709303 0.2344695 -0.79334855 -0.6087262 0.0071109575 0
-0.29103372 0.13007927 0.23537305 0.79332513 -0.60875666 0.0071053626 0
-0.28788474 0.13417916 0.23503746 0.79332054 -0.60876238 0.0071341409 0
0.28546181 0.13731971 0.2335647 -0.79331523 -0.60877061 0.0070157526 0
-0.2821312 0.14170307 0.2372503 0.7932061 -0.60891175 0.0071147191 1.8939991e-05
-0.27061683 0.15663691 0.23105229 0.76566839 -0.6431042 0.012997444 0.0011869418
0.27339259 0.15307924 0.23620185 -0.77274412 -0.63466269 0.0083607491 0.00053475815
-0.26546976 0.16329379 0.2343169 0.72701108 -0.68659997 0.0059409025 0.0026600179
-0.25947767 0.16923252 0.231653 0.67439556 -0.73827553 0.011824297 0.0018334688
0.26755479 0.16065951 0.23381633 -0.7424354 -0.66985065 0.0094731757 0.0017481729
-0.25579149 0.17205974 0.23150837 0.66033435 -0.75079024 0.016507795 0.0016434439
-0.24695605 0.17887634 0.23565467 0.61893731 -0.78538102 0.0096540162 0.0001169251
0.24955222 0.17685699 0.23259568 -0.62935728 -0.77710062 0.0049061356 0.00048286884
0.25649804 0.17151739 0.23148727 -0.66862851 -0.74346042 0.014228906 0.0018011583
-0.24450222 0.18077564 0.23749645 0.61811894 -0.78603303 0.0090038329 0.00010236647
-0.23284572 0.18968832 0.23394319 0.60875994 -0.79332215 0.0071654827 1.2332338e-05
0.23471266 0.18823576 0.23169428 -0.60871553 -0.79335725 0.0070468606 4.3704942e-05
0.24381573 0.18125337 0.23198959 -0.61287796 -0.79016137 0.005068446 4.9220511e-05
-0.2307356 0.19129157 0.23215939 0.6088863 -0.793226 0.0070661199 0
-0.22747417 0.19384587 0.2379601 0.60877758 -0.79330921 0.0070996336 0
0.21993315 0.19957423 0.23144302 -0.60879713 -0.79329449 0.0070666592 0
0.22818777 0.19326003 0.23366205 -0.60878772 -0.79330242 0.0069781835 0
-0.21496814 0.20345885 0.2398445 0.60875541 -0.79332662 0.0070474888 0
0.20971495 0.20745888 0.23637368 -0.60873735 -0.79334033 0.0070700417 4.4046128e-06
0.21739961 0.20155177 0.23519893 -0.60878217 -0.79330611 0.007047486 0
-0.19946805 0.21531898 0.23607954 0.57301873 -0.81953812 0.0025907685 0.0011360566
0.19523101 0.21857873 0.2370379 -0.56323129 -0.82615209 0.015594329 0.00083343341
0.20524357 0.21084058 0.23084486 -0.60321319 -0.79754281 0.0077055562 0
-0.18580942 0.22563203 0.23558611 0.49380022 -0.86950499 0.011066074 0.0023844966
-0.17582712 0.22987396 0.23874937 0.43358693 -0.90109283 0.0058471295 0.0015270328
0.17647001 0.22957548 0.2345345 -0.43027875 -0.90265787 -0.0083101792 0.0014178731
0.18341735 0.22668776 0.23322752 -0.49391896 -0.86950779 0.00043580992 0.0021591652
-0.17171094 0.23155321 0.23538816 0.41198918 -0.91113096 0.010261041 0.00090692221
-0.16114184 0.23595178 0.23809248 0.38435584 -0.92316186 0.0065390691 1.3444803e-05
-0.15464413 0.23863322 0.23678544 0.38268259 -0.92385328 0.0070094806 0
0.15957139 0.23659949 0.23771612 -0.34872767 -0.92251855 0.16537373 0.050247807
0.17462054 0.23035517 0.23631492 -0.44850126 -0.88589907 0.11844562 0.026635081
-0.12930496 0.24908166 0.23059408 0.38267097 -0.92385751 0.0070885462 3.5371871e-05
0.12882067 0.24932607 0.23630835 -0.3810035 -0.92074001 0.084107704 0.0093179839
0.14932024 0.24085945 0.23952106 -0.35471228 -0.91182691 0.20676275 0.06207636
-0.11627917 0.25454366 0.23929217 0.37517568 -0.92690551 0.0094561195 6.8241658e-05
0.10669219 0.258459 0.23200494 -0.32537818 -0.94558185 -0.0020374388 0.0017534358
0.12653518 0.25029969 0.23982687 -0.37399238 -0.91358823 0.15964371 0.038320407
-0.10153814 0.26059699 0.23241994 0.28549853 -0.95835358 -0.0069946856 0.0023945258
-0.093991287 0.26308832 0.23465061 0.23267867 -0.97255045 -0.0024893654 0.0019830377
-0.08286234 0.26457155 0.23718743 0.16115084 -0.98692936 -0.00088756892 0.00052051211
-0.079901576 0.26492754 0.23244506 0.1518636 -0.98839951 0.0019653323 0.00046199356
-0.069433622 0.26633468 0.23651078 0.13165268 -0.99126816 0.0074209836 0
-0.052926973 0.26850456 0.23604941 0.13053012 -0.99141932 0.0070438492 0
-0.045666903 0.26947644 0.2383012 0.13050862 -0.99142253 0.006981438 0
0.042113874 0.2699154 0.23426941 -0.13052982 -0.99141884 0.0071158228 0
0.057514861 0.26788089 0.23329471 -0.13052669 -0.99141991 0.0070255571 0
0.065067485 0.26690984 0.23656195 -0.13053632 -0.99141848 0.0070492383 0
0.073009282 0.2658394 0.23307127 -0.13975784 -0.99015963 0.0071831909 0.00019874185
0.081414826 0.26477543 0.23905054 -0.15781514 -0.98736423 0.014362999 0.00063931022
0.094031774 0.26308939 0.23554774 -0.2088614 -0.97793746 -0.0039027841 0.001963
0.10145988 0.26062012 0.23120008 -0.28343588 -0.95897955 0.0047160741 0.002584541
-0.031305909 0.27134156 0.23471913 0.13053375 -0.9914183 0.007110836 4.7327185e-06
-0.025042912 0.27216607 0.23471463 0.13052647 -0.99141955 0.0070932861 0
-0.014843907 0.2735303 0.23773317 0.081060216 -0.9966926 0.005748393 0.00080604298
0.012041896 0.27388161 0.23526552 -0.082050204 -0.99659556 0.0080728866 0.0012903047
0.024918426 0.27220339 0.23764989 -0.13053259 -0.99141937 0.0069879033 0
0.036048692 0.2707243 0.23572218 -0.1305342 -0.99141777 0.0071887695 2.5614854e-05
0.18694276 0.30949914 0.2397895 0.10825322 -0.40944695 -0.90588868 0.052717488
0.19570196 0.30735555 0.23934667 0.43473512 -0.459663 -0.77441287 0.11329798
0.20106705 0.30955401 0.23999234 0.59274632 -0.47231185 -0.65235978 0.1000244
0.18585247 0.31237146 0.23906749 0.078293361 -0.37983391 -0.92173553 0.044182055
0.19573276 0.31274131 0.23773646 0.29453608 -0.3872287 -0.87367189 0.07092797
0.20290393 0.31398863 0.23844963 0.54598236 -0.33902323 -0.76613736 0.087676838
0.15441991 0.32971197 0.23777875 -0.49247897 -0.18182394 -0.85111952 0.060748201
0.16330086 0.32684836 0.23753567 -0.30162913 -0.20839065 -0.9303726 0.050052404
0.17446966 0.32259631 0.23742403 -0.1068537 -0.29611638 -0.94915611 0.00078417483
0.18347873 0.32723033 0.23492879 0.026952075 -0.32276577 -0.94609511 0.027687214
0.19225724 0.32516465 0.23446035 0.22300352 -0.34877503 -0.91028863 0.070772111
0.20762138 0.32584912 0.23508152 0.55158842 -0.41673952 -0.72254986 0.066311575
0.1490629 0.33381873 0.23845378 -0.67605865 0.024138536 -0.73645228 0.088261642
0.15633181 0.3364335 0.23553769 -0.61850607 -0.07000263 -0.78265566 0.12294275
0.16431949 0.33848232 0.23393974 -0.49552757 -0.13074885 -0.85869503 0.096591666
0.17631507 0.33533615 0.23339611 -0.18452734 -0.26220989 -0.94720417 0.012695624
0.19935523 0.33040956 0.23201901 0.28369167 -0.41744015 -0.86328602 0.079172231
0.21091945 0.33333978 0.23739298 0.70402414 -0.413766 -0.57718951 0.082510345
0.15933661 0.34126496 0.23372541 -0.56463617 -0.084032454 -0.82105088 0.12438679
0.16116631 0.34907514 0.23116979 -0.69249803 -0.013968921 -0.72128451 0.10639118
0.1737268 0.3409918 0.23202901 -0.24935174 -0.21623875 -0.9439621 0.037828565
0.18492536 0.34259295 0.23016784 -0.086944528 -0.31166184 -0.94620699 0.003545271
0.21669836 0.34729132 0.23532133 0.77677798 -0.44659588 -0.4440361 0.056999516
0.15445256 0.35126057 0.2374194 -0.92975396 0.12577988 -0.34603041 0.078084968
0.22103995 0.35777277 0.23423529 0.80073088 -0.4170962 -0.42995447 0.062792391
0.22480729 0.36686796 0.23121333 0.78968203 -0.45951894 -0.40650287 0.069324784
0.16415584 0.37468636 0.23584694 -0.87260151 0.24610817 -0.42189735 0.095985912
0.22723387 0.37272614 0.23111412 0.81537938 -0.45444369 -0.35866055 0.068019971
0.23019294 0.37987006 0.23343919 0.84620351 -0.45661578 -0.27466622 0.042435348
0.17148551 0.39238173 0.23355901 -0.9357093 0.28280702 -0.210875 0.048192479
0.23608503 0.39409488 0.23440142 -0.91438502 0.40160522 0.05111894 0.0069528911
0.17732976 0.40649104 0.2368677 -0.93263125 0.34388661 -0.1092747 0.013144278
0.23984808 0.40317962 0.23012099 -0.90851521 0.41380391 0.058021147 0.0073914635
0.24242444 0.40939957 0.23471437 -0.92372537 0.38305417 0.00099290116 2.9725721e-05
0.17890646 0.41029751 0.23349009 -0.93742532 0.33343199 -0.10028424 0.016675789
0.24423301 0.41376582 0.2320611 -0.92360449 0.38334522 0.0010885667 1.348347e-05
0.1835822 0.42158574 0.23605978 -0.92680466 0.36990333 -0.06484326 0.0091506662
0.24776202 0.42228568 0.23385155 -0.92391032 0.38260916 -5.0959068e-05 0
0.25038606 0.42862073 0.23393296 -0.92387956 0.38268313 -2.266477e-05 0
0.25321293 0.43544531 0.23977937 -0.92389995 0.38263422 5.9967751e-06 0
0.19361243 0.4458009 0.23577437 -0.92388344 0.38267392 -5.1023112e-06 0
0.25696546 0.44450477 0.23607892 -0.92707658 0.37481537 0.0065177046 0.00028651091
0.19746575 0.45510358 0.23472683 -0.92386335 0.38272244 6.2021667e-05 0
0.26101512 0.45428154 0.2312713 -0.97142249 0.22932386 0.061229516 0.018129483
0.20126933 0.46428621 0.23323439 -0.92350203 0.38358152 -0.0030288987 4.5911936e-05
0.26471978 0.46322528 0.23323631 -0.99092513 -0.10406072 0.085081346 0.060192268
0.20661382 0.477189 0.23752987 0.86531681 -0.4959332 0.072643876 0.017656604
0.26433122 0.47871637 0.23423225 -0.77952373 -0.60059762 0.17783491 0.071876906
0.20841736 0.48154306 0.2326638 0.8010807 -0.57644874 0.16117217 0.04819515
0.2103352 0.48617312 0.23992778 0.71468467 -0.69780505 0.047897227 0.064235494
0.24872828 0.48618951 0.23748951 -0.44902915 -0.86447805 0.22594343 0.032421336
0.25638065 0.48324955 0.23901287 -0.623537 -0.77388859 0.11089689 0.053249419
0.26280624 0.48059219 0.23975632 -0.78972274 -0.60676116 0.090437338 0.065110527
0.21294509 0.49247405 0.23685797 0.59704471 -0.79297835 0.1213382 0.069384381
0.22407752 0.49539128 0.23423651 0.1026492 -0.96995294 0.22057733 0.070431054
0.23756537 0.49061957 0.23686484 -0.24965534 -0.95701557 0.14762601 0.028834717
-0.063106738 -0.46043062 0.24419492 0.13050905 0.99142289 0.0069317361 0
-0.056901943 -0.46125874 0.24576628 0.13048409 0.99142504 0.0070923204 1.6201733e-05
-0.046871696 -0.46257129 0.24464992 0.13050956 0.99142116 0.0071702795 0
-0.02470186 -0.46549433 0.24525388 0.12312286 0.99237573 0.0055887322 5.2812829e-05
-0.019507615 -0.46619621 0.24778041 0.11574037 0.99322706 0.010205862 0.00033407065
-0.0040675686 -0.46820903 0.24498421 0.028187117 0.99931031 0.024174206 0.0019446532
0.0017066395 -0.46849149 0.24101004 -0.0015771177 0.99996758 0.0078988308 0.0022693176
0.026910268 -0.46517646 0.24145056 -0.13053821 0.99141812 0.0070686047 0
0.036756985 -0.46390399 0.24479622 -0.13055208 0.99141502 0.0072381627 5.4416359e-05
0.061401039 -0.46068543 0.24843147 -0.130531 0.99141908 0.007060112 3.7754806e-05
-0.10326781 -0.45317587 0.24380939 0.30933416 0.95088917 -0.011059332 0.001720786
-0.085835263 -0.45744953 0.24576122 0.18510313 0.98265201 0.01148057 0.0012627009
-0.071098566 -0.45937788 0.2441083 0.13055378 0.99141681 0.0069571799 0
-0.06748943 -0.45982668 0.2404121 0.13049577 0.99142456 0.0069408538 0
0.066521227 -0.45996344 0.24171609 -0.13249487 0.99116027 0.0068162582 2.7205739e-05
0.073584832 -0.4590508 0.24414502 -0.13412291 0.99094981 0.005443343 0
0.085046716 -0.45752722 0.24210227 -0.18572657 0.98249775 -0.014273074 0.0011040044
0.094823234 -0.45591649 0.24357831 -0.21471439 0.97663176 -0.0093954643 0.00146634
0.10399576 -0.4528842 0.24508983 -0.33009836 0.94387323 0.011770422 0.00098919938
-0.13041894 -0.44191256 0.24159381 0.38277563 0.92381322 0.0072067883 0.00015464159
-0.12333272 -0.44488639 0.24663734 0.38266897 0.92385912 0.0069773612 0
-0.11298531 -0.44916502 0.24566971 0.35303155 0.93561143 -0.00014248279 0.00079309626
0.12682381 -0.443405 0.24201734 -0.38270032 0.92384601 0.0070071025 0
-0.14834191 -0.43450525 0.24376422 0.38268256 0.92385298 0.0070463587 0
-0.13761693 -0.43893421 0.24200445 0.38266888 0.92385888 0.007025321 3.2604967e-05
0.13708374 -0.43920389 0.24837621 -0.382664 0.92386025 0.0071014459 1.3406249e-05
0.14821315 -0.43454772 0.24233997 -0.38262081 0.92387867 0.0070457519 2.0631758e-05
0.15295167 -0.43261242 0.24592245 -0.3826952 0.92384768 0.0070631518 0
-0.17473787 -0.42357317 0.24395901 0.42507282 0.90513402 0.0067409966 0.0011632779
-0.16628861 -0.42710051 0.24755146 0.39592844 0.91826719 0.0050979345 0.00034406042
0.17084503 -0.4252224 0.24875484 -0.39718944 0.91772479 0.0046673845 0.00037587437
-0.19344126 -0.41321483 0.24316347 0.55934668 0.82891405 0.0057180389 0.0014353517
-0.18898323 -0.41663778 0.24341121 0.50186628 0.86492139 0.0064249132 0.0021078133
0.1975297 -0.41007262 0.24260102 -0.58307803 0.81224293 0.016779626 0.00096969889
-0.20368341 -0.40535808 0.24342321 0.60751277 0.79427487 0.0074645467 0
0.20332278 -0.40564603 0.24468592 -0.60151923 0.79881585 0.0082428753 0.00015741902
0.21069993 -0.40001565 0.24809001 -0.60870093 0.79336852 0.0070424192 2.026953e-05
-0.22196241 -0.39135873 0.24641052 0.60877597 0.79331034 0.0071077766 7.3654883e-05
-0.21299954 -0.3982051 0.24292687 0.60873801 0.79333949 0.0070970287 6.8627146e-06
0.21628529 -0.39569691 0.24438938 -0.60872287 0.79335171 0.0070394599 5.6459296e-05
-0.23201765 -0.38359898 0.24146301 0.60872281 0.79335135 0.00708128 0
-0.22612388 -0.38814464 0.24406777 0.6088137 0.79328185 0.0070526702 0
0.22570617 -0.38847664 0.24535933 -0.60882741 0.7932719 0.006990694 3.1734435e-05
-0.24197914 -0.37597337 0.24349466 0.60879052 0.79329914 0.0071111033 0
-0.23847842 -0.37868392 0.24622688 0.60870665 0.79336399 0.0070512234 2.1141595e-07
0.23699763 -0.37981045 0.24513946 -0.60873759 0.79334033 0.0070444597 0
0.24615613 -0.3727873 0.24563175 -0.62144321 0.78340077 0.0095706321 0.00032158548
-0.25867337 -0.36320308 0.24794395 0.67090797 0.74074787 0.034279987 0.0017155871
0.25495788 -0.36607212 0.24997056 -0.65239942 0.75770497 0.016062375 0.0014984106
-0.26978478 -0.35114625 0.24972004 0.76862937 0.6396876 0.002928098 0.00090082095
-0.27309638 -0.34673703 0.24167278 0.7756232 0.63115507 0.0072084442 0.00065512699
0.27452999 -0.34491414 0.24558257 -0.78161085 0.62375265 0.0041452353 0.00051373575
-0.28182474 -0.33540285 0.24518885 0.79329246 0.60879964 0.0070836595 0
0.28481939 -0.33144215 0.24019589 -0.79324532 0.60886103 0.0070833578 0
-0.29320434 -0.32062846 0.24999286 0.79337901 0.60868615 0.0071394541 7.6867233e-05
-0.28855118 -0.32666123 0.24729663 0.79338938 0.60867184 0.007203863 3.5774628e-05
-0.29717737 -0.31541181 0.24664041 0.79339457 0.60866678 0.0070569855 1.887327e-05
0.2985715 -0.31360707 0.24768889 -0.79323864 0.60886961 0.0070878589 0
-0.30533171 -0.30476457 0.24489339 0.79359502 0.60840756 0.0068791029 1.0428343e-05
0.30486241 -0.30535644 0.24320206 -0.79365677 0.60832441 0.0070893895 3.8003647e-05
-0.31126577 -0.29708314 0.24937166 0.80270278 0.59633207 0.0075073889 0.00030345807
0.3136985 -0.29383245 0.24246047 -0.81654561 0.57727432 0.0027496365 0.00097551727
-0.31959969 -0.2862221 0.24936646 0.84765476 0.53044462 0.01048491 0.0019921619
0.31847501 -0.28764361 0.24556035 -0.8497349 0.52720976 -0.00066047872 0.0019502912
-0.33092982 -0.26178166 0.24404895 0.921009 0.38949698 0.0058723795 0.00012198852
-0.32877761 -0.26703042 0.24690956 0.91693878 0.39896756 0.0069365148 0.00038390432
0.32837757 -0.26793602 0.2436545 -0.90758187 0.4198108 0.0073510357 0.00093545619
0.33129823 -0.26099658 0.24969278 -0.92081499 0.38989428 0.0090716379 0.00018454525
-0.33254668 -0.25796992 0.24901351 0.92286664 0.38505948 0.0068001491 2.2677514e-05
0.33360517 -0.25535443 0.24576326 -0.92385465 0.38267758 0.0071008946 0
-0.33741778 -0.24618353 0.24758206 0.9238829 0.3826097 0.0070835836 0
-0.34201783 -0.23505217 0.24618097 0.92383081 0.38273725 0.0069878604 0
0.34313253 -0.23232496 0.24421863 -0.92383045 0.38273367 0.0072245467 3.2029686e-05
-0.3448652 -0.22813284 0.24373439 0.92386258 0.38265824 0.0071130921 1.346943e-05
0.34563631 -0.22634055 0.24747932 -0.92381495 0.38277486 0.0070245871 0
-0.35001349 -0.21568634 0.24279012 0.92434925 0.38147557 0.00740699 2.5446363e-05
-0.34955162 -0.21689433 0.24782224 0.9239738 0.38239157 0.0070033669 0
-0.35517702 -0.20329875 0.24702784 0.93748289 0.34779713 0.012763604 0.00064740592
0.35334244 -0.20768189 0.24452752 -0.9367727 0.349859 0.0074582146 0.00087436492
-0.35919762 -0.19364583 0.24993747 0.95809197 0.28633139 0.0086058248 0.0022003397
0.35753897 -0.19758144 0.24620339 -0.95590508 0.29366907 0.0020195271 0.0025141377
-0.36030319 -0.18640591 0.24295637 0.97973937 0.19992568 0.011850907 0.0016881513
0.36017209 -0.18777983 0.249924 -0.9749096 0.22226404 0.012248108 0.0017099167
0.36118931 -0.17975886 0.24449457 -0.98111826 0.19326989 0.0073361234 0.0011530106
-0.36344486 -0.16274822 0.24674541 0.9914279 0.13045721 0.007181528 2.2435837e-05
-0.36422116 -0.15699729 0.24943413 0.99141771 0.13054195 0.0070553324 0
0.36401999 -0.15838149 0.24677482 -0.9914189 0.1305318 0.007063956 3.3859949e-05
-0.36586207 -0.14444035 0.24771459 0.99141759 0.13054204 0.0070610116 3.6135127e-05
0.36519751 -0.1494042 0.24616584 -0.99142313 0.13050167 0.0070328144 0
-0.36673728 -0.13783316 0.24847056 0.99142402 0.13049607 0.0070176413 1.4432294e-05
0.36690021 -0.13619372 0.24105188 -0.99142224 0.13051064 0.0069907503 0
0.36788523 -0.12901802 0.2467041 -0.99141765 0.13053976 0.0070989677 0
-0.37011108 -0.11223844 0.24904604 0.99475133 0.10231643 -0.0010926035 0.00093006669
-0.36987484 -0.11357898 0.24066709 0.99330455 0.11522415 0.0083394265 0.000308963
0.36954686 -0.11626484 0.24426432 -0.99226665 0.12394549 0.0066634598 0
-0.3712337 -0.10343909 0.24401972 0.99979109 0.015749348 0.013028522 0.0026186553
0.371292 -0.10298556 0.24382743 -0.99860168 0.048967566 0.019921584 0.0028058942
-0.37197867 -0.097473651 0.24669991 0.99960279 -0.0070925457 0.027275648 0.0017859502
0.37174797 -0.094938703 0.24660993 -0.99916506 -0.038566742 0.013482906 0.0022297455
-0.37010133 -0.081241608 0.24266267 0.99461716 -0.10323975 0.008843774 0.00056819723
0.3699618 -0.080229677 0.24178714 -0.99528486 -0.096984699 -0.0014267684 0.00068240019
0.37068334 -0.085371338 0.2480454 -0.9967649 -0.07992132 0.0085008228 0.0012857215
-0.3699007 -0.079815239 0.24085991 0.99461579 -0.10324959 0.0088823149 0.0006365648
0.36907297 -0.073129818 0.24821627 -0.99197006 -0.12635387 0.0054847561 3.7782822e-05
-0.36828828 -0.067263924 0.24646921 0.99141747 -0.13054104 0.0070959213 2.0183948e-05
0.36732376 -0.060182013 0.24195695 -0.99142116 -0.13051987 0.0069762263 0
0.36676741 -0.055897474 0.24303946 -0.99142194 -0.13050865 0.0070745237 0
-0.36537781 -0.045441095 0.24122909 0.99142241 -0.13051088 0.0069671194 0
0.36531141 -0.044498965 0.24931306 -0.99141806 -0.13053353 0.0071633412 3.3326953e-05
-0.3644017 -0.03766923 0.24783325 0.99142027 -0.13052167 0.007065041 0
0.36383817 -0.033641368 0.24316032 -0.99142116 -0.13051774 0.007015368 0
0.36255422 -0.023794169 0.24491274 -0.99084055 -0.13493918 0.0051321732 3.7106442e-05
-0.36081272 -0.010323168 0.24940631 0.98007542 -0.1985378 0.0059030484 0.0021943711
0.36124149 -0.01386746 0.24409318 -0.98529911 -0.17020188 0.014729569 0.00089527649
-0.36018214 -0.0056163915 0.24787463 0.97578752 -0.21872054 -2.582568e-05 0.0020618432
