# .PCD v0.7 - Point Cloud Data file format
VERSION 0.7
FIELDS x y z normal_x normal_y normal_z curvature
SIZE 4 4 4 4 4 4 4
TYPE F F F F F F F
COUNT 1 1 1 1 1 1 1
WIDTH 580
HEIGHT 1
VIEWPOINT 0 0 0 1 0 0 0
POINTS 580
DATA ascii
-0.34009945 -0.069092512 0.0053631477 0.9916864 -0.11036526 -0.066163406 0.10439372
-0.33929569 -0.062987484 0.0025494602 0.97374249 -0.22764002 0.0023501383 0.0025397302
0.30917859 -0.062977955 0.0013546254 -0.96534139 -0.2438488 0.093025409 0.17834465
0.31080034 -0.068507254 0.0048849708 -0.98474026 0.12011529 0.12593184 0.17992687
0.33943555 -0.064049661 0.0064058527 -0.97226012 -0.22758037 0.054012563 0.079810426
-0.30629694 -0.056020927 0.0029420182 0.9314307 -0.36379835 0.0093636848 0.088240571
0.33765429 -0.056016605 0.0077111349 -0.96884894 -0.22977887 0.092376202 0.12581246
-0.33478859 -0.049098182 0.0055960454 0.93144983 -0.36299461 0.025221309 0.096171677
0.33277601 -0.044239461 0.0071373023 -0.93715763 -0.34629112 -0.042637866 0.099891454
-0.33060843 -0.039006542 0.008663334 0.9297449 -0.36819497 -0.0026291641 0.00026914375
0.29782918 -0.035577971 0.0037860572 -0.8904295 -0.45035997 0.065659545 0.16602728
0.32727048 -0.030947935 0.0059385747 -0.85857892 -0.48622522 -0.16256507 0.17366026
0.33045065 -0.038625538 0.0087228119 -0.91134948 -0.41139078 -0.014134211 0.10054754
-0.32529846 -0.02618706 0.0055802264 0.8549577 -0.51557201 -0.056857321 0.089753255
0.32370275 -0.022334689 0.0028279647 -0.9164024 -0.39541918 -0.062051009 0.11878951
0.28978527 -0.016158186 0.0048202425 -0.92387748 -0.38268852 -3.4461277e-07 7.1348477e-06
0.28635079 -0.0078666499 0.0077735782 -0.91023993 -0.41279191 0.032651413 0.10802433
-0.31273532 0.0041428087 0.0058211274 0.84842658 0.49849659 0.17797045 0.12674452
-0.28095916 0.0051499205 0.0079513844 0.83561021 -0.54399443 0.076326005 0.10251527
-0.27897409 0.0099423192 0.0078243548 0.82925415 -0.55525839 0.063448615 0.087619878
0.28302729 0.00015700795 0.0093615912 -0.89860785 -0.43712908 -0.037711274 0.083608501
0.31391785 0.0012879539 0.0095743835 -0.89588827 -0.44374043 -0.021878244 0.14142989
-0.30810004 0.015333368 0.0090051629 0.83165258 -0.55495936 0.019343553 0.15828457
-0.27517277 0.015560012 0.0018006957 0.85440701 -0.519409 -0.014246905 0.1243651
0.27205306 0.019625679 0.0086648613 -0.86190623 -0.5066815 -0.019786103 0.090485752
0.30922598 0.012615118 0.0052379873 -0.99361843 -0.067823388 0.090124324 0.18690857
-0.27102643 0.020963609 0.0048383051 0.73362094 -0.67192101 -0.1015989 0.15945384
-0.26806659 0.024820961 0.0067211818 0.84491074 -0.52095616 0.12136953 0.15079577
0.26582694 0.027739707 0.00035855919 -0.80857533 -0.5883891 -0.0020493767 0.00060010719
0.30576685 0.020966128 0.0037582275 -0.88376635 -0.46792656 -0.0013063463 0.0015306148
-0.29722658 0.034410466 0.003278061 0.11420047 0.75534898 0.64529544 0.24943107
-0.26194164 0.032803152 0.0041043386 0.77470523 -0.63227981 -0.0073505235 0.13175938
-0.25762942 0.038422931 0.0037621558 0.79334509 -0.6087721 1.086866e-06 0
0.25774726 0.038269356 0.0020929053 -0.85938007 -0.51133418 0.0017915928 0.20368537
0.26257935 0.031972039 0.00031106174 -0.83094758 -0.55620152 -0.012881877 0.10081758
-0.29012471 0.043665826 0.0068736225 0.89278567 -0.45032623 0.011833003 0.14632796
-0.28916061 0.04492227 0.0067952797 0.76657397 -0.64161229 0.026420886 0.15247625
-0.25153029 0.046371497 0.0038952231 0.82667732 -0.56008756 -0.053912368 0.13407044
0.24928658 0.049295563 0.0052346513 -0.79335058 -0.60876513 -7.9924e-08 0
0.29244459 0.040642478 0.0061835423 -0.84328991 -0.5362106 -0.036610711 0.13544337
-0.24225031 0.058465403 0.0040920265 0.80348861 -0.59421027 -0.036334779 0.083337002
0.27899677 0.058167979 0.0034133494 -0.78246862 -0.62247437 -0.016386706 0.11593513
0.28151017 0.054892473 0.0043348372 -0.79505646 -0.59892792 0.095763065 0.16718273
-0.27330285 0.065588489 0.0024634972 0.77502412 -0.63176763 0.014397388 0.07853774
-0.24017525 0.061169703 0.00030738115 0.76873636 -0.63947177 0.010968897 0.066439524
-0.23574029 0.066949412 0.006620191 0.71840739 -0.69508207 -0.027418192 0.096039087
0.23505968 0.067836419 0.0075617824 -0.75313067 -0.65603429 -0.049125064 0.07259123
-0.26364005 0.078181297 0.0034898445 0.85068828 -0.45433962 0.2643953 0.1595104
-0.23099062 0.07313931 0.0059026722 0.56551462 -0.82271361 -0.057753995 0.13391244
0.2283835 0.076536991 0.004102868 -0.66317081 -0.74636829 0.056026511 0.079568259
-0.25864762 0.084687561 0.0054602176 0.76774466 -0.6344803 0.089459047 0.15659763
-0.22174755 0.082212999 0.0091316849 0.75913513 -0.65024602 0.029899126 0.1323327
-0.21501058 0.087382458 0.0039742813 0.62746012 -0.77840745 0.019383045 0.10716077
0.21459813 0.087698922 0.00073689222 -0.62672746 -0.77922535 -0.004529804 0.00068650913
0.22361636 0.080778986 0.0045942068 -0.68918747 -0.72340876 0.041236766 0.10078973
0.25724268 0.086518452 0.0015352294 -0.80708897 -0.58438396 -0.08427766 0.074493207
-0.25245646 0.092756003 0.0031643312 0.75994468 -0.649239 0.031190539 0.1130995
-0.20689966 0.093606174 0.00637272 0.5936628 -0.80470341 -0.0041084578 0.062932529
0.20230536 0.097131491 0.0076198056 -0.57795817 -0.81586993 -0.01790593 0.057855316
0.25332564 0.091623254 0.0086474568 -0.67315477 -0.73890704 -0.029646689 0.19416957
-0.24313641 0.10231897 7.8767538e-05 0.70565039 -0.70511073 0.06983117 0.063135684
-0.23797032 0.10628307 0.006406635 0.57480186 -0.81821698 -0.011120054 0.12784597
-0.19351603 0.10387579 0.0029292405 0.61603755 -0.78633958 -0.046559393 0.074310899
0.24360496 0.10195942 0.009840548 -0.7292105 -0.68409491 -0.016316954 0.15214358
-0.22664027 0.11497693 0.0034043416 0.5079124 -0.86029804 -0.043730624 0.16739996
0.18077824 0.11364982 0.00145787 -0.60817903 -0.79379988 -0.00024244696 7.7195464e-06
0.22547252 0.11587293 0.0044687889 -0.5443868 -0.8387453 0.012218913 0.078753412
0.23135296 0.11136074 0.0093040019 -0.61905557 -0.78514564 -0.017790593 0.092059344
-0.1704831 0.12154955 0.003930226 0.64164078 -0.76360172 -0.072176836 0.15740147
0.16020548 0.12925383 0.0057831556 -0.48614073 -0.87360716 0.021854907 0.0032526592
0.1711092 0.12106912 0.0040561706 -0.52916855 -0.8474735 0.042062193 0.089965582
0.21410523 0.1245954 0.0030469224 -0.60874695 -0.79336441 -3.0502918e-06 2.1195641e-05
-0.20207489 0.13382661 0.0015829504 0.70515877 -0.70897532 -0.010255162 0.15718454
-0.19542719 0.13892759 0.005431056 0.63952315 -0.76779419 0.038759913 0.079499319
-0.14361098 0.1361275 0.0067213327 0.37335104 -0.92718518 -0.03060499 0.08474946
-0.13645162 0.13909301 0.0083800405 0.37468362 -0.92448461 0.070287153 0.099472798
0.13895997 0.13805401 0.0064358711 -0.38348663 -0.9235459 0.0010069866 7.8989189e-07
-0.18572399 0.14637312 0.0066532865 0.58399266 -0.81165212 -0.01316562 0.084515817
-0.12029685 0.14578453 0.0030333996 0.30532101 -0.79145002 -0.52951485 0.22770338
-0.11709063 0.14711258 0.0054156259 0.10181705 -0.57237059 -0.8136493 0.20113891
0.11137878 0.1494785 0.0063405931 -0.38516584 -0.92263007 -0.020025359 0.12727697
0.12687936 0.14305797 0.0011732802 -0.45836851 -0.88521618 0.07931301 0.16340952
0.1339476 0.14013021 0.0090534091 -0.41565499 -0.90951145 -0.0044599962 0.077525765
0.19305462 0.14074813 0.0065567791 -0.55757141 -0.82928687 0.037382286 0.098081246
-0.17952091 0.15113291 0.0096849054 0.49753639 -0.8602258 -0.11166536 0.070616387
-0.10271978 0.15306516 0.0092531443 0.33553228 -0.94151396 -0.031134482 0.083311789
-0.096080482 0.15581526 0.0015060008 0.35034624 -0.93497461 0.055498879 0.08230418
0.087587789 0.15933305 0.009082526 -0.3064585 -0.95039892 0.053149987 0.10220176
0.10462989 0.15227398 0.0026219189 -0.38269541 -0.92387456 -6.5241852e-07 0
0.1647516 0.15872979 0.0022420734 -0.47675189 -0.87801087 0.042481564 0.10617742
-0.15347409 0.16340111 0.00391303 0.40663207 -0.9133572 -0.020709964 0.078597486
-0.083057404 0.16117066 0.0095036328 0.16942497 -0.9761287 0.13589628 0.18794714
-0.068961963 0.16302636 0.0036865622 0.15370031 -0.98787886 -0.021718737 0.072201446
-0.054251499 0.16496304 0.0054787099 0.18014596 -0.98231912 -0.050956715 0.087655321
-0.045493163 0.16611609 0.0021284074 0.019310165 -0.98937666 0.14408618 0.14978573
-0.032608204 0.16781242 0.0022350401 0.13052991 -0.99144435 -8.6213936e-07 0
-0.027871497 0.16843604 0.0028121322 0.13052517 -0.991445 -5.5202997e-07 0
-0.017957374 0.16974127 0.000123173 0.12975366 -0.98985124 0.057952013 0.087754071
0.018901702 0.16961694 0.0071371868 -0.078897834 -0.99511933 0.059267834 0.08513701
0.025605718 0.16873434 0.0078077614 -0.063429132 -0.99765235 0.025819756 0.076349713
0.042351589 0.16652969 0.00030496716 -0.13052537 -0.99144495 -1.765267e-07 1.4528454e-06
0.063483134 0.16374765 0.0037169531 -0.028729368 -0.99886388 -0.038021892 0.079024017
0.14194095 0.16817832 0.0060522854 -0.27535167 -0.90886235 -0.31329009 0.18036932
0.15835419 0.16137969 0.00043587387 -0.37489143 -0.925825 0.048003826 0.1146418
0.16151407 0.16007084 0.0094145387 -0.31833735 -0.93630421 -0.1483099 0.10913726
-0.1344139 0.17129613 0.0076602846 0.12103244 -0.97520697 -0.1852635 0.20814756
-0.12577888 0.17487291 0.0012080222 0.41789144 -0.90814203 -0.025394743 0.14327236
-0.11632111 0.17879045 0.0075775832 0.30618066 -0.94966584 -0.066243477 0.13533498
-0.011970039 0.17052951 0.0041888207 0.036515631 -0.99915212 0.019017402 0.081267849
-0.0061658635 0.17129365 0.0034571588 0.031393535 -0.99941355 -0.013672507 0.0021765465
0.013247291 0.17036137 0.00020246208 -0.068127245 -0.99619085 -0.054428078 0.071732551
0.12777004 0.17404813 0.0099283159 -0.3508535 -0.93641019 0.0061465455 0.11424975
-0.10631056 0.18293698 0.0081106648 0.35367042 -0.93346614 0.059650782 0.088650137
-0.097361013 0.18664402 0.0068162456 0.24918109 -0.96832085 -0.016233021 0.10102155
-0.08025416 0.19076177 0.0070179626 0.23031613 -0.97300363 0.014775618 0.058252975
-0.052279707 0.19444466 0.0022610575 0.094741277 -0.9955014 -0.0010221251 0.17739247
-0.049687825 0.19478588 0.0093700439 0.088934429 -0.99603397 -0.0026476767 0.14501059
-0.018038485 0.19895257 0.0055483431 0.039141119 -0.961245 0.27290308 0.18656048
0.036946043 0.19646335 0.0089731812 -0.055376705 -0.99845952 -0.0034875362 0.15375578
0.04048403 0.19599758 0.0077493191 -0.1335541 -0.98924202 -0.059695397 0.10557191
0.074707188 0.19149205 0.0034493059 -0.066920638 -0.99775302 0.0032341985 0.095485166
0.080767617 0.19069418 0.0042452216 -0.18402801 -0.98287523 0.0094887409 0.00068962522
-0.0022298226 0.20103382 0.0038553774 -0.00040019496 -0.99994373 -0.010599936 0.001773527
0.0048111021 0.20069398 0.0033528879 -0.015256963 -0.99987644 -0.0037689973 0.0014278658
-0.004355514 0.41948241 0.0022518937 -0.51189119 -0.85581595 0.074474819 0.017782615
0.017167773 0.41239059 0.0041223373 -0.17221032 -0.97382867 0.14832844 0.0056876568
0.02356625 0.41189677 0.0030955691 -0.12673679 -0.98020256 0.1521209 0.0045082243
0.036289141 0.41252831 0.0090382015 0.0049572275 -0.99427003 0.10678246 0.0019495375
0.042192653 0.41186458 0.0027929505 0.064348057 -0.98787659 0.14127679 0.0035249996
0.055110227 0.41273463 0.0040645949 0.21012954 -0.96159571 0.17657609 0.0066170185
0.064210653 0.41499704 0.0049700579 0.30686781 -0.94053078 0.14571853 0.014162083
0.07106065 0.41743594 0.0022475873 0.44285637 -0.88118315 0.16551274 0.01202136
0.078649275 0.42328632 0.0046474123 0.71535742 -0.6920206 0.096804984 0.019797554
-0.020296443 0.43883577 6.8829395e-05 -0.92916918 -0.35951445 0.085988306 0.023408473
-0.02233148 0.4452635 0.0080285724 -0.9623965 -0.2655333 0.057315003 0.01678901
0.092255235 0.44757423 0.0037630938 -0.97969353 0.20043071 0.0052946862 0.021389399
-0.023087434 0.45954931 0.0087369718 0.98421204 -0.17315236 0.036672816 0.012064447
0.093206897 0.45512879 0.007608627 -0.99965537 0.0012479866 -0.026221564 0.014633914
0.091365002 0.467069 0.0079082865 -0.95547646 -0.29281262 0.036407743 0.016523276
-0.01664874 0.47735366 0.0035549328 0.83386719 -0.55053306 0.039734442 0.013544737
0.089664176 0.47109222 0.0080844024 -0.94982356 -0.31193328 0.023082562 0.01637526
-0.0051995115 0.48966813 0.0085800868 0.57114601 -0.81929094 0.050542079 0.0095581207
-0.00094669778 0.492208 0.0051434478 0.43714929 -0.88873434 0.1380281 0.011949526
0.0055442695 0.49510679 0.0079938089 0.35991204 -0.92559129 0.11723541 0.011564673
0.011845865 0.49652994 0.0050319876 0.2457705 -0.95768631 0.14977942 0.0073261866
0.024731981 0.49766058 0.0056213574 0.071139559 -0.9919678 0.10459018 0.0016760416
0.03586901 0.49739659 0.0031372975 -0.015595786 -0.99440366 0.10448962 0.00099220569
0.045608744 0.49767435 0.0059078592 -0.065001749 -0.99270898 0.10150681 0.00096760347
0.056301393 0.49697375 0.0075125182 -0.182698 -0.9782626 0.098100215 0.0054729586
0.064302526 0.49450138 0.0031755641 -0.3748064 -0.92204839 0.0966793 0.012599695
-0.059950784 -0.49210739 0.011730388 0.13052121 0.99144554 4.444764e-07 0
-0.034555171 -0.49545074 0.012619779 0.039343484 0.9992066 0.0061905216 0.097590461
-0.026604399 -0.49649748 0.015737012 0.064534746 0.98919064 0.13167059 0.14416669
-0.013739251 -0.49819124 0.016773075 0.093093477 0.99565351 -0.0027648029 0.00067840848
-0.0048105246 -0.4993667 0.014955513 0.020691831 0.99975872 0.0073776762 0.0023982383
0.030821405 -0.49594232 0.015408136 -0.064428478 0.99294651 -0.099529944 0.11972313
0.045364391 -0.4940277 0.012437105 -0.13054296 0.99144268 4.5981924e-06 0.00015825874
0.059690919 -0.4921416 0.012277111 -0.13057537 0.99143839 -4.205569e-06 0.00017038218
0.060124084 -0.49208459 0.015726984 -0.13057584 0.99143833 -3.3775827e-06 0.00010430834
-0.090431601 -0.48808408 0.01742091 0.2403457 0.97037184 0.024745984 0.093921721
-0.084341668 -0.48889631 0.01384446 0.21224289 0.97718024 0.0084689809 0.15231943
0.079656214 -0.48951313 0.018492788 -0.14158192 0.9896791 -0.022133531 0.14839996
0.084546641 -0.48886931 0.016206145 -0.19449268 0.98088664 0.005831921 0.080520831
0.10028848 -0.4841041 0.013765842 -0.333094 0.94281042 -0.012525989 0.0015585687
-0.13375165 -0.4702431 0.013468564 0.29230714 0.955926 -0.027605573 0.078967281
0.0031655163 -0.47036129 0.013706803 -0.026047397 0.99927247 -0.027858231 0.0022030007
0.1279588 -0.4726426 0.013682172 -0.43994761 0.89603937 -0.059661832 0.087236173
-0.15378392 -0.46194541 0.012049079 0.39834061 0.91602486 0.047149751 0.089615695
-0.14920196 -0.46384335 0.01651568 0.34162894 0.93970233 -0.015786804 0.11793214
-0.1366736 -0.46903279 0.017528638 0.40330666 0.9144454 0.033666186 0.076359458
-0.075976968 -0.46077543 0.012074143 0.53929156 0.81514198 -0.21144335 0.20617957
-0.06059961 -0.46279991 0.01889798 0.20204771 0.97937 0.0033331437 0.12265534
-0.023370983 -0.46770117 0.013123657 -0.20866135 0.97797364 0.0052903946 0.1623583
-0.01686001 -0.46855837 0.010907933 0.017888229 0.99982202 0.0060037919 0.15897334
0.023204183 -0.46772313 0.016126111 -0.073384449 0.99669266 -0.034904897 0.1036239
0.067945927 -0.46183276 0.018883109 -0.16544251 0.98621726 -0.0020526662 0.00072375173
0.076250084 -0.46073949 0.014803022 -0.35003772 0.93673056 0.0030859457 0.1707245
0.13636586 -0.46916026 0.017283157 -0.42048296 0.90536475 -0.059235424 0.15384471
0.15686712 -0.46066833 0.017876133 -0.73440367 0.58340853 -0.34682238 0.19475947
-0.16238236 -0.45838383 0.017558053 0.42643654 0.9045167 0.001196458 0.00087336038
-0.15876286 -0.45988306 0.012003243 0.40116429 0.91499668 0.042991076 0.080002151
-0.097458899 -0.45391694 0.013823405 0.35009238 0.93669748 -0.0057581197 0.00078105263
-0.082264334 -0.45994768 0.016305462 0.2128818 0.97643006 -0.035577148 0.17948082
0.096852511 -0.45416814 0.015525296 -0.34618783 0.93816292 0.0020931419 0.00082005432
0.10631911 -0.45024693 0.019061685 -0.41564631 0.90937942 -0.016347717 0.1050751
0.15964571 -0.45951736 0.010403544 -0.49338949 0.86653227 0.07542371 0.18489523
0.16555908 -0.45706797 0.014029592 -0.55130082 0.75814533 0.34825721 0.22171937
0.17487173 -0.45289624 0.014958729 -0.48419008 0.87483084 -0.015203257 0.091981754
-0.18461156 -0.44589937 0.015505254 0.56440187 0.8254984 -0.0017123022 0.071652718
-0.13079688 -0.44010794 0.013638303 0.39093444 0.91827118 -0.06283617 0.16830517
-0.11674196 -0.44592965 0.013457462 0.35939154 0.92631841 -0.11301276 0.1968362
0.11758254 -0.44558147 0.017819889 -0.41842389 0.90728682 -0.041858107 0.17291892
0.12410334 -0.44288045 0.01399973 -0.37421221 0.92719436 0.016605334 0.071327023
0.13050331 -0.44022954 0.015188277 -0.45103398 0.89232481 0.018021973 0.093246937
0.18576598 -0.44501355 0.014113878 -0.50810325 0.85664469 -0.089392893 0.10700776
-0.19366097 -0.43895549 0.015491657 0.56940132 0.8220464 -0.0046824464 0.067494556
-0.13412654 -0.43872875 0.01749178 0.42049491 0.79918295 0.42952374 0.23941527
0.13556078 -0.43813461 0.019224703 -0.38265726 0.92389041 4.5730999e-06 5.2625641e-05
0.19735934 -0.43611765 0.014673352 -0.60688812 0.79478735 -9.4624091e-05 5.4187308e-06
0.20373809 -0.43122306 0.011397402 -0.60876447 0.79335105 -3.6670765e-06 0
-0.21352656 -0.4237121 0.017030993 0.65713239 0.74930954 -0.081927866 0.17542373
-0.15679257 -0.42934012 0.011279985 0.476071 0.87908775 -0.023688767 0.0018920053
0.15836139 -0.42869031 0.013787538 -0.48127598 0.87564027 -0.040342145 0.15298072
0.16698903 -0.4229033 0.017968625 -0.43391567 0.9009524 -0.0013773344 0.11710945
0.21726291 -0.42084506 0.015672991 -0.58962798 0.80720842 -0.02744936 0.091695778
-0.2232808 -0.41622737 0.013807938 0.61623847 0.78733879 0.018647591 0.099820524
-0.17124544 -0.4196372 0.015570074 0.6590932 0.74098659 0.1285883 0.20708543
0.21905696 -0.41946846 0.016245663 -0.62565929 0.77990454 -0.017301803 0.16113697
-0.23705018 -0.40566176 0.015003026 0.6597206 0.7495923 -0.053666975 0.13223784
-0.19359781 -0.40248567 0.011834264 0.59501159 0.80273527 0.039715011 0.080826662
-0.18870634 -0.406239 0.012718037 0.6420247 0.76167822 -0.08746779 0.11349991
0.23858294 -0.40448564 0.011126786 -0.63797748 0.76988363 0.016250376 0.0011083179
0.24170366 -0.40209103 0.0126414 -0.66978973 0.73833281 0.079033621 0.12745816
-0.25117898 -0.39309353 0.018402884 0.73710918 0.67565346 -0.01275057 0.0021063928
-0.24787456 -0.39693686 0.01446301 0.69551945 0.71685076 -0.048762038 0.069252543
-0.20527014 -0.39352924 0.01257512 0.59516507 0.80310589 -0.028272912 0.086092465
0.19939163 -0.39803994 0.018910572 -0.63519198 0.74795038 -0.19261698 0.15643236
0.20590496 -0.39304209 0.016564924 -0.65028274 0.75881302 -0.036540125 0.082084551
0.24958099 -0.39517599 0.013759737 -0.70323688 0.70688528 0.07596729 0.10957529
0.25223386 -0.39171869 0.016409425 -0.72864312 0.6675843 0.15300435 0.15782526
-0.21365695 -0.38709378 0.016132588 0.57454914 0.8164553 -0.057393789 0.096079685
-0.26611894 -0.3736234 0.013071544 0.83411133 0.5496304 -0.046526134 0.093519218
-0.23211953 -0.37034076 0.0101378 0.72899926 0.68434089 0.015414924 0.0019488456
-0.22471659 -0.37860742 0.016361728 0.81047708 0.58191264 -0.067115709 0.19819196
0.22649269 -0.37702748 0.012746879 -0.6623739 0.7424708 0.099990293 0.19086874
0.2686165 -0.37036845 0.017903551 -0.75087184 0.65688032 0.068555437 0.14929946
0.23328204 -0.36882573 0.013879158 -0.77859265 0.62742954 -0.011212087 0.17391713
-0.27910268 -0.35670266 0.012638435 0.82218629 0.56913334 -0.0098505663 0.142612
-0.24485292 -0.35374627 0.016501717 0.82006508 0.568905 0.061969314 0.11861559
0.24446875 -0.35424694 0.010378689 -0.78661394 0.61597639 0.042562656 0.15209231
-0.25260195 -0.34364751 0.011748269 0.85850781 0.50735241 0.074550509 0.1556896
0.24875042 -0.34866694 0.011374287 -0.82302737 0.56783497 -0.013764189 0.085474975
0.25161934 -0.34492809 0.015370831 -0.79329157 0.60884196 5.2421533e-06 3.0127835e-06
0.28490472 -0.34914127 0.01313366 -0.75525647 0.65470052 -0.030903229 0.095708095
-0.25834778 -0.33615941 0.018042251 0.84954166 0.52242279 -0.07316751 0.12309755
0.25735703 -0.33745053 0.014560267 -0.71301782 0.70114511 0.0010658689 0.074741073
-0.30422741 -0.32308742 0.013259969 0.86773992 0.49270639 -0.065328926 0.14180097
-0.26638335 -0.3256872 0.013061386 0.80342263 0.59540135 0.0030452909 0.00036653533
-0.30601043 -0.31905076 0.011161152 0.85848516 0.50954044 -0.058066286 0.12228289
0.30746621 -0.3155362 0.014828205 -0.9459089 0.32370549 0.021702899 0.12183519
-0.27935508 -0.30769518 0.018698428 0.83847839 0.54240823 -0.052414902 0.14781357
0.31259733 -0.30314863 0.01645663 -0.90089339 0.43228045 0.039047942 0.089596629
-0.31705624 -0.29238391 0.016304292 0.93791163 0.34686065 -0.0030781587 0.077468336
0.28300464 -0.29888427 0.015417719 -0.89238811 0.44427091 0.079163291 0.17663291
-0.32070136 -0.28358382 0.01434876 0.92648566 0.37341249 -0.04676985 0.11364719
-0.29037455 -0.28109178 0.014353409 0.88939679 0.45230079 0.066311844 0.079772249
0.32170147 -0.28116944 0.013167605 -0.96113211 0.27581179 0.012364006 0.11183307
-0.32313192 -0.27771604 0.014344394 0.87741584 0.47961712 -0.010431276 0.10427116
-0.29351616 -0.27350715 0.014448017 0.92283231 0.27527478 0.26945177 0.16695145
0.2912412 -0.27899948 0.017966256 -0.92387575 0.38269266 7.5691548e-07 2.8877939e-06
0.32415 -0.27525818 0.013774164 -0.92597419 0.37717605 0.017608128 0.10140675
-0.32868826 -0.2643019 0.016310753 0.94723475 0.28761807 -0.1414997 0.1646042
0.29788095 -0.2629697 0.012982562 -0.9650268 0.21939693 -0.14348607 0.15507455
0.32749563 -0.26718104 0.018705919 -0.95480669 0.26202071 -0.14031908 0.16941358
-0.33247086 -0.25516993 0.015222594 0.9823283 0.067718789 -0.17448553 0.16967855
-0.30258965 -0.25160187 0.017152414 0.940817 0.33891305 0.0011958136 0.095000438
-0.30605829 -0.24322788 0.017025091 0.9609496 0.27603558 -0.019496979 0.091763012
0.33692741 -0.24440247 0.012836285 -0.94902599 0.30741274 -0.069620453 0.16422176
-0.30776149 -0.23911597 0.014667124 0.98222369 0.18695921 0.016820505 0.088087015
0.30752787 -0.23967992 0.011275988 -0.93777925 0.34697875 0.013256453 0.082653463
0.3107394 -0.23062825 0.015473806 -0.97076339 0.23898309 -0.022483958 0.087123983
-0.34077811 -0.22442508 0.014634088 0.97181618 0.23310065 -0.035174944 0.099780753
-0.31183806 -0.22228293 0.015132518 0.94155771 0.32731193 -0.079598695 0.14989395
0.31204653 -0.22069968 0.019699797 -0.99179995 0.11501836 -0.055710718 0.13880028
0.34081513 -0.22414392 0.01257005 -0.98137069 0.16626814 -0.096262887 0.16807041
-0.34137028 -0.21992695 0.01537694 0.96881193 0.24698175 -0.020086052 0.090879507
0.31327698 -0.21135336 0.013550885 -0.98985672 0.1420358 0.0030848242 0.00033389873
-0.31427836 -0.20374744 0.015212774 0.9914521 0.13047114 -4.3296463e-06 2.9742259e-05
0.31384492 -0.20703962 0.012229055 -0.98983705 0.13670887 -0.039156329 0.077373281
0.31570783 -0.19288924 0.010873169 -0.99143863 0.13057368 3.5938269e-06 0
-0.3460238 -0.18457986 0.015036933 0.98119491 0.19275448 0.010110869 0.096560836
0.31619146 -0.18921579 0.018474557 -0.99144107 0.13055515 -2.4215267e-06 0
-0.31785199 -0.17660308 0.013901871 0.99438268 0.10452173 -0.016684713 0.08490105
0.34769288 -0.17190193 0.015135907 -0.99177444 0.12799773 9.3083632e-05 6.2621002e-05
-0.34876546 -0.16375481 0.016150713 0.9680987 0.22323753 0.11379763 0.21994925
-0.31915298 -0.16672081 0.015104376 0.98322397 0.17851689 -0.037446763 0.096204318
-0.32027051 -0.15823239 0.013091202 0.99958265 -0.0053949757 0.028381327 0.09413588
0.34970763 -0.1565983 0.015138211 -0.99906301 0.043238103 0.0018901299 0.0025024484
0.35023367 -0.15260255 0.016834006 -0.9999516 0.0056947647 0.008019249 0.002695102
-0.32091227 -0.1453149 0.014050486 0.99931413 -0.028941991 0.023101239 0.0016162168
-0.34830004 -0.13138267 0.014749527 0.99493581 -0.10005023 0.0096262004 0.067036368
-0.31971693 -0.13623522 0.011888415 0.99818808 -0.049733657 0.033870082 0.098040521
0.31966805 -0.135864 0.015943114 -0.82179105 0.41510341 0.39031845 0.26680622
0.34913537 -0.13772734 0.018292166 -0.99249095 -0.12189957 0.010111442 0.070903338
-0.31844991 -0.12661146 0.016287714 0.99222749 -0.12442499 -0.0017717479 5.6849891e-05
0.34786993 -0.1281154 0.01531899 -0.9928956 -0.11748303 -0.018870212 0.070039943
-0.34595019 -0.11353321 0.013310611 0.9858588 -0.16611217 -0.022115456 0.10472131
-0.3168422 -0.11439967 0.014263421 0.99781543 -0.063499048 0.018229442 0.12859109
0.31675974 -0.11377338 0.014368902 -0.99479157 -0.10166758 -0.0073072254 0.084349342
-0.34479412 -0.10475203 0.01669153 0.97530907 -0.19029438 0.11207274 0.16031495
-0.31558645 -0.10486117 0.017714731 0.99704772 -0.075595729 -0.01346211 0.14847361
0.31536776 -0.10320003 0.012092553 -0.97307074 -0.22734371 0.03805593 0.099211372
0.34468782 -0.10394464 0.013092831 -0.99217194 -0.12415311 -0.013448208 0.13836391
-0.34405529 -0.099140435 0.019519418 0.99109143 -0.12919858 0.032335266 0.089995898
0.31425416 -0.094741613 0.017738558 -0.99208999 -0.12365667 -0.021597894 0.18530244
0.34287786 -0.090196744 0.016667798 -0.98936617 -0.14135182 0.03426861 0.17262079
-0.31289363 -0.084407315 0.012885407 0.98768133 -0.15647832 -0.0003169401 0.00072881125
0.31318614 -0.086629212 0.014722593 -0.91385353 -0.18382154 0.36205161 0.23115768
0.34219623 -0.085019335 0.014952991 -0.9996379 0.019910153 -0.018102348 0.1741953
-0.31111112 -0.070867844 0.017070204 0.96784484 -0.18687463 0.16838698 0.18471174
0.34147325 -0.079527609 0.017775171 -0.9941898 -0.10501468 0.023635454 0.082933478
-0.33941579 -0.063899547 0.017879847 0.96604353 -0.25483605 -0.042642754 0.14084668
-0.33754024 -0.055741228 0.017407045 0.96379995 -0.25619531 -0.073848128 0.078857608
-0.30633095 -0.056103069 0.014043912 0.93731999 -0.34803519 -0.017399248 0.082863897
0.30724072 -0.058299594 0.013190077 -0.95363897 -0.27724844 -0.11707226 0.097329512
0.33730102 -0.0551637 0.014130421 -0.95894945 -0.28328279 0.012913923 0.0025908477
-0.33414456 -0.047543414 0.012571454 0.93300337 -0.35872346 -0.028673375 0.082971342
-0.30073321 -0.042588875 0.012985408 0.92493653 -0.38011867 -0.0014838635 8.2288439e-05
0.30285549 -0.047712613 0.010456808 -0.933411 -0.33528739 -0.1277741 0.16114148
-0.29657727 -0.032555617 0.010028049 0.89298165 -0.44311869 -0.078927957 0.10152405
0.29600877 -0.031183179 0.015051275 -0.90309721 -0.42834827 -0.030547312 0.14239956
-0.29513705 -0.029078605 0.016758963 0.92387211 -0.38270143 3.9557656e-07 1.8706103e-05
0.29425651 -0.02695277 0.014785707 -0.81769133 -0.57490665 -0.029379271 0.13300592
0.32327777 -0.02130881 0.015589193 -0.90800059 -0.41370973 -0.066174693 0.21680585
0.32157379 -0.017195076 0.015642762 -0.92644501 -0.37637356 0.0065229395 0.14837655
-0.31654301 -0.0050497111 0.015208893 0.92387891 -0.38268501 4.1798353e-06 0
-0.28702885 -0.0095035825 0.011272468 0.91740465 -0.39586392 -0.040751159 0.07617221
0.28554496 -0.0059212116 0.014831331 -0.90520144 -0.4236317 0.033859979 0.13716143
-0.27943686 0.0088250926 0.016392538 0.82525915 -0.56271523 0.047948055 0.11072954
0.28113735 0.0047197253 0.01121873 -0.80523801 -0.56739932 0.17219135 0.16483456
0.31062105 0.0092471335 0.018709049 -0.94298345 -0.31762615 0.099477515 0.10526051
-0.30845407 0.014478634 0.016002819 0.87028086 -0.49255002 0.0023734947 0.086269081
-0.27539575 0.015269393 0.019896619 0.89375424 -0.31132889 0.32292053 0.17837039
0.27443358 0.016523302 0.018564895 -0.8105287 -0.57822841 0.093248241 0.08481136
0.30742529 0.016962357 0.014203444 -0.89430445 -0.44311938 0.06216741 0.1114539
-0.26504126 0.028763639 0.015449449 0.80097294 -0.59869933 -0.0012178333 0.00022599802
0.26804864 0.024844315 0.016192064 -0.88606262 -0.45064771 0.10867302 0.16287877
0.2716541 0.020145612 0.011455346 -0.86004633 -0.50925332 -0.031327166 0.080495365
-0.29977757 0.031085968 0.014316438 0.8367247 -0.54553211 -0.047817066 0.086494215
-0.25706363 0.039160289 0.013150379 0.82519442 -0.5636664 0.036529791 0.073380366
0.25768316 0.038352907 0.017460331 -0.79335403 -0.6087606 4.7810586e-06 5.5448686e-07
0.24947208 0.049053799 0.016516313 -0.78020406 -0.62481785 0.029738698 0.12122605
0.28902346 0.045100994 0.017732397 -0.82951611 -0.55576861 0.054994062 0.089468226
-0.27868783 0.058570642 0.018566325 0.80637395 -0.58803111 0.063092314 0.08397194
0.24712007 0.052119002 0.014548968 -0.76793295 -0.64044291 0.010576491 0.093372822
-0.23627347 0.066254571 0.013699748 0.7787227 -0.62173718 0.083867975 0.11331826
0.27345565 0.065389343 0.012976751 -0.72082418 -0.69248533 -0.029607428 0.13548554
-0.26861912 0.071692415 0.011617377 0.79334617 -0.60877079 -9.8162045e-06 0
-0.23186179 0.07200405 0.019601619 0.68981826 -0.72108132 0.064748645 0.20639499
-0.22613806 0.078844041 0.017321452 0.3497605 -0.72793299 0.58972967 0.24447568
0.2288359 0.075947426 0.011830174 -0.70501143 -0.70893043 -0.019405659 0.17455696
0.23019755 0.074172884 0.010473706 -0.70420438 -0.70999116 0.0029670778 0.077862069
0.26332003 0.078598291 0.019405365 -0.7880975 -0.61555022 0.00053696969 0.00014636861
-0.22282392 0.081387073 0.013929613 0.72606128 -0.686607 0.037494533 0.12773488
-0.21427159 0.087949499 0.01411286 0.63941532 -0.72005373 0.26957509 0.21167703
0.21573979 0.086822897 0.014147773 -0.63317609 -0.77362704 -0.024273382 0.12177207
-0.2529802 0.092073478 0.018152349 0.73232293 -0.68059063 -0.022350719 0.11327104
-0.24858437 0.097802207 0.013187597 0.70468509 -0.70864493 -0.035231739 0.091738909
-0.20462459 0.095351882 0.013493776 0.60874271 -0.79336768 3.0914202e-06 1.0301469e-05
-0.19914657 0.099555314 0.018554315 0.59896231 -0.80016595 0.031283326 0.14854024
0.20015177 0.098784 0.015284628 -0.61312747 -0.7899074 -0.010996237 0.059121527
-0.24547493 0.10052455 0.012071818 0.67526501 -0.73488069 -0.062988132 0.1621706
-0.23668753 0.10726739 0.015896091 0.55242562 -0.82696176 0.10469092 0.17986536
-0.19434632 0.10323867 0.010903791 0.60254735 -0.79796493 0.013736716 0.069085099
-0.18950632 0.10695254 0.011900097 0.67809093 -0.73497087 -0.0032434741 0.081055842
0.18897074 0.1073635 0.017127812 -0.59740734 -0.80071902 -0.044199076 0.064308591
0.19403505 0.1034775 0.015482317 -0.57451528 -0.81849325 -0.000990364 0.078132503
0.23819843 0.10610801 0.01814574 -0.61321026 -0.78970993 -0.018204616 0.14177063
0.24236956 0.10290739 0.019604847 -0.70249671 -0.71142012 -0.019489169 0.15637706
-0.23097926 0.1116475 0.015771374 0.57220656 -0.81766081 -0.063328691 0.12822476
-0.22924381 0.11297916 0.014461115 0.60614955 -0.79534119 0.0038869742 0.077458687
-0.21413216 0.12457475 0.014523476 0.63144994 -0.75904149 -0.15851501 0.19207133
-0.16188416 0.12814407 0.01617749 0.27427447 -0.95720202 -0.092400432 0.20674108
0.15914828 0.12969176 0.014871001 -0.19863133 -0.97763431 -0.069114685 0.20828153
0.1672712 0.12401412 0.013189025 -0.63333529 -0.77012455 -0.076121233 0.15959036
0.21656732 0.12270617 0.015148014 -0.23786511 -0.80680919 0.54081345 0.21227957
-0.2027498 0.13330874 0.0123211 0.71056062 -0.70348251 0.014692171 0.099863842
-0.19649124 0.13811108 0.013537318 0.60872579 -0.79338068 -5.0032959e-06 2.3880206e-05
-0.14549093 0.13534881 0.012354083 0.40985227 -0.91211253 0.0084779607 0.00082545471
-0.13959001 0.13779303 0.015251309 0.37941128 -0.92458397 0.034520347 0.12051567
0.13929781 0.13791406 0.016174555 -0.38269842 -0.92387331 1.9623815e-06 0
0.14922486 0.13380215 0.014884815 -0.36717615 -0.92806333 -0.062290989 0.13465928
0.15627034 0.13088384 0.01689671 -0.43018937 -0.90229928 -0.028161468 0.093795404
0.20671721 0.13026443 0.01009585 -0.62080735 -0.78393489 -0.0066548688 0.1154163
-0.19076955 0.14250153 0.018471181 0.58610392 -0.80180818 -0.11655851 0.092210189
-0.18219203 0.14908329 0.016284131 0.51199341 -0.8571645 -0.055963397 0.079538606
-0.12327299 0.14455177 0.01302135 0.30938432 -0.94420844 0.11292361 0.20345831
-0.1171222 0.14709949 0.01875554 0.42452419 -0.90540171 -0.0051987716 0.079612873
0.12744571 0.14282337 0.012480021 -0.35334444 -0.93535751 -0.015939681 0.08405523
0.13275734 0.14062324 0.013847366 -0.38270286 -0.92387146 2.1659355e-06 0
0.19084886 0.14244065 0.019075796 -0.56205082 -0.82676709 0.023559522 0.075620711
-0.17776595 0.15247956 0.013428517 0.50541949 -0.86002797 -0.070021898 0.085819453
-0.16736555 0.15764707 0.015194262 0.46020144 -0.88781357 0.0013425217 0.0017154916
-0.10411137 0.15248875 0.012462988 0.34771055 -0.93700838 -0.033356979 0.081838436
0.095157884 0.15619741 0.017096519 -0.12920734 -0.99159276 0.0070120851 0.15175816
0.16621536 0.15812349 0.01285667 -0.37420422 -0.91737497 -0.13562585 0.17441444
0.17895588 0.15156648 0.013483673 -0.58602792 -0.80608684 0.08243385 0.15220904
0.18071361 0.15021774 0.012696415 -0.56707311 -0.81999135 0.077730946 0.13916935
-0.14798918 0.16567305 0.016009316 0.635014 -0.74841851 0.19138165 0.20084102
-0.13841724 0.1696379 0.015114531 0.3573072 -0.9338038 -0.018494306 0.1061936
-0.083522625 0.16101688 0.014073834 0.28580397 -0.95740366 -0.041160967 0.10191622
-0.076511368 0.16203246 0.017111123 0.32557395 -0.94551605 0.0010506191 0.097467087
-0.056201577 0.1647063 0.018818304 0.17414984 -0.98415995 0.03318223 0.18516177
-0.043837529 0.16633406 0.016572854 0.11281663 -0.99188173 -0.058677275 0.13662758
-0.038034394 0.16709806 0.014255889 0.061225411 -0.99799377 0.016119581 0.092790753
-0.02288908 0.16909198 0.014527068 0.021403883 -0.997109 0.072908238 0.15477246
-0.0180378 0.16973068 0.015155666 0.17467085 -0.98422784 0.028032312 0.17322735
0.020104647 0.16945857 0.012118116 -0.10823336 -0.99345398 0.036533859 0.085108936
0.035737444 0.16740046 0.015249793 0.089829624 -0.94705766 -0.30824083 0.24248646
0.046979859 0.16592038 0.017552882 -0.16814017 -0.98574317 0.0062709046 0.09374132
0.058401596 0.16441667 0.014264449 -0.14029917 -0.9896943 -0.028658854 0.10657912
0.073824853 0.16238615 0.014384702 -0.18658379 -0.98243904 0.00026240709 0.0013317498
-0.13572001 0.17075513 0.019393072 0.32896087 -0.94416934 -0.018139571 0.14212973
-0.12244803 0.1762526 0.016974181 0.38246667 -0.91524696 -0.12665814 0.15230764
-0.0080711348 0.17104281 0.016527876 -0.0082513327 -0.99977553 0.019512346 0.11053068
0.00055225653 0.1720327 0.0128638 -0.065990001 -0.99587333 0.062301863 0.075463958
0.11654897 0.17869608 0.011034995 -0.38267687 -0.92388219 2.0600432e-06 9.595841e-07
-0.10460758 0.18364239 0.011385649 0.34601739 -0.93822503 -0.0023974841 0.0013447148
-0.093195803 0.18836932 0.014957185 0.23965448 -0.96561253 0.10078737 0.13236101
0.095217794 0.18753178 0.012638857 -0.23656496 -0.95653832 0.17050357 0.11901442
0.10810386 0.18219416 0.013731703 -0.3099803 -0.95025432 -0.030478897 0.14056168
0.11059289 0.18116318 0.019364655 -0.083275273 -0.99470001 -0.060307462 0.19058214
-0.077581838 0.19111359 0.017125949 0.19792105 -0.97987968 0.025750857 0.068186089
-0.063572079 0.192958 0.013945594 0.08775191 -0.99545264 -0.037061457 0.09089873
-0.056978446 0.19382606 0.018866196 0.15432543 -0.98801368 0.0035659231 0.085532755
-0.045725174 0.19530758 0.01422587 0.14017501 -0.99012363 0.0024837626 0.14452238
-0.031943299 0.19712198 0.017027527 0.076989986 -0.99546444 0.055884302 0.080001988
-0.024402399 0.19811475 0.019230112 0.096885026 -0.99353456 0.059180319 0.14905426
-0.016911857 0.1991009 0.016275764 0.1624449 -0.9848631 0.060467429 0.16842146
0.013742783 0.19951811 0.016334988 -0.053536568 -0.99699885 -0.055920012 0.088018931
0.023654643 0.19821319 0.014385335 -0.082218468 -0.98384213 0.1590436 0.13891169
0.039733294 0.19609641 0.013190761 -0.14143446 -0.9899382 -0.0043223458 0.082208596
0.048097689 0.19499522 0.012699336 -0.1622349 -0.98559344 -0.047805976 0.092839189
0.060588457 0.19335081 0.012196437 -0.1665713 -0.9859395 0.013318386 0.078454576
-0.0045632538 0.2007266 0.017107964 0.024057759 -0.99786377 0.060738433 0.14739361
-0.0035439022 0.41993928 0.012266481 -0.50620121 -0.86142004 0.041423548 0.014074764
0.0068523972 0.41524845 0.013450926 -0.27025366 -0.95629418 0.11164422 0.011545434
0.028387349 0.41310659 0.014479304 -0.03987059 -0.99415463 0.10033414 0.00095138123
0.032476723 0.4131203 0.014608361 -0.029680632 -0.99391311 0.10609259 0.00094577274
0.043879531 0.41362792 0.019385073 0.051748935 -0.99574745 0.07621675 0.00097805832
-0.0057530925 0.42195719 0.015697973 -0.62820911 -0.77694052 0.041433528 0.015673241
0.074650377 0.4211629 0.012824621 0.54928362 -0.82985044 0.098161697 0.0064942376
0.080570184 0.42563352 0.012277655 0.71706998 -0.69627869 0.03172591 0.022043688
-0.015031772 0.43064862 0.011483639 -0.8075285 -0.5784322 0.11538605 0.013910687
0.086519241 0.43409455 0.017577332 0.869183 -0.4944149 0.0086524701 0.007592042
-0.022502674 0.44732678 0.015511113 -0.96886945 -0.24756482 0.0019115014 0.01587096
0.091719523 0.44608545 0.01338387 0.95956445 -0.2779752 0.044337671 0.018714141
-0.023430226 0.45551705 0.015603153 0.99915403 -0.011228637 0.039561041 0.014375976
0.092969477 0.4545567 0.019680804 -0.99728459 0.072461404 -0.013139284 0.016332051
-0.022503236 0.46462232 0.015752107 0.96382177 -0.26504084 0.028300814 0.0056380886
0.092144318 0.463723 0.013595248 -0.96454155 -0.26295063 0.022727633 0.014284649
0.086800963 0.47776002 0.012957225 -0.8252669 -0.55968195 0.07543616 0.022986136
0.077138856 0.48820299 0.011613492 -0.6455996 -0.75856137 0.088236794 0.016053032
0.082415991 0.48344892 0.01404652 -0.72133023 -0.69047701 0.054075722 0.011357619
-0.0034497629 0.49172011 0.015567955 0.58702391 -0.80842817 0.042974442 0.0077389055
0.013255663 0.49806085 0.017734796 0.20129515 -0.97591496 0.084084421 0.0074342308
0.02829727 0.49830922 0.011724918 0.034447707 -0.99532104 0.090274028 0.0010732417
0.045641162 0.49915522 0.019685481 -0.084761597 -0.99363953 0.074134462 0.0023088066
0.053714909 0.49855417 0.01925933 -0.13385855 -0.9880963 0.07581307 0.0052039251
0.064956568 0.49598941 0.019663846 -0.36224294 -0.92994457 0.063111536 0.013114008
-0.062535644 -0.49176711 0.022979453 0.079339042 0.98470026 -0.15514746 0.17130585
-0.050564211 -0.49334311 0.027192712 0.13054925 0.99144179 -1.3112515e-05 0.00010439803
-0.044099554 -0.49419421 0.025966067 0.087616459 0.99587041 0.023777559 0.14054407
-0.023027916 -0.49696833 0.023802035 0.11145911 0.99336851 -0.028210888 0.099845849
-0.001127154 -0.49985158 0.027081832 0.026364163 0.9989472 0.037541516 0.12476563
0.009998166 -0.49868372 0.022138864 -0.11278953 0.99287343 -0.03848153 0.094258614
0.03407165 -0.49551439 0.021353826 -0.097935215 0.99014306 -0.10012641 0.15435039
0.048060339 -0.49367276 0.024527946 -0.18786044 0.97994936 -0.066390954 0.097758405
-0.10202725 -0.48338383 0.026339471 0.34609142 0.93817168 -0.0073907725 0.00079083024
-0.089865819 -0.48816904 0.023966849 0.21900257 0.97560525 0.015240466 0.085131004
0.1029578 -0.48299837 0.02601701 -0.3888222 0.92063433 -0.035352036 0.17193116
-0.13050762 -0.47158682 0.02556707 0.35040355 0.93586349 -0.037106134 0.14246094
-0.12415913 -0.47421646 0.028064653 0.38863087 0.92136818 -0.0068360711 0.089716338
-0.0031465278 -0.47036377 0.022591949 0.0508129 0.99803799 0.036582466 0.089820959
0.11325279 -0.47873405 0.021413527 -0.30421725 0.94514978 -0.11892713 0.1916097
0.12474066 -0.4739756 0.021300584 -0.52761149 0.84909356 0.025810417 0.14838552
-0.1561026 -0.460985 0.02976045 0.48513302 0.87438363 -0.0099615222 0.16625541
-0.14352097 -0.46619651 0.023864105 0.41510418 0.9053961 0.089143224 0.12471404
-0.07961224 -0.46029687 0.02331607 0.18198307 0.98323584 0.011381349 0.082422078
-0.062847659 -0.46250397 0.026931271 0.2262499 0.97221875 -0.060014613 0.094094038
-0.037636355 -0.46582311 0.021693781 0.11785771 0.99302179 0.004158699 0.089150459
-0.026833368 -0.46724534 0.028424293 0.13056512 0.99143976 5.1255006e-06 7.9022982e-05
-0.018074054 -0.46839851 0.025983237 0.015070438 0.99946755 -0.028942937 0.089765757
0.010488419 -0.46939719 0.02092275 -0.051747527 0.99864769 0.0049969507 0.080947965
0.025457075 -0.46742654 0.022700269 0.01061157 0.99328226 -0.11522947 0.16196704
0.035817023 -0.46606261 0.022683084 -0.18196633 0.98295289 -0.02630193 0.12029777
0.046032023 -0.46471778 0.028611511 -0.12586762 0.99120206 -0.040937308 0.070561923
0.061574895 -0.46267152 0.023225173 -0.13329232 0.99107677 -0.00018706359 0
0.070896529 -0.46144432 0.023688793 -0.1928952 0.98016614 -0.045449004 0.077934287
-0.17274326 -0.45409217 0.024039812 0.47769952 0.87852085 -0.0020768212 0.0017367816
-0.10447515 -0.4510107 0.021003559 0.37582409 0.9266907 -0.00071585644 0.00017759114
0.084946029 -0.45909995 0.021989271 -0.27084309 0.96247935 0.016654598 0.0019949982
0.096931621 -0.45413536 0.026074037 -0.23023038 0.97312891 -0.0037427119 0.16732821
0.10324138 -0.45152175 0.023854762 -0.36645672 0.93028033 -0.016969001 0.087757908
-0.1907967 -0.44115335 0.021831959 0.58133203 0.81348085 -0.017378489 0.14165133
-0.18970367 -0.44199204 0.024024889 0.64307165 0.76570177 -0.012636525 0.090359606
-0.12419534 -0.44284236 0.02736311 0.48744947 0.86928248 0.082103275 0.15484734
-0.11699675 -0.44582409 0.028015122 0.53060389 0.82227421 0.20572974 0.22312163
0.11430219 -0.44694021 0.021088146 -0.38063082 0.92471135 0.0053968444 0.099572651
0.12715706 -0.44161558 0.024149358 -0.39519078 0.90978539 -0.12694381 0.086679928
0.18674791 -0.44426009 0.023952067 -0.36660454 0.9303568 0.0061097159 0.18560617
-0.20434202 -0.43075967 0.02162455 0.63250786 0.77429414 -0.020062184 0.097801127
-0.19965237 -0.43435815 0.025899202 0.68102467 0.73197186 0.020555703 0.16376558
-0.1501067 -0.43210953 0.027160779 0.46599016 0.8784799 0.1054807 0.15703584
-0.14333433 -0.43491474 0.025112219 0.381686 0.92380267 0.030071957 0.10559064
-0.1374474 -0.43735316 0.021808749 0.44413742 0.89528847 -0.034646925 0.24342757
0.13667545 -0.43767294 0.023415834 -0.38263729 0.92389864 -1.8691535e-05 0
0.14647938 -0.43361199 0.024133913 -0.44840452 0.89376724 0.010655385 0.13465242
0.15026742 -0.43204296 0.023086309 -0.42611679 0.90358466 -0.044262107 0.074902214
-0.21503982 -0.42255092 0.023672774 0.618747 0.78515667 0.026098752 0.14853305
-0.20951597 -0.42678952 0.026583225 0.67957562 0.73093933 0.062487476 0.14725269
0.16546805 -0.42404357 0.025000239 -0.47039342 0.88231844 -0.01562444 0.088873871
0.20623539 -0.42930681 0.026191548 -0.62528992 0.77992946 0.026879653 0.085577399
-0.2267997 -0.41352725 0.024947748 0.68587387 0.72608334 -0.048784114 0.094196253
-0.17819068 -0.41430795 0.023677692 0.79180616 0.57499057 0.20598271 0.19480038
0.17866479 -0.41394415 0.023260102 -0.60466123 0.79647928 0.0023612715 4.2239306e-05
0.1828838 -0.41070682 0.021376684 -0.60870612 0.79339576 1.4349604e-05 2.7144644e-05
-0.23665397 -0.40596581 0.02545459 0.5072037 0.77954322 -0.36750075 0.16314675
-0.19363223 -0.40245926 0.023252726 0.50621021 0.82165474 0.2619822 0.21015827
-0.18803267 -0.40675595 0.024354961 0.5718298 0.75948238 0.31015682 0.26646197
0.18848237 -0.40641087 0.026592165 -0.59530544 0.80238098 -0.042380426 0.079860397
0.23545018 -0.4068895 0.022345722 -0.58226222 0.81292564 -0.011071425 0.091312744
0.24110064 -0.40255374 0.029431969 -0.64292163 0.76457477 0.04557642 0.11341955
-0.19931901 -0.39809564 0.021117032 0.62805891 0.7773509 0.035603706 0.17559379
0.2054462 -0.39339408 0.02610305 -0.62190026 0.78291804 0.01671847 0.074522063
0.24816012 -0.39702767 0.026648041 -0.7418856 0.67045277 -0.0099424534 0.0018556213
-0.25364771 -0.38987619 0.02486445 0.70868492 0.69626385 -0.11394054 0.14759122
-0.21482179 -0.38619998 0.023305029 0.6743592 0.68184716 0.28341508 0.17466711
0.21419719 -0.38667923 0.026461825 -0.59886891 0.80070496 -0.015082944 0.069770552
0.22185892 -0.38080016 0.028248012 -0.65713656 0.75363672 0.014254588 0.084646858
0.25986525 -0.38177326 0.026199944 -0.80769861 0.58607394 0.064344749 0.10268058
-0.26825193 -0.37084359 0.023749605 0.80273008 0.58575493 0.11187275 0.092958868
-0.23063463 -0.37227589 0.026952287 0.57333755 0.81660277 0.06666293 0.22785151
-0.22543463 -0.37805644 0.025923714 0.69022512 0.72353309 0.0094422 0.0016378108
0.26588118 -0.3739332 0.025695719 -0.91602433 0.27780154 0.28935373 0.20829321
-0.27022615 -0.36827075 0.023646235 0.79328561 0.60884964 1.2458386e-06 0
-0.23482865 -0.36681017 0.025590718 0.7413972 0.6710189 -0.0079884259 0.18475842
0.23917025 -0.36115208 0.021832682 -0.80043119 0.58176738 0.14441834 0.14756328
0.27214739 -0.36576691 0.024760753 -0.80557531 0.59245527 -0.0067281714 0.10793223
0.2431782 -0.35592878 0.022173507 -0.78433347 0.61836487 0.049456604 0.15724717
0.25000054 -0.34703776 0.026677996 -0.80882639 0.5880475 -2.4387635e-05 0.12149886
-0.26181015 -0.33164716 0.024019718 0.79332459 0.60879898 -9.6741778e-06 0
-0.25988477 -0.33415633 0.02504161 0.79334861 0.60876757 1.8703228e-06 0
0.29440951 -0.33675438 0.024002098 -0.80540872 0.58530462 -0.093462452 0.19772759
-0.29963285 -0.32994723 0.021485928 0.8361975 0.54801476 -0.021298276 0.095383301
-0.26534843 -0.32703596 0.027169704 0.79927915 0.60095972 -0.00052007608 6.0543643e-05
0.26946682 -0.32166874 0.024554916 -0.86614513 0.49343416 0.079468712 0.16486701
-0.30677396 -0.31720743 0.027646471 0.91843051 0.39097926 -0.060172003 0.093868189
-0.27435449 -0.315299 0.021936992 0.81117648 0.58441621 -0.02122446 0.079871945
0.27735713 -0.3113859 0.027284566 -0.51872253 0.72899252 0.44665074 0.20219074
0.30943498 -0.31078315 0.020342872 -0.91360295 0.3658447 0.17744645 0.18573229
-0.31070176 -0.30772501 0.02790875 0.89244062 0.43710783 -0.11174352 0.1530869
0.31133655 -0.3061924 0.026353657 -0.88156712 0.43349469 0.18687357 0.13647443
-0.31554937 -0.29602179 0.025449386 0.92387962 0.38268325 1.7687127e-06 8.4392277e-06
-0.28487724 -0.29436341 0.022049565 0.90834224 0.41365838 0.061652787 0.076124169
0.28301609 -0.29885665 0.02450075 -0.88172126 0.47169206 -0.0086187199 0.15883791
0.31787491 -0.29040751 0.028816208 -0.86853158 0.46153799 0.18065317 0.19461352
-0.32106364 -0.28270927 0.027162351 0.91914058 0.39286238 0.028981246 0.097001009
0.28968614 -0.28275368 0.028135538 -0.8877812 0.45830318 0.042458344 0.19765611
0.29077035 -0.28013617 0.022656888 -0.92378062 0.37999928 0.047222614 0.090576775
-0.29459113 -0.27091199 0.025167525 0.92871273 0.37078959 0.0027907542 0.074086443
0.29317874 -0.27432179 0.026299622 -0.95152706 0.29853445 0.073983267 0.13931252
0.32636791 -0.26990366 0.029005378 -0.97123724 0.20281388 0.12475891 0.14414021
-0.30314952 -0.25025016 0.020506166 0.95167375 0.30693153 -0.010493706 0.096171245
0.299914 -0.25806147 0.022754565 -0.9117834 0.40923297 0.034342147 0.11971545
0.30260277 -0.25157011 0.020698357 -0.94284093 0.33313292 -0.0085679917 0.06636557
0.33321097 -0.2533831 0.028464206 -0.93799692 0.34663647 0.0022191969 0.001187642
-0.33722335 -0.24369639 0.0267451 0.95206475 0.30403537 -0.033692189 0.085576572
0.30388409 -0.24847671 0.02348889 -0.93742311 0.34818363 -0.0024908679 0.00063114078
-0.30801323 -0.23850818 0.029483993 0.942433 0.33429486 -0.0081775216 0.09544903
0.31081009 -0.23009126 0.02950231 -0.96517807 0.24519557 0.091161393 0.15638739
-0.31207126 -0.22051175 0.024224706 0.98464733 0.17451949 -0.0035400719 0.0011300958
0.31113738 -0.22760513 0.024840243 -0.95610029 0.28972113 -0.043976266 0.085312717
0.34048057 -0.22668509 0.021483019 -0.97587419 0.19141172 -0.10502996 0.13974437
-0.34186471 -0.21617156 0.022246942 0.97636259 0.2134105 -0.034236204 0.10654121
-0.312204 -0.21950364 0.025198564 0.97201502 0.23421451 -0.018173572 0.073360644
0.34200349 -0.21511711 0.025125466 -0.98764086 0.14213727 -0.066050395 0.10392123
-0.34349772 -0.20376758 0.023802415 0.99484646 0.10138936 -0.00082290208 0.09509515
0.31473309 -0.20029323 0.025038913 -0.99144745 0.13050623 -5.0464282e-06 7.0554356e-06
-0.3150728 -0.19771278 0.028349543 0.99153626 0.12713358 -0.026324414 0.068611652
-0.34608853 -0.18408823 0.021091238 0.99144816 0.13050139 -6.222886e-06 3.2425589e-05
-0.3167994 -0.18459812 0.028322548 0.99144775 0.13050444 -6.2716058e-06 0
0.34571755 -0.18690634 0.028624594 -0.99143368 0.13061106 7.2023131e-06 0
-0.34765536 -0.17218691 0.023473084 0.99489337 0.090370819 -0.044947594 0.093026288
0.3179099 -0.17616284 0.022133969 -0.99144405 0.13053274 5.3520438e-07 1.4873908e-06
-0.34878501 -0.16360626 0.021440141 0.99769115 0.021149067 -0.0645371 0.093172714
-0.31941733 -0.16471288 0.028816015 0.99950862 0.0048589348 -0.030967688 0.16232005
0.3199563 -0.16061924 0.026489258 -0.9983784 0.043779302 -0.036386553 0.082063071
0.34834436 -0.16695355 0.022397757 -0.99470413 0.096315555 -0.035875566 0.07347402
-0.35021237 -0.15276444 0.025603095 0.98888677 0.093980156 -0.11519828 0.1330338
