# .PCD v0.7 - Point Cloud Data file format
VERSION 0.7
FIELDS x y z normal_x normal_y normal_z curvature
SIZE 4 4 4 4 4 4 4
TYPE F F F F F F F
COUNT 1 1 1 1 1 1 1
WIDTH 583
HEIGHT 1
VIEWPOINT 0 0 0 1 0 0 0
POINTS 583
DATA ascii
0.10563467 -0.06500645 0.30930802 -0.38268539 0.92387873 -3.4123113e-06 5.8702153e-07
0.1120279 -0.06235829 0.30388951 -0.38973081 0.92092782 0.0014180627 0.00011043604
0.21049249 -0.067058727 0.30557936 -0.60893857 0.7932173 -1.7846438e-05 1.1539968e-05
-0.22107092 -0.05894161 0.30573279 0.6627726 0.74847412 0.022780804 0.0017199961
-0.13115579 -0.054435264 0.30467254 0.49264848 0.87020624 0.0062093954 0.0018815002
-0.12190716 -0.05826617 0.30559826 0.45552859 0.8901993 0.0062351124 0.0016217184
-0.11832614 -0.059749465 0.30787188 0.40464765 0.91447055 0.0019701305 0.00070272171
0.12212578 -0.058175612 0.30953705 -0.43812159 0.89882612 -0.012692244 0.0010942436
0.13362177 -0.053104196 0.30337667 -0.48224163 0.87600744 -0.0073534842 0.0021895349
0.22491853 -0.055989262 0.30332866 -0.67835367 0.73439157 0.022479437 0.0021701455
-0.14217968 -0.046537481 0.30288732 0.5450086 0.83842587 -0.0027738528 0.0014628061
0.23785509 -0.041317657 0.303904 -0.76623774 0.64247352 0.010371227 0.00082784373
-0.24323721 -0.034303542 0.30389035 0.79050761 0.61245197 -0.00056393526 5.4407396e-05
-0.23887813 -0.039984435 0.30599567 0.7784797 0.62766927 0.00072339969 0.00046802417
-0.15305537 -0.03819225 0.30409086 0.6064167 0.79514688 -0.0005102373 1.5000656e-05
0.15531951 -0.036454946 0.30714774 -0.60877651 0.79334176 -2.2761204e-05 0
0.16333869 -0.030301599 0.30458748 -0.60907626 0.79311162 0.00010924519 2.974931e-06
0.24303351 -0.034569029 0.30618507 -0.78267902 0.62241459 0.0036849685 0.00029354478
-0.25392675 -0.020372691 0.30291712 0.79335213 0.60876292 -1.6552896e-05 0
-0.24726066 -0.029060112 0.3082388 0.79331976 0.60880512 3.5298242e-05 3.5053657e-05
-0.17097387 -0.024442922 0.30525756 0.62243479 0.78264111 0.0069166129 0.00037033399
0.16843098 -0.026394133 0.30676144 -0.61739945 0.78664976 -0.00011957705 8.4513798e-05
0.24815896 -0.027889419 0.30234575 -0.79335231 0.6087628 -4.0247542e-05 0
-0.18533167 -0.013425782 0.30193508 0.69179136 0.7220161 0.010834096 0.0021396538
-0.17958158 -0.017837975 0.30453908 0.68119907 0.73196036 0.014202876 0.0021549594
0.18300866 -0.015208291 0.30775055 -0.67181897 0.74071503 0.00067260501 0.0015843773
-0.26481426 -0.0061838008 0.30596018 0.79625916 0.60495555 -7.079394e-06 6.3641324e-05
0.18981737 -0.008865023 0.30871889 -0.71553111 0.69857579 0.0026465601 0.0024302625
0.19584566 -0.0010087695 0.30179539 -0.7682395 0.64016205 0.00079613854 0.0011924272
0.26279378 -0.0088169314 0.30966789 -0.79334289 0.60877496 4.7688467e-05 9.363911e-06
-0.27125913 0.0022152765 0.30789563 0.80986327 0.58661824 -0.0006825552 0.00097271497
-0.19938068 0.0035981741 0.30928665 0.78087819 0.62467813 0.0025334328 0.00048099866
0.1987789 0.0028138673 0.3089816 -0.78675485 0.61726558 -0.00021739713 0.0002467928
-0.28167099 0.017121335 0.30874643 0.86715931 0.49799287 -0.0061551784 0.0021641089
-0.2787486 0.011975755 0.30277032 0.85858887 0.51266396 0.00092910149 0.0022878819
-0.21032134 0.017856281 0.30661231 0.79335898 0.60875404 6.1417893e-05 0
-0.20705128 0.013594661 0.30064058 0.79334295 0.6087749 3.4797828e-05 1.2694182e-05
0.20452827 0.010306619 0.30395049 -0.79335463 0.6087597 -3.9784922e-05 0
0.27799466 0.010993224 0.30723095 -0.85399455 0.51948559 0.028775761 0.0022259552
-0.21656923 0.025998721 0.30371577 0.79863572 0.60180318 -0.0037273378 0.00011991322
0.28607416 0.027751585 0.30516705 -0.90820199 0.41851914 0.0032912774 0.00078438513
-0.28914016 0.035153486 0.3050231 0.91784966 0.39692751 0.00071753631 0.00021449004
-0.22383806 0.035471637 0.30501679 0.83207846 0.5546447 0.0038262561 0.0018002318
0.22561982 0.037793644 0.30287206 -0.83811021 0.54548138 0.0046363003 0.0024614385
0.28832883 0.033194788 0.30351472 -0.91952986 0.39300984 -0.0028420195 0.00014177212
-0.29340354 0.045446169 0.30290213 0.92387903 0.3826848 -2.9660798e-05 0
-0.23028219 0.044271067 0.30871218 0.87870133 0.47737181 -0.00035695705 0.0021533745
0.22957702 0.042950775 0.30840126 -0.88088048 0.47329783 -0.0062276637 0.0029207713
0.23135728 0.046866596 0.30380136 -0.88771391 0.46039516 -0.0005582138 0.0025070282
0.29294977 0.044350747 0.30338168 -0.92385733 0.38273704 9.3285373e-05 6.9716269e-05
-0.29559743 0.050742682 0.30364314 0.92388129 0.3826791 -1.7548926e-05 0
-0.2353745 0.056564968 0.30633235 0.90737456 0.42030585 0.0037808265 0.00087536161
0.23632804 0.058867063 0.30745986 -0.91249007 0.40909693 -0.0012772975 0.00076051889
-0.30147851 0.064940885 0.30583262 0.92387545 0.38269323 -5.0194185e-06 7.128016e-06
-0.23777321 0.062355995 0.30308503 0.92387009 0.38270634 0.0001236355 0
0.24050725 0.068956554 0.30433774 -0.923554 0.38346824 -0.00026556919 1.7115639e-05
0.30570623 0.075147554 0.30387595 -0.92964721 0.3684451 0.0020828103 0.00024067648
-0.31166539 0.089534238 0.30834287 0.96106625 0.27625605 0.0058561768 0.0027987254
-0.30911624 0.083380036 0.30008283 0.94457358 0.3282412 0.0062004682 0.0015909409
-0.24694687 0.084503256 0.30292764 0.92679554 0.37556341 -0.0014474425 0.00010594328
-0.31311867 0.094585784 0.30492908 0.97459555 0.22379124 -0.0089960676 0.0018486797
0.31291547 0.093042389 0.30724457 -0.96716207 0.25415546 0.0016036858 0.0018350338
-0.31488061 0.10796897 0.30110446 0.98573935 0.16824524 -0.0033903492 0.00091461855
0.25359839 0.10056146 0.30182174 -0.95062721 0.31021038 -0.0087944735 0.0011761597
-0.31584579 0.11530027 0.30244929 0.99093843 0.13430676 -0.001653041 1.4254166e-06
-0.25710827 0.11247957 0.30191851 0.96709704 0.25415269 -0.011388246 0.0022580989
0.25801799 0.11938965 0.30682066 -0.98312134 0.18291545 -0.003802829 0.0015320629
0.3157233 0.11437009 0.30617237 -0.99131346 0.13151497 0.0012042429 4.0725703e-05
-0.25891745 0.12622161 0.309708 0.99074334 0.13574488 0.00095192593 8.7523389e-05
0.25855958 0.12350354 0.30379626 -0.98962957 0.14364028 0.00089673814 0.0002275958
-0.31868982 0.13690302 0.3062968 0.99144536 0.13052228 -0.00012067543 0
0.26058444 0.13888358 0.30544242 -0.99144673 0.13051215 1.9506881e-05 0
0.31877971 0.13758571 0.30821228 -0.99145091 0.13048033 -5.9925354e-05 0
-0.31951261 0.1431524 0.30121282 0.99143738 0.13058294 -4.8075508e-05 7.4289542e-06
-0.26194331 0.14920518 0.30780929 0.99159527 0.1293779 -0.00036210153 0
0.2614578 0.14551748 0.30267245 -0.99157047 0.12956844 -9.3464456e-05 0
0.31976953 0.14510392 0.30218577 -0.99144679 0.13051111 -7.1826456e-05 0
-0.32087773 0.15352176 0.30336043 0.99170053 0.12856925 -6.9832866e-05 5.0357336e-05
-0.26256698 0.1539425 0.30516753 0.99159676 0.12936538 -0.00070349674 1.3138801e-05
0.26229393 0.15186855 0.30385813 -0.99177128 0.12802213 -1.6537258e-05 0
0.32092655 0.15389243 0.30376065 -0.99184734 0.12743175 -0.00017372899 0
-0.32207173 0.16259092 0.3031835 0.995785 0.091708302 -0.0013462774 0.00088614569
-0.26368994 0.16247219 0.30484238 0.99541873 0.094676137 -0.013338837 0.0007174713
0.26361558 0.16190735 0.3061443 -0.9956972 0.092664748 0.00057947519 0.00077880698
0.3226445 0.16694166 0.304979 -0.99740762 0.071294352 -0.0097530652 0.0019015793
-0.32349211 0.17551431 0.30324328 0.99986404 -0.010235457 -0.012928112 0.0020032721
0.26509809 0.1746788 0.30419922 -0.999906 0.013690197 0.00075414655 0.0030757431
0.3235144 0.17632774 0.30615044 -0.99993479 -0.0089353565 -0.0071139364 0.0017045029
0.2644116 0.1843341 0.30535063 -0.99888849 -0.046161085 -0.0095331147 0.0024138454
-0.32106695 0.19732907 0.30457199 0.99192965 -0.12678991 0.00010828665 2.2974564e-05
-0.26325473 0.19312151 0.30521148 0.99289042 -0.11899854 -0.0028079969 9.2433387e-05
0.26256323 0.19837379 0.30350065 -0.99211633 -0.12530319 -0.0020674926 2.0002273e-05
0.32157513 0.19346908 0.30327302 -0.99544311 -0.095316112 0.0027981675 0.00057477294
-0.26186016 0.20371437 0.3059442 0.99145049 -0.13048303 7.35605e-07 4.4056553e-05
0.26194966 0.20303434 0.30822384 -0.99213117 -0.12520032 -0.00076408649 3.2583022e-05
-0.26053247 0.21379918 0.30354893 0.9914465 -0.13051385 -7.6051347e-06 0
0.26033095 0.21532971 0.30498654 -0.99134678 -0.13126867 3.3461736e-05 0
0.31850916 0.21675748 0.30155724 -0.99144387 -0.13053387 5.1592371e-05 0
-0.25971335 0.2200208 0.30977219 0.99103534 -0.1335993 0.00040294405 2.3657751e-05
0.25966829 0.22036305 0.30979022 -0.99136263 -0.13114868 0.00019598384 0
0.31738305 0.22531107 0.3065995 -0.99143791 -0.13057886 -2.1633745e-05 0
-0.31637141 0.23299521 0.30339152 0.9914391 -0.13056989 -1.6597768e-06 0
-0.25771749 0.23518087 0.30632108 0.97858107 -0.20563371 -0.0096861497 0.0016630206
0.25742 0.23744065 0.30473101 -0.97436172 -0.22480431 0.0090663787 0.0022892717
0.31643701 0.23249698 0.30764577 -0.99143952 -0.1305667 -0.00012576241 0
-0.31465417 0.24603885 0.30760497 0.98275417 -0.18475655 0.0077013467 0.0020125308
0.25631657 0.24457785 0.30405906 -0.97063351 -0.24040569 0.0086997831 0.0021037762
-0.31298891 0.25868779 0.30734774 0.96974981 -0.24392003 0.0093921516 0.0025007429
-0.25210321 0.25533617 0.30864954 0.9465999 -0.32240313 0.0022075942 0.0013648133
0.25164339 0.25644633 0.30643481 -0.93846655 -0.34533611 0.0048467736 0.00071023626
0.3138375 0.252242 0.30181965 -0.97926557 -0.20257238 0.0018126993 0.0021341401
-0.30880642 0.26965582 0.3006112 0.94281983 -0.33323258 -0.0068433136 0.001051424
-0.24862151 0.26374176 0.30581453 0.93267947 -0.36070624 -6.1267849e-05 0.00059233798
0.24802893 0.26517239 0.30768478 -0.92902249 -0.37001836 0.0018764699 0.00031074657
0.30995819 0.26687527 0.30141422 -0.94494933 -0.32720137 0.003156252 0.0013998193
0.31009784 0.26653802 0.30688408 -0.94350934 -0.33129042 0.0060726185 0.00097816286
-0.30687875 0.27430966 0.30580297 0.93876314 -0.3445324 0.0045954078 0.00098753721
-0.24397045 0.27497041 0.30499506 0.92389709 -0.38264105 -1.0231505e-05 7.4433046e-05
0.24291609 0.27751592 0.30340558 -0.92389941 -0.38263533 6.828089e-05 0
-0.30297166 0.28374222 0.30380768 0.92476791 -0.38053155 -1.6179129e-05 2.2132146e-05
-0.24081542 0.28258732 0.30798349 0.92386413 -0.38272074 3.1799926e-05 0
0.24136978 0.28124902 0.30791166 -0.92388284 -0.3826755 0.00015652846 3.6112826e-06
0.30246422 0.2849673 0.30085865 -0.92383701 -0.38278601 6.2123363e-05 0
-0.29808119 0.29554886 0.30313158 0.92388964 -0.38265905 0.00010588906 6.2236228e-05
-0.23366496 0.29985011 0.30001932 0.902839 -0.42997026 0.0027166118 0.0011390157
0.22934583 0.30963847 0.30843183 -0.88600618 -0.46366981 0.0018448473 0.0019423921
0.295497 0.30178761 0.30739933 -0.92385942 -0.38273194 -6.411082e-05 0
0.2255991 0.31452131 0.30377945 -0.83840448 -0.54474896 0.018067112 0.0017056552
-0.28709507 0.32207173 0.30676496 0.91568345 -0.40187725 -0.0043170578 0.00055514969
-0.21502203 0.32830557 0.30175215 0.79333174 -0.60878962 2.4800365e-05 0
0.21852146 0.32374507 0.30556819 -0.801929 -0.597413 0.0027646327 0.00031950706
0.28387746 0.32983971 0.30850986 -0.89782059 -0.4403317 0.0051094438 0.0014194135
-0.28001457 0.33866227 0.30506152 0.86268353 -0.50573426 -0.0031750619 0.002156792
0.20615107 0.33986646 0.30708015 -0.79343259 -0.60865819 3.2816708e-05 4.0939191e-05
0.2102744 0.3344928 0.30532753 -0.79332882 -0.60879332 -1.6148615e-05 8.6793107e-06
-0.27440631 0.34597111 0.30772617 0.82781702 -0.56097412 0.0051927646 0.0014890904
-0.20412795 0.34250301 0.30972725 0.78958511 -0.61364108 -0.00025153701 0
-0.19912405 0.34902421 0.30691651 0.78002656 -0.62574625 -0.00031738784 0.0002264073
0.19991738 0.34799033 0.30576602 -0.7784307 -0.62770605 0.0055548372 0.00031956134
0.2016343 0.34575284 0.30727398 -0.79184711 -0.6107192 -0.00047223255 9.7845641e-06
0.26752692 0.35493651 0.30515862 -0.79770392 -0.60304904 -0.00052748155 4.5492834e-06
-0.26264417 0.36129981 0.30314958 0.79332006 -0.60880476 -2.4574765e-05 0
-0.2570253 0.36862248 0.30427718 0.79319811 -0.60896361 -0.0002190941 0
-0.18578362 0.3651441 0.30553162 0.7054522 -0.70875698 -0.00086111162 0.0024868033
0.25652662 0.36927241 0.30310386 -0.79326355 -0.60887837 3.5896894e-05 0
-0.2521967 0.37491521 0.30426618 0.79330462 -0.60882485 2.8804274e-05 0
-0.249359 0.37861341 0.30430964 0.79335827 -0.60875499 -0.00010211227 0
-0.17354986 0.37475419 0.30059049 0.61042148 -0.79207671 0.00021964013 6.4410713e-05
0.17865762 0.37083486 0.3008039 -0.65272701 -0.75759166 -0.0015114202 0.001473633
0.25278595 0.37414733 0.30375737 -0.79332054 -0.60880417 -1.3220858e-05 1.29525e-05
-0.24465637 0.38474199 0.30480883 0.7933901 -0.60871339 3.1536278e-05 1.5354806e-05
-0.16629514 0.38032094 0.30611023 0.61000985 -0.79239386 -2.758865e-05 1.3276355e-05
-0.15698524 0.3874647 0.30303043 0.60875726 -0.7933566 3.5361787e-05 2.6322145e-05
0.15990272 0.38522601 0.30521935 -0.60875952 -0.79335487 -7.9225618e-05 0
-0.23315689 0.39972839 0.30531844 0.73861104 -0.67412591 -0.0028390009 0.002252474
-0.14650942 0.39550304 0.30799839 0.58890617 -0.80820036 -0.0012944433 0.00027704393
0.14501242 0.3966518 0.30378917 -0.57736808 -0.81648391 -0.00042739706 0.00098583056
0.15247203 0.39092779 0.30753458 -0.60878038 -0.79333878 4.9444821e-05 0
0.23390104 0.39875859 0.30333877 -0.7449404 -0.66700161 0.0131426 0.0013732676
-0.13881011 0.401411 0.30322176 0.56058574 -0.82806569 -0.0071344189 0.0014605632
0.13509065 0.40426502 0.30871537 -0.52064818 -0.85376948 -0.0017759829 0.0021641494
0.23075502 0.40285861 0.30620447 -0.72747004 -0.68609029 0.0082160104 0.0018044052
-0.22265087 0.41001719 0.30649585 0.64618504 -0.76317835 0.001925529 0.00097380503
-0.21478073 0.41605619 0.30412626 0.62601137 -0.77980745 0.003185096 0.00033415519
-0.10515672 0.41749236 0.30674353 0.38269117 -0.92387629 8.9493456e-05 3.0240364e-05
0.11722995 0.41249147 0.30483323 -0.38972747 -0.92092997 0.00073724013 0.00011187126
0.22126777 0.41107851 0.30784589 -0.6601879 -0.75102872 0.010382745 0.0019553611
-0.20173693 0.42606506 0.30490443 0.60878658 -0.79333413 -6.9184927e-05 0
-0.19948442 0.42779344 0.3092168 0.60891831 -0.79323292 -7.7160264e-05 0
-0.084519163 0.42604071 0.3035863 0.37175405 -0.92833084 0.0008640759 0.00024354483
0.084272176 0.42614305 0.30507752 -0.34536591 -0.93845069 0.0057061589 0.0008144633
0.09420044 0.42203063 0.30313292 -0.38275349 -0.92385048 4.0241743e-05 0.00014184059
0.19793496 0.42898241 0.30666494 -0.60878116 -0.79333824 -2.5812556e-06 3.7413993e-05
0.20446147 0.42397442 0.30536449 -0.60881114 -0.79331523 8.1400845e-05 8.6909618e-05
-0.19246235 0.4331817 0.30414683 0.60881722 -0.79331052 -0.00021805169 0
-0.18491025 0.43897662 0.30348724 0.60846496 -0.79358077 5.2855637e-05 0
-0.068160355 0.43266034 0.30223715 0.25195044 -0.9677375 0.0022572386 0.0021476063
-0.035519905 0.43695754 0.3072398 0.13053444 -0.99144381 4.1212443e-06 0
-0.029982438 0.43768656 0.30776137 0.13053681 -0.99144346 6.5602784e-05 3.0380913e-06
-0.014704965 0.43969786 0.3070662 0.085413873 -0.99631792 -0.0074242461 0.00085789565
0.019449869 0.4390732 0.30636585 -0.11265982 -0.99363339 0.00068894902 0.00042933275
0.035100684 0.43701273 0.30258185 -0.13054052 -0.99144298 1.4070195e-05 5.9029109e-05
0.058477283 0.43393517 0.30093095 -0.19420867 -0.98095948 0.001178595 0.0015937735
0.065124236 0.43295017 0.30613241 -0.23876308 -0.97105104 0.0072212927 0.0029170564
0.19181123 0.43368131 0.30674437 -0.60875285 -0.79335994 7.1443523e-05 3.8380414e-05
-0.18046451 0.442388 0.3024047 0.60551685 -0.7958324 -0.00047644653 1.8362049e-05
-0.17605262 0.44577336 0.30347303 0.58364117 -0.8119874 -0.0062863971 0.00063248223
-0.010315849 0.44027573 0.30133709 0.069094658 -0.99759609 -0.0052799121 0.0014055175
-0.0057286271 0.44087961 0.30793136 0.043434076 -0.99904257 -0.0052319574 0.0022215513
0.0032231323 0.4412095 0.30684471 -0.029459603 -0.99956143 0.0030002415 0.0020229849
0.010844138 0.44020617 0.30772576 -0.062977925 -0.99800813 0.0036712696 0.0021223258
0.17563224 0.44609591 0.30603194 -0.58060479 -0.81418401 -0.0015847061 0.0008405805
-0.16941728 0.45086479 0.30476511 0.56776625 -0.82318795 -0.0017661457 0.0013902268
-0.15951714 0.45761016 0.30283967 0.47943091 -0.87755018 -0.0071959733 0.001981697
0.15592475 0.45909819 0.30697414 -0.46049106 -0.88764733 0.0054922816 0.0016898185
0.16661894 0.45301205 0.30841872 -0.53016955 -0.84789097 0.0010306019 0.0018386763
-0.15322734 0.46021545 0.30566126 0.45193055 -0.89205146 0.001724355 0.0017250846
-0.14614028 0.46315101 0.3064253 0.40176898 -0.91574073 0.00074675347 0.00029974355
-0.13650215 0.46714327 0.30362266 0.38276696 -0.92384493 2.3447334e-05 1.4346677e-05
0.13482648 0.46783733 0.30690297 -0.38284463 -0.92381281 6.7332808e-06 7.1323782e-05
0.14693137 0.46282336 0.3000471 -0.39831209 -0.9172498 -0.00060489512 0.00030058358
0.15143262 0.46095887 0.30571419 -0.45250493 -0.89176184 0.00031648038 0.0014955166
-0.12398458 0.47232819 0.30330914 0.38264868 -0.92389399 0.00014408458 3.4422832e-05
-0.11637148 0.47548166 0.30758086 0.38271567 -0.92386621 -0.00010939135 5.9691021e-05
-0.10684524 0.47942752 0.30914009 0.38233191 -0.92402506 0.00027156837 4.2077711e-05
0.11974771 0.47408316 0.30861902 -0.38273236 -0.9238593 1.7926461e-05 0
-0.098571561 0.4828546 0.30509073 0.3668409 -0.93028003 0.00260141 0.00028181911
-0.087546699 0.48742124 0.30838728 0.28616172 -0.95817465 -0.0035725285 0.0018089814
-0.076025553 0.48999104 0.30388907 0.195347 -0.98062181 -0.014846107 0.0011602609
0.076512381 0.48992693 0.30303165 -0.21237876 -0.9771874 -0.0001828957 0.0020088614
0.081495553 0.48927087 0.30793977 -0.2338251 -0.97225058 0.0073869219 0.0022363157
0.093350396 0.4850173 0.30005294 -0.33586213 -0.94188935 0.006415003 0.00078337546
0.10181259 0.4815121 0.30803809 -0.36378497 -0.93147421 0.0040274453 0.00036622977
-0.046349738 0.49389791 0.30188972 0.13054168 -0.99144286 -3.2898583e-06 6.4635664e-05
-0.033641655 0.49557099 0.30485022 0.13052951 -0.99144441 -9.1235233e-06 0
-0.024692424 0.49674916 0.30711901 0.12206423 -0.992522 0.00062093802 0.00010407426
-0.010010463 0.49868208 0.30286312 0.084038332 -0.99645895 -0.0026467794 0.00093345332
-0.0092083672 0.4987877 0.30642614 0.066943929 -0.99771225 -0.0094230883 0.0017647496
0.0051538823 0.49932149 0.30688104 -0.021413382 -0.9997406 0.0077591017 0.002144611
0.026359633 0.49652967 0.30114326 -0.1305476 -0.99144202 7.0311668e-05 1.0547295e-05
0.040861316 0.4946205 0.30576614 -0.13056305 -0.99144 1.2588262e-05 0.0001675456
0.054086704 0.4928793 0.30564988 -0.13051774 -0.99144596 0.00012782234 0
0.063129336 0.49168885 0.30627859 -0.13485219 -0.99086374 -0.0019845979 7.1555602e-05
-0.020208016 -0.27404362 0.31198046 0.18631087 0.41158491 -0.89212447 0.0033181645
-0.0014804673 -0.27629074 0.31322107 0.0079386681 0.41263655 -0.91086125 0.0019689368
0.0043280851 -0.27263361 0.31404212 -0.053763993 0.38943189 -0.91948473 0.0026125079
0.013054561 -0.27882373 0.31005076 -0.19509012 0.40202346 -0.89460444 0.0035315547
-0.020128146 -0.26910022 0.31420216 0.20065036 0.40351602 -0.89270049 0.0031039689
-0.019060412 -0.26388174 0.31668538 0.19842517 0.34800005 -0.91625506 0.0039932672
-0.0043704938 -0.26458997 0.31842804 0.0032543973 0.34377158 -0.93904769 0.0024824403
0.018559588 -0.26649362 0.3147926 -0.24040568 0.38089737 -0.89281708 0.0035476875
0.027499173 -0.26733935 0.31100199 -0.34489158 0.39336917 -0.85223854 0.0035236129
-0.045096979 -0.25049731 0.31301266 0.45094353 0.23721443 -0.86045295 0.0057839244
-0.034307249 -0.25618148 0.31548983 0.33627564 0.29517207 -0.89431107 0.0040291338
-0.013673598 -0.25933251 0.31947476 0.11960655 0.30336538 -0.94533789 0.0048869532
0.025007162 -0.25679767 0.31681502 -0.31024963 0.31134146 -0.89822692 0.0050583989
0.034547351 -0.25642985 0.31277153 -0.43890992 0.26609087 -0.85822707 0.0057268189
-0.051066767 -0.2442231 0.31078815 0.54549736 0.14684369 -0.82514817 0.0051369509
-0.047286004 -0.24609959 0.31309697 0.46536946 0.20283741 -0.86156154 0.0050519058
-0.037561428 -0.24256602 0.31760561 0.37791929 0.16818085 -0.9104352 0.0051849466
0.028462313 -0.24440733 0.31882223 -0.34307748 0.19129699 -0.91962123 0.0051880744
0.033922642 -0.24572767 0.31649277 -0.42000628 0.20501472 -0.88406086 0.0048095989
0.042612579 -0.24412873 0.31288168 -0.50200444 0.19193281 -0.84329909 0.0040028421
-0.044049978 -0.23253559 0.31590566 0.47591704 0.094681159 -0.87437886 0.00254512
-0.039328407 -0.23782864 0.31732741 0.41376105 0.12171242 -0.90221274 0.0041371859
0.043643601 -0.2341999 0.3127422 -0.50214291 0.11334715 -0.85732424 0.0049607493
-0.051124673 -0.2284966 0.3121931 0.54134285 0.075168528 -0.83743507 0.0041340678
-0.041430183 -0.22276451 0.31786484 0.40849215 0.082638204 -0.90901327 0.0035863931
0.034951352 -0.22833982 0.31767806 -0.37297928 0.10087162 -0.92234015 0.0030914785
0.041788202 -0.22037116 0.31564742 -0.47467643 0.090349689 -0.87551087 0.0034299828
-0.053516455 -0.21487817 0.31165567 0.55720782 0.064828686 -0.8278386 0.0030183431
-0.040338185 -0.21279866 0.31922421 0.40015954 0.065416738 -0.91410774 0.0033649565
0.041689098 -0.21671626 0.3158797 -0.41663918 0.088482998 -0.90475547 0.0017741008
-0.044536691 -0.20179117 0.31854022 0.4732472 0.0708941 -0.87807232 0.0021860872
0.041461926 -0.20039818 0.31761873 -0.4720237 0.065351248 -0.8791604 0.004064166
-0.047975056 -0.19218889 0.31789613 0.48071337 0.082478486 -0.87299025 0.0018846395
0.046526942 -0.19591855 0.31438944 -0.56446695 0.066778861 -0.82275003 0.0044117491
0.038822152 -0.18735556 0.31988731 -0.43769372 0.08366362 -0.89522326 0.0042732586
0.049809791 -0.18785179 0.31267327 -0.58758479 0.11018632 -0.80162525 0.0044969418
0.053164635 -0.18437842 0.31048012 -0.65053028 0.087140359 -0.75446475 0.0037162572
-0.055148892 -0.17011479 0.31455532 0.59175032 0.069789574 -0.80309463 0.0052253953
0.052429728 -0.17275175 0.31210136 -0.62896425 0.080706604 -0.77323371 0.0047877585
-0.056576632 -0.16452342 0.31400079 0.57198137 -0.076885045 -0.8166554 0.053213865
-0.048170671 -0.1688697 0.31989712 0.48952293 0.038916226 -0.87112159 0.010324818
0.046326764 -0.16106144 0.3177495 -0.50178039 0.15219706 -0.85150015 0.089245595
-0.05662635 -0.15091106 0.31521714 0.58589643 0.68946695 -0.42586464 0.21051735
0.043548718 -0.15984917 0.31994212 -0.54236251 0.20155524 -0.81560928 0.11442885
0.051878143 -0.15419024 0.31422395 -0.53552496 0.48601094 -0.69065654 0.20536326
-0.062155351 -0.14686856 0.31142145 0.58403575 0.7943207 -0.16720304 0.2267362
-0.054933414 -0.14148167 0.31675428 0.48428386 0.87321478 -0.054452483 0.19336711
-0.045830239 -0.14167839 0.31138968 0.024540016 0.98481315 0.17187425 0.13502344
-0.023542115 -0.14461268 0.31461102 -0.014364327 0.984469 0.17497008 0.064747259
-0.016366586 -0.14555736 0.3124212 0.027587088 0.99388778 0.10689249 0.039108902
-0.0084117325 -0.14660464 0.31651193 0.050310019 0.9861998 0.15773042 0.055457398
0.0069323909 -0.1467994 0.31835726 -0.088701844 0.97921312 0.18241066 0.062637791
0.026191412 -0.14426389 0.3175014 0.094012298 0.99159145 0.088928543 0.1473811
0.038145497 -0.14269012 0.31469998 -0.10363211 0.99368525 0.04301288 0.15837306
0.044926465 -0.14179736 0.31956199 -0.16840281 0.97909248 -0.11409862 0.1336727
-0.091880292 -0.13333829 0.31011355 0.38321459 0.91770351 -0.10472305 0.020134674
-0.075716332 -0.13774383 0.31444988 0.28059795 0.94568837 -0.16412935 0.059789114
-0.065155745 -0.13913414 0.31370276 0.28140253 0.95731056 -0.066098519 0.10524415
-0.059300657 -0.13990498 0.31125441 0.11700386 0.99276024 0.027152371 0.12286975
0.065368295 -0.13910615 0.31651396 -0.34306043 0.92816901 -0.14426331 0.076237723
0.075628467 -0.13775536 0.3116363 -0.36441004 0.92321163 -0.1220066 0.059333831
0.093612909 -0.1326206 0.3182584 -0.31807309 0.94806242 0.0026876766 0.0016232268
-0.12216805 -0.1207927 0.31570163 0.38270679 0.92386991 -6.1919404e-06 0
-0.11376777 -0.1242722 0.3120375 0.3826831 0.92387962 2.7267532e-05 2.3552689e-06
-0.10662256 -0.12723184 0.31569925 0.38268408 0.92387921 -2.1213187e-05 0
0.10757346 -0.12683797 0.3188445 -0.38270682 0.92386991 -3.9319966e-05 0
0.11726786 -0.12282241 0.31434095 -0.382682 0.92388016 -3.3671087e-05 0
-0.14767544 -0.11022718 0.31559822 0.38875288 0.92134011 -0.0019438738 4.5804591e-05
-0.13894691 -0.11384265 0.31725326 0.3871038 0.92203563 0.00097272935 4.3503489e-05
-0.12431316 -0.11990416 0.31236082 0.38269415 0.92387509 -3.0032941e-05 1.3746622e-06
0.12586166 -0.11926275 0.31882119 -0.38270724 0.92386967 -1.4316752e-05 0
0.13165639 -0.11686248 0.3124826 -0.38269541 0.92387462 2.3325318e-05 0
-0.16415043 -0.10261825 0.3177948 0.51976645 0.85430801 -0.00076111365 0.0023433873
0.16197024 -0.10429116 0.31974167 -0.52202421 0.85292655 -0.0026343593 0.002224236
-0.17479312 -0.09445183 0.31220472 0.60101825 0.79921854 -0.005189959 8.3609048e-05
0.16872808 -0.099105701 0.31860474 -0.56452954 0.82532227 -0.012228274 0.0008550444
-0.18584575 -0.085970841 0.31705013 0.60876834 0.79334801 6.0832872e-06 3.4154621e-06
-0.06561403 -0.080707662 0.31823835 0.24534781 0.96937519 0.010779005 0.0024575435
-0.056240417 -0.081941724 0.31525284 0.17210241 0.98507822 0.0012405417 0.00092363078
-0.045320451 -0.083379358 0.31886625 0.13751966 0.9904967 0.0021682945 6.2904022e-05
-0.023895195 -0.086200036 0.31733856 0.12650332 0.99196601 -0.00047615124 5.2296309e-05
-0.014977487 -0.087374076 0.31491169 0.091167323 0.9958238 -0.0048367004 0.0010601731
-0.0032100759 -0.08892329 0.31761736 0.014537729 0.99988663 -0.0039142901 0.0025451882
0.0029495589 -0.088957585 0.31614825 -0.0025928291 0.99993819 0.010813301 0.0024600092
0.014451599 -0.087443314 0.31707877 -0.090573624 0.99588913 0.0011717988 0.0011288687
0.024033543 -0.086181819 0.3169691 -0.12159681 0.99257815 0.0016796263 0.00010956761
0.05384602 -0.082256943 0.3108986 -0.18119921 0.98341745 -0.0075483657 0.00092212018
0.060368817 -0.081398204 0.31312153 -0.2157059 0.9764359 -0.006618253 0.0019905106
0.18422194 -0.087216832 0.31641936 -0.60876954 0.79334712 2.2674503e-05 1.6996338e-06
0.19267663 -0.080729321 0.31009001 -0.60874343 0.79336715 -1.7313256e-05 9.2957316e-06
-0.20393273 -0.07209222 0.31501812 0.60875893 0.79335523 1.5306665e-05 8.6053169e-06
-0.081925564 -0.074827082 0.31328037 0.33879042 0.94086123 0.0010479538 0.0014217526
-0.071214095 -0.079263911 0.31368285 0.25165832 0.96781075 0.0032198653 0.0025302882
0.076379508 -0.077124342 0.31795844 -0.32027605 0.9473241 0.00051460031 0.0011148582
0.0838053 -0.074048474 0.3136366 -0.34572661 0.93833089 0.0029040619 0.00083150575
0.19714361 -0.077301681 0.31248039 -0.60877669 0.79334164 -3.1520023e-05 0
0.20346487 -0.072451219 0.3124156 -0.60893536 0.79321986 -9.7811157e-05 0
-0.11279961 -0.062038638 0.31317428 0.38799751 0.92165762 -0.0022673265 5.2485808e-05
0.10537112 -0.065115623 0.31564274 -0.38267723 0.92388213 -1.6167513e-05 0
0.1135768 -0.061716717 0.31628686 -0.38490957 0.92295402 0.00062930654 8.1411781e-06
0.20939818 -0.067898437 0.31338614 -0.61306697 0.79002815 -0.0021021583 6.7934154e-05
0.21146166 -0.06631507 0.31512547 -0.61287564 0.79017806 -0.0014695722 7.1131741e-05
-0.23035024 -0.051098175 0.31488949 0.73485559 0.67793107 0.01991562 0.0016722295
-0.22652963 -0.054753017 0.31140807 0.69993776 0.71414649 0.0090567851 0.0025058694
-0.134767 -0.052225426 0.31364024 0.52254653 0.85250103 -0.013679534 0.0018246005
-0.1243811 -0.057241429 0.31542489 0.44978109 0.89307284 -0.010853074 0.0019583867
-0.11895542 -0.059488822 0.31940544 0.40051669 0.91627622 -0.0049248966 0.00038875756
0.12775132 -0.055845432 0.31054109 -0.44010609 0.89790171 -0.0088980794 0.0010834694
0.22453873 -0.056233872 0.31342509 -0.68144947 0.73182797 0.0073818308 0.0021702715
-0.23325606 -0.047311224 0.31436878 0.750507 0.66079295 0.0095823426 0.0015748501
-0.14638253 -0.043312512 0.31382853 0.5773766 0.81647724 -0.0010798802 0.00099521969
0.14542663 -0.044046007 0.31258297 -0.58820862 0.80870885 0.00082856842 0.00062133657
-0.24462861 -0.032490242 0.31636709 0.79052788 0.6124258 0.00058242207 4.2644813e-05
-0.15530737 -0.03646424 0.31923419 0.60876662 0.79334944 2.7416691e-06 0
0.16221318 -0.031165233 0.31919146 -0.60876775 0.79334843 -1.5624553e-05 0
0.23948392 -0.039194942 0.31428581 -0.78036046 0.62532878 0.0012281878 0.00032039758
0.24410063 -0.033178292 0.31273884 -0.78975612 0.61341906 -0.0015220237 6.4436063e-05
-0.2522983 -0.022494948 0.31771809 0.79335171 0.60876358 -5.7984551e-05 0
-0.2496147 -0.025992258 0.31207108 0.79335022 0.60876554 1.3215595e-05 0
0.16709831 -0.027416728 0.31074739 -0.61477262 0.78870416 -0.000584825 6.456281e-05
0.17568211 -0.020830162 0.31884986 -0.62822741 0.77802831 -0.0015058963 0.00031432387
0.25231481 -0.022473436 0.31374997 -0.7933386 0.60878074 2.9621951e-05 1.5388012e-05
-0.26072249 -0.011516305 0.3147186 0.79332554 0.60879767 -1.4439903e-05 2.8931436e-05
-0.25748569 -0.015734576 0.31524628 0.79334724 0.60876948 -4.8915113e-05 0
-0.18565212 -0.013179894 0.31924328 0.70406634 0.71006143 0.010167894 0.0022254232
0.17799322 -0.019056777 0.31194109 -0.64699095 0.76249504 0.0020117019 0.0010906
0.2565423 -0.016964037 0.31772879 -0.79335254 0.60876244 -3.2728502e-05 0
-0.2691063 -0.00059034303 0.31782976 0.80653781 0.59117138 -0.0036249007 0.00043826821
-0.19376785 -0.0037166497 0.31448722 0.75595742 0.65461034 0.0036905641 0.0014878942
0.18909754 -0.0098031219 0.31124708 -0.70354706 0.71063274 0.0047575138 0.0022804083
0.19111863 -0.0071691815 0.31254295 -0.73828065 0.67447907 -0.0044285273 0.001908497
0.26754558 -0.0026242686 0.31346017 -0.79582685 0.60552424 -0.00021017715 4.1712818e-05
-0.27675384 0.0093761533 0.31017926 0.843602 0.53695846 -0.0033631569 0.0020377983
-0.19843726 0.0023686648 0.3153308 0.78038853 0.62528175 0.0040488462 0.00044105569
0.19690172 0.00036750454 0.31107044 -0.77710587 0.62936765 -0.0016935848 0.00084859709
0.27344647 0.0050659003 0.31323251 -0.81745857 0.57595098 0.0064719887 0.0011066219
0.20739035 0.014036548 0.31552944 -0.79335195 0.60876322 -9.6550075e-06 0
0.27848747 0.011635491 0.31782287 -0.84928119 0.52769393 0.016139571 0.0022222144
-0.28543705 0.026213353 0.31341931 0.90871704 0.41725686 0.011400198 0.0012830866
-0.21751082 0.027225798 0.31928819 0.80015737 0.59977394 0.0044074133 0.00016363365
0.21640101 0.025779478 0.31334543 -0.79729497 0.60358447 0.0025806413 0.00010071234
0.28449222 0.023932369 0.31757933 -0.90436155 0.4267334 0.0053695417 0.00094785145
-0.22238874 0.033582833 0.31718111 0.82952404 0.55834424 0.011899612 0.0016352399
0.22353156 0.035072166 0.31719121 -0.83115548 0.55602258 -0.0044017211 0.0019038384
0.28809318 0.03262588 0.31396499 -0.91946077 0.39318174 0.00027456589 0.00013403912
0.2909928 0.039626129 0.31556618 -0.92388004 0.3826822 -1.5551286e-05 0
-0.23189162 0.048156567 0.31149057 0.88387543 0.4677074 0.0037352426 0.0019571681
0.22923501 0.042505059 0.31823844 -0.86459124 0.50217104 -0.017500592 0.0028912188
0.29373276 0.046241015 0.31469834 -0.92387623 0.38269138 0.00015967916 3.8898525e-05
-0.2366714 0.059696048 0.31536576 0.91194314 0.41031384 0.0014871396 0.00092405028
0.23336141 0.051704984 0.31320661 -0.90354204 0.428496 0.001747019 0.0012624614
0.29828614 0.057233892 0.31371921 -0.9238838 0.38267308 6.2537511e-05 0
-0.30115613 0.064162612 0.31003499 0.92387199 0.38270172 1.6082484e-05 4.5788042e-07
-0.24026066 0.06836126 0.31185609 0.92388171 0.38267818 -2.7970065e-05 0
-0.23754397 0.061802596 0.31939963 0.92211503 0.38691336 -0.0013658773 2.0391322e-05
0.23851019 0.064135283 0.31874996 -0.92317796 0.38437271 -6.2727944e-05 0
0.24081427 0.06969779 0.31199372 -0.92364162 0.38325724 -2.9941684e-05 8.5471256e-06
0.29964122 0.060505316 0.31506902 -0.92386168 0.38272655 5.6715959e-05 4.7315978e-05
0.30179995 0.065716989 0.31835347 -0.92388606 0.38266775 -4.3967299e-05 0
-0.30402723 0.071094081 0.31650653 0.92665112 0.37591916 0.0015819829 0.00018704364
0.24272448 0.074309453 0.31472653 -0.92388093 0.38267994 -4.8899483e-06 8.3594878e-06
0.30701137 0.078298442 0.31818956 -0.93784708 0.34704554 0.0015124041 0.00088876119
-0.30892694 0.082923137 0.31624714 0.94724584 0.32048419 0.0038961498 0.001855597
-0.24585779 0.081873968 0.31311882 0.92387742 0.38268864 1.3623891e-05 2.147196e-06
0.24813041 0.087360539 0.31460816 -0.92810386 0.37232095 -0.00060209003 0.00022030782
0.30806538 0.080843069 0.31466857 -0.93884462 0.34434009 0.00081322901 0.00091343088
-0.31342286 0.096896455 0.31345206 0.97630882 0.21638197 -9.8456971e-05 0.0021020127
-0.24993482 0.091716796 0.3148272 0.93420768 0.35672212 0.0023018303 0.00046705105
0.2499914 0.09185335 0.31340861 -0.9356218 0.35299164 0.0029366044 0.00073501654
0.25054726 0.093195327 0.31916487 -0.93992329 0.34133667 0.0057953978 0.0010565652
0.31337905 0.096563548 0.31407812 -0.97364008 0.2264699 0.027136439 0.0020080316
-0.31512469 0.10982309 0.31386459 0.98770809 0.15630816 -0.00075049413 0.0006619831
0.31422555 0.10299355 0.31534544 -0.9809761 0.19410637 0.0029327401 0.0017633575
-0.3158001 0.11495325 0.31359917 0.99086738 0.13483652 0.00093596551 6.9098183e-05
-0.25721458 0.11328704 0.31425071 0.9767912 0.21414337 0.0046334807 0.0019379829
0.25723118 0.11341321 0.31462753 -0.97404426 0.22625358 0.0068642958 0.002084244
0.31571829 0.11433197 0.31484488 -0.99088323 0.13472076 -0.0008421833 6.5443935e-05
-0.31706315 0.12454706 0.3135246 0.9914431 0.13053963 -3.451026e-05 9.0025787e-06
-0.25896007 0.12654531 0.31537551 0.99132371 0.13144124 -0.00074807118 6.9724729e-06
0.25816202 0.12048368 0.31858855 -0.98571724 0.16829872 0.0060870624 0.00098903477
0.31696457 0.12379837 0.31965119 -0.9914484 0.13049914 -6.8887799e-05 2.18733e-05
-0.31855267 0.13586096 0.31649178 0.99143839 0.1305757 7.2759474e-05 2.8576716e-05
-0.2605716 0.1387862 0.31689218 0.99144137 0.13055241 0.00013867383 4.3967229e-05
-0.31978577 0.14522725 0.31169543 0.99144942 0.13049152 -4.8603084e-05 0
-0.2614572 0.14551291 0.31151587 0.99162936 0.12911685 -0.00012542799 0
0.26157859 0.14643498 0.31221068 -0.99170542 0.1285315 0.0001102761 0
0.3193745 0.14210352 0.31374437 -0.99144691 0.13051039 -4.1601525e-05 0
-0.32145232 0.15788616 0.31624216 0.99476379 0.10215456 -0.0030936075 0.00050958834
0.26297593 0.15704864 0.31595436 -0.9941346 0.10809364 -0.0034760537 0.00055414281
0.32161218 0.1591002 0.31082681 -0.99403173 0.10893141 -0.0059065646 0.00050443609
-0.32237086 0.16486296 0.3177878 0.99695736 0.077813283 -0.0045764665 0.0011425376
-0.263814 0.16341439 0.31255275 0.99650747 0.083380781 0.0045258771 0.00098291133
0.2635738 0.16158995 0.31663263 -0.99562311 0.093443424 0.0016980612 0.00089520926
0.32279375 0.1680751 0.31317216 -0.99883085 0.047898997 0.0065268069 0.0022105095
-0.26494649 0.17339323 0.31402194 0.99952924 0.02591964 0.016417496 0.0022428257
0.26501116 0.17490777 0.31074491 -0.99985844 0.01153988 -0.012243487 0.0025916002
0.32367572 0.17599174 0.31456625 -0.99982011 -0.016452026 0.0094367201 0.0019930485
-0.32266024 0.18522674 0.319929 0.99905622 -0.043375637 0.0022967015 0.0017125605
-0.26406989 0.18692979 0.31639725 0.99707711 -0.075491615 0.011757489 0.0014431715
0.26408464 0.18681765 0.31041196 -0.99690861 -0.077994652 -0.0094851376 0.0014436016
0.32260004 0.18568423 0.312915 -0.99793822 -0.064066045 0.0038518219 0.0013827514
-0.26278692 0.19667485 0.3177869 0.99235076 -0.12343433 0.0019650948 9.6743213e-05
0.26252308 0.19867876 0.31360665 -0.99242842 -0.12282356 -0.00058133242 7.1735703e-05
0.32134628 0.19520748 0.31664246 -0.99347669 -0.1140328 -0.00077429012 0.00031469937
-0.32035848 0.20271052 0.31328669 0.99180049 -0.12779428 0.00062687439 0.00014729083
-0.3199183 0.20605373 0.31858572 0.99144906 -0.13049434 -4.2587224e-05 2.1985048e-05
-0.26181543 0.20405409 0.31642866 0.99144638 -0.13051459 3.1789921e-05 1.7154631e-05
0.32061952 0.20072761 0.31548941 -0.99179012 -0.12787595 0.00017537287 0
-0.31808448 0.21998319 0.31334287 0.99143702 -0.13058551 -4.9569528e-05 0
-0.26103115 0.21001124 0.31928536 0.9914434 -0.13053697 -6.6844677e-06 0
0.25994128 0.21828948 0.315 -0.99135774 -0.13118586 0.00030557025 0
0.26087418 0.2112034 0.31401351 -0.99144471 -0.13052721 3.0852909e-05 0
0.31887272 0.21399581 0.31303182 -0.99145192 -0.13047282 -5.0022372e-05 4.5164743e-05
-0.31796685 0.22087663 0.31828099 0.99143636 -0.13059027 -1.1488571e-06 0
-0.25883028 0.22672845 0.31306458 0.98765594 -0.15660885 -0.0030752192 0.00074719946
0.2593568 0.22272925 0.31908646 -0.99135715 -0.13118961 0.00041484082 0
0.31738982 0.22525963 0.31499124 -0.99144977 -0.13048895 -3.0073134e-05 6.9974201e-05
-0.31599292 0.23587 0.31462106 0.99144334 -0.13053781 4.1836374e-05 0
-0.2575826 0.2362055 0.31411976 0.97930652 -0.2021533 -0.0096363556 0.0012153252
0.25775608 0.23488779 0.31353 -0.98352486 -0.18069145 -0.0054211034 0.0014366504
-0.31456891 0.24668643 0.3156513 0.98439127 -0.17598689 0.0016079352 0.001556524
0.25647905 0.24458781 0.31340778 -0.97064853 -0.24017306 0.01258342 0.0019486834
-0.31361717 0.25391558 0.31775028 0.97661072 -0.21498892 0.0033506947 0.0022531787
-0.25085637 0.25834635 0.31523657 0.94112903 -0.33793932 0.0085556405 0.0011136271
0.25329885 0.25244969 0.31684923 -0.94975746 -0.31292373 -0.006284764 0.0015031364
0.31355405 0.25439516 0.31097129 -0.9830029 -0.18333347 -0.0097030373 0.00099707139
-0.30892599 0.26936719 0.31955633 0.95024908 -0.31139636 -0.0076795402 0.0012244672
0.24844548 0.26416677 0.31113285 -0.9300788 -0.36735696 0.0015369995 0.00030816699
0.30966881 0.26757389 0.31455657 -0.93859029 -0.34496585 -0.0068337568 0.00058944715
0.31094676 0.26448864 0.31392783 -0.94621992 -0.32351956 0.0017389255 0.0010314075
-0.30696693 0.27409679 0.313665 0.94395608 -0.33000749 0.0064853854 0.0013212699
-0.24379289 0.27539912 0.31058428 0.92388672 -0.38266611 4.1101655e-05 5.3235171e-06
0.24504983 0.27236456 0.31980884 -0.92387992 -0.38268262 3.5891822e-05 6.7591359e-06
0.24019739 0.2840794 0.31863296 -0.92268425 -0.38555589 0.00069643592 1.6429359e-06
0.30205002 0.28596723 0.31021845 -0.92387414 -0.38269654 5.9507202e-05 0
-0.23518711 0.2961753 0.31758094 0.9143889 -0.40478796 -0.0062982924 0.00046721639
-0.29523662 0.30241632 0.31495887 0.92388415 -0.38267234 1.7164644e-05 3.1640961e-05
-0.23183846 0.30425969 0.31310344 0.8685441 -0.49560031 0.0033943513 0.0016867399
0.22951093 0.30942327 0.31638485 -0.87285078 -0.48798528 -0.0013741605 0.0024800966
0.2322479 0.30327117 0.31643924 -0.89314342 -0.44966534 0.0097916834 0.0017073306
0.29366022 0.30622205 0.31137487 -0.92388082 -0.3826803 3.2211436e-05 0
-0.2916494 0.31107652 0.31855214 0.92388725 -0.38266483 3.2146807e-05 1.3543271e-05
-0.28981754 0.3154991 0.31074423 0.92088664 -0.38982996 -0.00067350775 0.00011939526
-0.22528504 0.31493056 0.31454018 0.82842755 -0.56002748 0.0087666484 0.00085596519
0.22675797 0.31301102 0.31766781 -0.84634936 -0.53261471 0.0037829513 0.0025994133
0.29076678 0.31320748 0.31889874 -0.92380953 -0.38285235 0.00012123569 4.1959735e-05
-0.28424713 0.32894731 0.31181309 0.89443231 -0.44719887 -0.0019883749 0.0015586506
-0.21685807 0.3259128 0.31548077 0.80221474 -0.59703225 0.0019972785 0.00020765998
0.22123614 0.32020718 0.31897247 -0.8017509 -0.59765083 -0.0030167163 0.00040132279
0.28617945 0.3242822 0.31494257 -0.91340894 -0.40701294 -0.004960943 0.00063422124
-0.28173274 0.33501753 0.31648737 0.87610769 -0.48210448 0.0032575992 0.0020926255
-0.21008804 0.33473569 0.31002992 0.79339719 -0.60870421 2.8030863e-05 3.70323e-05
-0.20956875 0.33541238 0.31442165 0.79335457 -0.60875982 -7.2677399e-06 0
0.28108779 0.33647323 0.31459028 -0.8670702 -0.49811777 -0.008246066 0.0025867356
-0.27802554 0.3412545 0.31203243 0.85424006 -0.51987785 -0.00090791908 0.0024354276
-0.19910158 0.3490535 0.31056505 0.781811 -0.62351531 -0.00027049775 0.00019236826
0.20023155 0.34758091 0.31073609 -0.78725213 -0.61662781 -0.0020403017 5.6100602e-05
0.27637178 0.34340972 0.31651855 -0.84016591 -0.54232502 -0.0021997057 0.0017341403
-0.26902202 0.35298809 0.31429818 0.80493844 -0.59335846 -5.6157671e-05 0.00057840574
-0.19548723 0.35376382 0.31154931 0.76735359 -0.64122409 -0.00029044756 0.00090592634
0.1950417 0.35434446 0.3134248 -0.75593787 -0.65462422 0.0050028795 0.001293062
0.2649202 0.35833368 0.31352323 -0.79525143 -0.60627973 -0.00015169416 6.0997529e-05
0.27034181 0.35126811 0.31041026 -0.80380142 -0.59489769 -0.0002085537 0.00038386037
-0.26104879 0.36337897 0.31468692 0.79327327 -0.60886568 2.9182786e-05 0
-0.18202022 0.36825466 0.31371614 0.6804148 -0.73281687 0.0038865106 0.0023202724
0.18706483 0.36438382 0.3156693 -0.70051765 -0.71353215 0.012122616 0.002525697
0.26233226 0.36170632 0.31653544 -0.79334325 -0.6087746 7.7954333e-05 6.0200264e-06
0.17342539 0.37484971 0.31674716 -0.6265626 -0.77937108 -9.3792856e-05 0.00064076897
0.25365409 0.37301594 0.31824756 -0.79333371 -0.60878706 7.087009e-05 0
-0.16046935 0.38479123 0.31224659 0.60876387 -0.79335153 -7.650171e-05 0
-0.15880059 0.38607174 0.3109535 0.60878581 -0.79333466 -1.1611755e-05 0
0.15976545 0.38533133 0.31465599 -0.60879701 -0.79332602 9.4944889e-06 0
0.16352551 0.38244617 0.31583872 -0.60876781 -0.79334843 6.8978232e-05 0
0.24261534 0.38740191 0.31438181 -0.78881341 -0.61463243 0.00068179739 3.1526299e-05
-0.23563355 0.39650074 0.31841323 0.74891806 -0.66266215 0.00086985092 0.0018915931
-0.15330148 0.39029133 0.31223738 0.60877413 -0.79334372 -9.565377e-05 0
0.14952424 0.39318973 0.31867647 -0.60219306 -0.79835033 -0.00040537183 0.00012034123
0.23826689 0.39306894 0.31849211 -0.77878159 -0.62724447 0.0079762461 0.00042773789
0.24011491 0.39066052 0.31485015 -0.77972269 -0.6261003 0.0055767405 0.00055071828
-0.23285827 0.40011758 0.31173047 0.7402178 -0.67236274 -0.0024546494 0.0020918471
0.13377786 0.40527233 0.31350484 -0.5058955 -0.86259216 0.002124527 0.0018802244
0.22601499 0.40743583 0.31407654 -0.688546 -0.72514319 0.0084742168 0.0023292548
-0.21548498 0.41551578 0.3119368 0.63716424 -0.77072698 -0.0012748222 0.00068219291
-0.11772696 0.41228563 0.31176406 0.40419167 -0.91467059 -0.0026301749 0.00034800274
-0.10707016 0.4166998 0.31415984 0.38271338 -0.92386711 -2.6354106e-05 2.1224178e-05
-0.099801376 0.41971061 0.31007767 0.3827202 -0.92386425 4.402253e-05 7.0465772e-05
0.11454823 0.41360226 0.31417885 -0.3888666 -0.9212932 0.0012420245 7.7676115e-05
0.12318073 0.41002658 0.31371272 -0.44187516 -0.89703816 0.0082921432 0.0015558242
0.21354541 0.41700408 0.31657743 -0.6134674 -0.78971988 0.00055762258 3.1888962e-05
-0.20546758 0.42320243 0.31453803 0.60878736 -0.79333347 2.7031796e-05 1.3983835e-05
-0.091794439 0.42302719 0.31879994 0.37914899 -0.92533565 -0.0002537375 0
-0.083350137 0.42652494 0.31687522 0.3727414 -0.92793393 0.0015836444 8.094791e-05
0.081727587 0.42719704 0.31621191 -0.3415134 -0.93987179 0.003093278 0.00092131947
0.092211269 0.42285454 0.31297788 -0.37695414 -0.92623115 0.0012027943 0.00010158766
0.19732624 0.4294495 0.31082278 -0.60881209 -0.79331452 -2.883333e-05 5.3255859e-05
-0.1951354 0.43113059 0.31852266 0.60882533 -0.79330432 -6.4684762e-05 0
-0.07096301 0.43165585 0.3157348 0.26452419 -0.96433461 -0.0092526507 0.0023801462
-0.064003244 0.43320766 0.31367952 0.21349423 -0.97691083 -0.0080891903 0.0018499487
-0.045429278 0.43565297 0.31424588 0.14040914 -0.99008614 -0.0038419033 0.00011153184
-0.028713124 0.43785369 0.31870556 0.13049921 -0.9914484 -0.00014331068 0
-0.014096387 0.439778 0.31889731 0.093675941 -0.99558324 -0.0062286109 0.00081819174
0.037948918 0.43663779 0.31463113 -0.13118304 -0.9913581 0.00028095354 3.4412195e-05
0.04082692 0.43625885 0.31495297 -0.13152426 -0.99131292 0.00027767511 4.8990438e-05
0.056682415 0.43417144 0.31937367 -0.16574872 -0.98615581 0.0049042548 0.00080496666
0.060071111 0.43372533 0.3133775 -0.20060381 -0.97967046 0.0019676657 0.0019495224
0.073125094 0.43076032 0.31547093 -0.31862658 -0.94787949 -0.0011716111 0.0013337613
0.19171295 0.43375671 0.3134636 -0.60889101 -0.79325384 7.9599085e-05 0.00016373488
-0.18302722 0.44042152 0.31792271 0.60873586 -0.79337299 -2.1981212e-05 0
-0.17638235 0.44552031 0.31510815 0.58443928 -0.81142956 -0.0035916679 0.00084188778
0.17306384 0.44806671 0.31262991 -0.57188261 -0.82030213 0.0074024373 0.00091554387
0.18230146 0.44097844 0.31093425 -0.60876548 -0.79335028 7.968807e-05 6.0063008e-05
-0.1649217 0.45429599 0.31400192 0.52646077 -0.85008633 -0.013866796 0.0022120988
0.16543083 0.4539237 0.31609473 -0.52709806 -0.84979159 0.004676153 0.0018379944
-0.15326142 0.46020138 0.31580102 0.46236971 -0.8865782 0.013906305 0.0021719791
-0.14348325 0.46425161 0.3163619 0.38834697 -0.9215132 0.00032389478 7.9823949e-05
-0.13688946 0.46698284 0.31236413 0.38265923 -0.92388958 -0.00012090889 0
0.1359439 0.46737447 0.3199259 -0.38272202 -0.92386353 3.9912811e-05 0
0.14399546 0.46403944 0.31447905 -0.39701584 -0.91781092 0.0011958223 0.0002170829
0.15166798 0.46086138 0.31378758 -0.4442142 -0.89591467 0.0032516283 0.0015856787
-0.12171504 0.4732683 0.31523418 0.38270381 -0.9238711 2.1424559e-05 6.26826e-05
-0.10580498 0.47985843 0.31957394 0.38017774 -0.92491239 -0.0013984438 5.3477066e-05
0.11427893 0.4763484 0.31696832 -0.38269249 -0.92387575 0.00023667116 2.3918654e-05
-0.095348038 0.48418984 0.31511959 0.36414814 -0.93129832 0.0089195408 0.00039722759
0.082255691 0.48917082 0.31669641 -0.25208074 -0.96770012 0.0034049088 0.0021649997
0.094368279 0.48459569 0.3157776 -0.32446766 -0.94588453 -0.0048210826 0.0017120186
-0.065187521 0.49141788 0.31586754 0.15832768 -0.98738474 -0.0019201566 0.00055977731
-0.055531222 0.49268916 0.31606597 0.13053039 -0.99144429 -0.00010361827 0
-0.047395829 0.4937602 0.3144235 0.13052946 -0.99144441 1.8027389e-05 0
-0.035180654 0.49536836 0.31455761 0.13053991 -0.99144304 -8.1237689e-05 0
-0.024840388 0.49672967 0.31547421 0.12864549 -0.99169052 -0.00039951864 0.00017324262
-0.0052395603 0.4993102 0.3182435 0.020266127 -0.9997912 0.0025920062 0.0024137772
0.0012494553 0.49983552 0.31768024 0.0087104524 -0.99995273 -0.0043257684 0.002408741
0.01869897 0.49753827 0.3166467 -0.11100402 -0.99378824 0.0079396255 0.00044318376
0.043402322 0.49428597 0.31621206 -0.13052733 -0.99144471 2.7644874e-05 4.3291642e-05
0.067083627 0.49116826 0.31658316 -0.15778796 -0.98746586 -0.0037696711 0.00088820374
0.074051738 0.49025089 0.31784457 -0.18391991 -0.9829402 0.0014547665 0.0010805064
-0.029195888 -0.25030246 0.32027578 0.26964411 0.24054496 -0.93243241 0.0041795755
-0.0082950685 -0.25809973 0.32078004 0.046504632 0.30007672 -0.95278084 0.0039991583
0.0032766853 -0.25234586 0.32326147 -0.055487961 0.25353029 -0.96573466 0.0044484809
0.018082405 -0.25447118 0.32023549 -0.23605922 0.32206345 -0.91681576 0.0050533144
0.020701289 -0.2505827 0.32139173 -0.25249317 0.23836164 -0.93777978 0.0067652678
-0.019366527 -0.24965937 0.32248151 0.19430192 0.23521461 -0.95232391 0.0041287285
0.0047950288 -0.24475653 0.32407692 -0.076655857 0.20009619 -0.97677296 0.0050528808
0.010230532 -0.2434248 0.32350099 -0.13392352 0.17323922 -0.97573191 0.0063230554
-0.027045952 -0.23595738 0.32246625 0.25343657 0.1402832 -0.95712614 0.0038598876
-0.015213981 -0.23964927 0.32393706 0.13663049 0.15615401 -0.97823721 0.0032628868
0.0026413458 -0.23707941 0.3250607 -0.037155617 0.12291611 -0.99172127 0.0035398598
0.016329082 -0.23581512 0.32341802 -0.25515279 0.12547733 -0.95872444 0.0041466639
-0.034520313 -0.22316192 0.32062232 0.33722249 0.092532739 -0.93686634 0.0044145565
-0.024565687 -0.22567987 0.3240217 0.2493559 0.099382281 -0.96329892 0.0040346854
-0.014408505 -0.22711423 0.32519495 0.14958325 0.1171957 -0.98177898 0.0039941557
-0.0079447692 -0.22950706 0.32580534 0.053085975 0.092571728 -0.99428988 0.0030141037
0.0070234579 -0.22438197 0.3256669 -0.10538218 0.089964114 -0.990354 0.00351067
0.024596089 -0.22277494 0.3223778 -0.32235673 0.10186105 -0.94112194 0.0025043245
-0.035200916 -0.21438265 0.32115561 0.3526274 0.081810139 -0.93218076 0.0044968752
-0.029436663 -0.2146937 0.32345781 0.30017883 0.092220925 -0.94941455 0.0025789374
-0.01479992 -0.21597528 0.3261705 0.17414288 0.099962369 -0.97963351 0.0031025249
-0.0075733736 -0.21723931 0.32698283 0.079111353 0.094917193 -0.99233663 0.0038190568
0.016839454 -0.21482134 0.32528579 -0.22623233 0.099107258 -0.96901846 0.0035756456
0.024218876 -0.21663357 0.32309589 -0.33134282 0.10838876 -0.93726397 0.0027696299
