# .PCD v0.7 - Point Cloud Data file format
VERSION 0.7
FIELDS x y z normal_x normal_y normal_z curvature
SIZE 4 4 4 4 4 4 4
TYPE F F F F F F F
COUNT 1 1 1 1 1 1 1
WIDTH 615
HEIGHT 1
VIEWPOINT 0 0 0 1 0 0 0
POINTS 615
DATA ascii
0.18906392 0.26970637 -0.34641606 -0.78333777 -0.62159181 -0.0023628157 0.00022004619
0.19389915 0.26340497 -0.34701681 -0.78681225 -0.61718524 -0.0029625986 0.0001312332
-0.38630295 0.27777511 -0.34172124 0.71906084 -0.69493347 0.0043474049 0.0024276504
0.18129662 0.27982891 -0.3430123 -0.71997404 -0.69399697 -0.0023570759 0.0022318356
-0.37437081 0.2885161 -0.3420459 0.63816756 -0.76989454 -0.002113556 0.001150235
0.17628103 0.28441805 -0.34480897 -0.68898159 -0.72475213 -0.0062217717 0.0024465136
-0.36383873 0.29659763 -0.34032586 0.61346066 -0.78972518 -0.00019643939 0.00017037883
0.16497053 0.29309693 -0.34628943 -0.62691438 -0.77908516 0.0021498634 0.00046839222
-0.35679853 0.30199978 -0.34493801 0.60872698 -0.79337978 -1.0396892e-05 2.9358554e-05
-0.34264761 0.31285813 -0.34430075 0.60876596 -0.79334986 -4.941085e-05 2.7561042e-05
0.13513704 0.31598896 -0.34092158 -0.60874689 -0.79336447 1.8235367e-05 0
-0.32180664 0.32884997 -0.34816432 0.60877723 -0.79334128 -4.8069182e-05 0
-0.31572625 0.33351564 -0.3447715 0.59407449 -0.8043887 -0.005860304 0.00031441613
0.10892949 0.33609873 -0.34110293 -0.58020753 -0.81445152 -0.0052841823 0.00052545976
-0.30530298 0.34151372 -0.34739015 0.51004326 -0.85994166 0.018875441 0.0020901121
0.093885951 0.34639159 -0.34242073 -0.45080441 -0.89261842 0.0027908813 0.0014421885
-0.28251976 0.35252053 -0.34593531 0.39550981 -0.91846079 0.0013668708 0.00014937723
-0.27671751 0.35492393 -0.34134641 0.38275924 -0.92384809 0.00015684869 0
0.071223363 0.35577875 -0.34628835 -0.3827135 -0.92386711 1.758307e-05 0
0.081502959 0.35152078 -0.34243819 -0.41111445 -0.91157132 0.0047680289 0.00051739271
-0.26082414 0.36150718 -0.34547332 0.38275415 -0.92385024 -6.5107008e-05 7.7387136e-05
-0.25849384 0.36247241 -0.34130877 0.38263765 -0.92389852 -0.00010127991 0.00014578398
-0.24203078 0.36929166 -0.34423503 0.38267082 -0.92388475 -1.7708398e-05 4.8369391e-05
0.041942846 0.36790711 -0.34820625 -0.3826912 -0.9238764 8.4919229e-05 0
0.052885137 0.36337471 -0.34644654 -0.38270706 -0.92386973 9.1778944e-05 0
0.014721613 0.37918252 -0.3420279 -0.3559742 -0.93449014 0.003233867 0.00044085266
0.022370817 0.37601411 -0.349255 -0.38236684 -0.92401063 -3.8167684e-05 2.2452791e-06
-0.2104889 0.3823567 -0.34312019 0.27297428 -0.9619801 -0.0089032268 0.0024531293
-0.2004033 0.38529229 -0.34622431 0.208462 -0.97794396 -0.01301406 0.0014556928
-0.19556537 0.3859292 -0.34545153 0.20209742 -0.97910279 -0.022677265 0.0012408207
-0.18033531 0.38793427 -0.34339458 0.13224134 -0.99121749 0.00028378516 1.5551941e-05
-0.1769909 0.3883746 -0.34423852 0.13048811 -0.99144989 0.00011895777 2.5465668e-05
-0.033841051 0.38934901 -0.34190357 -0.13051629 -0.9914462 6.6054352e-05 0
-0.017701346 0.3872242 -0.34628955 -0.14246352 -0.98980004 -0.00022793298 7.5389653e-05
-0.0071802782 0.38583905 -0.34710759 -0.19008854 -0.98172849 -0.0086874366 0.0015988785
0.0046102479 0.38332102 -0.34503505 -0.27941343 -0.96014792 0.0066418196 0.0022133719
-0.15893701 0.39075136 -0.34291494 0.13052917 -0.99144447 0.00010153649 3.7144709e-05
-0.14296421 0.3928543 -0.3442727 0.13051078 -0.99144685 -8.8138186e-05 3.8728449e-05
-0.10275096 0.3980523 -0.34615684 -0.002670204 -0.99998957 -0.00367953 0.001286247
-0.07209006 0.39438459 -0.34242666 -0.13051485 -0.99144638 3.4590503e-05 8.7730396e-06
-0.05717203 0.39242056 -0.34995148 -0.13052894 -0.99144453 -1.9634819e-05 0
-0.14354692 -0.39277756 -0.33385116 0.13049614 0.99144882 -3.4676323e-05 1.3632243e-06
-0.12636076 -0.39504015 -0.3335706 0.12902558 0.99164116 0.00036727541 1.7912686e-05
-0.11210743 -0.39691663 -0.33767104 0.058032453 0.99828696 0.0074360375 0.0010435539
-0.094515771 -0.39733696 -0.33191156 -0.028946001 0.99953169 -0.0099247564 0.0014878514
-0.086573519 -0.39629135 -0.33491722 -0.094861642 0.9954583 -0.008002853 0.00087628851
-0.06030615 -0.39283317 -0.3361533 -0.13052325 0.99144524 3.4899233e-05 1.0445386e-05
-0.045240372 -0.39084974 -0.33335233 -0.13050938 0.99144709 -3.7628102e-05 0
-0.20170087 -0.38512143 -0.33832094 0.25241596 0.96757001 0.0097210808 0.002262681
-0.19122398 -0.38650078 -0.33287823 0.17555186 0.98443711 0.0080733877 0.0010899019
-0.17091535 -0.38917446 -0.33611956 0.13048546 0.99145019 -7.4153584e-05 6.5287699e-05
-0.16582665 -0.38984439 -0.33024788 0.13048922 0.99144977 0.0001356327 0
-0.036591232 -0.38971108 -0.33531204 -0.13053471 0.99144375 -7.8393939e-05 0
-0.029008336 -0.38871276 -0.33861914 -0.13053107 0.99144423 -2.0869622e-05 1.2863923e-05
-0.014330364 -0.38678038 -0.33607462 -0.15847439 0.98736036 -0.002300248 0.00067551195
-0.0037104173 -0.38538221 -0.33080158 -0.22693071 0.97390437 0.0035705718 0.0020278657
0.0036463034 -0.38372779 -0.33937821 -0.27184755 0.96233231 0.0039368365 0.0020783474
0.010575153 -0.38090006 -0.33508959 -0.32262143 0.9465239 -0.0028079795 0.0016811735
-0.23237249 -0.37329224 -0.33451319 0.38270009 0.92387265 -0.00012649917 6.2128776e-05
-0.22676291 -0.37561584 -0.33463594 0.37164259 0.92837042 0.0031954055 8.1769904e-05
-0.21828271 -0.37912843 -0.33608842 0.34681681 0.93793285 4.4194101e-05 0.00095119711
0.017613729 -0.37798458 -0.33615959 -0.36221769 0.9320932 -0.00075280003 0.00046219226
0.027496584 -0.373891 -0.33160689 -0.38172606 0.92427546 -0.00023253461 0
0.031974863 -0.37203598 -0.33719146 -0.38268241 0.92387998 -5.1114566e-06 0
-0.26171663 -0.36113751 -0.33767715 0.3827329 0.923859 -3.9225e-05 0
-0.25547832 -0.36372146 -0.33444208 0.38266757 0.92388612 5.9588788e-06 4.671585e-05
0.045061622 -0.3666153 -0.33743018 -0.38269758 0.92387366 -1.8010128e-07 2.3570623e-05
0.071469337 -0.35567683 -0.33840275 -0.38274282 0.92385495 -0.00012685721 5.4649288e-05
-0.29507959 -0.34731808 -0.33319718 0.50276524 0.86440265 0.0059434501 0.000987123
0.087223664 -0.34915116 -0.33840862 -0.46330747 0.88609105 -0.013741634 0.001382413
0.1020983 -0.34134048 -0.33523411 -0.53856522 0.84253973 -0.0086219534 0.0016385781
-0.31489196 -0.33415583 -0.33750582 0.58220166 0.81304181 0.0020612455 0.00057823019
0.10384766 -0.33999816 -0.3396768 -0.56605375 0.82436204 -0.0032261831 0.0012039762
0.11142129 -0.3341867 -0.33236983 -0.57618386 0.8173185 0.0016343502 0.00090813055
0.12443717 -0.32419926 -0.33590156 -0.60876024 0.79335421 -2.9623123e-05 0
-0.3364951 -0.31757912 -0.33224344 0.60875773 0.79335612 1.2043851e-05 0
-0.34895694 -0.30801684 -0.33731624 0.60888088 0.79326159 -8.0180842e-05 0
0.14441325 -0.30887106 -0.3375276 -0.60881847 0.79330957 2.52272e-05 0
-0.36557668 -0.29526407 -0.33080617 0.61522317 0.78834862 0.0026198679 0.00026344339
0.16312319 -0.29451442 -0.33429769 -0.61171937 0.79107481 1.8347188e-05 3.8565384e-05
-0.38152459 -0.28302678 -0.33704668 0.69356197 0.72039622 -0.0010027752 0.002065649
-0.37787881 -0.2858243 -0.33522153 0.68873614 0.72501194 0.00045929247 0.0021667674
0.17595932 -0.28466493 -0.33371046 -0.67034882 0.74199861 -0.0083960267 0.0020668458
-0.38699594 -0.27687207 -0.33603925 0.73151201 0.68177909 -0.0082193362 0.0020621698
0.1864329 -0.27313519 -0.33606851 -0.767865 0.64058471 0.005875825 0.0011581376
-0.39607975 -0.26503378 -0.33435154 0.78439212 0.62026012 0.0025456839 0.00030343299
0.19493891 -0.26204991 -0.33125177 -0.78851342 0.61501467 0.0018793147 0.00018482952
-0.4036113 -0.25521848 -0.33404636 0.7933107 0.60881698 -2.3956973e-05 0
0.20431396 -0.24983209 -0.33238304 -0.79334593 0.60877109 1.7368588e-05 6.9440307e-06
-0.42089677 -0.23269159 -0.33344099 0.79339248 0.60871041 0.0001364919 3.3919325e-05
-0.41709563 -0.23764533 -0.33563125 0.7933563 0.60875756 0.00016473964 0
0.21449625 -0.2365623 -0.33586147 -0.79333127 0.6087901 1.8039318e-05 0
-0.42911071 -0.22198698 -0.33259642 0.79332513 0.60879821 -1.0039745e-06 6.027748e-06
0.21988852 -0.22953492 -0.33564699 -0.79333717 0.60878253 1.3299657e-05 0
0.22124442 -0.2277679 -0.33399534 -0.79332864 0.60879368 -8.064077e-05 4.4314766e-06
-0.43405151 -0.21554799 -0.33406711 0.80327892 0.59558505 0.0046227155 0.00023602031
0.23050314 -0.2157017 -0.33182114 -0.79814333 0.60246259 0.0024618518 0.00015232505
-0.44853389 -0.19457008 -0.33853382 0.86947709 0.49347079 -0.022276025 0.0023638546
0.24502838 -0.19475131 -0.33662373 -0.89111203 0.45377508 0.0027385517 0.0019882163
-0.45229998 -0.18547778 -0.33850622 0.920587 0.39053625 0.0010432913 0.0001276184
0.24923576 -0.18459381 -0.33283806 -0.9139415 0.40583891 0.0024097688 0.00035636395
-0.45807242 -0.17154202 -0.3361339 0.9238627 0.38272414 2.0850452e-05 0
0.25514114 -0.17033696 -0.33193702 -0.92386997 0.3827064 5.9549653e-05 0
-0.46224955 -0.16145754 -0.33670187 0.92387182 0.38270214 -1.1096701e-05 0
0.25570649 -0.16897206 -0.33409399 -0.92387366 0.38269758 1.7882872e-05 0
-0.46491587 -0.15502051 -0.33452043 0.92387599 0.38269189 -4.649633e-05 2.8957124e-05
0.27067745 -0.1328291 -0.33491415 -0.92386585 0.3827163 4.2482308e-05 0
-0.47646561 -0.12713693 -0.33285892 0.92448509 0.38121784 0.00063078181 1.8949962e-06
0.27289489 -0.12747566 -0.33741745 -0.92398238 0.38243511 4.0642331e-05 3.2746128e-05
0.27781081 -0.11560753 -0.33398873 -0.93943369 0.34262165 -0.0086502088 0.00065918965
-0.48407191 -0.1087737 -0.33449882 0.95657998 0.29136789 -0.0077084159 0.0019605544
0.2813192 -0.10713761 -0.33333015 -0.94413793 0.32951581 0.0047965697 0.0010614204
-0.48868662 -0.085933797 -0.33278963 0.98762512 0.15679775 -0.003337279 0.00054637442
-0.48966455 -0.078505635 -0.33439687 0.99100924 0.13378647 0.0013664009 0
-0.49110442 -0.067568928 -0.3357943 0.99144 0.13056317 7.9009187e-05 0
0.28810793 -0.064272813 -0.33279574 -0.99144351 0.13053656 6.6562963e-05 0
-0.49257934 -0.056365721 -0.3367002 0.99144 0.13056256 -1.6242813e-05 0
0.28913677 -0.056458056 -0.33354566 -0.99144691 0.13051032 2.3887507e-05 0
0.29207501 -0.034139853 -0.33483708 -0.99144524 0.13052334 -6.0203547e-05 2.5207673e-05
-0.49725309 -0.020864919 -0.33619222 0.99178976 0.12787728 -0.00062719197 6.3459251e-05
0.29307213 -0.02656582 -0.33464813 -0.99180734 0.12774253 -0.00028315943 0
-0.49789894 -0.015959166 -0.33697963 0.99391532 0.110145 0.00060015137 0.00047044782
0.29523548 -0.010133507 -0.33519477 -0.99828142 0.058415119 0.0046741972 0.0016067671
-0.49879897 -0.0091227135 -0.33486602 0.99772716 0.067249715 -0.0042472645 0.001135645
0.29554594 0.0077756345 -0.33548206 -0.99719173 -0.074689701 -0.0054863878 0.001326255
0.29415902 0.018310187 -0.33327362 -0.99423993 -0.10717674 0.00041559109 0.00065385341
-0.49631447 0.02799429 -0.33315963 0.99144185 -0.13054936 3.7615406e-05 0.00017961225
0.29271346 0.029290287 -0.3385036 -0.99144375 -0.13053495 8.2919534e-05 0
-0.49598157 0.030523071 -0.33522615 0.99144691 -0.13051067 5.628269e-05 0
0.29212725 0.033742905 -0.33322561 -0.99144453 -0.13052872 4.990571e-05 8.0960754e-06
-0.49432522 0.043104354 -0.33369219 0.99144673 -0.13051191 6.0849819e-05 7.1235895e-06
0.29056942 0.045575839 -0.33200613 -0.9914431 -0.13053936 -7.7237244e-05 0
-0.49280065 0.054684471 -0.33421311 0.99144453 -0.1305286 -1.4949218e-05 0
0.28959978 0.052940987 -0.33431387 -0.99144429 -0.13053083 -2.2044085e-05 0.00011134252
-0.49141443 0.065214038 -0.3326053 0.991445 -0.13052489 0.00010395277 9.8266821e-05
0.28862274 0.060362399 -0.33536127 -0.99144328 -0.13053857 2.7410872e-05 4.0873738e-06
0.28659058 0.07579837 -0.33939683 -0.99144202 -0.13054767 -6.3318475e-05 2.401993e-05
0.28479031 0.089472823 -0.33596009 -0.98822165 -0.15290552 -0.0061532068 0.00044515621
-0.48532963 0.1056754 -0.3384515 0.95876706 -0.28339294 0.021309841 0.0015026908
-0.48084462 0.11656511 -0.33296224 0.93387657 -0.3575277 -0.0069542029 0.00086262921
-0.47609538 0.12803078 -0.33681366 0.92391467 -0.38259855 -5.2225046e-06 0
0.27348721 0.1260457 -0.33199009 -0.92657596 -0.37609842 0.0026449077 1.8948875e-05
-0.47136608 0.13944834 -0.33781195 0.92387444 -0.38269556 2.3471275e-05 0
0.26964834 0.13531354 -0.33493322 -0.92388982 -0.38265851 2.4323141e-05 7.526491e-07
0.25969931 0.15933257 -0.33087367 -0.92387652 -0.38269073 5.4288237e-05 8.3870364e-06
0.2613844 0.15526448 -0.33458841 -0.92387992 -0.38268247 8.5939291e-06 1.9563406e-06
0.252736 0.17614354 -0.33518991 -0.92363852 -0.38326445 -0.0004064868 0
-0.45149338 0.1874252 -0.33739728 0.90429676 -0.42690274 -0.0011543775 0.0010337478
-0.44855061 0.19452965 -0.33599237 0.88851231 -0.45879319 -0.0073832427 0.0017242921
-0.44541568 0.20073788 -0.33532426 0.85353172 -0.52103972 0.0011325477 0.001590107
-0.43529201 0.21393135 -0.3329179 0.80212444 -0.59715676 -0.00035784487 0.00017084622
0.23087518 0.21521685 -0.33463973 -0.79617041 -0.60506922 -0.0019748306 3.3565258e-05
-0.41631183 0.23866677 -0.33668494 0.79324716 -0.60889977 -6.5527158e-05 6.9677699e-05
0.21506636 0.23581931 -0.33664727 -0.79333353 -0.60878724 9.0112291e-05 1.5303976e-05
-0.41288239 0.24313615 -0.3338584 0.79333872 -0.6087805 -1.8214594e-05 5.395239e-06
0.20669857 0.24672446 -0.33208966 -0.79335165 -0.60876364 -4.6094905e-05 0
0.21050492 0.24176389 -0.33120671 -0.79331571 -0.60881042 0.00012166938 0
0.19957499 0.25600806 -0.33187464 -0.79334015 -0.6087786 -1.8993504e-05 0
0.19460295 0.26248777 -0.33228222 -0.78900433 -0.61438394 -0.0021313797 8.8369059e-05
-0.39025673 0.27262247 -0.33035928 0.75220007 -0.65892482 0.0036138615 0.0017907962
0.18494016 0.27508053 -0.33106533 -0.75303596 -0.6579448 -0.0067418511 0.0021383439
-0.37957016 0.28452653 -0.33763447 0.63746667 -0.7704742 0.0024177167 0.0010602532
0.16912511 0.28990901 -0.33670366 -0.64621007 -0.76309478 -0.0099448375 0.00099323702
0.17622933 0.28445774 -0.33741218 -0.68704242 -0.72646916 -0.014673317 0.0029705032
-0.36507368 0.29565001 -0.33335212 0.61507386 -0.78846794 0.0016022652 0.00029755846
0.15727691 0.29900044 -0.33352989 -0.60876536 -0.79335034 -1.1046546e-05 0
0.16443582 0.29350722 -0.3369545 -0.62574279 -0.78002894 -0.00082367723 0.0004322803
-0.35066795 0.30670393 -0.33019331 0.60865319 -0.79343641 -3.0217763e-05 7.3897289e-05
0.15421952 0.30134648 -0.33615005 -0.60878009 -0.79333901 7.3336332e-06 0
-0.33894348 0.31570047 -0.3319737 0.60884827 -0.79328662 -0.00011852333 4.6314276e-06
0.1377947 0.31394964 -0.33786723 -0.60883325 -0.79329818 4.2115069e-05 0
-0.33181009 0.32117406 -0.33615232 0.60880399 -0.79332066 0.00010618954 0
-0.32649964 0.32524896 -0.3307783 0.60880297 -0.79332143 -6.0081853e-05 0
-0.31080207 0.3372941 -0.33762601 0.5942049 -0.80430293 -0.0041601192 0.00033983853
-0.30850631 0.33905569 -0.33863643 0.5942921 -0.80423397 -0.0049603563 0.0001860388
-0.29699814 0.34652337 -0.3342514 0.45718122 -0.88931489 0.010216789 0.0017858169
0.099037021 0.34368947 -0.33772629 -0.48382142 -0.87516338 -0.0024152207 0.0013228507
0.10328363 0.34043095 -0.33747825 -0.50765532 -0.86140418 -0.016400015 0.0020233267
-0.27153873 0.35706902 -0.33877391 0.38276985 -0.92384374 9.5244366e-05 0
-0.26493767 0.35980329 -0.33805761 0.38264751 -0.92389441 -0.00013374435 3.5794252e-05
0.079723738 0.35225776 -0.33221397 -0.3966282 -0.91797924 0.00013311519 0.00040314833
0.082977265 0.35091013 -0.33606446 -0.40809622 -0.91293007 0.0040327352 0.00068844861
-0.26298535 0.36061195 -0.3309457 0.38268819 -0.92387748 -0.00021619545 0
-0.25519228 0.36383998 -0.33489227 0.38272852 -0.92386085 -0.00015587316 0.00010610342
-0.24471554 0.36817956 -0.33851546 0.38269389 -0.92387521 4.9488688e-05 0
0.038367718 0.36938801 -0.33035049 -0.38269871 -0.92387325 7.1161245e-05 0
0.057367165 0.36151814 -0.33589643 -0.38268796 -0.92387772 -6.2796476e-05 0
-0.22085893 0.37806129 -0.33886367 0.36150354 -0.93234068 -0.0074920719 0.00052683573
-0.21872747 0.37894416 -0.33900246 0.35919356 -0.93323535 -0.0071958485 0.00048155597
0.02384977 0.37540153 -0.33772096 -0.38248876 -0.92396015 6.9232912e-05 5.7531546e-05
-0.21205279 0.38170892 -0.33101186 0.30764499 -0.95145357 -0.009517937 0.0017468366
-0.18463486 0.38736823 -0.33945993 0.15728141 -0.98751909 -0.0082845157 0.00032889674
-0.17802264 0.38823873 -0.33656991 0.13048157 -0.99145073 6.4258675e-05 4.4873639e-05
-0.034974467 0.38949823 -0.33904091 -0.13052827 -0.99144459 -1.9396339e-06 0
-0.026493561 0.38838169 -0.33602315 -0.13050503 -0.99144763 5.4956679e-05 0
-0.018274166 0.38729963 -0.33909711 -0.14419998 -0.98954773 -0.0012997244 0.00014372839
0.011535532 0.38050225 -0.33248979 -0.35191244 -0.93603122 -0.0017996713 0.00057051139
-0.15459388 0.39132321 -0.33323818 0.13056162 -0.99144024 9.9232471e-05 0
-0.14325626 0.39281583 -0.33525017 0.13055821 -0.99144065 -2.517619e-05 0
-0.13433537 0.39399028 -0.33667916 0.13052176 -0.99144548 -8.5591586e-05 0.00011360495
-0.084814779 0.39605984 -0.3337374 -0.094467983 -0.99552763 0.00074579736 0.00083731668
-0.06631054 0.39362368 -0.33072823 -0.13052751 -0.99144471 2.292498e-05 0
-0.1611241 -0.39046347 -0.32613072 0.13054341 0.99144262 3.0144824e-05 0
-0.15968761 -0.3906526 -0.32682446 0.13050151 0.99144816 -3.8832353e-05 2.4099914e-05
-0.14114384 -0.39309391 -0.32827854 0.13053851 0.99144328 -5.1635857e-06 0
-0.13673148 -0.39367482 -0.320095 0.1305474 0.99144208 -6.8474052e-05 0
-0.11215687 -0.39691013 -0.32866591 0.076881729 0.99697256 -0.011613156 0.0012091686
-0.096652605 -0.39761829 -0.32476565 -0.038317312 0.99917805 -0.013228308 0.0012428091
-0.081299126 -0.39559698 -0.32523921 -0.13050538 0.99144757 8.4179783e-06 0
-0.063171938 -0.39321047 -0.32480213 -0.13055523 0.99144107 -0.00011747249 1.262581e-05
-0.048492584 -0.39127791 -0.32158139 -0.13049668 0.99144876 1.1914033e-05 0
-0.20510185 -0.38458812 -0.32296145 0.27364936 0.96180856 0.0063470183 0.0022069949
-0.19677079 -0.3857705 -0.3208842 0.24039662 0.97066391 0.0045936564 0.0017230693
-0.18862741 -0.38684261 -0.32706606 0.1387516 0.99032146 -0.0033884265 0.00024816618
-0.02319327 -0.3879472 -0.32737154 -0.13432111 0.99093664 0.0015612759 0
-0.014166106 -0.38675877 -0.32410964 -0.16909792 0.98559427 0.0031328611 0.0011553646
-0.0082762754 -0.38598335 -0.32424256 -0.20169218 0.97942394 0.0070028771 0.0023646015
0.001225599 -0.384583 -0.32491282 -0.27086768 0.96261245 0.0028173043 0.0022210707
-0.23631851 -0.37165773 -0.32661253 0.38274908 0.92385232 4.5492861e-06 0
-0.22723264 -0.37542123 -0.32639542 0.37501028 0.92701358 0.0036212956 0.00010937326
-0.21895289 -0.37885082 -0.3202928 0.34560618 0.93836689 0.0048974389 0.0011191855
0.013706218 -0.37960315 -0.32506061 -0.32913607 0.94427532 -0.0036900723 0.0014544029
-0.25604224 -0.3634879 -0.32597461 0.38270786 0.92386937 6.4328553e-05 0
-0.2437049 -0.36859819 -0.32715946 0.38269058 0.92387658 -0.00011467486 1.3224924e-05
0.043156654 -0.36740437 -0.32011849 -0.38267496 0.92388302 -1.3801998e-05 0
0.053092197 -0.36328891 -0.32288119 -0.38272658 0.92386162 -9.8355638e-05 6.4021136e-05
-0.26669204 -0.35907659 -0.32636461 0.38277301 0.92384249 0.0001239393 0
0.075913168 -0.35383615 -0.32391009 -0.38268936 0.92387712 -9.1329803e-06 0
0.080125123 -0.35209149 -0.32560921 -0.41513142 0.90974134 -0.0060543036 0.00060389237
-0.29260775 -0.34834194 -0.32514843 0.44887507 0.89358741 0.003572494 0.0018166233
-0.098895192 -0.3323729 -0.32376134 0.054340959 0.51731682 0.85406697 0.085047752
-0.089323074 -0.33240131 -0.32077813 -0.050429095 0.77062148 0.63529485 0.11385182
-0.074444845 -0.33044258 -0.32347682 -0.23699236 0.75602937 0.6101265 0.092899874
0.10561105 -0.33864504 -0.32640278 -0.54200727 0.840343 0.0071960893 0.0014403103
-0.32194772 -0.32874173 -0.32549158 0.60875446 0.79335874 -5.53629e-05 0
-0.18329534 -0.32329255 -0.32476106 0.20734555 0.68699598 0.69645125 0.080587827
-0.17934133 -0.3208712 -0.32522663 0.1139214 0.54989028 0.8274312 0.05890312
-0.16714683 -0.32095397 -0.32522663 -0.0061365492 0.45490298 0.89051986 0.052958649
-0.15883134 -0.32651329 -0.32359254 0.01075829 0.68311346 0.73023295 0.091060065
-0.13446072 -0.32309586 -0.32522663 0.072282039 0.47335017 0.87790376 0.058860406
-0.12716572 -0.32066423 -0.32522663 0.030925088 0.38481522 0.9224754 0.031107273
-0.11996259 -0.32150701 -0.32522666 -0.0098120673 0.39124316 0.92023498 0.05745491
-0.10910468 -0.32559431 -0.32522663 -0.0016794899 0.48230037 0.87600428 0.059764728
-0.08690387 -0.32943133 -0.32522663 0.03723586 0.44750938 0.89350373 0.090987042
-0.078383707 -0.32867774 -0.32522663 -0.13841854 0.56337643 0.81452274 0.092922457
-0.06728369 -0.32713372 -0.32469964 -0.11421867 0.60022241 0.79163575 0.099007726
-0.053062603 -0.3235321 -0.32522663 -0.084136441 0.57506758 0.81376797 0.085054636
-0.043823265 -0.32423109 -0.32329926 0.021399736 0.61078382 0.7915082 0.10742265
-0.029317077 -0.32450137 -0.32348791 -0.29538834 0.70752341 0.641994 0.11256308
0.12115822 -0.32671529 -0.32858074 -0.60877174 0.79334545 -9.6347494e-06 1.6798969e-05
-0.33832961 -0.3161715 -0.32862157 0.60894036 0.79321599 -1.752388e-05 0
-0.21303695 -0.31235033 -0.32297945 0.17193307 0.68617129 0.70682949 0.064666547
-0.18831313 -0.31084946 -0.3252266 0.21868369 0.27390334 0.93656522 0.045375753
-0.16822235 -0.31028694 -0.32522663 -0.014170312 0.28351349 0.95886356 0.046020627
-0.15396199 -0.313972 -0.32522663 0.051061455 0.36247796 0.93059248 0.051748861
-0.14589259 -0.31380865 -0.32522663 0.11682376 0.34774822 0.93028134 0.043551516
-0.13164008 -0.31778854 -0.32522663 0.030460365 0.30104914 0.95312208 0.030439181
-0.12439047 -0.31422746 -0.32522663 0.011385696 0.2354037 0.97183102 0.030495699
-0.11686941 -0.31572187 -0.32522663 -0.057113368 0.35182822 0.93432069 0.052074317
-0.10209186 -0.31519103 -0.32522663 -0.0084003275 0.32181817 0.94676429 0.051409777
-0.075446568 -0.31332114 -0.32522663 -0.074441515 0.24850102 0.96576685 0.067031644
-0.055341337 -0.3155776 -0.32522663 -0.077770017 0.40110841 0.9127233 0.063676417
-0.043285627 -0.31349754 -0.32522663 -0.073227592 0.29583019 0.95242965 0.051225871
0.0065714405 -0.31360751 -0.32054168 -0.087826677 0.56556314 0.82001519 0.066675611
-0.3540031 -0.3041448 -0.32831579 0.60877877 0.79333991 -0.00017069952 0.00011023464
-0.23927516 -0.30148208 -0.32072619 0.26331133 0.84691221 0.46195966 0.073116556
-0.22376531 -0.30605483 -0.3251366 0.26856211 0.70470685 0.65670598 0.070160709
-0.19035347 -0.30068141 -0.3252266 0.1429396 0.20495653 0.96827739 0.03859162
-0.18726359 -0.3047812 -0.32522663 0.070977755 0.16364446 0.98396271 0.028229792
-0.16647248 -0.30260319 -0.32522663 -0.031173049 0.11876443 0.99243295 0.01480407
-0.15196981 -0.30262569 -0.32522663 0.033558004 0.099590749 0.99446243 0.014243181
-0.14807881 -0.30277938 -0.32522663 0.043867391 0.095125116 0.99449831 0.013701346
-0.134278 -0.3054181 -0.32522663 0.030393559 0.11946316 0.99237335 0.017141486
-0.11503366 -0.30306953 -0.32522663 2.987582e-05 6.1079627e-05 1 0
-0.10809857 -0.30426037 -0.32522663 -0.00698257 0.011099969 0.99991405 0.00014963959
-0.094434142 -0.30376554 -0.32522663 -0.0013325625 0.025934983 0.99966276 0.0014769166
-0.083756648 -0.30773023 -0.3252266 0.017487252 0.086113967 0.99613178 0.014137218
-0.075057991 -0.30530623 -0.3252266 0.00016738519 0.011956044 0.99992853 0.00033902787
-0.062268239 -0.30584276 -0.32522663 -0.037440881 0.13390993 0.99028599 0.030952245
-0.059665598 -0.30102542 -0.32522663 -0.0037411083 0.012172763 0.99991888 0.00034227164
-0.043666631 -0.30811819 -0.32522663 -0.0043217735 0.25095332 0.9679895 0.043884944
-0.034473322 -0.30571514 -0.32522663 -0.065388814 0.18388623 0.98077017 0.030467033
-0.0018995081 -0.30943322 -0.32522666 -0.12651733 0.39158276 0.91140348 0.062011123
0.0009485702 -0.30770996 -0.32522663 -0.098141052 0.37350535 0.92242181 0.071963772
0.012335442 -0.30573201 -0.32522663 -0.10627828 0.25105196 0.96212155 0.049345087
0.025488535 -0.3057718 -0.32009244 -0.38966706 0.71669763 0.5783633 0.068483628
0.035462275 -0.30078819 -0.32522663 -0.2433766 0.50876677 0.82578707 0.053351298
0.15542188 -0.30042386 -0.32519466 -0.60875565 0.79335779 2.9328092e-05 1.1131546e-05
-0.37119105 -0.29095602 -0.32697126 0.65200919 0.75820011 0.0040836618 0.0012104347
-0.26526377 -0.29066637 -0.32522663 0.28440669 0.65544897 0.69964236 0.089256011
-0.25694913 -0.29416132 -0.32450324 0.27828619 0.88372821 0.37627277 0.053930238
-0.23522578 -0.2926231 -0.3252266 0.1928387 0.30956221 0.93111998 0.0699507
-0.22371459 -0.29255909 -0.32522663 0.20221169 0.17293468 0.9639523 0.046728421
-0.21319512 -0.29377258 -0.32522663 0.066082984 0.23766388 0.96909696 0.039759248
-0.20212905 -0.29762644 -0.32522663 0.083905295 0.28345665 0.95530736 0.050632913
-0.19161758 -0.29280078 -0.32522663 0.044324767 0.095467195 0.9944452 0.0099135684
-0.18386185 -0.29871872 -0.32522663 0.10173077 0.16076708 0.98173565 0.026472744
-0.14426719 -0.29536769 -0.32522663 4.283986e-05 3.7497142e-05 1 0
-0.13646007 -0.29123983 -0.32522663 3.1471693e-05 -2.218304e-06 1 0
-0.10740624 -0.29447001 -0.3252266 2.4647021e-05 2.912494e-05 1 0
-0.096380465 -0.29804066 -0.32522663 2.3550298e-05 0.00012718391 1 0
-0.087140203 -0.29526836 -0.32522663 6.1561263e-06 9.0738948e-05 1 0
-0.040480588 -0.29661658 -0.32522663 -0.0033014244 0.010978568 0.99993432 0.00033480307
-0.020250246 -0.2999028 -0.32522663 0.0027600853 0.046488963 0.99891502 0.0031505716
-0.017213125 -0.29689866 -0.32522663 -0.012250275 0.058305692 0.99822366 0.0035790801
0.00047641812 -0.29962629 -0.32522663 -0.15781313 0.16027796 0.97437471 0.039014265
0.015275265 -0.29375619 -0.32522663 -0.10635268 0.18379807 0.97719359 0.040654667
0.027311798 -0.2932359 -0.32522663 -0.10904948 0.30627078 0.94567776 0.045677181
0.032558817 -0.29460481 -0.32522663 -0.10854928 0.35032931 0.9303152 0.056719672
0.043140069 -0.29846027 -0.32039091 -0.35372299 0.714643 0.60346121 0.073559716
0.054605797 -0.29058099 -0.32522663 -0.24690773 0.42428356 0.87121755 0.069085665
0.15674593 -0.2994079 -0.32323605 -0.60881549 0.79331189 2.6876207e-05 0
0.16412199 -0.29374805 -0.32475659 -0.62107277 0.78374743 -0.0029213496 0.0003240146
-0.38238779 -0.28236446 -0.32377335 0.6980316 0.71595603 -0.012603751 0.002241719
-0.37549216 -0.28765565 -0.32789555 0.65984899 0.75139147 0.003191656 0.0015280751
-0.27899569 -0.28140491 -0.32383639 0.59026974 0.64978188 0.47892079 0.069473945
-0.26108268 -0.2845853 -0.32522666 0.13540819 0.4766255 0.86861545 0.084458411
-0.24407333 -0.28909659 -0.3252266 0.20671868 0.40897843 0.88882172 0.096997395
-0.23370919 -0.28374892 -0.3252266 0.08626046 0.23417893 0.96835905 0.048336595
-0.22759041 -0.28181899 -0.32522663 0.10130315 0.12069564 0.98750716 0.015218819
-0.18988916 -0.282819 -0.32522663 4.7903439e-05 4.5967172e-05 1 0
-0.17020543 -0.28465262 -0.32522663 3.2954194e-05 8.6231856e-05 1 0
-0.16427016 -0.28564954 -0.32522666 1.0893975e-05 4.5105509e-05 1 0
-0.15271324 -0.28125012 -0.32522663 3.4937901e-05 -2.1837195e-06 1 1.9890153e-05
-0.14351627 -0.28380543 -0.32522663 5.7636844e-05 2.0222415e-05 1 0
-0.13119492 -0.28509337 -0.32522663 1.6472635e-05 -1.9168697e-06 1 0
-0.11457695 -0.28490472 -0.32522663 1.9049339e-05 -3.8545775e-05 1 0
-0.10669838 -0.28487819 -0.32522663 4.1236333e-05 0.00010787615 1 2.0335317e-05
-0.090472892 -0.28354391 -0.32522663 3.6768677e-05 3.8182065e-05 1 0
-0.080613114 -0.28589383 -0.32522663 9.2716045e-06 5.2310901e-07 1 1.9389738e-05
-0.073590733 -0.28690901 -0.32522663 1.7705792e-05 -5.3858512e-06 1 0
-0.048062522 -0.28074896 -0.32522663 2.8535094e-06 2.4711018e-05 1 0
-0.031483889 -0.28637758 -0.32522663 1.2118973e-05 -3.3391101e-05 1 2.1612954e-05
-0.025297949 -0.28378624 -0.32522663 1.2023704e-05 4.4259192e-05 1 0
-0.00039854148 -0.28505492 -0.3252266 -0.0020920599 0.026066219 0.99965805 0.0017409953
0.0037323891 -0.28008723 -0.32522663 3.8711537e-06 2.9525105e-05 1 0
0.02654478 -0.28339368 -0.32522663 -0.060969967 0.21284689 0.97518152 0.036804717
0.033306405 -0.28428012 -0.32522663 -0.10153827 0.23646437 0.96632016 0.040858634
0.040257819 -0.28045347 -0.32522663 -0.11843511 0.22216621 0.96778882 0.040694397
0.050837655 -0.28258899 -0.32522663 -0.26007441 0.35800728 0.89676762 0.07022047
0.067515954 -0.28397343 -0.32522663 -0.40510115 0.52639484 0.74753028 0.063401781
0.18014507 -0.28132963 -0.32963267 -0.70798129 0.70615584 -0.010311017 0.0021160988
-0.39025223 -0.27262837 -0.32748017 0.74061912 0.67191261 0.0041046524 0.0020421213
-0.28405395 -0.276761 -0.32522663 0.54347998 0.66874844 0.50735098 0.075725965
-0.27959022 -0.27399525 -0.32522663 0.41545683 0.58478844 0.69671959 0.10200639
-0.22462231 -0.2748543 -0.3252266 7.6424643e-05 0.00013134813 1 0
-0.21778014 -0.272937 -0.32522663 3.3560424e-05 4.0959108e-05 1 0
-0.20756528 -0.27312538 -0.3252266 3.3203173e-06 0.00012952962 1 0
-0.19837601 -0.27511385 -0.32522663 -0 -0 1 0
-0.18481302 -0.27861616 -0.32522663 3.7041842e-05 -1.1186264e-08 1 0
-0.17322949 -0.27060461 -0.3252266 -1.8538458e-05 -7.8781468e-08 1 1.760683e-05
-0.15420234 -0.27731079 -0.32522663 -3.2254615e-05 -6.9641268e-05 1 1.8309895e-05
-0.13974638 -0.27855173 -0.32522663 -1.0239839e-05 6.7105197e-05 1 0
-0.12428977 -0.27486461 -0.32522663 2.2315575e-05 1.2243252e-06 1 0
-0.11225479 -0.27986208 -0.3252266 1.872891e-05 -3.6694491e-05 1 0
-0.091910861 -0.27295664 -0.32522663 8.4229787e-06 -1.720136e-06 1 0
-0.088734336 -0.27408186 -0.32522663 3.0607043e-05 -7.3279174e-05 1 0
-0.067719445 -0.27361059 -0.3252266 8.2183406e-06 2.7799131e-05 1 1.5408064e-05
-0.048219051 -0.27126452 -0.32522663 3.472991e-05 0.00011142841 1 0
-0.03346172 -0.27548113 -0.32522663 5.8076562e-06 5.7050403e-07 1 0
-0.026800547 -0.27305508 -0.32522663 -7.9646688e-06 0.00015500373 1 0
-0.018509578 -0.27127728 -0.32522663 1.4763814e-05 0.00010822697 1 0
-0.0031777998 -0.2751779 -0.32522663 1.6806299e-06 -2.4499107e-08 1 0
0.007866649 -0.27898425 -0.32522663 3.7427501e-06 2.8897228e-05 1 0
0.038615681 -0.2724264 -0.32522663 -0.054040324 0.05217541 0.99717468 0.0086552873
0.052230977 -0.275015 -0.32522663 -0.18635114 0.18595168 0.96472538 0.046230011
-0.39565051 -0.26559314 -0.32259706 0.78429431 0.62037855 0.0035868918 0.00026539617
-0.29261914 -0.26554778 -0.32517561 0.38777924 0.5170241 0.76309454 0.090140417
-0.26774395 -0.26413885 -0.32522663 0.0034339554 0.0061497902 0.9999752 0.00019199945
-0.25190806 -0.26421261 -0.32522663 2.9264287e-05 7.5951255e-07 1 0
-0.24845117 -0.26511663 -0.3252266 -4.8984832e-05 -7.9772999e-06 1 1.8931099e-05
-0.23888063 -0.2667987 -0.32522663 8.1053513e-05 7.7034914e-05 1 0
-0.22549982 -0.26203027 -0.32522663 3.7726295e-05 3.8588867e-05 1 0
-0.21112092 -0.26522022 -0.32522663 3.8696184e-05 0.0001104323 1 0
-0.2096104 -0.26698619 -0.32522663 3.3018521e-05 0.00013161657 1 0
-0.19203679 -0.26922601 -0.32522666 -4.7010202e-05 9.8358505e-05 1 0
-0.16469678 -0.26017827 -0.32522666 2.8779928e-05 4.888641e-05 1 0
-0.13066523 -0.26291323 -0.32522663 4.9490252e-05 4.8482936e-05 1 0
-0.12534516 -0.26152074 -0.32522663 -2.045224e-05 4.4308508e-05 1 1.7084265e-05
-0.11535738 -0.2679345 -0.32522663 2.4834915e-05 -3.2262542e-05 1 0
-0.064237013 -0.2679649 -0.32522663 6.3769999e-06 6.811411e-05 1 0
-0.055888012 -0.26301348 -0.32522663 1.3205882e-05 8.7532535e-05 1 0
-0.03571577 -0.26905388 -0.32522663 5.4672673e-06 4.094432e-05 1 0
-0.02653053 -0.266289 -0.32522663 3.8839598e-06 -6.9157215e-07 1 0
-0.017787995 -0.26800129 -0.3252266 8.7991293e-06 3.6469133e-05 1 0
-0.0067310631 -0.26527053 -0.32522663 6.5242676e-07 9.6121032e-05 1 0
0.0021470066 -0.26690209 -0.32522663 1.7145805e-05 8.9506299e-05 1 0
0.019133335 -0.268271 -0.32522663 -6.0043344e-06 3.0793621e-05 1 0
0.028691713 -0.26224333 -0.32522663 -1.0548492e-06 -6.6683999e-05 1 0
0.043723606 -0.26468828 -0.32522663 -1.0032002e-05 -3.1645559e-05 1 0
0.050913837 -0.26530567 -0.32522663 -0.043971308 0.058940046 0.99729264 0.011754208
0.06329412 -0.2696844 -0.32522663 -0.18083848 0.23368903 0.95534647 0.035843808
0.084396288 -0.26743427 -0.32522663 -0.20948039 0.53301972 0.81976086 0.094184242
0.10184064 -0.26124316 -0.32305309 -0.26020277 0.65981627 0.70493758 0.089051679
0.19402714 -0.26323813 -0.32198325 -0.7933619 0.60875028 2.7708957e-06 7.8754392e-06
-0.40097201 -0.25865802 -0.32472745 0.79335004 0.60876584 -4.1463572e-06 9.1364302e-05
-0.3124685 -0.2543669 -0.32366392 0.32766861 0.55435467 0.76506484 0.087435141
-0.30397537 -0.25464916 -0.3252266 0.44006979 0.28531495 0.85143054 0.098667517
-0.29350308 -0.25881624 -0.32522663 0.26439512 0.36795995 0.89145988 0.092741698
-0.2774694 -0.25385347 -0.32522663 0.10193007 0.040058967 0.9939847 0.018698622
-0.25196183 -0.25312769 -0.32522663 7.557926e-06 4.9643291e-05 1 0
-0.24177893 -0.25591424 -0.3252266 0.00011321266 9.6067852e-05 1 0
-0.23377916 -0.25356796 -0.32522666 9.0285277e-05 0.00013981064 1 0
-0.19481815 -0.25692138 -0.32522663 4.3696247e-08 2.7799453e-05 1 0
-0.1746783 -0.25297663 -0.32522663 -5.2806379e-05 -2.8147457e-05 1 5.9157745e-05
-0.13285197 -0.25180718 -0.3252266 4.3359651e-05 0.00014614136 1 0
-0.12893553 -0.25310972 -0.32522663 -6.0605311e-05 6.5213331e-05 1 7.0134236e-05
-0.095255956 -0.25388059 -0.32522666 -3.6800615e-05 4.1527833e-06 1 7.3020688e-05
-0.083627544 -0.25551751 -0.32522663 4.2122625e-05 3.1218606e-05 1 0
-0.076471016 -0.25154385 -0.32522663 6.5756467e-06 -3.939266e-05 1 0
-0.053554665 -0.25195858 -0.32522666 2.4798112e-05 3.6009515e-05 1 0
-0.047625113 -0.25174484 -0.32522663 1.590524e-05 3.0481931e-05 1 0
-0.035789602 -0.25597298 -0.32522663 1.3385313e-05 9.1425325e-05 1 0
-0.028288169 -0.25316709 -0.32522666 4.8823417e-06 3.5486355e-05 1 0
-0.018301824 -0.250559 -0.32522663 3.2669825e-06 3.3655491e-05 1 0
-0.0037744057 -0.25524402 -0.32522663 -2.4885489e-06 3.7182559e-05 1 0
0.0079523614 -0.2534605 -0.32522663 3.415762e-06 -2.9917755e-05 1 0
0.015330776 -0.25229311 -0.32522663 -2.7024068e-06 9.3040234e-07 1 1.7784454e-05
0.035538219 -0.25404498 -0.3252266 2.7961912e-06 7.2845345e-05 1 0
0.05326141 -0.25455427 -0.32522663 -8.3629402e-06 1.1257849e-06 1 0
0.061559357 -0.25184214 -0.32522663 1.9047795e-05 4.1954576e-05 1 0
0.079512306 -0.25392133 -0.32522666 -0.033982188 0.2880047 0.95702583 0.038533106
0.088507816 -0.25797409 -0.3252266 -0.15337652 0.58689827 0.79500061 0.080953524
0.093894102 -0.25737634 -0.32522663 -0.17194441 0.62527108 0.76123011 0.086082228
0.10503691 -0.25879055 -0.32144457 -0.27586061 0.6505118 0.70762658 0.079515345
0.11049838 -0.25459984 -0.32118616 -0.4870986 0.74747789 0.45167661 0.08875417
0.20287587 -0.25170627 -0.32847828 -0.79331189 0.60881543 7.3647476e-05 0
-0.41303912 -0.24293186 -0.32314268 0.79334897 0.60876709 -0.00011619944 0.00013521012
-0.40868905 -0.24860097 -0.32757443 0.79338765 0.60871679 0.00011784899 2.529081e-05
-0.31358549 -0.24691744 -0.32522663 0.31589574 0.42772505 0.84691262 0.072615467
-0.27070659 -0.24311982 -0.3252266 9.8158969e-05 8.2630831e-05 1 0
-0.26213646 -0.24507242 -0.32522663 -2.8555933e-05 3.7354257e-05 1 0
-0.25266448 -0.2435125 -0.3252266 7.9286212e-05 7.8298426e-06 1 0
-0.24488668 -0.24058698 -0.32522666 0.00012136835 1.2835996e-05 1 0
-0.23642844 -0.24127002 -0.32522663 9.6805001e-05 5.3708558e-05 1 0
-0.2151819 -0.24773352 -0.32522663 -8.9618936e-07 5.4564996e-05 1 0
-0.20816179 -0.24072987 -0.32522663 2.0706721e-05 9.500319e-05 1 0
-0.18644415 -0.24565296 -0.32522666 3.5336703e-05 9.152347e-05 1 0
-0.17325911 -0.24606082 -0.3252266 3.0096677e-05 3.1753054e-05 1 1.9332727e-05
-0.16348933 -0.24946612 -0.32522663 2.1660422e-05 2.806392e-05 1 1.8550798e-05
-0.1530847 -0.24559444 -0.32522663 -1.3002643e-05 -5.5128669e-07 1 3.5030771e-05
-0.14302477 -0.24252476 -0.32522663 -4.4027211e-06 7.4296848e-05 1 0
-0.12406866 -0.2461264 -0.3252266 1.5762444e-05 4.3303222e-05 1 1.7935288e-05
-0.096930481 -0.24946301 -0.32522663 -2.7073866e-05 3.2173906e-05 1 3.2044962e-05
-0.086725004 -0.24076931 -0.32522663 -1.1034182e-05 6.1745188e-05 1 2.219753e-05
-0.065524019 -0.24708889 -0.32522663 2.3168825e-06 3.7688456e-05 1 0
-0.054635204 -0.24429774 -0.32522663 7.7108416e-06 3.3762983e-05 1 0
-0.049297862 -0.24536431 -0.32522663 6.2665426e-06 7.3714982e-05 1 0
-0.021571491 -0.24595444 -0.32522663 -0 -0 1 0
-0.014989952 -0.24641907 -0.32522666 7.6640872e-06 -2.9056264e-05 1 0
-0.0027584932 -0.24435705 -0.3252266 1.1454979e-06 -2.207112e-07 1 0
0.029299762 -0.24150386 -0.32522663 -9.8547571e-06 -1.1279677e-06 1 0
0.034872964 -0.2434891 -0.32522663 -6.978245e-06 -1.5965638e-07 1 0
0.052218962 -0.24829969 -0.32522663 -9.8487644e-06 2.9679428e-05 1 0
0.065595269 -0.24408315 -0.32522663 5.4457482e-06 -2.6032174e-05 1 1.7376955e-05
0.071867086 -0.24589261 -0.3252266 -2.4948111e-05 7.5574841e-05 1 0
0.08221586 -0.24928972 -0.32522663 -0.063877061 0.10113817 0.99281961 0.01362739
0.10059442 -0.24504247 -0.32522663 -0.10570345 0.12244791 0.98682994 0.0375771
0.11380366 -0.24929801 -0.32522663 -0.25191301 0.21713959 0.94307488 0.06461484
0.12105697 -0.24649794 -0.32451141 -0.46936068 0.51122439 0.71996552 0.089248359
0.20549642 -0.24829111 -0.32214582 -0.79335713 0.60875642 -6.5796121e-05 4.1875435e-05
-0.42246675 -0.23064557 -0.32729942 0.79330331 0.60882652 -9.3434974e-06 0
-0.41720486 -0.23750296 -0.32691121 0.79331565 0.6088106 -0.000214635 4.8905091e-05
-0.3409707 -0.23221074 -0.32306567 0.57129884 0.61476272 0.5437687 0.11509784
-0.33437529 -0.23562104 -0.32352784 0.52555072 0.43775114 0.72950006 0.10332718
-0.32951802 -0.23487444 -0.32522663 0.2260437 0.23496905 0.94535375 0.042247526
-0.30432671 -0.23796614 -0.32522663 0.14187054 0.22126013 0.96484029 0.05304794
-0.29118425 -0.23740056 -0.32522663 0.043369807 0.046708457 0.99796665 0.0071757003
-0.28960106 -0.23525125 -0.3252266 0.0065968786 0.007472639 0.99995035 0.00024511194
-0.27330112 -0.23575166 -0.32522663 0.000105909 7.8923011e-05 1 0
-0.26841027 -0.23215669 -0.32522663 8.4846513e-05 9.9236113e-06 1 0
-0.25102225 -0.2325764 -0.32522666 3.5733345e-05 0.0001577823 1 0
-0.24504054 -0.23494822 -0.32522663 7.4263713e-05 7.8183686e-05 1 0
-0.2347476 -0.23499772 -0.3252266 7.0360184e-05 4.1755105e-05 1 0
-0.21301065 -0.23923253 -0.32522663 -1.9528247e-06 3.1147691e-05 1 0
-0.20436996 -0.23100543 -0.32522663 7.2034236e-05 -2.6392911e-05 1 0
-0.19505003 -0.23622227 -0.32522663 3.5060631e-05 0.0001797314 1 0
-0.18150537 -0.23299916 -0.32522663 1.8736459e-05 6.3145606e-05 1 0
-0.15473413 -0.23553276 -0.32522666 2.6704554e-05 6.3419939e-05 1 0
-0.13330111 -0.23539345 -0.32522663 2.2557524e-05 -1.8076186e-06 1 3.7245405e-05
-0.12455538 -0.23912777 -0.32522666 1.0441799e-05 6.4448534e-05 1 0
-0.11270395 -0.2377397 -0.32522663 1.682376e-05 -1.5918251e-06 1 0
-0.09727449 -0.23734805 -0.32522663 5.8208643e-06 3.405067e-05 1 0
-0.08215785 -0.23509973 -0.32522663 -2.5546691e-05 0.00010161046 1 0
-0.071689859 -0.23644122 -0.32522666 1.1667336e-05 3.6555175e-05 1 0
-0.062755056 -0.23822421 -0.32522663 1.0013566e-05 3.0097932e-05 1 0
-0.05908107 -0.231655 -0.3252266 3.4690538e-06 8.2233935e-05 1 0
-0.045170382 -0.23391771 -0.32522663 2.8069959e-05 9.3857132e-05 1 0
-0.036538679 -0.23108289 -0.32522663 8.3346031e-06 1.1181228e-06 1 0
-0.028835429 -0.23076768 -0.32522666 -6.9809712e-06 0.00010391868 1 0
-0.017147681 -0.23610649 -0.32522663 -5.1556062e-06 0.00010581706 1 0
0.0075117461 -0.23320135 -0.32522663 -1.3732583e-05 0.00018614609 1 0
0.017495118 -0.23580065 -0.32522666 8.9074128e-06 7.6771124e-05 1 0
0.034064218 -0.23710915 -0.32522663 0 0 1 0
0.062657535 -0.23352949 -0.32522663 2.9753776e-06 6.3964835e-05 1 0
0.09489803 -0.23274934 -0.32522663 -0.042357527 0.061444923 0.99721128 0.0069017215
0.11313703 -0.23636167 -0.32522663 -0.12948212 0.096992716 0.98682666 0.020038951
0.12089434 -0.23632112 -0.32522663 -0.23003891 0.15014674 0.96152902 0.047107983
-0.43059194 -0.22005661 -0.32082471 0.79331458 0.60881197 0.00010729974 0
-0.3473475 -0.22073351 -0.32522663 0.43420523 0.45333022 0.77843273 0.082342528
-0.33356991 -0.22170806 -0.32522663 0.1091681 0.33893612 0.93445426 0.052877855
-0.32579485 -0.22260064 -0.32522663 0.13647731 0.24825497 0.95903254 0.039061338
-0.31416896 -0.22405498 -0.32522666 0.092169046 0.15774359 0.98316926 0.019850491
-0.2966221 -0.22734845 -0.32522663 -2.4903162e-05 1.2646906e-07 1 1.7306163e-05
-0.28896311 -0.22605042 -0.32522663 5.7605626e-05 2.0624213e-05 1 2.0402693e-05
-0.27121478 -0.22669847 -0.32522663 5.5884666e-05 -4.0993378e-08 1 0
-0.25153482 -0.22681813 -0.32522663 -7.6163096e-06 5.0696181e-05 1 0
-0.2460731 -0.22099622 -0.32522666 8.3343592e-05 3.1577121e-05 1 0
-0.2339341 -0.22651082 -0.32522666 6.4612548e-05 0.00010887424 1 0
-0.22530219 -0.22611454 -0.32522666 2.7009488e-05 6.904699e-05 1 0
-0.21322909 -0.22335076 -0.3252266 0.00010400821 5.0912029e-05 1 0
-0.20243886 -0.22772796 -0.32522663 -0 -0 1 4.1638872e-05
-0.1624473 -0.22156109 -0.32522663 -0 -0 1 1.5231542e-05
-0.15349212 -0.22264683 -0.32522663 1.8528279e-05 3.0557498e-05 1 1.5708807e-05
-0.13501541 -0.22999281 -0.32522666 -1.8271052e-05 1.2178479e-06 1 0
-0.11298136 -0.22522175 -0.32522666 2.7465703e-06 3.0463909e-05 1 0
-0.092521146 -0.22623557 -0.32522663 1.139553e-05 1.645093e-06 1 0
-0.057072785 -0.22125442 -0.32522663 1.9820367e-05 6.2205479e-05 1 0
-0.037307613 -0.22441901 -0.32522663 1.0326624e-05 6.1835563e-05 1 0
-0.027763821 -0.22401267 -0.32522666 1.1641678e-06 3.896292e-05 1 3.4230365e-05
-0.0048476169 -0.22314553 -0.32522663 -1.8049048e-05 0.00010826167 1 0
0.0041970592 -0.22373119 -0.32522663 -9.9276383e-07 -5.89264e-08 1 0
0.015696492 -0.22700167 -0.32522663 -1.4859115e-05 -4.4216125e-05 1 4.0040253e-05
0.02945946 -0.22341543 -0.32522663 0 0 1 0
0.035777427 -0.22558527 -0.32522663 -1.6377751e-05 3.7982834e-05 1 0
0.048378643 -0.22609746 -0.32522663 -1.9863774e-06 2.7520842e-05 1 0
0.053578701 -0.22160108 -0.32522663 -1.676085e-05 3.4080655e-05 1 0
0.060557596 -0.22565226 -0.3252266 -2.3298118e-05 8.4583342e-05 1 0
0.074145861 -0.22238541 -0.32522663 -1.0491978e-05 -3.6494381e-05 1 0
0.088005483 -0.22193074 -0.32522663 -6.8115305e-06 -6.6210654e-05 1 0
0.098173633 -0.22568429 -0.32522663 4.3143823e-06 7.9661957e-05 1 1.917539e-05
0.10545707 -0.22491424 -0.32522663 -0.0051978789 0.0036030745 0.99997997 8.9537876e-05
0.1354719 -0.22589535 -0.32522663 -0.48574463 0.37085554 0.79152912 0.088132948
0.14095385 -0.22465082 -0.32388443 -0.45461667 0.41050979 0.79044634 0.094332069
0.22674361 -0.22060123 -0.32113647 -0.7932902 0.60884368 9.6668286e-05 0
-0.43376476 -0.21592171 -0.32651347 0.79758668 0.60319084 0.0040316931 0.00011810392
-0.34759811 -0.21824284 -0.32522666 0.50355154 0.44877562 0.73826581 0.078117736
-0.33207867 -0.21382822 -0.32522663 0.071381517 0.20430775 0.97630066 0.04489566
-0.3286159 -0.21563305 -0.32522663 0.071542352 0.20423855 0.97630346 0.044936262
-0.3144798 -0.21336465 -0.32522663 0.0084287366 0.009418983 0.99992019 0.00027290528
-0.30357656 -0.2113331 -0.32522663 -3.8558795e-05 -5.92705e-05 1 1.4837755e-05
-0.28631204 -0.21610461 -0.3252266 -2.8244021e-05 -3.6056197e-05 1 1.6714321e-05
-0.27041054 -0.21983406 -0.32522663 8.6698223e-05 -7.1026825e-06 1 0
-0.26353449 -0.21447369 -0.32522663 7.1979099e-05 -9.261189e-06 1 0
-0.25372064 -0.21291465 -0.3252266 5.3924206e-05 6.8504422e-05 1 0
-0.23420946 -0.21712907 -0.3252266 7.1394978e-05 -2.573862e-05 1 0
-0.20762305 -0.21312633 -0.32522663 3.5845052e-05 2.5878706e-05 1 0
-0.19505413 -0.21758555 -0.32522666 -0 -0 1 3.8914059e-05
-0.17976935 -0.21619697 -0.3252266 -5.2673095e-06 -4.0764386e-05 1 1.5766964e-05
-0.16315363 -0.21336739 -0.3252266 2.9999494e-06 -3.2094726e-05 1 5.2801141e-05
-0.13515577 -0.21575874 -0.32522663 1.4159648e-05 -3.4680179e-06 1 0
-0.12169758 -0.21049537 -0.32522663 3.0264255e-05 9.0260692e-05 1 0
-0.11602125 -0.21526539 -0.32522666 5.1546387e-05 7.3975854e-05 1 0
-0.10543902 -0.21553949 -0.32522663 2.3563987e-05 0.00010759953 1 0
-0.099674992 -0.21065092 -0.32522663 9.9712142e-06 7.1025082e-05 1 0
-0.084836133 -0.21366204 -0.32522663 -6.518589e-07 8.6582797e-05 1 0
-0.064845741 -0.2145505 -0.32522666 4.9825894e-06 2.7794511e-05 1 0
-0.055134848 -0.21474391 -0.3252266 2.5582758e-05 3.3706692e-05 1 0
-0.046578567 -0.21457066 -0.32522663 4.9935948e-06 1.0912514e-06 1 0
-0.020920418 -0.21069279 -0.32522663 -7.1550867e-06 4.0790681e-05 1 0
-0.0039474126 -0.21423952 -0.32522663 0 0 1 1.9086945e-05
0.0062005501 -0.21522978 -0.32522663 -7.0187923e-07 -1.1911239e-07 1 2.1077582e-05
0.01954639 -0.21733357 -0.32522663 1.3447391e-06 6.7075904e-05 1 0
0.044746939 -0.21327931 -0.32522663 -1.2903571e-06 4.1368778e-05 1 0
0.054092154 -0.21044858 -0.32522663 -3.5110752e-05 8.3141509e-05 1 0
0.074042507 -0.21554157 -0.32522663 -3.8689986e-06 4.387966e-05 1 0
0.095324673 -0.21784034 -0.32522666 2.371711e-05 4.5504137e-05 1 0
0.10021628 -0.21766378 -0.32522663 -2.3871387e-06 0.00013834047 1 0
0.11315498 -0.21555534 -0.32522663 -0.010142248 0.0047840956 0.99993718 0.00013044009
0.12074314 -0.21578732 -0.32522663 -0.049491812 0.13266805 0.98992413 0.015340961
0.14469115 -0.21592544 -0.32522663 -0.38162965 0.42157364 0.82257795 0.10522407
0.15261872 -0.21256012 -0.32375592 -0.41772309 0.36197868 0.83335394 0.12747924
0.22805557 -0.21889144 -0.32391235 -0.79335129 0.60876417 8.0811202e-05 2.5063882e-05
0.23104033 -0.21500161 -0.32659236 -0.80107331 0.59855705 0.0032990887 0.00018916749
-0.36175323 -0.20279849 -0.32522663 0.76887983 0.57120091 0.28732097 0.026369222
-0.34739023 -0.20571974 -0.3252266 0.23692104 0.13597655 0.9619661 0.041363727
-0.32428837 -0.2061588 -0.32522663 0 0 1 0
-0.24702108 -0.20642655 -0.32522663 4.5847093e-05 2.8975535e-05 1 0
-0.23323017 -0.20984624 -0.32522663 7.2121977e-05 -2.567165e-05 1 0
-0.21658222 -0.20364018 -0.32522663 3.9016257e-05 -5.4928569e-06 1 0
-0.20790181 -0.20416504 -0.32522663 3.9407387e-05 3.6480818e-05 1 0
-0.19431351 -0.2060302 -0.32522666 3.5495923e-05 -1.5633522e-06 1 0
-0.166078 -0.20873225 -0.32522663 2.3954695e-05 1.523229e-07 1 5.1461629e-05
-0.14705846 -0.20230651 -0.32522663 3.1484269e-05 4.01332e-05 1 0
-0.13582268 -0.20380786 -0.32522663 1.2899801e-05 3.5210836e-05 1 0
-0.12816361 -0.20312884 -0.3252266 2.2551814e-05 7.5210201e-06 1 0
-0.10917668 -0.20875838 -0.3252266 3.4767316e-05 0.0001211453 1 0
-0.096467555 -0.20898627 -0.32522663 4.0262304e-08 6.0390143e-05 1 0
-0.076292172 -0.20914513 -0.32522663 1.5319903e-05 -3.5456313e-07 1 0
-0.058957551 -0.20113724 -0.32522666 -8.1040334e-06 4.703967e-05 1 4.0673236e-05
-0.014727887 -0.207867 -0.3252266 -2.2591248e-05 6.4495311e-05 1 0
-0.0035271551 -0.20131184 -0.32522663 -4.1962294e-06 -3.3832894e-05 1 1.8459446e-05
0.0018104913 -0.2032356 -0.32522666 3.8404917e-07 2.387363e-08 1 3.7848593e-05
0.043468006 -0.20317087 -0.32522663 -1.2702742e-05 -2.6020301e-05 1 0
0.051075723 -0.20401564 -0.32522666 -2.159038e-05 2.9399756e-05 1 0
0.067822099 -0.20511186 -0.3252266 -1.7814169e-05 -3.0914427e-05 1 0
0.075000763 -0.20493953 -0.32522666 1.4707351e-06 3.5602428e-05 1 0
0.096472695 -0.20184299 -0.3252266 -1.6699219e-05 -7.3846877e-07 1 1.6643764e-05
0.11142078 -0.20566317 -0.32522663 -5.0166283e-05 1.9142151e-05 1 0
0.12801713 -0.20281881 -0.32522663 -0.014296579 0.0083973305 0.99986249 0.00037511776
0.1312879 -0.20326363 -0.32522663 -0.063963354 0.030176634 0.99749589 0.011690219
0.14717904 -0.20667239 -0.32522663 -0.35327807 0.22507283 0.90804011 0.09493158
0.15627547 -0.2039233 -0.32433987 -0.5302 0.33647275 0.77825063 0.0967758
0.16155604 -0.2009128 -0.32436186 -0.54394138 0.28855097 0.78795058 0.10072307
0.23872291 -0.20498949 -0.32352534 -0.834005 0.55174613 -0.0034473564 0.0015260438
0.24139684 -0.20150475 -0.32668915 -0.84749824 0.53074116 0.0077763423 0.0024019422
-0.44663218 -0.19915257 -0.32464248 0.85870802 0.512393 0.0085960152 0.0023759436
-0.37197024 -0.19181134 -0.32205093 0.73405689 0.59231478 0.33214995 0.020957472
-0.36085555 -0.19498065 -0.32522663 0.50654036 0.20242046 0.83811861 0.10823173
-0.32980624 -0.19041079 -0.3252266 5.6712695e-05 -3.9189603e-05 1 5.6257293e-05
-0.31854922 -0.19344683 -0.32522663 0.00017158622 -8.2077218e-05 1 5.5961471e-05
-0.28848153 -0.19037586 -0.32522663 -4.8901165e-05 -5.435146e-07 1 8.0768332e-05
-0.2735768 -0.19286266 -0.32522663 -3.3005908e-05 -3.129333e-06 1 1.5529224e-05
-0.25330976 -0.19363451 -0.32522663 -1.1767972e-05 -4.3167303e-05 1 1.6933458e-05
-0.23469487 -0.19987772 -0.3252266 6.7897839e-05 6.4645399e-05 1 0
