# .PCD v0.7 - Point Cloud Data file format
VERSION 0.7
FIELDS x y z normal_x normal_y normal_z curvature
SIZE 4 4 4 4 4 4 4
TYPE F F F F F F F
COUNT 1 1 1 1 1 1 1
WIDTH 580
HEIGHT 1
VIEWPOINT 0 0 0 1 0 0 0
POINTS 580
DATA ascii
0.45916572 0.17527102 -0.40371293 -0.92388195 -0.38267758 0.00017042444 2.7217471e-05
0.46067888 0.17161795 -0.40026504 -0.92386079 -0.38272864 0.00015756808 6.0403388e-05
-0.32422322 0.18409148 -0.40371454 0.92384505 -0.38276646 0.00010827504 0
0.45345321 0.18906221 -0.40240303 -0.92360556 -0.3833442 -8.3996965e-05 0
0.45214471 0.19222124 -0.406618 -0.92362547 -0.38329619 -4.9392627e-05 0
-0.31585836 0.20428607 -0.40399939 0.91008019 -0.41440773 -0.0044992496 0.00082268292
0.44835222 0.20137715 -0.40270609 -0.91241705 -0.40926144 -0.00036972875 0.00091366179
-0.31082141 0.21644631 -0.40902868 0.88790548 -0.45667773 0.055400018 0.0091410857
-0.30939829 0.21863759 -0.40855131 0.87810147 -0.47841519 0.0075276676 0.0026310049
0.44205061 0.21628992 -0.40495765 -0.87387162 -0.48579821 -0.018670654 0.0025249571
-0.30241796 0.22773452 -0.40549353 0.80878234 -0.58807296 -0.006419512 0.0011098314
0.43484423 0.22625238 -0.4036485 -0.83610547 -0.54853702 -0.0058933417 0.0018802971
0.42441449 0.23984459 -0.40528917 -0.79720211 -0.60358918 0.012200203 0.00010770193
-0.28655493 0.24840763 -0.4032211 0.79335016 -0.6087656 -5.1346979e-05 3.0591262e-05
0.42245036 0.24240434 -0.4041563 -0.79330051 -0.60883033 8.5465026e-06 0
-0.28441876 0.25119156 -0.40209639 0.79339671 -0.60870486 -8.8843313e-05 6.2211904e-05
-0.27896959 0.25829303 -0.40785956 0.78894407 -0.61253762 0.048629593 0.0033341998
0.39612716 0.27670938 -0.40540618 -0.79331058 -0.60881722 1.361524e-05 7.0008602e-05
0.4008939 0.27049723 -0.40856647 -0.79027194 -0.60645235 0.087668024 0.0079980111
0.38648641 0.28927347 -0.40950561 -0.76949096 -0.62425441 0.13487038 0.015857151
-0.24877681 0.29764101 -0.40397269 0.74602008 -0.66592294 -0.00086311263 0.0011382018
0.36934087 0.30977482 -0.40822554 -0.67904204 -0.7331897 0.036534801 0.0035591428
-0.22938503 0.31642514 -0.40815055 0.64440328 -0.76465958 -0.0063455114 0.00090688828
-0.21954837 0.32397309 -0.40169328 0.6087938 -0.79332846 -0.00010382162 2.3392382e-05
0.34726956 0.32671076 -0.40695828 -0.61718816 -0.78664458 0.016404653 0.0010224006
0.35368401 0.32178879 -0.40088665 -0.6086489 -0.79343975 7.475054e-05 0
-0.20527786 0.33492327 -0.40533665 0.60877436 -0.79334337 0.0001954116 2.8778437e-05
-0.19901052 0.33973235 -0.40768611 0.60869855 -0.7934016 1.7640936e-05 3.0000103e-05
0.33319589 0.33750984 -0.40485373 -0.6087836 -0.79333639 0.00010958241 5.560361e-05
0.34267497 0.33023632 -0.40683541 -0.6088509 -0.7932846 -0.00024671966 9.2208771e-05
-0.1944153 0.34325838 -0.40475756 0.60875869 -0.79335552 2.3917235e-05 8.3737832e-06
-0.18809134 0.34811091 -0.4060967 0.60875434 -0.7933588 -4.002955e-05 0
0.32164317 0.34637454 -0.40961057 -0.60858607 -0.79348117 0.0032846695 1.0071017e-05
-0.1702126 0.36182979 -0.40882188 0.5963642 -0.80255365 0.01604264 0.0011749165
0.29786861 0.36461747 -0.40976968 -0.57905012 -0.81283653 0.063227326 0.0066992054
-0.14722827 0.37794611 -0.40812179 0.46859404 -0.88333613 0.011699563 0.0024791439
0.28471637 0.37470949 -0.40019369 -0.50912678 -0.86058009 -0.013850958 0.0026284757
-0.13046108 0.3848913 -0.40669522 0.38552544 -0.92266613 0.0075790565 0.00022233576
-0.12081203 0.38888806 -0.40848336 0.38427621 -0.92321092 0.0036687877 0.00012812566
0.24980164 0.38984048 -0.40449336 -0.38270354 -0.92387116 -0.00024678762 4.9777384e-05
0.25872067 0.38614613 -0.40350112 -0.38681692 -0.92215645 2.2074921e-05 2.9567867e-05
0.2666969 0.38284224 -0.40478575 -0.41835338 -0.90819931 -0.012426916 0.00080791081
0.27319533 0.3801505 -0.4057647 -0.44041833 -0.89776534 -0.0070111006 0.0016191009
-0.096997581 0.39875233 -0.40943581 0.38618833 -0.91809958 0.08917205 0.016001493
0.22955348 0.39822757 -0.40790969 -0.39235175 -0.91838628 0.051250998 0.0052039097
0.23390909 0.39642343 -0.40794939 -0.38826585 -0.91983026 0.056230493 0.0054972884
0.24412437 0.39219213 -0.40535927 -0.38269001 -0.92387676 4.7208785e-05 0
-0.08613345 0.40325242 -0.40705574 0.38270429 -0.92387086 0.00018095021 0
-0.07017526 0.40986255 -0.4090445 0.35586962 -0.93141109 0.076355532 0.0081120292
0.22394818 0.40054935 -0.40003097 -0.38263431 -0.92389983 -1.2605469e-05 0
-0.066113338 0.41154501 -0.40693986 0.36333787 -0.93165541 -0.0019417867 0.00024281154
-0.053756729 0.41666329 -0.40893453 0.33331394 -0.93544436 0.11766767 0.018283593
-0.043428876 0.41999575 -0.40272504 0.23707274 -0.9714914 -0.00094679702 0.0024663219
0.18879573 0.41510999 -0.40248424 -0.31061196 -0.95052379 0.0049751746 0.0013350964
-0.031096291 0.42161936 -0.40479812 0.1446562 -0.98947781 0.0028820324 0.00044543354
-0.019316265 0.42317021 -0.40077263 0.13052218 -0.99144542 6.9644942e-05 0
-0.0044292645 0.42513016 -0.4021312 0.13052657 -0.99144489 3.2397253e-05 1.2951763e-05
0.0032681935 0.42614353 -0.40382108 0.13053052 -0.99144435 2.6441292e-05 1.9573381e-05
0.018115876 0.42809826 -0.40749782 0.13052924 -0.99144447 3.9691105e-05 5.3571817e-05
0.10214545 0.42955005 -0.40382642 -0.13054654 -0.99144208 0.00038967183 0
0.13866132 0.42474267 -0.40364793 -0.13048159 -0.99145073 0.00013237016 0
0.149958 0.42325544 -0.40978935 -0.15812904 -0.98447692 0.076160207 0.0067418786
0.15842976 0.42214009 -0.4029589 -0.13995792 -0.99015355 0.002776938 0.00011134234
0.16635211 0.4210971 -0.4050566 -0.18159378 -0.98326415 0.014675678 0.0013997413
0.036149729 0.43047246 -0.40294519 0.12890528 -0.99165624 0.0011471981 7.696313e-05
0.044754237 0.43160528 -0.40436316 0.1287109 -0.99168152 0.0011413841 1.6396787e-05
0.064415835 0.43397239 -0.40857995 0.039961413 -0.99795389 0.049912605 0.0053818929
0.076464385 0.43293107 -0.40743873 -0.070367716 -0.99752021 -0.0013614042 0.002029276
0.08592388 0.43168569 -0.40840164 -0.12080165 -0.99265599 0.0064049526 0.00015722871
0.094696283 0.43053079 -0.40839735 -0.1305832 -0.99143726 0.00040645248 0
0.034332372 -0.43023318 -0.39554965 0.1305476 0.99144208 0.00029286704 0
0.040134553 -0.4309971 -0.39309749 0.1260664 0.99202186 8.3570492e-05 0.00016060416
0.065262459 -0.43382883 -0.39538917 0.013552866 0.99990779 -0.00076605473 0.0023752183
0.075711884 -0.43303013 -0.3986204 -0.096411332 0.99532944 0.0049250065 0.00076785334
0.086278208 -0.43163905 -0.39185104 -0.12558377 0.99208301 0.00015934941 6.7939582e-05
-0.014912311 -0.42375004 -0.39806211 0.13051683 0.99144608 0.00011315248 0
0.0022368906 -0.42600778 -0.39541537 0.13053329 0.99144393 2.5664109e-05 3.4567602e-05
0.019822661 -0.42832297 -0.39266962 0.13055541 0.99144101 -0.00011153945 6.0949889e-05
0.1363128 -0.42505184 -0.39673433 -0.13049945 0.9914484 1.0259654e-05 7.067457e-05
0.1450908 -0.42389622 -0.39675978 -0.13052988 0.99144441 -0.00012077353 0.00010167972
0.16156565 -0.42172727 -0.391857 -0.16583516 0.98607481 0.012460732 0.00088265678
-0.065131336 -0.41195178 -0.39478284 0.37406346 0.92740202 0.001427216 0.00016247916
-0.057066184 -0.41529247 -0.39855167 0.33081734 0.94360173 0.013252407 0.0017169603
0.17770219 -0.41956657 -0.39379889 -0.26769871 0.96350121 -0.0016724751 0.0023978343
0.18882738 -0.41509685 -0.39146513 -0.34116781 0.93999916 0.002495392 0.001720323
-0.076356381 -0.4073022 -0.39304173 0.38271773 0.92386532 -6.7651548e-05 5.7691159e-05
0.21207058 -0.40546924 -0.39881128 -0.38275528 0.92384976 -0.00013137031 0
-0.10831811 -0.39406323 -0.39211977 0.38273025 0.92386013 2.5975618e-05 2.9624443e-05
-0.098571219 -0.3981005 -0.39501652 0.38269818 0.92387342 -3.8928861e-06 1.6513646e-05
-0.13452801 -0.38320673 -0.39745373 0.38933375 0.92108101 0.0053878417 3.2152259e-06
-0.12138145 -0.38865221 -0.39705592 0.38273519 0.92385805 2.0098703e-06 0.00011104833
0.25121447 -0.38925529 -0.39664674 -0.38268325 0.92387956 3.1194011e-06 0
0.26315796 -0.38430813 -0.39606491 -0.39705953 0.91779172 0.0014568444 0.00037514788
0.27259642 -0.3803986 -0.39500669 -0.434641 0.90055561 -0.0093191043 0.0013982378
-0.14747146 -0.37784538 -0.39744821 0.4697547 0.88274956 -0.0091463476 0.0026930056
0.27990526 -0.37737119 -0.39164859 -0.49705103 0.86764264 -0.011679786 0.0023261411
0.2876575 -0.37245271 -0.39732024 -0.55002517 0.83512759 -0.0058494811 0.0021047273
-0.16722199 -0.36412454 -0.39056706 0.5936234 0.80474246 0.00095172483 0.00026446892
0.29566836 -0.36630574 -0.39830083 -0.57576346 0.81761408 -0.0018879987 0.00073723146
0.30315745 -0.36055917 -0.39785045 -0.60369772 0.79721183 -0.0015428828 5.2306972e-05
0.30880451 -0.35622603 -0.3968783 -0.60888761 0.79325652 8.6543885e-05 0
0.32103249 -0.34684321 -0.39324251 -0.60898668 0.79318047 -3.6927708e-05 0
-0.20285608 -0.33678153 -0.39456186 0.60873622 0.79337281 5.5381573e-05 0
0.3345274 -0.33648816 -0.3952029 -0.60883802 0.79329449 -5.72432e-05 0
-0.21752946 -0.32552227 -0.39494541 0.60879415 0.79332823 2.327798e-05 0
0.34533617 -0.32819429 -0.39317882 -0.60885459 0.79328185 3.365265e-05 0
0.3550069 -0.32077366 -0.39394721 -0.62308025 0.78215557 -0.0019555471 0.00023590436
-0.23532091 -0.3118704 -0.39815897 0.64919794 0.76055098 0.010214278 0.00096532353
-0.22688988 -0.31833979 -0.39384997 0.61474508 0.78872579 -7.34981e-05 0.00010788279
0.36506212 -0.31305805 -0.3946214 -0.66629422 0.74564272 0.008301435 0.0017390975
-0.24435139 -0.30340835 -0.39071327 0.7297433 0.68372089 -0.00060597208 0.0022277024
-0.24941677 -0.29680699 -0.3940641 0.77573359 0.63104832 -0.0039283796 0.00055005698
0.38404676 -0.29245287 -0.39322463 -0.77915359 0.62682813 -0.0024735362 0.00072066061
0.38843536 -0.28673351 -0.39696363 -0.79315555 0.6090191 -0.00018582195 1.0469853e-05
-0.26621616 -0.27491361 -0.39231101 0.79329604 0.60883617 0.00010905771 0
0.39814064 -0.27408537 -0.39176947 -0.79332453 0.60879892 -0.00016593761 6.7548877e-05
-0.27117902 -0.26844588 -0.39530629 0.79323626 0.6089139 0.00021380668 0
0.40374839 -0.26677722 -0.39503449 -0.79324782 0.608899 9.583668e-05 0
0.41144449 -0.25674745 -0.39696601 -0.79337168 0.60873765 -1.7340482e-06 2.0881122e-05
-0.29154944 -0.24189867 -0.39341667 0.79328007 0.60885686 0.00015244501 0
-0.28758371 -0.24706689 -0.39623475 0.79335988 0.60875297 -1.2851335e-05 0
0.42313352 -0.24151403 -0.39336905 -0.79332477 0.60879868 9.6734708e-05 2.1440051e-06
-0.30063334 -0.23006031 -0.39498529 0.81573552 0.57842165 0.001995669 0.00094390835
-0.29611018 -0.23595494 -0.39957494 0.79914021 0.60113358 -0.003634512 0.00014465672
-0.30267808 -0.22739552 -0.39126128 0.82358271 0.56718159 0.0040770266 0.0013389996
0.43813467 -0.22196418 -0.39537859 -0.85351837 0.52080923 -0.016253861 0.0031753599
-0.31232929 -0.21280599 -0.39525336 0.8732177 0.48733014 -0.00033801518 0.0020849949
0.44091761 -0.21833734 -0.39432746 -0.8535524 0.52075875 -0.016081573 0.0030558354
-0.3147611 -0.20693499 -0.39914024 0.88955784 0.45680448 0.0040536569 0.0019435459
0.44660437 -0.20559688 -0.39518249 -0.9079541 0.41900235 -0.0074995649 0.00092107366
-0.31975651 -0.19487509 -0.39572898 0.92201084 0.38716322 0.00078025693 6.2049796e-05
0.45050606 -0.19617727 -0.39979357 -0.91799647 0.3965885 -8.0809987e-05 0.00025156362
0.45761323 -0.17901906 -0.39151913 -0.92387295 0.38269934 5.9411534e-05 6.1406252e-05
-0.3319791 -0.16536717 -0.39525497 0.9238748 0.38269481 -2.0740268e-05 2.5998813e-06
0.46641669 -0.15776569 -0.39207172 -0.9238649 0.38271868 -9.1467409e-05 5.6605222e-05
-0.34100378 -0.1435796 -0.39329708 0.9238646 0.3827194 0.00013783865 4.5186101e-05
-0.33889958 -0.14865968 -0.3916747 0.92386079 0.38272882 -2.0785521e-05 5.1984225e-05
0.47099978 -0.14670111 -0.39469534 -0.92386508 0.38271841 7.5095486e-05 0
-0.34292987 -0.13892967 -0.39880794 0.92387384 0.38269731 4.2144061e-06 9.336722e-05
-0.34823817 -0.12611428 -0.39845902 0.93592358 0.35218036 -0.0040124147 0.00064574712
0.48163584 -0.12102336 -0.39513141 -0.94823271 0.31756788 0.0023043177 0.0017730676
-0.35225019 -0.11642842 -0.39160851 0.95386314 0.30013761 -0.0079183606 0.002235349
-0.35529852 -0.10187829 -0.39212367 0.9849633 0.17270061 -0.004656761 0.0013303881
0.48667422 -0.10121933 -0.39097425 -0.98378801 0.1791935 -0.0071281623 0.00068778615
0.4874745 -0.095140614 -0.39313442 -0.98511153 0.17168969 -0.008815486 0.00083346746
0.48959428 -0.079039253 -0.39313209 -0.99144709 0.13050896 -0.00025208486 6.097872e-05
0.49012822 -0.074983492 -0.39546382 -0.99144262 0.13054307 5.9352042e-06 0
-0.3597762 -0.067866884 -0.3991304 0.99144572 0.13051996 -0.00010031141 1.1547514e-05
0.49309355 -0.052459698 -0.39932409 -0.99144435 0.13053001 6.9626782e-05 0
-0.36308765 -0.042713903 -0.39577466 0.99143958 0.13056599 -0.00016417903 0
0.4950791 -0.037377775 -0.39889747 -0.99144644 0.13051438 0.00010308129 0
-0.36526579 -0.026169475 -0.39680097 0.99143732 0.13058376 -0.00019688866 7.2113748e-05
0.49724841 -0.020900512 -0.39751363 -0.99374056 0.11171044 -0.00069074047 0.00028362082
-0.36682624 -0.014316572 -0.39702457 0.99542224 0.095354334 0.0064842971 0.00058144552
0.4976446 -0.017890995 -0.39211908 -0.9937396 0.11171847 -0.00068876584 0.0003304648
-0.3686718 -0.00029820899 -0.39686939 0.99984902 0.0010654393 0.017343208 0.0024670579
0.49941272 -0.004460807 -0.39956209 -0.99981761 0.015328179 0.011388163 0.0019290675
-0.36784843 0.0065521114 -0.39135331 0.99924231 -0.038899198 0.0012266714 0.0022081716
0.49974293 0.0019525893 -0.39523834 -0.99985045 -0.017129252 0.0023840044 0.0021701183
0.49788636 0.016054669 -0.39283544 -0.99659467 -0.082372099 0.0037341637 0.00074207457
-0.36568609 0.022976905 -0.39813873 0.99151862 -0.1299649 0.00014582815 7.1269213e-05
0.49721116 0.021183394 -0.39779502 -0.9942466 -0.10701368 0.0046633617 0.00045663552
-0.36393315 0.036291607 -0.39253005 0.99143708 -0.1305851 -0.00016122134 5.3275064e-05
-0.36110365 0.057783913 -0.39768738 0.99144542 -0.130522 -5.935536e-05 0
0.4927119 0.05535863 -0.39594817 -0.99144584 -0.13051848 -5.1849271e-05 6.1630133e-05
-0.3594546 0.070309594 -0.39668909 0.99144596 -0.13051765 1.2765459e-05 0
0.49034795 0.073314577 -0.39207625 -0.99144298 -0.13054046 9.6538628e-05 0
-0.35734111 0.086363241 -0.3910715 0.99144471 -0.13052708 -2.6872318e-05 0
0.48838472 0.088226996 -0.3968614 -0.99143785 -0.13057958 0.00019378576 6.5030272e-06
0.48644218 0.10298178 -0.39313042 -0.98048007 -0.1962768 0.011584574 0.0014270194
-0.35175917 0.11761381 -0.39715055 0.96000528 -0.27996626 0.0029636486 0.0016946187
-0.34894088 0.12441784 -0.39927879 0.93687737 -0.3496581 0.00032697862 0.0014805654
-0.33936191 0.14754346 -0.39231277 0.92388475 -0.38267076 -2.4430432e-05 0
0.47192556 0.14446604 -0.39557904 -0.92387801 -0.38268703 3.57885e-05 7.5800599e-05
0.46814674 0.15358904 -0.39398772 -0.92385709 -0.38273755 0.00010269188 5.5612345e-06
0.46454597 0.16228196 -0.39639717 -0.92386723 -0.38271308 -1.3453517e-05 2.3533034e-05
0.45878017 0.17620188 -0.39286071 -0.92383605 -0.38278851 -6.5401502e-05 0.00010898954
-0.32326421 0.18640678 -0.39851892 0.92391217 -0.38260448 -5.746902e-05 0
0.45497021 0.18539989 -0.3979325 -0.92387307 -0.38269913 1.9506191e-05 0.00011535193
-0.32059595 0.1928485 -0.39954025 0.92045534 -0.39084083 0.0023335468 7.9156933e-05
-0.31984827 0.19465356 -0.39874011 0.92049116 -0.39075851 0.0019263841 0.00011394556
0.44992107 0.19758958 -0.3933531 -0.92214239 -0.38684323 -0.0024137374 1.8666429e-05
0.45120934 0.19447953 -0.39668921 -0.92354488 -0.38349041 -4.9813574e-05 0
0.44728395 0.2039561 -0.39165369 -0.90570325 -0.42384294 -0.0076642875 0.00091143145
-0.30882224 0.21938829 -0.39485046 0.87809092 -0.47832662 0.012648289 0.0025657648
-0.30664074 0.22223127 -0.39176589 0.86016268 -0.51000094 -0.0043855938 0.0022667281
-0.29710054 0.23466432 -0.39880514 0.79672003 -0.60434341 -0.0025049406 9.8896955e-05
0.42556351 0.2383472 -0.39355141 -0.79466164 -0.60705221 0.00071946869 0
0.43130195 0.23086873 -0.39626265 -0.79690993 -0.604092 0.0027319493 8.1441678e-05
-0.28664064 0.24829593 -0.39557093 0.79333752 -0.60878193 4.3729356e-06 3.7001144e-05
-0.28074062 0.25598499 -0.39471847 0.79328239 -0.60885382 -0.00010203814 6.4204505e-05
-0.27832216 0.2591368 -0.39901316 0.79332006 -0.60880476 -5.1612744e-05 8.0729893e-05
0.41654995 0.25009394 -0.398357 -0.79335874 -0.60875434 -7.7592173e-05 0
0.40357143 0.26700786 -0.39299321 -0.79334652 -0.60877037 -6.5830121e-05 1.0567704e-05
-0.26800755 0.27257904 -0.3981697 0.79337251 -0.6087364 -9.0489892e-05 4.6271234e-05
0.39684013 0.27578023 -0.39601362 -0.79331708 -0.60880864 9.2444541e-05 0
-0.25486428 0.28970766 -0.39625609 0.79335403 -0.60876054 -3.1901698e-05 0
0.39337146 0.28030068 -0.39530909 -0.79331303 -0.60881394 -4.4444132e-05 3.723846e-05
-0.25360972 0.29134271 -0.3931804 0.78507221 -0.61939764 -0.0028783344 0.00020663219
0.38358867 0.29304984 -0.39190105 -0.77516448 -0.63175917 0.00062644575 0.00031941308
0.37652165 0.3022598 -0.39609313 -0.73964512 -0.67297637 -0.0052808113 0.0013804415
0.36763245 0.31108576 -0.39850584 -0.66013575 -0.75112486 -0.0056859194 0.001356938
-0.22250518 0.32170427 -0.39153755 0.60878402 -0.79333597 -0.00017859304 0
-0.21379295 0.32838941 -0.39083529 0.60876948 -0.79334724 1.2025675e-05 9.4954603e-06
0.35321337 0.32214987 -0.39550099 -0.60889608 -0.79325002 6.9122128e-05 0
-0.2106231 0.33082172 -0.39304143 0.60879934 -0.79332429 4.0593157e-05 0
-0.20375636 0.33609074 -0.39556572 0.60882729 -0.79330283 -5.3012263e-05 0
0.33330145 0.33742884 -0.39285046 -0.60879159 -0.79333019 -0.00016975321 7.3900483e-05
-0.19129793 0.34565043 -0.39456648 0.60876542 -0.79335022 -1.2987297e-05 2.5230589e-05
0.31822926 0.34899417 -0.39547619 -0.6088205 -0.79330802 5.7106299e-06 6.350499e-06
0.32191852 0.3461633 -0.39001572 -0.60873359 -0.79337466 9.5658666e-05 6.2441461e-05
0.30690923 0.35768032 -0.39570966 -0.60880089 -0.7933231 0.00017413819 0
0.29193237 0.36917248 -0.39674565 -0.53636527 -0.84376413 -0.019350624 0.0018533485
0.30252632 0.36104342 -0.39221618 -0.60886657 -0.79327255 0.00014553504 0
-0.15680408 0.3721185 -0.39371151 0.52870983 -0.84878212 -0.0059049414 0.0022264756
0.2882604 0.37199005 -0.39483321 -0.52749515 -0.84948736 -0.010960967 0.0019759003
0.29032359 0.37040696 -0.39845869 -0.52408403 -0.85139233 -0.021612765 0.0022900761
-0.1322491 0.38415068 -0.39936447 0.40076616 -0.91607255 -0.014060982 0.00037630874
-0.12259152 0.38815096 -0.39531672 0.38271913 -0.92386472 -2.4799987e-05 6.3665924e-05
0.24961264 0.38991877 -0.39226606 -0.38262856 -0.92390227 -0.00017305712 3.6932739e-05
0.25875005 0.38613391 -0.39024284 -0.3826772 -0.92388213 -0.00012123878 0.00013268333
0.26445824 0.38376951 -0.39278847 -0.40742782 -0.91323066 0.003503317 0.00050768221
-0.11333299 0.39198601 -0.39606684 0.38273895 -0.92385662 0.00010908327 0
-0.10440726 0.39568317 -0.39602524 0.38276568 -0.92384547 -3.4777346e-05 4.6251014e-05
0.23846215 0.39453748 -0.39393884 -0.38264677 -0.9238947 3.098412e-06 3.9898991e-05
0.21992409 0.4022162 -0.39399284 -0.38274184 -0.92385525 -0.00023306313 0.0001319299
-0.060244136 0.41397613 -0.39072448 0.36293983 -0.931804 0.0039855065 0.00015772189
-0.044200517 0.41989416 -0.39763337 0.23828749 -0.97119415 0.00099466485 0.0026119403
0.18214971 0.41786286 -0.39986801 -0.27282575 -0.96204233 0.0063697817 0.0022878535
0.19274889 0.41347253 -0.39882284 -0.35188204 -0.93603927 0.003060003 0.00095089519
-0.041553821 0.42024258 -0.39644793 0.22646347 -0.97396559 0.010262086 0.0023432169
-0.016952466 0.42348143 -0.39524397 0.1305154 -0.99144632 0.00013662239 0
0.007030338 0.42663884 -0.39529151 0.13055882 -0.99144053 -0.00013222703 8.6627326e-05
0.023518236 0.42880949 -0.39555871 0.1305037 -0.99144781 7.6710407e-05 0
0.12520505 0.42651421 -0.39915904 -0.13052474 -0.99144512 -4.6533245e-05 0
0.14834298 0.42346808 -0.3927156 -0.13049603 -0.99144882 5.4479657e-05 0
0.15883498 0.42208678 -0.39778116 -0.1477091 -0.98900378 0.0073139365 0.00016658337
0.16366801 0.42145047 -0.39345017 -0.17569672 -0.98429787 0.016981419 0.0010946778
0.17199704 0.42035395 -0.39273688 -0.20233403 -0.97904682 0.022985168 0.0014042755
0.035932019 0.43044382 -0.39251631 0.13054597 -0.9914422 -0.00037207644 9.1407739e-05
0.047683757 0.43199095 -0.39916036 0.097736843 -0.99517035 0.0091367001 0.00099761307
0.054050311 0.43282911 -0.39466241 0.075851992 -0.99711353 0.0033277571 0.001290048
0.062468417 0.4339374 -0.39364138 0.04012572 -0.99917537 0.006211869 0.002128415
0.073493175 0.43332222 -0.39520952 -0.057396051 -0.99834615 0.0032644991 0.0019667258
0.094219141 0.43059361 -0.39473981 -0.13053858 -0.99144328 0.00017173811 2.0874095e-06
0.033545136 -0.43012956 -0.38549918 0.13056602 0.99143964 -0.00010902487 0
0.040967193 -0.43110672 -0.38098437 0.1191263 0.99287713 0.0019876549 7.0149326e-05
0.069668107 -0.43382579 -0.38027114 -0.021719292 0.99972636 -0.0086831981 0.0030779953
0.077767603 -0.43275949 -0.38394538 -0.09047851 0.99587816 -0.0063537834 0.0010418139
0.086625598 -0.4315933 -0.38528749 -0.12560759 0.99207979 0.00054129399 1.4225553e-05
0.098172076 -0.4300732 -0.38257837 -0.1304927 0.9914493 -3.8492435e-05 0
-0.036956523 -0.42084786 -0.38544112 0.1815293 0.98337048 0.00543648 0.0013545246
-0.012439924 -0.42407551 -0.38154772 0.1305379 0.99144334 7.387506e-05 4.15385e-05
-0.005458395 -0.42499465 -0.38589999 0.13054405 0.99144244 -0.00025317655 0.00011913427
0.0074619157 -0.42669564 -0.38352007 0.13053532 0.99144369 -2.0833259e-05 2.9811988e-05
0.02636236 -0.42918393 -0.38544637 0.13055405 0.99144119 -0.00013253119 2.4388801e-06
0.12599251 -0.42641053 -0.38490331 -0.1305203 0.99144566 -9.0271496e-05 7.1982446e-05
0.14558627 -0.42383099 -0.38713321 -0.13052942 0.99144453 9.2875045e-05 2.5161138e-05
0.15923256 -0.42203441 -0.38566673 -0.1497656 0.98871434 0.0037660685 0.00046079268
0.16928035 -0.42071164 -0.38566351 -0.18957402 0.98185027 0.0056347554 0.0012089568
-0.052516613 -0.41717693 -0.38803989 0.29835874 0.95445216 0.0017756537 0.0022668648
0.18571578 -0.41638574 -0.38444191 -0.29558748 0.95530593 -0.0043027629 0.0027460034
-0.081332676 -0.40524098 -0.38301748 0.38274339 0.92385471 -2.8270114e-07 0.00011908951
-0.074060515 -0.40825319 -0.3892709 0.3826848 0.92387891 -5.750489e-06 0
0.21463773 -0.40440586 -0.38342255 -0.38267198 0.92388427 3.9101022e-05 6.029279e-05
-0.11072806 -0.39306501 -0.38709301 0.38276032 0.92384768 -7.9430596e-05 4.9186576e-05
-0.10325933 -0.39615867 -0.38648275 0.38270879 0.92386901 4.4787394e-05 0
0.23002207 -0.39803344 -0.38353622 -0.38277155 0.92384303 -5.2516716e-05 0
0.24788925 -0.39063263 -0.38413686 -0.38271254 0.92386752 3.8854043e-05 3.9242784e-07
-0.13533539 -0.38287231 -0.38292247 0.39633971 0.91809708 -0.0035554562 0.00051180838
-0.12351611 -0.387768 -0.38744867 0.38271281 0.92386734 -9.8090204e-05 6.930661e-05
-0.11971226 -0.38934359 -0.38575125 0.38270602 0.92387021 -3.3267355e-05 0
0.25494507 -0.38771001 -0.38117081 -0.38271484 0.92386645 0.00016952799 0
0.26528877 -0.38342553 -0.38040686 -0.40464112 0.91446048 -0.0052593434 0.00057068001
-0.14867499 -0.37734681 -0.38060367 0.48686051 0.87344408 -0.0078886254 0.0022521948
0.27936816 -0.37759364 -0.3889114 -0.48218831 0.87597799 -0.01252901 0.001671131
0.2808153 -0.37699422 -0.38710973 -0.49065682 0.87126684 -0.012245065 0.0020514792
-0.16507727 -0.36577022 -0.38921595 0.59235364 0.80567783 -0.00057613093 0.00020400599
-0.18201986 -0.35276973 -0.38670436 0.60878199 0.79333758 -2.4469424e-05 0
-0.17525956 -0.35795707 -0.38046351 0.60882485 0.79330468 1.7039229e-05 0
0.30509156 -0.35907507 -0.38602343 -0.60878736 0.79333341 -3.0258117e-05 0
0.31690502 -0.35001028 -0.38201642 -0.60883361 0.79329789 0.0001002428 0
-0.19765517 -0.34077233 -0.38253045 0.60880172 0.79332238 -3.5423716e-05 2.9952658e-05
-0.18593988 -0.34976178 -0.38683322 0.60877657 0.7933417 5.4030657e-05 2.9388426e-05
0.3226952 -0.34556729 -0.38991138 -0.60879433 0.79332811 8.1591327e-07 0
-0.20552692 -0.33473212 -0.38454038 0.60873592 0.79337293 -5.1650436e-06 0
-0.21378905 -0.32839239 -0.38102654 0.60889739 0.79324895 0.00013949936 0
-0.22659786 -0.31856382 -0.38262227 0.61444461 0.78895593 0.002525961 0.00020040883
0.35824895 -0.31828591 -0.38519886 -0.63746297 0.77046943 0.0042203059 0.00036804419
0.36615402 -0.31222016 -0.3848097 -0.66939044 0.74290532 -0.0028371769 0.0015885264
-0.23801526 -0.30980298 -0.38997814 0.66519809 0.74662507 0.0079062562 0.0013772649
0.37587655 -0.3029606 -0.38600233 -0.72445852 0.68931353 -0.0025992484 0.00198084
0.37924936 -0.29870498 -0.38391018 -0.73580414 0.67719305 -0.0013448069 0.0016762415
-0.2612581 -0.28137508 -0.38660038 0.79334968 0.60876626 1.5092593e-05 3.4061773e-05
-0.25853127 -0.2849288 -0.38629064 0.79268092 0.60963666 -0.00019922359 6.9502303e-06
0.38803834 -0.28725094 -0.38192868 -0.79283875 0.60943151 -0.00015521971 0
-0.26407284 -0.2777068 -0.38871697 0.79330528 0.60882401 0.00016898666 0
0.40058529 -0.27089942 -0.38703027 -0.79330528 0.60882407 -0.00011682328 4.4122589e-05
-0.27528405 -0.26309609 -0.38477024 0.79332894 0.60879332 5.342107e-05 1.608391e-06
0.40626776 -0.26349393 -0.38679028 -0.79336828 0.608742 -0.00014350421 9.5109244e-06
-0.28208005 -0.25423944 -0.38428086 0.79335845 0.60875469 -0.00013629295 3.6736838e-05
-0.29039487 -0.24340329 -0.38225642 0.7933535 0.60876113 3.2904856e-05 3.1570555e-05
-0.28943771 -0.24465072 -0.3885369 0.79336661 0.60874414 -3.1951349e-05 3.5451929e-05
-0.29412702 -0.23853947 -0.38321295 0.79331231 0.60881484 6.5007524e-05 0
0.42665967 -0.23691864 -0.38386983 -0.79333258 0.60878843 4.0331335e-05 1.0168131e-05
0.43078658 -0.23154035 -0.38553548 -0.80743265 0.58980644 -0.013447108 0.00053229014
-0.30193478 -0.2283642 -0.38438597 0.81854039 0.57443839 0.0034811958 0.001147851
0.43397418 -0.22738622 -0.38211316 -0.82115483 0.57056832 -0.012507956 0.0010822319
-0.311777 -0.21393102 -0.38195473 0.87567949 0.4828043 0.0092371739 0.0017048529
0.4406206 -0.21872443 -0.38984144 -0.85359699 0.52069807 -0.015676344 0.0026760795
-0.31628522 -0.20325553 -0.38083345 0.90196466 0.43177351 -0.0056004659 0.0013878167
0.44945639 -0.19871147 -0.38382855 -0.91581821 0.4015927 -0.00031550269 0.00031243847
0.45565242 -0.18375292 -0.38332471 -0.92387062 0.38270485 0.00012979965 2.6002399e-05
0.46346855 -0.16488308 -0.3859736 -0.9238714 0.38270316 -3.0851534e-05 0
-0.33764413 -0.15169054 -0.38395625 0.9238764 0.38269097 8.7636115e-05 0
0.46781296 -0.15439478 -0.38278466 -0.92389208 0.38265321 -4.3075532e-05 0
-0.34086022 -0.14392626 -0.38009554 0.92387331 0.38269833 0.00026594015 0
-0.33919337 -0.14795038 -0.38715184 0.92384845 0.38275832 0.00014770657 0
0.47238952 -0.14334601 -0.38878706 -0.92387617 0.38269132 0.000105242 3.4206867e-05
-0.34476399 -0.1345017 -0.38542098 0.92824876 0.37193757 0.0040813447 0.00029631241
0.47786957 -0.13011602 -0.38075402 -0.93179256 0.36297581 -0.0033308801 0.00051505939
-0.34664831 -0.12995255 -0.38028809 0.92796546 0.37262478 0.005543693 0.00024047926
0.480791 -0.12306297 -0.38475895 -0.94657344 0.32228944 0.011326442 0.0014091306
-0.35370028 -0.11210287 -0.38562813 0.96480894 0.26293105 -0.0033240302 0.0022582428
-0.35462555 -0.10698989 -0.38816109 0.97188824 0.23473951 -0.01818285 0.0021492697
-0.3565824 -0.092126198 -0.38446188 0.99020576 0.13959417 0.0024585496 0.00010595706
0.4880513 -0.090759531 -0.38492298 -0.98962891 0.14359961 -0.0037156816 0.00011712925
-0.35774288 -0.083311647 -0.38102546 0.99125355 0.13197118 0.00023213938 6.9057483e-06
-0.35852826 -0.077346176 -0.38153085 0.99144441 0.13052966 7.6677446e-05 0
0.48970896 -0.078168005 -0.38212919 -0.99145132 0.13047719 -4.3984259e-05 6.8267072e-06
0.49067593 -0.070823528 -0.38664031 -0.9914487 0.13049671 -1.6769529e-05 0
0.4952507 -0.036074489 -0.38952148 -0.9914431 0.1305391 -0.00012686588 9.7937089e-05
-0.36502209 -0.028020546 -0.38562852 0.99144155 0.13055122 -8.3119732e-05 7.3521478e-05
0.49710125 -0.022018161 -0.38927144 -0.99198514 0.12635113 -0.00089089188 0
-0.36636037 -0.017855434 -0.38135454 0.99448943 0.10464732 -0.0062970384 0.00037709373
0.49793485 -0.015686234 -0.38932672 -0.99591088 0.089883678 -0.009080885 0.0010120296
-0.36768338 -0.0078059644 -0.38917249 0.99900573 0.043005843 0.011755502 0.0019612638
0.49950171 -0.0037847732 -0.38443571 -0.99997985 -0.0052953027 -0.0034910748 0.0022129347
-0.367957 0.0057277046 -0.38084513 0.9988786 -0.046991754 0.0057647615 0.0021910861
0.49828833 0.013001256 -0.3876496 -0.9982757 -0.058606863 -0.0033073348 0.0012335262
-0.3660239 0.020411052 -0.38243869 0.99399334 -0.10943328 0.0012079407 0.00027722001
0.49690622 0.023499465 -0.38490143 -0.99238312 -0.12318947 0.00025136879 5.3441734e-05
-0.36468583 0.030574661 -0.38587108 0.99144208 -0.13054746 -6.9180503e-05 4.5184941e-05
0.49355295 0.048970196 -0.38000807 -0.99144715 -0.13050863 0.00015232165 5.5717624e-06
0.48861393 0.086485624 -0.38598883 -0.99144083 -0.13055675 -5.9186627e-06 6.0162107e-05
-0.35631138 0.094184853 -0.38951254 0.98578274 -0.16784585 0.0077567608 0.0004964887
0.48562896 0.10915875 -0.38066643 -0.96855098 -0.24846378 0.013219239 0.0023902711
0.48355627 0.11638701 -0.38142848 -0.94675916 -0.32190734 -0.0047736564 0.0010997668
-0.35021251 0.12134785 -0.38840809 0.94507992 -0.32650197 -0.014843539 0.0017479012
0.47877133 0.12793893 -0.3815448 -0.93129915 -0.36413607 0.0093135778 0.00045060294
-0.34633818 0.13070129 -0.38271385 0.92730892 -0.3742657 -0.0048359637 0.00022890746
0.47623894 0.13405269 -0.38289231 -0.92608804 -0.37730619 0.0010176988 0.0001459856
-0.34053874 0.14470239 -0.38154912 0.9238658 -0.38271669 6.4213702e-05 0
-0.33902928 0.14834651 -0.38786283 0.92388552 -0.38266888 -1.2121429e-05 0
-0.33686751 0.15356556 -0.38984185 0.92387736 -0.38268867 1.4705104e-05 0
-0.33255741 0.16397099 -0.38786361 0.92387664 -0.38269037 1.3927496e-05 6.1717641e-05
0.46236649 0.16754369 -0.38853288 -0.92388701 -0.38266549 -9.259356e-05 2.2310121e-05
0.45843571 0.17703342 -0.3845371 -0.92385525 -0.38274211 -0.00029488906 0.00013435741
0.46023816 0.1726819 -0.38948289 -0.92393345 -0.38255319 3.462701e-05 2.1480717e-05
-0.32431614 0.18386714 -0.38928831 0.92389166 -0.38265425 -4.398825e-05 4.1612155e-05
-0.31890744 0.19692492 -0.38323677 0.91401505 -0.40564463 0.0053786547 0.00034771833
0.44957018 0.19843675 -0.38827488 -0.91692555 -0.39905274 -0.0020976774 0.00050822052
0.4529492 0.19027908 -0.38086796 -0.92386025 -0.38272998 -3.0033391e-06 5.0514285e-05
-0.31623876 0.20336771 -0.38272661 0.91166419 -0.41088486 0.0064789485 0.00049970625
0.44735375 0.20378764 -0.389698 -0.90568864 -0.42387703 -0.0075079063 0.00098013645
-0.31230852 0.21285613 -0.38593259 0.8875013 -0.46079713 0.0027406812 0.0022101505
-0.30565819 0.22351176 -0.38779575 0.84191322 -0.53952336 -0.0098363608 0.0021357071
0.43662536 0.22393107 -0.38464612 -0.84485751 -0.5349012 0.0098185362 0.0017340924
0.43121383 0.23098354 -0.38159141 -0.79917794 -0.60109353 -0.0010643138 6.7144785e-05
0.42323846 0.24137728 -0.38923255 -0.79332346 -0.60880035 5.7938854e-05 4.7460024e-05
-0.28224385 0.25402594 -0.38304543 0.79337263 -0.60873634 1.9408426e-05 2.2653456e-05
0.41429678 0.2530303 -0.38745913 -0.79336858 -0.60874152 -8.7472174e-05 0
0.40249646 0.26840875 -0.38367066 -0.7933647 -0.60874659 -0.00019847843 3.4391614e-05
0.38894999 0.28606281 -0.38272581 -0.79028779 -0.61273509 0.00095107354 0
-0.25421244 0.29055718 -0.38827929 0.78595352 -0.61828399 -0.0013883682 0.00013858186
-0.24871987 0.29771519 -0.38461721 0.76134932 -0.64833689 -0.0025568202 0.0010123942
0.37056601 0.3088347 -0.38464215 -0.69341511 -0.72053635 0.0016664448 0.0022940577
-0.23195621 0.31445223 -0.38367343 0.64159018 -0.76704311 0.0026180712 0.00093489757
-0.22566877 0.31927675 -0.38529301 0.60879946 -0.79332417 1.6409182e-05 5.7627778e-05
0.35893488 0.31775963 -0.3846963 -0.63736922 -0.77055609 -0.0019557388 0.00062195247
0.36669165 0.31180763 -0.38398498 -0.67004937 -0.74230975 -0.0031806442 0.0017989468
-0.22331271 0.32108465 -0.38842559 0.60870409 -0.79339737 -0.00013089225 5.2171225e-05
-0.21635358 0.32642454 -0.38435152 0.60879058 -0.79333097 1.0474769e-06 0
0.34655747 0.32725716 -0.38533658 -0.60872245 -0.79338324 -2.4291217e-05 9.4022565e-05
0.35136953 0.32356474 -0.3883979 -0.60868961 -0.79340851 -6.117241e-05 2.2934298e-06
-0.20994899 0.33133897 -0.38138294 0.60872281 -0.793383 0.00013709298 0
-0.19671035 0.3414973 -0.38292986 0.60876673 -0.79334927 -2.8347422e-05 5.6271685e-05
-0.18572907 0.34992352 -0.38813034 0.60878867 -0.79333246 8.702239e-06 1.8897535e-06
0.31716192 0.34981313 -0.38573152 -0.6088106 -0.79331553 6.2941937e-05 0.0001279811
0.32093447 0.3469184 -0.38091829 -0.60885102 -0.7932846 0.00013853359 0
-0.17200363 0.36045548 -0.38039756 0.60872656 -0.79338014 -3.1244705e-05 5.0394676e-05
0.29380187 0.36773795 -0.38047174 -0.58414072 -0.81158006 -0.010839641 0.00074003387
0.30346346 0.36032432 -0.38127646 -0.60901135 -0.79316145 0.00013962582 0
-0.13454992 0.38319767 -0.38891381 0.40013912 -0.91643935 0.0052525504 0.0003349015
0.26690617 0.38275558 -0.38821971 -0.42459071 -0.9053852 -0.00065959193 0.00065126544
-0.11325689 0.39201751 -0.38502431 0.38279483 -0.92383331 -6.2132051e-05 2.2951381e-05
-0.10717883 0.39453512 -0.38360327 0.38276321 -0.92384654 -7.6801016e-06 3.7992293e-05
-0.096667789 0.39888898 -0.38188732 0.38270232 -0.9238717 -5.3077219e-05 0
0.23232698 0.39707875 -0.38973451 -0.38266113 -0.9238888 9.6359392e-05 0
0.24919669 0.39009106 -0.38698137 -0.38273236 -0.9238593 -2.4384051e-05 8.8184475e-05
-0.082003593 0.40496308 -0.3862361 0.38270122 -0.92387211 -0.00013033015 4.2390227e-05
0.20497912 0.40840662 -0.38651669 -0.38271555 -0.92386621 -0.00010290073 0
0.21407123 0.4046405 -0.3857924 -0.38262832 -0.92390233 0.00021715455 0
-0.06764327 0.41091129 -0.38343209 0.37675995 -0.92630976 0.001504903 0.00012902707
-0.057739347 0.41501361 -0.38668811 0.34226987 -0.93959332 -0.0039594211 0.00092935743
0.17644972 0.41974872 -0.3822822 -0.24029957 -0.97065377 0.009346934 0.0019602014
0.1816795 0.41805762 -0.38306889 -0.27208695 -0.96221268 0.010742521 0.0021526418
-0.02448241 0.42249006 -0.38827509 0.13541561 -0.99078578 -0.0024894539 2.9050208e-05
-0.010338951 0.42435211 -0.38136899 0.13052413 -0.99144506 5.8885154e-05 0
0.02489008 0.42899013 -0.38460106 0.13055508 -0.99144101 -0.00023363004 0.00012568646
0.10457586 0.42923009 -0.38701046 -0.13053174 -0.99144411 2.1747883e-05 0
0.11898815 0.4273327 -0.38641784 -0.13052809 -0.99144459 -0.00011517014 1.9824301e-05
0.12265649 0.42684972 -0.38589901 -0.13050492 -0.99144763 -0.0001167271 2.6490956e-05
0.13081858 0.4257752 -0.38043475 -0.13053246 -0.99144405 1.6252732e-05 6.8915375e-05
0.14125839 0.42440075 -0.38897407 -0.1304971 -0.9914487 0.00011292716 0
0.15184402 0.42300716 -0.38644326 -0.13064699 -0.99142891 2.1487227e-05 7.9048667e-05
0.16112407 0.42178538 -0.38635492 -0.15544169 -0.98784441 -0.0011587664 0.00055206293
0.035837397 0.43043137 -0.38449511 0.13052475 -0.99144506 -0.00014855409 0
0.044394135 0.43155789 -0.3861317 0.12158403 -0.99258107 0.00042778783 0.00014993186
0.054610036 0.43290278 -0.38045514 0.090482712 -0.99589616 0.0018862084 0.00084962032
0.070320234 0.43373996 -0.38838267 -0.029581599 -0.99956179 0.0011006704 0.0023384274
0.095607579 0.4304108 -0.383973 -0.13056083 -0.9914403 0.00015210129 0
0.03547138 -0.43038318 -0.37546405 0.13061462 0.9914332 -0.00021952964 4.3565469e-05
0.044752482 -0.43160501 -0.37327552 0.11840964 0.99294585 0.0061298809 9.0082758e-05
0.052131411 -0.43257648 -0.37813938 0.097964406 0.99509794 0.013527378 0.00071562262
0.068017401 -0.43404314 -0.37795442 -0.0021590246 0.99997836 0.0062155211 0.0028263831
-0.037149176 -0.4208225 -0.37420145 0.19632757 0.98053581 -0.0022159894 0.0017155213
-0.026026411 -0.42228681 -0.37983969 0.14490928 0.98941123 0.0081675928 0.00024320839
-0.01619133 -0.42358163 -0.37989858 0.13052769 0.99144471 0.00015719546 3.6135502e-06
0.0035956493 -0.42618662 -0.37122968 0.13052945 0.99144447 5.9778773e-05 0
0.021901213 -0.42859662 -0.37294185 0.13051006 0.99144691 -0.00019843693 6.3770283e-05
0.032327596 -0.42996928 -0.37516594 0.13052027 0.99144566 9.7642376e-05 2.1669593e-05
0.10090782 -0.42971301 -0.37722346 -0.1304924 0.9914493 -0.00014952164 1.9713583e-05
0.11576682 -0.42775679 -0.37129855 -0.1305593 0.99144047 -0.00026775952 0.00011226942
0.12849939 -0.42608052 -0.37718621 -0.1305256 0.99144489 -3.7419777e-05 3.3799912e-05
0.14125313 -0.42440146 -0.37252116 -0.13055533 0.99144107 6.7364708e-05 0
-0.045830745 -0.4196713 -0.37318912 0.25697312 0.96637893 0.0087526562 0.0015767557
0.187939 -0.41546482 -0.37691587 -0.34152126 0.93960989 -0.022283744 0.0015146883
0.19806452 -0.41127074 -0.37536719 -0.38136607 0.92442381 0.0007647507 0
0.20105505 -0.41003197 -0.37962759 -0.38134566 0.92443258 0.00020816697 0
-0.083779901 -0.40422729 -0.37605572 0.38273951 0.92385632 6.5685352e-05 0.00010821454
-0.079106361 -0.40616316 -0.37575409 0.38275132 0.92385143 -8.657491e-05 0.00012535931
0.21316838 -0.40501449 -0.37957528 -0.38269317 0.92387557 -9.3911749e-06 0.0001333994
0.22211453 -0.40130889 -0.37737918 -0.38275245 0.92385089 -7.3675663e-05 3.9847837e-05
-0.097579099 -0.3985115 -0.37448749 0.38266587 0.92388684 -0.00018910327 2.2477012e-05
0.24401887 -0.39223576 -0.37877712 -0.38277084 0.92384332 0.00010485345 0
-0.13897225 -0.38136584 -0.37127432 0.41324133 0.91062152 -0.00019240587 0.00081846147
-0.11855466 -0.38982308 -0.37180838 0.38270977 0.9238686 -1.2505266e-05 0
0.26551414 -0.38333216 -0.37251592 -0.40440589 0.91457838 -0.0015228791 0.00071092119
-0.15819225 -0.37105331 -0.37408137 0.55123085 0.83433944 0.0047303182 0.0015947776
0.29045793 -0.37030381 -0.37771779 -0.54236948 0.83985472 -0.021893596 0.0015896719
-0.16835213 -0.36325735 -0.37050122 0.60125566 0.79905504 0.0016225886 2.3049648e-05
0.29601836 -0.36603719 -0.37536061 -0.59864205 0.80101246 0.0025728608 0.00012520257
0.30146199 -0.36186007 -0.37881869 -0.60153055 0.79884309 0.003285866 2.8374909e-05
-0.17577617 -0.35756069 -0.37621838 0.60883194 0.79329926 8.3704552e-05 0
0.30640152 -0.3580699 -0.37645006 -0.60877097 0.79334599 -8.2932667e-05 1.3077687e-05
0.31318295 -0.35286635 -0.37447932 -0.60863036 0.79345387 -0.00023181953 7.2004143e-05
-0.19483341 -0.34293756 -0.37182912 0.60876268 0.79335237 -1.3297621e-05 1.051317e-05
0.32185185 -0.34621444 -0.37451056 -0.60878581 0.7933346 5.4270567e-05 0
-0.2150764 -0.32740456 -0.37842244 0.60885966 0.79327798 6.2121777e-05 0
0.34461766 -0.3287456 -0.37000012 -0.60874718 0.79336423 8.1858787e-05 0
-0.23159595 -0.31472868 -0.37672836 0.64529473 0.76391715 -0.0050223074 0.0015906377
-0.22725293 -0.31806117 -0.37366214 0.61569375 0.78798079 0.0027240613 7.7359633e-05
0.36233002 -0.31515443 -0.37170866 -0.65177816 0.75825047 -0.015540038 0.00073943631
-0.24106106 -0.30746585 -0.37750545 0.7074365 0.70677191 0.0026702867 0.0022800763
-0.23929344 -0.30882218 -0.3751218 0.68903363 0.72472191 -0.003304217 0.0015756944
0.37364832 -0.30600441 -0.3724786 -0.71564615 0.69844896 0.0044284821 0.0022974573
-0.25101718 -0.29472134 -0.37568173 0.7759549 0.63073194 0.0084434953 0.00063768821
0.37994814 -0.29779428 -0.37418458 -0.75225145 0.65887231 0.0022288936 0.0013344181
-0.26121879 -0.28142634 -0.37856966 0.79327822 0.60885918 5.0451898e-05 0
0.39140993 -0.28285694 -0.37266237 -0.79272324 0.60958177 8.8629873e-05 3.6737904e-06
-0.26658732 -0.27442989 -0.3766385 0.79335076 0.60876483 -7.9784077e-06 0
0.39906925 -0.27287516 -0.37969995 -0.79329479 0.60883766 -3.9035443e-05 0
-0.27611393 -0.26201463 -0.37376148 0.79331177 0.60881555 0.00010984898 0
-0.28441787 -0.25119269 -0.37239459 0.79336488 0.60874641 2.2754255e-05 5.5256565e-05
-0.27930731 -0.25785288 -0.37520722 0.79332256 0.6088016 6.9410678e-05 0
0.41178519 -0.25630346 -0.37760743 -0.79338163 0.60872453 6.3410873e-05 3.3755721e-06
0.4184525 -0.24761443 -0.37035471 -0.79331136 0.60881609 -1.0423321e-05 0
-0.30762249 -0.22095183 -0.37550083 0.84509146 0.53455192 0.0086432295 0.0021536346
0.43936151 -0.22036529 -0.37298137 -0.86056596 0.50932515 -0.0037543965 0.0023822761
-0.31299943 -0.21118806 -0.37059861 0.89729977 0.44122189 0.013280519 0.0013760163
0.44511706 -0.20918748 -0.37333566 -0.89035928 0.45467257 -0.023091763 0.0017565207
-0.31927252 -0.19604361 -0.37264198 0.91890407 0.39445361 -0.0046489192 8.9829737e-05
0.45284712 -0.19052547 -0.37955898 -0.92388147 0.38267878 -6.5176864e-05 5.3454428e-06
-0.32566494 -0.18061094 -0.37763342 0.9238351 0.38279077 -3.3393396e-06 0
-0.33106592 -0.16757171 -0.37414101 0.92387307 0.38269907 3.4165669e-06 0
-0.33759937 -0.15179861 -0.3764264 0.92387533 0.3826935 -1.2903232e-05 2.0876203e-05
0.47236449 -0.14340642 -0.37128901 -0.92387521 0.38269377 2.4400042e-06 0
-0.34437194 -0.13544819 -0.37787902 0.92479265 0.3804709 0.00075771846 9.5154785e-05
-0.34943539 -0.12322401 -0.37081942 0.94628906 0.32328722 0.0047242353 0.0016615035
0.48126116 -0.12192793 -0.37746224 -0.94096053 0.33851585 -0.00054689037 0.00088716968
0.48327658 -0.11706233 -0.37398136 -0.9600721 0.27968329 0.0062392242 0.0020103399
0.48639116 -0.10336946 -0.37059024 -0.97679281 0.21207574 0.029995404 0.0012495655
-0.35633063 -0.094038464 -0.37439534 0.98855942 0.15081336 -0.0023801345 0.00048321908
0.4890328 -0.083304293 -0.37900311 -0.99143863 0.13057356 2.5796715e-05 0
-0.36035952 -0.063436173 -0.37269562 0.9914403 0.13056087 -3.9767023e-05 0
0.49100146 -0.06835074 -0.3774884 -0.99144602 0.1305172 5.2355921e-05 0
-0.3619338 -0.051478375 -0.37744766 0.99144852 0.13049826 -6.1930841e-05 3.8990915e-05
0.49298865 -0.053256564 -0.37230781 -0.99144334 0.1305375 -4.1920604e-05 0
0.49520493 -0.036422256 -0.37417459 -0.99144542 0.13052218 -1.1512483e-05 0
-0.36644891 -0.017182719 -0.37549841 0.99645418 0.084132783 -0.00084409874 0.0012082482
0.49868265 -0.010006195 -0.37832928 -0.99695933 0.077807583 0.0042525809 0.0013376191
-0.36824769 -0.0035198429 -0.37636963 0.99999428 0.0010939669 0.0032006621 0.002568909
-0.36808786 0.0047339401 -0.37607932 0.99887633 -0.046734713 0.0078718606 0.0019387889
-0.36708292 0.012366864 -0.37928447 0.99720955 -0.074643254 0.0012511235 0.001448825
-0.3657214 0.022708438 -0.37328568 0.99214202 -0.12511605 0.00036595162 0.00013266075
0.49670988 0.024991112 -0.37925428 -0.99232203 -0.12368027 -0.00016448791 0.00011268197
-0.36430761 0.033447549 -0.37815869 0.9914428 -0.13054173 -6.0126484e-05 5.9255661e-05
-0.35999298 0.066220172 -0.37124205 0.99144244 -0.13054456 -0.00012438942 6.3864965e-05
0.49115241 0.067204103 -0.37275887 -0.9914428 -0.13054188 -0.00017619393 3.0247318e-05
-0.35878354 0.075407147 -0.37493998 0.99144417 -0.13053158 -4.0636216e-05 2.0056499e-05
0.48976302 0.077757634 -0.37268335 -0.99143767 -0.13058081 5.9482722e-05 9.4864777e-07
-0.35710081 0.088188469 -0.37260678 0.9906652 -0.13631564 -0.00069126463 0.00011019748
0.48894578 0.083965085 -0.37790886 -0.99144322 -0.13053827 -7.3295043e-05 5.4242635e-05
-0.35624012 0.094726138 -0.37831175 0.98751897 -0.15720162 0.0096928049 0.00058097934
-0.35463011 0.10695543 -0.37414408 0.97780061 -0.20840561 0.021752041 0.0015740941
0.48441315 0.11428114 -0.37460411 -0.9561981 -0.29267034 -0.005408721 0.0024971378
-0.34840813 0.1257039 -0.37074482 0.93388635 -0.35753268 -0.0051628584 0.0003837148
0.4784942 0.12860797 -0.37903288 -0.92623848 -0.37693569 0.0012925029 0
0.47513008 0.13672969 -0.37676325 -0.92568761 -0.37828189 0.0022857343 0
-0.34045351 0.1449081 -0.37676868 0.92386991 -0.38270655 7.4254531e-05 0
0.46971679 0.14979851 -0.37959304 -0.92386132 -0.38272718 -0.00010010337 0
-0.3380456 0.1507213 -0.37721294 0.92389607 -0.38264349 3.4754947e-05 0
0.46820036 0.15345956 -0.37523556 -0.92389172 -0.38265404 9.1706652e-06 0
-0.3313711 0.16683501 -0.37549764 0.92386305 -0.38272315 7.133132e-05 0
0.46298528 0.16604985 -0.37237439 -0.92389023 -0.38265762 3.6743459e-05 0
0.45940691 0.17468883 -0.37108165 -0.92390096 -0.38263169 0.00020805286 0
0.46121946 0.17031281 -0.37629876 -0.92386812 -0.38271093 4.3627446e-05 0
0.45488539 0.18560457 -0.37440977 -0.92388511 -0.38266987 -0.00015707225 2.3991386e-05
-0.32099187 0.1918927 -0.3759107 0.92385173 -0.38275066 9.5894124e-05 0
-0.31889448 0.19695625 -0.37658811 0.91643119 -0.40018678 0.0021131686 0.00037408725
-0.31674618 0.20214275 -0.37204278 0.90979898 -0.41497484 0.0078520365 0.00054887135
-0.31106704 0.21585333 -0.3739959 0.88297004 -0.46900097 -0.020050501 0.0024536662
-0.30846733 0.21985084 -0.37446949 0.86334568 -0.50418711 -0.020726657 0.0028839237
0.43980986 0.21978101 -0.37703347 -0.85188252 -0.52351975 0.014935236 0.0017516359
0.44377136 0.21243632 -0.37138119 -0.89307731 -0.44990304 0.00018193995 0.0013398681
-0.30672395 0.22212285 -0.37572277 0.85804647 -0.51353627 -0.0060547898 0.0028374412
0.43435714 0.22688715 -0.37733305 -0.83297926 -0.55329251 0.0035906052 0.0012981783
-0.29778385 0.23377381 -0.37511575 0.79934078 -0.60087579 0.0015984001 0.00017829028
-0.29085937 0.24279796 -0.37448609 0.79331833 -0.60880709 -6.6136308e-05 2.5232143e-06
0.41875488 0.24722038 -0.37488914 -0.79327375 -0.60886526 4.3070526e-05 0
-0.28061417 0.25614974 -0.37337452 0.7934249 -0.60866815 -1.7962886e-05 1.5955384e-05
0.41369939 0.25380883 -0.37470248 -0.7932964 -0.60883576 -1.5309125e-06 0
0.3941454 0.27929202 -0.37286115 -0.79334807 -0.60876834 0.00018100804 0
-0.25720966 0.2866511 -0.3738654 0.79246485 -0.60991764 8.9420587e-07 9.4015588e-05
0.38939726 0.28547996 -0.37908193 -0.79335248 -0.6087625 -0.00010222238 2.748165e-05
0.39064842 0.28384942 -0.37016475 -0.79326224 -0.6088801 -1.4035605e-05 0
-0.25208297 0.29333237 -0.37449765 0.78416085 -0.62055749 0.00059962127 0.00018345805
-0.24792397 0.29875249 -0.37066817 0.73970312 -0.67293316 0.00057217828 0.0012872875
0.37928721 0.2986556 -0.37676391 -0.74579513 -0.66616905 -0.0029088981 0.0014602878
0.38427982 0.29214916 -0.37184778 -0.77297252 -0.63443816 -0.0012854508 0.00032683543
-0.24093232 0.30756462 -0.37246713 0.70804578 -0.70612359 0.0077861012 0.0021164913
-0.23768055 0.31005982 -0.37961316 0.6830799 -0.72956038 0.033814408 0.0017628998
0.35993826 0.31698972 -0.37821236 -0.64581305 -0.76347488 0.0056172372 0.00090470212
0.36330825 0.31440383 -0.37957573 -0.64368278 -0.76529223 -0.00060022692 0.00099092699
-0.21424147 0.32804519 -0.37014806 0.60875607 -0.79335743 2.0752073e-05 5.880581e-05
0.34918734 0.32523915 -0.37125996 -0.60873443 -0.79337412 -4.1186031e-05 2.5143587e-05
0.35397243 0.32156748 -0.37774143 -0.60893178 -0.79322255 3.5809862e-05 4.9281047e-05
-0.19892848 0.33979532 -0.37705046 0.60875404 -0.79335898 -6.1825485e-05 0
-0.19034153 0.34638432 -0.37327015 0.6087541 -0.79335898 -5.1909639e-05 4.5577657e-05
-0.18825966 0.34798178 -0.3735126 0.60877627 -0.79334193 -1.6647959e-05 0
0.32105717 0.3468242 -0.37373611 -0.60877407 -0.79334366 7.405207e-05 2.5967269e-05
-0.18309851 0.35194206 -0.3745974 0.6087836 -0.79333633 -1.715842e-05 5.6964833e-05
-0.17456065 0.35849339 -0.37486276 0.60872042 -0.79338479 -0.00020319455 7.6543096e-05
0.3057583 0.35856345 -0.37324896 -0.60870045 -0.79340011 -0.00015818997 5.8915237e-05
0.31534562 0.35120684 -0.37353486 -0.60875028 -0.7933619 5.3654177e-05 5.9224887e-05
-0.147424 0.37786502 -0.37356323 0.45631859 -0.88980734 -0.0040335739 0.0017082081
0.28862822 0.37170786 -0.37509444 -0.55000484 -0.83506382 -0.012772588 0.001536975
0.25382328 0.38817468 -0.37977055 -0.38266441 -0.92388737 -9.1136339e-05 0
0.27160236 0.38081038 -0.37706783 -0.42530525 -0.90504867 0.0015377461 0.00079459051
0.24120426 0.39340165 -0.37244284 -0.38279948 -0.92383146 4.0659419e-05 0
-0.073478505 0.40849426 -0.37448511 0.38268822 -0.9238776 -5.9216407e-05 9.3073222e-06
-0.064364478 0.41226941 -0.372253 0.35923523 -0.9332208 -0.0069958977 0.00087551749
-0.05402346 0.41655281 -0.37691927 0.29567006 -0.95519722 -0.013323511 0.002037924
-0.049337193 0.41849393 -0.37634915 0.27718243 -0.96079522 -0.0065113925 0.002571302
0.18789065 0.41548485 -0.3794201 -0.31780845 -0.94811457 0.0087484447 0.0019444362
0.19927087 0.41077104 -0.37161627 -0.36601558 -0.93060613 0.0021735337 0.00025669724
-0.034363069 0.42118928 -0.37586585 0.17232268 -0.98503542 -0.0031795742 0.00094666315
0.0041219983 0.42625594 -0.37632129 0.13052903 -0.99144453 -1.0681985e-06 0
0.014571264 0.42763162 -0.37756395 0.13053145 -0.99144417 -6.2675521e-05 0
