# .PCD v0.7 - Point Cloud Data file format
VERSION 0.7
FIELDS x y z normal_x normal_y normal_z curvature
SIZE 4 4 4 4 4 4 4
TYPE F F F F F F F
COUNT 1 1 1 1 1 1 1
WIDTH 576
HEIGHT 1
VIEWPOINT 0 0 0 1 0 0 0
POINTS 576
DATA ascii
0.39102575 -0.15574728 -0.21422487 -0.81706792 0.57653624 -0.0024496233 0.0014269628
0.46087664 -0.15604559 -0.21989669 -0.92128825 0.38887995 -0.00068747636 0.00023496186
-0.16158551 -0.14882666 -0.21832794 0.92389047 0.38265699 3.4525325e-05 8.7580349e-07
-0.098061815 -0.14305827 -0.21462932 0.86832625 0.49599299 -0.00063531171 0.002683654
0.39831266 -0.14625083 -0.21731308 -0.8616817 0.5070926 -0.019020118 0.0021384093
0.46407932 -0.14831366 -0.21865369 -0.92387182 0.38270229 4.521928e-05 0
-0.16781873 -0.13377833 -0.21055001 0.92387408 0.38269663 -1.1165102e-05 1.9177951e-05
-0.10072901 -0.13700451 -0.21860793 0.89153421 0.45294231 0.0031736293 0.002089455
0.40488946 -0.13246788 -0.21851975 -0.90603709 0.42304417 -0.011423548 0.0011924724
0.47037941 -0.13310391 -0.21379122 -0.92386436 0.38272002 5.4924774e-05 0
0.40796351 -0.12504649 -0.21828754 -0.9170453 0.3987737 -0.0027196917 0.00028192782
0.47417143 -0.1239491 -0.21114002 -0.92382449 0.38281634 -2.2065451e-05 0.0001300458
-0.17543226 -0.11539765 -0.21798666 0.92400664 0.3823764 -0.00022192727 0
-0.11158431 -0.11079749 -0.21669997 0.92387778 0.38268778 1.3039343e-05 0
-0.10843755 -0.11839445 -0.21612445 0.92352432 0.38353983 4.2547865e-05 1.6165178e-07
0.41390863 -0.11069365 -0.2114545 -0.92386234 0.38272485 4.7313497e-05 8.7932611e-05
0.47682354 -0.11754639 -0.21588495 -0.92385727 0.38273707 0.00011666911 0
-0.17855588 -0.10785657 -0.21584558 0.92827773 0.37188131 0.0021572576 0.00020915743
-0.11271665 -0.10806379 -0.21962509 0.92387068 0.38270465 1.2980708e-05 0
0.41580349 -0.10611908 -0.21820763 -0.92384225 0.38277349 -0.00010770987 0.00017272326
0.48085478 -0.10781411 -0.21626975 -0.92948335 0.36886105 -0.0015206706 0.00043364402
-0.18198739 -0.099572167 -0.21938372 0.9414987 0.33697662 0.0051888884 0.0012393593
0.42178196 -0.091685772 -0.2185891 -0.92804575 0.37244564 -0.003914529 0.00025089417
0.48665014 -0.093822807 -0.21439938 -0.95118564 0.30857015 -0.0055040522 0.0017478256
-0.18651754 -0.085081205 -0.21535535 0.98104185 0.19314642 0.015854577 0.0018408466
-0.12261623 -0.084164083 -0.21215381 0.94638616 0.32303551 -0.0011256477 0.0012664897
0.42520618 -0.083418943 -0.21478301 -0.94752175 0.31930697 0.015670335 0.0018323935
0.48935995 -0.0808191 -0.2139492 -0.97704422 0.21230248 0.017670872 0.0020110356
-0.18737209 -0.078590155 -0.21210387 0.98776907 0.15578943 0.0064691626 0.00050001172
0.42803374 -0.076199338 -0.21734878 -0.96082175 0.27681252 0.014013572 0.0019314849
0.49061424 -0.071291983 -0.21750399 -0.98760056 0.15698273 -0.0012882561 0.00052278134
-0.18929516 -0.063983105 -0.21423821 0.99144334 0.13053775 1.5500256e-05 0
-0.12800984 -0.064081013 -0.21256854 0.98313117 0.18263108 -0.0099563403 0.00063415692
0.4304285 -0.063037761 -0.21040975 -0.98358995 0.18040982 0.0017628965 0.00079535361
-0.19016424 -0.057381727 -0.21873723 0.99144489 0.13052577 3.3733922e-05 3.639778e-06
-0.12886411 -0.057592213 -0.21351951 0.98398 0.1780578 -0.0088781146 0.00061286177
0.43129441 -0.056460857 -0.21970531 -0.98777157 0.1559044 -0.0010439539 0.00049585698
0.49296913 -0.053404808 -0.21592993 -0.99144536 0.13052219 -0.00012244043 0.00013845363
-0.19226025 -0.041460931 -0.21264583 0.99144435 0.13053001 -3.223442e-06 1.4221324e-05
-0.13050142 -0.04515557 -0.21603519 0.99144393 0.13053289 -1.0831654e-06 5.4649795e-06
0.49396735 -0.045822605 -0.21467046 -0.99144524 0.1305228 8.7573688e-05 2.0703425e-05
-0.19308126 -0.03522465 -0.21845119 0.99144477 0.13052694 -2.8617042e-05 7.8024941e-06
-0.13141416 -0.038222738 -0.21589032 0.99144471 0.13052768 -1.3639379e-06 0
0.49569952 -0.032665595 -0.21660861 -0.99144387 0.13053377 5.0690283e-05 0
-0.19448328 -0.024575436 -0.21193525 0.99203134 0.12599143 0.00014712012 6.4565727e-05
0.4355332 -0.024263822 -0.21330971 -0.99277359 0.11999225 0.0015829003 7.8806996e-05
-0.44576716 -0.015417106 -0.21560973 0.060196847 -0.99760342 0.034114175 0.012644762
-0.43791872 -0.014383838 -0.2137523 0.26060671 -0.96543539 0.0043149157 0.008910194
-0.19545972 -0.017158411 -0.21397658 0.99392748 0.10995565 -0.0042369128 0.00050523406
-0.13459268 -0.014079475 -0.21078493 0.99488151 0.10104871 0.00010884649 0.0004278745
0.43655667 -0.016489958 -0.21383154 -0.99613804 0.087741725 0.0032312623 0.00090331503
0.49819502 -0.013710106 -0.21950871 -0.99603015 0.089003205 -0.0015507191 0.00092961278
-0.19744609 -0.0020704139 -0.21098188 0.99980289 0.014461904 0.013608311 0.0023378914
0.43803144 -0.0052880929 -0.21539271 -0.99908632 0.039167698 0.017097866 0.0013847044
-0.48657459 0.00014074228 -0.21496303 0.74563122 0.66611779 -0.017919436 0.0085166516
-0.41125467 0.0033528008 -0.21636224 0.78480136 -0.61969447 0.0081004156 0.01055832
-0.19727713 0.0033539745 -0.21715145 0.99997365 -0.0063183056 -0.0035739786 0.0021581028
-0.13568902 0.0057520131 -0.21630053 0.99842077 -0.055649806 -0.0076817642 0.0018745215
0.43800554 0.0054848958 -0.21529776 -0.99985093 -0.016195437 0.0059916135 0.0017536103
0.49879283 0.0091693243 -0.21163554 -0.99822438 -0.059467021 -0.0034266678 0.0013740702
-0.40327728 0.017855052 -0.21405555 0.94739544 -0.32006046 -0.0017389283 0.012531029
0.4371798 0.011756903 -0.21358407 -0.99802798 -0.061939176 0.01018399 0.001598863
0.49779284 0.016764926 -0.21569689 -0.99468267 -0.10298692 0.00025531044 0.00042689469
-0.49871251 0.024079777 -0.21129526 0.97331065 0.22943357 0.0051617906 0.010744874
-0.19436035 0.025509071 -0.21513186 0.99228901 -0.12394406 0.00065976393 6.9798181e-05
-0.13323286 0.024408333 -0.21255606 0.99196106 -0.12650722 -0.0030500626 5.0399194e-05
0.43530786 0.025975784 -0.21475135 -0.99144405 -0.13053215 -1.2736034e-05 0
0.49640563 0.027301917 -0.2113155 -0.99144638 -0.13051432 9.4325223e-05 0
-0.49958646 0.037000388 -0.21761835 0.99339616 -0.11242799 0.022891896 0.010323169
-0.19321217 0.034230333 -0.21176267 0.99144399 -0.13053271 -1.7550785e-05 1.9595478e-05
-0.13125753 0.039412525 -0.21421371 0.99144465 -0.13052802 -1.825256e-05 1.2395657e-05
0.43352216 0.039539166 -0.21503752 -0.99144143 -0.13055281 2.3159419e-05 0.00013473484
0.49598116 0.030526277 -0.21146715 -0.99144727 -0.13050801 0.00010820451 0
-0.49770442 0.048203144 -0.21329403 0.95980757 -0.27951413 0.025323033 0.0088222437
-0.40154424 0.043356404 -0.21547359 0.98389757 0.17725015 0.02297893 0.01446087
-0.19164374 0.046143662 -0.21693876 0.9914453 -0.13052312 1.7451141e-05 1.7559495e-06
0.43310884 0.042678855 -0.21778539 -0.9914434 -0.13053723 -9.8784105e-05 5.8304257e-05
0.49391991 0.046182819 -0.21366122 -0.99144268 -0.13054265 7.0172609e-05 0
-0.49340531 0.058164157 -0.21395862 0.89033258 -0.455264 0.0065324083 0.012372026
-0.40565246 0.055597737 -0.2115967 0.89188254 0.45226696 0.000212959 0.01288376
-0.18986665 0.059642147 -0.21768656 0.99144471 -0.1305275 -5.1184885e-05 7.6036486e-06
-0.1295443 0.052425746 -0.21471202 0.99100059 -0.13385648 0.00057842885 1.6508387e-05
0.43172455 0.053193357 -0.21766862 -0.99057162 -0.13699278 0.00092351722 0.00026982883
-0.48767465 0.066144198 -0.21120727 0.73327309 -0.67943859 -0.025955817 0.0090155797
-0.41415036 0.068139508 -0.21897376 0.72235018 0.69136107 -0.015164217 0.012969929
-0.18896575 0.066485196 -0.21503918 0.99144608 -0.13051696 4.2553379e-06 5.9850654e-06
-0.12767223 0.06664551 -0.21269198 0.9829331 -0.18377483 -0.0083237747 0.001724393
0.43072227 0.06080661 -0.21330693 -0.9879539 -0.15467539 0.004755293 0.00089417887
0.49180099 0.062277742 -0.21523251 -0.99144584 -0.13051882 -3.3549717e-05 1.7188529e-06
-0.48356977 0.07051383 -0.21477789 0.66657037 -0.74530315 -0.014390104 0.0095885554
-0.42575839 0.07683111 -0.21629472 0.58403873 0.81164128 -0.011711628 0.0085547185
-0.18771164 0.076011039 -0.21298532 0.98448908 -0.17527932 -0.0076441979 0.00092677749
-0.12676275 0.073553614 -0.21797174 0.97036219 -0.24161568 0.0043696803 0.0026961404
0.42929316 0.071661673 -0.21769977 -0.96999437 -0.24276109 -0.013343252 0.0025441016
0.48962015 0.078842923 -0.21160501 -0.98184985 -0.1886687 -0.019365914 0.0013606439
-0.46443406 0.081440262 -0.21339692 0.29322335 -0.95580155 0.021527302 0.010649753
-0.44019222 0.082401738 -0.21264353 0.21131773 0.97717124 0.02193447 0.0094560282
-0.43397468 0.080659382 -0.2134966 0.34479755 0.93795621 0.036780868 0.0079766875
-0.18647285 0.085420609 -0.21553284 0.97956777 -0.2010223 -0.006080905 0.0016254435
-0.1824815 0.098379239 -0.21598938 0.95254666 -0.30422899 -0.0099751968 0.0018669504
-0.1198743 0.090783685 -0.21435085 0.93360275 -0.3583039 0.0020555721 0.0005531463
0.41951767 0.097152323 -0.21715245 -0.92544496 -0.3788794 0.0013908298 0.00011491025
0.42083725 0.093966573 -0.21153189 -0.93045002 -0.36641857 -0.00046612756 0.00047835743
0.4842923 0.0995152 -0.21850744 -0.93799794 -0.34662426 -0.0033924303 0.00098227651
-0.17907946 0.10659251 -0.21235745 0.93031895 -0.36674356 0.002398513 0.00021261381
-0.11361483 0.10589538 -0.2177898 0.92387474 -0.38269508 9.9968929e-06 0
0.41497082 0.1081294 -0.21277541 -0.92389023 -0.38265762 0.00014608257 0
0.48099685 0.10747111 -0.21504955 -0.92842108 -0.37152854 0.00090610463 0.00013105138
-0.17606442 0.11387146 -0.2137019 0.92387164 -0.38270241 -1.5267193e-05 3.4526358e-06
-0.10836884 0.11856032 -0.21466172 0.92260671 -0.385741 0.00084260327 2.0855217e-05
0.4128198 0.11332239 -0.21010822 -0.92385191 -0.38275009 1.7661241e-05 0.00011667894
0.47836369 0.11382808 -0.21661541 -0.92387486 -0.38269466 -8.3889354e-05 8.7199995e-05
-0.10508461 0.12648916 -0.21679956 0.91946131 -0.39316005 0.004013285 0.00015941965
0.40706015 0.12722734 -0.21993096 -0.92386258 -0.38272443 -6.491103e-05 8.1444785e-05
0.41003245 0.12005156 -0.21340732 -0.92388916 -0.38266015 6.469238e-05 0
0.47331065 0.1260272 -0.21122068 -0.9238593 -0.38273233 -3.4032801e-05 0.00010341369
-0.16679898 0.13624023 -0.21381469 0.92387897 -0.38268477 1.6711474e-05 0
-0.10157412 0.13496423 -0.21293809 0.88852924 -0.45874274 0.0084290234 0.0023779236
0.40390164 0.13485268 -0.21585307 -0.89280099 -0.45033312 0.01031948 0.0024307
0.46953928 0.13513216 -0.2188786 -0.92389566 -0.38264439 -4.8478264e-06 2.2327546e-05
-0.16237421 0.14692253 -0.21443015 0.92388082 -0.38268039 -2.8137694e-05 1.5527083e-05
-0.097356655 0.14377907 -0.21306035 0.87220144 -0.48861209 0.022867393 0.0020950751
0.40039662 0.14331467 -0.21587361 -0.86750954 -0.49741852 0.0013963176 0.0020270557
0.46570694 0.14438422 -0.21957988 -0.92387915 -0.38268441 3.5204386e-05 0
-0.16015802 0.15227291 -0.21017221 0.92220426 -0.38669968 -0.0016438155 4.9956543e-05
-0.15753874 0.15859641 -0.21264097 0.91233838 -0.40941793 -0.003952269 0.00054153398
-0.088349119 0.15626247 -0.21207683 0.81203377 -0.58360785 -0.0017015903 0.00054416532
0.38978192 0.15736827 -0.21971428 -0.81048495 -0.58575463 -0.0023553448 0.00064730732
0.46194038 0.15347752 -0.21302694 -0.92057097 -0.39055285 -0.0042106649 8.9183632e-05
-0.15452886 0.16586292 -0.21330746 0.8920185 -0.45197061 0.0050542518 0.0012674362
-0.079234272 0.16814116 -0.21931139 0.79334772 -0.6087687 2.6990253e-06 0
-0.14725062 0.17929038 -0.21287765 0.85333246 -0.52119929 -0.013231447 0.0018599359
-0.075610496 0.17286377 -0.21927583 0.79334182 -0.60877651 2.5680416e-05 0
0.37638444 0.1748282 -0.21512485 -0.79338503 -0.60872018 -4.6637896e-07 0
0.45447129 0.17150953 -0.21429548 -0.88528985 -0.46490231 0.011304742 0.0020895677
-0.14241421 0.18559331 -0.21549439 0.8111462 -0.58482414 -0.0047528078 0.00068454182
-0.065647244 0.18584813 -0.21952695 0.78998762 -0.61311835 0.0023424025 7.2371622e-05
0.36689058 0.18720086 -0.21999526 -0.78857136 -0.61493617 -0.0029501806 8.13855e-05
0.44710326 0.18245552 -0.21510996 -0.81658274 -0.57722414 0.002244046 0.00060076232
-0.057972819 0.19584964 -0.21395329 0.77963454 -0.62601382 0.016637053 0.00027278191
0.36265138 0.19272546 -0.21531062 -0.75507385 -0.65563971 0.00026225421 0.0016604683
0.44026092 0.19137263 -0.21232018 -0.79990476 -0.60012352 0.0020169537 0.00012284533
-0.12843794 0.20380755 -0.21178567 0.79335207 -0.60876304 7.881401e-06 2.8374563e-07
0.42976218 0.20505488 -0.21717833 -0.79335701 -0.60875666 -2.6133657e-05 1.3159013e-05
0.43075192 0.20376499 -0.2138865 -0.79329938 -0.60883176 -6.1597134e-06 0
-0.11812025 0.21725383 -0.2142821 0.79334879 -0.60876745 2.5668505e-06 0
-0.030798057 0.21978769 -0.21011873 0.6087625 -0.79335254 -4.1341627e-06 0
0.33873832 0.21544543 -0.2113286 -0.61615962 -0.78761947 -0.0016857715 0.00019243995
0.34234011 0.21268168 -0.21775606 -0.64597368 -0.76335871 -0.0012053599 0.0012150577
-0.11181158 0.22547546 -0.21950646 0.79212338 -0.61036062 0.00059195416 3.4670236e-05
-0.10917227 0.22891507 -0.21351162 0.78355485 -0.62131453 0.0031685217 0.00029267604
-0.026115548 0.22338071 -0.21846354 0.60876364 -0.79335165 -3.6980044e-05 5.2162368e-06
0.3220453 0.22825445 -0.21562749 -0.60888743 -0.79325658 -7.8675876e-05 0
0.33134112 0.22112149 -0.21527012 -0.60877734 -0.79334104 -8.1155231e-05 9.0157715e-05
0.41688555 0.22183603 -0.21302067 -0.79327387 -0.60886496 4.1986135e-05 0
-0.10402295 0.2356258 -0.21770838 0.76470482 -0.64436036 -0.0051205824 0.0012101851
-0.013013831 0.23343401 -0.21443447 0.60845935 -0.793585 9.3115821e-05 1.3708532e-05
0.31655091 0.23247042 -0.21609485 -0.60820729 -0.79377812 0.00046832583 0
0.0048735105 0.24715945 -0.21715823 0.52821553 -0.84896392 -0.015766406 0.0017481724
0.2977761 0.24687684 -0.21985313 -0.53291821 -0.84612566 -0.0083358344 0.0019500752
0.30200234 0.24363396 -0.21475777 -0.57196951 -0.82023144 -0.0084420349 0.00088301679
0.39457485 0.24917203 -0.21253383 -0.68062025 -0.73253316 0.012298672 0.0030545187
0.40036157 0.24337047 -0.21450365 -0.75220555 -0.65892833 -0.00057541311 0.0011583288
-0.086643338 0.25350755 -0.21588683 0.65964013 -0.75134879 -0.0186994 0.0012978137
-0.07847441 0.25977582 -0.21618372 0.61815476 -0.78605193 -0.0026548214 6.8758731e-05
0.013045818 0.25141802 -0.21334216 0.45375597 -0.89112586 0.00046349352 0.0022414308
0.024853379 0.25630888 -0.21632534 0.39162871 -0.92011523 -0.0038708621 5.1909214e-05
0.28718644 0.25226676 -0.21694843 -0.44634998 -0.89465606 -0.019031204 0.00087045552
0.39316642 0.25025275 -0.21760768 -0.66170079 -0.74958354 0.016627872 0.0018136826
-0.067726858 0.26802272 -0.2160314 0.60878277 -0.79333699 3.8294213e-05 0
0.039910324 0.2625457 -0.21537472 0.38272235 -0.92386341 -2.0275689e-05 3.4881188e-05
0.049230758 0.26640636 -0.21134385 0.38268653 -0.92387819 -1.8464263e-05 6.5982258e-06
0.056429476 0.26938814 -0.21658607 0.3668538 -0.93027806 -0.0010671921 0.00027254986
0.37244764 0.26615083 -0.21192984 -0.60872889 -0.79337823 0.00010423001 4.2149401e-05
0.08408922 0.27875945 -0.21797499 0.23782195 -0.97130847 -0.00076719926 0.001745543
0.21837538 0.27873531 -0.21171984 -0.21407576 -0.97678918 0.0073819202 0.0015991812
0.2348071 0.27396303 -0.21414068 -0.32794955 -0.94453722 0.017275458 0.00073037355
0.24202043 0.27097517 -0.21980059 -0.34931275 -0.9370032 -0.0023757783 0.00079328584
-0.050721034 0.28107172 -0.21315375 0.60880971 -0.79331636 -5.7798102e-06 3.4254877e-05
-0.043568805 0.28655985 -0.21620519 0.60792994 -0.79399067 -5.1376486e-05 3.0373458e-05
0.097746179 0.28055745 -0.21800347 0.13187404 -0.99126637 0.00037547428 0
0.10472165 0.28147575 -0.21458764 0.13052863 -0.99144453 -4.3554493e-05 2.6883607e-05
0.12044391 0.28354561 -0.21918508 0.1305548 -0.99144113 -5.6065892e-05 5.0000617e-05
0.13017955 0.28482735 -0.21633658 0.11728737 -0.99309802 0.00011907622 0.00030891396
0.14907946 0.28731561 -0.21850032 0.019117488 -0.99981314 0.0028806885 0.0024423592
0.15010127 0.28745013 -0.21105531 -0.0043637156 -0.99997962 0.0046636765 0.0023491981
0.16445544 0.28583401 -0.21345644 -0.10431495 -0.99453622 0.0040120012 0.00053984439
0.18421976 0.283232 -0.2140646 -0.13057441 -0.99143851 -1.7585218e-05 0
0.19159977 0.28226042 -0.2176832 -0.1305057 -0.99144757 -2.268493e-05 4.1325889e-05
0.20129107 0.28098452 -0.21003988 -0.13045454 -0.99145424 2.4853509e-05 1.8365041e-05
0.34695429 0.2857126 -0.21042851 -0.60625297 -0.79527116 0.0010028138 0
0.33916047 0.29169297 -0.21465185 -0.58496433 -0.81105191 0.0034165008 0.00076795771
-0.022805911 0.3023212 -0.21547356 0.49577382 -0.86845022 0.0016248246 0.003110009
-0.0066534923 0.30901173 -0.2142442 0.39801136 -0.91737479 -0.0032334724 0.00061537843
0.31514627 0.30643886 -0.21250632 -0.43946913 -0.89825052 -0.0035805861 0.0014422298
0.32441509 0.30258685 -0.2145845 -0.4974362 -0.86744398 -0.0099044777 0.002285979
0.0043729031 0.31357902 -0.21080877 0.38268468 -0.92387903 1.2465222e-05 0
0.014209202 0.3176533 -0.21412638 0.382678 -0.92388171 5.786783e-05 7.5780986e-07
0.29531622 0.31465271 -0.21439236 -0.38278317 -0.9238382 1.3829123e-05 4.66944e-05
0.30272228 0.31158504 -0.21877289 -0.38280883 -0.92382759 -2.1727361e-05 0
0.019890165 0.32000646 -0.21520296 0.38268912 -0.92387718 5.370281e-05 1.6063006e-05
0.024202341 0.3217926 -0.2137489 0.38272443 -0.92386264 -4.7331214e-05 4.0904997e-05
0.26442027 0.32745025 -0.21381573 -0.37614751 -0.92655963 0.00055229192 0.00013598992
0.04750175 0.33144355 -0.21473162 0.3674632 -0.9300375 0.00098076975 0.00017100589
0.05589648 0.33492073 -0.2159061 0.27856693 -0.96040696 -0.0043544699 0.0020252089
0.081742384 0.33972287 -0.21602936 0.14158158 -0.9899264 -0.00068178796 0.00014968246
0.22302505 0.33939558 -0.21627735 -0.14113431 -0.98998249 0.0039703981 0.0001134887
0.23879409 0.33731955 -0.2149827 -0.26092911 -0.96526253 0.013569012 0.0024175581
0.24395011 0.33592924 -0.21721388 -0.28182575 -0.95946449 0.0014868398 0.0024501991
0.089197561 0.34070438 -0.21283276 0.13053425 -0.99144381 -4.9977018e-05 4.6863141e-05
0.094335482 0.34138077 -0.21801427 0.13046788 -0.99145252 -3.351046e-05 0
0.10690221 0.34303522 -0.2178295 0.1305335 -0.99144387 9.3938135e-05 0
0.11435374 0.34401625 -0.21206988 0.13053161 -0.99144417 3.6456277e-05 0
0.12414235 0.34530494 -0.21020755 0.12969932 -0.99155331 0.00024138817 0
0.13780583 0.34710377 -0.21149912 0.086976282 -0.99614143 0.011719857 0.00084887235
0.15503286 0.34834695 -0.21696955 -0.047005922 -0.99888742 0.0037802532 0.0022205783
0.1612139 0.34753317 -0.21775655 -0.091482528 -0.99578357 -0.0067864852 0.0011133826
0.17468286 0.34575996 -0.21893084 -0.12743521 -0.99184597 0.0013371446 0.00018837958
0.18400627 0.34453249 -0.21419314 -0.13052678 -0.99144483 -5.1362411e-05 5.7054946e-05
0.19495863 0.34309056 -0.21094558 -0.13044529 -0.9914555 2.9246468e-07 2.2116941e-05
0.2034376 0.34197429 -0.21416947 -0.13051653 -0.99144614 -2.9913354e-05 5.5689077e-05
0.086090185 -0.34029528 -0.20441364 0.1305424 0.99144274 -4.5672776e-05 4.2681098e-05
0.10977064 -0.34341288 -0.20037398 0.13054641 0.9914422 -8.4815592e-06 4.5755456e-05
0.1268726 -0.34566438 -0.20244965 0.13053674 0.99144346 3.4971465e-05 0
0.14629824 -0.34822184 -0.2042084 0.048956566 0.99870723 -0.013679591 0.0015199546
0.16350982 -0.34723094 -0.20837004 -0.06673567 0.9977662 -0.0029910668 0.0012683249
0.17844816 -0.34526426 -0.20298395 -0.13054349 0.99144256 1.7022513e-06 0
0.19560613 -0.34300536 -0.20621543 -0.13049975 0.9914484 4.1278663e-06 1.0275168e-06
0.21023609 -0.34107926 -0.20413873 -0.13049625 0.99144882 1.7926082e-05 4.4636818e-05
0.04571896 -0.33070505 -0.20803449 0.35461742 0.935009 0.0021446249 0.00072695751
0.061842877 -0.33710307 -0.20708801 0.263107 0.9647252 -0.0089466451 0.0024613782
0.22429961 -0.3392278 -0.20699453 -0.14025775 0.99011493 -0.00028743464 6.9933199e-06
0.23057035 -0.33840224 -0.20623329 -0.20025882 0.97963041 -0.014852612 0.0019407179
0.2417655 -0.33675373 -0.20437521 -0.27934465 0.95988405 -0.024270458 0.0017008684
0.25816199 -0.33004248 -0.20233016 -0.35108143 0.93634474 0.00054074544 0.00067005324
0.040856868 -0.32869112 -0.20851982 0.37578905 0.92670524 -0.00020078442 0.0001090922
0.26560456 -0.32695967 -0.20414557 -0.38191712 0.92419654 0.00025498474 0
-0.0039718943 -0.31012243 -0.20447639 0.38268608 0.92387837 -1.3801553e-05 1.0376074e-05
0.016472612 -0.31859085 -0.20493236 0.38270891 0.92386901 -7.8346449e-05 1.0166765e-05
0.28677261 -0.31819159 -0.20018834 -0.38266063 0.92388898 -2.6053043e-05 0
0.3027966 -0.31155425 -0.20087302 -0.38684806 0.92214346 -4.4919994e-05 5.2401225e-05
-0.021195117 -0.30298838 -0.20205849 0.51240718 0.85819751 0.030593529 0.0019838868
-0.012914395 -0.30641836 -0.2075796 0.43927547 0.89835054 -0.0018292152 0.0015770019
0.30673599 -0.30992246 -0.20411287 -0.39259785 0.91971022 4.9760667e-05 0.00012385058
0.31024173 -0.30847034 -0.20347981 -0.39244041 0.9197768 0.0010837407 0.00018161557
0.32581902 -0.30164331 -0.20383376 -0.50074869 0.86559272 0.00014751387 0.0026078082
-0.0352346 -0.29295486 -0.20632868 0.58329207 0.81225693 0.0030090085 0.00057021313
-0.044496637 -0.28584787 -0.20443894 0.60496032 0.79625553 -1.7171416e-05 1.5560698e-05
0.099864691 -0.28083634 -0.20105363 0.13734713 0.99052233 0.0011728505 7.3784344e-05
0.11534552 -0.28287444 -0.20615715 0.13051225 0.99144673 2.6128693e-05 0
0.13193476 -0.28505844 -0.20478147 0.11804864 0.99300581 -0.0019686464 0.00019472487
0.15607582 -0.28693721 -0.20706472 -0.055135693 0.99847883 -0.00026143153 0.0015259897
0.17764956 -0.28409696 -0.20950902 -0.13046515 0.99145287 -6.5877299e-05 0.00010520043
0.18505122 -0.28312254 -0.20703173 -0.13051362 0.99144655 -4.3848402e-05 4.5826258e-05
0.19074367 -0.2823731 -0.20160642 -0.13052917 0.99144447 -1.3210999e-05 0
0.35200343 -0.28183821 -0.20311849 -0.60881662 0.79331094 1.3747784e-05 0
-0.061855212 -0.27252814 -0.20372242 0.60882246 0.79330647 -2.0521866e-05 3.0100389e-05
-0.054751799 -0.27797881 -0.20942935 0.60882992 0.79330075 -0.00010706072 5.7356556e-05
0.069427215 -0.27477202 -0.20440394 0.31734228 0.94819486 -0.014838567 0.0012738948
0.080615096 -0.27830207 -0.20916787 0.20790219 0.97814751 -0.0020463734 0.0012060635
0.2163524 -0.27900165 -0.20930195 -0.20795248 0.97813785 0.0014347408 0.0019613297
0.22366117 -0.27803946 -0.20013946 -0.27545291 0.9613108 -0.0026644804 0.002162799
0.24036041 -0.27166277 -0.20112011 -0.36732224 0.93009067 0.0023803832 0.00032108717
0.35710108 -0.27792665 -0.20557636 -0.6086908 0.79340756 3.4257478e-06 3.5648784e-05
0.36381865 -0.2727721 -0.20543323 -0.60873103 0.79337662 1.0081316e-05 6.1815052e-05
-0.073469393 -0.26361629 -0.20541367 0.61039478 0.79209733 -0.00010135595 0
-0.067663133 -0.26807159 -0.20695652 0.60876215 0.79335284 4.9684979e-05 0
0.039626259 -0.26242805 -0.20495063 0.38267127 0.92388451 3.8487051e-05 0
0.041672442 -0.26327556 -0.20722771 0.38265219 0.92389244 5.7001187e-05 0
0.052697446 -0.26784226 -0.20249557 0.38056478 0.92475319 0.0014325373 0
-0.085741252 -0.25419974 -0.20343514 0.64926493 0.7605623 0.00042691827 0.0010274897
0.026976284 -0.25718823 -0.20574756 0.39049396 0.92060399 -0.0016486704 7.6933859e-05
0.27443928 -0.25754681 -0.20721649 -0.38735035 0.92193168 0.0013477163 0
0.28568929 -0.25288692 -0.2048538 -0.44275001 0.89662617 0.0058240253 0.0014917201
0.38721356 -0.25482053 -0.20557018 -0.6458348 0.76343548 -0.0079855816 0.0013379878
-0.096414648 -0.24554111 -0.20571041 0.70456058 0.70962387 -0.0053107943 0.0018730568
-0.0030844319 -0.24105312 -0.20779994 0.58398896 0.81175715 -0.0026952738 0.00062966131
0.30330005 -0.24263819 -0.20725404 -0.56866413 0.82255787 -0.0044287131 0.00094484753
0.39638335 -0.24778435 -0.2097173 -0.71500498 0.69905919 -0.0091765644 0.0019126481
0.40096909 -0.24257874 -0.20134334 -0.74717098 0.66463143 0.00076971011 0.0015844206
-0.10193726 -0.23834389 -0.2074316 0.75737774 0.65291911 -0.0086918306 0.0012470669
-0.008294316 -0.23705544 -0.20220359 0.59926546 0.80054194 0.0036756052 0.00017373551
0.30768654 -0.23927233 -0.20910051 -0.5686574 0.82256269 -0.0043859258 0.00095181895
0.31534278 -0.23339748 -0.2005789 -0.60759789 0.79424417 -0.0010108118 0
0.40659833 -0.23524255 -0.20391147 -0.77277482 0.63468033 -0.00021395655 0.00089314452
-0.030437421 -0.22006445 -0.20791328 0.60954046 0.79275495 4.4020213e-05 0
-0.019050965 -0.22880158 -0.20535783 0.60876012 0.79335439 -2.5894956e-06 0
0.33253428 -0.22020598 -0.20563075 -0.60883373 0.79329789 2.1326667e-05 0
0.41518891 -0.22404714 -0.20429361 -0.79333943 0.60877967 -2.6664498e-05 0
-0.11999542 -0.21481004 -0.20686379 0.79337335 0.60873532 1.1790594e-06 1.6935768e-05
-0.042702451 -0.21065316 -0.20485228 0.64513785 0.76402897 0.0075381855 0.0011382267
0.33881578 -0.215386 -0.20450577 -0.61522985 0.78834492 0.0020948325 0.00026319685
0.34026462 -0.21427427 -0.20927589 -0.63074702 0.77596915 0.0054899328 0.00074989599
0.41836599 -0.21990669 -0.20961189 -0.79331756 0.6088081 2.3036311e-05 0
0.42147514 -0.21585476 -0.20597023 -0.79329276 0.60884041 -0.00014622655 1.9394279e-06
-0.052384339 -0.20305328 -0.20847937 0.70059431 0.71337402 0.01628547 0.0027542608
-0.044597279 -0.20919919 -0.20424032 0.65819603 0.75275397 0.011806251 0.0011385734
0.34707803 -0.20904616 -0.20501956 -0.68506134 0.72837037 0.012948106 0.0021386405
0.35196298 -0.2052978 -0.20336923 -0.69530272 0.71862715 0.0113703 0.0019416845
0.42767644 -0.20777309 -0.20383573 -0.79322058 0.60893434 0.00015190574 0
-0.13403778 -0.1965097 -0.20402937 0.7933293 0.60879284 -1.2076578e-05 1.0094267e-05
-0.058894437 -0.19464858 -0.20336813 0.76040995 0.64943981 0.0021685665 0.0014314348
0.35865149 -0.19793822 -0.20647775 -0.73651862 0.67633373 0.010629503 0.0017194401
0.36329827 -0.19188245 -0.20148396 -0.76836389 0.64001292 0.00068669114 0.00079601305
-0.14262339 -0.18532072 -0.20061475 0.81674075 0.57700425 -0.00081402931 0.00094847917
-0.067721844 -0.18314447 -0.20284368 0.7932263 0.60892689 6.0809503e-05 4.2164811e-06
0.36668685 -0.18746637 -0.20628898 -0.77400351 0.63313591 -0.0075861369 0.00047546744
0.44629571 -0.18350798 -0.20626384 -0.81740236 0.57588249 0.014583321 0.00080927619
-0.15195385 -0.17207953 -0.20754613 0.88827258 0.45924947 -0.0078511648 0.0016601485
-0.14813933 -0.17813221 -0.20646825 0.86032116 0.50954717 -0.014463756 0.002966271
-0.074154526 -0.17476124 -0.20178765 0.79335588 0.60875809 -2.3146416e-05 4.7684989e-06
0.37650913 -0.1746657 -0.20309228 -0.79336619 0.60874474 -8.9795292e-05 1.0256133e-05
0.45418352 -0.17220432 -0.20667899 -0.87668878 0.48101997 0.0060451701 0.002187253
-0.07922142 -0.16815794 -0.20021559 0.79332423 0.60879934 1.371985e-05 0
0.38672149 -0.1613567 -0.20594999 -0.79336601 0.60874486 -7.7759578e-05 5.3826465e-05
0.45539063 -0.16928995 -0.20763049 -0.89159 0.45280701 0.0057625822 0.0016041568
-0.16033202 -0.15185285 -0.20751734 0.92147285 0.38844147 -0.0010184692 6.6578694e-05
-0.15961239 -0.15359019 -0.2065725 0.91913784 0.39393556 -0.00069551775 0.00019103246
-0.088329628 -0.15628786 -0.20089446 0.81452125 0.58012486 0.003207451 0.00049632182
0.38907427 -0.15829051 -0.20640692 -0.80500674 0.59326357 0.0015829128 0.00079775014
0.39191294 -0.15459105 -0.20437631 -0.82846528 0.56003833 0.0015378994 0.0016294356
-0.16363037 -0.14388992 -0.20136911 0.92389262 0.38265187 1.8158522e-05 0
-0.099324077 -0.14039633 -0.20058306 0.881109 0.47275808 -0.012108712 0.0019300394
0.3981179 -0.14650463 -0.20584327 -0.86621189 0.49953181 0.012042039 0.0021744212
-0.16760369 -0.13429748 -0.20965894 0.92388296 0.38267526 -2.2046597e-05 1.6536134e-05
0.40469375 -0.1329404 -0.20557377 -0.89724422 0.44136399 0.012271562 0.0016012567
0.46903256 -0.13635547 -0.20484874 -0.9238559 0.38274044 -0.00010498225 0
-0.171883 -0.12396629 -0.2013728 0.92387432 0.38269621 7.7743498e-06 0
-0.10392115 -0.12929799 -0.20261163 0.92272192 0.38546637 -0.00013803747 1.5641886e-05
0.40863886 -0.12341598 -0.20820957 -0.91953206 0.39301488 0.00028990125 3.9419672e-05
0.47371098 -0.12506077 -0.20049033 -0.92387646 0.38269082 8.9681715e-05 0
-0.11109066 -0.11198926 -0.20146778 0.92388141 0.38267893 -5.3638337e-06 2.6592261e-07
0.41138077 -0.11679654 -0.20977327 -0.92385519 0.38274214 -1.4002579e-05 0
0.47792488 -0.11488748 -0.20441632 -0.92424887 0.38179049 0.00014840567 0
-0.11406592 -0.10480638 -0.20688543 0.92387843 0.38268614 1.2369238e-05 0
0.41635168 -0.1047956 -0.20468283 -0.92386568 0.38271686 -5.7215362e-05 0
0.4808313 -0.10787076 -0.20553602 -0.92983872 0.36794391 0.0041494472 0.00026929288
-0.18585655 -0.090101868 -0.2063244 0.96738291 0.25310975 0.010283726 0.0030100646
0.4188289 -0.098815046 -0.20893569 -0.92411578 0.38211265 0.0001047152 2.720637e-05
0.42175761 -0.091744594 -0.20337857 -0.93178082 0.3630105 -0.0028345238 0.0003977397
0.48557854 -0.096409947 -0.20481431 -0.94948524 0.31365705 0.0098501658 0.0016904138
-0.18602633 -0.088812187 -0.20470473 0.97319233 0.22989202 0.006804036 0.0024562022
-0.12260949 -0.08418037 -0.20378128 0.94927067 0.31445828 0.0010687835 0.0011480593
0.42455986 -0.084979318 -0.20558691 -0.94113708 0.33802462 0.00061718072 0.0011154354
0.48821133 -0.089543648 -0.20842282 -0.96555233 0.26008001 0.0081921937 0.002609049
0.42709345 -0.078862786 -0.20908776 -0.95768249 0.28772512 0.007648665 0.0021974181
-0.18919526 -0.06474182 -0.20592049 0.99144596 0.13051818 3.5761286e-06 1.5579855e-05
0.42981803 -0.067675121 -0.20322305 -0.97587192 0.21819611 0.0080244197 0.001673932
0.49190375 -0.061497185 -0.20096198 -0.9914422 0.13054606 -8.584145e-05 0.00011092382
-0.19199757 -0.043456078 -0.2051447 0.99144506 0.1305245 6.5531088e-07 0
-0.13052922 -0.044944372 -0.20029885 0.99144405 0.13053215 1.4160606e-05 0
0.43301174 -0.043416277 -0.20897922 -0.99144268 0.13054228 5.2147134e-05 0
0.49443129 -0.042298567 -0.20425794 -0.99144405 0.13053215 -1.792784e-06 0
-0.19265287 -0.038478799 -0.20541853 0.99144441 0.13052972 -1.4703352e-05 0
-0.13188472 -0.034648392 -0.20533702 0.99144399 0.13053271 -2.1940283e-05 9.5099231e-06
0.43457073 -0.031574611 -0.20832652 -0.99144346 0.13053693 -1.1008723e-05 8.216648e-05
-0.19441475 -0.025095884 -0.20204906 0.99199331 0.12628961 -0.00044956623 7.0482311e-05
-0.13343489 -0.022873752 -0.20182896 0.99304473 0.11764035 0.0047808969 0.00021241156
0.49725044 -0.02088517 -0.20411472 -0.99183893 0.12748805 0.001550868 0
-0.47091031 -0.01103912 -0.20047425 0.39588442 0.91794223 0.02564415 0.013339766
-0.46912813 -0.011777337 -0.20312355 0.3985402 0.9168222 0.024547962 0.013434651
-0.4584347 -0.014902618 -0.20984268 0.12869084 0.99076807 -0.042627983 0.0048857396
-0.44311586 -0.015068053 -0.20040646 0.1151352 -0.9930684 -0.023644941 0.016749004
-0.43616927 -0.013670875 -0.20833088 0.33387962 -0.94258702 -0.0073553612 0.0090468396
-0.19595045 -0.013431169 -0.20671859 0.99575227 0.091927513 -0.0051735668 0.0010679215
-0.13421789 -0.016926339 -0.20231164 0.99404991 0.10815671 0.012922765 0.00031888986
-0.48503983 -0.0014613643 -0.20309964 0.68801123 0.72522348 -0.026294965 0.0066515934
-0.42629436 -0.0097594848 -0.20279142 0.51967585 -0.85436273 0.0012258714 0.0079351095
-0.41739878 -0.0033128895 -0.20418254 0.6061461 -0.79527348 -0.011265406 0.010250707
-0.19734737 -0.0028203463 -0.20599827 0.99975413 0.022012109 0.0026735824 0.0026391014
-0.13606025 -0.0029322244 -0.20429362 0.99960673 -0.011742206 -0.025465069 0.0024314171
0.49919468 -0.0061171106 -0.20279697 -0.99897259 0.043144386 -0.013870142 0.0014378641
-0.48931053 0.0037063272 -0.20381773 0.79414946 0.60727167 -0.023403626 0.016177518
-0.41297123 0.0011157239 -0.20747009 0.74661875 -0.66525209 -0.00017509448 0.012683651
-0.40752113 0.0082184812 -0.20515609 0.87613952 -0.48087415 0.033757377 0.0092865126
-0.19729227 0.0032388903 -0.20065853 0.99979389 -0.020179195 -0.0021999257 0.0028042481
-0.13559538 0.0064631687 -0.20640858 0.99938345 -0.029051604 -0.019716723 0.0025904409
-0.19638167 0.010155531 -0.20468277 0.99751937 -0.070076749 0.0066461978 0.0018641822
-0.13428643 0.016405601 -0.20679194 0.99339104 -0.11460496 -0.0063247802 0.00031063394
0.4373624 0.010370104 -0.20455021 -0.99777973 -0.066555128 -0.002428974 0.0012331795
-0.40139014 0.025532927 -0.20279719 0.98054582 -0.1956723 0.015563413 0.01267941
-0.19382827 0.029550727 -0.20044339 0.99144548 -0.13052188 1.7854116e-05 0
-0.13337922 0.023296647 -0.20766391 0.99202764 -0.12601165 -0.0014736281 4.6918132e-05
0.43567944 0.023153111 -0.20058888 -0.99144322 -0.13053913 -5.9008336e-05 0
-0.49972072 0.031738028 -0.20150104 0.9974708 0.071022727 -0.0028084416 0.020671971
-0.40055791 0.032654904 -0.20500982 0.998752 -0.048127387 0.013349319 0.013271323
-0.19294912 0.036228344 -0.20058101 0.99144548 -0.13052152 -3.6275583e-06 4.0542941e-06
-0.13141823 0.038191855 -0.2063376 0.99144518 -0.13052359 3.742929e-06 0
0.43376273 0.037711941 -0.20562163 -0.9914465 -0.13051377 9.2034927e-05 0
0.49550888 0.034113325 -0.20401871 -0.99144697 -0.13051027 0.00014657076 0
-0.49800345 0.047064602 -0.20128086 0.96813256 -0.25026682 -0.0092662657 0.014662617
-0.40121272 0.04083816 -0.20482205 0.9841342 0.17742153 0.0012618362 0.008300568
-0.19204155 0.043122098 -0.20979592 0.99144465 -0.13052768 -1.3910824e-05 2.2949893e-05
0.43331409 0.041119609 -0.20353007 -0.99144173 -0.13055038 -3.2319203e-05 9.1801281e-05
0.49388549 0.046444327 -0.20224704 -0.9914422 -0.1305462 -0.00013992883 0.00017087294
-0.40461618 0.053095922 -0.20492457 0.93563432 0.35279816 0.01104274 0.011367932
-0.19035667 0.055920009 -0.20386732 0.99144453 -0.1305289 1.4807893e-05 0
-0.12902264 0.056388058 -0.20636661 0.98788124 -0.15497899 -0.0084933303 0.00063234224
0.43183208 0.052376777 -0.20355435 -0.9911837 -0.13248831 -0.0013194439 0.00022141903
0.49263704 0.055927217 -0.20851251 -0.99144679 -0.1305116 6.4568441e-05 0
-0.49199748 0.060510565 -0.20856898 0.85412455 -0.51965058 -0.020848036 0.01263024
-0.48999861 0.063115582 -0.20204531 0.79180288 -0.61072987 -0.0075638215 0.0040923264
-0.41510731 0.06918177 -0.20576645 0.66354179 0.74741453 -0.032920785 0.0076726465
-0.18859607 0.069293007 -0.20106952 0.98928136 -0.1460138 0.0015333579 0.00021643173
-0.12731978 0.069322526 -0.20481057 0.97984111 -0.19977131 -0.0016780348 0.0016584445
0.42986816 0.06729427 -0.20917848 -0.97707218 -0.21287611 -0.0036972119 0.0022069647
0.43072191 0.060809303 -0.20576906 -0.98779893 -0.15569821 -0.0033760585 0.00083210587
0.49172103 0.062884971 -0.20728661 -0.99144804 -0.13050181 3.7502581e-05 0
-0.47734976 0.075286612 -0.20572737 0.54536384 -0.83817357 -0.0065795942 0.0086207604
-0.43167311 0.079706058 -0.20781955 0.39075923 0.91864377 0.058317084 0.0078254202
-0.4206962 0.073561676 -0.20647568 0.64770699 0.75979859 -0.056406684 0.0078325858
-0.18816966 0.072532102 -0.20442721 0.98663503 -0.16286609 0.0050865747 0.00067692972
-0.12620099 0.07546781 -0.2071158 0.96597397 -0.25854567 0.006965938 0.0027829516
0.4286783 0.075036526 -0.20656028 -0.96372205 -0.2669037 -0.0014892133 0.0024126214
0.49028009 0.07383021 -0.20146081 -0.98782265 -0.1554939 -0.0053029531 0.00084366451
-0.45609641 0.082929052 -0.20532069 0.12151574 -0.99110907 0.054192372 0.014286304
-0.18648668 0.08531557 -0.20779335 0.97809178 -0.20815597 0.0027559632 0.0016586176
-0.1226543 0.084072165 -0.202672 0.94457245 -0.32819706 0.0083455751 0.0013267483
0.48862299 0.086416826 -0.20255446 -0.97507727 -0.2218302 0.0039607589 0.0023462239
-0.18375419 0.095306747 -0.20534478 0.9653852 -0.26060992 0.010674997 0.0017859084
0.41973972 0.096616127 -0.20423895 -0.92550921 -0.37871888 0.0021813908 5.0654064e-05
0.42190629 0.09138564 -0.20401846 -0.93156248 -0.36356148 0.0037932701 0.0004087963
-0.18148619 0.10078215 -0.20897147 0.94715941 -0.32057273 -0.011055279 0.0018942744
0.41629344 0.10493621 -0.20558295 -0.92387795 -0.38268727 5.1950814e-05 0
0.48163882 0.10592121 -0.20662205 -0.933245 -0.35920981 0.0046994085 0.00068339339
-0.17133528 0.12528861 -0.20978242 0.9238773 -0.38268876 -6.8208924e-06 2.1702999e-05
-0.10564897 0.12512664 -0.20325626 0.92059177 -0.39052579 -0.00073255785 8.1542603e-05
0.40813851 0.12462401 -0.20726508 -0.92184013 -0.3875688 -0.0010652788 8.570803e-05
0.47526008 0.12132092 -0.2021172 -0.92385602 -0.38274023 -4.6837464e-05 0
-0.10021188 0.13825297 -0.20727764 0.8896805 -0.45656025 0.0046119709 0.001733112
0.40335962 0.13616125 -0.20373748 -0.88888079 -0.45804274 0.0093698986 0.0017480941
0.46864805 0.13728379 -0.2047836 -0.92385352 -0.38274622 4.9734692e-05 0.00010901357
0.47022349 0.13348036 -0.20869993 -0.9238677 -0.38271207 9.5962696e-06 0
0.46711326 0.14098901 -0.20744407 -0.9238444 -0.38276827 -7.4061536e-06 0.00012943648
-0.1582868 0.15679044 -0.20660634 0.91328937 -0.40723711 -0.0077734701 0.00059348479
-0.087935321 0.15680173 -0.20492832 0.81534594 -0.57893461 0.0067622126 0.00061020657
0.39069393 0.15617971 -0.20354128 -0.81734639 -0.57609898 0.0074038333 0.00087610114
0.46163201 0.15422195 -0.20540127 -0.92014706 -0.39157119 -0.0012016895 0.00022830164
-0.079153344 0.16824664 -0.2060886 0.79334652 -0.60877037 1.6070415e-05 0
0.38380897 0.16515237 -0.20510434 -0.79520983 -0.60633421 -0.00035768989 3.9955712e-06
-0.15184867 0.17233345 -0.20367092 0.8773123 -0.47978359 0.0114357 0.0020818852
-0.14912409 0.17684883 -0.20651224 0.85935163 -0.51130688 -0.0089433705 0.002177729
0.37289667 0.17937355 -0.20461908 -0.7933718 -0.60873747 -2.9377732e-05 1.0481676e-07
0.45092279 0.17747784 -0.20409928 -0.855726 -0.5172165 -0.01483658 0.0025108547
-0.14542198 0.1816735 -0.20345677 0.83741599 -0.54649621 -0.008735355 0.0015613438
-0.065346375 0.18624023 -0.20916401 0.78917253 -0.6141603 0.0037288631 8.8507499e-05
0.3695569 0.18372601 -0.20451431 -0.78704703 -0.61689055 -0.0017363367 8.5940963e-05
-0.13574205 0.19428866 -0.20596947 0.79555869 -0.60587645 -0.00033365714 5.9662084e-06
-0.058695264 0.19490813 -0.2035635 0.78429747 -0.62038386 0.0011773997 0.00012173205
0.35869741 0.19787841 -0.20512009 -0.73457807 -0.67835951 -0.014949757 0.0017331578
0.3615582 0.19415013 -0.20731626 -0.75080639 -0.66043216 -0.0109138 0.001557195
0.43493792 0.1983097 -0.20412481 -0.79330969 -0.60881841 -2.8672945e-05 5.0515908e-05
-0.052063726 0.20346984 -0.20406049 0.69466627 -0.71908504 0.018854646 0.0023861958
0.3513622 0.2057588 -0.20714733 -0.70024735 -0.71377617 -0.01330925 0.00202478
-0.12229204 0.21181703 -0.20874807 0.79333931 -0.60877973 1.7331977e-05 0
-0.034354199 0.21705899 -0.2071179 0.60878664 -0.79333395 -3.705121e-05 2.2003534e-05
0.34269992 0.21240556 -0.20379464 -0.63508433 -0.77244252 -0.00061476498 0.00088430487
0.422773 0.21416335 -0.20424668 -0.79329747 -0.60883421 6.5320106e-05 5.2596195e-05
-0.11046503 0.22723028 -0.20792089 0.79222494 -0.61022824 0.0010627123 2.1355996e-05
-0.02535814 0.22396189 -0.20098469 0.60876924 -0.79334742 -5.2450218e-06 2.2880158e-06
0.32367975 0.22700027 -0.20920764 -0.60876286 -0.79335219 -1.3742568e-05 0
0.41180903 0.22845188 -0.20286632 -0.7868036 -0.61719942 0.0022302065 9.9171884e-05
-0.10430884 0.23525321 -0.20324403 0.77459127 -0.63241947 0.0073458306 0.00065041787
-0.014754438 0.23209839 -0.20713164 0.60878152 -0.79333788 -1.228202e-05 1.526065e-05
0.3158845 0.23298177 -0.2088699 -0.60873902 -0.79337054 7.8805613e-05 0
-0.097373128 0.24429202 -0.20360255 0.72111428 -0.69277835 0.0072398223 0.0017649074
0.29856032 0.2462751 -0.20284624 -0.52624899 -0.85024089 -0.012346761 0.0026899681
0.30358562 0.24241905 -0.20120758 -0.57314557 -0.81936461 0.012069841 0.00068862707
-0.081758916 0.25725552 -0.20414492 0.61783421 -0.78630793 0.00083149131 0.0001243421
0.023345862 0.25568444 -0.20931925 0.3895714 -0.92099607 0.00066731358 6.1129766e-05
0.27379021 0.25781569 -0.20668232 -0.39379618 -0.91919678 0.0013520108 0.00022338863
0.28512746 0.25311965 -0.20660707 -0.44258413 -0.89633691 -0.026447352 0.00092313997
0.29002547 0.25109082 -0.20082945 -0.43201876 -0.90186459 0.00027991852 0.0012379092
0.38711473 0.2548964 -0.20563206 -0.62224382 -0.78282291 -0.0010007819 0.00039081468
0.39099967 0.25191537 -0.20667723 -0.62673014 -0.77907383 -0.015918333 0.00044939754
-0.070878722 0.26560417 -0.20270361 0.60874611 -0.79336512 8.8570887e-06 0
0.038004439 0.26175624 -0.20811093 0.38267735 -0.92388201 2.3116313e-06 0
0.043519482 0.26404065 -0.20713672 0.38273659 -0.92385751 -7.2086164e-05 4.4528559e-05
0.057395004 0.26978809 -0.20295404 0.36334416 -0.93165302 0.001914593 0.0004179762
0.26613879 0.26098502 -0.20823875 -0.38264385 -0.92389601 3.6381175e-06 1.333656e-05
0.37546009 0.2638393 -0.20871578 -0.60883331 -0.79329824 -3.5326491e-05 1.4238558e-05
-0.061690018 0.27265495 -0.20953006 0.60880023 -0.79332364 3.0198162e-06 3.746288e-05
-0.05739335 0.27595189 -0.2009892 0.60876185 -0.79335302 -9.3917038e-07 0
0.064183079 0.27259979 -0.20392999 0.33877939 -0.94086558 0.00067158299 0.00085672672
0.085419901 0.27893466 -0.20294058 0.21425046 -0.97677022 -0.0040715337 0.0019686597
0.090004876 0.27953827 -0.20869727 0.17006797 -0.98539531 -0.0085477075 0.0010662489
0.23539142 0.27372098 -0.2083824 -0.30829749 -0.95128828 0.0017960785 0.0010617819
-0.044383913 0.28593439 -0.20642041 0.6052475 -0.79603696 -0.00073365896 5.0939358e-05
0.094774865 0.28016624 -0.2068809 0.13374266 -0.99101597 0.00054605695 3.3212051e-05
0.10281593 0.28122485 -0.20532349 0.13194291 -0.99125725 -0.00027958993 7.1764557e-06
0.12546067 0.28420612 -0.20398672 0.1305059 -0.99144751 1.626974e-05 0
0.14791274 0.28716198 -0.20885691 0.026100349 -0.99965906 0.00069630193 0.0021775463
0.15536258 0.28703117 -0.20050177 -0.040003993 -0.9990387 -0.017930506 0.0024552888
0.16460349 0.28581452 -0.20567685 -0.10840578 -0.99408507 -0.0065600239 0.00027251133
0.17585549 0.28433317 -0.20627257 -0.12427272 -0.99224788 0.00061626761 6.520623e-05
0.18473542 0.28316411 -0.20405801 -0.13054322 -0.99144262 1.2498756e-05 0
0.20454797 0.28055573 -0.20437653 -0.13088921 -0.99139702 -0.00015918096 3.8240618e-05
0.3452433 0.28702548 -0.20652246 -0.60615665 -0.79534441 0.0011670263 2.0830374e-05
-0.031693537 0.29567206 -0.20695579 0.56678873 -0.82385343 0.0040041786 0.0014569371
0.33577457 0.29429108 -0.20370619 -0.55267537 -0.83339596 0.00099302724 0.0016059009
-0.021724539 0.30276912 -0.20299934 0.47013769 -0.88218856 0.026718363 0.0033408818
-0.014164033 0.30590075 -0.20589826 0.41196746 -0.91119838 0.00054518477 0.00074127089
0.31475294 0.30660176 -0.20144932 -0.43758157 -0.89913148 -0.0092135984 0.0015634634
0.32715824 0.30090261 -0.2002489 -0.50818592 -0.86124742 -0.00028156099 0.0024331638
0.0053111613 0.31396765 -0.20413338 0.38269338 -0.92387545 -4.4243636e-05 1.4525986e-05
0.017047217 0.31882888 -0.20178168 0.38267508 -0.92388302 1.3782254e-05 0
0.29734015 0.31381437 -0.20463118 -0.38273647 -0.92385757 -7.6416844e-05 0
0.30064353 0.31244609 -0.20538262 -0.38750568 -0.9218666 -0.0012449296 6.1223676e-05
0.027778745 0.32327402 -0.20747441 0.38269767 -0.92387366 -9.1456553e-05 1.4228835e-05
0.036827158 0.32702199 -0.20159897 0.38266507 -0.92388713 6.0447972e-05 0
0.041440159 0.32893273 -0.2090304 0.36994109 -0.92904299 0.0047591296 0.00025572136
0.26089853 0.32890898 -0.20242864 -0.36740535 -0.93005896 -0.0018994898 0.00013466619
0.048465133 0.3318426 -0.20679796 0.3492057 -0.93704593 0.00053615315 0.00072441564
0.058570743 0.33602846 -0.20235822 0.26947939 -0.96290606 0.013883169 0.0023976984
0.066994205 0.33778125 -0.20399627 0.23214933 -0.9725908 0.013181433 0.0021296639
0.078523487 0.33929908 -0.20075913 0.15961149 -0.98717946 0.00097810512 0.00050301244
0.082076587 0.33976686 -0.20825489 0.14336661 -0.98966587 0.0027281004 0.00018491461
0.21873425 0.33996046 -0.2077115 -0.13828398 -0.99038064 0.0048696259 1.9934581e-05
0.22813381 0.33872294 -0.20565845 -0.16776192 -0.98582298 -0.0030093933 0.0012583168
0.2375854 0.33747867 -0.20284715 -0.22681372 -0.97393525 -0.0023844456 0.0025593094
0.24183047 0.33664078 -0.20402518 -0.25076154 -0.96797299 -0.012119994 0.0027507395
0.084918246 0.340141 -0.20998141 0.13407759 -0.99097079 -0.00022082437 0
0.10339714 0.34257376 -0.20159231 0.13048047 -0.99145091 2.4626685e-05 0
0.11681101 0.34433976 -0.20135595 0.13055345 -0.99144131 -9.8687648e-05 6.9055354e-06
0.12430753 0.34532669 -0.20440784 0.12991062 -0.99152571 0.00015287231 0
0.14414038 0.34793773 -0.20211817 0.069547787 -0.99750566 0.012063703 0.0013197405
0.15152758 0.34880841 -0.20920025 -0.0036884933 -0.99999291 -0.00079593493 0.0025976114
0.1614702 0.34749943 -0.2046299 -0.081979483 -0.99657589 -0.010765737 0.0012071852
0.17857909 0.34524694 -0.20450015 -0.13051373 -0.9914465 1.0258891e-05 5.3771091e-06
0.18038343 0.34500945 -0.2035822 -0.1304861 -0.99145013 -4.943191e-05 7.3033778e-05
0.21554936 0.34037977 -0.20830745 -0.13201925 -0.99124718 0.00010352177 4.4749719e-05
0.085579872 -0.34022808 -0.19273862 0.13060066 0.99143505 -7.5808857e-05 7.1439143e-05
0.098193169 -0.34188867 -0.19445528 0.13053246 0.99144399 -6.8099803e-06 1.8530338e-05
0.11806849 -0.34450531 -0.19789913 0.13054119 0.99144292 -2.2188286e-05 3.4246168e-05
0.12411943 -0.34530193 -0.19401217 0.13056271 0.99144006 4.1157436e-05 0
0.14123461 -0.34755519 -0.19805783 0.062261328 0.99805784 0.002013481 0.0015427336
0.16679448 -0.34679848 -0.19737017 -0.097291373 0.99525255 -0.0025889298 0.00058796781
0.17761287 -0.34537423 -0.19520438 -0.13051623 0.99144626 -1.57175e-05 5.2012674e-06
0.19381747 -0.34324083 -0.19033018 -0.13053882 0.99144322 -2.7685783e-05 4.9699051e-05
0.20372564 -0.34193641 -0.19195351 -0.13049504 0.99144894 -4.1181211e-05 0
0.21787339 -0.34007379 -0.19278949 -0.13180271 0.99127579 -0.00044323658 3.7123886e-05
0.062476091 -0.3371864 -0.19768749 0.24926789 0.96841395 -0.0063163964 0.001921514
0.22732091 -0.33883002 -0.19267839 -0.1882765 0.98153055 -0.033909243 0.00094369985
0.23322815 -0.33805227 -0.19781733 -0.21910584 0.9752028 -0.031179061 0.0016685589
0.25303856 -0.33216467 -0.19503573 -0.31584433 0.94878817 -0.0065831039 0.0010446012
0.024877846 -0.32207242 -0.19389999 0.38268271 0.92387986 3.9596257e-06 0
0.03230571 -0.32514912 -0.1954101 0.38268384 0.92387944 -7.1992345e-06 0
0.042582799 -0.32940602 -0.19289717 0.3787235 0.92550987 0.0001247389 6.1009177e-05
0.25974679 -0.32938606 -0.19668746 -0.36414978 0.93133867 0.0018016467 0.0004379756
0.26378727 -0.32771242 -0.19693041 -0.38183415 0.92423075 0.00045719597 0
0.012471132 -0.31693336 -0.1959849 0.38267797 0.92388177 2.5279802e-05 1.4263301e-06
0.28970698 -0.3169761 -0.19428395 -0.38263565 0.92389929 -7.328041e-07 3.7694532e-05
0.29576445 -0.31446704 -0.19787145 -0.38272285 0.92386323 4.3923377e-05 2.3402787e-05
-0.015960597 -0.30515656 -0.19282472 0.45691895 0.8894847 0.006477077 0.0020521064
-0.0091835801 -0.30796373 -0.19602138 0.39997876 0.91646028 -0.010833262 0.00044390545
0.30968219 -0.30870211 -0.19725403 -0.3920944 0.9199003 0.0067375721 0.00011319223
0.31751043 -0.30545956 -0.19675276 -0.41750583 0.90866017 -0.0050475425 0.00075804576
0.32701173 -0.30101502 -0.19583544 -0.50122958 0.86531383 0.0009802354 0.0023928571
-0.03509225 -0.29306409 -0.19279583 0.58501089 0.81098157 0.0084371315 0.0006821155
-0.051754456 -0.28027874 -0.19181526 0.60876155 0.79335332 -5.7218599e-06 0
-0.044692975 -0.28569722 -0.19659105 0.60577756 0.79563355 0.00089558982 0
0.10380304 -0.28135481 -0.1943808 0.13052461 0.99144506 3.9435014e-05 0
0.1119898 -0.28243262 -0.19149238 0.13052507 0.991445 2.5097454e-05 8.5827418e-07
0.12839453 -0.28459236 -0.19471002 0.13050131 0.99144816 1.3483104e-05 0
0.14222558 -0.28641322 -0.19709912 0.038174465 0.99917632 -0.013758925 0.0015839086
0.16765168 -0.28541321 -0.19034116 -0.10637881 0.9943248 0.0013387416 0.00055776461
0.17650488 -0.28424767 -0.19148593 -0.13050514 0.99144757 8.1812359e-06 0
0.18699192 -0.28286701 -0.19595045 -0.13052262 0.9914453 -2.5001327e-05 0
0.35128659 -0.28238827 -0.1980415 -0.60872275 0.793383 3.7540551e-05 9.1714028e-06
-0.063892201 -0.27096513 -0.19564554 0.60877919 0.79333967 3.0556595e-05 0
-0.058652773 -0.27498546 -0.19257067 0.60876673 0.79334933 2.6680429e-05 0
0.061971173 -0.2716836 -0.19601628 0.34834057 0.93735301 -0.0053208661 0.00066099683
0.074146748 -0.27671441 -0.1956815 0.27250585 0.96208268 -0.011726395 0.0019029797
0.083690397 -0.27870694 -0.19557977 0.19812836 0.98017502 0.0014548433 0.0012261473
0.09235014 -0.27984703 -0.19553497 0.16972022 0.98548549 -0.0036571699 0.00067642261
0.20899931 -0.27996969 -0.19246897 -0.15308625 0.98818928 -0.0068183728 0.00049145008
