# .PCD v0.7 - Point Cloud Data file format
VERSION 0.7
FIELDS x y z normal_x normal_y normal_z curvature
SIZE 4 4 4 4 4 4 4
TYPE F F F F F F F
COUNT 1 1 1 1 1 1 1
WIDTH 646
HEIGHT 1
VIEWPOINT 0 0 0 1 0 0 0
POINTS 646
DATA ascii
-0.44444442 -0.090461724 0.16414523 1 3.7751859e-05 -3.5742341e-05 0
0.11111109 -0.092883438 0.16757214 -1 -9.9678682e-06 -1.4018352e-05 0
0.16666669 -0.098468758 0.16243188 -1 1.914401e-05 -4.2153108e-05 0
-0.5 -0.086830013 0.16289046 1 -0 -0 0
-0.44444448 -0.081303462 0.16168091 1 2.8394195e-05 -6.1342413e-05 0
0.11111109 -0.088142768 0.16026676 -1 -1.3937682e-05 1.952353e-05 4.5550578e-06
0.16666669 -0.089376956 0.16371264 -1 1.197697e-05 -3.4585953e-06 0
-0.44444442 -0.075302221 0.16458721 1 1.8272631e-05 -2.971609e-05 0
0.11111109 -0.073658533 0.16903545 -1 -3.6251261e-06 -1.5711064e-05 0
0.16666669 -0.071236357 0.166242 -1 1.1681244e-05 -2.0628964e-05 0
-0.5 -0.066332504 0.1695924 1 -0 -0 0
0.11111109 -0.062640898 0.1677068 -1 -6.0120692e-06 2.068359e-06 5.0862504e-06
0.16666669 -0.065955587 0.16123253 -1 1.3847126e-05 -1.3594286e-05 0
-0.5 -0.053479597 0.16399308 1 0 0 0
0.11111109 -0.056431979 0.16579331 -1 -3.3156464e-06 1.5676713e-05 0
0.16666669 -0.052049756 0.16578963 -1 1.464301e-05 -5.3996413e-05 0
0.38923082 -0.055555563 0.16717643 -0.58094811 -0.80970806 -0.082898989 0.078650713
0.40059373 -0.055555563 0.16573606 -0.30107442 -0.95324308 -0.026112271 0.071466111
0.41685277 -0.05555556 0.16750032 -1.2386465e-05 1 -8.3915138e-06 0
0.42983809 -0.05555556 0.16177429 8.6373666e-06 1 -5.3639078e-06 0
0.43495223 -0.055555563 0.16653785 -1.0504567e-05 1 -1.4675281e-05 0
0.45428962 -0.055555567 0.16045202 -1.8509691e-05 1 -2.9534811e-05 0
0.46622989 -0.055555563 0.16386867 -1.4699136e-05 1 -1.11749e-05 0
0.47630027 -0.055555563 0.16414891 -0.13737485 0.98985535 0.036257248 0.027929973
0.48990214 -0.055555563 0.16290158 -0.29109827 0.95584768 0.04021069 0.074227266
0.49995992 -0.055555563 0.16952875 -0.69403327 0.71890581 -0.038628612 0.070183277
-0.5 -0.045071319 0.1628703 1 0 0 0
-0.44444442 -0.040361948 0.16000135 1 1.4812716e-05 -3.5012628e-05 0
0.11111109 -0.043480814 0.16477871 -1 -1.8449168e-06 6.8784025e-06 4.0464352e-06
0.5 -0.040139493 0.16166258 -0.95796388 0.28405318 -0.040235683 0.057743326
-0.5 -0.036761865 0.16130708 1 -0 -0 0
0.16666669 -0.030460875 0.16917892 -1 -7.6488886e-06 -3.4581233e-05 0
0.38355637 -0.031374693 0.167943 -0.98404574 -0.17600074 0.026031872 0.025420962
-0.44444442 -0.027784424 0.16366862 1 1.5732958e-05 2.2472657e-06 0
0.38355637 -0.023310771 0.16264805 -1 -1.9457559e-06 3.451345e-05 0
0.5 -0.026212247 0.163247 -1 -0 -0 0
-0.44444442 -0.014001067 0.16239633 1 2.670896e-06 3.7195284e-07 0
0.16666669 -0.010938902 0.16748196 -1 3.6652939e-06 -1.8442182e-05 0
0.38355637 -0.017504986 0.16903315 -1 -1.8648003e-05 6.9491631e-05 0
0.5 -0.013397267 0.16849862 -1 0 0 0
-0.44444442 -0.0024966747 0.16259745 1 4.3559653e-06 8.7546204e-07 0
0.11111109 -0.0078638047 0.16231278 -1 -1.4512997e-06 1.7972925e-05 0
0.16666669 -0.00081300735 0.16571167 -1 2.451161e-06 -1.9700681e-05 0
0.38355637 -0.0045711733 0.16118565 -1 4.2570859e-06 7.5294702e-07 0
0.5 -0.0043419898 0.16159503 -1 -0 -0 0
-0.44444445 0.0051568304 0.16224264 1 -1.0520355e-06 -8.6352088e-08 0
0.11111109 0.001609128 0.16780698 -1 6.7182197e-07 1.9790234e-05 3.5427458e-06
0.38355637 0.0055100406 0.16559109 -1 1.5531672e-06 4.1468058e-05 0
0.5 0.00040122308 0.16040394 -1 0 0 0
-0.5 0.014205426 0.16739391 1 0 0 0
0.11111109 0.016247086 0.16834329 -1 3.9534518e-07 7.142864e-06 3.5654152e-06
0.16666669 0.019787887 0.16453281 -1 -1.9729757e-06 -1.257852e-05 0
-0.5 0.028233292 0.16498882 1 0 0 0
-0.44444445 0.02696266 0.16967419 1 0 0 0
0.16666669 0.025751535 0.1672073 -1 -4.8135053e-06 -3.1072741e-05 0
0.38355637 0.029051399 0.16544168 -0.99677175 0.07402657 -0.031081604 0.014491627
0.5 0.025203345 0.16455851 -1 -0 -0 0
-0.5 0.037057407 0.16572709 1 0 0 0
-0.44444442 0.039458871 0.16564836 1 -2.4684861e-05 -3.2303171e-05 0
0.16666669 0.034842368 0.16418275 -1 4.7769818e-06 -4.3589665e-05 0
0.38355637 0.030141708 0.16124251 -0.99685663 0.074118167 -0.027986329 0.015981507
-0.5 0.0415955 0.16567647 1 0 0 0
0.11111109 0.044730444 0.16539972 -1 4.8547918e-06 2.1622796e-05 4.4517219e-06
0.16666669 0.044979807 0.16651092 -1 -3.3597512e-06 -2.159625e-05 0
0.38355637 0.043812752 0.16469921 -0.97420627 0.20442538 -0.095564201 0.024908321
-0.5 0.053709023 0.16828687 1 0 0 0
-0.44444442 0.055760264 0.16811849 1 -2.6057554e-05 -7.2260977e-05 0
0.11111109 0.051739141 0.16129771 -1 4.1468616e-06 -9.207075e-06 0
0.16666669 0.053550351 0.16534746 -1 -1.01739e-05 -2.6888785e-05 0
0.41915029 0.055555567 0.16497445 -1.3184866e-05 -1 -1.9908648e-06 0
0.42851865 0.055555563 0.16699457 1.9765086e-05 -1 -1.9459596e-06 6.3357624e-07
0.43450034 0.055555563 0.1670858 1.7499144e-05 -1 1.917231e-06 7.281439e-07
0.44503039 0.055555567 0.16360682 -2.232549e-05 -1 -9.0642179e-06 0
0.46484318 0.055555567 0.16120647 -1.8949582e-05 -1 -2.9862006e-06 0
0.48253983 0.055555563 0.16981989 -0.19483809 -0.9759683 -0.097590372 0.033028036
0.5 0.050309468 0.16124624 -0.92197192 -0.38659438 0.022641843 0.070727326
-0.5 0.065039292 0.16794696 1 -0 -0 0
-0.44444448 0.069759279 0.16377477 1 3.0922065e-06 -6.8818801e-05 0
-0.44444448 0.074020676 0.16530196 1 -6.0767958e-05 -0.00011559414 0
0.1111111 0.076052271 0.16357628 -1 1.2896918e-05 1.9510222e-05 6.0641887e-06
0.16666669 0.073834255 0.16040464 -1 -1.6809578e-05 -2.1625805e-05 0
-0.5 0.086916104 0.16927698 1 -0 -0 0
0.11111109 0.090480395 0.16395009 -1 8.8971119e-06 7.6652677e-06 0
-0.44444445 0.10580763 0.16535032 1 -4.8787719e-05 -0.00010869039 0
0.11111109 0.10618531 0.16887447 -1 5.4864272e-06 8.7703501e-07 0
0.16666669 0.10574877 0.16651648 -1 -1.4116396e-06 -2.508027e-05 0
0.11111109 0.11470544 0.16206655 -1 9.0610984e-06 1.4413838e-05 4.0456707e-06
0.16666669 0.11902277 0.16052154 -1 -1.5772534e-05 -4.3481967e-05 0
-0.44444448 0.12100802 0.16695535 1 -5.1035306e-05 -6.5989843e-05 0
-0.44444445 0.13382544 0.16833413 1 -9.0499248e-05 -5.9090464e-05 0
0.16666669 0.13495824 0.16777205 -1 -1.766368e-05 -1.5400808e-05 0
-0.5 0.14573333 0.16353729 1 -0 -0 0
-0.44444448 0.14534798 0.16508847 1 -3.4097124e-05 -4.3824868e-05 0
0.11111109 0.14470604 0.16878988 -1 -0 -0 0
0.16666669 0.14349924 0.16682178 -1 -6.8111021e-06 -2.4217043e-05 0
-0.5 0.15324166 0.16116437 1 -0 -0 0
-0.44444442 0.1583142 0.16816714 1 -2.3338069e-05 -0.00017153878 0
-0.5 0.16870701 0.16228776 1 0 0 0
-0.44444448 0.16335079 0.16589189 1 -0.00012875148 -7.0269023e-05 0
0.16666669 0.16602781 0.16889678 -1 -2.6168927e-05 -1.954859e-05 0
-0.44444448 0.17604223 0.16853184 1 -6.0513405e-05 -2.0305222e-05 0
0.16666669 0.17157477 0.16022229 -1 -2.1616608e-05 -1.8044268e-05 0
-0.5 0.1868239 0.16881742 1 0 0 0
0.11111109 0.18782422 0.16688423 -1 1.8871466e-05 -4.5041502e-06 0
-0.5 0.19570111 0.16180779 1 -0 -0 0
-0.44444448 0.1976442 0.16777986 0.99999976 -0.00070705492 -5.006127e-05 0
0.11111109 0.19301203 0.16346347 -1 2.0963946e-05 -2.017256e-05 0
0.16666669 0.19668946 0.16368389 -0.99999881 -0.0015031546 -0.00031160895 0
-0.5 0.20119178 0.16228548 0.99998158 -0.005931437 -0.0012643203 8.9143839e-05
-0.44444448 0.20526651 0.16690469 0.99996746 -0.0079115061 -0.0015813655 0
-0.44444445 0.21568657 0.16327932 0.99888873 -0.046913236 -0.0045164479 0.00054027291
0.16666669 0.21217148 0.16074236 -0.9999038 -0.013863921 0.00044214778 3.4369681e-05
-0.49966004 0.22904636 0.16108289 0.99737495 -0.072286747 -0.0042186179 0.0013455624
-0.44429734 0.22379179 0.16461046 0.99503261 -0.099294044 -0.0071283872 0.0026460574
0.16660172 0.22317415 0.16477737 -0.99876022 -0.04957334 -0.0045327563 0.00072772079
-0.49942911 0.23368129 0.16292831 0.99194241 -0.12651779 0.0065938472 0.0012096973
-0.44382766 0.23110263 0.16334274 0.98985976 -0.14145614 -0.012957177 0.0039451295
0.10871977 0.23922996 0.16057989 -0.94099247 -0.33837521 -0.0059482288 0.0075146845
0.11008835 0.23328978 0.16493781 -0.9620381 -0.27281523 0.0073915701 0.0044852863
0.16602293 0.23514323 0.16602659 -0.99566793 -0.092051603 -0.013107526 0.00053048908
-0.49822521 0.24245389 0.16667691 0.98252463 -0.18588945 0.009506871 0.00095022313
-0.44099885 0.24244058 0.16424423 0.9474563 -0.31900004 0.023782715 0.0098874569
0.16380122 0.24832958 0.16838738 -0.9724052 -0.23325405 -0.0045582619 0.0030809543
-0.49486792 0.25646445 0.16561848 0.95987219 -0.28027424 0.0095757023 0.0029680324
0.099008285 0.25774664 0.16393718 -0.79431605 -0.60749918 -0.0026124753 0.010526775
0.16330533 0.25100127 0.16705574 -0.97086245 -0.23962219 0.0027053938 0.0032542876
-0.43006951 0.26034489 0.16451219 0.74514508 -0.6668669 0.0068712179 0.0098814527
0.086782895 0.26876625 0.16362081 -0.54342723 -0.83945107 0.0029582947 0.0086613428
0.093606189 0.26346585 0.16634645 -0.69880271 -0.71508873 0.017968504 0.012894164
-0.48623866 0.27704218 0.16249879 0.87523943 -0.48347944 -0.014269335 0.0028109504
-0.40840107 0.27456406 0.1612502 0.37280574 -0.92789871 -0.0044517787 0.0069733039
-0.38770795 0.27776769 0.16064918 0.046811447 -0.99890304 -0.0011698647 0.00080075517
-0.37482631 0.27777776 0.16695131 0.0058565531 -0.99997902 -0.0027606902 6.3883315e-05
-0.35305929 0.27777776 0.1691196 -5.7884274e-05 -1 -3.2100513e-06 1.8090455e-05
-0.34272078 0.27777776 0.16331626 -9.2672533e-05 -1 2.1928319e-05 3.2197309e-05
-0.33695894 0.27777776 0.16657987 -3.3521887e-05 -1 -4.0206751e-06 1.635138e-05
-0.30891213 0.27777776 0.16826501 -2.3781071e-05 -1 1.5286108e-05 3.4077351e-05
-0.29559234 0.27777776 0.16285571 -7.1788076e-05 -1 4.4674194e-05 3.684987e-05
-0.28201574 0.27777776 0.16369036 -0.00012026099 -1 2.1301657e-05 3.8086924e-05
-0.25794989 0.27777776 0.16606484 -7.247879e-05 -1 5.1109553e-05 2.987014e-05
-0.24846733 0.27777776 0.16778532 4.9244514e-05 -1 1.4416353e-05 0
-0.22757153 0.27777779 0.16046746 -2.7102038e-05 -1 1.221555e-05 2.7212103e-05
-0.20496574 0.27777776 0.16280061 -5.9511101e-05 -1 5.3767795e-05 4.324266e-05
-0.19499882 0.27777776 0.16317949 -4.5640165e-05 -1 2.8300232e-05 4.0952804e-05
-0.1847263 0.27777776 0.16336824 -4.37573e-05 -1 3.5034813e-05 3.169513e-05
-0.15429184 0.27777776 0.16667427 -1.6491796e-06 -1 1.7651901e-05 3.3179866e-05
-0.1460239 0.27777776 0.16751483 -1.4768114e-05 -1 -1.9673239e-07 3.3701046e-05
-0.13589236 0.27777776 0.16310242 -1.9998586e-05 -1 -7.6217293e-06 3.8438757e-05
-0.1247711 0.27777776 0.16577604 -1.7325814e-05 -1 4.9311078e-05 2.837393e-05
-0.11821645 0.27777776 0.16885035 -1.1051634e-05 -1 1.4987859e-05 3.0504882e-05
-0.10407135 0.27777776 0.1618889 -1.3778304e-05 -1 7.0372909e-05 4.2714044e-05
-0.097260743 0.27777776 0.16900593 -1.3238807e-05 -1 4.7034646e-05 3.5591424e-05
-0.084595054 0.27777776 0.16854312 1.0686274e-07 -1 1.6773167e-05 3.3256849e-05
-0.070309937 0.27777776 0.16340879 -1.096564e-05 -1 5.4573068e-08 3.4025215e-05
-0.065186538 0.27777776 0.1641276 2.1508031e-06 -1 1.6587039e-05 3.3292257e-05
-0.036316127 0.27777773 0.1624219 -1.2240039e-05 -1 6.0217313e-05 6.0505809e-05
-0.029883822 0.27777776 0.16294283 -2.0920854e-05 -1 4.6761998e-05 6.5620297e-05
-0.010432266 0.27777776 0.16305001 -6.2788281e-06 -1 1.6729478e-05 8.904186e-05
-0.0016655773 0.27777776 0.16382486 -2.6338344e-06 -1 4.7137568e-05 8.2306557e-05
0.057001874 0.27763683 0.16738163 -0.13831566 -0.99034405 0.0093495706 0.0040144301
0.070255026 0.27608085 0.16059269 -0.29076424 -0.95648015 0.024533574 0.0059948494
0.084251538 0.27044204 0.16550387 -0.47188509 -0.88156486 0.012955054 0.011043123
0.15497705 0.27276456 0.16970572 -0.92494971 -0.37947547 -0.021597838 0.00078411604
-0.48125488 0.28487569 0.16373703 0.83774483 -0.54605407 0.0029400762 0.0011830584
-0.476583 0.2915217 0.16793334 0.76528436 -0.64369231 8.8887886e-05 0.0015636072
-0.46989125 0.29920197 0.16371009 0.73673582 -0.67615986 0.0052962652 0.0029307487
-0.4603309 0.30806717 0.16213691 0.64101058 -0.76738662 -0.014939171 0.0020545316
0.12258215 0.3116931 0.168828 -0.56743807 -0.82339811 0.005434576 0.0016782231
-0.44148761 0.32064781 0.16288045 0.47930366 -0.87731051 0.024379015 0.0014513619
0.095468327 0.32633919 0.16701168 -0.32998541 -0.94390184 0.012609036 0.0010237402
-0.40612966 0.33211362 0.16595599 0.11789618 -0.99301392 0.0048829224 0.00066295062
-0.38567188 0.33333334 0.16258848 0.029362073 -0.99956757 -0.0015783276 0.00030678627
-0.37600517 0.33333334 0.16299857 0.0034152125 -0.99999404 0.00039855888 0
-0.36698431 0.33333334 0.1655665 0.0015761593 -0.99999827 -0.00095447467 3.7705064e-05
-0.35953766 0.33333334 0.16045755 -3.1794247e-05 -1 9.7228831e-06 1.7299621e-05
-0.34699258 0.33333334 0.1614611 -3.1549749e-05 -1 8.3071409e-06 5.4465763e-05
-0.32477742 0.33333334 0.16798276 -6.9686968e-05 -1 3.8081507e-05 6.2998268e-05
-0.31793529 0.33333337 0.16975534 -3.497957e-05 -1 1.3409291e-05 4.4858603e-05
-0.27710196 0.33333334 0.16491565 -3.0840984e-05 -1 -1.2763146e-05 3.0249397e-05
-0.24772541 0.33333334 0.16819282 4.4532928e-07 -1 2.8951503e-05 0
-0.21089831 0.33333337 0.16753475 5.3046868e-05 -1 -5.795996e-06 1.7734559e-05
-0.20800972 0.33333334 0.16631323 -4.9600887e-05 -1 3.6903091e-06 6.3648316e-05
-0.17107655 0.33333331 0.16558164 2.211213e-05 -1 1.2499114e-05 0
-0.16430442 0.33333334 0.16412035 1.2581128e-06 -1 2.0754156e-05 0
-0.14778382 0.33333331 0.16804855 4.0872801e-05 -1 -3.78037e-05 0
-0.13253209 0.33333337 0.163588 -2.2704662e-05 -1 2.9647033e-06 3.8907165e-05
-0.12500273 0.33333334 0.16742051 4.2937714e-05 -1 -2.5388605e-05 0
-0.10768126 0.33333334 0.16601294 -5.4678839e-07 -1 2.1492691e-05 0.00013378313
-0.089244157 0.33333334 0.16358273 1.0678171e-05 -1 5.5211425e-05 3.8883543e-05
-0.050912961 0.33333334 0.16252847 1.6272308e-05 -1 -1.5208346e-06 3.5717487e-05
0.0086135417 0.33333334 0.16587961 0 -1 0 5.4173663e-05
0.013242606 0.33333334 0.16609067 -5.0560385e-07 -1 2.9231047e-05 3.2326654e-05
0.020791803 0.33333337 0.16209285 2.1997303e-06 -1 1.7968765e-05 1.6591968e-05
0.036133017 0.33333334 0.16705614 -0.0029380715 -0.99999559 0.00039729718 2.5920108e-05
0.0543308 0.33333331 0.16691709 -0.049421206 -0.99870664 0.011944563 0.00039243879
0.063729882 0.33292606 0.16456845 -0.06802801 -0.99768341 -0.0003407906 0.00092982332
0.076528028 0.33142099 0.16448715 -0.18868142 -0.98201162 -0.0072419029 0.0016848648
0.082117625 0.33038348 0.16415298 -0.23036428 -0.97309768 0.0036227338 0.0022683041
-0.41704351 -0.3300879 0.17344582 0.24275957 0.97006941 0.0057568634 0.0024314413
-0.40287107 -0.33263677 0.17042547 0.11583853 0.99326402 -0.0028453318 0.0017009594
-0.39727074 -0.33291575 0.1783047 0.09270902 0.99567878 -0.0053767986 0.00145847
-0.37662464 -0.33333334 0.17407496 0.012997496 0.99991393 0.0018046582 3.5949601e-05
-0.36731878 -0.33333331 0.17183013 -0.21847498 0.97156495 -0.091269612 0.10905103
-0.35171014 -0.33333337 0.17303368 -0.3431741 0.93811721 -0.046557773 0.20048331
-0.342233 -0.33333334 0.17339016 -0.6046831 0.71358478 -0.35377252 0.23750304
-0.32390004 -0.33333334 0.17087816 0.013163575 0.8411631 -0.54062122 0.21371827
-0.29068226 -0.33333334 0.17567347 -0.093673103 0.98671156 -0.13276161 0.25306523
-0.27975884 -0.33333334 0.17446668 0.42844978 0.79320639 -0.43272901 0.17082521
-0.26839074 -0.33333334 0.17658268 0.28886032 0.69244134 -0.66112387 0.15496874
-0.25536653 -0.33333334 0.17690256 -0.098077357 0.94821495 0.30210796 0.20460194
-0.24496588 -0.33333334 0.17533457 -0.1625665 0.86690944 0.47121143 0.18808632
-0.23919162 -0.33333337 0.17753145 -0.12191558 0.64935887 0.75064611 0.11836121
-0.22333413 -0.33333337 0.17572343 -0.23688239 0.67403996 0.69968349 0.16034812
-0.2066595 -0.33333331 0.17653441 0.33075631 0.87621212 0.35050321 0.19763894
-0.18502471 -0.33333334 0.17049615 0.25215882 0.94116664 0.2249914 0.18487845
-0.17236871 -0.33333334 0.17818828 0.44281098 0.82949489 0.34037715 0.22558054
-0.16313452 -0.33333331 0.17501897 0.10103049 0.9332462 0.34473816 0.2442238
-0.15260363 -0.33333334 0.1744283 -0.047807898 0.93099105 0.36189798 0.1839271
-0.12653318 -0.33333331 0.17750856 0.12418167 0.98237461 0.13971043 0.17733955
-0.11667497 -0.33333334 0.17688894 0.13627636 0.98532754 -0.10275438 0.19795981
-0.1020591 -0.33333334 0.17501688 0.051756401 0.99502891 -0.085080825 0.14331803
-0.086662553 -0.33333334 0.17234093 -0.068023697 0.99752516 -0.017784731 0.19441904
-0.073583342 -0.33333334 0.17160882 -0.28084075 0.95117545 0.12803793 0.18959439
-0.060410995 -0.33333334 0.1729006 -0.30502272 0.85302418 0.42345101 0.20604849
-0.053017959 -0.33333334 0.17648886 -0.28809541 0.88466734 0.36655781 0.20894966
-0.040370531 -0.33333334 0.17241891 0.061141785 0.9816795 0.18046372 0.18699263
-0.023099054 -0.33333334 0.17870075 0.45662829 0.63032985 0.62783343 0.25134265
-0.0068896431 -0.33333337 0.17440428 -0.57736403 0.0051388028 -0.81647068 0.20374145
0.015862314 -0.33333334 0.1745261 0.39460135 0.8902939 -0.22730255 0.18843371
0.024749815 -0.33333334 0.17775424 0.43533495 0.89631218 0.084309906 0.22082318
0.030650578 -0.33333334 0.170095 0.52134591 0.83444375 -0.17861137 0.23154971
0.042043105 -0.33333334 0.17789382 -0.014006989 0.9999004 -0.0017387548 8.1439452e-05
0.05136982 -0.33333334 0.17576014 -0.02087741 0.99978089 0.0015092201 0.00015049741
0.071930103 -0.3322745 0.17668322 -0.11999395 0.99275506 -0.0062397774 0.0020450533
-0.44014215 -0.3212994 0.17099242 0.44550377 0.89527959 0.00089563802 0.0025313327
-0.43543831 -0.32357758 0.17636615 0.43651295 0.89968038 0.0056248899 0.0020974977
0.095130682 -0.32644674 0.17537592 -0.36268383 0.93191212 -0.00060398947 0.0026384383
0.10658558 -0.32140756 0.17506661 -0.49867737 0.86653799 0.020801662 0.0010875043
-0.4529016 -0.31368837 0.17423254 0.58511269 0.81094885 -0.0022538195 0.0014544892
-0.44719961 -0.31746316 0.17716509 0.52118826 0.85334927 -0.012563334 0.002648554
-0.34445003 -0.31063488 0.17463505 0.17073646 0.97509211 -0.14157833 0.22939602
-0.3372083 -0.31113562 0.17594461 -0.0056526461 0.95728797 -0.28908077 0.22228414
-0.32038519 -0.31111112 0.17419533 0.08454559 0.97145414 -0.22165045 0.16771173
-0.31784824 -0.31111112 0.17289042 -0.013999771 0.96330774 -0.26803374 0.17195202
-0.30204749 -0.31111112 0.17969142 -0.10110112 0.9721328 -0.21150981 0.18574521
-0.29492354 -0.31111115 0.17306709 -0.030805623 0.85575956 -0.51645571 0.18410192
-0.28537056 -0.31111112 0.17703497 0.15155602 0.94281548 -0.29686651 0.21934594
-0.27739656 -0.31111109 0.17618397 0.0070601557 0.99180448 -0.12757014 0.18746729
-0.26911789 -0.31111112 0.17889288 0.26607966 0.94385725 0.19579348 0.17627554
-0.25349563 -0.31111109 0.17573684 0.38791236 0.76316267 0.51682359 0.16261625
-0.2432856 -0.31111112 0.17134109 -0.082603715 0.76439232 0.63943803 0.18130389
-0.23222974 -0.31111109 0.17531243 -0.31545645 0.70022273 0.64044935 0.17044324
-0.22364128 -0.31111112 0.17022133 0.12144851 0.91654646 0.3810418 0.17502373
-0.21404402 -0.31111112 0.17187668 0.12035095 0.88197714 0.45566657 0.15382887
-0.18178065 -0.31111112 0.17065087 -0.2763882 0.81847286 0.50369799 0.23542587
-0.17451498 -0.31111112 0.17643459 -0.068920583 0.83142954 0.55133915 0.22169875
-0.16408676 -0.31111112 0.17524213 0.099263191 0.79639184 0.59657931 0.22524388
-0.15229228 -0.31111112 0.17507631 -0.056963891 0.91690177 0.39502689 0.20807345
-0.13535161 -0.31111109 0.17001593 0.26752546 0.85438842 0.4454779 0.21429206
-0.11711004 -0.31111112 0.17000049 0.14488429 0.92749619 0.3446148 0.21408741
-0.080320992 -0.31111112 0.17046723 0.038648039 0.99445289 0.09782517 0.26065734
-0.063045792 -0.31111112 0.17717409 -0.17517829 0.94985777 0.25900343 0.21818508
-0.056768015 -0.31111109 0.17610969 -0.12640001 0.87208074 0.47275597 0.22355329
-0.033977505 -0.31111112 0.17286578 0.044358537 0.9801802 0.19307783 0.20648393
-0.013648041 -0.31111112 0.17221519 -0.15420592 0.98793054 0.014621438 0.18673857
-0.0011290907 -0.31111112 0.17936203 -0.2745626 0.87892526 -0.39000744 0.24621683
0.00047461348 -0.31109956 0.17681342 -0.43649614 0.84823734 -0.29994109 0.21381924
0.11719409 -0.31526011 0.17107457 -0.54971069 0.83535409 0.0013004955 0.0029345341
-0.46869999 -0.30056423 0.17126966 0.68412322 0.72936004 0.0030448427 0.0026582014
-0.45984527 -0.30849186 0.17195725 0.61270612 0.79027218 -0.0078153489 0.0033213601
-0.3562749 -0.30761951 0.17899275 0.57482469 0.81756878 -0.034026805 0.24347115
0.015515794 -0.30934781 0.17713067 -0.36269736 0.71939379 -0.59238768 0.24357729
0.027351059 -0.30502808 0.1716539 -0.61163604 0.78850818 0.064468175 0.097680897
0.13347276 -0.30240485 0.17741483 -0.6763283 0.73657709 -0.005850309 0.0017537178
0.036727764 -0.29922414 0.1772278 -0.5986284 0.80102003 0.0033302691 0.0079624532
0.04231282 -0.29432064 0.17752573 -0.62462294 0.78082108 -0.012830521 0.0063823699
0.13911666 -0.29627591 0.17024645 -0.74594605 0.6659314 0.0099875871 0.0034912457
-0.47958061 -0.28740475 0.17228274 0.78461719 0.61976284 0.016424239 0.0014611263
0.046787784 -0.28938162 0.17053169 -0.66015297 0.75063604 -0.02726857 0.0053139916
0.14654708 -0.2869519 0.17291689 -0.80943692 0.58675987 0.02290692 0.0021326358
-0.48694417 -0.2753948 0.17265195 0.88523769 0.46486214 -0.016046427 0.0018376468
-0.40360343 -0.2760781 0.17719877 0.34248278 0.93945098 -0.011718632 0.0041113375
-0.39773899 -0.27716663 0.1783165 0.37417921 0.92728496 0.011513121 0.0077898791
0.056415498 -0.27766606 0.17096844 -0.51365155 0.85730827 0.034416839 0.016916158
0.064556457 -0.27713865 0.17815414 -0.44610485 0.89486557 0.01435601 0.012572249
0.1541594 -0.27445287 0.17446244 -0.87656271 0.48103315 0.015648287 0.0017072813
-0.42140749 -0.26791149 0.17552415 0.57047993 0.82119614 -0.013766341 0.01013729
0.095417894 -0.26185247 0.17530482 -0.72207111 0.69180125 0.0049259663 0.010280521
-0.49539399 -0.25463903 0.17680979 0.9539538 0.29958048 0.014957064 0.0012056265
-0.43223628 -0.2578671 0.17139138 0.78901994 0.61428845 -0.0098604402 0.013272593
0.16138262 -0.25692719 0.17134164 -0.95250577 0.3043465 0.010294965 0.0018310741
-0.43763754 -0.24993767 0.17667744 0.88629574 0.46289864 0.014310244 0.0081902267
0.10468185 -0.24915794 0.17471153 -0.89756674 0.44046441 -0.019106181 0.011812074
0.16451156 -0.24450257 0.17544702 -0.98126334 0.19265163 -0.0027571882 0.0017569776
-0.44265646 -0.23733446 0.17742537 0.95593846 0.29350036 0.0062615066 0.0077628619
-0.49986684 -0.22489485 0.17887822 0.99920744 0.039656654 0.0034629635 0.00023926589
-0.4440563 -0.22863051 0.17174387 0.9907282 0.13585213 0.0013455794 0.0049431324
0.11093462 -0.22438166 0.17366184 -0.99231774 0.12370812 -0.0013710328 0.0024842299
0.16659251 -0.22371109 0.17664951 -0.99866164 0.051673289 0.0021968712 0.00044825603
-0.5 -0.2147508 0.17294122 0.99976265 0.021783415 -0.00021058164 9.0845693e-05
-0.44444445 -0.21375705 0.17256664 0.9994064 0.034231286 -0.0038751941 0.00012356103
0.11111109 -0.21892041 0.17074336 -0.99792445 0.064313263 0.0032469395 0.0012160167
-0.44444442 -0.20130616 0.17676897 0.9999938 0.0034928236 0.00052460621 0
0.11111109 -0.20481569 0.17406879 -0.99999881 0.0014884077 0.00027247425 7.4779477e-06
0.16666669 -0.20842078 0.17184445 -0.99999535 0.002940743 -0.00076086936 0
-0.5 -0.19984464 0.17416289 0.99999952 0.00086566596 -0.00035629616 7.1116279e-05
-0.44444448 -0.19532473 0.17235316 1 7.2114208e-06 -9.2178125e-05 0
0.11111109 -0.19417043 0.17914173 -1 2.7492274e-06 1.8432578e-05 4.4363933e-06
-0.5 -0.18382134 0.17423743 1 0 0 0
-0.44444442 -0.18303224 0.17430487 1 -5.6766758e-06 -0.00010470717 0
0.11111109 -0.18218452 0.17159504 -1 -1.0519215e-05 1.7772762e-05 0
0.16666669 -0.18583122 0.17383432 -1 1.6696906e-05 -3.428249e-05 0
-0.44444445 -0.17338134 0.17365685 0.99999988 -7.0759328e-05 -0.00022289001 0
0.11111109 -0.17702101 0.17983678 -1 -6.4286598e-07 1.0331998e-05 4.789691e-06
0.16666669 -0.17382924 0.1759872 -1 1.1464083e-05 -1.5597883e-05 0
-0.5 -0.1665723 0.17828329 1 0 0 0
-0.44444448 -0.16872661 0.17079644 1 9.8749697e-05 2.0870584e-06 0
0.11111109 -0.1657324 0.17477168 -1 4.5689876e-06 3.4117435e-05 4.3917435e-06
0.16666669 -0.16017316 0.17214976 -1 1.8066927e-05 -2.611301e-05 0
0.11111109 -0.15770549 0.17320058 -1 -1.6136291e-05 7.6542947e-06 5.0480012e-06
0.11111109 -0.14474867 0.17284167 -1 0 0 0
-0.5 -0.13285574 0.17414361 1 0 0 0
-0.44444445 -0.12643129 0.1730753 1 3.6858517e-05 2.785003e-05 9.0047601e-05
-0.5 -0.11695455 0.17683816 1 -0 -0 0
0.11111109 -0.11467434 0.1739271 -1 -4.2083034e-06 1.4453119e-05 0
-0.5 -0.10349375 0.1729807 1 0 0 0
0.16666669 -0.10364014 0.17852491 -1 2.7138816e-05 -3.4569588e-05 0
-0.5 -0.095840335 0.17997164 1 0 0 0
0.11111109 -0.099112026 0.17456116 -1 -1.7673754e-05 1.6056707e-05 0
-0.44444448 -0.084849447 0.17399682 1 9.1096597e-05 -1.1466599e-05 0
-0.5 -0.07839191 0.17499045 1 0 0 0
-0.44444448 -0.075886771 0.17568609 1 3.5298668e-05 -5.7770485e-05 0
0.11111109 -0.076632529 0.17895696 -1 -4.2368342e-06 -4.2418922e-08 4.2001484e-06
0.16666669 -0.074978687 0.17445895 -1 7.6570441e-06 -3.7134323e-05 0
-0.5 -0.061257035 0.17700979 1 -0 -0 0
0.11111108 -0.06318152 0.17334501 -1 -6.3105695e-06 1.6269819e-06 4.7709318e-06
-0.5 -0.052287564 0.176807 1 -0 -0 0
-0.44444445 -0.05192697 0.17295152 1 -1.2590553e-07 -7.4160052e-05 0
0.38912436 -0.055555563 0.17280263 -0.55723375 -0.82780504 -0.065032758 0.090692647
0.39515746 -0.055555567 0.17317064 -0.42211837 -0.9034065 -0.075317524 0.06222954
0.40265664 -0.05555556 0.17974076 0.040157292 0.99915648 -0.0085863248 0.0020751473
0.41184661 -0.055555563 0.17788233 0.016895855 0.99983144 -0.0071911258 0.0012997058
0.42644468 -0.05555556 0.17251499 -1.027872e-05 1 -5.3086155e-06 6.0947986e-07
0.43514863 -0.055555567 0.17223041 -2.3125367e-05 1 -2.6378575e-06 0
0.44080079 -0.055555567 0.17565849 -1.2105e-06 1 -4.2652296e-06 0
0.47621614 -0.055555563 0.17533655 -6.8294853e-06 1 -8.167819e-06 0
0.48559445 -0.055555563 0.17239186 -0.34061262 0.93922228 -0.042948417 0.055321351
0.49850601 -0.055555563 0.17469792 -0.60333908 0.79194307 -0.09385176 0.071759894
-0.5 -0.046732407 0.17420296 1 -0 -0 0
-0.44444445 -0.049641792 0.1717106 1 -0 -0 3.3138676e-05
0.16666669 -0.042294268 0.17872249 -1 1.4389494e-07 -7.7483373e-06 0
0.11111109 -0.037542701 0.17109503 -1 -7.7034456e-06 6.9510302e-06 4.2386669e-06
-0.5 -0.022977289 0.17316131 1 0 0 0
-0.44444448 -0.025981903 0.17653406 1 3.4589782e-05 -0.00016053296 0
0.11111109 -0.026323047 0.17321005 -1 -2.4543385e-06 -6.5858174e-08 3.7339225e-06
0.16666669 -0.026319232 0.17266428 -1 -2.6423331e-06 -3.193954e-05 0
0.38355637 -0.026975583 0.17299506 -0.99773109 -0.066953734 0.0070572607 0.0038306429
-0.44444445 -0.016546322 0.17052691 1 -1.3541578e-05 -9.5898366e-05 0
0.38355637 -0.012591688 0.17528746 -1 3.8853937e-06 -6.2278406e-05 0
-0.5 -0.0061326101 0.17440572 1 -0 -0 0
0.11111109 -0.0040937718 0.17475536 -1 0 0 0
0.16666669 -0.0026975581 0.17547739 -1 2.0342432e-06 -5.1527841e-05 0
-0.5 0.0010172874 0.17745395 1 -0 -0 0
-0.44444445 0.0071738521 0.17443755 1 -5.7085924e-07 1.3467701e-08 0
0.5 0.0055120382 0.17138843 -1 -0 -0 0
-0.5 0.018818425 0.17169043 1 0 0 0
0.11111108 0.018087925 0.1778651 -1 4.5403667e-06 1.9976414e-05 4.146606e-06
0.38355637 0.015407426 0.17940736 -1 2.2768975e-06 -5.6497342e-05 0
0.5 0.01331403 0.17037223 -1 -0 -0 0
-0.5 0.025596302 0.17516622 1 0 0 0
0.11111109 0.029933335 0.17596863 -1 2.0292925e-06 8.1062362e-06 4.1122685e-06
0.16666669 0.026877634 0.17360502 -1 -9.6061385e-06 -3.003814e-05 0
0.5 0.024311412 0.17386433 -1 -0 -0 0
-0.5 0.039903842 0.1796402 1 0 0 0
-0.44444442 0.036402006 0.174307 1 -1.7615204e-05 2.9027247e-05 0
0.11111109 0.032063797 0.17943352 -1 5.7721645e-06 9.3476028e-06 4.7471949e-06
0.16666669 0.037232354 0.1710057 -1 -1.0414673e-05 -3.0760097e-05 0
0.38355634 0.039090294 0.17116189 -0.98119408 0.19298249 0.0039989762 0.038579684
0.5 0.038926926 0.17914145 -0.96612859 -0.25800321 0.0054654167 0.056268252
-0.5 0.048121899 0.17650759 1 0 0 0
0.11111109 0.045353316 0.17864309 -1 3.1885832e-06 8.4285321e-06 1.995312e-06
0.16666669 0.043129854 0.17636734 -1 1.2586246e-06 -6.3019412e-05 0
0.38355637 0.043586347 0.17912766 -0.9719581 0.23329639 -0.029497957 0.048329081
0.5 0.04840428 0.17654623 -0.92836708 -0.36830199 0.049882278 0.071147166
0.11111109 0.057052344 0.17678657 -1 -2.2671143e-06 1.3740738e-07 0
0.38355637 0.052278157 0.17365356 -0.91959906 0.39241037 -0.018752279 0.067959979
0.43060422 0.055555567 0.17994168 -1.9499817e-05 -1 -1.0558563e-05 0
0.46285605 0.05555556 0.17700122 -2.4138935e-05 -1 -1.951107e-05 0
0.48310062 0.055555567 0.1714624 -0.20059778 -0.97213423 -0.1213081 0.036691852
0.4968304 0.055555563 0.1743829 -0.70793438 -0.70585644 -0.0244023 0.092648067
0.5 0.051044013 0.17499092 -0.92987865 -0.36594519 0.037548434 0.080223761
-0.44444448 0.068104126 0.1757361 1 -4.4580414e-05 -7.2192182e-05 0
0.11111109 0.066884622 0.17870793 -1 -2.0194477e-06 1.2034269e-08 0
0.16666669 0.060536548 0.17812581 -1 -1.1831465e-05 -2.5922142e-05 0
0.11111109 0.072986327 0.17215858 -1 -7.1183217e-06 9.2310802e-06 0
-0.44444448 0.087397151 0.17177802 1 -2.248732e-05 -6.0396549e-05 0
0.16666669 0.083021522 0.1733972 -1 -2.5644107e-05 -5.3181244e-05 0
-0.5 0.093255773 0.17430909 1 0 0 0
-0.44444445 0.092862695 0.17322823 1 -1.9907073e-05 -4.1406962e-05 0
0.11111109 0.095102169 0.17521939 -1 1.1177237e-06 2.2961583e-05 5.1081934e-06
0.16666669 0.09933506 0.17685549 -1 -5.7269888e-05 -3.5565361e-05 0
-0.5 0.10611161 0.17139952 1 -0 -0 0
-0.44444445 0.10862079 0.17488636 1 -3.2887558e-05 -3.6312445e-05 0
0.11111109 0.10367863 0.17610419 -1 5.9949248e-06 -6.8914933e-06 4.3615401e-06
0.16666669 0.10281265 0.17562082 -1 -4.0905605e-05 -5.1428593e-05 0
-0.5 0.1132083 0.17213857 1 0 0 0
-0.44444451 0.11416885 0.1717058 1 -2.9235896e-05 -0.00013943642 0
0.16666669 0.11746606 0.17975456 -1 4.8401444e-07 -1.2156021e-05 0
-0.44444442 0.12445351 0.17659608 1 -6.4861197e-05 -3.3749329e-05 0
-0.5 0.1313439 0.17968334 1 -0 -0 0
-0.44444445 0.13212708 0.1747781 1 -3.8786904e-05 -4.504175e-05 0
-0.5 0.1438798 0.17357107 1 -0 -0 0
-0.44444448 0.14402635 0.17362857 1 -9.6883989e-05 -1.435802e-05 0
0.11111109 0.14026573 0.17192459 -1 1.4299338e-05 -1.6385482e-06 0
0.11111109 0.15059581 0.17632495 -1 7.624627e-06 5.8480005e-06 0
0.16666669 0.15245715 0.17532054 -1 -2.7694357e-05 -2.1646812e-05 0
-0.44444445 0.16227737 0.17663886 1 -4.4930424e-05 -8.2384395e-05 0
0.16666669 0.16430002 0.17355616 -1 -2.3306147e-05 -4.8671776e-05 0
-0.5 0.17428501 0.17720205 1 0 0 0
-0.44444442 0.17707917 0.17093298 1 -3.5576468e-05 -0.00014058006 0
-0.44444445 0.18328504 0.17299125 1 -7.0816859e-06 -0.0001360055 0
0.11111108 0.18671517 0.17704637 -1 3.0602983e-05 8.3787691e-06 0
-0.5 0.19873735 0.17509945 0.99999452 -0.0032700351 -0.00047878982 3.3036224e-05
-0.44444445 0.19535726 0.17209715 0.99999952 -0.00088859425 0.00019774203 0
0.11111109 0.19765005 0.17010748 -0.9999907 -0.0043002791 0.00017256261 4.2023635e-06
-0.44444448 0.20413503 0.17749107 0.99997628 -0.0068809781 0.00028324485 0
0.16666669 0.20486139 0.17641057 -0.9999848 -0.0053732782 -0.0012324679 5.1942493e-06
-0.44444445 0.21367665 0.1757607 0.99939442 -0.03338173 -0.0098193176 0.00033686415
0.11111109 0.21958038 0.17981929 -0.99626136 -0.086174548 -0.0061061764 0.0030590575
0.16666669 0.21360134 0.17662007 -0.99980807 -0.019588035 -2.8005868e-05 0.00013465885
-0.49971434 0.22795641 0.17568849 0.99825573 -0.059007872 0.0018979859 0.00093688222
0.11082774 0.22652672 0.17072049 -0.99483711 -0.10139661 -0.0042140391 0.002807962
0.1665096 0.22537521 0.17201978 -0.99834454 -0.057492062 0.001662872 0.00058205362
-0.44353512 0.23267868 0.17278761 0.99103254 -0.13337548 0.0080877421 0.0029920859
0.11035629 0.23184626 0.17380889 -0.95969087 -0.27841032 -0.038484689 0.0042862375
-0.49781889 0.24464281 0.17969334 0.98203212 -0.18866907 0.0041099973 0.0014248816
-0.43944538 0.24620494 0.17960291 0.90459228 -0.426254 -0.0045134444 0.0052372734
0.10548849 0.24749243 0.17649108 -0.92256391 -0.38294691 -0.047195494 0.0069127646
0.16511099 0.24127322 0.17488664 -0.99031514 -0.13883698 -0.00048377606 0.0020608746
-0.4961291 0.25262371 0.17635553 0.96249104 -0.27074817 0.017503485 0.002810674
-0.43681151 0.25136262 0.17696828 0.8648048 -0.50210738 0.00097325869 0.0064467648
-0.49166495 0.26561445 0.17495228 0.92328155 -0.38412216 0.0011837581 0.0022186979
-0.42912668 0.26142311 0.17837568 0.74659401 -0.66501534 0.018763537 0.0086018378
-0.41849765 0.26983777 0.1736434 0.5171231 -0.85582244 0.012314911 0.011018198
0.15881681 0.26474094 0.17054303 -0.93898952 -0.3434535 -0.018399261 0.0010072623
-0.4854666 0.27851367 0.1736196 0.87426472 -0.48531172 0.011562407 0.0026568852
-0.39392158 0.2774581 0.17215659 0.11689369 -0.9929052 -0.021798145 0.0043439106
-0.38128662 0.27777776 0.1771421 0.016028654 -0.99987012 -0.0017232596 0.00022549559
-0.37060046 0.27777776 0.17381603 0.0047921669 -0.99998814 -0.00090979604 2.3799877e-05
-0.36460882 0.27777776 0.176828 0.0022626303 -0.99999744 -4.0454754e-05 2.9776378e-05
-0.32670468 0.27777776 0.17599727 -7.3851916e-05 -1 4.7910766e-05 3.6001307e-05
-0.29732871 0.27777776 0.17489733 -3.300059e-05 -1 5.3091102e-05 2.8873479e-05
-0.2720046 0.27777776 0.17346482 -6.390956e-05 -1 -3.8528747e-06 3.079182e-05
-0.22974935 0.27777776 0.17476687 -6.3632724e-05 -1 4.8272763e-05 3.2199434e-05
-0.21146163 0.27777776 0.17684701 -4.7121499e-05 -1 1.9267945e-05 3.3200657e-05
-0.19435842 0.27777776 0.17678086 -3.4220418e-05 -1 -3.9284856e-07 3.5025238e-05
-0.18869805 0.27777776 0.17572215 -4.1599618e-05 -1 5.7958645e-05 4.7091835e-05
-0.17454726 0.27777776 0.17517485 -1.524909e-05 -1 1.8650284e-05 1.5360971e-05
-0.15729545 0.27777776 0.17422077 -1.7052993e-05 -1 2.2459296e-06 3.4914498e-05
-0.14653021 0.27777776 0.17835547 -2.6999702e-05 -1 3.1461914e-05 3.2094878e-05
-0.10298423 0.27777776 0.17429988 0 -1 0 3.904324e-05
-0.081577271 0.27777776 0.17665559 -1.4364108e-05 -1 -1.8617126e-05 3.5078407e-05
-0.066963837 0.27777776 0.17528182 -2.5361098e-06 -1 4.6816338e-05 1.8566774e-05
-0.048433598 0.27777776 0.17135778 -3.8732492e-06 -1 4.0175524e-05 3.7007434e-05
-0.03196533 0.27777776 0.17832686 1.233871e-05 -1 5.128482e-05 3.5311987e-05
-0.022519819 0.27777776 0.17465776 -2.0478772e-06 -1 2.0063559e-05 3.958181e-05
-0.015542544 0.27777776 0.17232153 -1.245868e-05 -1 7.3733681e-05 9.4163464e-05
-0.0096696038 0.27777776 0.17587718 -4.3079676e-06 -1 4.0124545e-05 3.8610204e-05
0.0075726025 0.27777779 0.17470317 -5.4088582e-06 -1 3.4751753e-05 1.7985591e-05
0.010644427 0.27777776 0.17893299 -1.342503e-06 -1 2.1143871e-05 3.3718086e-05
0.022764862 0.27777773 0.17663971 3.8158623e-06 -1 2.025178e-05 3.6325109e-05
0.038228977 0.27777776 0.1740786 -0.010147552 -0.99994832 0.00058861997 0.00016041573
0.042366844 0.27777776 0.1733014 -0.01650811 -0.99986356 -0.00057387823 0.00023331106
0.056760296 0.27764884 0.17994614 -0.11513086 -0.99333596 -0.0053465264 0.0038767059
0.067032009 0.2766791 0.17631225 -0.18260063 -0.98261446 0.033554167 0.0046811602
0.074408099 0.27478066 0.17127755 -0.31716549 -0.94815958 0.019988848 0.0064141145
0.082450509 0.27136827 0.17645715 -0.44777721 -0.89338005 -0.036980603 0.010437666
0.15396154 0.27479345 0.176606 -0.89336503 -0.44920343 -0.010735249 0.0037727659
-0.47805238 0.28971308 0.17175139 0.79545897 -0.60599428 -0.0039989376 0.0028140666
-0.474471 0.29396477 0.17790371 0.75014549 -0.66125417 -0.0049543441 0.0020204715
0.13745761 0.29817316 0.1785313 -0.74149334 -0.67089498 -0.0093480572 0.0028380591
-0.46331638 0.30545646 0.17698114 0.66648823 -0.74550331 0.0042559728 0.0020821025
0.133017 0.3028034 0.17752416 -0.69975084 -0.71416724 -0.017718729 0.0018063504
-0.45292336 0.31367397 0.17469755 0.58513051 -0.81092864 -0.0041199313 0.0024756924
0.12422316 0.31049323 0.17541695 -0.58493507 -0.8110801 0.00027432648 0.0018283648
-0.44168729 0.3205511 0.17501712 0.47709373 -0.8788051 -0.0091243051 0.0026014815
-0.43533492 0.32362765 0.17712383 0.38796371 -0.92165202 -0.006462181 0.0025036891
0.08472091 0.32986832 0.17600435 -0.23572998 -0.97181499 0.0026479792 0.0015960233
0.097970724 0.32551748 0.17777948 -0.38369393 -0.92344087 0.0060070395 0.0027428346
0.10347865 0.32291228 0.17937897 -0.42552474 -0.90494519 -0.0016969489 0.0015690065
-0.41472733 0.3305178 0.17925641 0.21974966 -0.97554559 -0.0045827962 0.003351548
-0.40448514 0.33221117 0.17363711 0.11305805 -0.99358833 -0.00031381642 0.00064099691
-0.39436609 0.33306044 0.17513454 0.05515299 -0.9984712 -0.0036505843 0.00043371131
-0.38782176 0.33331811 0.17163843 0.044299252 -0.99900377 -0.0053832731 0.00053200615
-0.37115371 0.33333334 0.17721139 0.0017181367 -0.99999851 0.00025274436 0
-0.36019337 0.33333334 0.17640615 0.0002326715 -1 -4.9455444e-05 0
-0.35402071 0.33333337 0.17669401 0.00012463571 -1 -7.8153142e-05 0
-0.34080145 0.33333334 0.17582932 0.00014136361 -1 -8.8429362e-05 1.8643919e-05
-0.33454981 0.33333337 0.17547941 3.9751099e-05 -1 -4.6325811e-05 1.9010173e-05
-0.27712148 0.33333334 0.17323071 0 -1 0 0
-0.25692642 0.33333334 0.17614326 -3.6478483e-05 -1 1.623246e-05 1.6502509e-05
-0.24874656 0.33333334 0.17429674 5.7613055e-05 -1 2.4459172e-07 1.4230191e-05
-0.22500622 0.33333334 0.17612182 -2.9353391e-06 -1 -3.2662309e-05 3.3532779e-05
-0.16551253 0.33333331 0.17485207 -4.5973129e-06 -1 2.6706912e-05 1.887578e-05
-0.1454121 0.33333334 0.17144704 0.00010170264 -1 -8.3178995e-05 0
-0.1399058 0.33333337 0.17251977 6.9383415e-05 -1 -3.4797125e-05 0
-0.12422033 0.33333334 0.17584497 9.8072235e-07 -1 5.5342618e-05 1.80268e-05
-0.089543678 0.33333331 0.17361231 -3.9904312e-06 -1 3.5113168e-05 0
-0.058176354 0.33333334 0.17311709 -1.8780189e-05 -1 1.5399839e-05 7.0283699e-05
-0.037083149 0.33333334 0.17267424 -1.4176992e-05 -1 -1.4554063e-05 3.4733235e-05
-0.026107917 0.33333334 0.17712909 7.6565202e-06 -1 -4.2235366e-05 1.6312262e-05
-0.012506509 0.33333337 0.1743952 -4.4758963e-06 -1 -4.6799239e-05 1.4103739e-05
-0.0024474654 0.33333331 0.17170842 -1.2355808e-06 -1 3.539164e-05 3.190419e-05
0.018793436 0.33333334 0.1749748 2.093409e-06 -1 -2.2079811e-07 1.8132723e-05
-0.39092243 -0.33323202 0.18559559 0.043985993 0.99902332 -0.0041839792 0.00061386451
-0.37792671 -0.33333334 0.18380421 0.013783999 0.99990475 -0.00066148426 0
-0.36397988 -0.33333334 0.18032354 -0.35628197 0.93215042 0.064489022 0.15870041
-0.33324623 -0.33333331 0.18427265 -0.5392161 0.80163139 -0.25813386 0.21211274
-0.29745436 -0.33333334 0.18880349 -0.76795012 0.59038812 -0.24838376 0.19436245
-0.2655341 -0.33333334 0.18609095 0.41246355 0.7983132 -0.43882775 0.18722975
-0.25414479 -0.33333334 0.18177047 -0.10962657 0.95710868 0.2681883 0.18219294
-0.24307629 -0.33333334 0.1848363 -0.025048446 0.92696971 0.37429893 0.14043339
-0.22780898 -0.33333334 0.18541536 -0.27032635 0.92800653 0.25637379 0.15088043
-0.21502119 -0.33333334 0.1895209 -0.39604813 0.9003579 0.18028215 0.23177025
-0.17027473 -0.33333334 0.18662333 0.34751749 0.92219269 0.16968283 0.22170766
-0.16994092 -0.33333334 0.18219276 0.29547459 0.94226444 0.1575831 0.23107941
-0.15862432 -0.33333334 0.18764319 0.18910336 0.96399742 0.18694647 0.14834687
-0.14344069 -0.33333334 0.18859057 -0.066297174 0.99375272 -0.089779414 0.16925754
-0.13152085 -0.33333334 0.18000244 0.084813289 0.99368602 0.073449329 0.20066251
-0.12009286 -0.33333334 0.1863068 0.15733053 0.9821946 -0.10266843 0.22523825
-0.11827774 -0.33333337 0.18702891 0.076500423 0.99486399 0.066282235 0.22157688
-0.10279875 -0.33333334 0.18061757 0.0051382063 0.95920098 -0.28267866 0.14803366
-0.094967902 -0.33333334 0.18670964 0.067246936 0.92486072 -0.37431327 0.16413587
-0.083516568 -0.33333331 0.18320885 0.0092685008 0.99530602 -0.096332557 0.16571866
-0.076210827 -0.33333334 0.1841819 -0.14655228 0.98411858 -0.10016577 0.20744975
-0.067180313 -0.33333334 0.18561016 0.31353077 0.94946826 0.014442327 0.21871307
-0.058346372 -0.33333334 0.18666101 -0.098082945 0.992477 0.073274612 0.22339229
-0.040340081 -0.33333334 0.18772027 -0.052184824 0.97904873 0.19682586 0.17422302
-0.036491033 -0.33333334 0.18504506 -0.19809082 0.97013807 0.13997206 0.19676939
-0.021492209 -0.33333334 0.1804307 0.11024894 0.92328745 0.36794773 0.2136732
-0.015430018 -0.33333334 0.18525678 -0.37484989 0.88183808 0.28609282 0.16571391
0.025411969 -0.33333334 0.18450253 0.19492701 0.98055047 -0.022896068 0.21463059
0.033538666 -0.33333334 0.18281934 0.30171746 0.95255619 -0.04004186 0.14447503
0.065464035 -0.33283973 0.18049183 -0.057250921 0.99833 0.0077284495 0.00042156331
-0.44013435 -0.32130322 0.18351658 0.45294133 0.89151114 0.0072168363 0.0016983538
-0.4249056 -0.32761857 0.18747221 0.29669896 0.95496845 0.0022333525 0.0022917925
0.10626085 -0.32156479 0.18843226 -0.47165161 0.88174081 -0.0088287145 0.0014340077
-0.45525908 -0.31212765 0.18377568 0.58772594 0.8088662 -0.017714512 0.0017449227
-0.44642547 -0.31797564 0.18922777 0.53061771 0.84734201 -0.021362841 0.0025477814
-0.34462395 -0.31065488 0.18354906 -0.27405536 0.96160102 -0.01473327 0.22726069
-0.3320888 -0.31111115 0.18507271 0.19729227 0.97186786 0.12864146 0.19372195
-0.3173933 -0.31111112 0.18541579 -0.0473282 0.96640545 0.25262737 0.15397237
-0.29521048 -0.31111109 0.18573004 0.1669538 0.98368514 0.067007452 0.13642278
-0.28307125 -0.31111112 0.18027762 0.1714825 0.96136141 -0.2153556 0.19645181
-0.25165543 -0.31111112 0.1801894 0.23185977 0.68272197 0.69291538 0.19352615
-0.22380359 -0.31111112 0.1835653 -0.015975654 0.91378528 0.40588322 0.21674451
-0.21309 -0.31111112 0.18132202 -0.45759395 0.87539452 0.15585956 0.22357793
-0.18043032 -0.31111112 0.18094365 0.08905644 0.98061025 0.17456353 0.22354095
-0.17545184 -0.31111109 0.18882719 0.80265886 0.38903034 0.45209974 0.14899668
-0.16096947 -0.31111112 0.18010187 -0.076291524 0.777861 0.6237883 0.24070655
-0.13535255 -0.31111112 0.18169215 0.024439814 0.91094911 0.41179404 0.22347322
-0.12430515 -0.31111112 0.18526651 -0.49141097 0.67239118 0.55353892 0.23579518
-0.11014378 -0.31111112 0.18953398 0.24233633 0.67671764 -0.69521689 0.22149578
-0.10166557 -0.31111112 0.18867236 -0.32503232 0.93329591 -0.15268512 0.23868944
-0.086434759 -0.31111109 0.18990815 -0.24996106 0.93833017 -0.23886393 0.21178272
-0.079206251 -0.31111112 0.18284419 -0.41706496 0.84653848 0.3308011 0.24639502
-0.061746087 -0.31111112 0.18857741 0.093036264 0.78043085 0.61828154 0.22570828
-0.046035804 -0.31111112 0.1800269 -0.22563463 0.81748837 0.52990729 0.19151638
-0.036976799 -0.31111112 0.18300883 0.021928271 0.92586392 0.37722042 0.20425808
-0.017185232 -0.31111112 0.18197069 -0.20920837 0.82547045 0.52424258 0.24125215
-0.0012584924 -0.31111112 0.18062073 -0.19498061 0.88334256 -0.4262493 0.22128424
0.11394922 -0.31736168 0.18808115 -0.53870648 0.84246546 0.0068804123 0.0019335708
-0.46495676 -0.30387124 0.18379031 0.67293894 0.73969758 0.00084948423 0.0015643348
-0.36523598 -0.30326682 0.18881555 0.52778876 0.84896296 0.026474195 0.0086211208
-0.35431972 -0.30830014 0.18211624 0.75172955 0.62658769 0.20564669 0.1943586
0.017062545 -0.30886191 0.18420267 -0.58429933 0.78712463 -0.19755791 0.22126181
0.021123886 -0.30765471 0.18182428 -0.41353413 0.63332534 -0.65413189 0.21939561
0.033545893 -0.30141181 0.18119882 -0.58082455 0.81399703 0.0071903258 0.0082872109
0.12625493 -0.30871657 0.18863888 -0.64279884 0.76603484 -0.0005699927 0.0019941553
0.13578561 -0.30008519 0.18835121 -0.70218194 0.71164566 -0.022383144 0.0025723851
-0.4695453 -0.29959762 0.18731926 0.70472264 0.70947361 0.0036358468 0.0017254088
0.043122172 -0.29332137 0.186315 -0.65806758 0.75259769 -0.023318212 0.0060784998
0.14119139 -0.29390335 0.18501791 -0.76948744 0.63863581 0.0057722828 0.0015306796
-0.38367033 -0.28452307 0.18514681 0.60228163 0.79822195 -0.0099278186 0.016707363
0.051524639 -0.28271881 0.18079382 -0.5930559 0.80492949 -0.019317655 0.012860896
-0.40322089 -0.27614912 0.18098924 0.34046704 0.94024915 -0.0037163708 0.0039020507
-0.39481524 -0.27741367 0.18582244 0.40433526 0.91434413 0.022084424 0.012589476
0.075687446 -0.27436057 0.18560179 -0.38655424 0.9222666 -0.00041064472 0.0058952481
-0.4933902 -0.2609646 0.18721026 0.95424074 0.2988036 0.011876943 0.0012407214
-0.42344576 -0.26634377 0.18773693 0.57617062 0.817321 -0.0037306091 0.0080165854
0.086009018 -0.26927862 0.18209153 -0.59229553 0.80535644 0.024227737 0.0092477854
0.096776292 -0.26029909 0.18839099 -0.73948795 0.67222685 0.035616949 0.013402789
0.15744486 -0.26766917 0.18939027 -0.92144018 0.38850573 -0.003341537 0.0025419511
-0.49500591 -0.25604412 0.1860003 0.95556551 0.29464564 0.0088628493 0.001017365
0.10175077 -0.25397652 0.1868054 -0.80649036 0.59117436 0.0092784502 0.0058637131
0.16513103 -0.24116519 0.18977171 -0.98565179 0.16705672 -0.024137335 0.0028775118
-0.49873677 -0.23969798 0.18040009 0.99086249 0.13487291 0.00098067848 0.0016516269
-0.44317523 -0.2346177 0.18542479 0.96292335 0.26964587 0.0083492054 0.006733147
0.10924752 -0.23762275 0.18293452 -0.95124525 0.30843499 -0.0005336334 0.0088963388
0.16571912 -0.23799686 0.18463209 -0.98993695 0.14147286 0.0031997233 0.0022391512
-0.49996662 -0.22289212 0.1879188 0.99940276 0.034552004 -0.00060439517 0.00032721
0.16641903 -0.22719301 0.18295115 -0.99847639 0.055175342 -0.00084537052 0.00038447339
-0.44444445 -0.21652561 0.18984282 0.99946058 0.032842312 0.00016182993 8.5409862e-05
0.11111109 -0.21521387 0.18024911 -0.99927026 0.038173918 0.0013082235 0.00052949146
0.16666669 -0.21984327 0.18995519 -0.99913156 0.041602712 -0.0022941728 0.0003929105
-0.44444445 -0.20432635 0.1840598 0.99996066 0.0088674165 0.00031207647 2.4797402e-05
-0.5 -0.19511956 0.18256465 1 0.00017983161 1.4021836e-05 3.1938016e-05
-0.44444442 -0.19700368 0.18510728 1 -4.0906252e-06 -7.1144335e-05 0
0.11111109 -0.19070189 0.18323666 -1 0 0 4.834229e-06
0.16666669 -0.19059327 0.18612684 -1 1.4470073e-05 -5.2273619e-05 0
-0.5 -0.18401381 0.18553233 1 -0 -0 0
-0.44444445 -0.18635532 0.18509579 1 3.3251388e-05 -3.8217044e-05 0
-0.5 -0.17737636 0.18355182 1 0 0 0
-0.44444448 -0.17729983 0.18891852 1 7.2813833e-05 -5.0766765e-05 0
0.11111109 -0.17341453 0.18016714 -1 -8.1984363e-06 2.0180629e-05 4.7674903e-06
-0.5 -0.16478303 0.18361549 1 -0 -0 0
0.16666669 -0.16229451 0.18278247 -1 8.810036e-06 -3.6841047e-05 0
-0.5 -0.15758266 0.18455356 1 0 0 0
0.11111109 -0.15613873 0.186896 -1 -3.5984963e-06 1.8338025e-05 0
0.16666669 -0.15577707 0.18242885 -1 4.138899e-05 -3.8693048e-05 0
-0.44444442 -0.14632094 0.18871234 1 3.4881032e-05 -2.8605183e-07 0
0.11111109 -0.14873806 0.18966866 -1 -1.7966262e-05 2.9121387e-05 3.6912893e-06
0.16666669 -0.14946696 0.18321404 -1 7.5140192e-06 -2.6133823e-05 0
0.11111109 -0.13071056 0.18976295 -1 2.5022459e-06 7.1628051e-06 0
0.16666669 -0.13453828 0.18154883 -1 2.012404e-05 -3.9068862e-05 0
-0.5 -0.12090823 0.184389 1 0 0 0
-0.44444445 -0.12585878 0.18543421 1 9.1008915e-05 -4.1003903e-05 0
0.16666669 -0.12166636 0.18934195 -1 5.5905111e-06 -4.1261945e-05 0
-0.44444448 -0.094689697 0.18444791 1 -3.4697543e-05 -6.3123094e-05 0
-0.5 -0.084820762 0.18519428 1 -0 -0 0
-0.44444445 -0.089994609 0.18674198 1 6.2975087e-05 -6.5751577e-05 0
0.16666669 -0.082216442 0.18837291 -1 1.8546685e-05 -3.7649377e-05 0
-0.5 -0.074153073 0.18259174 1 -0 -0 0
-0.44444442 -0.076519482 0.18717779 1 7.1580595e-05 -5.9357943e-05 0
-0.44444448 -0.062021092 0.18732823 1 6.4223321e-05 -5.9812399e-05 0
0.11111108 -0.063170165 0.1846047 -1 -5.6938106e-06 6.0160306e-07 4.5808915e-06
0.16666669 -0.065641426 0.18512659 -1 8.129914e-06 1.7760167e-06 0
0.11111109 -0.056690283 0.18740018 -1 -4.5273669e-06 8.3777777e-06 4.1421545e-06
0.16666669 -0.051179115 0.18023199 -1 7.3210872e-06 -1.3196967e-05 0
0.38355637 -0.051363505 0.18260004 -0.76854199 -0.63900471 -0.031877235 0.073896691
0.4062092 -0.05555556 0.18488148 0.030959941 0.99948692 -0.0082064625 0.0022084005
0.4342913 -0.055555563 0.1836516 -2.4352714e-05 1 1.5958278e-06 0
0.45747772 -0.055555567 0.18354322 -9.2171131e-06 1 3.8113574e-06 0
0.4882496 -0.05555556 0.18242429 -0.40336362 0.91116971 -0.084068619 0.060938045
0.16666669 -0.041136004 0.18781006 -1 -5.1788143e-06 -3.8593873e-05 0
0.5 -0.04350882 0.18935825 -0.98063385 0.18750708 0.05655488 0.031344909
