# .PCD v0.7 - Point Cloud Data file format
VERSION 0.7
FIELDS x y z normal_x normal_y normal_z curvature
SIZE 4 4 4 4 4 4 4
TYPE F F F F F F F
COUNT 1 1 1 1 1 1 1
WIDTH 569
HEIGHT 1
VIEWPOINT 0 0 0 1 0 0 0
POINTS 569
DATA ascii
-0.4470343 -0.085519716 -0.097681552 0.95799363 0.28659049 -0.010687598 0.002475284
-0.40600362 -0.082493819 -0.091372952 0.9462772 0.32331425 0.0052349307 0.0012169196
0.13874438 -0.086606055 -0.093072638 -0.93249923 0.36114803 -0.0041617663 0.00042868729
0.18206854 -0.083057597 -0.094057806 -0.84790516 0.52950358 0.026128447 0.071362115
0.2399531 -0.087370634 -0.098791674 -0.74919111 0.4915711 0.44392627 0.099395014
-0.4485113 -0.076841131 -0.093425326 0.97851855 0.20608805 -0.0053976141 0.0018460046
0.14416088 -0.072223738 -0.094291762 -0.96602041 0.25846484 0.00073035352 0.0021360398
0.20453721 -0.071289204 -0.093595698 -0.6146186 -0.48647523 0.62095559 0.12083143
0.2431782 -0.070992179 -0.09538234 -0.79737145 0.26572257 0.54183978 0.062219657
-0.41054004 -0.065969817 -0.093157709 0.97613239 0.21683294 0.012209596 0.0013897804
0.14461036 -0.068809472 -0.093047991 -0.97300696 0.23067394 -0.0068613761 0.0015092362
0.19984716 -0.067707144 -0.096823871 -0.80780441 -0.29964703 0.50760591 0.1522281
0.20182642 -0.066430442 -0.092693292 -0.76958507 -0.38903883 0.5063473 0.1528405
0.24331044 -0.064117894 -0.095550209 -0.83077693 0.039045278 0.55523443 0.00032171293
-0.45167196 -0.052833628 -0.098888695 0.99144584 0.13051859 -1.6820642e-05 4.0997897e-05
0.18605512 -0.05329705 -0.096067235 -0.97393894 -0.13719584 0.18061084 0.084534109
-0.45328903 -0.040550821 -0.095749907 0.99144351 0.13053626 4.1974592e-05 0
-0.41311407 -0.046417933 -0.092203371 0.99144554 0.13052084 2.78013e-06 0
0.14753272 -0.046611659 -0.091848217 -0.99144518 0.13052331 -1.7987475e-06 6.3001937e-07
0.19275096 -0.043482691 -0.091552287 -0.97776365 -0.015306065 0.20915096 0.086334363
-0.41463983 -0.034828611 -0.094171315 0.99144256 0.13054386 2.2551749e-05 0
0.18539804 -0.034645658 -0.099168718 -0.9770571 -0.032534901 0.21047777 0.055108525
0.1915236 -0.03675437 -0.090746187 -0.95981854 -0.053844601 0.27540717 0.073741473
0.24365854 -0.038485602 -0.096084125 -0.82887816 0.016703758 0.55917966 2.6288339e-05
-0.45596763 -0.020205257 -0.093560085 0.99318779 0.11651626 0.001401837 0.00010656534
0.1505404 -0.023765804 -0.09209343 -0.99144566 0.13052058 9.8028647e-07 0
0.24455816 -0.027102292 -0.095049702 -0.82915378 0.01077512 0.55891663 5.0073264e-05
-0.41749004 -0.013179057 -0.095640525 0.99329472 0.11559015 0.0021033008 0.00032428239
0.18790063 -0.012528444 -0.090216465 -0.94107878 0.0092574973 0.33806059 0.053106308
0.19091882 -0.016354091 -0.097042046 -0.96897721 0.013454523 0.24678351 0.065365776
0.24217996 -0.011404536 -0.098755628 -0.82996452 0.0031685024 0.55780727 3.6067206e-05
-0.45795619 -0.0051004826 -0.094172738 0.99937284 0.033762444 -0.010681354 0.0019482893
-0.41849434 -0.0055504194 -0.093600094 0.99922001 0.037666637 -0.011857202 0.0028002986
0.15328535 -0.0029154459 -0.098745748 -0.92737997 -0.084104739 -0.36454469 0.13174954
0.1924044 -0.0050700866 -0.093418099 -0.92575723 -0.026273858 0.37720457 0.05740653
0.24399886 -0.0062896376 -0.096082024 -0.82934529 0.0012612131 0.55873501 3.170906e-05
-0.41890049 0.0024653729 -0.093229651 0.99968046 -0.022358384 0.011792059 0.001805163
0.18589856 0.0061510941 -0.093340181 -0.8661477 -0.025459914 0.49913937 0.03223893
0.19296372 0.00082144787 -0.092344195 -0.89783365 0.0058433861 0.44029605 0.034576293
0.24564321 0.0051375483 -0.093621291 -0.82827413 -0.005539366 0.5602957 2.0850937e-05
0.15197128 0.012896636 -0.091366895 -0.99635929 -0.085214317 -0.0025749169 0.0011270226
0.18683349 0.016095888 -0.093202978 -0.94506919 -0.015566015 0.32649949 0.04660055
0.24755867 0.016484849 -0.090657763 -0.82661659 -0.010792274 0.56266212 3.9247425e-05
-0.41642761 0.021248754 -0.092956908 0.99313569 -0.11684845 0.0052710064 0.0003046178
0.15067852 0.022716412 -0.092529759 -0.99233115 -0.12360623 0.00054552924 7.1057439e-05
0.18885303 0.023434369 -0.093575656 -0.95471108 -0.04745996 0.29372501 0.044387389
0.19011962 0.022424534 -0.092320621 -0.95609242 0.00053120923 0.2930648 0.047545284
0.24582389 0.026859773 -0.092973299 -0.82820803 -0.017289558 0.56015402 2.1728418e-05
-0.45457351 0.030794313 -0.090961695 0.99144322 -0.1305382 5.283463e-06 2.7885371e-05
-0.41437268 0.036857896 -0.096587822 0.99144346 -0.13053674 1.5692674e-06 4.2294272e-05
0.14954479 0.031328168 -0.090915054 -0.99144548 -0.13052124 5.1830107e-06 0
0.18860145 0.033956032 -0.094833724 -0.9487595 0.052107822 0.31167325 0.057738911
-0.45293295 0.043255415 -0.098616682 0.99144298 -0.13054043 3.092485e-05 0
0.18678439 0.047757812 -0.096683726 -0.95840698 -0.026590118 0.28416359 0.058764782
0.243001 0.042186689 -0.096621662 -0.82867742 -0.023645837 0.55922669 4.5037483e-05
-0.4512521 0.056022905 -0.097684354 0.99144441 -0.13052988 1.9216772e-05 0
-0.41200569 0.05483719 -0.092289761 0.99104297 -0.13354191 0.00059840159 0.00015392744
0.18564154 0.056438487 -0.095341653 -0.98540235 -0.070277356 0.15505897 0.072982311
0.19553414 0.054245099 -0.098680407 -0.85277969 0.23510864 0.4663589 0.12632811
0.24533428 0.054505289 -0.092606336 -0.82838684 -0.027596425 0.55947626 4.3254429e-05
-0.45022035 0.06385985 -0.092761144 0.99075556 -0.135654 0.0011717932 0
0.18447821 0.06527485 -0.096059583 -0.96255153 -0.25194821 0.1000836 0.060713653
0.24164866 0.062553257 -0.097606301 -0.84224617 -0.15318248 0.51687187 0.054603793
-0.40977558 0.071776502 -0.091416702 0.9767431 -0.21435057 0.0051735546 0.0021863715
0.18313655 0.075465523 -0.095142424 -0.9684931 -0.181114 -0.17093547 0.11838242
0.21297677 0.076113835 -0.093766324 -0.47624677 0.78296739 0.40018892 0.10497639
0.24370191 0.075513989 -0.093755201 -0.80760473 -0.36795434 0.46085158 0.10733265
-0.44780391 0.082214318 -0.099315733 0.96785009 -0.25137991 -0.0086225858 0.001957471
0.18044515 0.088014372 -0.096310765 -0.95638996 -0.29177105 -0.013707888 0.002731886
-0.44265747 0.09608642 -0.093214162 0.94466501 -0.32800487 -0.0045587723 0.0018446198
-0.39924023 0.09882208 -0.099248394 0.92385018 -0.3827543 -4.542854e-05 0.00010778139
0.13568157 0.094000258 -0.094668821 -0.92900693 -0.37003896 -0.0041475189 0.00021281742
0.23450643 0.092953667 -0.092314541 -0.069160521 -0.99711895 -0.031152945 0.13602284
-0.39567676 0.10742507 -0.096428439 0.92387164 -0.38270259 5.3207223e-05 0
0.17344227 0.10492085 -0.09753947 -0.92704576 -0.37494817 -0.00019460908 0.0001187721
-0.43483871 0.11496259 -0.094664335 0.92386806 -0.38271117 4.4976892e-05 0
-0.39327931 0.11321303 -0.095775254 0.92387688 -0.38268992 -6.6664484e-06 2.0248017e-05
0.16937533 0.11473931 -0.098941989 -0.92387742 -0.38268849 9.73445e-06 7.8398989e-06
0.12194772 0.1271565 -0.091067679 -0.92128581 -0.3888624 0.0043061213 0.00011371504
-0.3858431 0.13116562 -0.098100483 0.90699667 -0.42112252 -0.0035751392 0.0013656592
0.12076484 0.1300122 -0.099303238 -0.92096555 -0.38962975 0.0033321891 0.00014567953
-0.42054975 0.1494592 -0.098452166 0.90309751 -0.42941126 -0.0045728148 0.0010935306
-0.37915275 0.14543362 -0.098574631 0.85226375 -0.52306098 0.0073237466 0.0016107969
0.11605727 0.14137718 -0.090741023 -0.86305952 -0.50507927 0.0048089586 0.0025240269
0.15622529 0.14648631 -0.096770592 -0.90646946 -0.42221668 0.0067921914 0.00068229821
-0.42028856 0.1500897 -0.097306684 0.89737177 -0.44127113 0.0019096447 0.0015015689
-0.41869771 0.15393035 -0.097970873 0.89131927 -0.45337513 0.0010008846 0.0013167908
-0.37244052 0.15418115 -0.094859824 0.81866872 -0.57426244 -0.0020560317 0.0010449681
0.10416798 0.15772128 -0.098157659 -0.80350721 -0.59529173 0.0019843052 0.00019167288
-0.41156536 0.16736464 -0.09077213 0.84510672 -0.53458536 0.0036455698 0.0017954841
-0.36327091 0.16613111 -0.093318492 0.7933234 -0.60880053 -1.6778338e-05 4.6433273e-05
0.09708339 0.16695412 -0.091313362 -0.79331791 -0.60880768 4.4041813e-06 0
0.10023198 0.1628508 -0.096919402 -0.79621327 -0.60501605 -0.00041147956 1.2950347e-05
0.14414686 0.16979207 -0.097211368 -0.82413781 -0.56637996 0.0032492967 0.0017231036
-0.40640977 0.17408353 -0.097535372 0.82592428 -0.56371021 0.0089388881 0.0012423459
-0.35959131 0.17092642 -0.093709759 0.79335791 -0.60875541 1.1398846e-05 1.9082529e-05
0.09373045 0.17132376 -0.093866728 -0.7933256 -0.60879755 -4.7952421e-06 0
0.14199796 0.17259257 -0.099983528 -0.82166743 -0.5699662 0.0010741862 0.0016070023
-0.4017567 0.18014753 -0.090555049 0.79931647 -0.60090941 -0.0010681925 0.00015104105
-0.39478183 0.18923733 -0.094870329 0.79320419 -0.6089558 -6.9765782e-05 0.00022128428
-0.39339861 0.19103998 -0.098545477 0.79332417 -0.60879952 -3.8466751e-05 2.3948684e-05
-0.38707364 0.19928282 -0.094916917 0.7933476 -0.60876894 3.199801e-05 0
0.077448726 0.19254249 -0.09438654 -0.75923729 -0.65081084 0.0019871145 0.0012356963
0.12331393 0.19694203 -0.092519581 -0.79328126 -0.60885531 2.3922419e-05 0
-0.38537478 0.20149678 -0.091158524 0.79329085 -0.60884291 -3.2769301e-05 0.00010774855
-0.33596024 0.20172289 -0.098120444 0.70845783 -0.70574588 0.0031853099 0.0018193034
-0.32881495 0.20754522 -0.094876803 0.65600193 -0.7546581 0.01235335 0.0017518819
0.065758795 0.20562713 -0.090113714 -0.67222816 -0.73946548 0.036055837 0.0015965669
-0.31599289 0.21738392 -0.095248222 0.61211276 -0.79076904 0.001528098 0
0.049746476 0.21791381 -0.099117488 -0.6087718 -0.79334539 1.4430987e-05 0
0.10989183 0.21443406 -0.094269022 -0.78571731 -0.61857849 -0.0030001102 0.0001114706
-0.36652395 0.22606362 -0.091511309 0.71292239 -0.70118451 -0.0090573067 0.0023258622
-0.30302909 0.22733141 -0.09382806 0.6088028 -0.79332155 -1.3856365e-05 3.3524189e-05
-0.35720241 0.23500381 -0.093131721 0.65379685 -0.75657147 -0.012220519 0.0019428174
0.033016086 0.2307515 -0.096370064 -0.60699081 -0.79470885 -5.9376522e-05 0
0.095957041 0.23169628 -0.093950152 -0.69144082 -0.72231495 -0.013062089 0.002747376
-0.34698501 0.24284393 -0.096306175 0.62058103 -0.78413552 -0.0032768783 0.00023206367
-0.33997738 0.24822104 -0.093725532 0.60880154 -0.79332256 2.5720341e-05 0
-0.28417888 0.24179569 -0.093575239 0.55431485 -0.83230585 -0.0014537225 0.001496619
-0.27905756 0.24572542 -0.094245575 0.51377606 -0.85770357 0.019464474 0.0016472783
0.0091550089 0.24860501 -0.099271461 -0.51131415 -0.85939091 0.0022677276 0.0023026839
0.075665593 0.24726646 -0.097194329 -0.60876864 -0.79334784 -8.178863e-06 0
-0.26754877 0.25157166 -0.098614722 0.44911361 -0.89341807 -0.010051616 0.0017360477
-0.25204188 0.25799486 -0.099618077 0.38267812 -0.92388171 -1.8093844e-05 0
-0.01289992 0.2577405 -0.096301794 -0.38268113 -0.92388052 -8.6150785e-06 0
-0.0067508593 0.25519347 -0.096043423 -0.38912469 -0.92118287 0.0020485523 0.00011741758
0.062394995 0.25744936 -0.096515417 -0.60876191 -0.79335296 -1.1227845e-05 0
-0.31903321 0.26429212 -0.094247177 0.60878873 -0.79333246 -1.9676609e-05 0
-0.24280551 0.26182073 -0.091194525 0.38271374 -0.92386705 -8.0391001e-06 1.2220241e-05
-0.23601957 0.26463157 -0.095860913 0.38268691 -0.92387801 1.5451869e-05 0
-0.22443558 0.26942983 -0.095180616 0.3686102 -0.92957836 -0.0032325441 0.00033744393
-0.025957461 0.26314914 -0.092971087 -0.38267952 -0.92388111 4.7922576e-06 0
-0.30980548 0.27137282 -0.098595887 0.59295082 -0.80523527 0.0023258671 0.00043318135
-0.22091866 0.2708866 -0.09250617 0.35353675 -0.93535316 -0.011233309 0.00074788096
-0.20848224 0.27603796 -0.095132187 0.25572562 -0.96673161 0.0058686682 0.0028666887
-0.19556303 0.27818137 -0.093612872 0.16871355 -0.98566192 0.0025066598 0.0009309309
-0.18320279 0.27980861 -0.093905948 0.13686928 -0.99058867 0.00094989309 4.2349806e-05
-0.053420059 0.27452463 -0.092913844 -0.29115719 -0.9565379 0.01620811 0.0026671148
-0.29383829 0.28278434 -0.098120116 0.48845828 -0.87258178 0.0030880105 0.0020130854
-0.28275496 0.28755733 -0.091328755 0.4124997 -0.91092968 -0.007148975 0.00084477011
-0.17268655 0.28119308 -0.092260122 0.13051815 -0.9914459 6.6390348e-06 0
-0.1654962 0.28213972 -0.090821475 0.13052116 -0.99144554 8.2989482e-07 0
-0.12785986 0.28579962 -0.09491124 -0.064701624 -0.99786973 -0.0083457753 0.00131626
-0.11558687 0.28418386 -0.093517691 -0.11082651 -0.99383843 0.0016631259 0.00026421552
-0.10661321 0.2830025 -0.093250647 -0.13054642 -0.9914422 -8.7617509e-06 3.7405891e-05
-0.08870095 0.28064433 -0.097794436 -0.13053599 -0.99144357 -1.6428294e-05 0
0.019900743 0.28643829 -0.094490275 -0.44436345 -0.89567131 0.017719464 0.001574502
0.020103777 0.28635418 -0.091267481 -0.42663011 -0.90442151 0.0029320221 0.0014192917
0.031269565 0.28133276 -0.092875667 -0.47781181 -0.87842858 0.007688961 0.0013662794
-0.27383986 0.29125011 -0.090793192 0.39449811 -0.91888821 -0.0039584092 0.0001834268
-0.25700489 0.29822338 -0.096173137 0.38280141 -0.92383069 4.488702e-05 0
-0.0049774898 0.29674318 -0.090025172 -0.38268262 -0.92387992 -2.1221114e-05 0
0.0055567184 0.2923798 -0.094161004 -0.38447854 -0.92313391 -3.1045125e-05 3.2658954e-05
-0.25180256 0.30037826 -0.090992451 0.38271502 -0.92386645 -5.5128476e-07 0
-0.24008873 0.30523026 -0.092324972 0.3781569 -0.9257412 -0.0007682034 0
-0.23527506 0.30722415 -0.092579886 0.36080369 -0.93264097 0.0012355057 0.00030895547
-0.031212818 0.30761021 -0.090093732 -0.37265176 -0.92797124 8.6341301e-05 9.1976071e-05
-0.027911123 0.30624259 -0.099903762 -0.36955467 -0.92919743 -0.0046218685 0.00013376192
-0.01551364 0.30110741 -0.091090515 -0.38268292 -0.9238798 2.266843e-06 0
-0.20741892 0.31602305 -0.098616064 0.19088979 -0.98154527 -0.011403144 0.0018338383
-0.19266188 0.31796587 -0.094792128 0.13053988 -0.99144304 7.8365047e-06 0
-0.18867023 0.31849137 -0.093201146 0.13053976 -0.99144304 -1.4424546e-05 0
-0.087973028 0.31995106 -0.0968941 -0.13050185 -0.9914481 1.6791922e-05 0
-0.075639628 0.31832734 -0.090611771 -0.13052577 -0.99144489 1.3270399e-05 0
-0.064299949 0.31683442 -0.094221711 -0.16093439 -0.98693234 -0.0080387853 0.00071855716
-0.03879229 0.31074971 -0.09492062 -0.32561383 -0.945499 0.0026820034 0.0014240805
-0.17141366 0.32076329 -0.09541361 0.13051569 -0.99144632 -2.4538391e-05 0
-0.15805252 0.32252231 -0.094452441 0.12307242 -0.99239773 0.00010739854 6.6212982e-05
-0.13595644 0.32543132 -0.099002823 0.041848049 -0.99911314 -0.0046570925 0.0016377772
-0.12997478 0.3254807 -0.095232308 -0.020297619 -0.99974144 -0.010249508 0.0021739115
-0.11775028 0.32387134 -0.093277737 -0.074979797 -0.99713993 -0.0094888974 0.00070293079
-0.17243031 -0.32062942 -0.087047324 0.13053548 0.99144369 -2.1106842e-05 8.8293134e-05
-0.16632894 -0.32143265 -0.085378811 0.13050508 0.99144763 8.9846735e-06 0
-0.13041458 -0.32553861 -0.087671079 -0.0060905516 0.99997252 0.0042308657 0.0017424134
-0.12422304 -0.32472348 -0.084558703 -0.0635221 0.99797791 0.0022324207 0.001477762
-0.11384704 -0.32335749 -0.084990658 -0.13054679 0.99144214 -2.1516475e-05 2.5789337e-05
-0.090841487 -0.32032871 -0.081163242 -0.13052648 0.99144489 -4.0370258e-05 0
-0.089249142 -0.32011908 -0.081131034 -0.13053069 0.99144429 -3.9254453e-05 1.9459711e-05
-0.21829946 -0.31425568 -0.08161594 0.24541342 0.96939641 0.0065468322 0.0019233722
-0.19212818 -0.31803614 -0.085087568 0.1372634 0.99053144 0.0024911948 4.3613119e-05
-0.18358718 -0.31916058 -0.085930064 0.13054189 0.9914428 7.2050325e-06 2.6818925e-05
-0.085449114 -0.31961882 -0.087670699 -0.1305277 0.99144465 -7.4326776e-06 2.0343616e-05
-0.074758634 -0.31821135 -0.087259814 -0.13354005 0.99104309 0.00084722921 0
-0.065258428 -0.31696063 -0.082901604 -0.15333864 0.98816729 0.0035602457 0.00058222603
-0.055908456 -0.31572968 -0.081741981 -0.20049192 0.97965699 0.0086690644 0.0017617776
-0.046701293 -0.31402573 -0.089963466 -0.28094834 0.95971823 -0.0029860125 0.0024411455
-0.038987372 -0.3108305 -0.085338682 -0.32687011 0.94506466 0.0029304719 0.0013433769
-0.2302444 -0.30930793 -0.083578087 0.36681801 0.93028837 -0.0028374295 0.0002336342
-0.22976035 -0.30950844 -0.082581699 0.36678854 0.93030012 -0.0028107739 0.00021357682
-0.032218575 -0.30802679 -0.086649947 -0.35822615 0.93363482 -0.00028243079 0.00047909358
-0.019486416 -0.30275294 -0.085134402 -0.38267213 0.92388427 9.9113868e-06 0
-0.27546594 -0.29057652 -0.082494333 0.39080811 0.9204706 -0.0016657041 0.00012450502
-0.28656784 -0.28597796 -0.083830193 0.44682708 0.89462 0.00076188613 0.0015821146
-0.18090104 -0.28011164 -0.081649408 0.13723512 0.99053836 -0.00049455726 1.8600995e-05
-0.16587187 -0.28209025 -0.08556281 0.13058916 0.99143654 5.5956234e-06 0
-0.13803071 -0.2857556 -0.084635548 0.056720022 0.99838161 -0.0041267308 0.0019889402
-0.12435186 -0.28533778 -0.08103326 -0.088951387 0.99603099 -0.0031415459 0.00099137262
-0.10428813 -0.2826964 -0.083070405 -0.1305618 0.99144018 -3.497619e-05 7.6696357e-05
-0.093363434 -0.28125814 -0.088359587 -0.13051091 0.99144691 -4.2168076e-06 6.2380077e-06
0.03132803 -0.28128791 -0.088801526 -0.54181874 0.84041429 0.011677802 0.0015068982
-0.30654544 -0.27387437 -0.088860303 0.56017089 0.82837147 0.0030243318 0.0012694647
-0.217942 -0.27211961 -0.080253825 0.35524455 0.93477303 0.00079941424 0.00085248484
-0.20941827 -0.27565026 -0.087150916 0.25643981 0.96655536 0.0030563602 0.0023132851
-0.18399769 -0.27970397 -0.087523051 0.13712466 0.99055368 -0.00057360769 3.2761705e-05
-0.082455494 -0.27982211 -0.089851782 -0.1365215 0.99063343 0.0026957032 7.8516918e-05
-0.075322025 -0.27888298 -0.083811261 -0.15832771 0.98737466 0.0048674936 0.00061951339
-0.062849872 -0.27724102 -0.083902992 -0.21864519 0.97574466 0.010799831 0.0021890602
-0.052496329 -0.274142 -0.086983055 -0.30821618 0.95113516 0.018563703 0.0014779507
0.045419723 -0.27047497 -0.088794738 -0.59929669 0.80052418 0.0021124843 0.00018692817
-0.24093215 -0.26259682 -0.086142302 0.38272247 0.92386335 3.618841e-06 3.5582702e-06
-0.22982076 -0.26719928 -0.082388997 0.38275617 0.92384934 -1.1375888e-05 3.6900208e-05
0.049154587 -0.26760906 -0.081358992 -0.60587102 0.79556286 0.00027660414 1.6792728e-05
-0.26277617 -0.25354874 -0.081162587 0.40561259 0.91403753 0.0037043826 0.00049979601
-0.011257994 -0.25706056 -0.084290549 -0.39497244 0.91867614 0.0055546779 0.00018993462
0.0032828909 -0.25103754 -0.08552742 -0.47218865 0.88138628 -0.014002929 0.0025961357
0.063005336 -0.25698096 -0.084262788 -0.6087544 0.79335868 -4.040543e-06 0
0.070615664 -0.25114137 -0.089712478 -0.60877478 0.79334313 -1.252659e-05 0
-0.34213519 -0.24656531 -0.084206603 0.60888654 0.79325736 3.3346121e-05 0
-0.28214687 -0.24335513 -0.085777588 0.52790654 0.84925508 0.0089691123 0.0025742922
-0.27698949 -0.24720705 -0.083602719 0.49825665 0.86702746 0.0018967409 0.0027234526
0.013407403 -0.24579799 -0.086332947 -0.53215325 0.84649271 -0.016217526 0.0023417948
0.075825691 -0.2471436 -0.085343182 -0.60876471 0.79335076 -1.2986669e-05 1.2724086e-05
0.081893258 -0.24248779 -0.085024685 -0.62703151 0.77899075 0.0022209953 0.00064741191
-0.36148545 -0.2317173 -0.085949957 0.68899405 0.724756 0.0040123048 0.001375287
-0.35662413 -0.23544753 -0.088569313 0.66443384 0.74734098 0.0030352629 0.0015555866
0.028032711 -0.23457554 -0.085756272 -0.59789121 0.8015759 -0.0014157549 0.00025243344
0.08651676 -0.23894003 -0.085440561 -0.63778865 0.77020425 -0.0033371595 0.00076718786
-0.36691782 -0.22555037 -0.088267908 0.72834772 0.68519849 0.0035587421 0.0013894512
-0.30222613 -0.22794768 -0.083144844 0.60874051 0.79336941 2.5299738e-07 2.6873382e-05
0.0360603 -0.22841571 -0.084318444 -0.60876805 0.79334819 2.8460274e-06 3.0478193e-06
0.046814587 -0.22016361 -0.082539737 -0.60876966 0.793347 7.709712e-06 0
0.10378256 -0.22239575 -0.08124923 -0.74377048 0.66841274 -0.0054723406 0.0017244461
-0.3168602 -0.21671849 -0.084225759 0.6158517 0.78786063 0.0015533908 1.6452903e-05
0.051809758 -0.21633066 -0.085581683 -0.61327273 0.78987068 0.00093859772 4.8763872e-05
0.11127764 -0.21262798 -0.088226043 -0.79214197 0.61033595 -0.0011266073 1.0219272e-06
-0.33470005 -0.20258275 -0.083579198 0.67298687 0.73965263 -0.0016255751 0.0014731629
0.064023763 -0.20695849 -0.081999458 -0.67614919 0.73674494 -0.0054068351 0.002669489
0.11598268 -0.20649627 -0.082716323 -0.79333144 0.60878992 1.2298508e-05 0
0.12528062 -0.19437897 -0.084137388 -0.79335511 0.60875905 -3.0095257e-06 5.598275e-06
0.083463915 -0.18470335 -0.08487881 -0.78550577 0.61884254 -0.0038107156 0.00023042256
-0.40310502 -0.17839035 -0.080958411 0.79568422 0.60571009 -0.0013818853 6.0215778e-05
0.13977508 -0.17548947 -0.084987357 -0.81306165 0.5821532 0.0053353203 0.00054371275
-0.413688 -0.16459833 -0.086826637 0.84772551 0.53021991 0.015111758 0.0020163297
-0.40982947 -0.16962692 -0.089791104 0.84712803 0.53131253 0.0090012113 0.0024017335
-0.36211708 -0.1676348 -0.085955568 0.79330635 0.6088227 2.6361869e-05 1.7413897e-05
0.10130129 -0.16145724 -0.081965119 -0.79333615 0.60878384 9.7090935e-07 0
-0.3742002 -0.15188783 -0.085655771 0.81364459 0.58133817 -0.0053262212 0.00078000163
0.10598291 -0.15535605 -0.085403964 -0.7933225 0.6088016 2.3757399e-05 0
0.15267134 -0.15506639 -0.0841088 -0.89177471 0.45244631 0.0055024526 0.0015725053
-0.4210816 -0.14817522 -0.085831918 0.91023171 0.41404265 0.0068534473 0.00048145154
-0.37671497 -0.1486105 -0.084838465 0.81550956 0.57873988 -0.0020764635 0.00068455382
0.11041512 -0.14957987 -0.086238399 -0.84280533 0.5382151 -0.0019250406 0.0022642727
0.15637547 -0.14612377 -0.086796023 -0.92386913 0.38270831 -1.2788227e-05 8.2484057e-06
-0.42631611 -0.13553794 -0.081588075 0.92386705 0.38271374 3.0541218e-05 0
0.15939862 -0.13882522 -0.083688691 -0.92387581 0.38269258 -1.1260728e-05 7.6879144e-07
0.16293624 -0.13028467 -0.084668919 -0.92388076 0.38268042 3.4349657e-06 8.0461659e-06
-0.3904171 -0.12012302 -0.086645119 0.92387575 0.38269266 1.472884e-05 7.0708782e-05
0.1220727 -0.12685478 -0.084636524 -0.90944648 0.4158206 -0.00047771484 0.00038341904
0.16568708 -0.12364358 -0.08364673 -0.92388189 0.38267773 3.9524452e-06 0
-0.43499577 -0.11458334 -0.082096405 0.92386967 0.38270736 1.2483129e-05 0
0.16958535 -0.11423232 -0.085883543 -0.92387825 0.38268659 -2.0420879e-05 1.0530176e-05
0.17041215 -0.11223623 -0.08732342 -0.92387521 0.3826938 -1.0103999e-05 1.2837994e-05
-0.43996772 -0.10258007 -0.082712397 0.93190461 0.36270198 0.0010215393 0.00035043055
-0.39584613 -0.10701618 -0.086976804 0.92386746 0.38271263 1.2709382e-05 6.0880047e-05
0.13017419 -0.1072962 -0.088339597 -0.92387921 0.38268423 -4.834526e-07 0
0.17515981 -0.10077433 -0.089257494 -0.92639703 0.376542 0.0021600637 1.6498876e-05
-0.44342965 -0.094222158 -0.08362177 0.94419765 0.32925984 -0.008877065 0.0012763788
0.1359596 -0.093329072 -0.088481337 -0.92889345 0.37033734 0.0026715144 0.00019421391
0.17764908 -0.094764695 -0.085813344 -0.94378477 0.33050564 0.0060323603 0.0011423816
0.24821085 -0.090794235 -0.083083399 -0.61470497 0.67270291 0.4118357 0.14861885
-0.44797486 -0.080915831 -0.085164115 0.96902484 0.24696171 -0.00091182243 0.0027155005
-0.40520054 -0.084432647 -0.082429633 0.94533259 0.32610503 -0.0013674868 0.0011059665
0.13850589 -0.087181844 -0.087250412 -0.9332267 0.35928774 -0.00047763687 0.00054470234
0.22259241 -0.086319491 -0.08375527 -0.43511033 -0.87164205 0.22565253 0.12007612
0.24820736 -0.084111221 -0.087121204 -0.6970191 0.57358199 0.43031165 0.16414626
0.1428981 -0.076035105 -0.086263239 -0.95990878 0.28010911 -0.010670225 0.0022085293
0.20929989 -0.071590334 -0.086723134 -0.5852381 -0.60175806 0.54349214 0.084633254
0.21172071 -0.073223412 -0.084824368 -0.56104761 -0.65692621 0.50366008 0.066220731
-0.44977465 -0.067245215 -0.089776866 0.98927683 0.14600107 -0.0038679906 0.00052903447
-0.41048265 -0.066405654 -0.082052961 0.97906142 0.20338252 0.0086161755 0.0016877693
0.18393864 -0.069373213 -0.081733733 -0.94146848 0.27180436 -0.19939761 0.16639562
0.24816875 -0.067985825 -0.088178575 -0.82281739 0.083801337 0.56209326 0.0033797328
0.25201714 -0.067380629 -0.082533002 -0.82688367 0.067679346 0.55828571 0.001680381
-0.45120218 -0.056402009 -0.087701187 0.99144572 0.13052009 -3.8895352e-05 3.0790055e-05
-0.41150212 -0.058661841 -0.087885082 0.98657167 0.16332906 -4.9947452e-05 0.00064421579
0.19959715 -0.05083755 -0.085170314 -0.89072353 -0.36238518 0.2743876 0.18250853
0.20652229 -0.059853755 -0.081003413 -0.630615 -0.56130457 0.53596818 0.17019688
0.24962555 -0.051485483 -0.086820014 -0.8269611 0.021827908 0.56183517 0
0.25307867 -0.056588385 -0.081521146 -0.82626009 0.025225468 0.56272364 0
-0.45302778 -0.042535566 -0.08243943 0.99144596 0.13051787 3.0942032e-05 4.6279354e-05
-0.41280723 -0.048748843 -0.086432867 0.99144328 0.13053815 -1.456456e-05 0
0.18743125 -0.042844631 -0.08682666 -0.98096788 0.029229553 0.19195746 0.10498983
0.19593076 -0.045616869 -0.08783748 -0.89866525 -0.20981041 0.38520172 0.144109
-0.45347255 -0.039157018 -0.089536026 0.99144107 0.13055494 -2.8559663e-05 0.00013075197
-0.4147557 -0.033948753 -0.086062312 0.99144375 0.1305345 -2.4225314e-05 7.7317847e-05
0.14896658 -0.035720259 -0.080504403 -0.99144542 0.13052168 -1.3054058e-05 1.5711585e-05
0.18833467 -0.035982456 -0.085880116 -0.94760245 0.053160805 0.31499788 0.072371453
0.24800348 -0.031236522 -0.089872427 -0.82612956 0.013839743 0.56331021 4.5886743e-05
0.25011104 -0.039692007 -0.086531743 -0.82653767 0.019503387 0.56254339 2.4793899e-05
-0.45539376 -0.024563998 -0.083590865 0.99144512 0.13052392 8.0338114e-06 0
-0.41540962 -0.028981488 -0.086315028 0.99144566 0.13052005 2.835731e-05 0
0.15073238 -0.022307483 -0.085705534 -0.99345082 0.11425771 -0.00073389453 0.00030548772
0.19253509 -0.021702807 -0.082326621 -0.94581336 0.044368949 0.32166526 0.072234012
0.25418198 -0.024780039 -0.080885738 -0.82497352 0.0092904624 0.56509501 3.1156385e-05
-0.41752183 -0.012937261 -0.084665559 0.99521703 0.096699342 -0.01387265 0.00069242052
0.1515182 -0.016338522 -0.085265011 -0.99610305 0.088196106 -0.00039948875 0.00076105137
0.19214514 -0.013472112 -0.084098838 -0.94670618 0.0054268129 0.32205257 0.052893512
0.24874759 -0.01493755 -0.089024678 -0.82778513 0.0060146078 0.56101298 3.4641918e-05
-0.41828147 -0.0071676546 -0.082365334 0.99877286 0.0492271 -0.0054168226 0.0025524546
0.15333226 -0.0025591538 -0.087293193 -0.99988443 0.015195919 -0.00047844247 0.0022196998
0.19184624 -0.0065375706 -0.083619468 -0.98296469 -0.0038701573 0.18375401 0.046148583
-0.45734626 0.0097335754 -0.087843746 0.99783939 -0.059468105 -0.027929299 0.00092357461
-0.41860145 0.0047370056 -0.083101936 0.99870908 -0.050120223 0.0082580782 0.0016578246
0.15279144 0.0066669835 -0.086322784 -0.99895746 -0.045207556 -0.0063460157 0.0020988693
0.19236997 0.0053314962 -0.084715344 -0.96781212 -0.023228822 0.25059953 0.040968321
0.25289729 0.005567987 -0.08291471 -0.82549554 -0.0068645789 0.56436694 0
-0.41699925 0.016906857 -0.081635356 0.99439901 -0.10563838 0.0033305499 0.00066192646
0.15143739 0.016952351 -0.086048186 -0.99252796 -0.121995 0.0023345777 7.8748039e-05
0.25189656 0.01508194 -0.084280446 -0.82551873 -0.010303781 0.56428063 3.8328675e-05
-0.45566136 0.022531483 -0.083332725 0.99298489 -0.11821298 0.0026041942 0.00020132447
-0.41639739 0.021478064 -0.088687621 0.99356771 -0.11323764 -0.00066328101 0.00041692908
0.15050343 0.024046406 -0.085264377 -0.9919377 -0.12672599 0.00031168602 3.0593867e-05
0.18963975 0.026069256 -0.086741105 -0.94659925 -0.050187688 0.31848249 0.06765528
0.19387671 0.025677834 -0.085635275 -0.95941383 -0.00010997407 0.28200185 0.080378145
-0.41474891 0.033999998 -0.0825914 0.99144411 -0.13053176 7.8109333e-06 6.3157859e-05
0.14848736 0.039360356 -0.082028031 -0.99144459 -0.13052866 7.680379e-06 0
0.18864824 0.033600535 -0.087059885 -0.94372857 0.084012628 0.31987244 0.068569154
0.24978027 0.033490185 -0.0869352 -0.82667863 -0.017088672 0.56241477 2.6245292e-05
-0.45219046 0.048895188 -0.087565109 0.99144518 -0.1305234 4.1835901e-05 0
-0.41277534 0.048990976 -0.085353225 0.9913888 -0.13095112 -0.00016944224 0
0.14772366 0.04516124 -0.085977741 -0.99144441 -0.1305299 -5.054264e-06 0
0.24951038 0.040498264 -0.087079585 -0.82758743 -0.021901038 0.56090945 0
0.2521669 0.04576841 -0.082953721 -0.82635796 -0.024933215 0.56259292 2.4881609e-05
-0.45139521 0.054935794 -0.084675111 0.99144232 -0.13054568 1.0655721e-07 0
-0.41203275 0.054631352 -0.08504381 0.98841262 -0.15177929 -0.0018983969 0.00075526634
0.145917 0.058884356 -0.083909012 -0.98780251 -0.15562525 -0.0051912558 0.00030341442
0.18577649 0.055413581 -0.085761145 -0.98275238 -0.11390287 0.14568415 0.12615229
0.20487793 0.053739596 -0.084207654 -0.64584637 0.42866594 0.63176566 0.11478133
0.25217199 0.052217353 -0.082630649 -0.82615805 -0.027482981 0.56276786 5.4786618e-05
-0.44964659 0.068217911 -0.085315727 0.98412663 -0.17690159 0.014165844 0.0014062783
-0.41015419 0.068900786 -0.087815329 0.97673845 -0.2143715 0.0051762201 0.0022990073
0.14462769 0.068677917 -0.082751893 -0.97716737 -0.21189058 0.015697546 0.0019493481
0.18510891 0.060484193 -0.088104576 -0.93978363 -0.25224501 0.23060593 0.12469596
0.21301448 0.065669797 -0.082455605 -0.58131307 0.53888363 0.60965526 0.038592495
0.25087532 0.06759426 -0.083683357 -0.74103588 -0.3362481 0.58120823 0.10541949
0.14310005 0.076090604 -0.087549999 -0.95639461 -0.29204661 0.0042699091 0.0020718994
0.2241748 0.078965768 -0.081087768 -0.3820014 0.83255363 0.40116015 0.15792999
0.25260118 0.073883153 -0.080747433 -0.75700915 -0.36375481 0.54278868 0.14283769
-0.44694418 0.085737295 -0.088168383 0.95858449 -0.2846545 -0.0093582738 0.0023621828
-0.40557763 0.083522186 -0.082817174 0.94374549 -0.33067006 0.0013173259 0.0018189026
0.1825251 0.080110013 -0.087768286 -0.96649295 -0.25155672 -0.051093806 0.0090814438
0.2358114 0.08977256 -0.0810721 -0.31042656 0.9000352 0.30589542 0.11783709
0.24754739 0.089218825 -0.086015053 -0.47608933 -0.7716471 0.42178151 0.17902376
0.25084293 0.087355688 -0.081828028 -0.54773068 -0.54674643 0.63329244 0.18391667
-0.4419325 0.097836599 -0.087361202 0.93138683 -0.36398768 -0.0056219092 0.00039665145
-0.39880723 0.099867404 -0.085379355 0.92387158 -0.38270265 -7.8364337e-06 0
0.13376734 0.098621599 -0.085422203 -0.92387694 -0.38268963 4.9873743e-06 0
0.17769699 0.094649039 -0.085913979 -0.93570668 -0.35273209 0.0057568219 0.00042999169
0.24374545 0.09227027 -0.085675344 -0.15158133 -0.98770583 -0.038211614 0.13418421
-0.44058406 0.10109206 -0.085274562 0.93138343 -0.36399636 -0.0056252894 0.00044455455
-0.43708593 0.10953724 -0.08854343 0.92385697 -0.38273793 7.5175129e-05 0
0.13081634 0.10574589 -0.085415207 -0.92387384 -0.38269717 2.1213675e-06 8.0557111e-06
0.17291963 0.10618263 -0.085140586 -0.92667133 -0.37587246 -0.00050904817 0.00010337989
-0.43612236 0.11186355 -0.088673651 0.92385674 -0.38273853 2.306147e-05 0
-0.3907778 0.11925222 -0.08010295 0.92341101 -0.38381246 0.00010857546 0
0.12696876 0.11503473 -0.082015887 -0.92378002 -0.38292357 2.5398613e-06 0
0.16821358 0.11754405 -0.083991587 -0.92388737 -0.38266447 -6.2108743e-06 1.5855356e-05
-0.38834107 0.12513505 -0.086183235 0.91863465 -0.39508206 -0.0045362161 0.00034946637
0.12311472 0.12433913 -0.08144097 -0.92377412 -0.38293779 -4.6802361e-05 4.9948949e-06
0.16369134 0.12846169 -0.087739557 -0.92388612 -0.38266739 5.8002574e-06 0
-0.38392663 0.13579239 -0.08630278 0.89818794 -0.43959123 -0.0042404989 0.0014918561
0.11817122 0.1362737 -0.08119303 -0.89543176 -0.44517365 -0.0047336072 0.001291435
0.12034756 0.13101959 -0.085514262 -0.9041056 -0.42723417 -0.0080002546 0.0016204745
0.16242188 0.13152644 -0.082189053 -0.92388588 -0.38266793 1.7921024e-05 7.9598003e-06
-0.38041526 0.14378825 -0.08072225 0.86538434 -0.5009464 -0.012749008 0.0029859697
0.11560003 0.14232047 -0.082082003 -0.86073971 -0.50903451 0.0033137016 0.0025223144
-0.41742289 0.15700811 -0.084107466 0.87795526 -0.47854894 -0.013618938 0.0020158624
0.10815048 0.15253121 -0.08118853 -0.8194297 -0.57317621 -0.0019858221 0.00073342334
-0.41240299 0.16600809 -0.08427348 0.85088325 -0.52534056 0.0038742688 0.0015467858
-0.36324099 0.16617009 -0.083470121 0.79331708 -0.6088087 -7.7587765e-06 0
0.099045143 0.16439749 -0.086784154 -0.79652047 -0.60461146 -0.00031071701 2.3859435e-05
0.14630228 0.16687477 -0.083450757 -0.84845454 -0.5289939 -0.01703898 0.0023901951
-0.40284789 0.17872542 -0.081852481 0.79950005 -0.60066599 -0.00023212752 0.00019501164
-0.35859412 0.17222595 -0.088889532 0.79337436 -0.60873413 -1.0264356e-05 6.804461e-06
0.08787664 0.17895257 -0.08433944 -0.79332703 -0.60879564 6.2539175e-06 0
0.14220065 0.17232843 -0.080273807 -0.82975525 -0.558007 -0.011594484 0.0016116775
-0.35177615 0.18111129 -0.089509949 0.79334384 -0.60877377 1.231203e-05 1.7046935e-06
-0.34531736 0.18952845 -0.082439393 0.77488661 -0.63206261 -0.006900386 0.00063060876
0.13109566 0.18680072 -0.087212943 -0.79363614 -0.6083926 -0.00025492109 1.0220011e-05
-0.39352858 0.19087057 -0.083210707 0.79332227 -0.6088019 -1.1282786e-05 2.9665571e-05
0.079119027 0.19036572 -0.08825326 -0.76951587 -0.63862729 0.00069840241 0.00080606795
0.12416919 0.19582745 -0.085464582 -0.79333133 -0.6087901 1.4907099e-05 0
-0.3310765 0.20580986 -0.089159131 0.66598588 -0.74596262 -0.0016069096 0.0017684521
-0.32704106 0.20890637 -0.082847252 0.64930284 -0.76052719 -0.0020406521 0.0017033621
0.062919259 0.20780598 -0.087854423 -0.65949535 -0.75158942 0.0133849 0.001587252
0.070388608 0.20174341 -0.080787733 -0.71357042 -0.70033729 0.018573176 0.0023139236
-0.37540013 0.21449602 -0.085526288 0.78028357 -0.62542588 -7.9176629e-05 0.00056263176
-0.32388887 0.21132514 -0.083209231 0.63433987 -0.77305406 0.00050965825 0.0010650551
0.049060147 0.21844044 -0.084403113 -0.60974884 -0.79259473 -0.00010203563 1.711259e-05
0.059495486 0.21043314 -0.085336164 -0.65794611 -0.75300819 0.0092509482 0.0014578563
0.11324983 0.21005781 -0.082742095 -0.78847671 -0.61504686 0.0046628313 5.4064338e-05
-0.3660644 0.22666258 -0.08350765 0.70732647 -0.70686984 -0.0049185893 0.0027325761
-0.31104469 0.22118083 -0.083410509 0.60875565 -0.79335779 -7.0480846e-06 3.6543574e-05
-0.30535483 0.22554681 -0.081819698 0.60873044 -0.7933771 -4.0309162e-05 5.3165157e-05
0.045835115 0.22091511 -0.080059439 -0.60877073 -0.79334623 -1.3717927e-05 1.0289167e-05
-0.3560009 0.23592576 -0.085815266 0.64925641 -0.76037788 -0.017078089 0.0017997719
-0.28877971 0.23826537 -0.08773537 0.58439863 -0.81146067 0.003143992 0.00061436463
0.028273987 0.23439023 -0.087342396 -0.60662311 -0.79498899 0.0010169375 2.4943702e-05
-0.34536672 0.24408567 -0.086480416 0.62009734 -0.78452468 -0.00042912652 0.00022592446
0.084523849 0.24046928 -0.087241217 -0.6216898 -0.78322357 -0.0079193022 0.00035205422
-0.33643174 0.25094175 -0.084860936 0.60888886 -0.79325557 5.7313841e-06 0
-0.26735523 0.25165182 -0.084116131 0.43196535 -0.90186316 0.006982903 0.0011901326
-0.015343716 0.25875276 -0.081511989 -0.38269925 -0.92387295 -8.739833e-06 1.4961834e-05
-0.0032258129 0.25373334 -0.089122042 -0.39835954 -0.91722178 -0.0037205589 0.00027017057
0.0013839821 0.2518239 -0.088992842 -0.4040021 -0.91475129 -0.0035165269 0.00035734824
0.065307163 0.25521478 -0.086869873 -0.60877413 -0.79334354 8.1786748e-06 0
-0.32284081 0.26137045 -0.083380669 0.60873485 -0.7933737 -8.553985e-06 1.691252e-05
-0.2447599 0.26101118 -0.087014012 0.3826355 -0.92389935 -1.9209554e-05 3.0157136e-05
-0.23823316 0.26371467 -0.085520178 0.38268882 -0.92387724 1.0416801e-05 0
-0.029280342 0.26452553 -0.086723343 -0.38270122 -0.92387211 -3.0701046e-06 1.2112892e-05
0.054363977 0.26361179 -0.084806599 -0.60877138 -0.79334569 -2.0329573e-05 6.2592549e-06
-0.30679429 0.2736834 -0.087893538 0.56014413 -0.82836342 -0.0072452747 0.0016018704
-0.29926804 0.27945852 -0.085834049 0.51689506 -0.85604793 -0.0011974684 0.002842705
-0.21189596 0.27462393 -0.08576569 0.30206755 -0.95322764 -0.010599864 0.0023077293
-0.20350501 0.27713582 -0.08758074 0.23025113 -0.97313094 -0.00078501686 0.0024161232
-0.19094683 0.2787891 -0.089472964 0.14379542 -0.98960739 0.00024199738 0.00021807611
-0.18592435 0.27945033 -0.081822157 0.14100078 -0.99000943 0.0002385963 0.00020438904
-0.08206097 0.27977017 -0.086652622 -0.14187254 -0.98988485 -0.00046619505 0.00013793373
-0.070471406 0.27824438 -0.089304075 -0.1525283 -0.98829919 -0.00012010406 0.00028202438
-0.057073701 0.27603799 -0.089006647 -0.22014497 -0.9754566 0.0045269262 0.0025259499
0.036080547 0.27764118 -0.082731433 -0.54917359 -0.83570027 0.0036526285 0.0017832771
0.041699018 0.27332997 -0.081884839 -0.56874728 -0.82244909 0.010197225 0.0014860375
-0.28316167 0.28738889 -0.084900342 0.42256132 -0.90633041 -0.0026815161 0.00095443852
-0.27935791 0.28896445 -0.088640034 0.39501432 -0.91867375 -0.0015282506 6.6926856e-05
-0.18087381 0.28011525 -0.080008194 0.13178578 -0.99127799 -0.00073822407 4.5154069e-05
-0.1758129 0.28078151 -0.089675188 0.13051401 -0.9914465 -1.9302181e-05 8.3867075e-05
-0.16569883 0.28211305 -0.082998425 0.13051964 -0.99144572 -1.7385311e-05 7.3238742e-05
-0.15761471 0.28317732 -0.088442475 0.13054413 -0.99144256 -1.3507986e-05 0
-0.14676946 0.28460509 -0.089301959 0.10214084 -0.99476731 0.0022642247 0.00072593638
-0.13778901 0.2857874 -0.082890868 0.052328523 -0.99862212 0.0039497414 0.0019760234
-0.12597026 0.28555086 -0.08536613 -0.06373363 -0.99773115 -0.021694837 0.0012879971
-0.11641559 0.284293 -0.085817479 -0.10369726 -0.99459606 -0.005074257 0.00029979073
-0.10191254 0.28238365 -0.083239473 -0.1305218 -0.99144536 -4.6139576e-06 0
-0.095718786 0.28156823 -0.088519871 -0.13051909 -0.99144584 8.1856342e-06 0
-0.084752589 0.28012455 -0.088596612 -0.13339488 -0.991063 -0.00017330385 6.015084e-05
0.016229903 0.2879588 -0.084647402 -0.42012289 -0.90743589 0.0075360853 0.0012061374
0.02645875 0.28372189 -0.083251476 -0.47235054 -0.88124615 0.017034609 0.0021118827
-0.27235657 0.29186451 -0.08752887 0.39355296 -0.91929686 -0.0030603928 0.00016233395
-0.26720089 0.29400009 -0.086815663 0.38267612 -0.92388254 3.1226831e-05 0
-0.25717533 0.29815277 -0.080165058 0.38266718 -0.92388624 1.1566402e-05 4.9092418e-05
-0.01036376 0.29897425 -0.082269534 -0.38268459 -0.92387903 8.1905391e-06 0
-0.24029166 0.30514622 -0.082589254 0.37488666 -0.92707014 -0.00091654871 6.1970197e-05
-0.024720829 0.30492112 -0.084680386 -0.37716204 -0.92614561 -0.0017218393 1.9600588e-05
-0.017432375 0.30190217 -0.080172405 -0.38268295 -0.92387974 -2.7669344e-06 0
-0.21456936 0.31508169 -0.085545264 0.24648809 -0.96914059 -0.0031840808 0.0022983027
-0.19048522 0.31825244 -0.088896796 0.13048127 -0.99145073 -2.9679211e-05 2.3981946e-05
-0.18564618 0.3188895 -0.082247026 0.13054122 -0.99144286 -1.3445847e-05 3.0157837e-06
-0.085445598 0.31961831 -0.083192542 -0.13053136 -0.99144417 2.0081581e-05 0
-0.051287971 0.31512138 -0.084039494 -0.2488994 -0.9685086 0.0063366774 0.0022545394
-0.044239528 0.31300604 -0.083573535 -0.29885918 -0.95429301 -0.0028492133 0.0018483904
-0.16320151 0.32184443 -0.087376729 0.12935948 -0.99159777 -2.8483835e-05 2.0411439e-06
-0.15893313 0.32240638 -0.084466055 0.12908515 -0.99163353 5.0122264e-05 0
-0.13501924 0.32531211 -0.083659939 0.030629093 -0.99946201 -0.011731715 0.0022742972
-0.11831112 0.32394516 -0.088686839 -0.087838441 -0.99604678 -0.013234012 0.00046592642
-0.10398126 0.32205859 -0.083395973 -0.13052352 -0.99144524 2.2246297e-05 0
-0.16272736 -0.32190683 -0.076924145 0.13056272 0.99144006 -1.8874678e-05 0
-0.14784472 -0.32386619 -0.071012542 0.084088638 0.99645138 0.0037108208 0.00082924799
-0.12479007 -0.32479817 -0.071383521 -0.085632026 0.99632668 0.00056704809 0.0012609338
-0.11684736 -0.32375246 -0.072504617 -0.1266692 0.99194413 -0.0013017699 7.0649476e-05
-0.098671198 -0.32135952 -0.079559572 -0.13053682 0.99144346 5.0884442e-08 4.2274853e-05
-0.22399214 -0.31189767 -0.074939013 0.29447812 0.95563924 -0.0060235807 0.0018285615
-0.21204928 -0.31541345 -0.075624332 0.22666343 0.97392279 -0.0099010793 0.0017656955
-0.19664651 -0.31744123 -0.077318311 0.14780027 0.98901689 -0.00083639415 0.00021616217
-0.081691191 -0.31912407 -0.074132852 -0.13052571 0.99144495 -1.4843917e-05 1.432984e-05
-0.064949729 -0.31692001 -0.070931338 -0.14119919 0.98997945 0.0018400521 0.00012556586
-0.055696569 -0.31570178 -0.07279212 -0.18703873 0.98222262 0.015976308 0.001450502
-0.045598444 -0.31356892 -0.076959088 -0.29398698 0.955706 -0.014063857 0.0023207739
-0.24525565 -0.30309007 -0.072056189 0.38269374 0.92387521 1.7853906e-06 3.0676918e-06
-0.23265339 -0.30831006 -0.070537619 0.37335482 0.9276886 4.2120439e-05 0.00020802916
-0.020372447 -0.30311993 -0.070240408 -0.38268304 0.92387974 1.15092e-06 0
-0.27305996 -0.29157311 -0.070574932 0.38967335 0.92095309 0.00015510814 4.7978847e-05
-0.26464018 -0.29506069 -0.072833359 0.38280371 0.92382973 1.7190177e-05 0
-0.2582252 -0.29771787 -0.076569371 0.38267377 0.9238835 -1.088899e-05 5.9125905e-05
-0.011440109 -0.29942006 -0.0789598 -0.38268945 0.92387706 -1.0002294e-05 6.9552411e-06
-0.0068935985 -0.29753685 -0.072780296 -0.38268083 0.92388064 -7.6650813e-06 0
0.0064614695 -0.292005 -0.073854327 -0.38515738 0.92285055 0.0008014398 5.5581502e-05
-0.29687756 -0.2812928 -0.075042143 0.5075379 0.86157322 -0.0098426314 0.0026318079
-0.28387225 -0.2870945 -0.075194679 0.4236958 0.90576029 0.0089534204 0.0011897116
-0.27865446 -0.2892558 -0.076608814 0.40827468 0.91285837 0.0012197988 0.00066878594
-0.17392856 -0.28102958 -0.071090192 0.13055867 0.99144059 1.1546374e-05 0
-0.15691783 -0.28326908 -0.072189167 0.12778781 0.99180084 -0.0011329264 0
-0.14364925 -0.28501588 -0.079064488 0.069200017 0.9975546 -0.0098070828 0.0017680966
-0.13581289 -0.28604758 -0.074887276 0.02483191 0.99946547 -0.021264113 0.0030752162
-0.115615 -0.28418756 -0.077319548 -0.10159206 0.99481899 0.0037789072 0.00070178992
-0.10903193 -0.2833209 -0.072895423 -0.12508382 0.99214566 0.0011132646 4.2973035e-05
-0.088401914 -0.28060496 -0.074159712 -0.13053229 0.99144411 -1.684969e-05 3.809169e-05
0.027781326 -0.28317404 -0.076980159 -0.50671387 0.8619979 -0.014166102 0.0028082624
0.03158785 -0.28108853 -0.079162173 -0.51757616 0.85561305 -0.0064170808 0.0025828744
-0.31108451 -0.2703914 -0.078298047 0.5833379 0.81220371 -0.0064819399 0.0007222385
-0.30449477 -0.27544788 -0.079514921 0.5417605 0.84048241 -0.0092189778 0.0019429979
-0.19507918 -0.27824509 -0.076115951 0.1691743 0.98558581 -0.00072899804 0.00079696486
-0.061061848 -0.27700561 -0.073716104 -0.21727553 0.97605652 0.010244139 0.0021097562
-0.055490188 -0.2753821 -0.072663575 -0.28553888 0.95835114 -0.0055461107 0.0021233738
-0.048618998 -0.27253595 -0.074561089 -0.32265979 0.94651276 -0.0020756088 0.0020650323
0.034257166 -0.27904031 -0.071709901 -0.53978479 0.84179688 -0.0032181467 0.0020514363
-0.31906822 -0.26426527 -0.076518714 0.60876024 0.79335427 -1.4797763e-05 0
-0.2359857 -0.26464567 -0.072988041 0.38268393 0.92387933 -1.1060887e-05 0
-0.041323625 -0.26951411 -0.077569574 -0.37379205 0.92750937 -0.0024175709 7.1255978e-05
-0.027311534 -0.26371014 -0.072444178 -0.38267955 0.92388111 1.1151034e-05 0
0.047356017 -0.26898918 -0.075479493 -0.60528189 0.79601097 -0.00048493309 6.9312053e-05
-0.26029187 -0.25457776 -0.077177152 0.40019029 0.91643184 -0.00062019663 0.00044610168
-0.25536746 -0.25661749 -0.077884898 0.39105716 0.92036605 -0.00081333594 0.00016326326
-0.014582191 -0.25843745 -0.076949574 -0.38267994 0.92388099 1.355142e-05 0
-0.0018848018 -0.25317806 -0.074222386 -0.41052553 0.9118343 -0.0051982254 0.00073929445
0.066569559 -0.25424603 -0.077223927 -0.60876465 0.79335088 -3.5771375e-06 0
-0.35000315 -0.24052799 -0.074733719 0.64077097 0.7677213 -0.0040808599 0.0010048777
-0.34558192 -0.24392053 -0.073549002 0.61694241 0.78700715 -0.0013738006 0.00016651652
-0.33918548 -0.24882877 -0.074116841 0.60872895 0.79337829 9.2565515e-06 3.8987291e-05
-0.27620667 -0.24791318 -0.074398682 0.50063068 0.86556584 -0.012838106 0.002594725
0.0080213826 -0.24907479 -0.073373199 -0.48347828 0.87531537 -0.0084737651 0.0026130497
0.014242135 -0.24515748 -0.079857945 -0.5334062 0.84584743 -0.0044734809 0.0021818418
0.079985924 -0.24395135 -0.074365512 -0.60878205 0.79333752 -1.2423962e-05 1.6721177e-05
-0.36057538 -0.2324156 -0.076141141 0.67359644 0.73899925 0.012164319 0.0017207082
-0.35624552 -0.23573802 -0.074251577 0.65670043 0.75414854 -0.0021649417 0.0014549666
-0.28786036 -0.23897097 -0.0715525 0.59594733 0.80299872 -0.0063052536 0.00037782334
0.026966527 -0.23539364 -0.07583265 -0.59469587 0.80394971 0.0013400636 0.00027893824
0.087154493 -0.23845071 -0.076343596 -0.64476329 0.76438218 -0.00043787248 0.00084718032
0.096880376 -0.23098776 -0.077977642 -0.69839841 0.71562445 0.011015002 0.0016089781
-0.37056762 -0.22079389 -0.07936918 0.74820465 0.66333634 -0.013221819 0.0015156433
-0.36656865 -0.22600542 -0.072650932 0.72416997 0.68958682 0.0069175414 0.0019927975
0.10361731 -0.22261113 -0.078485213 -0.74399418 0.66818094 -0.0026310761 0.0016090956
-0.3715449 -0.21952024 -0.072475016 0.77026743 0.63772082 -0.00057284249 0.00075314246
-0.31462795 -0.21843138 -0.076808207 0.61133361 0.79137003 0.0021637753 0
0.056295391 -0.2128887 -0.07461188 -0.61379278 0.78946346 0.0024427306 4.9349939e-05
0.1129586 -0.21043733 -0.072579756 -0.79193097 0.6106106 0.00023102699 8.4692801e-06
-0.38229781 -0.2055068 -0.07587336 0.79330003 0.60883093 5.2002429e-07 7.9036174e-05
0.068678111 -0.20338704 -0.079181284 -0.69488055 0.71900916 -0.012918475 0.0028048325
0.071356446 -0.2004821 -0.075256497 -0.71475625 0.69936436 -0.0035973699 0.0022414806
0.11843458 -0.20330091 -0.074600264 -0.79334038 0.60877836 -1.0649236e-05 0
-0.39066607 -0.19460106 -0.072366416 0.79333568 0.6087845 1.4446962e-05 0
-0.38841164 -0.19753908 -0.072333097 0.7933265 0.60879654 1.8616676e-05 0
-0.33888727 -0.1979083 -0.071751252 0.72942418 0.6838215 -0.018127615 0.0020359477
0.084437042 -0.18343514 -0.075271703 -0.79175514 0.61083859 0.00013541832 9.4034904e-06
-0.35771561 -0.17337093 -0.072411805 0.79334223 0.60877591 -8.5312504e-06 1.2713765e-05
0.093222767 -0.17198536 -0.070900217 -0.79333448 0.60878599 -1.9872653e-06 0
0.1407048 -0.17427784 -0.072696388 -0.82746512 0.56148839 -0.0056798793 0.001128035
-0.41603896 -0.16034929 -0.076222382 0.88106096 0.47264716 0.018338321 0.0024605885
-0.36399168 -0.16519178 -0.074658178 0.79331046 0.60881722 -2.8378328e-05 4.2744865e-05
0.095811084 -0.16861221 -0.075901836 -0.79335713 0.60875642 1.1514137e-06 1.0585776e-05
-0.37347504 -0.15283288 -0.078005001 0.8090297 0.58769363 -0.0093347281 0.00070850266
-0.36930609 -0.15826592 -0.075447887 0.80722862 0.59015054 -0.010220859 0.00075709488
0.10668761 -0.15443768 -0.072262906 -0.81410366 0.58071601 -0.0020333135 0.0011406138
-0.38033423 -0.14389385 -0.071095243 0.84210235 0.53918058 -0.012160921 0.0017934316
-0.3768546 -0.14842859 -0.074969903 0.83275968 0.55353999 -0.010238444 0.0019637486
0.11128508 -0.14844613 -0.072217196 -0.85233033 0.5228833 0.011228669 0.0023009076
0.15815777 -0.14182097 -0.077656277 -0.92387187 0.38270199 -8.3028963e-06 8.2244851e-06
-0.42527154 -0.13805978 -0.070516497 0.92367929 0.3831664 -4.6452889e-05 0
-0.38437063 -0.13472059 -0.073828131 0.8939237 0.44809601 0.010501765 0.0018943561
0.16248617 -0.13137126 -0.072935253 -0.92386758 0.3827123 -2.6202399e-06 7.3126294e-06
0.12330943 -0.12386907 -0.074365422 -0.91600364 0.40116835 -0.0011394504 0.00018556861
-0.4333145 -0.11864232 -0.071173407 0.92388678 0.38266593 -4.3329451e-06 0
-0.39675096 -0.1048317 -0.076111637 0.923877 0.38268957 -3.4948598e-06 5.0761722e-05
0.13245544 -0.10178882 -0.071040347 -0.9238801 0.38268197 3.5230207e-06 1.0263189e-05
-0.40130922 -0.093827076 -0.071340248 0.92385054 0.38275346 -8.8622874e-06 7.9577403e-05
0.13522753 -0.095096439 -0.0737627 -0.92435467 0.38153389 0.00052117504 6.5869208e-06
0.17788835 -0.094187029 -0.071417466 -0.95244932 0.30459896 0.0077268556 0.0016156581
0.2481918 -0.093161762 -0.079281747 -0.52582598 0.764777 0.3723214 0.13948189
0.13826936 -0.087752879 -0.07333231 -0.93912053 0.34356567 -0.0038881828 0.00096643798
0.14106528 -0.081002921 -0.075587228 -0.95751148 0.28795484 -0.015931692 0.0021706226
