# .PCD v0.7 - Point Cloud Data file format
VERSION 0.7
FIELDS x y z normal_x normal_y normal_z curvature
SIZE 4 4 4 4 4 4 4
TYPE F F F F F F F
COUNT 1 1 1 1 1 1 1
WIDTH 592
HEIGHT 1
VIEWPOINT 0 0 0 1 0 0 0
POINTS 592
DATA ascii
0.096718036 -0.36385295 -0.14048289 -0.36126482 0.90965807 0.20496339 0.00022481354
0.10088289 -0.36116832 -0.14474402 -0.37134355 0.90587825 0.20368741 7.5198528e-05
-0.12556286 -0.35145944 -0.14246525 0.37465695 0.90452391 0.20363843 0
-0.11351767 -0.354978 -0.14899717 0.3746956 0.90451497 0.20360728 0
-0.10666645 -0.35852781 -0.14583474 0.37462655 0.90453202 0.20365869 0
0.10626248 -0.35835734 -0.14733167 -0.37472495 0.90449125 0.20365848 4.6514593e-05
0.11932582 -0.35305679 -0.14684151 -0.37467018 0.9045164 0.20364751 1.8151974e-06
0.12323544 -0.35143718 -0.14684272 -0.37464795 0.90451568 0.20369196 1.1432692e-05
-0.14587909 -0.34189987 -0.14754662 0.46226338 0.86201793 0.2079367 0.0022404497
-0.13592075 -0.34589809 -0.14810944 0.40071827 0.89201289 0.20913634 0.00077908614
-0.12886904 -0.34869322 -0.14866856 0.38115087 0.90179926 0.20367147 0.00015239554
0.13398923 -0.34660578 -0.14851816 -0.40629834 0.89122856 0.20157713 0.00050567125
0.14573117 -0.34233284 -0.14589536 -0.45880327 0.86281997 0.21222943 0.0022124432
-0.15506269 -0.3366127 -0.14646384 0.51463354 0.83311599 0.20265761 0.0020572287
0.15613037 -0.3361502 -0.14510363 -0.53230399 0.82164115 0.20385879 0.0019369293
-0.16542858 -0.32891878 -0.1454715 0.57811207 0.78990448 0.20454203 0.00050112314
0.16903552 -0.32632291 -0.14481758 -0.59121209 0.78064358 0.20264216 9.4273797e-05
0.17487666 -0.32283357 -0.14103186 -0.59601128 0.77672112 0.20365384 6.2478255e-05
-0.19034672 -0.31002745 -0.14459777 0.59721744 0.77581394 0.20357816 1.3324541e-05
-0.1889354 -0.31072313 -0.14607465 0.5971328 0.7759034 0.2034854 1.2269284e-05
0.17889273 -0.31826398 -0.14670685 -0.59598434 0.77674997 0.20362253 4.1430769e-05
0.1859574 -0.31362045 -0.14374197 -0.59598696 0.77673525 0.20367101 0
-0.20087266 -0.30212665 -0.14392662 0.6150046 0.76227546 0.20175625 0.00043933716
-0.19298467 -0.3079809 -0.14468308 0.59771121 0.77537525 0.20380029 2.0770416e-05
0.19441879 -0.30714563 -0.14367375 -0.60176343 0.77269614 0.20204322 0.00012440348
0.20424977 -0.30036992 -0.1407451 -0.62931079 0.75050545 0.20176569 0.00092287263
-0.21258233 -0.29235268 -0.14521195 0.68557304 0.69954014 0.20157704 0.002516831
-0.20586929 -0.29760811 -0.14653713 0.62882173 0.7522108 0.19688094 0.00098528934
0.20593691 -0.29776376 -0.1457469 -0.64737821 0.73683429 0.19487625 0.0017326607
0.21252152 -0.29293603 -0.14488935 -0.68828607 0.69460261 0.20925947 0.0026442197
-0.21601349 -0.28803402 -0.14605382 0.72281903 0.65976882 0.20551817 0.0015858024
0.21785414 -0.28638229 -0.1438688 -0.74094605 0.63930982 0.20562592 0.00088665535
-0.22660364 -0.27587745 -0.14124079 0.77326947 0.60095507 0.20225565 8.6978413e-05
0.22640653 -0.27550033 -0.14309673 -0.77552158 0.59795445 0.20252579 0
-0.23318425 -0.26507682 -0.14775118 0.77671629 0.59602082 0.20364431 0
0.23228166 -0.26613024 -0.14811085 -0.77676201 0.59595692 0.20365672 1.8423876e-05
-0.2425905 -0.25473598 -0.14213893 0.77671176 0.5960198 0.20366439 3.5470798e-06
0.23839048 -0.25802097 -0.14854386 -0.77670276 0.59602773 0.20367593 0
0.2404865 -0.25706071 -0.1433602 -0.77672178 0.59600663 0.20366485 0
-0.25106007 -0.24373524 -0.14203027 0.78682804 0.58309674 0.20223695 0.00026960927
-0.24751416 -0.2469184 -0.14623839 0.78308427 0.58707196 0.20524497 0.00017387877
0.2485141 -0.24641518 -0.14389746 -0.78204113 0.58792591 0.2067724 0.00020370883
0.25008771 -0.2422974 -0.1499462 -0.79072183 0.57718748 0.20399404 0.00047198488
-0.26009205 -0.2311586 -0.14438802 0.83748907 0.50552368 0.20750396 0.0027663433
-0.25731996 -0.23514041 -0.14330807 0.83016318 0.52029461 0.20030655 0.0026224703
0.25752586 -0.23453908 -0.14428231 -0.83305818 0.50841796 0.21800289 0.0023300045
-0.26180357 -0.22728847 -0.14470509 0.85990924 0.46745715 0.20503622 0.0022814986
0.26057771 -0.22918324 -0.1466638 -0.8566336 0.47410256 0.20348379 0.0024207837
-0.26654169 -0.21606094 -0.14431614 0.89542687 0.39671543 0.20205809 0.00047037037
0.26679316 -0.21580832 -0.14366411 -0.88797396 0.41118976 0.20597374 0.00074457319
-0.2703959 -0.20655723 -0.14468171 0.90379679 0.37653396 0.20340519 2.4943931e-05
0.26959473 -0.20870832 -0.14428288 -0.90163565 0.38159794 0.20355894 0.00015319593
0.27223951 -0.20352916 -0.14206417 -0.90451735 0.37465012 0.20368008 6.6177499e-06
-0.27581537 -0.19374868 -0.14417541 0.90450591 0.37467661 0.20368215 7.6185802e-06
0.27428687 -0.19825329 -0.14267701 -0.90450603 0.37471735 0.20360714 2.1483307e-05
0.27916703 -0.18624184 -0.14309976 -0.90452182 0.37464082 0.20367721 0
-0.28164738 -0.17951837 -0.14445288 0.90832794 0.36602792 0.20239571 0.00017124861
0.28295568 -0.1772892 -0.14274336 -0.90849084 0.36504477 0.2034371 0.00012172888
0.28782165 -0.16344211 -0.14660618 -0.93485785 0.29423222 0.19866616 0.001558736
-0.29091573 -0.15379855 -0.14525789 0.95277447 0.2207325 0.20856172 0.0025347804
0.28998819 -0.15510672 -0.14885759 -0.950077 0.23499112 0.2052629 0.0018464089
0.29069972 -0.15443589 -0.14588754 -0.95219797 0.23308858 0.19745559 0.0018053381
-0.29311222 -0.1429898 -0.14157167 0.96725988 0.15141001 0.20367461 0.00061116536
0.29186359 -0.14382252 -0.14700015 -0.96732491 0.15332 0.20192923 0.00050817069
-0.29369989 -0.13550392 -0.14346817 0.97067064 0.12779739 0.20363289 2.554747e-05
0.29319724 -0.13139127 -0.1484444 -0.97054869 0.12826858 0.20391777 0
-0.29530945 -0.12323135 -0.14349777 0.97066605 0.12780762 0.20364822 0
0.29535466 -0.12172841 -0.14422534 -0.97066998 0.12775297 0.20366356 1.9062485e-05
-0.29622635 -0.11366051 -0.1451332 0.9706676 0.12776628 0.20366682 0
0.29594755 -0.11315694 -0.14677793 -0.97066182 0.12779947 0.20367396 3.2665397e-05
-0.29674429 -0.10434864 -0.14850749 0.97090346 0.12610057 0.20358071 0
0.29698747 -0.10550632 -0.14662212 -0.97077101 0.1253264 0.20468737 6.8535803e-05
-0.29764661 -0.097865909 -0.1482745 0.9736228 0.11033858 0.19970983 0.00025165256
0.29848024 -0.096548796 -0.14512806 -0.97467148 0.1020895 0.19898061 0.00088380807
-0.30079925 -0.085834593 -0.14079835 0.9803499 0.043305345 0.19245438 0.0017928643
-0.29925564 -0.085134074 -0.14859454 0.97935361 0.029955937 0.19992274 0.0020589035
0.29949138 -0.083067007 -0.1487682 -0.98106825 0.024569541 0.19209744 0.0021775144
0.30022022 -0.082224503 -0.14582312 -0.98222804 0.01247184 0.18727686 0.0021507791
-0.30046812 -0.074370019 -0.14217971 0.97674382 -0.056891654 0.20672414 0.0014009608
0.29991454 -0.070077643 -0.14212453 -0.97723287 -0.066578232 0.20145296 0.0016005475
-0.29896533 -0.060748242 -0.14079432 0.9720996 -0.11185055 0.20618396 0.00021385992
0.2976988 -0.062671371 -0.14803748 -0.97331488 -0.11199133 0.20028995 0.00011559366
-0.29696366 -0.053324375 -0.14567609 0.97066838 -0.12782304 0.20362756 2.7563399e-05
0.29750997 -0.059769414 -0.14711642 -0.97274202 -0.11334483 0.20230143 0.00016391122
0.2962501 -0.045397341 -0.14410281 -0.97065938 -0.12778187 0.20369624 0
-0.29409754 -0.032772385 -0.14644015 0.9706617 -0.12779963 0.20367412 1.0245352e-05
0.29487562 -0.03640138 -0.14500889 -0.97066426 -0.12778793 0.20366907 0
-0.29281658 -0.023520263 -0.1467399 0.96981704 -0.13567103 0.20260385 0.00015454304
0.29346412 -0.02545714 -0.14486896 -0.97046912 -0.12940587 0.20357744 2.9548501e-06
-0.29136151 -0.0091105597 -0.14463319 0.9562692 -0.2157338 0.19750454 0.0018607862
-0.28964904 -0.0011135475 -0.14591712 0.94353187 -0.26664278 0.19659425 0.0017382138
0.28931573 -0.0022608782 -0.14891514 -0.94453341 -0.25196707 0.21064018 0.0022188916
0.29180402 -0.008229835 -0.14197156 -0.95481521 -0.20804153 0.21224187 0.0020251248
-0.28858525 0.0016868101 -0.14548999 0.93891346 -0.28066942 0.19916376 0.0019546354
0.28758645 0.0063982275 -0.14125866 -0.91736907 -0.34275737 0.20236418 0.00050185376
-0.28252143 0.017369229 -0.14357108 0.90948421 -0.36197662 0.20447814 0.00021584242
0.28449401 0.011287177 -0.14599912 -0.91229111 -0.35505715 0.20410641 0.00030443174
-0.28054583 0.023735246 -0.14063407 0.9048959 -0.37381074 0.20354104 0
-0.27718318 0.028689716 -0.14645416 0.90450841 -0.37467149 0.20368055 0
0.27782011 0.026326496 -0.14797284 -0.9045164 -0.37466729 0.20365271 0
-0.27587509 0.030491946 -0.14894822 0.90450978 -0.37466675 0.20368329 4.8480297e-06
0.27726987 0.031951278 -0.14006898 -0.90450466 -0.37467059 0.20369911 1.5707494e-05
-0.27129355 0.046147473 -0.14049575 0.90337682 -0.3773559 0.20374666 0
-0.26994216 0.046056442 -0.14666493 0.90305823 -0.378185 0.20362207 4.8103837e-05
0.26779488 0.049950507 -0.14903799 -0.90212631 -0.38103679 0.20243272 0.00012885814
0.27067223 0.044329874 -0.14659894 -0.90451187 -0.3746711 0.20366615 3.1822728e-05
-0.26481628 0.056803744 -0.14965935 0.884691 -0.41799369 0.20640498 0.001017023
0.26699829 0.053576566 -0.14590539 -0.90013057 -0.38615134 0.20162353 0.00024095496
-0.2631436 0.065340422 -0.14138389 0.8717339 -0.44194525 0.2115761 0.0013986829
0.26217896 0.065298662 -0.14574485 -0.86851698 -0.45376313 0.19944264 0.0022487815
-0.25482079 0.077772953 -0.14361815 0.81305969 -0.54893565 0.19391637 0.0015247226
-0.25024274 0.082543299 -0.14711781 0.79546934 -0.56985921 0.20612833 0.001063992
0.24668911 0.087179549 -0.14710286 -0.78372449 -0.58682013 0.20351443 0.0001801109
0.25086766 0.082878128 -0.14375468 -0.78714335 -0.58200443 0.20414749 0.00026332401
-0.24057847 0.095801309 -0.14517665 0.77670908 -0.59602988 0.20364539 2.5859521e-05
-0.23973131 0.097629137 -0.14305855 0.7767241 -0.59601086 0.20364362 9.482339e-06
0.2455385 0.09063223 -0.14138703 -0.77935839 -0.5921163 0.204936 7.589013e-05
-0.23302734 0.10690191 -0.14148997 0.77673668 -0.59598684 0.20366615 9.0307566e-07
0.22997645 0.10805091 -0.14976294 -0.77671295 -0.59601009 0.20368823 0
0.23139445 0.10830808 -0.14360251 -0.77672058 -0.59599775 0.20369534 0
-0.22555122 0.11566294 -0.14436349 0.77489549 -0.59910399 0.20152263 1.8158886e-05
0.22311069 0.11867777 -0.14484902 -0.75513464 -0.6214177 0.20883431 0.00069608586
-0.22192472 0.12018757 -0.14495313 0.75324899 -0.62304437 0.21078818 0.0008234565
-0.21717116 0.1255206 -0.1474753 0.73290342 -0.64367419 0.22030911 0.0016484247
0.21789993 0.12570551 -0.14415592 -0.7356078 -0.64551574 0.20540334 0.0014201421
-0.21297544 0.13273764 -0.14233732 0.69005167 -0.6920194 0.21198544 0.0026301332
-0.20423345 0.1391575 -0.14343631 0.62801754 -0.74915719 0.21061206 0.00093206717
0.20233673 0.13908434 -0.14926659 -0.63674426 -0.74189466 0.2101167 0.0013254276
-0.19388393 0.14684346 -0.14441106 0.60140616 -0.77278364 0.20277102 7.0309587e-05
0.1931542 0.14721447 -0.1451318 -0.596053 -0.77669847 0.20361808 1.4238462e-05
0.20121267 0.14197575 -0.1415288 -0.62787306 -0.75026149 0.2070825 0.00072736084
-0.19040045 0.15007672 -0.14227436 0.59682828 -0.77618039 0.20332231 8.6589107e-06
-0.18296437 0.15566532 -0.14272188 0.59608054 -0.77665609 0.20369892 0
-0.17853838 0.15801436 -0.14671561 0.59600508 -0.7767188 0.20368096 0
0.17951003 0.1574716 -0.14594196 -0.59598607 -0.77673477 0.20367537 7.7474988e-06
0.18075743 0.15614283 -0.14735906 -0.59601867 -0.77670372 0.20369855 0
-0.17543525 0.16166732 -0.14186521 0.59604204 -0.77670372 0.20363024 0
-0.16720283 0.16695009 -0.14580941 0.59283388 -0.77934343 0.20290846 5.023825e-05
0.16640213 0.16756514 -0.14580695 -0.58462512 -0.78611082 0.20060727 0.00031579548
-0.15221086 0.17984077 -0.14052024 0.50017405 -0.84198809 0.20219292 0.0027898017
0.15537968 0.17567226 -0.14714465 -0.5405612 -0.81589645 0.20519902 0.0018065013
0.16321613 0.17023277 -0.14495674 -0.57804871 -0.79048973 0.20244893 0.00043786364
-0.14704561 0.18207201 -0.14233243 0.46765879 -0.86037391 0.20261312 0.002437376
-0.13520378 0.18585275 -0.14732577 0.39249358 -0.89695597 0.20351593 0.00031316199
-0.12775378 0.18991441 -0.14299212 0.35471857 -0.91329652 0.20016046 0.00050442584
0.13270004 0.18632695 -0.14982551 -0.38622946 -0.89995915 0.20223857 0.00022859457
0.1469101 0.18183583 -0.14363064 -0.46622914 -0.85865074 0.21295379 0.0021240271
-0.12714334 0.19048932 -0.14156181 0.35309121 -0.91381955 0.20065023 0.00044734092
-0.10046982 0.19883467 -0.14383422 0.24938539 -0.94766539 0.1993421 0.00080917584
-0.099241987 0.19869164 -0.14595383 0.24736007 -0.94954872 0.19279571 0.00095339009
0.10709643 0.19763955 -0.14668447 -0.37467083 -0.90451628 0.2036472 4.3774389e-06
0.11480558 0.19501644 -0.14415245 -0.37468079 -0.90450257 0.20368935 0
-0.091665581 0.20048952 -0.14491268 0.23828743 -0.93760031 0.2532286 0.072666854
-0.084132515 0.20210831 -0.14476687 0.12963176 -0.96819884 0.21397793 0.060559146
-0.072439402 0.20469478 -0.14072666 0.15785602 -0.97103029 0.17939231 0.00013363079
-0.061391864 0.20557472 -0.14383565 0.16642347 -0.96891588 0.18304466 0.00043744073
-0.056846838 0.20597084 -0.14493027 0.1726459 -0.96705097 0.18709844 0.00047348332
-0.045239892 0.20915152 -0.14086933 0.21788755 -0.95728225 0.19009405 0.0004548076
0.084583461 0.20797887 -0.14218046 -0.29615992 -0.9331032 0.20397961 0.0020115529
0.090342097 0.20583224 -0.14112042 -0.33961219 -0.91846496 0.2026962 0.0011036629
0.10180203 0.2010923 -0.14108977 -0.37259105 -0.90550023 0.20308943 1.2731871e-06
-0.03259021 0.21178675 -0.14444487 0.40492082 -0.90369004 0.13922442 0.13592322
-0.022022285 0.2148328 -0.1434069 0.11926629 -0.97504306 0.1872609 0.13697733
-0.014928223 0.2172018 -0.14116487 -0.0062048356 -0.98010308 0.19839254 0.095926084
-0.0054492019 0.21850722 -0.14703396 0.016223537 -0.98197109 0.18833381 0.046076261
0.0061589023 0.21899566 -0.14779216 0.0030007011 -0.9834125 0.18135825 0.0045949505
0.016173871 0.21880102 -0.14243567 -0.10422406 -0.9739722 0.20128442 0.00057459768
0.026564572 0.21764827 -0.14140992 -0.12779708 -0.97066534 0.20365837 0
0.03420629 0.21655728 -0.14181471 -0.12779669 -0.97066474 0.20366156 0
0.045388401 0.21425635 -0.14576465 -0.12778507 -0.97067207 0.20363377 3.9748697e-06
0.052448012 0.21386014 -0.14322346 -0.12871702 -0.97055799 0.20359053 0
0.068006441 0.21086179 -0.14775163 -0.18426549 -0.96037233 0.20912044 0.00093963154
-0.095692009 0.22956632 -0.14243764 0.98975205 0.13877212 0.033661053 0.013043225
0.0008367548 0.22120464 -0.14060354 0.047942296 -0.98098439 0.18807212 0.0057042986
-0.027992001 0.23587127 -0.14650333 -0.96043384 -0.1786489 0.21366185 0.0834243
-0.095692001 0.24116465 -0.14637236 1 -2.8490138e-05 6.8207232e-06 0
-0.095691994 0.25804806 -0.14286891 1 1.7320008e-05 2.2497677e-06 0
-0.027992001 0.25927335 -0.14433523 0.99919385 -0.017818395 -0.035974413 0.0056415871
-0.095692001 0.26567951 -0.14759366 0.99999845 -0.00076120975 0.0015911328 6.8632853e-06
-0.027992001 0.26503903 -0.14830333 0.99792945 -0.0092177195 -0.063653626 0.0077864425
-0.095692001 0.27332613 -0.1400204 1 2.4348103e-05 -1.3156913e-05 2.33332e-06
-0.027992001 0.2753602 -0.14467572 1 -1.3808052e-05 3.7155257e-06 0
-0.095692009 0.28528568 -0.14164017 0.99977952 -0.0047358042 -0.020458231 0.00068147137
-0.027991999 0.28897631 -0.14359489 0.99999946 2.9512195e-05 0.0010636214 2.413286e-06
-0.095692009 0.29836863 -0.14629312 0.99998051 0.00099689956 0.0061660521 9.6002099e-05
-0.027991999 0.29504722 -0.14553577 0.99999934 -0.00016506773 0.0011428004 2.4878348e-06
-0.095692001 0.30236751 -0.14074931 0.99738765 -0.0046538827 -0.072084755 0.010228286
-0.027991999 0.30810854 -0.14179987 0.99887449 0.0054758652 0.047115203 0.0059222081
-0.095692009 0.31586614 -0.14498731 0.99999744 0.0020886692 0.00084690412 0.00039714176
-0.027992003 0.31529507 -0.14596008 0.99999988 3.8088707e-05 -0.00046314384 1.234647e-07
-0.095692001 0.32722923 -0.14591213 0.99996066 -0.0040431432 0.0078955321 7.4487412e-05
-0.027992001 0.33470121 -0.14372014 0.99999839 0.0010617826 -0.0014438287 1.0471555e-05
-0.095692001 0.34515968 -0.14422531 0.99314469 -0.0549694 0.10315969 0.013230526
-0.027991999 0.34660149 -0.14616767 -0.98087436 -0.043985799 0.18960665 0.035536632
-0.095692001 0.35200927 -0.14524643 0.98053461 -0.091444872 0.17375195 0.033816278
-0.027992001 0.35394546 -0.1436242 -0.97439659 -0.10858171 0.19687884 0.038763084
-0.095692009 0.36538243 -0.1434328 0.94934088 -0.15294251 0.27451849 0.056936141
-0.027991999 0.36508191 -0.14497709 -0.89291507 -0.23319247 0.38512841 0.082245328
-0.095692001 0.37307489 -0.14088978 0.92027092 -0.11792332 0.37308908 0.055103436
-0.027992003 0.37388897 -0.14036585 -0.90997148 -0.22680937 0.34714487 0.08045198
-0.084529594 0.38448542 -0.14835295 0.57466406 -0.46402869 0.67412066 0.10127994
-0.050599646 0.38800097 -0.14607276 -0.12178085 -0.54654574 0.82852715 0.028012609
-0.045567043 0.3852337 -0.14786765 -0.26093927 -0.52102727 0.81267542 0.070999458
-0.034624476 0.38729089 -0.14653333 -0.42351061 -0.50374752 0.75291246 0.076351516
-0.027992001 0.38393292 -0.14492297 -0.76284707 -0.32626745 0.55822384 0.098341763
-0.093583286 0.39437819 -0.14193648 0.76493973 -0.42318726 0.48557156 0.073699564
-0.085969388 0.3924368 -0.14319566 0.434089 -0.54836452 0.71474677 0.084740825
-0.062046468 0.39193285 -0.14352253 0.0052471524 -0.59488869 0.80379093 0.0018069356
-0.057164982 0.39649612 -0.1405628 0.011489706 -0.62929958 0.77707785 0.0025335585
-0.042670779 0.39081973 -0.14424449 -0.32201129 -0.52799743 0.78582913 0.072202019
-0.033008963 0.39347997 -0.14251906 -0.48554972 -0.53781223 0.68920201 0.084261499
-0.028943004 0.39293116 -0.14287505 -0.62104613 -0.47504815 0.62340271 0.086010613
-0.026670128 -0.38052458 -0.13010572 0.12464229 0.97102016 0.20392162 0
-0.013341896 -0.38140097 -0.13429154 0.082296245 0.97594857 0.20187061 0.000977388
-0.004940745 -0.38220343 -0.13573851 0.050924145 0.97584856 0.21242975 0.0020019382
0.0027503464 -0.38290432 -0.13377257 -0.003732234 0.98059881 0.19599026 0.0027767059
0.010198582 -0.38239491 -0.13152716 -0.074285105 0.97687042 0.20051445 0.0013537268
0.02616692 -0.38040102 -0.13101083 -0.12779269 0.97065616 0.20370486 0
-0.082818642 -0.37108862 -0.13391849 0.28763458 0.93446308 0.20986931 0.0017324814
-0.075140439 -0.37242612 -0.13761915 0.21567905 0.95512003 0.20304766 0.0014236704
-0.064887397 -0.37463683 -0.13418728 0.17769179 0.96307027 0.20229016 0.0011993812
-0.052033626 -0.37600857 -0.13571423 0.12839001 0.97057647 0.20370881 2.4842151e-05
-0.046647642 -0.37696058 -0.13455665 0.12845242 0.97056866 0.20370711 0
-0.036543462 -0.37791991 -0.13632432 0.12779604 0.97066844 0.20364413 9.4924297e-05
-0.025701793 -0.37983185 -0.13401471 0.12233783 0.97110868 0.20489381 2.7894941e-05
0.034921829 -0.37859312 -0.13413404 -0.12778062 0.97066408 0.20367466 0
0.056437217 -0.3756457 -0.13468145 -0.13215093 0.96984172 0.2048002 0
0.062624529 -0.37486115 -0.13453823 -0.15370753 0.96675122 0.20436797 0.0005064563
0.075064279 -0.37398767 -0.13089558 -0.21192692 0.95743096 0.19599229 0.0019759233
0.081502318 -0.37099734 -0.1367448 -0.27052709 0.93994451 0.20813316 0.0025916761
-0.10460414 -0.36199987 -0.13420841 0.37462181 0.904535 0.20365424 0
-0.090937197 -0.36737558 -0.13547437 0.33943525 0.91915822 0.19982962 0.0011180743
-0.089447498 -0.3691377 -0.13038887 0.33507875 0.9196527 0.20484437 0.0011250114
0.087445721 -0.36994863 -0.13046871 -0.31960991 0.92595226 0.20115149 0.001777745
0.10401522 -0.3624171 -0.13343576 -0.37469146 0.90450484 0.20365979 0
-0.12622771 -0.35177144 -0.13985646 0.3746317 0.90453541 0.20363389 7.9253541e-06
-0.11232147 -0.35837033 -0.13613153 0.37465197 0.90450621 0.2037265 3.4853545e-06
0.11314871 -0.35776463 -0.1372959 -0.37472084 0.90449291 0.20365851 3.5024888e-05
0.12491078 -0.35293794 -0.13709545 -0.37470213 0.90450054 0.20365931 0
-0.15072992 -0.34209785 -0.13774352 0.48824984 0.84813875 0.20560344 0.0019989717
-0.14442259 -0.34498346 -0.13653123 0.45240456 0.86760563 0.20637468 0.0022707195
-0.13896143 -0.34844476 -0.13120539 0.38578922 0.89906013 0.20702083 8.2040671e-05
0.13367802 -0.34940705 -0.13664924 -0.39729875 0.89503354 0.20265402 0.00056020601
-0.16586849 -0.33182386 -0.13310492 0.57532412 0.79178381 0.20513539 0.00048304009
0.15752712 -0.33713794 -0.13724929 -0.52467781 0.82740372 0.20029034 0.0023329125
0.16363473 -0.33339661 -0.13364479 -0.57543063 0.79150069 0.20592766 0.00049966015
-0.17230718 -0.32669625 -0.13381797 0.59569627 0.77692723 0.20378922 0
0.1742654 -0.32412949 -0.13787839 -0.59599596 0.77673471 0.20364681 1.6608594e-05
-0.19273651 -0.31061995 -0.13534467 0.59703845 0.77584404 0.20398842 0
-0.18496871 -0.31599963 -0.13755932 0.595999 0.77673191 0.20364843 4.4647804e-06
0.18173063 -0.3193379 -0.13430637 -0.59597307 0.77674091 0.20369004 1.2995698e-06
0.19245669 -0.31126758 -0.13369559 -0.59719592 0.77598661 0.20298216 1.1150967e-05
-0.20068395 -0.30476189 -0.13442862 0.61271644 0.76460701 0.19988661 0.00032991232
-0.19589294 -0.308355 -0.13474569 0.60484916 0.77058214 0.20089959 0.00023476666
0.19430602 -0.30841911 -0.13914694 -0.6019125 0.77219296 0.2035176 0.00013590684
0.20470968 -0.30100608 -0.13697308 -0.62432086 0.75341129 0.20638503 0.00097833015
-0.21071894 -0.29734117 -0.13336334 0.66885155 0.71507716 0.20322977 0.0020745986
-0.22321172 -0.28240088 -0.13508654 0.75793129 0.62178934 0.19727719 0.00085626234
-0.21838406 -0.28991863 -0.13149796 0.71473825 0.6690051 0.20391512 0.0022352764
0.21651094 -0.28948039 -0.1399252 -0.71543896 0.66848814 0.20315193 0.0024175032
-0.23146704 -0.27103484 -0.13686472 0.77542728 0.59776253 0.20345131 8.3112252e-05
-0.22627668 -0.27779496 -0.1368764 0.76840186 0.60762763 0.20086609 0.00025026186
0.22634071 -0.27738842 -0.13782248 -0.76786506 0.60688192 0.20512816 0.0003608003
0.23121759 -0.27154905 -0.13631153 -0.77665693 0.59607267 0.20371921 7.8705489e-05
-0.23552734 -0.26545292 -0.13771448 0.77675211 0.59596872 0.20366001 3.9921149e-05
0.23715551 -0.26402891 -0.13567238 -0.77672899 0.59598398 0.20370361 0
-0.24525483 -0.25411758 -0.1337875 0.7766856 0.5960474 0.2036836 0
0.24573418 -0.25273973 -0.13599145 -0.77751559 0.59485006 0.20401695 0
-0.25412828 -0.24236034 -0.13435222 0.78697234 0.58185542 0.20522876 0.00028882187
0.24968348 -0.24888107 -0.13222152 -0.78438014 0.58623832 0.20266335 0.00029320663
0.25532997 -0.24048796 -0.13524854 -0.80857754 0.55114543 0.20601228 0.0016445555
-0.26078722 -0.23289852 -0.13664509 0.8404398 0.50258231 0.20266204 0.0028848194
-0.25876012 -0.23533277 -0.13725264 0.82849759 0.5241003 0.19725789 0.0026855697
0.25636798 -0.23866859 -0.13661394 -0.81777406 0.53666568 0.20793205 0.0019009049
0.26137441 -0.23212886 -0.13627581 -0.84544718 0.49193314 0.20789614 0.001861386
-0.26470694 -0.22663191 -0.13301837 0.86409807 0.4607693 0.20254906 0.0028471199
0.26572824 -0.22452246 -0.13236332 -0.87345284 0.44050559 0.20744875 0.0015633777
-0.27041706 -0.21227875 -0.13406239 0.89962173 0.38540104 0.20529699 0.0002305205
-0.26950407 -0.21446681 -0.13409209 0.8979196 0.39075658 0.20260723 0.00041007341
0.26876006 -0.21566761 -0.13518749 -0.8920027 0.40384576 0.20307596 0.00070521573
0.27038756 -0.21250179 -0.13378321 -0.89573383 0.39493117 0.20418207 0.00047150368
-0.27524775 -0.2009985 -0.13335943 0.90452105 0.37465164 0.20366098 0
0.2736122 -0.2036165 -0.13580729 -0.90450382 0.37468085 0.2036837 9.3753537e-05
-0.27712974 -0.19547373 -0.13516459 0.90450293 0.37470314 0.20364656 1.6114514e-05
0.27776256 -0.19373603 -0.13555077 -0.9045136 0.37465256 0.20369263 1.016935e-06
-0.28293535 -0.18258065 -0.13309918 0.90450597 0.37470689 0.20362663 0
-0.2853891 -0.17473656 -0.136632 0.91116738 0.35676679 0.2061343 0.00029597958
0.28663811 -0.1725338 -0.13513716 -0.91566563 0.34758204 0.20184945 0.0007450449
-0.2909109 -0.16348 -0.13281642 0.92975432 0.30378559 0.20801741 0.0018830053
-0.28972384 -0.16621178 -0.13306297 0.9310773 0.30198777 0.20469128 0.0018168482
0.29085594 -0.16468951 -0.13083556 -0.93456733 0.29513392 0.19869545 0.0016574172
-0.29281604 -0.15413168 -0.13599207 0.95357782 0.22500564 0.20015451 0.0022655122
0.29400727 -0.1544809 -0.13009535 -0.95422602 0.21776114 0.20501927 0.0017603878
-0.29441202 -0.14568639 -0.13368487 0.96888828 0.15379144 0.19391669 0.00055421615
0.29487053 -0.14416139 -0.1324565 -0.96469992 0.16701132 0.20362057 0.0010590388
-0.29473975 -0.13752125 -0.13724628 0.96917814 0.14345047 0.20028915 0.00031569527
0.29423827 -0.13940564 -0.13845395 -0.96911401 0.1431051 0.20084566 0.00027870314
-0.29629692 -0.12596557 -0.13707587 0.97065616 0.12782131 0.20368689 0
0.29657418 -0.12660123 -0.13535544 -0.97067064 0.12779485 0.20363441 0
0.29821852 -0.11263528 -0.1362818 -0.97067243 0.12776694 0.2036434 2.0217324e-06
-0.29949984 -0.10670562 -0.13389564 0.97066295 0.12781125 0.20366088 2.2209537e-05
0.29921696 -0.10783973 -0.13453224 -0.970662 0.12776668 0.20369349 4.242298e-05
-0.30049053 -0.094691612 -0.13671224 0.97500461 0.090707675 0.20282502 0.00090586994
0.29932037 -0.098787874 -0.13971907 -0.97416556 0.10448214 0.2002123 0.00053516292
0.3016831 -0.095348649 -0.13061617 -0.97571647 0.086411245 0.20127225 0.0010732262
0.30171788 -0.08594732 -0.13634932 -0.97652829 0.04684858 0.21023251 0.0019454829
-0.3020798 -0.075838298 -0.13541962 0.97669828 -0.029473731 0.21258372 0.0018879162
0.30188334 -0.070690423 -0.13312571 -0.97497839 -0.065513797 0.21242677 0.0016957497
-0.30043405 -0.066525526 -0.13741967 0.97556889 -0.085830681 0.20223337 0.0007519573
0.30167651 -0.066291995 -0.13135175 -0.97472584 -0.089619346 0.20464097 0.00090367557
-0.29911453 -0.05544807 -0.13675761 0.97066587 -0.12778772 0.20366144 0
0.29836941 -0.053889714 -0.13933089 -0.97088206 -0.12563057 0.20397308 1.2466514e-05
-0.29803571 -0.045775354 -0.13582978 0.97066492 -0.12780134 0.20365754 1.2147261e-05
0.29780206 -0.042787984 -0.13506876 -0.9706651 -0.1277978 0.20365889 0
-0.29713327 -0.036110908 -0.1340667 0.97065747 -0.12779592 0.20369676 0
0.29674044 -0.036128603 -0.13595001 -0.97066563 -0.1277944 0.20365833 0
-0.2957736 -0.023514898 -0.13264324 0.96928751 -0.13530511 0.20536387 0.00014195955
0.29582635 -0.026083332 -0.13400361 -0.96975791 -0.13212681 0.20521259 2.33598e-05
-0.29320133 -0.01221835 -0.13781446 0.96176553 -0.18835078 0.19882421 0.001432882
-0.29182112 -0.0030500488 -0.13863973 0.9444837 -0.25527143 0.20685044 0.0019369798
0.2918959 -0.0042803474 -0.13810067 -0.95000684 -0.23423037 0.20645392 0.0018387418
-0.2885614 0.0089923479 -0.13215661 0.92016321 -0.33478889 0.20301719 0.0010681575
0.28829291 0.0078084348 -0.1355269 -0.9152987 -0.34883508 0.20135151 0.00055491057
0.2923373 0.00093014556 -0.13021843 -0.93422365 -0.29196948 0.20489022 0.0022505741
-0.28564152 0.013957073 -0.1359912 0.91416681 -0.35038468 0.20378804 0.00050230307
0.28456199 0.016179852 -0.13669659 -0.91030043 -0.35967612 0.2049055 0.00021412586
-0.28160828 0.025450122 -0.13276085 0.90451384 -0.37466893 0.2036614 1.3161814e-05
0.27989146 0.027011955 -0.13751248 -0.9045068 -0.37467036 0.20368971 7.9424763e-06
0.28151816 0.025085924 -0.13383105 -0.90450913 -0.37466758 0.20368493 0
-0.27713367 0.035343386 -0.1344339 0.90451026 -0.37467694 0.20366216 2.5067779e-05
0.2775096 0.03604193 -0.13147917 -0.90450954 -0.37468609 0.20364878 2.4263909e-05
-0.27205402 0.045940682 -0.13749886 0.90332544 -0.37740481 0.20388421 4.1633844e-05
0.27322841 0.04404977 -0.13576162 -0.90450656 -0.37469327 0.20364878 2.5138317e-05
-0.26852712 0.057543401 -0.13181798 0.89136016 -0.40084919 0.21165305 0.0005352064
0.26886532 0.054958589 -0.13507113 -0.89747655 -0.39334419 0.19954024 0.00043125154
-0.26456484 0.06593284 -0.13398211 0.86988139 -0.44492808 0.21294467 0.001417785
0.26351508 0.06779132 -0.13522531 -0.85153019 -0.47504538 0.22187428 0.0026853422
-0.26007539 0.072614342 -0.13867457 0.85518944 -0.48166028 0.19145326 0.0021345858
-0.25616223 0.077534951 -0.13919874 0.81218892 -0.54950958 0.1959293 0.001375915
0.25877464 0.076007642 -0.13370521 -0.81165099 -0.53754866 0.22861356 0.0020317179
0.261879 0.072130695 -0.1332114 -0.83338106 -0.49997976 0.23557653 0.0026770907
0.24974823 0.088273674 -0.13223442 -0.78531283 -0.58467525 0.20356444 0.00020920698
-0.24673006 0.09208861 -0.13258085 0.77672011 -0.59601563 0.2036449 0
0.2457097 0.09223938 -0.13603111 -0.77690315 -0.59581012 0.20354839 0
-0.23719497 0.10364977 -0.13511269 0.77672035 -0.59600693 0.20366965 0
0.23552904 0.10563328 -0.13566156 -0.77673316 -0.59598225 0.2036926 0
0.22559571 0.11865315 -0.1354439 -0.76727057 -0.60782081 0.20457186 0.00026691359
-0.21649051 0.12990859 -0.13723005 0.70703191 -0.67440808 0.21279009 0.0024081112
0.21999301 0.12768467 -0.1303816 -0.73104054 -0.64712507 0.21635357 0.0015014887
0.22284219 0.12273245 -0.13400756 -0.73869938 -0.63897043 0.21456936 0.0014453812
-0.21344769 0.13407372 -0.13449576 0.67585504 -0.70675439 0.20908894 0.0027145057
0.20775722 0.13895287 -0.13390547 -0.65421265 -0.72605824 0.21176679 0.0014903875
0.21203174 0.13562803 -0.13403122 -0.66685337 -0.71287435 0.21706419 0.0014071766
0.19558291 0.14765662 -0.13633822 -0.59743643 -0.77573282 0.20324458 0
0.20250931 0.14256999 -0.13546817 -0.62878096 -0.74874109 0.20981267 0.00082865014
-0.19048564 0.15220812 -0.13389647 0.59714502 -0.77588439 0.20352213 0
-0.18482642 0.15649173 -0.13412113 0.59603119 -0.77670693 0.20364979 1.498721e-05
0.1790615 0.15998748 -0.13765955 -0.59603101 -0.77670473 0.2036584 0
0.18460509 0.15597759 -0.13672948 -0.59602338 -0.77671051 0.20365877 1.0379241e-05
0.19116051 0.15244529 -0.13101709 -0.59729022 -0.77579594 0.20343308 0
-0.16808374 0.16833065 -0.13796635 0.59242219 -0.77926296 0.20441426 5.257456e-05
0.17329073 0.16556264 -0.13328488 -0.59597856 -0.77674288 0.20366648 0
-0.16476583 0.17167854 -0.13490798 0.59185886 -0.77970386 0.2043649 0.00010863307
-0.15512459 0.17963035 -0.13279605 0.52255797 -0.82566601 0.21262343 0.0024240152
0.16161795 0.17353645 -0.13703436 -0.57900578 -0.7897085 0.2027628 0.00033531571
-0.15075326 0.18118903 -0.13943328 0.48383284 -0.85200644 0.19997706 0.0029446965
0.14850083 0.18394628 -0.13133134 -0.46374753 -0.86138743 0.20724356 0.001769728
-0.13098949 0.190965 -0.13237381 0.36858779 -0.90779591 0.20012417 0.00036789104
-0.12432481 0.19295271 -0.13580641 0.34133285 -0.91825402 0.20075223 0.00041584572
-0.11883885 0.19506957 -0.13649695 0.30903065 -0.9287377 0.20480798 0.00071107183
0.11853939 0.1958974 -0.13337116 -0.37469244 -0.90450239 0.20366937 0
0.12868969 0.19187957 -0.13254258 -0.37467632 -0.90451133 0.2036588 0
-0.10574688 0.20030105 -0.13023755 0.26131117 -0.94464236 0.19841187 0.00086927554
-0.09488859 0.20190217 -0.13388467 0.23488967 -0.95650166 0.17300703 0.054393049
-0.08376649 0.20396404 -0.13539818 0.14684023 -0.97387928 0.17319696 0.053934053
-0.076251879 0.20465448 -0.13822828 0.15892284 -0.97039402 0.18187658 0.00017373469
-0.055683572 0.20752366 -0.13735555 0.1746871 -0.96592641 0.19097288 0.00059859455
0.085144624 0.20860511 -0.13836694 -0.29509866 -0.93341714 0.20408104 0.0018995361
0.10201055 0.20130751 -0.13975041 -0.37236905 -0.90562588 0.20293589 0
-0.033678263 0.21331963 -0.1357511 0.39553213 -0.8871302 0.23781171 0.085679762
-0.023605304 0.21612456 -0.13523114 0.13781083 -0.91841918 0.37082937 0.16813782
-0.016943483 0.21811071 -0.13426249 -0.025152452 -0.94868988 0.31520593 0.14930131
0.01397067 0.21969195 -0.13957196 -0.073927 -0.97697347 0.20014414 0.0022148381
0.025346901 0.21812502 -0.13990182 -0.12779483 -0.97066134 0.20367861 0
0.03000937 0.21753585 -0.13978426 -0.12779424 -0.97066897 0.20364276 0
0.040986456 0.21756083 -0.13277744 -0.1277895 -0.97066396 0.20366983 0
0.058502927 0.21412557 -0.13815939 -0.14838539 -0.96635586 0.21009116 0.00032273505
0.063605271 0.21450074 -0.13316979 -0.16590527 -0.96245068 0.21485835 0.00084305718
0.077078007 0.21175565 -0.13698405 -0.25911704 -0.94287354 0.2093987 0.0027027668
0.012717349 0.22076151 -0.13526085 -0.038388029 -0.97996026 0.19545928 0.0033337648
-0.095692009 0.23651153 -0.13910104 1 -1.6270562e-05 3.6019094e-06 0
-0.027992003 0.23582825 -0.13230994 0.99677211 0.076188125 -0.025311051 0.097015135
-0.095691994 0.24451284 -0.13256836 1 -8.2318666e-06 1.2463136e-05 0
-0.027991999 0.24438643 -0.13523665 -0.99030757 -0.1193724 0.071000911 0.024341365
-0.095691994 0.25795227 -0.1359131 1 2.2832657e-05 -5.4880111e-06 2.0913951e-06
-0.027991999 0.25573224 -0.1379616 0.99999672 -0.0012041624 -0.0022559902 1.6740445e-05
-0.095691994 0.26241469 -0.13798295 1 1.6106394e-05 5.624197e-06 0
-0.027992001 0.2679553 -0.13295193 0.99852896 0.022749463 0.049218152 0.0054624369
-0.095691994 0.27651966 -0.13825393 0.99889565 -0.015143582 -0.044476748 0.0046832399
-0.027992001 0.27647206 -0.13234915 0.99183452 0.045636408 0.11908615 0.027863318
-0.095692001 0.28642422 -0.1336 0.99057335 -0.027550606 -0.13418455 0.026156722
-0.027992001 0.28405461 -0.13546126 0.99034351 0.018658472 0.13737354 0.029701984
-0.095692001 0.290914 -0.13239901 0.96850824 -0.033641238 -0.24669833 0.044572681
-0.027992003 0.29705083 -0.13668296 0.99398512 -0.00298087 0.10947443 0.019305523
-0.095692009 0.30944723 -0.13984606 0.99538296 -0.0084035471 -0.095615543 0.015399034
-0.027992003 0.30552959 -0.13654894 0.98596978 0.068184853 0.15236253 0.036995448
-0.095692009 0.3170214 -0.13572437 0.99255967 0.017887522 -0.12043809 0.017532216
-0.027992003 0.31622678 -0.13410006 0.99441552 0.00085476111 0.10553242 0.01857263
-0.095691994 0.32527584 -0.13571715 0.99665189 0.022346783 -0.078648843 0.011904738
-0.095692009 0.33412758 -0.13369501 0.99155176 0.028505508 -0.12654056 0.018384218
-0.027992003 0.33563253 -0.1323404 0.99240291 0.0035362022 0.12297918 0.01270656
-0.095692009 0.34627318 -0.13855948 0.99972612 -0.0077227424 0.022089751 0.0012236343
-0.027992003 0.34288031 -0.13545866 0.99647737 -0.022901528 0.080674611 0.0043530646
-0.095692009 0.35843009 -0.13797212 0.9900859 -0.067766443 0.12303463 0.022604654
-0.027991999 0.35814768 -0.13859202 -0.98491257 -0.084051169 0.15127002 0.035385996
-0.095692001 0.36405197 -0.13392399 0.98946172 -0.10165663 0.10310855 0.02185772
-0.027991999 0.36680245 -0.13399138 -0.97397715 -0.16402473 0.15641128 0.052556399
-0.095692001 0.37220588 -0.13723961 0.96747345 -0.080681637 0.23976175 0.045733955
-0.027992001 0.37984771 -0.13732949 -0.90480888 -0.23268515 0.35662094 0.087762207
-0.095691994 0.38020846 -0.13797608 0.89875007 -0.24037112 0.36670148 0.068200156
-0.027992001 0.38403898 -0.13358602 -0.94056857 -0.20258102 0.27256492 0.063024819
-0.095692001 0.39811608 -0.1376776 0.73209363 -0.45228076 0.50939286 0.084524453
-0.0730533 0.39774716 -0.13975137 0.081794456 -0.6373899 0.76618785 0.018902838
-0.068367817 0.39891693 -0.13899264 -0.00044041965 -0.64537752 0.76386368 0.0020758586
-0.041096941 0.399569 -0.13836424 -0.33860353 -0.60456777 0.72100317 0.066185832
-0.034450088 0.39932925 -0.13862178 -0.41554755 -0.60401875 0.68005997 0.066942781
-0.094766431 0.40141353 -0.135042 0.72553885 -0.43154004 0.53606588 0.071770884
-0.085910521 0.40314409 -0.13452466 0.32400453 -0.66464192 0.67325485 0.072259143
-0.076386824 0.4028165 -0.13487647 0.20797832 -0.70017761 0.68300545 0.041928455
-0.057851851 0.40377828 -0.13384354 -0.0035290536 -0.68455207 0.72895545 0.0020490244
-0.04461953 0.40361187 -0.13402225 -0.24504508 -0.67403603 0.69687039 0.044819772
-0.032495163 0.40253156 -0.13518253 -0.51511365 -0.57359648 0.63690269 0.07262183
-0.033306435 -0.38023567 -0.12731844 0.12781568 0.97065532 0.20369469 9.5481213e-05
-0.024463339 -0.38198221 -0.12454332 0.11953759 0.97141266 0.20510514 8.9709451e-05
-0.016609332 -0.38257566 -0.12664287 0.10722756 0.97236478 0.20738609 0.00046788389
0.0035581859 -0.38474724 -0.12448245 -0.02673392 0.97643471 0.21415067 0.0020895433
0.013790673 -0.38282523 -0.12722245 -0.10147586 0.97350591 0.20491181 0.0009486553
0.028739413 -0.38109267 -0.12610035 -0.12778005 0.97066802 0.2036557 0
0.042994253 -0.3800106 -0.12231332 -0.12781678 0.9706549 0.20369554 0
-0.09041664 -0.37071633 -0.12159492 0.3265042 0.92147815 0.21041165 0.0014074817
-0.082630605 -0.37269846 -0.12711471 0.28736001 0.9358182 0.20412853 0.0020302986
-0.077110916 -0.37465745 -0.12641934 0.22278517 0.95228493 0.20861517 0.00157003
-0.066460736 -0.37632778 -0.12514077 0.18470983 0.95811385 0.21886124 0.0014277061
-0.041950449 -0.37965012 -0.12468536 0.12778157 0.97066242 0.20368199 0
-0.039142761 -0.37967828 -0.12631279 0.12780625 0.97065806 0.20368722 2.681325e-05
0.039506055 -0.37924951 -0.12812938 -0.12779143 0.97065943 0.20369001 0
0.046977654 -0.37909341 -0.12418509 -0.12780145 0.97066087 0.20367713 5.0509909e-05
0.055522591 -0.37750155 -0.12641044 -0.13136667 0.96995109 0.20478664 8.7320281e-05
0.061785579 -0.37663132 -0.12662803 -0.16696288 0.96482766 0.20305394 0.00090460194
0.078034267 -0.37558687 -0.12141035 -0.23521934 0.95055068 0.20279348 0.002208679
0.0852497 -0.37242225 -0.12352276 -0.29756057 0.93224758 0.20584531 0.0021184355
-0.10775953 -0.36334375 -0.12243539 0.37469915 0.90448987 0.20371188 6.805289e-05
-0.094355226 -0.36785692 -0.12704928 0.34690025 0.91585213 0.20217593 0.00089639594
0.090724692 -0.36993492 -0.12449747 -0.33250117 0.92222488 0.19734298 0.0014991037
0.10719506 -0.36232981 -0.12797351 -0.37468824 0.90450531 0.20366375 0
0.11206815 -0.36127496 -0.12369364 -0.3747094 0.90450209 0.20363919 0
-0.13415749 -0.35141742 -0.12684077 0.37781668 0.90332615 0.20311695 2.3254788e-05
-0.12737641 -0.35510683 -0.12293009 0.37749639 0.90332264 0.20372674 4.6804038e-05
-0.11574054 -0.35927847 -0.12580884 0.37466446 0.90451282 0.20367396 1.8759878e-05
0.11932123 -0.35776734 -0.12592904 -0.37464795 0.90453011 0.20362756 4.8789127e-07
0.12618944 -0.35520282 -0.12468435 -0.3746874 0.90450716 0.20365696 2.5163841e-05
0.13542888 -0.35145855 -0.12431723 -0.39119315 0.89663726 0.20738766 0.00033407492
-0.15343498 -0.34248319 -0.12883854 0.5100379 0.83556503 0.20418762 0.0019734909
-0.14404851 -0.34777033 -0.12484235 0.44751319 0.87197053 0.1984928 0.0016690976
0.14572464 -0.3465389 -0.12722714 -0.41814488 0.88433874 0.20760515 0.001190564
0.1515111 -0.34531125 -0.12203474 -0.47533897 0.85431284 0.21024361 0.0021241785
-0.16744114 -0.33233213 -0.1265642 0.58101553 0.7876671 0.20494278 0.00046946539
0.15868327 -0.33959678 -0.12448835 -0.53074455 0.8184163 0.22023846 0.0017372357
-0.18435174 -0.32085037 -0.12086518 0.59602129 0.77671182 0.20366004 2.6976644e-05
-0.17641714 -0.32586876 -0.12494625 0.59603119 0.77669942 0.20367819 4.5280151e-05
0.1703704 -0.32947278 -0.12889834 -0.59459984 0.77799398 0.20291959 4.4227243e-05
0.18167922 -0.32225209 -0.12334259 -0.59598863 0.77673221 0.20367786 0
-0.19514035 -0.31099409 -0.12688321 0.59843117 0.77497512 0.20320843 3.1480438e-05
-0.18332206 -0.31991947 -0.12742871 0.59600353 0.77672428 0.20366427 0
0.18777728 -0.3167707 -0.12640192 -0.59604704 0.77668506 0.20368688 0
0.19162938 -0.31408966 -0.12535392 -0.59729934 0.77572411 0.20367986 3.46091e-05
-0.20732842 -0.30264089 -0.1230733 0.63150579 0.74922943 0.19963883 0.0011046731
-0.19821423 -0.30915648 -0.12489603 0.60837018 0.76737845 0.20252417 0.00031575232
0.20689243 -0.30294755 -0.12318102 -0.6417399 0.73861116 0.20645484 0.0015682513
-0.21623902 -0.29418606 -0.12565666 0.7007575 0.68376386 0.20348449 0.0022976887
-0.20878483 -0.29987076 -0.12937596 0.65484029 0.72747415 0.20485523 0.0018679305
0.21499652 -0.29591832 -0.12477396 -0.68021047 0.70309228 0.20730394 0.0025390489
0.2244844 -0.28342053 -0.12724984 -0.75023168 0.62668669 0.21075161 0.00097458169
-0.23070669 -0.27543539 -0.12688649 0.77586108 0.59712589 0.20366728 0
-0.22755522 -0.27958006 -0.12677649 0.76471275 0.61140484 0.20346616 0.00030288001
0.23189548 -0.27530152 -0.12274504 -0.7747159 0.59863544 0.2035948 3.9339233e-05
-0.24130964 -0.26314279 -0.12242261 0.77669257 0.5960502 0.20364901 0
-0.23703511 -0.2678937 -0.12482158 0.77672446 0.59601104 0.20364188 0
0.23964819 -0.26481438 -0.12386738 -0.77673858 0.59598511 0.20366384 9.8317487e-06
0.24143867 -0.26188344 -0.12561586 -0.77676779 0.59595346 0.2036451 3.0904109e-06
-0.24718992 -0.25492766 -0.12403694 0.77672392 0.59601456 0.20363341 3.829259e-05
0.24386458 -0.25873309 -0.12558289 -0.77675408 0.59596932 0.20365098 3.5923058e-05
-0.25497779 -0.24530268 -0.12250203 0.796848 0.57281309 0.19214161 0.0006259025
-0.2499304 -0.24993443 -0.12819737 0.78297472 0.58771104 0.20382865 0.0001861935
0.25520238 -0.2440124 -0.12542118 -0.78617728 0.58295286 0.20516163 0.00035827287
-0.26252657 -0.23482512 -0.12437378 0.83622128 0.51479095 0.18900853 0.0021537787
-0.25862166 -0.23907101 -0.12684128 0.82450306 0.53296918 0.19010197 0.0021546185
0.25815681 -0.2389895 -0.12885262 -0.82624525 0.52521437 0.20363855 0.0020149422
0.2633222 -0.23440416 -0.12257136 -0.84016931 0.50129968 0.20691592 0.0018910434
-0.26592645 -0.22742675 -0.12614022 0.86866444 0.45482638 0.19635433 0.0024356942
-0.27108994 -0.21476603 -0.12649864 0.89687139 0.39091051 0.20690756 0.00042476624
0.26945776 -0.21693608 -0.12975536 -0.89110458 0.40488434 0.2049423 0.00076586718
0.27155289 -0.21356837 -0.12664573 -0.89922428 0.38949627 0.19921938 0.00034729281
-0.27488169 -0.2058515 -0.1260577 0.90452182 0.3746556 0.20365031 0
0.27671948 -0.20336334 -0.12247278 -0.90450579 0.37467384 0.20368747 0
-0.28031638 -0.19096644 -0.12930384 0.90451044 0.37466297 0.20368744 5.6233721e-06
-0.2781738 -0.19772741 -0.12638164 0.90451771 0.37464938 0.20368001 5.7196521e-05
0.27931938 -0.19734973 -0.12198867 -0.90449202 0.37472755 0.20365041 0
0.28134018 -0.19161639 -0.12356119 -0.90448368 0.37473351 0.20367636 0
-0.28322294 -0.18708253 -0.12354004 0.90448105 0.37474918 0.20365927 3.910181e-06
0.28303692 -0.18570699 -0.12689681 -0.90450436 0.37468866 0.203667 2.6283446e-05
-0.28758535 -0.17598844 -0.1245749 0.90954363 0.36035886 0.20705539 0.00028749465
0.28708023 -0.17645796 -0.12595436 -0.90842909 0.36354017 0.20638594 0.00010509683
0.29050428 -0.17039159 -0.12190752 -0.9256193 0.31841734 0.20454651 0.001442842
-0.29490641 -0.16044812 -0.12064917 0.94149816 0.25821584 0.21657762 0.002716891
0.29300731 -0.16319701 -0.12402638 -0.94067848 0.28044641 0.19098127 0.0017922716
-0.29461339 -0.15323049 -0.12799126 0.95726198 0.21430562 0.19422287 0.0021022314
0.29659218 -0.14170501 -0.12579246 -0.96696967 0.15503031 0.20232469 0.00070963852
-0.29827461 -0.13213114 -0.12378136 0.97046173 0.12966734 0.20344608 0
0.29784015 -0.13339794 -0.12505716 -0.97065657 0.12782168 0.20368469 1.3731963e-06
0.29830188 -0.12367387 -0.12895823 -0.97066659 0.12776671 0.20367126 4.1808613e-05
-0.29876292 -0.11938968 -0.12944917 0.97066057 0.12782907 0.20366102 0
0.29937816 -0.11620016 -0.12851822 -0.97065967 0.12779203 0.20368825 6.8542213e-05
0.30078501 -0.11142653 -0.12480837 -0.9706648 0.12774657 0.20369264 2.3620856e-05
-0.30121106 -0.10189369 -0.12875919 0.97212267 0.1145685 0.20457676 0.00020375263
0.30435574 -0.084431365 -0.12472859 -0.97966051 0.053580154 0.1933766 0.001533733
-0.30391857 -0.074512966 -0.12582451 0.97925991 -0.037785083 0.19905341 0.0017024745
-0.30207953 -0.063484795 -0.12766933 0.97272873 -0.10911945 0.204675 0.0002687372
0.30362785 -0.066066742 -0.12191019 -0.97178912 -0.11148439 0.20783912 0.00017456188
-0.30259138 -0.057453148 -0.12144505 0.97257942 -0.11650934 0.20128287 0.00021019182
0.30195773 -0.052463323 -0.12133384 -0.97066462 -0.12778594 0.20366862 0
-0.29973233 -0.042524088 -0.12570374 0.97066253 -0.12779628 0.20367208 0
0.30027324 -0.047163531 -0.12603682 -0.97065747 -0.12780108 0.20369326 3.1513184e-05
-0.29897875 -0.03502214 -0.12458794 0.97065377 -0.12779041 0.20371772 0
0.29856175 -0.033933274 -0.1258921 -0.97066665 -0.12778953 0.20365684 2.4162657e-07
-0.29715696 -0.023717908 -0.12617755 0.97065234 -0.1282554 0.20343195 3.3758439e-05
0.29699194 -0.021157244 -0.12535718 -0.96818084 -0.14436948 0.20440955 0.0003123577
-0.29636961 -0.015091905 -0.1245175 0.96452045 -0.16405301 0.20684987 0.00078120315
0.29578209 -0.011310589 -0.1249451 -0.95899516 -0.18737739 0.21264546 0.0017583852
0.29508829 -0.0061107976 -0.12498887 -0.95299524 -0.22007312 0.20824932 0.0023846836
-0.28964868 0.0098118074 -0.12582013 0.91796291 -0.33736199 0.20864105 0.0010868709
0.29139954 0.0046802573 -0.12748428 -0.92862773 -0.31325862 0.19879527 0.0015425854
-0.28909552 0.014078839 -0.12042721 0.91161209 -0.35747522 0.20291574 0.00060833496
0.28721389 0.01541518 -0.12632562 -0.91339058 -0.35289529 0.20293468 0.00039120534
-0.28359908 0.02536656 -0.12407299 0.90451235 -0.37468547 0.20363721 3.3069158e-05
0.28316581 0.024926649 -0.1268065 -0.90450966 -0.374663 0.20369087 0
-0.28083313 0.03264305 -0.12297138 0.90450913 -0.37467834 0.20366475 1.1958184e-05
-0.27876389 0.035828553 -0.12630111 0.90450925 -0.37467414 0.20367226 2.8171929e-05
0.2794497 0.034539577 -0.1256267 -0.90450603 -0.37469107 0.20365538 3.3114189e-05
-0.27816725 0.04061342 -0.12014879 0.90451121 -0.37467158 0.20366803 9.2387354e-06
0.2737076 0.046800498 -0.12857331 -0.90411842 -0.37561533 0.20367399 1.9172219e-05
-0.27255458 0.05097352 -0.12601715 0.90175831 -0.3812075 0.20374675 6.8120287e-05
-0.26850927 0.062070675 -0.123569 0.87964928 -0.4274419 0.20859171 0.0014957879
0.26594564 0.068488464 -0.12314814 -0.8572796 -0.46610534 0.21867202 0.0023427436
-0.26156411 0.075111985 -0.1256879 0.83428282 -0.51622504 0.19360733 0.0019713177
0.25922465 0.078995012 -0.12324664 -0.7978093 -0.56410056 0.21281677 0.00090931938
0.26255745 0.074434392 -0.12355133 -0.80220586 -0.55663091 0.2159349 0.0010741426
-0.25308275 0.086554162 -0.12454921 0.79477721 -0.57111728 0.20531489 0.0005113245
0.25393346 0.084963873 -0.12595867 -0.78484207 -0.58421856 0.20666793 0.00020897802
-0.24760714 0.094005778 -0.12362542 0.77671134 -0.5960201 0.20366518 0
0.24460723 0.097662613 -0.12436496 -0.77695715 -0.59571195 0.20362917 1.0174529e-05
0.23755479 0.1062762 -0.12605447 -0.77670503 -0.59602714 0.20366886 0
0.240464 0.10182528 -0.12798466 -0.77669227 -0.59603256 0.2037016 0
-0.23060605 0.11423466 -0.12926537 0.77483821 -0.59849405 0.20354527 3.612864e-05
-0.22937666 0.11677508 -0.12651967 0.76978153 -0.60464817 0.20454098 0.00019904632
0.23247191 0.1131504 -0.12532282 -0.77543396 -0.59784275 0.20319043 0
-0.22452611 0.12439378 -0.12272297 0.75699496 -0.61951226 0.20775774 0.00089159771
0.21901087 0.12973997 -0.12811267 -0.71851611 -0.6627965 0.21079706 0.0021021937
0.22161469 0.12725812 -0.1254451 -0.73741001 -0.64353502 0.20515662 0.0016114562
-0.2149646 0.13510646 -0.12573871 0.68713397 -0.69697493 0.20511666 0.0026201818
-0.20977104 0.13893414 -0.12808293 0.66255343 -0.72035849 0.20519897 0.0018946584
0.21476491 0.13541381 -0.1251056 -0.68294364 -0.69910347 0.2117599 0.0021613622
-0.20444141 0.14372033 -0.12542628 0.62725341 -0.75427163 0.19397756 0.0011200937
-0.19723669 0.14928696 -0.12528065 0.60066199 -0.77260214 0.20564789 6.7115878e-05
0.19743156 0.1494402 -0.12412624 -0.60467613 -0.76971132 0.2047224 0.00019533465
0.20473476 0.14343056 -0.1256735 -0.64041781 -0.73965222 0.20683242 0.0011881562
-0.19489945 0.15154649 -0.12350303 0.59846157 -0.77467728 0.20425214 1.1935801e-05
-0.18515281 0.15835537 -0.12605846 0.59601885 -0.77671087 0.20367049 2.8208518e-05
0.18693918 0.15683861 -0.12661529 -0.59601045 -0.77671701 0.20367184 0
-0.18175384 0.16135296 -0.12457316 0.59601521 -0.77671307 0.2036729 1.8037981e-05
-0.17354786 0.16699803 -0.12705846 0.59520048 -0.77729666 0.20382932 3.6000994e-05
-0.16994722 0.16914578 -0.12940447 0.59195548 -0.77940571 0.20522057 4.6689038e-05
0.17339766 0.16746873 -0.12570268 -0.59370279 -0.77861035 0.20318219 5.8683736e-07
-0.16305655 0.17518336 -0.12654354 0.56918252 -0.79679805 0.20284019 0.0012098579
-0.15887928 0.1789052 -0.12457377 0.55540246 -0.80696291 0.20084558 0.0014301442
0.15922602 0.17795244 -0.12719266 -0.569139 -0.79796141 0.19833899 0.00052106869
0.1646461 0.17407413 -0.12612212 -0.57432181 -0.79324406 0.20228283 0.00040329352
-0.15240207 0.18266132 -0.12789765 0.4862709 -0.84902644 0.20662706 0.0022999241
-0.13690352 0.18941402 -0.12838252 0.39992949 -0.89451271 0.19975829 0.00092325179
0.14724536 0.185522 -0.12664273 -0.45076868 -0.8686797 0.20543426 0.001461998
0.15191363 0.18458726 -0.12220641 -0.47712988 -0.85276926 0.21244238 0.0025294279
-0.12374922 0.19557124 -0.12523578 0.31716794 -0.92751265 0.19779968 0.00068340689
