# .PCD v0.7 - Point Cloud Data file format
VERSION 0.7
FIELDS x y z normal_x normal_y normal_z curvature
SIZE 4 4 4 4 4 4 4
TYPE F F F F F F F
COUNT 1 1 1 1 1 1 1
WIDTH 585
HEIGHT 1
VIEWPOINT 0 0 0 1 0 0 0
POINTS 585
DATA ascii
-0.18305135 0.27348769 -0.14109635 0.60823923 -0.79262251 0.042361703 2.2612474e-05
-0.17511946 0.27924198 -0.14730683 0.60224169 -0.79716218 0.04286442 2.6655494e-05
-0.089123338 0.2717725 -0.14966187 0.37148824 -0.92717046 0.048489951 8.6881329e-05
-0.071722478 0.27926034 -0.14356048 0.29076973 -0.95453447 0.065702945 0.0020773415
0.06689588 0.27801275 -0.14330029 -0.32035267 -0.94660491 0.036240589 0.0014753155
0.076015145 0.27411103 -0.14600927 -0.3487992 -0.93614417 0.044420362 0.00073896447
0.1692294 0.27795944 -0.14291711 -0.60819262 -0.79265797 0.042366747 6.4027081e-06
0.17208031 0.27576423 -0.14305992 -0.60819459 -0.7926569 0.04235895 4.6063938e-06
-0.17252231 0.28129512 -0.14617953 0.6005103 -0.79845464 0.043099109 5.1282434e-05
-0.16551924 0.28657755 -0.14788499 0.58003771 -0.81297195 0.051310446 0.00057170348
-0.065865196 0.28023505 -0.14857465 0.2202204 -0.97482115 0.035024449 0.0025077588
-0.052568469 0.28200862 -0.14803687 0.14432402 -0.98894095 0.034152158 0.00012881869
-0.04589095 0.28301439 -0.14507735 0.13389967 -0.99013686 0.04122724 6.1798928e-05
-0.024941355 0.2858156 -0.14406867 0.12911637 -0.99079049 0.040780425 6.403205e-05
-0.0085058026 0.28808948 -0.14149547 -0.0032434782 -0.99867976 0.051266253 0.0024051303
0.0078881793 0.2868602 -0.14791849 -0.064705685 -0.99631858 0.056235529 0.0014615172
0.017172316 0.2858696 -0.14250383 -0.11555785 -0.99228477 0.044915974 0.00022343238
0.020590264 0.28523517 -0.14681506 -0.11698491 -0.99200284 0.047378384 0.00022535908
0.036053091 0.28328717 -0.14476499 -0.1304207 -0.99055439 0.042338215 5.1026844e-05
0.054958072 0.28071964 -0.14660284 -0.21488628 -0.97554684 0.046177257 0.0020337601
0.15370104 0.28961876 -0.14770488 -0.53889585 -0.84029186 0.059168618 0.0020438463
-0.15181816 0.29580066 -0.14969707 0.50674391 -0.8609243 0.044944372 0.0023122958
0.13983743 0.29794326 -0.1401411 -0.44754878 -0.89266473 0.053383023 0.0020102097
0.14258453 0.29658735 -0.14488888 -0.48728174 -0.87148613 0.055392325 0.0021854639
-0.13805594 0.30168581 -0.1456756 0.39693996 -0.91696614 0.040147923 0.00046276863
-0.12268615 0.30806145 -0.14547363 0.38235787 -0.923042 0.042378999 0
0.11408487 0.3084873 -0.14281993 -0.38236922 -0.92303753 0.042374998 3.6498903e-05
0.12699425 0.30281734 -0.14984792 -0.39623684 -0.91720217 0.041673128 0.00032074243
-0.1150011 0.31119111 -0.14664133 0.38235474 -0.92304373 0.042367999 5.4647368e-05
-0.10095935 0.31710851 -0.14443927 0.37634122 -0.9254787 0.043086227 9.3755836e-05
-0.095311671 0.31920385 -0.14975329 0.34497881 -0.93722802 0.050924025 0.0011566919
0.094875649 0.31649435 -0.14172401 -0.3723278 -0.92712075 0.04265108 8.0797188e-05
0.10267933 0.31331635 -0.14053966 -0.38236782 -0.92303872 0.042360101 5.443499e-05
-0.082207471 0.32452121 -0.1466236 0.26317114 -0.96402901 0.037269752 0.0020532112
-0.079432935 0.32536754 -0.14092693 0.25965339 -0.96464741 0.045115616 0.0019572126
-0.048528444 0.32925704 -0.14511395 0.13042761 -0.99055326 0.042341776 3.374102e-05
0.037636109 0.32984239 -0.14074175 -0.13042691 -0.99055344 0.04233928 8.7952569e-05
0.056584388 0.32707131 -0.14720336 -0.13042517 -0.99055195 0.042382874 3.0933832e-05
0.066200182 0.32608038 -0.14077598 -0.19318455 -0.97970563 0.053446647 0.0012231567
-0.039214052 0.33037961 -0.14753732 0.13040167 -0.99055338 0.042418886 0
-0.027766805 0.33181798 -0.14914256 0.12431853 -0.99133778 0.042357795 1.996084e-05
-0.017854165 0.33347142 -0.14100036 0.1060243 -0.99338686 0.044062436 0.00043684297
-0.0022470928 0.33481392 -0.14726612 -0.00083121192 -0.99889874 0.04691188 0.001624513
0.014339834 0.33275938 -0.14424853 -0.12108359 -0.99172062 0.042768124 0.00016933326
0.029932823 0.33083928 -0.14114544 -0.1304197 -0.99055332 0.042365409 8.1517966e-05
0.030583926 0.33066046 -0.14332139 -0.13041317 -0.99055403 0.042368792 0
-0.10653643 -0.2906346 -0.13309509 0.1935446 0.97586113 0.10117008 0.012865169
-0.07822293 -0.29088008 -0.13425277 0.030587899 0.99499458 0.095131695 0.097889528
-0.041332386 -0.29530376 -0.1302008 -0.095922314 0.95711249 0.27337635 0.11378539
-0.031487551 -0.29118317 -0.13725509 0.12191129 0.61389071 0.77992046 0.1915098
-0.12774007 -0.28193057 -0.13270132 0.48176184 0.87628937 0.0047457474 0.014945499
-0.11465802 -0.28834972 -0.13532791 0.30787325 0.94430041 0.11623603 0.014355763
-0.1093206 -0.28949797 -0.13874128 0.27704349 0.95232016 0.12780175 0.014152166
-0.021723613 -0.28871405 -0.13515957 -0.41971675 0.85647833 0.30047083 0.16359316
-0.015643442 -0.28526843 -0.13957934 -0.26103425 0.93475914 0.24101129 0.17931858
-0.0063442532 -0.28722882 -0.13099989 -0.1214093 0.98932749 0.080566287 0.17626096
0.0088311723 -0.28622556 -0.13353258 -0.15867208 0.87255692 0.46202561 0.18728751
0.014705497 -0.28664538 -0.13195777 -0.52137387 0.59113342 0.61541092 0.19110289
-0.1349991 -0.27694625 -0.13243552 0.50147432 0.86482978 -0.024348065 0.015331935
-0.0044111661 -0.2708523 -0.13116819 0.036596075 0.98844653 -0.14708544 0.12770076
0.05591052 -0.27955663 -0.13667902 -0.20606509 0.91429842 0.34870562 0.18176779
0.092134923 -0.27567133 -0.13608825 -0.12664337 0.82750368 0.54699099 0.15830319
0.10665734 -0.27024937 -0.13979936 -0.42969871 0.77272779 0.46717322 0.18084285
-0.17153412 -0.26064378 -0.13449585 0.44633061 0.8912189 -0.080734201 0.010120465
-0.074577451 -0.26143047 -0.13547541 0.25544304 0.96435863 -0.069003172 0.1505747
-0.032345608 -0.2669203 -0.13711302 0.45202115 0.88830453 0.081190467 0.18874481
-0.02203987 -0.26850921 -0.13168761 0.10287062 0.99152851 0.079301901 0.20913908
0.0041140602 -0.26967862 -0.13530521 -0.17717853 0.98391491 0.022782488 0.13682932
0.018639531 -0.26772922 -0.13617244 -0.25590715 0.95263261 0.16432501 0.11612328
0.0254358 -0.26692751 -0.13399769 -0.13450351 0.96248198 0.23566347 0.15329479
0.044721298 -0.26439697 -0.13380088 -0.19958524 0.97984618 -0.0081905108 0.12403748
0.054434065 -0.26296467 -0.13739005 -0.30405861 0.95186651 -0.038710956 0.11799251
0.11951785 -0.26951319 -0.13177797 0.016410556 0.65209436 0.75796014 0.20275125
0.12711529 -0.26572287 -0.13542998 0.15657543 0.67547214 0.72057027 0.19455229
0.13550495 -0.26526183 -0.13141274 -0.17852141 0.83590364 0.5190329 0.17895423
0.14239818 -0.26033571 -0.13568154 -0.38601148 0.65050751 0.65409106 0.22606127
-0.18313307 -0.25364619 -0.13735136 0.55376977 0.82672727 -0.099302694 0.011968879
-0.17951411 -0.2559914 -0.13745932 0.49929437 0.85984224 -0.1066605 0.011841867
-0.10312395 -0.25201502 -0.1310951 0.37203732 0.92729896 0.041289844 0.00021649576
-0.099699028 -0.25330371 -0.13392492 0.36459827 0.93019909 0.042400599 0.00041847542
-0.083791919 -0.25978413 -0.13628869 0.29782945 0.95402771 0.033596236 0.0018325337
0.077305041 -0.25936881 -0.13288049 -0.14349902 0.97627109 0.16218123 0.20169391
-0.12348171 -0.24351457 -0.13257582 0.38236618 0.92303777 0.04239624 0
-0.10820715 -0.24994946 -0.130225 0.38234332 0.92304897 0.04235917 2.2999282e-05
0.10830885 -0.24649379 -0.13359524 -0.32429537 0.90364975 -0.27973127 0.20178542
0.11659876 -0.2428219 -0.13878086 -0.55588984 0.78650624 -0.26906192 0.22728971
0.12072857 -0.24136865 -0.13317542 -0.023665147 0.78455055 -0.61961317 0.2573911
0.1645236 -0.24899262 -0.13441244 -0.52182949 0.71099442 0.4713608 0.21256149
0.17720844 -0.2421619 -0.13573572 -0.5006181 0.8601746 -0.097371243 0.10491857
-0.204301 -0.23382223 -0.13561206 0.68373466 0.72093797 -0.11293956 0.0016997292
-0.15012014 -0.23236388 -0.13511771 0.43204793 0.90113652 0.035881981 0.001281825
-0.14641543 -0.23392713 -0.13449195 0.43203425 0.90114254 0.035894971 0.0012909297
0.12787986 -0.23824224 -0.13675261 -0.14451131 0.89776564 -0.41609302 0.20319417
0.18599366 -0.23317744 -0.13256472 -0.70255297 0.68998873 -0.17416912 0.16929334
-0.16567391 -0.22244695 -0.13296762 0.56775469 0.82175165 0.048774607 0.0018068613
-0.15846159 -0.22796141 -0.13333668 0.52519679 0.85047632 0.02929798 0.0021494757
-0.028993649 -0.22085381 -0.13515708 0.13040806 0.99055541 0.042352017 1.3333521e-05
0.0017922048 -0.22321506 -0.13946074 -0.052986663 0.99755508 0.045565631 0.0017959327
0.018667553 -0.22119549 -0.13473701 -0.12484653 0.99135804 0.04028111 8.0036283e-05
0.024083816 -0.22034639 -0.1379168 -0.13041174 0.99055326 0.042390678 0
0.15504052 -0.22461289 -0.13215382 -0.43089512 0.86611146 -0.25333852 0.27025372
0.18955296 -0.22957368 -0.13014291 -0.77486515 0.31400073 -0.54862332 0.19740131
0.19772023 -0.2229448 -0.13535298 -0.97516346 0.11127841 -0.191503 0.21403085
-0.17749357 -0.2132161 -0.13598448 0.60822314 0.79263264 0.042405397 1.1972164e-05
-0.080611832 -0.21121591 -0.13382021 0.33662599 0.94080794 0.039538894 0.0011754195
-0.068784311 -0.21575117 -0.13198087 0.24391216 0.9688769 0.042242806 0.0020722155
-0.051151007 -0.21812236 -0.13081953 0.13040891 0.99055415 0.042379178 0
0.035737395 -0.21912381 -0.13063346 -0.13082373 0.99050158 0.042329077 6.7412234e-06
0.065220729 -0.21406561 -0.13962924 -0.30040085 0.95266861 0.046710745 0.0021176131
0.17268351 -0.21091571 -0.13513151 -0.19485208 0.92889118 0.31495082 0.20176774
0.19926506 -0.21985561 -0.13011089 -0.83988136 0.13092552 -0.52674264 0.14086583
0.20364872 -0.21657929 -0.13595782 -0.99512017 0.0089248475 0.098265551 0.11319
-0.19183452 -0.20229781 -0.13437769 0.60819077 0.79265982 0.042359654 6.8440357e-05
-0.18430308 -0.20825861 -0.13097951 0.6082142 0.79264069 0.042382076 0
-0.099781692 -0.20320228 -0.1354153 0.38237467 0.92303431 0.042393968 0
0.079580106 -0.20830503 -0.13555111 -0.36484167 0.93018055 0.040679127 0.00022495477
0.088773489 -0.20455259 -0.1343407 -0.38234639 0.92304695 0.042372495 3.1831813e-05
0.18322751 -0.2028746 -0.13420451 -0.61753923 0.74095798 0.26386845 0.19747746
-0.19783702 -0.19772349 -0.13378727 0.61311036 0.7888146 0.043210614 4.0668921e-05
-0.12824506 -0.19142818 -0.13507095 0.46187109 0.88453245 0.065401472 0.0018916078
-0.11204138 -0.19802648 -0.13754231 0.39352852 0.91848356 0.039028522 0.00022975361
0.11649325 -0.19305822 -0.13461241 -0.4432216 0.89518201 0.046943419 0.0019255809
0.12279244 -0.19051978 -0.13307142 -0.50365227 0.86330557 0.032217164 0.0018785517
0.18880837 -0.19845584 -0.13675596 -0.73384619 0.65561944 0.17785646 0.18250957
0.19813678 -0.19142625 -0.13435589 -0.76318806 0.64099145 0.081694357 0.10569471
-0.21595484 -0.18360633 -0.13477141 0.69485116 0.71869296 0.025737811 0.0026961302
-0.13754426 -0.18589881 -0.13124622 0.54040664 0.84014362 0.046037465 0.0025910663
0.12438091 -0.18993343 -0.13151158 -0.50438303 0.86276549 0.035121582 0.0019999929
0.1348844 -0.18151148 -0.13856715 -0.57478517 0.81762034 0.033451028 0.0010513376
0.20582862 -0.18545417 -0.13566314 -0.7328012 0.67961371 0.033579785 0.042783935
-0.2200015 -0.17954081 -0.13782945 0.72195446 0.69072354 0.041023035 0.002172133
-0.14744288 -0.17819217 -0.1333251 0.6015743 0.79771197 0.041999828 0.00010233626
0.21791363 -0.17206129 -0.13707657 -0.75034058 0.65933841 0.047558736 0.0010063779
-0.23211665 -0.1637858 -0.13734524 0.78902549 0.61306387 0.039892815 5.6373021e-05
-0.22896278 -0.16802381 -0.13551135 0.78867471 0.61349899 0.040140107 8.5846696e-05
-0.16168496 -0.16732171 -0.13224277 0.6082148 0.79263967 0.04239209 0
-0.15841863 -0.16948511 -0.13865644 0.60817444 0.79267228 0.042362221 0
0.15400121 -0.16693333 -0.13687104 -0.60820335 0.79264766 0.042407572 1.3216067e-05
-0.17479435 -0.15702754 -0.13663685 0.64592159 0.76154488 0.053241931 0.00090570585
0.16690648 -0.15724641 -0.1328382 -0.64541173 0.76276475 0.040418651 0.0011826634
0.17217338 -0.15310621 -0.13468513 -0.65737152 0.75226861 0.044212215 0.001128563
0.23218453 -0.15348528 -0.13675854 -0.79263532 0.60822016 0.042396005 1.2172708e-05
-0.24658091 -0.14496495 -0.13692398 0.79263657 0.60821909 0.04238889 0
-0.19145054 -0.14113759 -0.13397637 0.75601143 0.65293401 0.046085294 0.001262731
-0.18794909 -0.14540665 -0.13819656 0.72717589 0.68478888 0.047743492 0.0019709656
0.17694287 -0.14918308 -0.13961044 -0.70589322 0.70681345 0.046147995 0.0027296669
0.18293241 -0.14175603 -0.13727188 -0.7646637 0.64336371 0.037049614 0.0010595471
0.23886688 -0.14466536 -0.13835564 -0.7926138 0.60824639 0.042422328 0
0.24197045 -0.14084388 -0.13515294 -0.79264385 0.60820663 0.042431414 1.5694834e-05
-0.25413305 -0.13525876 -0.13497338 0.80051702 0.59778994 0.042657822 0.0002228755
-0.19417454 -0.13756548 -0.1342935 0.75878632 0.65006936 0.040658627 0.001334938
0.24874866 -0.13200068 -0.1352922 -0.80841291 0.5871371 0.041697364 0.00062484801
-0.2636618 -0.12287626 -0.13446259 0.83672929 0.54619193 0.039478954 0.0017312252
0.19407609 -0.127233 -0.13727625 -0.79214644 0.6088506 0.042484757 0
0.25224766 -0.12717083 -0.13916455 -0.83588189 0.54621881 0.054282468 0.0021139227
-0.2692731 -0.11267354 -0.13268428 0.88458657 0.46474314 0.0389915 0.0023338839
-0.20867562 -0.11841974 -0.13784611 0.79262644 0.60823268 0.042383991 0
0.20158938 -0.11738416 -0.13809848 -0.79263556 0.60822171 0.042371061 0
0.26204526 -0.11107878 -0.13314226 -0.8957814 0.44223055 0.044809077 0.0012175456
-0.2715393 -0.10689671 -0.13544177 0.90386355 0.42516994 0.047551669 0.0012119609
-0.21743454 -0.10729786 -0.13364224 0.810754 0.58252388 0.057827152 0.00076862564
0.26540792 -0.1031338 -0.13157977 -0.90906084 0.41451308 0.042276122 0.0006055382
-0.27731231 -0.093156822 -0.13366078 0.92305106 0.38233981 0.042342197 0
0.21731988 -0.097143181 -0.13437608 -0.85991067 0.50815177 0.048326064 0.0025762522
-0.28158998 -0.082603469 -0.13570113 0.92303234 0.38238361 0.042356629 7.4349889e-05
-0.2793822 -0.088479117 -0.13077928 0.9230535 0.38232902 0.042388834 0
-0.2298899 -0.087007537 -0.13302356 0.89913994 0.436782 0.02772578 0.0013206404
0.22418363 -0.0813751 -0.13676757 -0.91464931 0.40231201 0.039518058 0.00046218617
0.27439192 -0.081447259 -0.1315549 -0.9230482 0.38234109 0.04239469 0
-0.28332815 -0.078466199 -0.13516888 0.92305559 0.38231853 0.042437777 0
-0.23546927 -0.073455021 -0.13377006 0.9220944 0.38473868 0.041448709 3.1755346e-05
0.22693209 -0.074560091 -0.13838808 -0.92028791 0.38875043 0.04408275 1.8411078e-05
0.27815589 -0.071430847 -0.1399391 -0.92303479 0.38237733 0.042361375 6.4241918e-05
-0.29066563 -0.060440969 -0.1379738 0.93615258 0.34464565 0.069554247 0.001384318
-0.24057826 -0.060713671 -0.13744247 0.92304814 0.38234395 0.042369317 7.7745854e-06
0.28020674 -0.067328393 -0.13228232 -0.92304456 0.38235506 0.042348307 4.4810826e-05
-0.29333758 -0.054491468 -0.13345239 0.95195794 0.30235672 0.048543666 0.0027039985
-0.24438319 -0.052263744 -0.1308039 0.92501742 0.37746924 0.043124218 9.6010808e-06
0.23359354 -0.059229873 -0.1316053 -0.92304772 0.38234314 0.042386718 0
0.28542385 -0.054661214 -0.13293126 -0.9484843 0.31474417 0.036244027 0.0013817963
-0.29661596 -0.045905739 -0.1341192 0.96510619 0.25769466 0.046513841 0.003465153
-0.24733074 -0.044456322 -0.13704051 0.93716627 0.34651324 0.040594626 0.00080513378
0.23951226 -0.044596225 -0.13471365 -0.93098968 0.36240152 0.043855593 0.00042266175
-0.29843345 -0.03230669 -0.13819718 0.98360461 0.17423314 0.046526745 0.0012538211
0.24337761 -0.035241354 -0.1349221 -0.94974196 0.3092936 0.04824565 0.0015270421
0.28995433 -0.038137339 -0.13455522 -0.97599107 0.21583894 0.029239923 0.0017206285
-0.41963691 -0.020321563 -0.13641004 0.20569935 0.97811943 0.031146619 0.035138596
-0.29905307 -0.028202903 -0.13634285 0.98682374 0.15542415 0.044969294 0.00056819414
-0.25321156 -0.023332223 -0.13380274 0.97921997 0.19811691 0.043335956 0.0014753287
0.29155099 -0.025120579 -0.13728985 -0.98814595 0.14713828 0.043793809 0.00021961042
-0.40486827 -0.019359859 -0.13465817 0.36297694 -0.93178862 -0.004204738 0.026452158
-0.39378023 -0.012876718 -0.13546224 0.50137609 -0.85617679 0.12483316 0.028197462
-0.30047643 -0.017940551 -0.13465345 0.99035096 0.13183844 0.042704403 8.1028826e-05
0.29305124 -0.015022944 -0.13329621 -0.99055427 0.13040902 0.042375747 0
0.42359492 -0.011813685 -0.13278228 -0.29728109 0.94923741 0.10282141 0.022177663
-0.39083552 -0.0096381232 -0.13277927 0.6418736 -0.75526291 0.13257524 0.010930897
-0.30173329 -0.009312598 -0.13182668 0.99055219 0.13043338 0.042349979 0.00011084837
-0.25544134 -0.0055667083 -0.13635218 0.99055225 0.13041595 0.042401016 3.4639823e-05
0.24801286 -0.0029153645 -0.13425249 -0.98962951 0.13641275 0.045000043 0.00015275535
0.29431069 -0.0034542545 -0.13945755 -0.99055195 0.13041326 0.042416845 0
0.38937467 -0.0008253259 -0.13713267 -0.70895606 -0.68571568 0.16484924 0.01413571
0.42743063 -0.0099014761 -0.13196507 -0.31905627 0.94071245 0.11516599 0.018212451
-0.44611931 0.0046597603 -0.13494585 0.92893034 0.34738228 0.12811694 0.0071892673
-0.38364398 0.00053266948 -0.13506471 0.85604948 -0.48699588 0.1732467 0.020487577
-0.30325782 0.0018676971 -0.13059682 0.99055535 0.1304134 0.042337541 2.8810944e-05
0.24831018 0.0012021651 -0.13997301 -0.98829907 0.14781934 0.03760881 0.00055574713
0.29575652 0.0057232589 -0.13390483 -0.99055225 0.13041697 0.042398375 9.5445575e-06
0.38906342 0.00022737814 -0.13116057 -0.69104904 -0.70533484 0.15796846 0.018177224
-0.44933569 0.015418677 -0.13512559 0.96268594 0.23633792 0.13183433 0.0051824385
-0.30469739 0.012967845 -0.13110588 0.99328363 0.1079909 0.041540302 0.00051389023
0.25011545 0.014488335 -0.13866204 -0.99328804 0.11180857 0.02962821 0.0012050332
0.29663065 0.012173628 -0.13332187 -0.9915126 0.12226761 0.044197094 0.00011557843
0.44694501 0.014557133 -0.13549781 -0.88830346 0.44659039 0.10711649 0.0039628823
-0.44965509 0.021355115 -0.13740601 0.99013048 0.083291583 0.11271232 0.0091991676
-0.37857968 0.020711921 -0.13356438 0.98039645 -0.12783149 0.14993951 0.0033258745
-0.30546308 0.020616859 -0.13674575 0.99546659 0.088775605 0.034133635 0.001002784
0.25159127 0.024788065 -0.13586044 -0.99631286 0.081429124 0.027019449 0.0026649605
0.44960821 0.021775315 -0.13171294 -0.98552483 0.13372394 0.10420457 0.0058823517
-0.30693197 0.034418672 -0.13248917 0.99828458 -0.018603565 0.055514015 0.0030000762
-0.25971547 0.038128726 -0.13568252 0.99907863 -0.031024551 0.029654834 0.0017066948
0.25229654 0.033570111 -0.13922802 -0.99893141 -0.015273065 0.043621313 0.0030070932
0.29841918 0.036886904 -0.13998064 -0.99911308 -0.0098510319 0.04093932 0.019441349
0.37812307 0.037464462 -0.13697098 -0.96544951 0.1028181 0.23944888 0.016399506
-0.30608323 0.040577617 -0.13337629 0.99775785 -0.044492662 0.04999622 0.0020842969
0.25140429 0.041778803 -0.13482341 -0.99764258 -0.061534617 0.030376485 0.0026955924
0.3787232 0.043115146 -0.13680379 -0.94267601 0.24497913 0.2265992 0.018806674
0.38051081 0.048221286 -0.1320435 -0.93594801 0.31646031 0.15444815 0.015504611
-0.44385225 0.051407825 -0.13445282 0.90135676 -0.40887514 0.14274871 0.0033402592
-0.38970396 0.058718611 -0.13029964 0.75699043 0.64813358 0.082996234 0.015715921
-0.30446377 0.053345364 -0.13193952 0.99152172 -0.12334482 0.040873349 0.00012044881
-0.25717878 0.057566471 -0.13516048 0.99055541 -0.1304037 0.04236526 0
0.38156128 0.051861137 -0.13301328 -0.90326744 0.38991776 0.17908661 0.010745884
0.4470486 0.051486392 -0.13542946 -0.92251533 -0.31655011 0.22081985 0.011257723
-0.43555415 0.061893001 -0.13823384 0.60201514 -0.79764473 0.036615156 0.010718009
-0.40161753 0.068228796 -0.13066016 0.38353011 0.92119062 0.065669954 0.016588474
-0.30312967 0.063333839 -0.13238563 0.99055207 -0.13042644 0.042372465 0
0.24880087 0.061313994 -0.13556159 -0.99055219 -0.13042071 0.042389546 4.1145464e-05
-0.41585341 0.071408458 -0.13916631 0.17589228 -0.9836753 0.038010322 0.030184533
-0.40526137 0.070342876 -0.13776664 0.33256045 0.94246852 0.034006733 0.01603085
0.24666969 0.077986345 -0.13407062 -0.9874804 -0.15249291 0.040352941 0.00031012172
0.39545053 0.073297366 -0.13827953 -0.54941565 0.82735115 0.11675815 0.02824989
0.40620238 0.078352541 -0.13470711 -0.21429586 0.97676778 0.0013633943 0.028268285
0.41699326 0.079310939 -0.1308001 -0.039029133 -0.99909037 0.017183326 0.039752919
0.4250412 0.077428721 -0.13318901 -0.33394784 -0.94253588 0.010247886 0.01321754
0.43367159 0.072179444 -0.13411675 -0.57540613 -0.81065094 0.10841056 0.026468527
-0.29957074 0.088189408 -0.13908464 0.99020123 -0.13306127 0.042381499 0
0.24523428 0.089155219 -0.13325292 -0.9820624 -0.18388836 0.041695852 0.0012150705
-0.298749 0.096035786 -0.13414676 0.98327988 -0.1765181 0.044744547 0.0011455565
-0.25234663 0.09364868 -0.13707298 0.97661191 -0.21064371 0.043110281 0.0016308413
-0.29751083 0.10374838 -0.13935401 0.975582 -0.21706116 0.033528615 0.0018748281
0.2897535 0.10326809 -0.13826059 -0.97579974 -0.21079144 0.058152992 0.0014133243
-0.2961427 0.11240232 -0.13459465 0.96269816 -0.26572853 0.050996266 0.0022490688
-0.29128051 0.12428668 -0.13327752 0.94307226 -0.32815987 0.054091662 0.0014165282
-0.24059585 0.12598507 -0.13289431 0.92304671 -0.38234675 0.042375386 2.1668104e-05
0.23279081 0.12556128 -0.13535926 -0.92304277 -0.38236046 0.042338084 0
-0.28823948 0.13142893 -0.13507748 0.93033576 -0.36419341 0.042876612 0.00031656845
-0.23742305 0.13360584 -0.13324651 0.92304337 -0.38235319 0.042389568 0
0.22794658 0.13724279 -0.13548106 -0.92175895 -0.38552362 0.041617442 5.1965093e-05
0.2788105 0.13536188 -0.13360788 -0.92327774 -0.38179407 0.042326823 1.5266868e-06
-0.28291336 0.14431714 -0.13480803 0.92304951 -0.38234022 0.042373758 0
-0.23144782 0.14768553 -0.13636577 0.90407097 -0.42494187 0.045607124 0.00097921549
0.22397789 0.14708543 -0.13312326 -0.90942031 -0.41354087 0.044030763 0.00051654561
0.27493685 0.1445041 -0.13549882 -0.92304111 -0.38236082 0.042372376 0
-0.2279229 0.15581156 -0.13982871 0.89137268 -0.45188597 0.035408802 0.0014779315
0.21975818 0.15665354 -0.1387085 -0.87028199 -0.49039155 0.046101201 0.0022239145
0.22217163 0.15120786 -0.13527235 -0.89936739 -0.43575215 0.035471916 0.0011093277
0.26888868 0.15968552 -0.13026811 -0.92229843 -0.38429382 0.04103348 0
-0.27383077 0.16647975 -0.13268489 0.91696107 -0.39671606 0.042411573 0.00047303681
-0.22154936 0.16640338 -0.13854332 0.84002811 -0.5420543 0.023019625 0.0017216052
0.21304831 0.16746671 -0.13513482 -0.84175968 -0.53763193 0.048913069 0.0015140343
0.26456666 0.1697558 -0.1335516 -0.92210799 -0.3848078 0.04049265 4.1299925e-05
-0.27025127 0.17520678 -0.13191552 0.8877275 -0.45911938 0.033899605 0.0020152156
-0.21874049 0.17057513 -0.13120864 0.82074267 -0.57039809 0.032054577 0.00083287765
0.20431742 0.17858781 -0.13882646 -0.79715288 -0.60220361 0.043566678 9.6454904e-05
0.26314479 0.17266418 -0.1382812 -0.90825915 -0.41645163 0.04041468 0.0011494439
-0.26559281 0.18424034 -0.13476373 0.84657985 -0.52889216 0.059797268 0.0018905469
-0.21068256 0.18073477 -0.13611135 0.79261309 -0.60824734 0.042423148 0
-0.20675607 0.18605267 -0.13322981 0.79263449 -0.60822111 0.042397775 1.3169805e-05
-0.26096836 0.19131032 -0.13282222 0.8382858 -0.54229575 0.056500718 0.0014758292
-0.25516018 0.19883037 -0.13352932 0.8123138 -0.58119076 0.048616491 0.0006924608
0.24736094 0.19880174 -0.13266656 -0.80084854 -0.59720784 0.044546507 0.00011076158
-0.25128922 0.20349354 -0.13900547 0.79476422 -0.60539669 0.042949442 6.0318616e-05
-0.24945228 0.20596364 -0.13791245 0.79477382 -0.60538799 0.042895496 5.0774735e-05
-0.19398904 0.20225945 -0.13942215 0.7665084 -0.6413933 0.032855771 0.00097229338
-0.18630138 0.21239348 -0.13346182 0.71700394 -0.69606477 0.037406586 0.0018449073
-0.17925239 0.2184466 -0.13607171 0.67409927 -0.73739552 0.042873126 0.0016197553
0.17655027 0.21444365 -0.1360251 -0.6662668 -0.74431962 0.045571446 0.0010482653
-0.23840508 0.22074917 -0.13233745 0.79262435 -0.60823596 0.042373981 1.1202371e-05
-0.1767886 0.22059771 -0.13119861 0.65475231 -0.7545706 0.043847833 0.00122868
-0.16914958 0.22629991 -0.13417947 0.61136121 -0.79021394 0.042420465 3.6831258e-05
0.16487329 0.22358102 -0.13349472 -0.62173241 -0.78211886 0.041699015 0.00020267726
0.22700278 0.22512691 -0.13562433 -0.79265386 -0.60819554 0.042402931 0
0.1504495 0.23468973 -0.13272938 -0.60824299 -0.79261804 0.042390663 0
-0.21461925 0.24956492 -0.13548368 0.66908395 -0.74274307 0.025679499 0.0010290188
-0.14898376 0.24163657 -0.13674358 0.59669137 -0.80141139 0.041219808 0.00042707354
-0.13880984 0.24941038 -0.13735904 0.55389059 -0.83178616 0.036566637 0.0016003407
0.14185694 0.24093392 -0.13925803 -0.60822463 -0.79263151 0.04240359 0
0.21387783 0.2421374 -0.136977 -0.72948545 -0.68241531 0.046478931 0.0010772102
-0.21035643 0.25294065 -0.13352478 0.64203179 -0.76596498 0.033056732 0.0007470235
-0.20547895 0.25671494 -0.1329329 0.61776155 -0.78519583 0.0428739 0.0001382131
-0.1341123 0.2529631 -0.13832897 0.51306337 -0.85743135 0.039717279 0.0027357531
0.11615132 0.25797063 -0.13545747 -0.42301741 -0.90523213 0.040137995 0.00066925137
0.12575994 0.25354499 -0.1344064 -0.48992145 -0.87084842 0.0400002 0.0019206374
0.19913262 0.25549284 -0.13396032 -0.63828576 -0.76903117 0.034384087 0.00040737589
0.20134246 0.25356361 -0.13832824 -0.65739256 -0.75260037 0.037784569 0.0012351817
-0.20097132 0.26018775 -0.13267145 0.61149561 -0.78999621 0.044488229 7.3133626e-05
-0.18857074 0.26963216 -0.13399693 0.60823971 -0.79262245 0.042356484 1.6483435e-05
-0.10625484 0.2653608 -0.13475637 0.38236561 -0.92303741 0.042409807 0
-0.095762976 0.26991615 -0.13019544 0.38233006 -0.92305279 0.042394809 3.3733734e-06
0.10040984 0.26443708 -0.13663071 -0.38514277 -0.92192066 0.041560803 9.0877256e-05
0.18989229 0.26246852 -0.1361044 -0.60824597 -0.7926147 0.042411897 0
-0.18668626 0.27079201 -0.13934925 0.60819012 -0.79266125 0.042344578 1.4028492e-05
-0.094242379 0.27014562 -0.13891408 0.38236207 -0.92304146 0.042351846 3.9764938e-05
-0.085330039 0.27398783 -0.13563471 0.37345165 -0.92634881 0.049109884 9.7878175e-05
-0.074798927 0.27832198 -0.13624401 0.31001726 -0.9485327 0.064613767 0.0015933538
0.067323633 0.27807072 -0.13817915 -0.31309777 -0.94915247 0.032853793 0.0015684885
0.074834071 0.27509308 -0.13527653 -0.34297815 -0.93795294 0.051090565 0.0009905711
-0.17309061 0.28141966 -0.1356954 0.60003358 -0.79888159 0.041808195 3.1740808e-05
-0.163638 0.28857094 -0.13760221 0.55985487 -0.82752645 0.041981898 0.0018294486
-0.033900842 0.28499824 -0.13560447 0.13040735 -0.99055439 0.042377599 0
-0.022259831 0.28662875 -0.1333155 0.10221807 -0.99388647 0.041725483 0.00069184648
-0.01606952 0.28738815 -0.13461442 0.068582267 -0.99660438 0.045565348 0.0010181977
-0.0046165511 0.28901875 -0.13174517 0.0027655745 -0.99804419 0.062451039 0.0022336023
0.0059827208 0.28763115 -0.13576348 -0.060058434 -0.99673516 0.053963073 0.0017603735
0.019263808 0.28597838 -0.13352656 -0.11802424 -0.99215877 0.041123927 0.00012509774
0.034888037 0.28390113 -0.13400084 -0.13086292 -0.99050045 0.042234939 9.8695482e-06
0.051625915 0.28164417 -0.13524796 -0.20726423 -0.97729921 0.04390702 0.001791521
0.16425452 0.28196055 -0.13948053 -0.59109557 -0.80540997 0.043827433 0.0003546896
-0.15446587 0.29539073 -0.13474038 0.50400019 -0.86298192 0.035299115 0.0024461155
0.14903395 0.29388887 -0.13482121 -0.51074737 -0.85815972 0.051951997 0.002742199
0.15269841 0.29098731 -0.1364992 -0.55785418 -0.82877851 0.043873347 0.001640273
0.12571836 0.30416363 -0.13203885 -0.38828993 -0.92057163 0.042175051 6.9485875e-05
0.13151018 0.30159011 -0.13583815 -0.40530565 -0.91302365 0.045991633 0.00041684436
-0.10510119 0.31582427 -0.13504454 0.37629512 -0.92553079 0.042364333 5.778778e-05
0.097198956 0.31579313 -0.13603786 -0.37283921 -0.92693782 0.042156436 0.00013134754
-0.093140319 0.32079306 -0.13473062 0.33909082 -0.94020098 0.032240789 0.0010624129
-0.062701248 0.3278302 -0.13485283 0.13574883 -0.98973316 0.044726718 6.4940774e-05
-0.056631483 0.3286733 -0.13382483 0.13184555 -0.99033391 0.043075021 4.8120728e-06
-0.047560792 0.32981485 -0.13505472 0.13041577 -0.9905526 0.042395554 0
0.039124072 0.32984248 -0.13616163 -0.13042739 -0.99055201 0.042371858 4.0253879e-05
0.053846214 0.32808614 -0.13191089 -0.13280046 -0.99028546 0.041215442 7.8849662e-05
0.069778353 0.32584932 -0.13516614 -0.253824 -0.96476704 0.069266729 0.0019430022
0.08556322 0.32087782 -0.13026606 -0.34884843 -0.93605518 0.045884576 0.00049292552
-0.042852852 0.330585 -0.13154094 0.13041162 -0.99055344 0.042387206 2.4275905e-05
-0.033267606 0.33174431 -0.13393991 0.13041484 -0.99055266 0.042395778 0
-0.021124423 0.33314228 -0.13863 0.11047857 -0.99291754 0.043695062 0.00034745733
-0.015296256 0.33404592 -0.13544461 0.074947648 -0.99673676 0.029978927 0.0015221577
-0.0083221057 0.33481833 -0.13885073 0.024084149 -0.9992134 0.031504847 0.0020184731
0.0009810729 0.33472314 -0.13945551 -0.039530821 -0.99858391 0.035601996 0.0018229745
0.013705833 0.33327526 -0.13414195 -0.10027903 -0.99432302 0.035577975 0.00085905637
0.032652065 0.33089453 -0.13148764 -0.13041636 -0.99055332 0.042375706 3.9895858e-05
-0.075945437 -0.29154384 -0.12611477 0.19383661 0.98103201 -0.0018855096 0.11554668
-0.065193668 -0.29230517 -0.12689275 0.12453496 0.98779631 0.093539327 0.17249158
-0.058096636 -0.29471129 -0.1239441 0.13827035 0.98449183 0.10796825 0.019018393
-0.045818154 -0.29788226 -0.12163316 0.0097734788 0.98480499 0.17338897 0.014143908
-0.031680085 -0.29453978 -0.12667288 -0.27475139 0.86397481 0.42197064 0.1789933
0.018858738 -0.29174155 -0.1221762 -0.30187321 0.6339429 0.71203148 0.2028005
-0.1308704 -0.2802349 -0.12962474 0.49636352 0.86581385 -0.063163668 0.016959686
-0.10712869 -0.28876573 -0.12130362 0.19761717 0.95464098 -0.22272879 0.012653876
0.031740997 -0.28617793 -0.12951158 0.10313275 0.70720553 0.69944561 0.18406774
0.046156131 -0.28390926 -0.12642044 -0.18993366 0.72000343 0.66747314 0.18016826
0.053444296 -0.28429827 -0.12420224 -0.20954569 0.70123667 0.68143797 0.20335518
0.077625409 -0.28385013 -0.12262837 0.053351585 0.81026 0.58363712 0.15951465
0.084243447 -0.28156942 -0.12396561 0.10155627 0.91049677 0.40085164 0.15578368
-0.14103384 -0.2730003 -0.1250228 0.45851105 0.88230306 -0.10634349 0.018209986
-0.13348085 -0.27800018 -0.12603465 0.47618344 0.87193453 -0.11392784 0.015281419
-0.0045105279 -0.27088404 -0.12354174 -0.15108187 0.96819109 -0.19944984 0.13444756
0.087559551 -0.27910981 -0.12787868 0.12550074 0.91027623 0.39452103 0.16915347
0.097993404 -0.2770713 -0.12773041 -0.22384444 0.92015553 0.32125917 0.11624692
0.11159033 -0.27638477 -0.12096052 -0.22571102 0.86989129 0.43857002 0.1113089
-0.16447675 -0.26351869 -0.12775108 0.44009051 0.88401067 -0.1576246 0.0092476401
-0.15056375 -0.26986146 -0.12969887 0.45757774 0.88650483 -0.068788916 0.017497817
-0.080563061 -0.26109526 -0.12489188 0.24578805 0.96845692 0.040979844 0.002635824
-0.076666281 -0.26164833 -0.12395626 0.31631687 0.94646943 0.064337231 0.10877711
-0.062367052 -0.2634508 -0.1258274 0.17416401 0.98453385 0.018975021 0.076614864
-0.056042172 -0.26435375 -0.12418544 0.097616583 0.99520075 0.0068167555 0.075257167
-0.049576901 -0.26501185 -0.12869725 0.12483562 0.9920975 -0.012594135 0.058607887
-0.039352871 -0.26663047 -0.12232654 0.59200877 0.79990536 0.098372117 0.16736121
-0.026933821 -0.26809716 -0.12626038 0.36701998 0.91072589 -0.18940628 0.17617583
0.013091138 -0.26892298 -0.12534434 -0.20461892 0.97275698 -0.10897172 0.16212282
0.057138924 -0.26300406 -0.12814762 -0.062966302 0.9914614 0.11419076 0.16552167
0.068559475 -0.26174289 -0.12248303 0.080911607 0.9963184 -0.028337272 0.18758686
0.072373927 -0.26094738 -0.12933826 0.012768636 0.99738973 0.071068615 0.17199403
0.12704264 -0.26928031 -0.12787899 -0.15218429 0.87577093 0.45811045 0.14669904
0.13799874 -0.26604789 -0.12769601 -0.36082807 0.85481882 0.37294486 0.088321611
0.15011165 -0.26192197 -0.12430149 -0.46966669 0.87619722 0.10812771 0.023432091
0.098116428 -0.25106904 -0.12589873 -0.4861629 0.84584624 -0.2195217 0.17351633
0.15230554 -0.25858027 -0.12932158 -0.45969784 0.85075372 0.25474688 0.083010584
-0.18838316 -0.24541818 -0.12276208 0.60689175 0.74767685 -0.26955849 0.0024885368
-0.13172522 -0.24053861 -0.12302396 0.3889485 0.9204759 0.037989274 6.218913e-05
-0.1256541 -0.24300721 -0.12402877 0.38233235 0.92305422 0.042343076 1.3887589e-05
-0.11326456 -0.24815172 -0.12375408 0.38233638 0.92305094 0.042377476 1.4111084e-06
0.10749646 -0.24730156 -0.12333244 -0.60930127 0.70793796 -0.35717762 0.19236083
0.11691114 -0.24336311 -0.12417643 -0.11948747 0.96460223 -0.23508549 0.26779348
0.1689533 -0.24796152 -0.12841943 -0.55428225 0.81891334 -0.14883608 0.1643212
0.17125669 -0.24593614 -0.12036898 -0.60194355 0.69303584 -0.39669284 0.18553331
-0.20026918 -0.2360658 -0.12907954 0.64751434 0.73512429 -0.20079187 0.0020359703
-0.14202988 -0.23620987 -0.12433963 0.43310326 0.9004612 0.039890565 0.0013728142
0.12905413 -0.23818253 -0.12746078 -0.39464894 0.60356593 -0.6927917 0.22340856
0.13416183 -0.23624316 -0.12362061 -0.33985588 0.92603976 -0.16415952 0.11284639
0.17810592 -0.23908406 -0.12413492 -0.34421113 0.73877203 -0.57942605 0.16174272
0.18133071 -0.23473904 -0.12725411 -0.51858723 0.54140723 -0.66177458 0.2213462
-0.16312015 -0.22503003 -0.12130714 0.55160552 0.71710515 0.42601824 0.12852168
-0.15784618 -0.22904402 -0.1219218 0.45100909 0.85341781 0.26128295 0.11191685
-0.020763446 -0.22242182 -0.12383431 0.099820286 0.99369568 0.051037688 0.00052778842
-0.0070271296 -0.22412236 -0.12635574 0.02460894 0.99920648 0.031315222 0.001783359
0.0051995115 -0.22357963 -0.12045684 -0.058176748 0.99731147 0.04455715 0.0014008286
0.012961946 -0.22249803 -0.12185097 -0.10310196 0.99401772 0.036039505 0.00048653065
0.14943141 -0.22950712 -0.12111649 0.012976298 0.97565258 -0.21893781 0.16678715
0.15629297 -0.22421817 -0.12156298 -0.45342907 0.89045191 -0.03869747 0.24276328
0.18783554 -0.22810748 -0.12304325 -0.71568489 0.27258861 -0.64303231 0.15570466
0.19492111 -0.22287549 -0.12480608 -0.79996783 0.23905621 -0.55036682 0.12473589
-0.17511545 -0.21578299 -0.12210627 0.60823452 0.79262638 0.042358689 3.4697034e-05
-0.082297169 -0.21096729 -0.12403212 0.33841082 0.94024426 0.037667714 0.001030708
-0.045697827 -0.21911006 -0.12451459 0.13040982 0.99055338 0.042394094 0
0.03636932 -0.21936557 -0.123039 -0.13569632 0.98985726 0.042060278 3.4719811e-05
0.045659941 -0.2180623 -0.12491174 -0.13843991 0.98941809 0.043430168 7.6244309e-05
0.057381041 -0.21659672 -0.12309915 -0.23597692 0.97113454 0.034820605 0.0026135731
0.062834449 -0.21571213 -0.12529758 -0.26622352 0.96333528 0.033318728 0.0030039977
0.16497055 -0.21738318 -0.12486337 -0.67358088 0.68444043 0.27898037 0.287056
-0.19402401 -0.20113537 -0.12469766 0.60878593 0.79218209 0.042747308 4.1941959e-05
-0.1841078 -0.20869783 -0.12556751 0.60821831 0.79263783 0.042377044 6.8265435e-06
-0.094217613 -0.20617667 -0.12083115 0.37959501 0.92412913 0.043508928 2.0075817e-05
-0.086722761 -0.20897867 -0.12741797 0.37023109 0.92796701 0.042498842 0.00018711846
0.083505183 -0.20723583 -0.12342915 -0.37390965 0.92651796 0.041904923 0.00018515956
0.17675745 -0.20832761 -0.12507191 -0.77400625 0.62353343 -0.1100923 0.21846358
-0.13050346 -0.19109437 -0.12196811 0.47461256 0.87924111 0.040963411 0.0028184529
-0.11323363 -0.19825961 -0.1217104 0.39162439 0.91894186 0.046649858 0.00022427767
0.10585897 -0.19806293 -0.12154901 -0.38234252 0.92304766 0.042394333 0
0.11360189 -0.19449386 -0.12942973 -0.43017074 0.90153188 0.046833463 0.0016477859
0.12174712 -0.19143195 -0.12263553 -0.48904997 0.87176263 0.029327229 0.0016503597
0.19575742 -0.19380423 -0.12402835 -0.86676699 0.49318662 -0.074040137 0.13172573
-0.21790768 -0.1826847 -0.1252958 0.71203858 0.69988596 0.056220651 0.0022677092
-0.14237213 -0.18228988 -0.12945771 0.59647852 0.80172199 0.03814768 0.0002550538
-0.13290134 -0.1896093 -0.12848128 0.50260538 0.86303174 0.050635528 0.0024953999
0.13492961 -0.18223308 -0.12442347 -0.57280236 0.8186959 0.040428195 0.0010428129
0.20224264 -0.18881547 -0.1242613 -0.65802991 0.75163436 0.045195516 0.0013241097
-0.22513211 -0.17368613 -0.12589587 0.75504678 0.65374291 0.050245941 0.0013030973
-0.15804069 -0.17056915 -0.12380672 0.60823965 0.79262078 0.042389467 6.6307953e-06
-0.23328355 -0.16310608 -0.12527692 0.7891109 0.6127131 0.043434706 5.2233328e-05
-0.16212939 -0.16721314 -0.12789541 0.60822254 0.79263419 0.042383283 9.4589841e-06
-0.15908217 -0.16963056 -0.12641416 0.60821819 0.79263759 0.042382348 1.2707975e-05
0.15532494 -0.16664305 -0.12330435 -0.60823572 0.79262376 0.042388774 0
0.16218352 -0.16139837 -0.12296587 -0.62320554 0.78116328 0.037400156 0.00047641716
0.22274768 -0.16640176 -0.12788841 -0.78452259 0.61835682 0.046466619 0.00022892695
-0.23942089 -0.15518102 -0.12422577 0.79266691 0.60818124 0.042365249 4.5778412e-05
-0.17430149 -0.15792447 -0.12693587 0.64540917 0.76183009 0.055334605 0.00099523156
0.17096052 -0.15476733 -0.12102471 -0.65331626 0.75686789 0.018134564 0.0010549349
0.23263784 -0.1538514 -0.12302715 -0.79263908 0.608217 0.042370923 1.0559063e-05
-0.24838825 -0.1433305 -0.12657894 0.79263419 0.60822326 0.042373277 0
-0.18978968 -0.14375317 -0.12750255 0.73361534 0.6784929 0.038157173 0.0015668906
0.18331128 -0.14246011 -0.12008311 -0.7388199 0.67277503 0.038972624 0.0019923814
0.24318147 -0.14026073 -0.12087414 -0.79264951 0.60820216 0.042389523 0
-0.20019016 -0.13029353 -0.12614647 0.79262382 0.6082347 0.042402599 0
0.19161937 -0.1312021 -0.12626293 -0.79218411 0.60878891 0.042667046 0
0.24622679 -0.13598649 -0.12525786 -0.79767501 0.60149854 0.043750636 9.8430472e-05
-0.2599147 -0.12862745 -0.12200921 0.82238007 0.56729907 0.043159153 0.0010549591
0.19714209 -0.12414794 -0.12420817 -0.79263955 0.60821605 0.042376667 2.8479304e-05
0.25435486 -0.12546489 -0.12423779 -0.83349174 0.55031818 0.04941101 0.0013298728
-0.2674363 -0.11842386 -0.12081409 0.84685546 0.53005213 0.043365017 0.0015616544
-0.21536186 -0.11082248 -0.12182571 0.79520059 0.60494494 0.041202821 9.5798314e-06
0.26072776 -0.11501843 -0.12629622 -0.88506472 0.46388465 0.038359493 0.0017959443
-0.2224597 -0.10161895 -0.12115787 0.83655989 0.54593349 0.046088167 0.001790142
-0.21877581 -0.10634851 -0.1221819 0.82132894 0.56801271 0.052729048 0.001038571
0.20935048 -0.10828918 -0.12346873 -0.80851734 0.5868187 0.044086274 0.00070839131
0.21319789 -0.10310303 -0.1259388 -0.82451355 0.56350303 0.051397573 0.0014143394
-0.22544384 -0.097250931 -0.12803166 0.85847795 0.51008111 0.053225789 0.0026732604
0.21986496 -0.093056127 -0.12544811 -0.8823517 0.46941638 0.033220761 0.0022274209
0.2205312 -0.091519006 -0.12480484 -0.88333869 0.46725708 0.037195563 0.0019971621
0.27131388 -0.089414895 -0.12671439 -0.92305094 0.38233307 0.042407047 1.9157756e-05
-0.28664774 -0.071406409 -0.1265593 0.92356062 0.38102928 0.043040901 0
-0.23578753 -0.073317543 -0.12807924 0.92219293 0.38444701 0.041959677 7.0188294e-06
0.2287299 -0.071628615 -0.12567976 -0.9220233 0.38477165 0.042706318 2.3398004e-05
0.27697328 -0.076113105 -0.12345593 -0.92303693 0.38236782 0.042398658 0
-0.28888792 -0.065836474 -0.12801719 0.92349744 0.38121998 0.042706005 7.6616168e-05
-0.24056599 -0.062181685 -0.12446757 0.92369539 0.38080224 0.042148665 4.6974375e-05
0.28108844 -0.066129714 -0.12389454 -0.92304748 0.38234425 0.042382162 0
-0.29385245 -0.053895462 -0.12761629 0.95087159 0.30514914 0.05222331 0.0021270234
-0.24363272 -0.054234896 -0.12936608 0.92382228 0.3805545 0.041601703 0
0.28399932 -0.059142135 -0.12353389 -0.94115126 0.33718503 0.023251997 0.0011933647
-0.29640168 -0.048122287 -0.12417703 0.96242237 0.27075523 0.020850049 0.0026027504
-0.29888171 -0.033771552 -0.12321373 0.98625189 0.15784119 0.048921615 0.00056136283
-0.25147176 -0.035361558 -0.12514119 0.9579258 0.28610727 0.022818711 0.00181999
0.24369644 -0.035456263 -0.12603983 -0.94918364 0.31377804 0.024365649 0.0019655116
0.2911886 -0.030250533 -0.12997526 -0.98591071 0.16117834 0.04473957 0.00048131234
-0.42174417 -0.020102564 -0.12999305 0.25998801 0.96514344 0.030072572 0.037227653
-0.40864533 -0.020209044 -0.12841414 0.2301539 -0.97111619 0.062948152 0.032908306
-0.29927078 -0.029644404 -0.12681955 0.98619348 0.15850332 0.047949824 0.00073434779
0.24499315 -0.027968209 -0.12774217 -0.97925335 0.20148677 0.021584941 0.002329228
0.29220873 -0.025508065 -0.12072624 -0.9905538 0.13041209 0.042377889 0
-0.4347271 -0.01371906 -0.12609087 0.60052347 0.79866028 0.038902059 0.021505473
-0.42518759 -0.019407064 -0.12609521 0.33428758 0.94193971 0.031645782 0.02286399
-0.40394011 -0.018500581 -0.12466511 0.46706608 -0.88407642 0.016068924 0.031432588
-0.25469214 -0.014598262 -0.12607357 0.98959357 0.13774298 0.04161036 1.7555902e-05
0.40363032 -0.010400055 -0.12356798 -0.37714204 -0.92563033 0.031183595 0.020289015
0.41343755 -0.01299239 -0.12321863 -0.11948948 -0.99274755 -0.013216057 0.032295112
-0.44316787 -0.0040368922 -0.12507588 0.8440823 0.52578622 0.1052326 0.014484004
-0.38978297 -0.0065941811 -0.12019619 0.74445963 -0.66039968 0.098244779 0.018882945
-0.30207825 -0.0087470077 -0.12550421 0.99055129 0.13041723 0.04241959 0
0.24827677 -0.0033592614 -0.12671922 -0.98967856 0.13654746 0.043486279 0.0001238437
0.29493809 -0.0030464353 -0.1260487 -0.99055392 0.13041393 0.042369161 2.3552134e-06
0.43465519 -0.0055499254 -0.12606862 -0.63622999 0.77039075 0.041345362 0.015152624
-0.44669008 0.0025786057 -0.12587236 0.90314287 0.41157168 0.12223639 0.0068157651
-0.38389286 0.0030478078 -0.1248771 0.91628844 -0.38956073 0.093048364 0.01469547
0.38784471 0.0033617083 -0.1258823 -0.82762337 -0.54387319 0.13871387 0.010344447
-0.45128924 0.018798411 -0.12243575 0.98935097 0.087539561 0.11628181 0.0066864621
-0.25885665 0.015297664 -0.12072942 0.9942379 0.095173165 0.049325895 0.00045817869
0.2509068 0.016591705 -0.12663916 -0.99430543 0.10122194 0.033329282 0.0017187798
0.38309187 0.01226455 -0.12655906 -0.94027752 -0.3299439 0.083756454 0.0076496811
-0.38027477 0.029736403 -0.12013444 0.98565978 0.069920555 0.15357724 0.01056563
-0.37970704 0.020489473 -0.12484336 0.98145056 -0.11582779 0.1527705 0.0081047732
-0.30693069 0.028054789 -0.12533197 0.99779564 0.051950496 0.041290674 0.0021522262
0.25293335 0.023006342 -0.12481388 -0.9945811 0.09836033 0.033669539 0.0018079438
0.29839221 0.023177378 -0.12601039 -0.99714851 0.065766454 0.037008327 0.0013936468
0.38034177 0.021208797 -0.12562993 -0.97486246 -0.21393177 0.062261716 0.0076353396
0.45036727 0.025064301 -0.12838057 -0.98764998 0.059857912 0.14479162 0.0082777878
-0.4509511 0.033996306 -0.12325415 0.97474289 -0.18174624 0.12978661 0.0054032253
-0.38029099 0.037782378 -0.12735814 0.96032214 0.23652524 0.14777413 0.0051608356
-0.37966174 0.034435201 -0.12877573 0.96172583 0.23234613 0.14525388 0.0056636012
-0.30652207 0.038389478 -0.12985164 0.99792171 -0.040546823 0.050081752 0.0019946129
0.25271189 0.034381837 -0.12702329 -0.99885869 -0.037781306 0.029218813 0.0027472996
0.29880118 0.039939992 -0.12165934 -0.99695039 -0.063950554 0.044724409 0.0015929264
0.37982857 0.034139048 -0.12081564 -0.99223006 -0.0018586179 0.12440284 0.0043397471
0.38000888 0.038018376 -0.12253022 -0.98476219 0.10816471 0.13617523 0.010216771
-0.44817954 0.044875577 -0.12317827 0.94535494 -0.30152354 0.12404631 0.009222785
-0.30559587 0.045501567 -0.12961495 0.99454904 -0.095084377 0.042792857 0.00076956477
-0.26001611 0.040244237 -0.1221469 0.99672961 -0.071309321 0.038012624 0.0016597091
0.25192541 0.040765386 -0.12576349 -0.99731272 -0.056135923 0.047075666 0.0023690404
0.38002294 0.04369422 -0.12701011 -0.96382421 0.21033162 0.16371749 0.0082797064
0.44949183 0.046921872 -0.12775613 -0.96135145 -0.22442161 0.15949397 0.010978722
-0.441921 0.056969963 -0.12260109 0.76315284 -0.64352655 0.058919027 0.017523697
-0.25766307 0.056732357 -0.12640902 0.9905532 -0.13040742 0.042405985 0
0.29657283 0.055088509 -0.12712798 -0.99094141 -0.12756385 0.041984495 1.7308632e-05
0.44849905 0.052813482 -0.12060015 -0.93138808 -0.33842003 0.1341195 0.013989413
-0.2569896 0.062464867 -0.12451033 0.99055475 -0.13040397 0.042379715 1.4449797e-05
0.24903652 0.062858298 -0.12530288 -0.99055457 -0.13041478 0.042350657 5.0306812e-06
0.29586717 0.062706225 -0.12018135 -0.99055248 -0.13042122 0.04238097 0
0.38760793 0.06343054 -0.12989363 -0.83345139 0.54282063 0.10346317 0.019137157
0.39153028 0.067736901 -0.12470665 -0.67194378 0.73399997 0.098669201 0.026352864
0.43760419 0.069306895 -0.12606946 -0.67666411 -0.73174816 0.081672698 0.021583391
0.44076705 0.066830814 -0.1209245 -0.72089386 -0.68738049 0.088431157 0.02162423
-0.42232993 0.070667841 -0.1225972 0.20543323 -0.97863251 -0.0086936885 0.028631363
-0.41105837 0.071082845 -0.12653306 -0.13233966 -0.98925197 -0.062182277 0.023775648
-0.30232373 0.070381187 -0.1295377 0.9905538 -0.13041477 0.042369921 1.3583224e-05
0.24761972 0.07377398 -0.12482884 -0.9905591 -0.13037303 0.042373527 1.6504549e-05
0.41895339 0.079099178 -0.12520698 -0.11330852 -0.99355429 -0.0033173717 0.040406588
0.4226352 0.078469902 -0.12550664 -0.3053762 -0.95223165 0.00047410393 0.013540125
-0.29983139 0.089628205 -0.12856615 0.99019861 -0.13307366 0.042404473 0
-0.2536974 0.08572039 -0.12989804 0.98868471 -0.14584985 0.035076454 0.00038109525
0.24621326 0.085256048 -0.12237073 -0.98357224 -0.17620049 0.039230485 0.0010848384
-0.25319439 0.091500826 -0.12386861 0.98210979 -0.18579075 0.030695671 0.0016057462
-0.29787001 0.10606399 -0.12383503 0.97243088 -0.22903125 0.043850012 0.0016745814
0.24219897 0.1040777 -0.12426634 -0.95723379 -0.2878297 0.029284565 0.0015846615
0.28968549 0.10656806 -0.12969708 -0.96399802 -0.2571581 0.067658111 0.0017697844
0.28805181 0.11407617 -0.12263703 -0.94918346 -0.31008568 0.053829115 0.0014137914
-0.29167986 0.12442954 -0.12329176 0.9377991 -0.34423873 0.045084339 0.0010781892
-0.28665477 0.13660355 -0.12291008 0.92305613 -0.38232368 0.042378012 3.7472466e-06
0.22909214 0.13601834 -0.12157856 -0.92166895 -0.3857145 0.041841798 5.2995434e-05
0.28059605 0.13192052 -0.12576593 -0.92582899 -0.37519488 0.045490138 0.00011770381
-0.28415233 0.14274004 -0.12205284 0.92304629 -0.38234657 0.042387635 0
-0.23405382 0.14232352 -0.12798151 0.91678035 -0.39669374 0.04634361 0.00038275705
0.2238304 0.14873458 -0.1214586 -0.89675915 -0.4414767 0.030352062 0.0014563669
-0.2792452 0.1539477 -0.12781876 0.92303479 -0.38237756 0.042356677 3.2750333e-05
0.22206232 0.15268329 -0.12434368 -0.89135778 -0.45216432 0.032073669 0.0014405312
0.26920968 0.15930212 -0.12673607 -0.9222036 -0.38452366 0.041012991 0
0.27206156 0.15276343 -0.12361171 -0.92302358 -0.38240349 0.042367045 0
0.21731991 0.16256937 -0.12474132 -0.86550725 -0.49939385 0.038768806 0.0025333876
0.26893988 0.16066647 -0.12030389 -0.92212117 -0.38465703 0.041612796 6.761783e-06
-0.27010694 0.17666444 -0.12190953 0.88685822 -0.46005782 0.042769384 0.0020434181
-0.2164125 0.17385945 -0.12761527 0.81038982 -0.58469617 0.037398953 0.00035836248
0.208446 0.17421064 -0.1244287 -0.82273239 -0.56706488 0.039355073 0.0013324361
-0.26556781 0.18558592 -0.1289513 0.84742397 -0.5278585 0.056904741 0.0018958476
-0.20554166 0.18803066 -0.12755691 0.79264337 -0.60820973 0.0423958 3.2352476e-05
0.25870305 0.18454413 -0.12515131 -0.86637229 -0.49810776 0.035886116 0.0034598983
-0.25763029 0.19629207 -0.12376021 0.82098389 -0.56941903 0.04180095 0.00087395718
-0.20137921 0.19364123 -0.12488842 0.79193866 -0.60912013 0.042492934 0
-0.19827232 0.19752002 -0.12733053 0.78023577 -0.62414247 0.040967483 0.00036662826
-0.19259319 0.20513561 -0.12425368 0.75320709 -0.65627921 0.044461355 0.0011450055
0.23986396 0.20878217 -0.12965071 -0.79261982 -0.60823911 0.042414587 0
0.24335946 0.20463134 -0.12384448 -0.79354358 -0.60710478 0.041381396 0
0.17925787 0.21221207 -0.12496468 -0.70500797 -0.70878291 0.024299266 0.0023245269
-0.2367176 0.22351047 -0.12427063 0.79265195 -0.60820311 0.042329255 0
-0.16779405 0.22775885 -0.12634733 0.61240631 -0.78933293 0.043726593 4.7608035e-05
0.15937817 0.22824948 -0.12504372 -0.61516696 -0.78737831 0.040062211 9.5525102e-05
0.16130419 0.22674292 -0.12557945 -0.62054282 -0.78327864 0.037431799 0.00011751046
