# .PCD v0.7 - Point Cloud Data file format
VERSION 0.7
FIELDS x y z normal_x normal_y normal_z curvature
SIZE 4 4 4 4 4 4 4
TYPE F F F F F F F
COUNT 1 1 1 1 1 1 1
WIDTH 591
HEIGHT 1
VIEWPOINT 0 0 0 1 0 0 0
POINTS 591
DATA ascii
0.11436044 0.43512148 -0.25406355 -0.13987097 -0.95058244 0.27718073 0.20729069
0.12305672 0.43194133 -0.25987238 -0.33784723 -0.91642189 0.21454649 0.19299509
0.1792018 0.43296981 -0.25813508 -0.023067836 -0.93128794 -0.36355269 0.11801974
-0.15938742 0.44182318 -0.25282535 0.47023574 -0.69884396 -0.53897631 0.14264314
-0.1480045 0.4487091 -0.25595897 0.25080371 -0.82758451 -0.50219649 0.12131565
-0.090851434 0.44301575 -0.2584762 0.33825195 -0.93931615 0.057191156 0.10562341
-0.089125849 0.44323689 -0.25336924 0.29640004 -0.95222342 0.073604479 0.16134374
-0.075219035 0.44690713 -0.25566149 -0.12394775 -0.94136167 0.31380773 0.21614666
-0.065756127 0.44937667 -0.25657806 0.43520623 -0.85311174 0.28774282 0.17815912
0.085354403 0.44448629 -0.25983718 -0.59935117 -0.72224998 0.34515679 0.18134929
0.094452277 0.44194794 -0.25517941 -0.57712007 -0.7868461 0.21864478 0.19753909
0.15206657 0.44716486 -0.25625372 -0.93434083 -0.30142051 -0.19013901 0.17220089
-0.14444116 0.45074522 -0.25768608 0.24252644 -0.81268436 -0.52983493 0.15099305
-0.13456492 0.45458588 -0.25749385 0.12110675 -0.86275756 -0.49089974 0.17079253
-0.04886771 0.45188701 -0.2542356 0.15826304 -0.98715168 -0.022008926 0.20465589
-0.034438565 0.4538402 -0.25730819 0.072378092 -0.97846371 0.19331339 0.21093066
0.020689543 0.45527729 -0.25055569 -0.0086980956 -0.98316276 -0.18252495 0.21709502
0.12520102 0.45749611 -0.25529185 -0.58040702 -0.68039232 -0.44743043 0.26264337
0.13316797 0.45332396 -0.25248063 -0.63222933 -0.52623302 -0.56865185 0.23766112
0.094947278 0.46701032 -0.25425512 -0.30094528 -0.84974384 -0.43285942 0.18533371
0.10332155 0.46638238 -0.25863504 -0.4885546 -0.70535153 -0.5136084 0.23777701
0.1170482 0.46131119 -0.25691363 -0.21367179 -0.77934045 -0.58904392 0.24305926
-0.089145556 0.47021872 -0.25920042 0.30644184 -0.6992774 -0.64583629 0.1560837
-0.077937067 0.47312716 -0.25928846 0.29877269 -0.77671093 -0.55448627 0.16101146
-0.052840751 0.47576246 -0.25350431 -0.10300067 -0.55945551 -0.82243562 0.18572868
-0.044328477 0.47674695 -0.25323659 0.29549634 -0.63898134 -0.71020055 0.23479401
-0.031695936 0.47753561 -0.25085771 0.31674036 -0.52795851 -0.7879945 0.19035046
0.004151199 0.47871715 -0.25083029 0.08906015 -0.77044672 -0.63125288 0.14330353
0.026858047 0.4796544 -0.25530088 -0.10719619 -0.83463508 -0.54027152 0.12901993
0.036555991 0.4773069 -0.25199303 0.10807485 -0.87018812 -0.48072082 0.15593398
0.043250948 0.47768629 -0.25560379 0.12553351 -0.95956099 -0.2519604 0.20855822
0.083732739 0.47009212 -0.25483745 -0.33276418 -0.86907905 -0.36601856 0.13515164
-0.025463656 0.48116374 -0.25923011 -0.013811313 -0.84758592 -0.53047848 0.12497908
-0.010973456 0.48016945 -0.25514457 -0.046782363 -0.81355828 -0.57959843 0.15443584
-0.070966199 -0.22178361 -0.24885406 0.31467023 0.81398898 -0.48826692 0.16937549
-0.042458456 -0.22363043 -0.24261545 0.16414458 0.90541834 -0.39150256 0.199035
-0.023049483 -0.22555259 -0.24121442 0.22889832 0.92223173 -0.31159946 0.13089067
-0.014552901 -0.22559291 -0.24098438 0.25247923 0.90695828 -0.3371661 0.14572206
-0.0029716506 -0.22750214 -0.24607363 0.14287391 0.91171783 -0.38517228 0.14446077
0.00101354 -0.22778256 -0.24682112 -0.025335744 0.9410466 -0.337327 0.14152506
0.01490385 -0.22790597 -0.24715006 -0.081992716 0.92438394 -0.37254724 0.10965691
0.028371464 -0.22771789 -0.24871944 -0.056564644 0.94403005 -0.32497332 0.14286424
0.038532317 -0.22428173 -0.24302617 -0.13865797 0.87697905 -0.46008873 0.18756193
0.048933804 -0.22475183 -0.24774438 -0.26578227 0.94821852 -0.17390072 0.18865529
0.056777753 -0.2233066 -0.24654293 -0.40481281 0.89937562 0.16507578 0.19385315
0.064780124 -0.22213192 -0.24633984 0.2374081 -0.68531936 0.68845826 0.22152457
-0.079883456 -0.21663633 -0.24147579 -0.078942835 0.89536357 -0.43828309 0.17918669
0.075076118 -0.21861917 -0.24340838 0.29649147 -0.34220839 0.89161998 0.25666595
0.080046996 -0.21979229 -0.24980898 -0.42633468 0.61309427 -0.66509712 0.26286265
0.10753209 -0.21178913 -0.24728955 -0.4996601 0.73217249 -0.46288583 0.19797838
-0.1372577 -0.20009159 -0.24688907 0.21697259 0.70419919 -0.67603737 0.20154281
-0.12656936 -0.20538408 -0.24956985 0.045613091 0.80658835 -0.589351 0.18469952
-0.11531574 -0.20887715 -0.24716228 0.03177999 0.87718147 -0.4791061 0.16054049
-0.061420742 -0.20050162 -0.24714148 0.17398992 0.97896475 0.10656194 0.1578396
-0.043913063 -0.20283034 -0.2498993 0.23703852 0.96256876 0.13143127 0.1617609
-0.037962172 -0.2035663 -0.24952644 0.25486344 0.95947957 0.12018202 0.15769464
-0.025106059 -0.20505963 -0.24644408 -0.030706551 0.98912096 0.14386445 0.20057176
-0.013153926 -0.2055852 -0.24595909 0.44638881 0.89160693 0.075987719 0.14695582
0.018001808 -0.20562828 -0.24698228 -0.14950982 0.97472101 0.16602935 0.18724346
0.056259423 -0.20117077 -0.24754514 -0.39453202 0.90207285 0.17495443 0.18690643
0.12564805 -0.20486879 -0.2473367 0.24703689 -0.64258766 0.72529572 0.12355575
-0.1531039 -0.1911961 -0.24173403 0.39149964 0.78583002 -0.47874752 0.17118798
-0.14228496 -0.19725777 -0.24479884 0.32775667 0.80172586 -0.49981129 0.19529256
-0.13222526 -0.19944043 -0.24033704 -0.11176519 0.95559043 -0.27268195 0.16565178
-0.10058484 -0.19055638 -0.2478527 0.072939545 0.98063922 0.1817323 0.15044734
-0.095957592 -0.19174093 -0.24777162 0.24772152 0.94795948 0.20001729 0.14246412
-0.085382976 -0.1944267 -0.2470966 0.2168491 0.96659291 0.13665472 0.11942061
-0.075686492 -0.19666766 -0.2413743 0.29253587 0.94181448 0.16555446 0.1242927
0.069414198 -0.19857496 -0.24820527 -0.37559581 0.92651689 -0.022232097 0.23460636
0.075715594 -0.19692402 -0.24744527 -0.40119621 0.89981228 -0.1714046 0.20952584
0.096228525 -0.19161142 -0.24639212 -0.26369426 0.95369577 0.14467099 0.17936045
0.10003759 -0.19046164 -0.2424392 -0.24036582 0.96761274 0.077134185 0.13013016
0.15568683 -0.19261456 -0.24836424 -0.035833426 -0.71145612 0.70181626 0.15617654
-0.17445685 -0.18183737 -0.24729373 0.69665635 0.59774578 -0.39669868 0.2352861
-0.16461354 -0.18641144 -0.24533787 0.40608516 0.6416437 -0.65068281 0.17675599
-0.11243506 -0.18599793 -0.24550956 0.096562967 0.97435391 0.20324871 0.14170682
-0.10685533 -0.18826199 -0.24672204 0.063620314 0.9904021 0.12270289 0.17285825
0.12286749 -0.1817835 -0.24365549 -0.39549348 0.91628772 -0.063259162 0.13123961
0.16485573 -0.18465057 -0.24153565 -0.11535899 0.87232298 -0.4751263 0.15276451
-0.19204479 -0.17063063 -0.2449995 0.34633327 0.89922905 -0.26728323 0.21764229
-0.17769167 -0.1794637 -0.24590319 0.51326096 0.69161659 -0.50816309 0.22026071
-0.13796201 -0.17606309 -0.249309 0.3518801 0.90108985 0.25341177 0.20304851
-0.12910622 -0.17940968 -0.24578208 0.51800781 0.85221303 0.073490448 0.22296767
0.12743405 -0.17985526 -0.24099989 -0.39787367 0.9162699 0.046325177 0.15545505
0.13853882 -0.17549358 -0.24177328 -0.20488359 0.96653289 -0.1543919 0.17940001
0.14487401 -0.17245394 -0.2435897 -0.21805942 0.95208746 -0.21442832 0.21012768
0.17602608 -0.17861971 -0.24179278 -0.53390998 0.75354052 -0.38355798 0.17771086
0.18383515 -0.17412457 -0.24132082 -0.62579465 0.70106238 -0.34189555 0.17666644
-0.16700254 -0.16020948 -0.24194089 0.49812943 0.86709589 0.003422216 0.1811184
-0.15447299 -0.16712028 -0.24241218 0.42583102 0.88960439 0.16514249 0.16876099
0.14996082 -0.16948582 -0.24001689 -0.33054441 0.93803883 0.1040365 0.15342146
0.15476151 -0.16716115 -0.24656498 -0.3935 0.88797295 -0.23803727 0.22045611
0.16477916 -0.16146785 -0.24269147 -0.34477204 0.91693819 0.20088945 0.13418515
0.1970146 -0.16561991 -0.24198043 -0.76072884 0.47091624 -0.4466871 0.18450528
0.20289761 -0.16338414 -0.24640252 -0.52503812 0.5314002 -0.6647923 0.18949689
-0.21608517 -0.15088278 -0.2400794 0.53667724 0.75876862 -0.36911753 0.15650301
-0.20831198 -0.15785354 -0.24293293 0.19201694 0.97535259 -0.10870548 0.17637366
-0.18396446 -0.15008754 -0.2493985 0.34820282 0.88446522 0.31060588 0.12616044
-0.17972384 -0.15317482 -0.2495196 0.43565819 0.82855684 0.35170373 0.14548306
0.17898642 -0.15350692 -0.24560484 -0.56319398 0.73793793 0.37183347 0.14529705
0.18285584 -0.15063892 -0.24451521 -0.684403 0.7192288 0.11959306 0.18501611
0.20808804 -0.15964191 -0.24643868 -0.46974823 0.57226515 -0.67219734 0.17944056
0.21000858 -0.15970008 -0.24963146 -0.36061898 0.6520009 -0.66696984 0.19691496
-0.22848904 -0.14562751 -0.24946347 0.73635709 0.47802436 -0.47882256 0.18730868
-0.19008243 -0.14537001 -0.24415995 0.35069823 0.89128554 0.28743866 0.15300845
-0.18635578 -0.14829376 -0.24831486 0.22432172 0.90428036 0.3632586 0.13766049
0.1860722 -0.14820087 -0.24256912 -0.62316048 0.7761749 0.09603969 0.18850413
0.22844051 -0.14386523 -0.24590944 -0.54535013 0.67690867 -0.49435619 0.23615283
0.23144108 -0.14095888 -0.2457372 -0.47246215 0.60767329 -0.6383673 0.18256418
-0.23705511 -0.13591611 -0.24619682 0.48258573 0.74460381 -0.46116823 0.16363451
0.19839662 -0.13942876 -0.24606952 -0.58310992 0.80240589 0.1269944 0.22180368
0.20618419 -0.13361116 -0.24300152 -0.48162577 0.86501831 -0.14064118 0.22911172
0.24234119 -0.13270232 -0.24964273 -0.47010866 0.68087137 -0.56161553 0.15340559
-0.25198269 -0.12283589 -0.24802729 0.57278031 0.71845418 -0.39464709 0.17577516
-0.24895054 -0.12303734 -0.24286324 0.68006295 0.69306314 -0.23911883 0.21020524
-0.21647331 -0.12501568 -0.24411803 0.83349907 0.5459742 0.084802173 0.15726292
0.21729001 -0.12422831 -0.24376369 -0.42095804 0.90591502 -0.045959551 0.18328467
0.22085315 -0.12111623 -0.24781501 -0.44059336 0.84758574 0.29576313 0.18498385
0.25077453 -0.12147473 -0.24315506 -0.59138113 0.56385285 -0.5764879 0.14302248
-0.25785935 -0.114268 -0.24309504 0.65465981 0.67624438 -0.33780786 0.20218062
-0.22911021 -0.11330125 -0.24675801 0.41199312 0.89060307 -0.19258209 0.25720602
0.22879891 -0.1132288 -0.24043995 -0.61272228 0.69912171 -0.36851084 0.18517786
0.2526862 -0.11944588 -0.24270099 -0.55479538 0.60645008 -0.56957912 0.15611716
0.26033461 -0.11271716 -0.24529161 -0.67911237 0.4822841 -0.55336106 0.14043172
0.26518917 -0.10769369 -0.24672678 -0.7752955 0.43227965 -0.4604902 0.1494271
-0.25034606 -0.090502903 -0.24043307 0.87197739 0.45184845 0.18838364 0.11893476
0.24864289 -0.093000457 -0.24707712 -0.71419513 0.67970979 -0.1670925 0.2147899
-0.28440619 -0.085039467 -0.24831873 0.47510889 0.71905112 -0.5071854 0.17078896
-0.25483775 -0.085306562 -0.24396397 0.78842324 0.60402369 0.11637897 0.1634398
0.25572848 -0.084261872 -0.24444863 -0.87205565 0.46605754 -0.14936298 0.18997543
0.28506589 -0.083579808 -0.2465789 -0.74523628 0.43046308 -0.50923896 0.1576654
-0.29143369 -0.075041845 -0.24838638 0.68457645 0.52458322 -0.50612992 0.13723502
-0.28475904 -0.079749733 -0.24008837 0.74826026 0.49807519 -0.43820962 0.15675499
0.26598281 -0.07198289 -0.24621162 -0.89112401 0.44292262 0.098577999 0.17931779
-0.29350209 -0.068692833 -0.24397331 0.71712726 0.5592646 -0.41587445 0.13011719
0.27311423 -0.061195828 -0.24353282 -0.84990382 0.51726377 0.10050658 0.15939607
0.29629433 -0.06252642 -0.24145003 -0.80588621 0.31546134 -0.50103056 0.1700816
0.27721769 -0.055036139 -0.24743132 -0.90327781 0.41223738 0.11895206 0.13972007
-0.31056389 -0.041768108 -0.24515353 0.35655683 -0.857503 0.37088528 0.19755363
-0.30927083 -0.042895436 -0.24331436 0.8136943 0.28372467 -0.507348 0.16269422
0.28275597 -0.046478137 -0.24958242 -0.92735845 0.32606608 0.18354096 0.21995763
0.31078491 -0.041788481 -0.24570969 -0.73291624 0.37766019 -0.56586796 0.20692746
-0.3131336 -0.034896903 -0.24355294 0.84027082 0.10354599 -0.53218722 0.17490695
0.28923747 -0.036210775 -0.24889252 -0.88076001 0.435188 0.18674345 0.20633616
0.31300271 -0.035679832 -0.2441258 -0.62403244 0.60071641 -0.49972317 0.17073195
-0.31923321 -0.025902852 -0.24805677 0.75589842 0.20239292 -0.62261927 0.15220174
-0.29327345 -0.027791634 -0.24539034 0.92740387 0.2469099 -0.28099388 0.24091257
0.29286814 -0.028311096 -0.24193104 -0.82823384 0.52046603 0.20771058 0.17702831
0.31810969 -0.026951902 -0.24653757 -0.7276808 0.44921356 -0.51835114 0.18033502
-0.32908693 -0.00089180947 -0.24488494 0.78698462 0.34029177 -0.5146423 0.19817224
-0.30300534 -0.0074073761 -0.24839459 0.90014601 0.23774114 -0.36498806 0.19904347
0.30389878 -0.0047908635 -0.24113238 -0.97013432 0.24184528 0.018716404 0.14431548
0.32607782 -0.0093856165 -0.24581903 -0.73955852 0.26095474 -0.62044805 0.16103454
-0.33150512 0.0012161452 -0.24930367 0.60453075 0.34906781 -0.71602672 0.20702279
-0.30990601 0.0099781491 -0.24286819 0.96578556 0.25486469 -0.047982857 0.18869159
0.33191934 0.0037895693 -0.24820939 -0.70013839 0.41563261 -0.58056498 0.18969479
-0.3343364 0.012203134 -0.2474066 0.80541724 0.35416606 -0.47525725 0.15018278
-0.3115052 0.014748258 -0.24398153 0.94152886 0.15763582 -0.29778245 0.19103251
-0.3138296 0.021996796 -0.24328575 0.95888603 0.23485881 -0.1593072 0.19535671
0.33697832 0.023965096 -0.2444156 -0.90136832 0.23880358 -0.36125913 0.1939449
-0.3407709 0.035418019 -0.24474503 0.80269301 0.19159007 -0.56478071 0.11640736
-0.33865786 0.033581667 -0.24075225 0.79407471 0.26015693 -0.54933023 0.14968406
-0.31963935 0.039603829 -0.24529462 0.86750817 0.47805461 0.13745326 0.15437604
0.31934851 0.038944669 -0.24356045 -0.99013519 0.0066314405 0.13995799 0.13293566
0.32062331 0.043198757 -0.24336275 -0.99816418 0.0027893512 -0.060501702 0.17809854
0.34170759 0.041583601 -0.24337396 -0.87619084 -0.11556911 -0.46790317 0.19635059
-0.34593135 0.051161721 -0.24971637 0.82704371 0.29999226 -0.47539809 0.17901663
-0.32276887 0.053956747 -0.24554256 0.94257766 0.32683322 0.068756439 0.21498626
0.32376376 0.059999853 -0.24185687 -0.9951697 0.095089577 -0.024396598 0.13508323
-0.34675586 0.066833921 -0.24398035 0.84549272 0.085076414 -0.52716619 0.17919441
0.32539761 0.068281688 -0.24311736 -0.98669523 0.14729461 0.068825401 0.049225882
-0.32784274 0.080703855 -0.24488041 0.96307111 0.16729435 0.21096587 0.18652919
0.32840747 0.084365472 -0.24502419 -0.99963516 -0.0048533739 -0.026571486 0.12404399
0.34923598 0.089373298 -0.24211967 -0.82641298 0.11003883 -0.55220735 0.1864972
-0.35179311 0.098262563 -0.24747561 0.80838591 -0.29733801 -0.50803769 0.18470287
0.32898247 0.096820988 -0.24007757 -0.97847563 0.19294767 0.07318908 0.081056938
-0.32960126 0.10419092 -0.24375618 0.9903239 -0.1124215 -0.081362791 0.16227697
0.32934365 0.10245118 -0.2402425 -0.99143445 0.12208036 0.046412051 0.14226981
0.33008027 0.10963445 -0.24699201 -0.94473428 0.312278 -0.099797688 0.16431202
-0.33019954 0.11562335 -0.24088687 0.96002805 -0.27405983 -0.056898192 0.13302375
0.33061278 0.11913949 -0.24543965 -0.92198068 0.3802948 0.072989307 0.17179012
0.35371289 0.11675248 -0.24949099 -0.83812672 0.25991511 -0.47957042 0.1436137
-0.33059961 0.12781262 -0.2413293 0.99592632 0.016817605 0.08858873 0.11305806
0.35209984 0.12495721 -0.24429555 -0.87609041 0.23003943 -0.42373034 0.19598842
-0.35015666 0.13993594 -0.24118993 0.86150098 0.45596921 -0.22340134 0.2031057
0.35268164 0.13227634 -0.24662501 -0.87026846 0.080496751 -0.4859558 0.16662513
0.33002025 0.14204326 -0.24882004 -0.87643224 -0.16607295 0.45198047 0.1845054
0.34972966 0.14933473 -0.24162695 -0.90045696 -0.28020632 -0.33265847 0.15598273
0.35058573 0.14565663 -0.24328882 -0.94895393 -0.25345978 -0.18773557 0.15870348
-0.35118303 0.15371858 -0.24622726 0.81047952 0.13627201 -0.56969547 0.24865717
0.3490822 0.15783273 -0.24132675 -0.90514261 -0.2105847 -0.36928433 0.17050216
0.35026231 0.15615326 -0.24418528 -0.86429524 -0.27879602 -0.41864833 0.16441093
-0.35099944 0.16466017 -0.24757025 -0.62158859 -0.21409953 0.75351769 0.17555867
-0.34864008 0.16580425 -0.24148498 0.9253993 -0.20576805 -0.31826961 0.19632985
-0.32782647 0.1699422 -0.24960715 0.97916317 -0.014046106 0.20258854 0.18908274
-0.34779429 0.17819272 -0.24446569 0.80353993 -0.057419252 -0.59247494 0.1859275
0.32651511 0.17589527 -0.2455056 -0.99401277 -0.10893656 0.0084522301 0.14458218
-0.34600723 0.1841585 -0.24276629 0.93108714 0.18912639 -0.31194225 0.17257953
-0.32509717 0.18336642 -0.24567546 0.93516123 -0.27592579 0.22212265 0.16641921
0.32524005 0.18226725 -0.24411583 -0.96247476 -0.25695547 -0.087270685 0.15943733
0.32273915 0.19566756 -0.24540791 -0.92681491 -0.33092457 -0.17749073 0.21645735
0.34340933 0.19448793 -0.2411232 -0.69106275 -0.45286381 -0.56333524 0.17561491
-0.34246263 0.20663184 -0.24471013 0.77524793 -0.23420641 -0.58663273 0.14950302
-0.31985682 0.20938225 -0.24644572 0.99725223 -0.065022878 0.035498194 0.16650365
0.31963265 0.20995319 -0.24557084 -0.97300923 -0.22957139 -0.02345231 0.16550425
-0.31926802 0.21099344 -0.24497019 0.99567968 -0.071346767 0.059428062 0.18905863
0.31717828 0.21733947 -0.24434063 -0.96186399 -0.27035755 0.041526448 0.14745212
0.34291124 0.21227984 -0.24870579 -0.67705888 -0.1910512 -0.71069729 0.16821051
-0.33707446 0.22552317 -0.2446509 0.92199218 0.11993713 -0.36816496 0.18734428
-0.31598854 0.2211521 -0.24544993 0.95204788 -0.30552548 -0.016094677 0.14536564
0.31390387 0.22742759 -0.24441798 -0.9810158 -0.13456604 0.13964213 0.12439866
0.33607763 0.2239677 -0.2408424 -0.79780346 0.083483778 -0.59710985 0.1803385
0.31211567 0.23253238 -0.24149084 -0.93204838 -0.29017636 0.21698703 0.12803061
-0.30820793 0.24424517 -0.24272574 0.95348132 -0.29956731 0.03365685 0.15445077
0.30819333 0.24471068 -0.24437761 -0.95155084 -0.28277498 0.12078635 0.17035393
0.33076829 0.24809639 -0.24725783 -0.88790083 -0.12257873 -0.44340339 0.28433505
-0.32910299 0.25390908 -0.24782407 0.82179385 -0.27862665 -0.49701309 0.15623769
0.30220336 0.25859416 -0.24823102 -0.98884714 -0.14817087 0.015060415 0.21921839
-0.32051566 0.26895517 -0.24383368 0.97293341 -0.22800104 0.037632961 0.23315528
0.29682815 0.26924169 -0.24038835 -0.90111434 -0.41387552 -0.12922844 0.19414455
-0.31776255 0.27603614 -0.24523014 0.78322279 -0.39843896 -0.47729287 0.194838
-0.29432595 0.27503538 -0.2452057 0.76197767 -0.5627774 -0.32042414 0.21055293
0.29443175 0.27482042 -0.24530427 -0.83324569 -0.55076903 -0.048529226 0.2480216
0.31663102 0.27511281 -0.24145295 -0.85241497 -0.33989474 -0.39731625 0.16551465
-0.31145716 0.28628394 -0.24165291 0.50329632 -0.70004725 -0.50658321 0.19670232
-0.29134759 0.28156599 -0.24724196 0.69523281 -0.66662341 -0.26882052 0.20777388
-0.28800881 0.28743711 -0.24624196 0.70314252 -0.65437818 -0.27817222 0.23148331
0.31512016 0.28109011 -0.24459293 -0.84583968 -0.29129854 -0.44687843 0.19670938
-0.30680713 0.29726809 -0.24403331 0.63883013 -0.3088688 -0.70462477 0.18464592
-0.28273225 0.29562038 -0.24457091 0.89697754 -0.40734997 0.17174743 0.1755206
0.28365889 0.29421297 -0.24524124 -0.88024229 -0.45007977 0.15033871 0.14581175
0.30396312 0.29897922 -0.24007647 -0.77725458 -0.48795015 -0.39721537 0.1564294
-0.3034324 0.30337384 -0.24515897 0.79820746 -0.23832391 -0.55323273 0.19287895
-0.27637094 0.30604792 -0.24971017 0.89347482 -0.44791946 0.032722946 0.15944529
0.29836023 0.30872473 -0.24138582 -0.74672669 -0.55372608 -0.36849245 0.15790913
0.29498985 0.31383803 -0.24110366 -0.65413082 -0.71521747 -0.24612366 0.16308905
-0.29052225 0.32374424 -0.24519782 0.71769106 -0.53280199 -0.44837666 0.18301477
-0.2615847 0.32667422 -0.24433862 0.83175027 -0.54481626 0.1066146 0.18506049
0.26326543 0.32435751 -0.24002102 -0.73333091 -0.67802286 0.050106838 0.13505517
-0.25537688 0.33397472 -0.24125642 0.71408296 -0.69795644 0.05424279 0.16213325
0.28540933 0.33280089 -0.24681279 -0.71752661 -0.57479155 -0.39340848 0.23840539
0.24570033 0.346183 -0.24899986 -0.74312437 -0.61009175 0.27487144 0.15602061
0.27114761 0.3461256 -0.24016118 -0.63077903 -0.69984269 -0.33516854 0.21303943
-0.27004212 0.35168424 -0.24733552 0.99339211 -0.11335595 -0.017958527 0.20978026
-0.26809588 0.35266328 -0.24500161 0.84907204 -0.43947229 -0.29315671 0.17226465
-0.22486328 0.36673152 -0.24577947 0.58239484 -0.80590945 0.10642424 0.1440364
0.22833052 0.36351562 -0.24647278 -0.78345168 -0.6160109 0.082061008 0.17846456
-0.21582662 0.3749311 -0.24082038 0.52824914 -0.82466727 0.20217994 0.16606139
0.21778738 0.37309468 -0.2409036 -0.73352295 -0.66175359 0.15500401 0.1635709
0.22124454 0.3701213 -0.24563302 -0.68941402 -0.72414172 0.01808645 0.21140319
-0.2359812 0.38509452 -0.24360085 0.64417642 -0.54431182 -0.5373652 0.19408612
-0.20070189 0.38711968 -0.24351758 0.53105026 -0.82008845 0.21316774 0.14969285
0.19852257 0.38852161 -0.24002987 -0.56792563 -0.81264865 0.13062383 0.17557107
-0.22516978 0.39744213 -0.24814905 0.5918237 -0.73091078 -0.33987364 0.23666604
-0.19372134 0.39232481 -0.24608192 0.62033099 -0.75489265 0.21290007 0.17820501
0.18587458 0.39776057 -0.24098431 -0.56920987 -0.81543183 -0.10521922 0.18630864
0.19623463 0.39044499 -0.24504781 -0.41427454 -0.90259635 0.1170316 0.20563675
0.22239876 0.39717767 -0.24306267 -0.59348434 -0.71834135 -0.36299047 0.16260092
0.17352794 0.4060376 -0.24021064 -0.55891979 -0.80956125 0.17949705 0.18045679
0.21458282 0.40236187 -0.24199653 -0.44214576 -0.87114853 -0.21355875 0.18547644
-0.20351368 0.41310984 -0.2478659 0.6255033 -0.53619683 -0.5667792 0.16828856
-0.1639645 0.41143158 -0.24305168 0.35749456 -0.93383676 0.012103783 0.22375318
-0.15899046 0.41435257 -0.246934 0.58244461 -0.79637033 0.16294953 0.19082239
0.1500428 0.41929731 -0.24746895 -0.60922581 -0.78155524 0.1342209 0.15216701
0.16411413 0.41144818 -0.24511003 -0.20704928 -0.94370461 -0.25797731 0.18830501
0.19052479 0.41963094 -0.24154341 -0.44110459 -0.68904269 -0.57501906 0.12438454
-0.18828847 0.42414108 -0.24824938 0.49726015 -0.722381 -0.48051843 0.12623063
-0.17666899 0.4294374 -0.24569967 0.31042647 -0.86825216 -0.38700595 0.19194499
-0.13420388 0.42700422 -0.24830556 0.29469916 -0.74996102 -0.5922085 0.22566552
0.13514495 0.42639351 -0.24304588 -0.39457709 -0.89897043 0.19016057 0.17463791
0.1451297 0.42193127 -0.24607363 -0.45319134 -0.87126708 0.18844427 0.17427573
0.18477213 0.42561796 -0.24718367 -0.32250872 -0.7772578 -0.54023933 0.11710663
-0.16683796 0.43334615 -0.24220544 0.33551311 -0.87560576 -0.34748459 0.17306277
-0.15860035 0.43750876 -0.24135035 0.37311071 -0.81422943 -0.44476834 0.18602151
-0.1146467 0.43459851 -0.24501559 0.34665173 -0.91400325 0.21078576 0.12126757
0.10304022 0.43913537 -0.24372371 -0.29943034 -0.90070802 0.31474841 0.16026019
0.11099076 0.43604583 -0.24501152 -0.26098326 -0.93044746 0.25720677 0.19310413
0.16203655 0.43779901 -0.24644107 -0.1912856 -0.80878204 -0.55613083 0.21716297
-0.14414236 0.44767177 -0.24891613 0.28226763 -0.8283568 -0.48389059 0.12485673
-0.13593572 0.44990629 -0.24637535 0.2302617 -0.77074516 -0.59408039 0.17590044
-0.082912169 0.44425461 -0.24007639 0.42224568 -0.89982522 0.10964956 0.18700884
-0.079265237 0.4452967 -0.2425091 0.20248239 -0.97705209 0.066107184 0.18624479
-0.068638965 0.44830316 -0.2489087 0.037931833 -0.99583924 0.082857817 0.19413207
0.08818914 0.44302088 -0.2428638 -0.62839341 -0.7768392 0.040527735 0.16359423
0.099373601 0.44036201 -0.24776156 -0.54590982 -0.81447321 0.19650906 0.19644462
0.15225975 0.44296241 -0.24594699 -0.94483954 -0.32254353 0.0569553 0.2143773
-0.11851823 0.45554504 -0.24325916 0.27879632 -0.83421797 -0.47576576 0.12845787
-0.060787402 0.45008963 -0.24736308 0.24070828 -0.96753883 0.076994725 0.15886341
-0.034309749 0.45329058 -0.24397072 0.21909343 -0.97559834 0.014348462 0.18546446
-0.021219179 0.45502889 -0.24596351 0.068102501 -0.99751925 0.017811846 0.19876997
-0.017248515 0.45516771 -0.24795304 -0.25625551 -0.96355689 0.076755233 0.22162093
-0.0081109945 0.45502314 -0.24451844 0.12629111 -0.98985982 0.065024182 0.21439691
0.0056530633 0.45488986 -0.24135199 0.040984917 -0.98915684 -0.14102843 0.15845709
0.017025052 0.4549154 -0.24195893 0.19750729 -0.79570365 -0.57257891 0.17040233
0.032587618 0.45347241 -0.24312812 0.20051377 -0.97846919 -0.048911635 0.20618141
0.11490108 0.45585716 -0.24048325 -0.088174388 -0.89855856 -0.42990431 0.17975193
0.13585822 0.45084426 -0.24862394 -0.42837304 -0.898642 -0.094546758 0.22944237
-0.093797013 0.46371502 -0.24445143 -0.0081233056 -0.98800284 -0.15422179 0.19636483
-0.086017616 0.46637288 -0.24615669 0.79517913 -0.49780658 0.34623528 0.25381234
-0.076210551 0.4681423 -0.24422385 0.7177946 -0.68547887 0.12202299 0.23462015
0.075847708 0.4691425 -0.24656567 -0.36582634 -0.84940344 -0.38037464 0.1024711
0.082412094 0.4661704 -0.24324369 -0.35022208 -0.85606086 -0.38013721 0.11179603
0.095419288 0.4635103 -0.24499816 -0.38028538 -0.81106734 -0.44446909 0.16213626
-0.070030659 0.4701131 -0.24521549 0.18659797 -0.77957463 -0.59786665 0.2075174
-0.052326418 0.47434241 -0.24912778 0.10710177 -0.82942331 -0.54825753 0.19548078
-0.045494203 0.47362325 -0.24493665 0.26144624 -0.84188765 -0.47209212 0.15337017
-0.023405217 0.47525537 -0.24187328 0.022187892 -0.92296189 -0.38425118 0.16849957
-0.017835697 0.47552815 -0.24214832 -0.022732861 -0.81763798 -0.57528377 0.16261962
0.0028473428 0.47813746 -0.24910831 0.04861097 -0.81490034 -0.57755893 0.17049804
0.029520303 0.47396305 -0.2404986 -0.034491319 -0.86055398 -0.5081901 0.11550009
0.038268395 0.47447839 -0.24478413 0.081312239 -0.91626281 -0.39223808 0.13894798
0.0467581 0.47343352 -0.24485724 -0.024436682 -0.90203059 -0.43098003 0.11444411
0.057590388 0.47333771 -0.24822284 -0.17864214 -0.92750198 -0.32837018 0.088695265
0.066028923 0.47169149 -0.24702089 -0.13366556 -0.93585289 -0.32605651 0.088506483
-0.0331304 -0.22154051 -0.23433286 0.28164202 0.94738346 -0.15212624 0.19352832
-0.023932513 -0.22322959 -0.23553835 0.17975909 0.89446706 -0.4094086 0.13359125
-0.0044411286 -0.22247195 -0.23312254 0.054927774 0.9238376 -0.37882316 0.12766583
0.0048031877 -0.22308433 -0.23457161 -0.049405407 0.94528925 -0.32247078 0.14101534
0.02194663 -0.22395843 -0.23681599 -0.075755112 0.91722256 -0.39110607 0.09348122
0.036254261 -0.22138852 -0.2348578 -0.0036656992 0.95668083 -0.29111573 0.11676901
0.045483533 -0.22067232 -0.23593977 -0.18379821 0.89311445 -0.41056636 0.15349074
-0.082876362 -0.21363586 -0.23589601 0.10457682 0.99189651 -0.072146051 0.18706532
-0.064812258 -0.21723436 -0.23371199 0.40024385 0.89173496 -0.2112193 0.16684422
-0.046643883 -0.21905144 -0.23240653 0.24968673 0.95818424 -0.13978295 0.17672642
0.063852772 -0.2185995 -0.23676091 -0.33440781 0.90790254 -0.25275362 0.18666655
0.076417923 -0.21463718 -0.23431785 -0.41573724 0.83533424 -0.35969323 0.18494788
0.096457429 -0.21052083 -0.23672119 -0.16175704 0.91396499 -0.37215948 0.18501554
-0.10410726 -0.20603749 -0.23083696 0.38488141 0.91738605 -0.10133688 0.17034574
-0.058483604 -0.2003009 -0.23366529 0.096406452 0.98677826 0.1302859 0.14100273
-0.045753896 -0.2018636 -0.23259422 0.13268712 0.97167802 0.1955404 0.13659391
-0.031510912 -0.20355955 -0.23015794 0.19187973 0.98096424 0.029853797 0.15981808
-0.027025409 -0.2041437 -0.23057048 0.19305088 0.981116 -0.011948518 0.14738232
-0.015605272 -0.20495726 -0.23104107 0.16670915 0.97084576 -0.17223987 0.15915605
0.0066949562 -0.20512114 -0.2349344 -0.039342891 0.9426828 -0.33136266 0.17291315
0.034334216 -0.2034976 -0.23710473 -0.25789088 0.92145723 -0.29053196 0.16278444
0.090528578 -0.20928986 -0.23029028 -0.27322632 0.95128345 -0.14285387 0.16412199
0.1083279 -0.20633915 -0.23429027 -0.067595139 0.95457208 -0.29021186 0.19840033
0.12204965 -0.20283763 -0.23877163 -0.12468897 0.96945184 -0.21122447 0.16848163
-0.13728464 -0.19326915 -0.23068979 0.42476484 0.86264682 -0.27461842 0.15826552
-0.08131209 -0.19500831 -0.23642847 0.29318488 0.9432137 0.15617456 0.10038428
0.063132852 -0.19954935 -0.23351525 -0.30476528 0.9505614 -0.059590757 0.14941402
0.073019914 -0.19712359 -0.23611064 -0.41877726 0.90504855 -0.074248627 0.15200807
0.082355097 -0.1946778 -0.23498532 -0.24286009 0.96626306 0.085759908 0.13573259
0.098825276 -0.19060037 -0.23846915 -0.26696172 0.95325625 0.14154097 0.11738699
0.14358123 -0.19380403 -0.23751092 -0.35180786 0.86026597 -0.36901721 0.20011048
-0.11470032 -0.18457709 -0.23393607 0.31271929 0.94944686 0.027518883 0.15988012
-0.10219422 -0.18953188 -0.23573384 0.14561391 0.98442608 0.098497219 0.11397034
0.10825784 -0.18724108 -0.23643678 -0.39210224 0.91945678 0.0292415 0.14411163
0.12433954 -0.18061194 -0.23065074 -0.36138788 0.92463106 0.12023361 0.11134288
0.15122804 -0.18790254 -0.23215991 -0.13167502 0.94029993 -0.31384334 0.17028482
0.17150217 -0.18019621 -0.23966588 -0.3506079 0.78569055 -0.50967097 0.1557603
-0.18280594 -0.17246924 -0.23625578 0.53367251 0.83250058 -0.14878288 0.19839489
-0.17600618 -0.17626958 -0.23636305 0.35055736 0.85516208 -0.38184747 0.18486305
-0.14766495 -0.17064436 -0.23785987 0.62401652 0.78141081 0.00081637967 0.157105
0.13649531 -0.17604747 -0.23613605 -0.30906713 0.95100874 -0.0077356668 0.16003868
0.14695191 -0.17069352 -0.23072216 -0.35884723 0.93100005 -0.066840164 0.1346207
0.1729053 -0.17644949 -0.23314075 -0.46997625 0.79810548 -0.37702787 0.16395903
0.18329422 -0.17121799 -0.23422146 -0.65708965 0.72784722 -0.19614182 0.17234209
-0.19902124 -0.16213425 -0.23760758 0.40801334 0.90402102 -0.12755859 0.17086171
-0.18498877 -0.16875893 -0.23092692 0.45054001 0.8922677 0.029531401 0.16249539
-0.21053329 -0.15366912 -0.2373895 0.30276552 0.91789114 -0.25653264 0.18168516
-0.20337492 -0.15826759 -0.23619372 0.40100759 0.90151191 -0.1626939 0.17424504
-0.19960439 -0.15876107 -0.23181193 0.46523491 0.88070965 -0.088920571 0.17017664
-0.18129635 -0.15147279 -0.23876542 0.34374744 0.91644931 0.20483759 0.15943669
-0.17227462 -0.15679911 -0.23128136 0.38537386 0.92061985 -0.06281925 0.14989476
0.17468026 -0.15548211 -0.23139647 -0.48302841 0.8643921 -0.13967754 0.1524418
0.20384164 -0.15807888 -0.23648709 -0.59744459 0.74031842 -0.30820212 0.19216466
-0.21313235 -0.14820322 -0.23038928 0.65719557 0.68923283 -0.30504459 0.11424791
0.18837832 -0.1459647 -0.23179293 -0.71361965 0.69784904 -0.061268765 0.15562646
0.19221839 -0.14336346 -0.23542045 -0.67427921 0.73231167 -0.095221281 0.17191236
0.22362988 -0.1440036 -0.23740023 -0.48983315 0.81391561 -0.31241778 0.19759209
0.19928972 -0.13837799 -0.2383447 -0.62107396 0.78311384 0.031619061 0.1640856
0.20108382 -0.13680327 -0.23313163 -0.61129576 0.78225267 -0.11999276 0.15680139
0.22628522 -0.13846582 -0.23202708 -0.45093441 0.88664883 -0.10252871 0.16027331
-0.24431676 -0.12041692 -0.23006496 0.71420854 0.65603477 -0.24397667 0.15400982
-0.22018714 -0.1209887 -0.23477581 0.71375352 0.69915968 0.041611977 0.14954175
0.23755728 -0.12909263 -0.23415765 -0.77843273 0.53208464 -0.33305901 0.1508047
0.24386935 -0.12264595 -0.23324487 -0.59077883 0.684928 -0.42644355 0.14581624
-0.25044116 -0.11498459 -0.23062551 0.73246008 0.62516505 -0.26957554 0.17087798
-0.24859634 -0.1173849 -0.23179963 0.75291204 0.61436969 -0.23595206 0.16770667
0.24921232 -0.11940967 -0.23639673 -0.68689406 0.61973673 -0.37960875 0.18998092
0.25592631 -0.11077733 -0.23334488 -0.62058771 0.56134802 -0.54750264 0.17097901
-0.26778167 -0.10057243 -0.23995171 0.80504149 0.54089582 -0.24359775 0.16897336
-0.25890949 -0.10532457 -0.23050629 0.84738034 0.5070582 -0.15760282 0.15854806
-0.23648678 -0.10563395 -0.23393804 0.73558098 0.67606115 -0.043149631 0.17845128
0.2362514 -0.10592445 -0.23514068 -0.44981092 0.89003366 -0.074230894 0.192193
0.24101642 -0.10131358 -0.23336193 -0.78783607 0.59037399 -0.17542207 0.17906678
-0.27028853 -0.093177095 -0.23297712 0.78243518 0.61207587 -0.11471015 0.14636451
0.26684725 -0.097978994 -0.23396407 -0.73972416 0.53190869 -0.41216663 0.16761044
0.27188525 -0.093389541 -0.2362705 -0.80086923 0.44089472 -0.40524113 0.19257179
-0.25575313 -0.083917409 -0.23968385 0.66291761 0.74135107 0.10458864 0.14506328
0.27333963 -0.089006633 -0.23223561 -0.71914989 0.53764254 -0.44018626 0.12829341
-0.28401124 -0.073869474 -0.23068978 0.71388108 0.53163254 -0.45578566 0.13787073
-0.26237768 -0.075636096 -0.2355404 0.73274946 0.68021643 0.019594716 0.16631223
-0.25960046 -0.078895122 -0.23405558 0.69382936 0.72005445 -0.011066348 0.12735677
-0.29225662 -0.064035125 -0.23481567 0.70682305 0.56472433 -0.42601365 0.12357615
-0.27030012 -0.065259248 -0.23881185 0.69170755 0.72217774 0.00014218615 0.19638765
0.28923655 -0.06878148 -0.23475447 -0.90086901 0.31112328 -0.3027167 0.17334451
0.29494667 -0.061837837 -0.23748684 -0.73589242 0.538387 -0.41061151 0.17019615
-0.30072436 -0.050535664 -0.23456861 0.81479424 0.32485539 -0.48018673 0.10734704
-0.27696705 -0.05433419 -0.23346907 0.72286725 0.59881026 -0.34480321 0.14942737
-0.30378851 -0.045304246 -0.23404774 0.85161245 0.34458998 -0.39498585 0.16994108
0.2850897 -0.041931961 -0.23852199 -0.7569738 0.60792661 0.23961608 0.14678507
-0.31321076 -0.030610053 -0.23887363 0.96179503 0.0070996154 -0.27367854 0.19381677
-0.30609128 -0.038141795 -0.23091024 0.83648789 0.41413349 -0.35886136 0.1533834
0.28696817 -0.038813453 -0.23650476 -0.79261261 0.57422209 0.20502272 0.14233659
0.30851796 -0.038118839 -0.23620269 -0.81058478 0.4791491 -0.33670232 0.18558347
0.31211221 -0.032246929 -0.23808184 -0.85228968 0.41940254 -0.31257597 0.19140889
-0.29313964 -0.02663395 -0.2308033 0.90969265 0.39255872 -0.13548775 0.15663798
-0.3215602 -0.012860917 -0.23886722 0.74229473 0.39750934 -0.53943032 0.16559374
-0.29918557 -0.014460231 -0.23762709 0.97047681 0.1661177 -0.17487025 0.18150437
0.29875126 -0.015415985 -0.23795691 -0.81877804 0.57348746 -0.026734807 0.17377435
-0.30353719 -0.0049582012 -0.23505287 0.92522299 0.37708011 0.042107258 0.14564687
0.30560523 -0.00038461538 -0.23324481 -0.8239314 0.56362671 -0.058838572 0.14051116
0.32440591 -0.0039050465 -0.23583969 -0.78336459 0.49115729 -0.38092583 0.159475
-0.32683253 0.0053780768 -0.23431049 0.75794375 0.6011281 -0.25331062 0.17353472
-0.30699873 0.0020624478 -0.23844674 0.86273944 0.50145131 -0.065016761 0.17600803
0.30796403 0.0052339318 -0.23381865 -0.7567991 0.6530298 -0.028411228 0.14998385
-0.33093643 0.018863866 -0.23366983 0.91025478 0.29187846 -0.29367206 0.16904736
0.31139457 0.015266787 -0.23767395 -0.92498791 0.36996514 0.086736791 0.17113821
0.32946706 0.011141176 -0.23605466 -0.82514107 0.47614735 -0.30401632 0.16730106
-0.31474072 0.026372425 -0.2317488 0.93344361 0.35341114 -0.061510731 0.14702542
0.33476371 0.028427914 -0.23532042 -0.9885056 -0.010804563 -0.15079762 0.17406192
-0.33502489 0.033497099 -0.23214203 0.90646529 0.23685001 -0.34960359 0.15348221
-0.31761697 0.034596942 -0.23635645 0.93150914 0.35568029 0.076041244 0.14700656
0.33589792 0.030123856 -0.23665786 -0.94468117 0.14837155 -0.29251227 0.16858564
-0.34041402 0.044551261 -0.2385048 0.85238796 0.274739 -0.44491938 0.15840651
-0.3370944 0.043588717 -0.23094931 0.90763736 0.35071763 -0.23063308 0.15091422
-0.32079512 0.046644956 -0.23203269 0.91271102 0.33965883 -0.22713558 0.14929895
-0.31970307 0.040786948 -0.23804782 0.88891369 0.44923389 0.089561723 0.15344763
0.32100868 0.046893671 -0.23590752 -0.96651393 -0.25428572 -0.034489982 0.11556327
-0.34138858 0.056212895 -0.2354169 0.84917682 0.2198921 -0.48015225 0.18195736
-0.33955467 0.056947816 -0.23074064 0.84631568 0.20760277 -0.49056181 0.14591496
-0.32297373 0.057041496 -0.23659135 0.95210528 0.29260534 0.088756151 0.19609863
-0.34433562 0.063745528 -0.23918577 0.7984544 0.23350999 -0.55492681 0.15875559
-0.32424641 0.06302011 -0.23967582 0.92288643 0.33765048 0.18512917 0.1888147
0.32414114 0.064417645 -0.23099677 -0.96808034 0.13219106 0.21294616 0.087150685
0.34386349 0.067310885 -0.23631328 -0.91454703 -0.043352451 -0.40214965 0.13061008
-0.34589234 0.07826148 -0.23612225 0.86461806 0.084214702 -0.49532169 0.1303785
-0.32564706 0.071654782 -0.23392399 0.99122179 0.0072394931 0.13201131 0.19456752
-0.34445536 0.082906336 -0.23112173 0.90746528 0.040205233 -0.41819891 0.13559832
-0.3279033 0.086097986 -0.23048615 0.97850519 0.039580148 -0.20238836 0.13986236
0.32808656 0.08757472 -0.2326272 -0.99081153 0.12856905 0.041981764 0.10802542
-0.34848654 0.092430793 -0.23961417 0.83078629 -0.063061759 -0.55300754 0.11469126
0.32837048 0.092334807 -0.23225924 -0.99597037 0.064551398 0.062259328 0.10929565
-0.34680521 0.10609598 -0.23326589 0.89573663 -0.1569023 -0.41597769 0.14895175
0.32928959 0.10508507 -0.23503084 -0.99501806 0.074086793 0.066709705 0.10654513
-0.32970434 0.11501953 -0.23004568 0.99568808 -0.00046395755 0.09276329 0.11100745
0.34614617 0.11673769 -0.23006821 -0.91963977 0.34740958 -0.18321906 0.14469521
-0.33042005 0.12795714 -0.23728724 0.9962455 0.0076391022 0.086235389 0.11004791
0.33025214 0.1258989 -0.23023446 -0.97274542 0.23187485 0.00071866903 0.12955768
0.3493073 0.12893189 -0.23709977 -0.92921931 0.29782414 -0.21875148 0.16540347
-0.34713414 0.13636592 -0.23299196 0.95629877 0.26277044 -0.1282353 0.16158098
-0.32971358 0.13977426 -0.23816481 0.99736118 0.072591111 -0.0010695681 0.1550311
0.34674281 0.13855222 -0.23238099 -0.94830018 -0.095960788 -0.30251986 0.15976726
-0.32913765 0.14383292 -0.2305636 0.98532498 0.16775963 0.031485103 0.11329395
-0.32874572 0.15500486 -0.23793668 0.97907853 -0.0096207932 0.20325522 0.13385724
0.32889646 0.15181401 -0.23675025 -0.97614217 -0.21319796 -0.041146431 0.18699534
-0.34778297 0.16539064 -0.2391355 0.95817226 -0.17392167 -0.22728223 0.19163154
-0.32786965 0.1643265 -0.23455186 0.99699444 -0.065970443 -0.040619798 0.17257431
0.32785901 0.16688009 -0.23673502 -0.9537099 -0.29257765 0.069539346 0.14204247
0.34568942 0.16700438 -0.23423068 -0.86233085 -0.238381 -0.4467214 0.14299116
-0.34360552 0.17623523 -0.23296374 0.94646591 -0.071443632 -0.31479859 0.17224693
-0.32615578 0.17509425 -0.23355541 0.9947294 -0.098393425 -0.028847009 0.18049179
-0.32402202 0.18637043 -0.23395902 0.95558208 -0.27067569 -0.11660867 0.15790273
0.32474232 0.18347248 -0.23786619 -0.94949335 -0.31140718 0.038572665 0.11920953
0.34416538 0.18643042 -0.23907821 -0.77669042 -0.38674223 -0.49717453 0.17012693
-0.34208876 0.19504222 -0.23795694 0.86512303 -0.49758196 -0.063041948 0.19315451
0.32242733 0.19480655 -0.23429827 -0.97975725 -0.16393575 0.1148954 0.11672477
-0.32079607 0.20388164 -0.23663051 0.95269096 -0.28144503 0.11475474 0.15520385
-0.31919923 0.20972858 -0.23412974 0.97480643 -0.1989512 -0.10085002 0.17936656
0.32086873 0.20389296 -0.23837598 -0.96382332 -0.26654178 -0.00013139246 0.15482375
0.34023878 0.20449294 -0.23781887 -0.81136763 -0.32188615 -0.48792604 0.17505822
-0.33813879 0.2102491 -0.23538408 0.8512767 -0.3590982 -0.38259175 0.1614176
-0.31712249 0.21584375 -0.23210089 0.92250007 -0.37947696 -0.070646316 0.1519886
0.31854206 0.21133888 -0.23110206 -0.98833257 -0.14020462 0.059509374 0.12658972
0.33457068 0.21856384 -0.23300959 -0.82281673 -0.38572308 -0.4173612 0.19432558
0.31376895 0.2266736 -0.23583397 -0.96909589 -0.24184695 -0.04861344 0.13130808
-0.33285344 0.23173797 -0.23906925 0.8469556 -0.17832355 -0.50086612 0.193139
0.33122486 0.23361994 -0.23655581 -0.84282184 -0.04365553 -0.53641909 0.17665865
-0.32655644 0.24651998 -0.23546208 0.87474203 -0.27441421 -0.39940363 0.14466091
-0.30807793 0.24414811 -0.23581052 0.96230561 -0.22462694 -0.15333171 0.13792464
0.30715162 0.2466135 -0.23341139 -0.96618843 -0.25753567 0.012462366 0.1342732
0.32432276 0.24755704 -0.23111197 -0.89829552 -0.19593826 -0.39328533 0.13731046
-0.3251451 0.25091702 -0.23550183 0.85289288 -0.31664109 -0.41510493 0.13917656
-0.30369782 0.25399208 -0.23380515 0.9126029 -0.33155391 -0.23922357 0.16282634
0.30361891 0.25386745 -0.23084743 -0.9381566 -0.3461659 -0.005605883 0.14677289
0.32481509 0.25115487 -0.23492217 -0.85413861 -0.14791748 -0.49856561 0.15125318
-0.29712409 0.26803207 -0.23451436 0.88580471 -0.45619771 -0.085050903 0.16687335
0.32216021 0.26056623 -0.23827907 -0.89762378 -0.28588638 -0.33547044 0.17854628
-0.31620967 0.27263376 -0.23762313 0.84221441 -0.34585747 -0.41359109 0.18493056
0.31499732 0.27476782 -0.23715585 -0.8520987 -0.36080751 -0.3791382 0.16489018
-0.31121242 0.28286278 -0.23717965 0.68699872 -0.61814225 -0.38201165 0.20166236
-0.29016608 0.28291476 -0.23548785 0.84324962 -0.53541732 -0.047522172 0.17708248
-0.28769258 0.28706864 -0.23520793 0.88923454 -0.45237827 0.067939013 0.1524615
0.28874299 0.28522608 -0.23282103 -0.86971349 -0.44337186 -0.21684068 0.16161186
0.29095599 0.2814464 -0.23761295 -0.87345254 -0.4868333 -0.008601293 0.16348374
0.31131285 0.2835587 -0.23821166 -0.83942986 -0.36458936 -0.40302864 0.13353293
-0.30373454 0.29416931 -0.23311929 0.86957932 -0.41257396 -0.27131981 0.17258219
-0.28319648 0.29375318 -0.23011397 0.85975438 -0.50661337 0.064539991 0.13677812
0.30719912 0.29116258 -0.23694411 -0.79934382 -0.44251487 -0.40648496 0.13039102
0.29601607 0.3048017 -0.23114224 -0.86140269 -0.49911264 -0.094190829 0.17592096
-0.28897476 0.31673414 -0.23222396 0.81187129 -0.36984569 -0.45175129 0.12363882
-0.27130401 0.3132596 -0.23987576 0.90125084 -0.42250699 0.096098363 0.1361659
0.26732063 0.31928673 -0.23746328 -0.72565913 -0.67331964 0.14163113 0.15151161
0.27267069 0.31074655 -0.23529935 -0.78301948 -0.62018579 0.047434364 0.1349607
-0.28466165 0.32356784 -0.23227222 0.8665967 -0.39672393 -0.30268839 0.1762289
-0.26370975 0.32336393 -0.23310924 0.81189501 -0.57502443 0.10086372 0.15461104
0.26468423 0.32241949 -0.23664498 -0.74531704 -0.66125965 0.085077532 0.14265674
0.2838608 0.32487571 -0.23233145 -0.6976012 -0.70434713 -0.13133089 0.15680407
-0.28233442 0.33052143 -0.23667665 0.84733176 -0.51347327 -0.13555115 0.18975262
-0.25239098 0.33698452 -0.23217782 0.76628906 -0.64249474 0.0012428303 0.159769
0.257925 0.33076039 -0.23922497 -0.81825572 -0.57465273 0.015227435 0.16246289
-0.27284348 0.34165096 -0.23614939 0.77202785 -0.56175995 -0.29731917 0.17583951
0.24897644 0.34105468 -0.23131037 -0.82741845 -0.55877244 0.056142844 0.14732674
0.2672452 0.34875321 -0.23677769 -0.70384479 -0.66032505 -0.26186496 0.17602289
-0.26150319 0.35216409 -0.23123823 0.82920808 -0.51553512 -0.21595733 0.14663115
0.23788697 0.35392341 -0.23576877 -0.61248708 -0.7747696 0.15681747 0.14203794
0.25817612 0.3565087 -0.23173444 -0.77373177 -0.56037331 -0.29550102 0.16355948
0.26109827 0.35725582 -0.23843253 -0.84096259 -0.54107457 -0.0044967155 0.18051687
-0.22575073 0.365143 -0.2327026 0.77349383 -0.59624827 0.21493097 0.16339602
0.22813004 0.36310163 -0.23604307 -0.66093862 -0.73466516 0.15305953 0.14850661
0.24955295 0.36864939 -0.23648305 -0.74239886 -0.65023434 -0.16136684 0.18428847
0.2542772 0.36011094 -0.23002702 -0.764494 -0.61502379 -0.19311836 0.17812845
-0.24117896 0.37673077 -0.23686574 0.56178868 -0.71429741 -0.41733998 0.15043327
-0.21113099 0.37903142 -0.23638186 0.60011756 -0.78236455 0.16662735 0.13454753
0.2176872 0.37274048 -0.2331398 -0.64497703 -0.76142383 -0.065104157 0.16769902
0.23851748 0.37558401 -0.23045622 -0.62860453 -0.66203648 -0.40812233 0.15004517
0.24540925 0.37155479 -0.23483457 -0.61889112 -0.76824683 -0.16361685 0.16734114
-0.2246567 0.38845831 -0.23020698 0.67317158 -0.73817337 0.044046436 0.15669747
-0.20293838 0.38521749 -0.23818749 0.55744427 -0.78462505 0.27132913 0.11624605
0.20474514 0.38388833 -0.23787108 -0.59799564 -0.7952382 0.099986464 0.1682698
0.22901255 0.38819674 -0.23693764 -0.67262399 -0.63938206 -0.37251523 0.15984292
-0.22252467 0.39115208 -0.2314229 0.78231347 -0.61151236 -0.11848335 0.16922876
-0.21794282 0.39806372 -0.23799187 0.56091589 -0.77681017 -0.28625023 0.18006724
0.19289201 0.39255372 -0.23890071 -0.49167684 -0.87077576 0.0018621166 0.14317881
0.22408168 0.39223307 -0.23589341 -0.59591186 -0.72992569 -0.3348096 0.14726071
-0.20176005 0.40839586 -0.2351332 0.62378299 -0.76285964 -0.17011723 0.15288006
-0.18159595 0.40053463 -0.23455472 0.6412605 -0.71647292 0.27468449 0.11931576
-0.17865187 0.40266415 -0.23437244 0.56810743 -0.74980873 0.3391766 0.10791112
0.1686441 0.40828475 -0.23109734 -0.32058284 -0.94428152 0.074558631 0.13545625
0.17186572 0.40662384 -0.23339161 -0.39243037 -0.9028731 0.17555262 0.14161374
0.18013842 0.40174654 -0.23749375 -0.51080596 -0.84670866 0.14886831 0.19484887
0.20600912 0.40676981 -0.23809658 -0.38039187 -0.78516752 -0.48868611 0.16038275
-0.19089866 0.41433927 -0.23133309 0.52045578 -0.84719104 -0.10673895 0.14268324
-0.15386243 0.41667381 -0.23656806 0.23786388 -0.95729905 0.16431436 0.13675386
-0.14767604 0.41991913 -0.23332638 0.32703003 -0.94011891 0.096061386 0.14741631
0.1594301 0.41369808 -0.23833908 -0.37070385 -0.92810959 0.034513235 0.14132795
0.16165726 0.41237336 -0.23625174 -0.49087682 -0.86955339 0.054008994 0.14384957
-0.1768565 0.42246401 -0.23036852 0.38243541 -0.89619893 -0.22487935 0.13070773
-0.14151567 0.42346096 -0.23655678 0.48552075 -0.87422025 -0.0029216285 0.17104854
-0.13156073 0.42757392 -0.23777388 0.22213773 -0.97501045 0.0030425075 0.17738348
-0.12746862 0.42887604 -0.230748 0.44331089 -0.89508444 0.047951724 0.16594005
0.13786407 0.42497253 -0.23543823 -0.50430489 -0.86196369 0.051914871 0.15448542
0.18360505 0.42088237 -0.23486629 -0.49557161 -0.81884682 -0.28965268 0.17492409
-0.16291833 0.43225813 -0.23490581 0.31013933 -0.93428415 -0.17586014 0.16190466
-0.12051519 0.4319126 -0.23701024 0.33467168 -0.94111782 -0.047876548 0.17204064
-0.11450454 0.43416503 -0.23419698 0.53355747 -0.79682904 -0.28351358 0.1605396
-0.10569406 0.43757644 -0.23332542 0.20821388 -0.97803766 0.0094542485 0.095836587
0.10779861 0.43676689 -0.23302183 -0.24313137 -0.96998948 0.0027412006 0.16703521
0.12433991 0.43040776 -0.23721954 -0.33933818 -0.92934555 0.14548686 0.13645819
0.14955488 0.43804261 -0.23157178 -0.56951249 -0.80319911 -0.17471893 0.15815467
0.15513636 0.43629211 -0.23436737 -0.74991757 -0.66149783 0.0066552423 0.18492112
0.16366461 0.43123221 -0.23357195 -0.38538888 -0.90155685 -0.19664842 0.16604193
-0.14539115 0.4432345 -0.23911825 0.38410571 -0.79230964 -0.47403401 0.14325455
-0.1388253 0.44357634 -0.23387054 0.25648776 -0.81764799 -0.51542777 0.14852116
-0.082924709 0.44412208 -0.23710155 0.33795759 -0.94107008 0.013107259 0.16364707
-0.076919183 0.44561023 -0.23586282 0.22618812 -0.97170383 -0.06804888 0.16350758
-0.065718733 0.44848028 -0.23589675 0.030667478 -0.99920595 0.025435666 0.15494798
0.080612384 0.44460919 -0.23464799 -0.41941863 -0.89897901 -0.12619279 0.1629059
0.09652815 0.44058347 -0.23604628 -0.2293475 -0.94430542 0.23598105 0.18320392
0.13345255 0.44713065 -0.23707028 -0.36368322 -0.91894686 -0.15254906 0.18599766
-0.1028254 0.45672902 -0.23285459 0.2204974 -0.97314733 0.066070028 0.15242188
-0.052794233 0.4506405 -0.23654701 0.21459028 -0.97580677 -0.041857868 0.15023774
-0.042276535 0.45172745 -0.23084907 0.26688474 -0.96197957 0.058032297 0.13394229
-0.034173809 0.45298183 -0.23628753 0.35795453 -0.9292016 0.091939688 0.14391667
-0.012163157 0.45445967 -0.23113167 -0.10481363 -0.98989296 -0.095530726 0.14661035
-0.00047262898 0.45471132 -0.23711066 0.01880559 -0.97640544 -0.21512492 0.17953388
0.00084636454 0.45482326 -0.23976886 0.17302953 -0.9446277 -0.27881774 0.17654268
0.033402979 0.45311338 -0.23709339 0.064816639 -0.9291141 -0.3640686 0.19094129
0.054018747 0.45043483 -0.23534505 -0.073735602 -0.74469316 -0.66332126 0.097433083
0.095545337 0.45885104 -0.2334452 -0.48086751 -0.85785264 -0.18126003 0.14617717
0.10788946 0.45584291 -0.23391134 -0.25281927 -0.94833112 -0.19170435 0.17004545
0.11893335 0.45088065 -0.23258924 -0.22726065 -0.94127274 -0.24971652 0.17751189
0.12413912 0.45086837 -0.23720002 -0.38730305 -0.91775393 -0.087886803 0.17761531
-0.065364212 0.46826038 -0.2377038 0.17432866 -0.8317036 -0.52714193 0.18611972
0.036532164 0.46909091 -0.2306443 -0.015689338 -0.89108437 -0.45356652 0.1496294
0.055594869 0.46834281 -0.23461606 -0.048191354 -0.86018014 -0.50770831 0.083971016
0.06878452 0.46607429 -0.23429906 -0.095116794 -0.88936245 -0.44719934 0.083722457
0.070848741 0.46593153 -0.23517242 -0.24500081 -0.90965855 -0.33540419 0.10133231
0.08287935 0.46212101 -0.23348702 -0.27837867 -0.89461386 -0.34953028 0.11031937
