# .PCD v0.7 - Point Cloud Data file format
VERSION 0.7
FIELDS x y z normal_x normal_y normal_z curvature
SIZE 4 4 4 4 4 4 4
TYPE F F F F F F F
COUNT 1 1 1 1 1 1 1
WIDTH 589
HEIGHT 1
VIEWPOINT 0 0 0 1 0 0 0
POINTS 589
DATA ascii
-3.6213547e-05 0.17017266 -0.37198535 -0.19521457 -0.97963101 0.047056898 0.15019687
0.016097425 -0.49008656 -0.36890957 0.20061052 0.97849691 0.047948986 0.14274545
0.029014621 -0.49178714 -0.36737096 0.18551873 0.98246515 0.018571911 0.070381299
0.032845285 -0.49229145 -0.36572364 0.13055383 0.99144125 -1.3156757e-05 4.0553277e-05
0.06515526 -0.49654511 -0.36532578 0.12818801 0.99174976 -0.00054310879 1.043707e-05
0.078450099 -0.49829543 -0.36648723 -0.0079955813 0.99996722 0.0012882963 0.010574369
0.085771695 -0.49925935 -0.36561799 -0.16086313 0.98695743 -0.0061781635 0.020977639
-0.053436555 -0.48093221 -0.36416841 0.1305754 0.99143833 -0.00017761071 1.5979887e-05
-0.046037257 -0.48190635 -0.36290717 0.13052668 0.99144483 4.7838017e-05 0
-0.028363891 -0.48423311 -0.36317915 0.13051794 0.99144596 0.00020252002 0
-0.014794283 -0.48601958 -0.3661927 0.075646542 0.97584051 0.20497055 0.18146715
-0.0082982369 -0.48687482 -0.36485267 0.16098727 0.98345941 0.083009161 0.074472271
0.11669254 -0.48059046 -0.36310887 -0.60880685 0.79331845 -2.0662403e-05 0
-0.13299684 -0.47045791 -0.36246306 0.13053648 0.99144351 -2.4928453e-05 0
-0.12493439 -0.47151935 -0.36405385 0.13045554 0.99145412 -0.00022556593 5.2105261e-06
-0.11797477 -0.47243562 -0.3682436 0.13052879 0.99144453 -3.6925318e-05 0.00013384859
-0.10678399 -0.47390887 -0.36493132 0.13054951 0.99144173 0.00012937418 0
-0.098903731 -0.47494635 -0.36429596 0.13054323 0.99144268 6.4193388e-05 0
-0.089636989 -0.47616634 -0.3662912 0.13052683 0.99144471 8.0294412e-05 3.6252717e-05
-0.07253705 -0.47841761 -0.36714131 0.11094004 0.9903121 0.083511479 0.099726491
0.12696137 -0.47271094 -0.36403421 -0.60876036 0.79335415 0.00014892922 1.7169881e-05
-0.16471322 -0.46628237 -0.36244854 0.25487131 0.96676296 0.020246951 0.011749054
-0.15346871 -0.46776274 -0.3637116 0.13690941 0.97501427 0.1749371 0.092060149
-0.13739853 -0.46987841 -0.36306661 0.13057613 0.99143833 -3.1635814e-06 0
-0.18277419 -0.45663187 -0.36172181 0.63542408 0.7715053 0.031870596 0.017647028
0.14785911 -0.45667553 -0.36054447 -0.60878772 0.79333317 6.235e-06 0
0.15324557 -0.45254233 -0.36568379 -0.60886186 0.79327631 5.4194745e-05 3.5015306e-05
-0.1927793 -0.44359291 -0.36210051 0.79325008 0.6088959 7.3081032e-06 0
0.15697879 -0.44967774 -0.36949143 -0.66157258 0.74967343 0.017650157 0.061328333
0.16481546 -0.44366446 -0.36558664 -0.6030044 0.79260665 0.090334736 0.077563219
-0.20019302 -0.43393117 -0.36199233 0.79334086 0.60877752 -5.4247303e-05 0
0.17826772 -0.43334222 -0.36917785 -0.71974438 0.67283499 0.17105885 0.12694661
0.18247724 -0.43011212 -0.36477351 -0.60675049 0.77270424 0.18649946 0.11441778
-0.20527419 -0.42730927 -0.36419845 0.79344893 0.60863692 -6.568871e-06 6.8341367e-05
0.18661992 -0.42693332 -0.36689916 -0.42637983 0.88469565 0.18845119 0.14581715
0.19625771 -0.41953796 -0.36437291 -0.60875195 0.79336059 1.0336337e-05 1.3991676e-05
0.2171194 -0.40353024 -0.36505622 -0.60874885 0.79336303 2.5669049e-05 0
0.23900545 -0.38673651 -0.36452723 -0.60885668 0.79328018 8.7517437e-05 0
0.24658708 -0.38091892 -0.36081004 -0.6087755 0.79334247 7.8752491e-05 0
-0.24736428 -0.3724564 -0.36201841 0.79328746 0.60884726 -8.4957646e-05 1.7607364e-05
0.25975037 -0.37081838 -0.36985511 -0.60889673 0.79324955 -3.7959795e-05 0
-0.2538203 -0.3640427 -0.36478272 0.79329127 0.60884231 -0.00011367782 0
0.28322464 -0.35280591 -0.36764926 -0.66039616 0.74590153 0.086647473 0.12966448
-0.27159637 -0.34087646 -0.36611599 0.69103676 0.67438608 0.26013765 0.098552719
-0.27630177 -0.33474433 -0.3639524 0.7932837 0.60885221 9.398823e-05 3.9010771e-05
0.30592522 -0.33286676 -0.36655292 -0.87307024 0.4792828 0.089646049 0.10323755
-0.28177476 -0.32761174 -0.36890018 0.79335487 0.6087594 -2.9990256e-06 6.2185019e-05
0.30711898 -0.32561618 -0.36723354 -0.93356866 0.33331895 0.13171197 0.097746067
0.30854493 -0.31478482 -0.36485037 -0.98993444 0.14144586 0.0047808802 0.0002644324
-0.29717958 -0.30753577 -0.36542293 0.79888964 0.59868735 0.057869632 0.093003772
0.30987924 -0.30464971 -0.36610875 -0.97753865 0.1409553 0.1566838 0.12503782
0.31134459 -0.29351923 -0.36616403 -0.99386114 0.10306938 0.040207352 0.072560012
-0.31802908 -0.28036422 -0.36174428 0.79336733 0.60874325 6.8698762e-05 0
0.31288791 -0.28179678 -0.3677595 -0.98624009 0.15012008 0.069241382 0.10496226
-0.32170951 -0.27556777 -0.36623314 0.7932722 0.60886711 -0.00011584881 8.2965926e-05
0.31408125 -0.27273232 -0.36546949 -0.99144644 0.13051425 4.5860652e-05 1.043616e-05
-0.33129734 -0.26307267 -0.36635268 0.84962797 0.52716166 0.015261435 0.056124419
0.31532818 -0.26326081 -0.3668361 -0.98854923 -0.003873287 0.15084851 0.13240862
0.31634128 -0.25556546 -0.36627916 -0.96504229 0.031069154 0.2602461 0.1135641
-0.34103766 -0.24982181 -0.3614271 0.97934878 0.20181663 -0.012080681 0.024163777
0.31801099 -0.24288294 -0.3638956 -0.98893219 0.079628363 0.12518919 0.096634895
-0.33950794 -0.23820227 -0.36015639 0.99924833 0.037395149 -0.010214668 0.013665009
-0.33734548 -0.22177681 -0.36066297 0.99144512 -0.13052416 2.6803141e-06 1.2928084e-05
0.32000515 -0.22773583 -0.36066753 -0.99144244 0.13054475 1.5393854e-05 0
-0.3357577 -0.20971638 -0.36782843 0.99144965 -0.13049001 -6.8260611e-05 0
0.32465136 -0.19244424 -0.36871892 -0.93080211 0.36439005 0.028762737 0.10748322
0.32577229 -0.18393011 -0.36591715 -0.9961763 0.056398183 0.066723853 0.085897304
-0.33173764 -0.17918123 -0.36637127 0.99144363 -0.13053605 2.6112355e-05 3.9495684e-05
0.32857025 -0.16267742 -0.36676097 -0.99144262 0.13054302 -3.4340948e-05 3.9107417e-05
-0.32887962 -0.15747231 -0.36169994 0.9914462 -0.13051599 3.5273253e-05 0
-0.32780695 -0.14932445 -0.36880118 0.98196054 -0.068105258 0.17639492 0.12222696
0.33050925 -0.147949 -0.36442453 -0.96567363 0.23774734 0.10464462 0.091131002
0.33245984 -0.13313299 -0.36957371 -0.99143887 0.13057166 6.2191728e-05 0
-0.32462573 -0.12516075 -0.36161038 0.99144536 -0.13052231 5.5635668e-05 0
0.33369136 -0.12377866 -0.36702299 -0.99144435 0.13052994 2.2709114e-06 0
-0.3228763 -0.11187264 -0.36576948 0.98384482 -0.17385055 0.042725503 0.11834177
0.3345663 -0.11713271 -0.36800933 -0.99144411 0.13053188 -0.00010789791 0
-0.32191455 -0.10456742 -0.36435837 0.99144381 -0.13053472 1.6442529e-05 0
0.3380543 -0.090638645 -0.3637861 -0.99628317 0.085877828 0.0066959853 0.0030979258
-0.31891137 -0.081755966 -0.36178437 0.99144191 -0.13054863 -0.00016573112 0
0.33840251 -0.087993801 -0.3690035 -0.98700905 0.088020466 0.13440786 0.11576214
-0.31833315 -0.077363759 -0.36304483 0.99144161 -0.13055119 -3.7881488e-05 4.1286905e-05
0.34062588 -0.071105629 -0.36824846 -0.98984993 -0.14209861 0.0022652189 0.014944892
-0.31663874 -0.064493403 -0.36623123 0.99144572 -0.13051945 -5.2687381e-05 6.4302299e-06
0.3363294 -0.061284646 -0.36846045 -0.93408483 -0.35404742 -0.046215799 0.021646593
-0.31508273 -0.052674565 -0.36496192 0.99144727 -0.13050787 4.332266e-05 0
0.32440525 -0.045744747 -0.36750126 -0.79882294 -0.60156524 0.0011145719 0.00021549176
0.3170675 -0.036182031 -0.36496222 -0.79336691 -0.60874379 3.9757626e-05 0
-0.31107756 -0.022252167 -0.3620984 0.99071854 -0.1229834 0.057896469 0.055292271
0.30706272 -0.023143519 -0.36450434 -0.77931595 -0.62293929 0.067921527 0.066293634
0.29809114 -0.011451554 -0.36204767 -0.79334593 -0.60877109 1.4724786e-05 8.2685056e-06
-0.30872262 -0.0043646996 -0.3687315 0.98173612 -0.15216905 0.11418733 0.10353938
0.28977323 -0.00061142258 -0.36447054 -0.79335457 -0.60875994 2.4940196e-05 0
0.29511988 -0.0075793024 -0.36268759 -0.79336071 -0.60875177 -0.00012237852 0
-0.30800334 0.0010989029 -0.36432582 0.96999508 -0.24308722 -0.0042644148 0.0096822456
0.28541106 0.0050734505 -0.36433756 -0.79335469 -0.60875964 7.6326724e-05 0
0.27505586 0.018568635 -0.36327416 -0.79335797 -0.60875547 -3.4045628e-05 0
-0.29664689 0.02470722 -0.36904648 0.77418059 -0.63184708 -0.037597518 0.012472186
-0.27996776 0.037505526 -0.36690363 0.60879534 -0.79332727 2.3673343e-05 0
0.2630133 0.034262769 -0.36716723 -0.79331058 -0.60881722 -8.8927423e-05 2.8808303e-05
-0.271029 0.044364512 -0.36756313 0.60102206 -0.79576075 0.074412927 0.083194219
-0.26503026 0.048967503 -0.36838478 0.60697216 -0.77050507 0.19469611 0.11096475
-0.25212449 0.058870435 -0.36898068 0.602404 -0.79701132 0.043386437 0.069117397
0.24794206 0.053904016 -0.36183518 -0.79334527 -0.60877198 7.4550946e-05 0
-0.24623716 0.063387968 -0.3648833 0.59463084 -0.80229747 0.052276138 0.074818365
0.23596942 0.069507092 -0.36362997 -0.79336071 -0.60875183 -6.1475257e-05 3.0074755e-06
-0.23244777 0.073968925 -0.36551005 0.58901662 -0.80585349 0.060494743 0.068885118
-0.22877946 0.076783732 -0.36199304 0.60873115 -0.79337656 -9.0258145e-06 1.3872e-05
0.23525436 0.070438974 -0.36903366 -0.74174953 -0.66893923 0.048249193 0.069455862
-0.22220415 0.081829131 -0.36606479 0.59273726 -0.80497038 0.026175531 0.058462575
-0.2154389 0.087020293 -0.36085925 0.60876626 -0.79334962 1.726719e-05 0
-0.21153545 0.090015501 -0.36745843 0.66460758 -0.7456001 0.048758164 0.07936313
-0.20219254 0.097184598 -0.36093658 0.6087606 -0.79335397 -7.4335963e-05 8.2583792e-06
0.21525252 0.09650588 -0.36414012 -0.79334521 -0.60877204 -4.3897264e-05 1.9810823e-05
0.2063662 0.10808676 -0.36248657 -0.79334277 -0.60877526 4.2399737e-05 0
0.21217975 0.10051041 -0.36552304 -0.79334658 -0.60877019 2.8931867e-05 0
-0.18428373 0.1109265 -0.36686516 0.56382126 -0.81827694 0.11193044 0.12119307
-0.17819652 0.11559737 -0.36103874 0.60875458 -0.79335862 1.1463369e-05 6.3756884e-06
0.1986044 0.11820214 -0.36655357 -0.76095724 -0.64742303 0.042278063 0.065429397
0.20222035 0.11348975 -0.36089852 -0.79333913 -0.60877997 0.00011102787 0
-0.16153786 0.12838 -0.36513481 0.58772266 -0.80789477 0.043452766 0.056868985
0.19322878 0.12520778 -0.36095241 -0.78215456 -0.62308443 0.00025578029 0.00028606737
-0.13639998 0.147669 -0.36129662 0.52331322 -0.85210276 0.0080042519 0.086326249
0.15416095 0.14987224 -0.36506081 -0.15827252 -0.9865762 0.040215485 0.060530342
0.17485937 0.14714724 -0.36139327 -0.4520947 -0.89017701 -0.056526322 0.027742948
-0.13220303 0.15088943 -0.36921388 0.57459563 -0.81632566 -0.058755867 0.055625841
-0.12341025 0.15763636 -0.36510786 0.61210257 -0.78737336 -0.07330554 0.11407684
0.084645376 0.15902412 -0.3611325 -0.13053402 -0.99144381 9.2704376e-08 1.3780135e-05
0.099830739 0.15702493 -0.36986181 -0.1241252 -0.9862482 0.10912111 0.093972087
0.12691373 0.15345939 -0.36557007 -0.13051833 -0.99144584 -1.8398679e-05 2.0534778e-06
-0.1149454 0.16413166 -0.36473432 0.56278479 -0.82656759 -0.0076970845 0.1820993
0.012823364 0.16847965 -0.36377254 -0.11393564 -0.99040443 0.078215912 0.065546952
0.021081466 0.16739245 -0.36951807 -0.1678607 -0.98203194 0.086232193 0.12820306
0.038963318 0.16503826 -0.36025119 -0.13052811 -0.99144459 2.0371665e-05 0
0.044869579 0.16426069 -0.36514896 -0.13053006 -0.99144441 2.688337e-05 0
0.055034012 0.16292253 -0.36492428 -0.13053925 -0.99144316 3.1831238e-05 0
0.06576287 0.16151004 -0.36462703 -0.2011589 -0.97467458 0.097695373 0.095745049
0.075474799 0.16023144 -0.36571234 -0.052718129 -0.9976896 0.04285213 0.098598607
-0.057476185 0.17773475 -0.36438641 -0.015869156 -0.99986798 0.0034825844 0.15145646
-0.04564172 0.17617673 -0.36373585 0.042489335 -0.99034029 0.13198741 0.13917653
-0.032845151 0.17449203 -0.36194077 -0.069202311 -0.99524242 0.0685822 0.070264705
-0.028024804 0.17385742 -0.36046919 -0.11098053 -0.99289376 0.04295741 0.054019172
-0.011306286 0.17165639 -0.36748168 -0.17618714 -0.98361099 0.038307812 0.1144758
-0.0022034608 0.17045797 -0.36679623 -0.10971519 -0.99282849 0.047477979 0.092463575
-0.079730332 0.18066457 -0.36115965 -0.13463604 -0.89704496 0.42093161 0.21472988
0.016253825 -0.49010712 -0.35155731 0.13054791 0.99144202 0.00010649657 1.9255687e-05
0.025248725 -0.49129134 -0.35323906 0.13051462 0.99144638 3.0487023e-05 0
0.033321191 -0.49235407 -0.35281101 0.13052298 0.9914453 1.9473009e-06 0
0.045204848 -0.49391863 -0.35262445 0.13051774 0.99144596 2.232268e-05 0
0.055071026 -0.4952175 -0.35696471 0.13055702 0.99144077 -0.00018044902 1.3079709e-05
0.068475701 -0.49698228 -0.35767439 0.1101301 0.99391246 0.0030648543 0.00079529872
0.083641782 -0.49897894 -0.35630345 -0.016397599 0.99979198 -0.012131869 0.014079453
0.091756284 -0.49969158 -0.35387945 -0.27282819 0.96075851 0.050077364 0.033097226
0.10312662 -0.49099997 -0.35663974 -0.5198611 0.85407794 -0.017183965 0.0087052817
-0.054589536 -0.48078042 -0.35982162 0.13053259 0.99144405 1.5766627e-05 0
-0.045523264 -0.48197404 -0.35288566 0.13050486 0.99144769 -0.00016242207 6.0358507e-05
-0.033464763 -0.48356158 -0.35592705 0.13058387 0.9914372 0.00020479909 0
-0.021218436 -0.48517382 -0.3522107 0.13057429 0.99143851 0.0002350672 0
-0.019961715 -0.48533928 -0.35674801 0.13055271 0.99144131 0.00029691187 1.5510677e-05
-0.00099868514 -0.48783579 -0.35233116 0.13047956 0.99145103 0.00020746316 0
0.0081770904 -0.48904383 -0.3537212 0.13053697 0.99144346 7.8145322e-06 3.1158579e-05
0.11499481 -0.48189318 -0.35500467 -0.60578507 0.79562789 -0.00085320073 4.4628265e-05
-0.13545808 -0.47013387 -0.35767922 0.1305311 0.99144423 4.0732579e-05 0
-0.11811027 -0.47241777 -0.35281175 0.13053136 0.99144417 -0.00026509294 0.00011069499
-0.10243454 -0.47448152 -0.35357586 0.13052906 0.99144447 -9.1000744e-05 6.8094618e-05
-0.097999796 -0.47506535 -0.35131294 0.1305517 0.99144155 0.00010143374 2.4039928e-05
-0.084773302 -0.47680667 -0.35105091 0.13055332 0.99144125 -1.5072074e-05 0
-0.062964261 -0.47967789 -0.35648194 0.13054255 0.99144268 9.2849143e-05 0
0.1266125 -0.47297862 -0.35459739 -0.60881311 0.79331368 6.0740698e-05 0
-0.17662981 -0.46463937 -0.35454702 0.52510369 0.84623849 0.090258352 0.019050844
-0.16403022 -0.46637231 -0.35935482 0.24235082 0.96966505 0.031871542 0.01189783
-0.15699251 -0.46729884 -0.35955295 0.18941945 0.98186159 0.0082563069 0.0047859289
-0.14441048 -0.46895528 -0.35692644 0.13055275 0.99144143 -8.0038051e-05 3.9062386e-05
0.13913822 -0.46336728 -0.35768119 -0.6087423 0.79336798 0.00017401825 4.6795453e-06
0.14258112 -0.46072549 -0.35033745 -0.6088044 0.79332042 6.1941515e-05 2.9985096e-05
0.1466108 -0.45763341 -0.35760215 -0.60891992 0.79323167 -0.0001163233 0.00014337724
0.15151459 -0.45387059 -0.35126546 -0.60876727 0.79334891 -3.0243857e-06 0
-0.19062017 -0.44640678 -0.35605431 0.79334033 0.60877842 -2.0791262e-05 4.3625343e-05
0.15764622 -0.44916561 -0.35325304 -0.60878164 0.79333782 7.7721954e-05 0
-0.19685048 -0.43828729 -0.35684863 0.79337883 0.60872823 1.7229164e-06 1.6706834e-05
0.17810448 -0.43346742 -0.35397625 -0.60870802 0.79339421 4.3361757e-05 0
-0.20621094 -0.42608845 -0.35425115 0.79316998 0.60900027 6.1090541e-05 0
0.18587719 -0.42750323 -0.3511247 -0.60885906 0.79327846 8.2978702e-05 2.0985792e-05
0.19066834 -0.42382687 -0.35185617 -0.60885054 0.79328495 -2.3996081e-06 0.00013861444
-0.2151041 -0.41449866 -0.35346609 0.79334617 0.60877085 0.00013703092 0
0.20427227 -0.41338822 -0.35448802 -0.60881394 0.79331309 -4.2982607e-05 0
-0.2226897 -0.40461296 -0.35470492 0.79323453 0.60891628 0.00011606057 0
0.22076818 -0.40073043 -0.35731271 -0.60877919 0.79333967 -4.5391247e-05 7.975741e-05
-0.23843259 -0.38409644 -0.35147399 0.79338586 0.60871893 -0.00011223652 8.0865197e-05
0.24282777 -0.38380352 -0.35222077 -0.60881454 0.79331255 -5.5284789e-05 0
-0.24635586 -0.37377059 -0.35711551 0.79330069 0.60882998 -4.2296357e-05 0
0.25328463 -0.37577969 -0.35708976 -0.60883617 0.79329598 4.9558726e-05 0
0.26041716 -0.37030673 -0.3567799 -0.60878867 0.7933324 -1.144741e-05 3.8484803e-05
-0.2559287 -0.36129504 -0.35095412 0.79331064 0.60881698 2.0819803e-05 0
0.26467681 -0.36703819 -0.35652927 -0.60878313 0.79333669 -0.00015789222 3.6047048e-05
-0.25965267 -0.35644183 -0.35471016 0.79334319 0.60877466 9.4848736e-05 0
0.27725482 -0.35738677 -0.35453901 -0.60879195 0.79332995 -4.3059285e-05 3.1160926e-05
0.28382513 -0.35234517 -0.35525632 -0.61749524 0.78657413 -0.00090363389 0.00018317861
-0.27115628 -0.34145007 -0.35905451 0.79324597 0.60890132 9.8304998e-05 0
-0.26780564 -0.34581673 -0.35604909 0.79333079 0.60879081 5.3860229e-05 3.1111835e-05
0.28784898 -0.34925753 -0.35533217 -0.64573509 0.76354003 -0.0057279812 0.001380945
0.29333842 -0.34504533 -0.3539167 -0.67735112 0.73548639 0.015977418 0.0037163033
-0.27734435 -0.33338559 -0.3563441 0.79335099 0.60876441 -0.00011143421 4.6261597e-05
0.30609047 -0.33342844 -0.35743797 -0.82119662 0.5705204 0.011939726 0.016952151
-0.28088233 -0.32877484 -0.3574447 0.79336822 0.608742 -5.2949392e-05 6.5700719e-05
-0.29467681 -0.31079751 -0.3551009 0.79336691 0.60874379 8.1105245e-05 3.425761e-05
-0.29818386 -0.306227 -0.35379386 0.79336309 0.60874867 -7.3466021e-05 4.5979545e-05
0.31008604 -0.30307895 -0.35198984 -0.99143058 0.13063473 -6.119904e-05 0
-0.30448633 -0.29801345 -0.35306153 0.79336423 0.6087473 -9.1155081e-05 6.4665372e-05
0.3111248 -0.29518887 -0.35172892 -0.99143779 0.13057974 3.0201851e-05 0
-0.31794867 -0.280469 -0.3530755 0.79332525 0.60879809 3.4661734e-05 1.8950832e-05
0.313113 -0.28008696 -0.35226035 -0.99143589 0.13059382 -9.0363479e-05 1.2133028e-05
-0.31925258 -0.27876973 -0.35187739 0.79336745 0.60874307 -2.840619e-05 1.3182159e-05
0.31402543 -0.27315614 -0.35116267 -0.99145216 0.13047107 -4.045352e-05 2.947921e-05
-0.3328526 -0.26104584 -0.35772702 0.85963929 0.50995183 -0.031136198 0.009708656
-0.32767916 -0.26778799 -0.35066062 0.81485552 0.57960689 -0.0081503876 0.001419914
0.31517458 -0.26442772 -0.35666546 -0.99143893 0.13057114 8.9626556e-05 0
-0.33430767 -0.25914955 -0.35612375 0.86755711 0.49597561 -0.036782008 0.011107705
0.31644276 -0.25479487 -0.35742819 -0.99144703 0.13050975 4.0482249e-05 5.5977824e-05
-0.34061873 -0.24663936 -0.35793149 0.98618114 0.16486925 -0.016276764 0.02270335
0.31779304 -0.24453823 -0.35576212 -0.99143839 0.13057524 -2.9841985e-05 4.0581263e-06
-0.33910879 -0.23517054 -0.35561761 0.99993819 0.0026657758 0.01079843 0.011220365
0.3194837 -0.23169658 -0.3545275 -0.99144334 0.13053736 -8.5015461e-05 1.993467e-05
0.32023582 -0.22598365 -0.35340714 -0.99143463 0.1306036 2.402805e-05 0
-0.33636662 -0.21434157 -0.35694 0.99144781 -0.13050382 -5.3172087e-05 3.0152453e-06
0.32311159 -0.20414004 -0.35390288 -0.99144465 0.13052785 -5.7381953e-05 5.5995828e-05
-0.33408481 -0.19700968 -0.355551 0.99144596 -0.13051757 2.4520128e-05 2.0822647e-05
0.32398087 -0.19753736 -0.35303575 -0.99144924 0.13049294 -7.9881363e-05 3.7443893e-05
0.32521251 -0.18818186 -0.35188183 -0.99144286 0.13054129 -7.3520117e-05 7.2758303e-05
-0.33119678 -0.17507273 -0.35615361 0.99143881 -0.13057205 -5.4274013e-05 0
0.32645422 -0.17875011 -0.35162115 -0.99144101 0.13055515 -2.3843433e-05 2.8048011e-05
-0.330286 -0.1681546 -0.35329753 0.99144208 -0.13054769 3.4166493e-05 1.0190014e-05
-0.3284083 -0.15389213 -0.35372913 0.99144334 -0.13053797 8.6951593e-05 0
0.33078006 -0.14589213 -0.35539404 -0.99144119 0.13055407 -2.5214205e-05 1.1050319e-05
0.33278078 -0.13069515 -0.35678434 -0.99144667 0.13051257 4.442426e-06 0
-0.32438362 -0.12332171 -0.35725427 0.99144614 -0.1305168 3.1741285e-05 0
0.33324847 -0.12714255 -0.35820416 -0.9914462 0.13051666 1.4245617e-05 0
-0.32053781 -0.094109923 -0.35529661 0.99145037 -0.1304841 -0.00012979236 4.4548764e-05
0.337571 -0.094309904 -0.35422477 -0.99144685 0.13051076 -3.8427486e-05 3.9919567e-05
-0.3187187 -0.080292359 -0.35013694 0.99143893 -0.13057108 9.9298304e-05 0
0.33891448 -0.084104799 -0.35608003 -0.99770862 0.067153312 0.0082435058 0.0034851907
-0.31768548 -0.072444066 -0.35853255 0.99143767 -0.1305808 -0.00015510965 9.7965014e-05
-0.3171137 -0.068101235 -0.35230851 0.99144065 -0.13055854 -4.1442519e-05 6.3215426e-05
0.33798099 -0.063437022 -0.3542648 -0.93210799 -0.35981861 0.041294601 0.0167966
-0.31571224 -0.057456046 -0.35451245 0.99144506 -0.1305248 -3.5263383e-05 0
0.32812193 -0.050588455 -0.35510403 -0.81036025 -0.58583575 0.010612957 0.0010393938
-0.31449658 -0.048222139 -0.35660237 0.99144405 -0.13053235 4.0811177e-05 0
0.32290646 -0.043791488 -0.35700056 -0.79336149 -0.60875082 2.0228646e-05 0
-0.31299138 -0.036788996 -0.35124052 0.9914431 -0.13053936 -5.8558995e-05 7.1123868e-05
-0.31102103 -0.021822654 -0.35461375 0.99144584 -0.13051869 5.3468561e-05 1.1710408e-05
-0.31046787 -0.017621076 -0.35455045 0.99145055 -0.13048299 0.00010997934 0
0.29876643 -0.012331627 -0.35538647 -0.79332751 -0.60879511 -7.6435383e-05 2.6802323e-05
0.30268267 -0.017435338 -0.35369682 -0.79333621 -0.60878366 1.5789137e-05 2.0063873e-05
0.29303533 -0.0048626722 -0.35183987 -0.79335582 -0.60875821 3.7427839e-05 0
-0.3074874 0.0050179451 -0.35869402 0.96782082 -0.25037584 0.025196308 0.0091175484
0.28481147 0.0058548748 -0.35298213 -0.79334342 -0.60877442 -1.7462524e-05 1.4888539e-05
0.27635273 0.016878523 -0.35878742 -0.79335821 -0.60875511 -9.792186e-05 1.9336308e-07
-0.29576647 0.025382778 -0.3548277 0.7446242 -0.66715062 0.021093976 0.0096475203
0.26922211 0.026171319 -0.35349298 -0.79334694 -0.60876971 -1.4888406e-05 5.5051491e-06
0.27083641 0.024067521 -0.35336292 -0.79335123 -0.60876423 -2.8729921e-05 0
-0.28615028 0.032761551 -0.35660034 0.60872102 -0.79338437 -5.1528456e-05 1.250476e-05
-0.27876624 0.038427517 -0.35485527 0.60877824 -0.79334038 1.9030608e-06 0
0.25973997 0.038528692 -0.35814011 -0.79334164 -0.60877657 -3.8439262e-06 1.6246166e-05
0.25632477 0.042979464 -0.35550141 -0.79335666 -0.60875708 7.5147997e-05 0
-0.2599611 0.052857224 -0.35205537 0.60874718 -0.79336423 -2.4496831e-05 8.0172149e-06
0.24492152 0.057840489 -0.35210142 -0.79335374 -0.60876101 2.5834413e-05 0
-0.24370132 0.065333761 -0.35682961 0.60876387 -0.79335147 -7.2492818e-05 1.1728728e-06
-0.23840824 0.069395289 -0.35607895 0.60877824 -0.79334038 2.7413507e-05 0
0.24051395 0.063584521 -0.35443872 -0.79334927 -0.60876673 4.2687072e-05 4.652145e-06
0.22831999 0.079476014 -0.35196584 -0.7933566 -0.60875726 4.0546125e-05 0
0.23058034 0.07653027 -0.35913253 -0.79335564 -0.60875839 8.7823782e-06 0
-0.21750985 0.085431196 -0.35276619 0.608796 -0.7933268 3.0940104e-05 0
0.2238573 0.085291922 -0.3536869 -0.79333758 -0.60878199 -2.7628905e-05 2.7932374e-05
0.21719378 0.093975961 -0.35464734 -0.79334503 -0.60877234 -6.1962824e-06 1.2415463e-05
0.22015199 0.090120777 -0.3536315 -0.7933504 -0.60876524 7.7355789e-06 1.5775502e-06
-0.18883082 0.10743739 -0.35057259 0.60875767 -0.79335624 7.2765024e-06 7.1519644e-06
-0.18177076 0.11285476 -0.35607639 0.60875404 -0.79335898 8.2949218e-06 0
-0.17654124 0.11686751 -0.35708827 0.6087389 -0.7933706 1.7223734e-05 1.0229493e-05
-0.16634773 0.12468926 -0.35739371 0.58184344 -0.81307268 -0.019262383 0.0021643068
0.19430755 0.1238019 -0.35635 -0.78463334 -0.61996007 -0.00011870339 0.00021323482
-0.15652247 0.13222845 -0.35358366 0.65636522 -0.75171405 0.064115047 0.032235835
-0.14744635 0.1391928 -0.35680962 0.55613011 -0.8304224 0.033433199 0.074120432
0.18747947 0.13270041 -0.354123 -0.7710529 -0.63676143 -0.0035013731 0.00041827382
-0.11497632 0.14487268 -0.35287771 -0.083416812 -0.94237554 -0.32399064 0.218307
-0.098490134 0.1492964 -0.35290563 -0.21340109 -0.9151994 0.34186241 0.25671244
0.1576845 0.14940834 -0.35921735 -0.13792647 -0.99044245 9.1597933e-05 0.00011778234
0.17510408 0.14599669 -0.35693002 -0.50867236 -0.85782892 -0.073362507 0.026009029
-0.13003989 0.15254927 -0.35149121 0.61667764 -0.77293408 0.14927009 0.20107037
-0.12289481 0.15576185 -0.35473374 0.3246173 -0.93580329 -0.13746189 0.18049224
-0.11456425 0.15251432 -0.35426822 0.47436461 -0.87643152 -0.082740672 0.2468155
-0.10243288 0.15658306 -0.35597169 0.094513789 0.87148839 0.48122251 0.29691231
-0.093628481 0.15133405 -0.35447514 -0.23599334 -0.97107047 -0.036459919 0.23323029
-0.083895363 0.15627541 -0.35703656 0.094390161 -0.71744758 0.69018805 0.27644894
-0.076943845 0.15793446 -0.35852659 0.17475902 -0.60280514 0.77851474 0.13704021
-0.064526781 0.15812728 -0.35170171 0.76534927 -0.61976719 -0.1735774 0.24454728
0.078202277 0.15987237 -0.35633335 -0.13052063 -0.99144554 2.0560357e-05 0
0.089299083 0.15841144 -0.3541044 -0.13051528 -0.99144626 2.1494419e-05 5.8795126e-06
0.10279537 0.15663463 -0.3514753 -0.13051958 -0.99144572 3.7431678e-06 4.7135927e-06
0.13165423 0.15283528 -0.35201287 -0.13053972 -0.99144316 -3.6826346e-05 0
0.14782578 0.15070629 -0.35273325 -0.1360382 -0.99070352 -0.00052835885 9.4031173e-05
-0.11044092 0.16758808 -0.35693631 0.55252558 -0.59560972 0.58306473 0.23571713
-0.10987395 0.16601355 -0.35288817 -0.45856556 0.69814849 0.54982388 0.25302854
-0.094910875 0.16597095 -0.35585442 0.15323246 -0.24686474 0.95685828 0.21590102
-0.073028997 0.16705978 -0.35593754 -0.06485863 -0.52646148 0.84772152 0.23662148
-0.065191001 0.16999321 -0.35454088 -0.033872984 0.008903564 0.99938649 0.22021474
-0.053782854 0.16676693 -0.35435885 -0.073804192 0.18889765 0.97921938 0.21075261
0.0030984401 0.16975994 -0.3547965 -0.13768099 -0.99046612 0.0045668809 0.00020812434
0.034719393 0.16559699 -0.35728726 -0.13053264 -0.99144405 2.8764824e-05 0
0.04543142 0.16418673 -0.35211143 -0.13052835 -0.99144453 -2.0158928e-05 8.9175855e-06
-0.11442749 0.17316285 -0.35076559 0.77259719 -0.54496598 0.32573882 0.21803707
-0.10046142 0.17351362 -0.35596815 0.13093419 -0.54830891 0.82596225 0.20395704
-0.082023926 0.17319004 -0.35519558 0.029119393 -0.62406248 0.78083169 0.21666028
-0.06153791 0.17600131 -0.35366273 -0.069541618 -0.078725003 0.99446785 0.20183159
-0.05368185 0.17513289 -0.35292077 0.057533477 -0.98135406 0.18339621 0.20878957
-0.045226049 0.17612201 -0.35661101 0.00025005534 -0.98091453 0.1944392 0.16733934
-0.013689592 0.17197016 -0.35028499 -0.18960501 -0.98179477 -0.01135619 0.034208667
5.5851415e-05 0.17016053 -0.35286388 -0.13581492 -0.99072689 0.0038192065 0.00021287546
-0.095956825 0.18482821 -0.35242409 0.18508062 -0.46463335 0.86594516 0.25086844
-0.085308574 0.18337858 -0.35418043 0.10733368 -0.78271163 0.61305946 0.22620776
-0.075090528 0.18496835 -0.35081255 -0.028236715 -0.30998507 0.95032203 0.15267567
-0.064662211 0.18421945 -0.35098287 -0.042265195 -0.4347592 0.89955437 0.16569582
-0.054122586 0.18017718 -0.35106689 -0.17912607 -0.70262051 0.68864954 0.2068412
-0.09778294 0.1929983 -0.3506664 0.039814252 -0.1655373 0.98539954 0.16720508
0.027452344 -0.49158144 -0.34575689 0.13054544 0.99144232 6.9586771e-05 6.3194711e-05
0.031397574 -0.49210086 -0.34114468 0.13053349 0.99144387 1.4687089e-05 1.0295365e-05
0.056247491 -0.49537241 -0.34730425 0.13051759 0.99144596 -0.00013283196 0
0.065201819 -0.49655128 -0.34681788 0.1217634 0.99255896 -0.00059392443 9.5463758e-05
0.080704659 -0.49859223 -0.34314573 0.012190746 0.99905407 0.041741706 0.014681943
0.091910318 -0.49907944 -0.34847751 -0.30128208 0.95190656 0.055704754 0.033264875
-0.055263236 -0.48069173 -0.34219867 0.13064195 0.99142951 0.00027593868 0
-0.045250308 -0.48200998 -0.3440111 0.13054922 0.99144179 -3.2676471e-05 0.00010187816
-0.037236191 -0.48306504 -0.34030217 0.13052668 0.99144483 6.3046158e-05 0
-0.020993508 -0.48520344 -0.34467536 0.1305337 0.99144387 0.00012739099 0
0.1052973 -0.48933434 -0.34933916 -0.54804516 0.83641571 0.0074332864 0.0054635531
0.11384581 -0.48277485 -0.34542641 -0.60609937 0.7953887 0.00054961751 0
-0.13409899 -0.47031283 -0.34477785 0.13047011 0.99145228 -3.2718988e-05 3.1549942e-05
-0.11697074 -0.4725678 -0.34820238 0.13047208 0.99145192 -0.00017514946 7.5174758e-05
-0.095085777 -0.475449 -0.3437728 0.13057902 0.99143791 -0.00017226746 0.00015061625
-0.082744688 -0.47707376 -0.34680951 0.13053928 0.99144316 -3.9804097e-05 1.3463164e-05
0.12529708 -0.473988 -0.34578896 -0.60875916 0.79335505 -6.6507928e-05 1.0053596e-06
-0.17800917 -0.46284175 -0.34616828 0.59048665 0.79948759 0.11020474 0.017516378
-0.16182546 -0.46666256 -0.34774119 0.19026227 0.98166287 0.011760477 0.0039729141
-0.15540135 -0.46750832 -0.34715053 0.16088396 0.9869175 -0.010503494 0.0011788332
-0.14657563 -0.46867025 -0.34512627 0.13061006 0.9914338 2.8007529e-05 9.805421e-05
-0.13868681 -0.4697088 -0.34721348 0.13048203 0.99145067 -0.0001606366 0
0.15291309 -0.45279747 -0.34585229 -0.60888183 0.79326093 0.00017752155 0
-0.19071589 -0.446282 -0.34354791 0.79036754 0.61262619 -0.0028833088 0.00015103069
-0.20123011 -0.43257964 -0.34717694 0.7934044 0.60869479 -0.00012522054 6.0797247e-05
-0.19917728 -0.4352549 -0.34628376 0.79335141 0.60876393 -0.00012541325 2.7873318e-06
0.17084916 -0.43903461 -0.34758368 -0.60877484 0.79334313 5.5230063e-05 0
0.18027928 -0.43179864 -0.34003782 -0.60883939 0.7932936 -1.1444266e-06 0
-0.21074826 -0.42017531 -0.3437238 0.79327416 0.60886461 1.1897748e-05 0
-0.20347488 -0.42965418 -0.34024361 0.79317981 0.60898751 -8.3597233e-06 0
-0.21720581 -0.41175967 -0.34065449 0.79335326 0.60876161 -4.9670498e-06 2.3404244e-05
0.19734538 -0.41870338 -0.34429589 -0.60879642 0.7933265 0.00011196851 0
-0.22285397 -0.40439889 -0.34821811 0.79336154 0.60875082 -0.00011689063 7.7141318e-05
-0.23192406 -0.39257848 -0.34203768 0.79337597 0.60873193 -0.0001594779 5.9336424e-05
-0.22721288 -0.39871824 -0.34236431 0.79337281 0.6087361 -0.00011827443 2.9258168e-05
0.22991534 -0.39371157 -0.34416109 -0.60870939 0.79339325 -6.3221603e-05 0
0.23077029 -0.39305556 -0.34620631 -0.60875654 0.79335713 -5.4848362e-05 0
-0.24097204 -0.3807869 -0.34752733 0.7933448 0.60877258 -5.234699e-05 0
-0.23730224 -0.38556951 -0.34190446 0.79328299 0.60885298 9.3551738e-05 0
0.23784827 -0.38762441 -0.34507814 -0.60873812 0.7933712 4.4836641e-05 3.7601242e-06
-0.24718308 -0.37269253 -0.34520477 0.79338217 0.60872382 -0.00024700447 8.2274477e-05
0.25438574 -0.37493479 -0.34417912 -0.60885316 0.79328287 0.00011592794 0
-0.25228062 -0.36604929 -0.34515417 0.79336458 0.60874671 6.428903e-05 0
0.26699474 -0.36525956 -0.34511331 -0.60877639 0.79334182 -0.00013799612 1.2979818e-05
0.2716338 -0.36169988 -0.34886566 -0.60864049 0.79344606 -8.7105502e-05 3.3036988e-05
-0.26070005 -0.35507691 -0.34006333 0.79324174 0.60890675 -9.2576105e-05 0
-0.2650325 -0.34943074 -0.34392497 0.79331791 0.6088075 3.6270772e-05 0
0.29180914 -0.34621882 -0.34632197 -0.67398971 0.73869765 -0.0079787355 0.0047390615
-0.2756508 -0.33559266 -0.34649432 0.79333377 0.60878706 5.7638263e-05 0
0.30637336 -0.33127955 -0.34857187 -0.91873187 0.39467153 -0.012893637 0.018306149
-0.28529772 -0.32302058 -0.34527364 0.79330534 0.60882396 -5.6903416e-05 0
0.30667251 -0.32900742 -0.34386167 -0.91004854 0.41437373 -0.010297275 0.022586342
-0.31037444 -0.29033995 -0.34224173 0.79336858 0.60874164 0.00010641167 0
-0.30476168 -0.29765463 -0.3471621 0.79333472 0.60878575 3.1879801e-05 0
0.31115058 -0.2949931 -0.34402657 -0.99144149 0.13055247 7.4535797e-05 0
-0.31123847 -0.28921393 -0.34586704 0.79328293 0.60885322 8.6493841e-05 0
-0.32348797 -0.27325004 -0.34302205 0.79327869 0.6088587 4.5009449e-05 0
0.31370944 -0.27555647 -0.34525621 -0.99144763 0.13050485 0.00012107414 0
-0.33543593 -0.25767916 -0.34987676 0.88845575 0.45711979 -0.041085005 0.013396764
0.3167994 -0.25208592 -0.34497738 -0.99145103 0.13047922 -6.7413712e-05 7.1422372e-05
-0.34034425 -0.24455467 -0.34491253 0.98680395 0.15714476 0.039031949 0.018452229
0.31767991 -0.24539782 -0.34989837 -0.9914546 0.13045213 9.3631163e-05 6.2939944e-05
-0.33872393 -0.23224719 -0.34196979 0.99560004 -0.093069844 0.010891848 0.00332665
-0.33717346 -0.22047013 -0.34397614 0.9914428 -0.13054177 0.00012649431 0
0.32214379 -0.21149108 -0.34009057 -0.99144787 0.13050354 6.8460067e-05 0
0.32462776 -0.19262339 -0.34462583 -0.9914428 0.13054146 -9.4024697e-05 7.8020952e-05
-0.33293465 -0.18827316 -0.34627041 0.9914431 -0.13053995 -1.6280472e-05 4.1365765e-05
-0.33150119 -0.17738509 -0.3468892 0.99145228 -0.13046943 0.00020780369 0
0.32740578 -0.17152238 -0.34502771 -0.99144733 0.1305069 -2.6237205e-05 3.224007e-05
0.32859632 -0.16247927 -0.34817392 -0.9914453 0.13052283 4.1801828e-05 2.3941671e-05
-0.32838255 -0.15369646 -0.34819993 0.99144191 -0.13054912 8.4479334e-06 3.0170904e-05
-0.32680893 -0.1417436 -0.3421303 0.99144316 -0.13053904 6.2227911e-05 0
0.33029014 -0.14961356 -0.34162062 -0.99144351 0.13053662 0.00010820836 0
-0.32570404 -0.13335133 -0.3449564 0.99143946 -0.13056722 3.0204317e-05 6.3199263e-06
0.33162385 -0.13948265 -0.34684214 -0.99143875 0.13057303 6.3866202e-05 0
-0.32466614 -0.12546757 -0.34357935 0.99144256 -0.13054354 -6.3947307e-05 4.2840933e-05
0.3335523 -0.12483475 -0.34475636 -0.99144995 0.13048756 -3.2694345e-05 0
0.33488342 -0.11472409 -0.34216398 -0.99144495 0.13052553 -6.6336768e-05 7.6718316e-05
-0.32143247 -0.10090533 -0.34852284 0.9914462 -0.13051562 3.6958529e-05 0
0.33670563 -0.10088281 -0.34265804 -0.99144989 0.13048792 -5.5690176e-05 6.489356e-05
0.33767614 -0.093511455 -0.34800074 -0.99305624 0.11763259 -0.0013105237 0.00038411125
-0.3198393 -0.088804282 -0.34399542 0.99144477 -0.130527 -6.8951776e-05 1.0108005e-05
-0.31769022 -0.072480358 -0.34625137 0.9914369 -0.13058648 -6.6312525e-05 0.00012810974
0.33990353 -0.076592289 -0.34209588 -0.99623072 -0.086093292 -0.010597763 0.018069206
0.34014547 -0.074754693 -0.34162813 -0.99614114 -0.087436892 -0.0075847204 0.020995462
0.33927375 -0.065121762 -0.34161866 -0.9496572 -0.31297207 -0.014130225 0.024393668
-0.31602994 -0.05986917 -0.34253716 0.9914434 -0.13053681 3.3090666e-05 0
0.3278822 -0.050275993 -0.34382245 -0.82543057 -0.56448823 0.0041678748 0.0049031693
0.331211 -0.054614168 -0.34982958 -0.85528409 -0.51809961 -0.0078616934 0.0054344726
-0.31456491 -0.048741207 -0.34620896 0.99144202 -0.13054754 -3.5485602e-08 4.570463e-05
-0.31228781 -0.031444743 -0.34177017 0.9914487 -0.13049716 -8.8929031e-05 0
0.31882608 -0.038473874 -0.34528047 -0.79335046 -0.6087653 5.3635838e-05 0
-0.31191337 -0.028600842 -0.34014642 0.99144536 -0.13052259 -0.00011264801 3.63783e-05
0.31159678 -0.029052468 -0.34483302 -0.79334611 -0.60877091 -5.0299082e-07 8.252704e-06
0.30167094 -0.01611682 -0.34311691 -0.79332948 -0.6087926 -5.0234834e-05 1.4220661e-05
-0.30856824 -0.0031917682 -0.34343505 0.98761708 -0.15637594 -0.012608018 0.0012839917
-0.30742529 0.0054895678 -0.34564766 0.96605664 -0.25822097 0.0075193467 0.0099451421
0.28682712 0.0032280311 -0.34944984 -0.79335332 -0.60876155 -1.4934422e-05 0
-0.3063069 0.013984706 -0.34371918 0.89898926 -0.43649498 0.035921212 0.016000448
0.27738178 0.015537399 -0.34382346 -0.79333788 -0.6087817 -4.6217894e-05 1.9891075e-05
0.2814576 0.010225713 -0.34713861 -0.79333299 -0.60878795 -0.00010157299 2.9410552e-05
-0.28977883 0.029977255 -0.34212166 0.65845764 -0.7526167 -0.001287657 0.003633538
0.26810658 0.027625129 -0.34098119 -0.79336035 -0.60875225 -5.6915225e-05 0
0.27169156 0.022953052 -0.34194121 -0.79335046 -0.60876513 8.2186292e-05 0
-0.28027216 0.037271969 -0.34999201 0.6088239 -0.79330546 9.3275949e-06 0
-0.27819568 0.038865313 -0.34477124 0.6088466 -0.79328799 5.3283908e-05 0
-0.27290809 0.042922623 -0.34174949 0.60873485 -0.79337376 1.362915e-05 1.2988535e-05
-0.26519608 0.048840255 -0.34157532 0.60873955 -0.79337013 -1.7278031e-05 9.210311e-06
-0.26184201 0.051413931 -0.34089205 0.60875672 -0.79335696 -4.2233378e-07 2.5636989e-06
-0.25720245 0.054974005 -0.34840867 0.6087749 -0.79334295 3.5626639e-05 0
0.24637842 0.05594182 -0.34105635 -0.79335326 -0.60876155 3.3012366e-05 0
-0.24961536 0.060795758 -0.34524149 0.60877872 -0.79334009 6.1664854e-05 0
0.2425186 0.060971998 -0.34689984 -0.79333454 -0.60878593 -1.9636396e-05 2.502081e-05
-0.23731424 0.070234753 -0.34816495 0.60875571 -0.79335773 1.5479754e-05 0
-0.22708419 0.078084551 -0.34272307 0.60874385 -0.79336679 -2.7302585e-05 1.3938108e-05
0.22894365 0.078663252 -0.34138456 -0.79334968 -0.6087662 4.6221394e-05 0
0.23030302 0.076891676 -0.34591416 -0.79335791 -0.60875547 -1.9261348e-05 0
-0.21284336 0.089011915 -0.34660652 0.60877299 -0.79334444 2.7666792e-06 0
0.22193667 0.087794937 -0.34239253 -0.79334062 -0.60877806 4.2825413e-05 0
-0.20362377 0.096086361 -0.34685886 0.60878438 -0.79333574 2.0667549e-05 0
-0.19540061 0.10239622 -0.34526715 0.60874951 -0.7933625 -1.3405431e-05 4.3990408e-06
-0.18158457 0.11299762 -0.34049806 0.60877627 -0.79334193 8.6423206e-06 0
-0.17857802 0.11530464 -0.34396997 0.60876536 -0.79335034 5.909233e-05 1.3355757e-05
0.1985869 0.11822497 -0.34337947 -0.79333699 -0.60878277 -3.0441915e-05 0
0.20042627 0.11582783 -0.34662706 -0.79333383 -0.60878682 -1.6751757e-05 8.5867732e-06
-0.17001882 0.12187233 -0.34093544 0.57102835 -0.82086074 -0.010689223 0.0035117334
-0.16546234 0.12536867 -0.3417716 0.6418317 -0.76668435 0.015722249 0.025623465
0.19227159 0.12645522 -0.34732461 -0.77385515 -0.63334292 0.0049880622 0.00044103005
-0.15556249 0.13296509 -0.34246868 0.64128345 -0.76727575 0.0066008759 0.080827482
-0.14580764 0.13434015 -0.34116489 0.54479438 -0.83222836 0.10293221 0.11669746
-0.13269882 0.13852634 -0.34574318 0.19227034 -0.90495282 -0.37959522 0.13465601
-0.12530364 0.13960388 -0.34170622 -0.071839646 0.87772644 0.47374615 0.12361886
0.18716221 0.13311391 -0.34642604 -0.73205703 -0.68121755 0.0059268908 0.0072438582
-0.14290291 0.14267914 -0.34123695 0.5246278 -0.84162492 0.12819217 0.21124561
-0.13795024 0.14715174 -0.34451652 0.68902665 -0.5217002 0.50306177 0.22119132
-0.12602587 0.1437009 -0.34830549 -0.14068526 0.83992958 0.5241431 0.11111347
-0.096581861 0.14827403 -0.34605664 -0.02600825 0.88628256 0.46241421 0.14160506
0.15442586 0.14983734 -0.34165153 -0.13518861 -0.99081171 0.0040203962 0.00010111508
0.16207302 0.14883058 -0.3499299 -0.22597279 -0.97404051 -0.013470253 0.012085931
0.17308238 0.14738119 -0.347195 -0.4594211 -0.88691097 -0.048178859 0.022316888
-0.14409874 0.15407857 -0.34087247 0.82084954 -0.29097468 0.49146682 0.22412401
-0.13607326 0.15237436 -0.34511256 0.67739886 -0.14333032 0.72151738 0.21895055
-0.12850232 0.1525981 -0.34529594 -0.0094776098 0.73172539 0.68153369 0.19341995
-0.07518062 0.15424326 -0.34710503 0.48492366 -0.87365955 -0.039599847 0.19715299
-0.068117797 0.15475488 -0.34093845 -0.39189082 0.73392117 0.55478042 0.10888272
0.092413992 0.15800136 -0.346591 -0.13052134 -0.99144554 9.6918629e-06 5.2538785e-06
0.11829723 0.15459377 -0.3410368 -0.13050999 -0.99144703 3.8983537e-05 5.4176408e-06
0.12550014 0.1536455 -0.34376982 -0.13054235 -0.99144274 -1.378589e-05 0
0.1353302 0.15235135 -0.34600323 -0.13051906 -0.99144578 1.7570763e-05 0
0.14179921 0.15149967 -0.34163901 -0.13052599 -0.99144489 5.7332945e-05 0
-0.13383849 0.16508543 -0.3451103 0.52313906 -0.091370456 0.84733528 0.12847126
-0.11443836 0.16452074 -0.34384957 0.54011261 -0.807549 -0.23694508 0.25852835
-0.052125264 0.16033444 -0.3467187 -0.35343513 0.76907277 0.53255105 0.16663913
-0.044075683 0.16267268 -0.34752864 -0.20047724 0.86996281 0.45052585 0.15474199
-0.031052366 0.1697681 -0.34537777 -0.17364401 -0.97770005 -0.11811139 0.14648697
0.0063059921 0.16933769 -0.34710518 -0.13951358 -0.9902178 0.0021646395 0.00024582256
0.023078976 0.16712947 -0.34348178 -0.13052592 -0.99144489 -2.8553266e-05 0
0.044618189 0.1642938 -0.34224463 -0.13051949 -0.99144578 -1.5831882e-05 5.955564e-07
0.05646443 0.1627342 -0.34199953 -0.13052814 -0.99144465 1.1871376e-06 2.0626267e-05
-0.14187694 0.17315137 -0.34032199 0.67596066 0.076930292 0.73291123 0.11251383
-0.12379365 0.17392525 -0.34843212 0.42209226 -0.23977615 0.87426859 0.15080707
-0.10273033 0.17350464 -0.34107921 0.82975525 -0.54190242 -0.13359629 0.26740086
-0.067464739 0.17904976 -0.3443836 -0.1439289 -0.9150089 0.37688604 0.27145001
-0.056044552 0.17754628 -0.34510961 -0.13091679 -0.69043916 0.71144533 0.2545298
-0.046616174 0.17630501 -0.34158882 -0.13055871 -0.9847194 -0.11524826 0.17697093
-0.035146706 0.17556517 -0.34549075 -0.14166547 -0.98535168 -0.094936453 0.13723797
-0.025617173 0.17354043 -0.34824741 -0.12403864 -0.9912523 -0.045092184 0.10475876
-0.016479695 0.17233746 -0.34210765 -0.092726737 -0.99474317 -0.043448698 0.05856571
-0.00038764998 0.17021891 -0.34390754 -0.10305228 -0.99450845 -0.018252211 0.011284921
-0.11014043 0.18384501 -0.34978735 -0.51332474 -0.68915993 0.51142579 0.27139041
-0.087083004 0.18163258 -0.34069112 0.066210508 -0.99545336 -0.068474621 0.20043738
-0.076138489 0.18019168 -0.34368896 -0.0029989372 -0.91419417 0.40526533 0.21142006
-0.052876882 0.18912801 -0.34762153 -0.2003452 -0.30551624 0.93087143 0.15311894
-0.045600474 0.1888667 -0.34483036 -0.2617484 -0.4190509 0.869416 0.17583846
-0.037163109 0.18786187 -0.34182534 -0.53202993 -0.47386986 0.70170611 0.16862121
-0.13505864 0.19422415 -0.34192786 0.33551824 -0.10932861 0.93566811 0.0026639302
-0.11468368 0.1986838 -0.3463524 0.17683209 -0.11212368 0.97783363 0.013960136
-0.10637278 0.19596855 -0.34845999 -0.018271975 -0.029727977 0.99939096 0.092514373
-0.076270103 0.19581886 -0.34911463 0.01709036 -0.10852126 0.99394727 0.11612376
-0.063713327 0.1926959 -0.3488085 -0.095919803 -0.27566668 0.95645559 0.090593398
-0.042102981 0.19499555 -0.34142548 -0.57767689 -0.31186062 0.75434232 0.14515978
-0.13434218 0.20076883 -0.34171569 0.32841289 -0.11845759 0.93707669 0.0032045429
-0.11427352 0.20106269 -0.34602687 0.204013 -0.17478894 0.96323806 0.00081895484
-0.08165963 0.20961434 -0.34617066 -0.088443175 -0.18345016 0.97904229 0.013493577
-0.074200734 0.20570013 -0.34649727 -0.11163558 -0.15467082 0.98163861 0.03704112
-0.053021517 0.20454788 -0.34259191 -0.27032399 -0.13389282 0.95341372 0.034327656
-0.10154137 0.21615963 -0.34585318 0.031886194 -0.18907875 0.98144412 0.0017817121
-0.09259823 0.21394251 -0.34604034 -0.0060710404 -0.21378976 0.97686082 0.0020697368
-0.083534874 0.21507938 -0.34498215 -0.063303851 -0.23151582 0.97076935 0.0022660159
-0.077113472 0.21346538 -0.34482977 -0.11370121 -0.23246419 0.96593606 0.001224965
-0.06416706 0.21451774 -0.34323817 -0.21414271 -0.26464823 0.94026822 0.0027272694
-0.11244179 0.22034712 -0.34309259 0.13254164 -0.17047347 0.97640747 0.0030088308
-0.10977761 0.22202632 -0.34333235 0.050968621 -0.1836911 0.98166174 0.0013300459
-0.089635104 0.22128274 -0.34397376 -0.057118732 -0.23389938 0.97058147 0.0010649774
-0.067875758 0.22106844 -0.34216002 -0.19083945 -0.2663548 0.94479382 0.0023637651
-0.11012233 0.23876396 -0.34040308 0.09872929 -0.20931236 0.97285193 0.0020596364
-0.10187096 0.23618187 -0.34134462 0.01921594 -0.23328212 0.97221929 0.0022930347
-0.084994093 0.23073411 -0.34124196 -0.057719439 -0.2309159 0.97126013 0.00104795
0.016803492 -0.49017951 -0.33513325 0.13052216 0.99144542 -0.00018776923 3.1565229e-05
0.023279926 -0.49103212 -0.33363643 0.13050024 0.99144828 1.3332123e-05 0
0.034326356 -0.49248642 -0.33533728 0.13054018 0.99144304 2.6561871e-05 6.6589619e-06
0.055643372 -0.49529287 -0.33909309 0.13056168 0.99144018 4.3089287e-05 7.1944087e-05
0.061821211 -0.49610621 -0.33753985 0.13056597 0.99143964 3.5959113e-06 8.0745405e-05
0.073248379 -0.4976106 -0.33949852 0.12132984 0.99261159 0.0011611348 0.00016899907
0.087176524 -0.49944428 -0.33189848 -0.16138875 0.98680311 0.013159797 0.027791148
0.091826409 -0.49967092 -0.3336826 -0.27198103 0.96200991 0.023735479 0.027678771
-0.060387477 -0.48001713 -0.33153144 0.13051768 0.99144596 -1.3889291e-05 7.4812102e-05
-0.055240959 -0.48069465 -0.33502775 0.13059139 0.99143624 0.00014811424 0
-0.046532989 -0.48184109 -0.33789945 0.1305404 0.99144298 5.235702e-05 8.0170212e-06
0.012477972 -0.48961002 -0.33211413 0.13054705 0.99144208 0.00011041928 0
0.11477158 -0.48206446 -0.33455393 -0.60884929 0.79328591 -7.623031e-05 6.878611e-05
-0.13448019 -0.47026262 -0.33561686 0.13049518 0.99144894 -0.00011494381 7.05274e-05
-0.12089708 -0.47205088 -0.33898568 0.13052657 0.99144483 -3.9000908e-05 0.00011719456
-0.11477283 -0.47285715 -0.33376297 0.13054489 0.99144244 -0.0001668481 7.6554512e-05
-0.10862876 -0.47366604 -0.33776948 0.13050503 0.99144769 -0.0001056632 0
-0.085758835 -0.47667688 -0.3345024 0.13051544 0.99144626 4.5077908e-05 4.2433152e-05
-0.066980474 -0.47914916 -0.33076262 0.13055669 0.99144083 0.00028889574 0
0.12426925 -0.47477669 -0.33338165 -0.60881066 0.79331553 -7.4109116e-06 0
-0.18003893 -0.4601965 -0.33564553 0.57110196 0.81936884 0.049772531 0.025188556
-0.17536595 -0.46467745 -0.33423835 0.45724007 0.88933021 0.004824914 0.026230229
-0.15308712 -0.46781299 -0.33016223 0.1544686 0.98798227 0.0055144452 0.0011291218
-0.145668 -0.46878973 -0.33204091 0.13049746 0.99144864 -1.0591943e-05 2.3350185e-05
-0.13929555 -0.46962869 -0.33327195 0.1305052 0.99144763 -3.8083606e-05 1.4556624e-06
0.13405046 -0.46727127 -0.335042 -0.6087783 0.79334038 -8.1038178e-07 0
0.14213631 -0.46106678 -0.33277419 -0.60877001 0.79334682 -8.0166952e-05 0
-0.18584871 -0.45262504 -0.33495674 0.78733099 0.61652684 -0.0021106403 0.00021269915
0.14497474 -0.4588888 -0.33679116 -0.60882515 0.79330444 0.00011857277 0
-0.19420171 -0.4417392 -0.33488613 0.79022729 0.61281377 0.0002856034 3.6703008e-05
0.16412248 -0.44419622 -0.33504978 -0.60875875 0.79335546 -6.0232019e-06 0
-0.1963581 -0.43892896 -0.33827433 0.7932319 0.60891968 0.00016565905 0
0.17751008 -0.43392354 -0.33767298 -0.60882705 0.79330295 7.0843569e-05 8.3588071e-05
-0.20659344 -0.42558998 -0.33535683 0.79335034 0.6087653 -8.71964e-05 0
0.18746513 -0.42628476 -0.33483079 -0.60878718 0.79333359 5.2701238e-05 6.1874307e-05
0.19020632 -0.42418137 -0.33926767 -0.608751 0.79336131 -5.6220884e-05 0
-0.21650043 -0.41267896 -0.33735973 0.793338 0.6087814 -1.035584e-05 3.8950846e-05
0.19735885 -0.41869307 -0.33608609 -0.6088351 0.79329675 0.00024589404 0
0.20318954 -0.41421899 -0.33992308 -0.60871571 0.79338843 6.002057e-06 2.9774292e-05
-0.22333011 -0.40377834 -0.33788806 0.79327285 0.60886639 -1.1409456e-05 0
0.21626836 -0.40418327 -0.33529985 -0.60879618 0.79332668 -2.1301677e-05 0
-0.23346226 -0.39057386 -0.33981428 0.79330385 0.60882592 -0.00019835531 1.6059203e-06
0.22673538 -0.39615163 -0.33271298 -0.60878044 0.79333878 -0.00011624342 6.2848972e-05
0.23402384 -0.39055902 -0.33848748 -0.60889488 0.79325092 -4.6352397e-05 0
-0.2374258 -0.38540843 -0.33506981 0.79324794 0.60889876 0.0001067282 0
0.24384402 -0.38302374 -0.33525646 -0.60877693 0.79334152 -8.683257e-06 7.4003815e-06
0.24894866 -0.37910679 -0.33145294 -0.60874599 0.79336518 8.7962304e-05 1.9897676e-05
0.25374576 -0.37542582 -0.33640936 -0.60875338 0.79335952 -6.5463108e-05 0
-0.25551683 -0.36183181 -0.3320151 0.79317254 0.60899693 -0.00010867331 0
0.26704252 -0.36522293 -0.33632711 -0.60873049 0.7933771 2.1550144e-05 8.0780255e-06
-0.26158783 -0.35391992 -0.33821508 0.79325199 0.60889345 5.0438607e-06 0
-0.25875577 -0.3576107 -0.33133191 0.79337472 0.60873359 -2.2315513e-05 5.5429509e-06
0.2745629 -0.35945231 -0.33006319 -0.60883218 0.79329902 -6.2388215e-05 8.655127e-05
0.29484609 -0.34388846 -0.33917382 -0.68347174 0.72996378 -0.0043950076 0.0054185162
-0.27768087 -0.33294702 -0.33387473 0.79332149 0.60880303 -5.6128567e-05 3.8099144e-05
0.30197948 -0.33841479 -0.33420318 -0.77478856 0.63207078 -0.013757323 0.012623655
-0.28392646 -0.32480761 -0.33346617 0.79327357 0.60886538 5.5720884e-05 0
0.30724144 -0.3246859 -0.33324063 -0.95228451 0.30441377 0.022057578 0.017310129
0.3099333 -0.30423921 -0.33794937 -0.9914239 0.13068536 1.27358e-05 0
-0.30571884 -0.29640728 -0.3358615 0.79337895 0.60872811 -7.411369e-05 5.3493895e-05
0.31094542 -0.29655126 -0.33344716 -0.99144566 0.13051973 -1.0705328e-06 8.0092301e-05
0.31307077 -0.28040758 -0.33728153 -0.99143529 0.13059911 8.2514453e-05 0
-0.32590994 -0.27009368 -0.33503556 0.79334962 0.6087662 -9.4607472e-05 6.4574073e-05
-0.31876221 -0.27940878 -0.33042702 0.7933737 0.60873485 6.5058455e-05 0
0.3137846 -0.27498573 -0.33438733 -0.99144655 0.13051324 0.0001273146 0
-0.33004203 -0.26470864 -0.33147633 0.85180342 0.52337497 -0.022572292 0.0031086814
0.31518185 -0.26437238 -0.33636555 -0.99144793 0.13050306 -4.5338478e-05 1.712138e-05
0.31643185 -0.25487792 -0.33173206 -0.9914425 0.13054405 2.9121185e-05 3.452463e-05
