# .PCD v0.7 - Point Cloud Data file format
VERSION 0.7
FIELDS x y z normal_x normal_y normal_z curvature
SIZE 4 4 4 4 4 4 4
TYPE F F F F F F F
COUNT 1 1 1 1 1 1 1
WIDTH 579
HEIGHT 1
VIEWPOINT 0 0 0 1 0 0 0
POINTS 579
DATA ascii
0.076535732 -0.16698828 -0.26813573 -0.21043143 0.97759777 0.004604917 0.0018100453
0.082430854 -0.16607168 -0.26825279 -0.21924618 0.97554725 0.015449451 0.0019988876
0.20222569 -0.16124302 -0.26554072 -0.60724652 0.79451275 0.0011447013 0.0005358138
-0.21258067 -0.15243605 -0.26483935 0.59013826 0.80730218 4.87412e-05 0
-0.11480325 -0.15329689 -0.26400155 0.3610191 0.93255842 -1.8581088e-05 1.506659e-05
0.10382682 -0.15841289 -0.2648769 -0.37109196 0.92858768 -0.0039467523 0.001135219
0.12118321 -0.15074417 -0.26089954 -0.40414321 0.91469574 -1.9986204e-05 0
0.20416749 -0.1596797 -0.26078373 -0.61946815 0.78502119 0.00098059804 0.00014013932
0.21454011 -0.15132862 -0.26890665 -0.62710792 0.77893245 3.7240011e-06 1.2847123e-06
-0.22420393 -0.14394084 -0.26449361 0.59006763 0.80735379 2.7334245e-05 0
-0.21845558 -0.1481422 -0.26149261 0.5900557 0.80736262 -2.6202153e-05 4.3236591e-06
-0.145647 -0.14135675 -0.26394778 0.47286201 0.88054192 0.032366019 0.0021061329
0.13635941 -0.14403874 -0.26980138 -0.40416452 0.91468638 -8.9669711e-06 0
0.22372572 -0.14393324 -0.26701322 -0.62713093 0.7789138 2.6052512e-06 1.4190157e-06
-0.23492146 -0.13610764 -0.26282531 0.59073955 0.80686224 0.00043781471 0
-0.15724534 -0.13480276 -0.26597333 0.54886663 0.83581889 0.012333832 0.00058799557
0.16417386 -0.13165867 -0.26216471 -0.53945154 0.84121943 0.036630716 0.0017170457
0.23629898 -0.13381045 -0.26621366 -0.62711251 0.77892864 -8.6705739e-05 1.4582906e-05
-0.17166932 -0.12426057 -0.26402345 0.59006745 0.80735391 -2.4462821e-05 1.0686524e-05
-0.16926724 -0.1260162 -0.26204059 0.58097404 0.81391966 0.001989461 0.00021547209
0.16858092 -0.12813465 -0.26561332 -0.5472067 0.83691573 0.011698223 0.0023840123
0.17667139 -0.12162094 -0.26131469 -0.62704664 0.77898175 3.6911006e-05 0
-0.26112026 -0.11145309 -0.26904136 0.76524574 0.6437251 -0.0041165878 0.00046958047
0.18613781 -0.11399949 -0.26847947 -0.62704605 0.77898228 -1.5365817e-05 0
0.26191518 -0.11286184 -0.26192865 -0.71468943 0.69883096 0.029228805 0.0020710595
-0.2664946 -0.10477777 -0.26601362 0.77840543 0.62776202 -1.9823819e-05 6.3695938e-07
-0.20142868 -0.10251008 -0.26382065 0.59235984 0.80567348 -0.00016910586 0
-0.19257654 -0.10897993 -0.26642555 0.59025323 0.80721819 -2.4593744e-05 0
-0.27366897 -0.095866688 -0.2615757 0.77892125 0.62712169 6.8141628e-05 1.5380165e-05
-0.21543618 -0.092217922 -0.26397941 0.68512166 0.72837412 0.0089099314 0.0021000009
0.21102707 -0.093961 -0.26874927 -0.63142359 0.77543616 0.0017665147 5.6729179e-05
0.27429488 -0.096476801 -0.26361454 -0.80575716 0.59224606 -0.00016286963 1.6918959e-05
-0.28166845 -0.085930727 -0.26297775 0.77891397 0.62713081 -4.6284651e-05 7.243952e-06
-0.2184433 -0.089693151 -0.26186767 0.69853157 0.71551919 0.0092699649 0.001825051
0.21719787 -0.088992886 -0.26057163 -0.67937267 0.7335608 -0.01847207 0.0013401484
0.22013347 -0.086629421 -0.26546332 -0.69375622 0.720137 -0.010247663 0.0021342966
0.28232369 -0.085491665 -0.26964837 -0.8073414 0.59008461 3.3570483e-05 6.2523086e-06
-0.22684053 -0.079263203 -0.2644774 0.76868033 0.63959062 -0.0073710303 0.00028202366
0.23507375 -0.070678316 -0.26741049 -0.76410639 0.64505941 -0.0063085142 0.001654207
-0.29512879 -0.06921199 -0.26779601 0.78240752 0.62276548 -0.0012815123 5.1513867e-05
-0.2410033 -0.06167198 -0.26585022 0.77892339 0.62711912 2.3081477e-05 0
-0.23806226 -0.065324962 -0.26357877 0.77891111 0.62713432 -5.0011549e-06 0
0.23914197 -0.065112121 -0.26166663 -0.78747177 0.61634952 -0.0012135076 0.00079785706
-0.2454417 -0.056159168 -0.26408678 0.77892441 0.62711781 2.4590241e-05 0
0.24692553 -0.054462522 -0.2601327 -0.80735052 0.5900721 -2.4758128e-05 0
0.30291191 -0.057322498 -0.26784962 -0.8092702 0.58743656 0.00022468422 1.5723159e-05
-0.25429004 -0.045168862 -0.26503587 0.7826727 0.62242872 0.0024578997 3.6615347e-05
0.25469041 -0.043838494 -0.26656383 -0.80734229 0.59008354 9.2492352e-05 0
0.30895433 -0.049055204 -0.26616758 -0.81638837 0.57749921 0.0021795572 0.00026206934
0.31501627 -0.040761158 -0.26265559 -0.84504157 0.53468347 -0.0042898795 0.0017760709
0.26135129 -0.034724973 -0.26302463 -0.81010473 0.58628327 0.0015162027 5.985165e-06
0.31793302 -0.035949297 -0.26979095 -0.88396257 0.46672499 -0.027892407 0.0029046133
-0.32028106 -0.027177781 -0.26441485 0.91469455 0.40414584 5.1815678e-05 0
0.26732177 -0.02655608 -0.26141098 -0.82761383 0.5612812 -0.0043454878 0.00078194117
0.27014983 -0.022686668 -0.26668519 -0.84335905 0.53734577 -0.0022604731 0.0016728709
-0.32362968 -0.019598849 -0.26615483 0.91472429 0.40407854 0.00018713165 0
-0.27489567 -0.013879533 -0.26622948 0.90339428 0.42876589 -0.0062137125 0.00043352929
0.27746907 -0.011713105 -0.26964971 -0.88374394 0.46796793 -0.0016504114 0.0025097704
0.32497716 -0.018870454 -0.26708934 -0.9234634 0.3836799 -0.0022464232 0.00057711016
-0.33138183 -0.0020537479 -0.26360452 0.91469389 0.4041476 1.8524292e-05 0
-0.32917705 -0.0070437314 -0.26789099 0.91468418 0.40416929 3.9125352e-06 3.0288416e-05
-0.28439161 0.007612349 -0.26300576 0.91468656 0.4041639 1.2570095e-05 1.5640935e-05
0.28284436 0.0021724487 -0.2691395 -0.92260987 0.38573435 0.00031726074 0.00059401785
0.33292222 0.0016531977 -0.26492393 -0.93255168 0.36103654 -3.9149563e-05 3.4142311e-05
-0.34086463 0.019408427 -0.26401979 0.92186016 0.38751611 0.0022470776 0.00034293107
-0.28828716 0.016429106 -0.26591954 0.91469407 0.40414697 -8.3399254e-06 0
0.28631091 0.011127215 -0.26050013 -0.93255204 0.36103541 8.2844444e-06 3.6973539e-05
0.33782735 0.014324026 -0.26473537 -0.93255627 0.36102474 2.1479407e-06 1.7093866e-05
-0.34492165 0.0285905 -0.2645312 0.94690514 0.3214944 -0.0034566126 0.001981278
0.29193529 0.025656084 -0.26623383 -0.93256265 0.3610082 3.5819601e-05 0
0.34057695 0.021426795 -0.26724827 -0.93253732 0.36107361 -6.0682803e-05 6.1419472e-05
-0.34720749 0.034987025 -0.26564384 0.96217483 0.27233586 0.0072677014 0.0020926746
-0.29562104 0.03302756 -0.26363188 0.91550606 0.40229976 -0.0018947052 2.8240182e-05
-0.34890112 0.04148443 -0.26401937 0.97210222 0.23449758 -0.0053081876 0.002156547
-0.30172217 0.046836074 -0.26922259 0.95370656 0.30071881 0.0034580494 0.0031085685
0.30093977 0.048916362 -0.26428077 -0.94631332 0.32322735 0.0038918792 0.00077763572
0.34933323 0.044045877 -0.26766622 -0.96245879 0.27121776 -0.010675248 0.0023499506
0.35062236 0.047376096 -0.26775691 -0.96314788 0.26876178 -0.010638942 0.002047328
-0.35054731 0.052072234 -0.26169994 0.98409367 0.17760654 -0.0039444584 0.00044831392
-0.35315368 0.068835437 -0.26989776 0.98812586 0.15364666 0.00012667726 0
-0.3050124 0.064399347 -0.26757681 0.98413455 0.17728929 -0.0068998886 0.00041214185
0.30706745 0.069230661 -0.26061934 -0.98532462 0.17014043 -0.013700337 0.0020172102
0.35378796 0.065153569 -0.26536441 -0.98857272 0.15056251 -0.007399634 0.0010554312
-0.35423267 0.075774893 -0.26105279 0.98812246 0.15366815 -1.6096181e-05 6.9425798e-05
-0.30685815 0.076270513 -0.26625758 0.9878785 0.15522881 0.00035735025 1.8286677e-05
0.30733302 0.071690224 -0.26045111 -0.98531574 0.17018358 -0.013801634 0.0020555255
-0.35549057 0.083865367 -0.26102248 0.98812795 0.15363301 -4.9447321e-05 3.1182008e-06
0.30835822 0.081185244 -0.26368964 -0.99399728 0.10940327 -0.00055904657 0
0.35645324 0.089839578 -0.26805231 -0.99422139 0.10734927 -4.5341912e-05 8.0399812e-05
-0.35743949 0.096399918 -0.26769304 0.98812491 0.15365258 4.8110036e-05 0
0.30989698 0.095437407 -0.26512486 -0.99422288 0.10733611 -8.1200669e-06 1.5587704e-05
0.35692477 0.09420681 -0.26465455 -0.9942205 0.10735676 0.00016717245 7.5345844e-05
-0.35903621 0.10666934 -0.26244414 0.98943716 0.14494595 0.0021596095 0.00015587377
0.31061256 0.10206515 -0.26312429 -0.9942233 0.10733151 -3.3135373e-05 0
0.35759908 0.10045213 -0.2670764 -0.99422377 0.10732702 0.00013981808 0
-0.3598789 0.11208931 -0.2626186 0.98971266 0.14303039 0.0033384801 0.00016007124
0.31208134 0.11566891 -0.26413608 -0.99422014 0.10736042 3.5843314e-05 0
0.35949025 0.11796822 -0.26365638 -0.9942221 0.10734276 -6.9466303e-05 0
-0.36145762 0.12224292 -0.26904577 0.99727821 0.072974578 0.010533487 0.0023536521
-0.3141036 0.12287048 -0.26439798 0.99830687 0.058141116 -0.0017190351 0.0013783982
0.35988492 0.12162363 -0.26435375 -0.99422461 0.10731925 3.069645e-05 0
0.36063865 0.12860473 -0.26158983 -0.9958939 0.090333596 -0.0059299702 0.0003866005
0.36133721 0.13507488 -0.26827443 -0.99832165 0.05787503 -0.002083726 0.0010244368
-0.31352794 0.14590895 -0.26453573 0.99665511 -0.081690311 -0.0023033179 0.00044148939
0.36244956 0.14537705 -0.26285851 -0.99979883 -0.01987122 0.0027214075 0.0025248767
-0.36020106 0.15042475 -0.26735067 0.99599606 -0.089351304 -0.0028861919 0.00029504296
-0.35953096 0.1566312 -0.265937 0.99422389 -0.10732597 6.5209524e-06 2.6386297e-06
-0.31266534 0.15389808 -0.26262128 0.9942196 -0.10736534 -4.7351343e-05 0
-0.31182271 0.16170274 -0.26418358 0.99421775 -0.10738267 -5.5805082e-05 4.1685784e-05
-0.35776934 0.17294705 -0.26666915 0.99422896 -0.10727933 5.5271306e-05 5.9286813e-06
-0.31050855 0.17387441 -0.26294693 0.99422002 -0.10736188 3.6081667e-05 0
-0.30984953 0.17997827 -0.26297194 0.99422723 -0.10729411 -0.00011429889 2.7577432e-06
0.35800844 0.17491728 -0.26014954 -0.9882623 -0.15276667 0.00011872417 0
-0.30974579 0.18093905 -0.26556098 0.99422616 -0.10730494 -3.1281023e-05 2.8587522e-06
0.30899516 0.18496194 -0.26983422 -0.98812973 -0.15362184 -3.5376597e-05 0
-0.35542727 0.19463921 -0.26373431 0.99422091 -0.10735288 1.2891267e-06 0
-0.30824023 0.19488344 -0.26932442 0.99068671 -0.13607532 -0.0048275748 0.00067982991
0.35459539 0.19686881 -0.26484448 -0.98812944 -0.15362374 -3.2717468e-05 0
-0.35386783 0.20908254 -0.26464981 0.98644745 -0.16385891 -0.0084583294 0.001499164
-0.30735236 0.20310698 -0.26266855 0.98266512 -0.18538886 0.00054080901 0.0020900636
0.30582988 0.20531978 -0.26400605 -0.98720717 -0.15943533 -0.0015445711 0
0.35293424 0.20755267 -0.2638379 -0.98811769 -0.15369901 -5.929343e-05 0
-0.3527593 0.21934977 -0.26205099 0.97143507 -0.23592408 -0.02556886 0.0019563369
-0.30507469 0.21537866 -0.26492494 0.960841 -0.27710029 -6.9860653e-06 0.0020708635
0.30439028 0.21457857 -0.26637781 -0.97957128 -0.2006949 -0.012713369 0.0012055235
0.35162938 0.21594514 -0.26349694 -0.98713547 -0.15988287 0.00096628 0.00011311159
-0.30227295 0.22261617 -0.26162744 0.94860238 -0.31631482 0.0099244816 0.00098918658
-0.29979345 0.22902118 -0.26830056 0.94091678 -0.3386271 0.0027027135 0.00042340264
0.30280486 0.22477546 -0.26196107 -0.9630453 -0.26917848 -0.0093105193 0.0024661496
-0.34704596 0.23683894 -0.26743174 0.94739389 -0.31955841 -0.018090613 0.00080478931
-0.29662392 0.23720872 -0.26437187 0.93258524 -0.36094981 -3.4099082e-06 5.8910424e-05
0.34893745 0.23325837 -0.26739269 -0.9686712 -0.24778336 -0.016716629 0.0021640141
-0.34563085 0.24049439 -0.2680985 0.93865204 -0.34486446 -0.00094574684 0.00025798747
-0.29435357 0.24307342 -0.26485485 0.93256861 -0.36099273 -3.5833156e-05 0
0.29371077 0.24627247 -0.26367015 -0.91547251 -0.4023799 -0.00068015902 0
0.34451282 0.24731131 -0.2604382 -0.94099993 -0.33822367 -0.011133598 0.0016252151
-0.33953965 0.25622919 -0.26852199 0.93255526 -0.36102715 -0.00012804249 8.2786122e-05
-0.29157591 0.25024864 -0.26329434 0.93255514 -0.36102769 -0.00012077599 2.0018902e-05
-0.28791961 0.25969362 -0.26547375 0.93255258 -0.36103413 4.1941708e-05 0
0.33982843 0.25791326 -0.26261351 -0.92171067 -0.38787627 0.0012178645 0.00036844503
0.34023052 0.25700331 -0.26388758 -0.92590541 -0.37774923 -0.0021747421 0.00061072223
-0.33551568 0.26662391 -0.26885474 0.93255961 -0.36101586 -7.3160882e-05 3.0008472e-05
-0.28530282 0.26645339 -0.26489639 0.9324351 -0.36133772 -1.4395942e-05 4.0747138e-05
0.28495109 0.26609787 -0.26670891 -0.91468716 -0.40416262 4.2407311e-05 9.9379122e-06
0.33683336 0.26469195 -0.26548585 -0.91472673 -0.404073 -7.1801784e-05 0
-0.28332758 0.27155575 -0.26063514 0.92555231 -0.37860307 -0.0035429185 0.00028038284
0.28305662 0.27038559 -0.2600601 -0.91464454 -0.40425929 9.3025637e-06 0
0.33192912 0.2757915 -0.26429507 -0.91472381 -0.40407979 -5.7121531e-05 3.0491998e-05
-0.32742816 0.28751564 -0.2653057 0.93254209 -0.36106122 8.3563813e-05 0
-0.27680668 0.28819904 -0.26372439 0.88181818 -0.47137672 0.014172515 0.0017582291
0.32812628 0.28439835 -0.26427826 -0.91468477 -0.4041681 -0.00010330202 2.0718368e-05
-0.3236469 0.29728329 -0.26881686 0.91654676 -0.39992738 0.00039273108 0.00084155513
0.27281219 0.29357144 -0.26279747 -0.88496441 -0.46565855 0.00038929342 0.001906691
0.32458168 0.29242069 -0.26576346 -0.91470826 -0.40411469 3.2357941e-05 0
-0.26498821 0.30472529 -0.26951542 0.81281585 -0.58251685 0.0021317303 0.00014737691
0.26552707 0.30618811 -0.26603878 -0.82200491 -0.56931931 0.013544234 0.0015666228
0.31834888 0.3065272 -0.26507843 -0.91469586 -0.40414295 7.0724568e-06 0
-0.31328693 0.31810379 -0.26546785 0.85156953 -0.5240249 0.015072994 0.0015062609
-0.30740184 0.32615584 -0.26005799 0.82279885 -0.56833249 0.00050547125 0.0003959749
-0.25173432 0.32285953 -0.26207215 0.80734998 -0.59007305 0.00010918045 1.8421979e-05
0.25186086 0.32316253 -0.26392791 -0.77890265 -0.62714481 -2.6643078e-05 3.0419262e-06
-0.30041808 0.33571109 -0.26960552 0.80733508 -0.59009326 5.8738682e-05 0
-0.29962829 0.33679172 -0.26733321 0.80734956 -0.59007335 -3.176304e-05 4.6358923e-06
-0.24394917 0.33351123 -0.26610041 0.80734259 -0.59008312 -2.5528967e-05 1.381786e-05
-0.29514614 0.34292424 -0.2657212 0.80733377 -0.59009504 5.5626162e-05 1.2461895e-05
-0.23442082 0.34654808 -0.26473081 0.76754355 -0.64085281 0.013586507 0.002041193
0.23348692 0.34598434 -0.26302952 -0.77514768 -0.63177872 0.001298483 5.7791633e-05
0.29303622 0.34678757 -0.26536238 -0.77878952 -0.62728536 -6.599434e-05 0
-0.2870498 0.35400179 -0.26643637 0.80731463 -0.59012121 3.4020846e-05 0
-0.23060369 0.35177073 -0.26420712 0.73820627 -0.67446047 0.012435784 0.0019872102
-0.22852205 0.35461885 -0.26465017 0.72843003 -0.68504405 0.010218571 0.0025698773
0.22347935 0.35841453 -0.26878783 -0.73999721 -0.67235315 0.018584 0.0017620156
0.28674293 0.35460427 -0.2649315 -0.77881736 -0.62725073 -5.4468364e-05 0
-0.21400122 0.36654294 -0.26298982 0.64333057 -0.76558459 -0.0024623729 0.00059136434
0.21479869 0.3677147 -0.26828608 -0.68377578 -0.72969097 0.0013091532 0.0026516011
0.22203936 0.36020309 -0.26329589 -0.72866625 -0.68484581 0.0056234403 0.0018105431
0.28099114 0.3617484 -0.26415247 -0.77888179 -0.6271708 -0.00014046631 8.4040999e-05
-0.27441466 0.37128937 -0.26605034 0.80188209 -0.59748209 -0.00046634593 0.00015645483
-0.20104496 0.37697411 -0.26064205 0.62712371 -0.77891958 1.9508991e-05 0
0.20351402 0.37596241 -0.266835 -0.60566729 -0.79569858 -0.0055561839 0.00048212471
0.27317753 0.37145352 -0.26243132 -0.77895731 -0.62707698 1.7027543e-05 6.2997033e-06
-0.26566529 0.38326043 -0.26027638 0.76985359 -0.63819116 -0.0061281896 0.00085045415
-0.19523622 0.38165075 -0.26116461 0.62710458 -0.77893507 1.8143886e-05 0
0.19523731 0.38201171 -0.26664367 -0.59011114 -0.80732203 6.0344504e-05 3.3178987e-06
0.25906646 0.38898048 -0.26581383 -0.75707477 -0.65332484 -0.0020978968 0.00086232158
-0.25814307 0.39120007 -0.26531202 0.69382185 -0.72010911 0.0073546045 0.0020688118
-0.18277965 0.39167961 -0.26743686 0.62347651 -0.78184032 0.0016676409 5.1755036e-05
-0.17513168 0.39783704 -0.26009798 0.59872925 -0.80094057 0.0041729691 0.00099567347
0.17377873 0.3976953 -0.2652992 -0.59003812 -0.80737531 -5.4690605e-05 1.244107e-05
0.18259174 0.39125407 -0.26012242 -0.59018016 -0.8072716 -8.5276246e-05 4.8116261e-05
-0.24019852 0.40564737 -0.26572186 0.62716132 -0.77888936 -3.656419e-05 0
-0.16393542 0.40636387 -0.26353398 0.55269819 -0.83335012 -0.0072265165 0.0018248587
0.24007978 0.40731397 -0.2669633 -0.64384693 -0.76434839 0.035107631 0.0011580542
-0.23178065 0.41242462 -0.26424509 0.62713963 -0.77890682 2.4565699e-05 4.7673584e-05
-0.15066473 0.41269448 -0.26661661 0.44960272 -0.89303887 -0.018410947 0.00075064512
-0.13519238 0.41953075 -0.2637969 0.40421599 -0.91466355 -5.9694896e-05 8.7904904e-05
0.14290911 0.41739309 -0.26255718 -0.41787368 -0.90849227 -0.0048384299 0.0013388391
0.15451941 0.41177154 -0.2658371 -0.48720002 -0.87295407 -0.024236223 0.0022414103
0.22792196 0.41619986 -0.26225287 -0.59009033 -0.80733722 -3.1154857e-05 2.3187376e-05
0.23527375 0.41082656 -0.26037443 -0.61140025 -0.79128981 0.0070839589 0.00074216042
-0.21155119 0.42871147 -0.264943 0.62714988 -0.77889866 6.4528373e-05 2.1961156e-05
-0.11225373 0.42966595 -0.26760125 0.40415141 -0.9146921 -2.4024715e-05 0
0.11371674 0.42869398 -0.26423821 -0.36102387 -0.93255651 -1.4190333e-05 4.4937315e-05
0.12125379 0.42577624 -0.2670714 -0.3610689 -0.93253911 0.00011105768 0
0.13189298 0.42165762 -0.26423886 -0.37617666 -0.92654788 0.00027309035 0.00035311823
-0.20520136 0.43382376 -0.26649365 0.61897051 -0.78539616 -0.0053306338 0.00019618137
-0.10664147 0.43214568 -0.26729599 0.40420619 -0.9146679 -4.9965805e-05 0
-0.095750004 0.43695796 -0.26691449 0.32926789 -0.94419873 0.0084465304 0.0017443516
0.089848801 0.43793365 -0.26412848 -0.33955428 -0.9405812 0.0031722588 0.00063542218
0.095701545 0.43566796 -0.26626307 -0.36099905 -0.93256629 0.00012065133 1.3408064e-05
0.1064813 0.43149492 -0.26787651 -0.36099789 -0.93256658 9.6381355e-06 0
0.19567433 0.439769 -0.26834488 -0.59013736 -0.80730289 -6.9196416e-05 0
0.20456421 0.43327159 -0.26053619 -0.59011418 -0.80731988 2.23068e-05 0
-0.19541793 0.44170043 -0.26924485 0.6036467 -0.79712021 -0.014492327 0.00027772252
-0.068358131 0.4432362 -0.26146337 0.17376764 -0.9847061 0.012588946 0.0003339301
-0.045720458 0.44675598 -0.26240206 0.15364917 -0.98812544 -3.7528414e-05 4.5784487e-05
0.020943807 0.44966412 -0.2693786 -0.10733903 -0.99422246 -2.5715506e-05 0
0.044798385 0.4470886 -0.26091596 -0.10734078 -0.99422228 0.00011403814 0
0.054329943 0.44605944 -0.26720071 -0.12715495 -0.99188101 -0.0019098358 0.00012364032
0.076134115 0.44324288 -0.26177895 -0.23615725 -0.97170442 -0.0044943248 0.0015391883
0.081881858 0.44101781 -0.26411694 -0.28836927 -0.95748496 -0.0081116334 0.0018681401
0.18343633 0.44871354 -0.26057652 -0.53572011 -0.84430975 0.012039294 0.0013300466
-0.16416797 0.45798934 -0.26074877 0.40421802 -0.91466266 -1.3511994e-06 0.00014821762
-0.021510452 0.45052019 -0.26118767 0.10505021 -0.99446464 -0.0021316388 0.0014408783
-0.012069415 0.45198813 -0.26235202 0.013914319 -0.99985135 0.010181841 0.002779677
-0.0078632804 0.4524605 -0.26079673 -0.00045248758 -0.99999499 -0.0031280813 0.0025378652
0.0033784369 0.45156062 -0.26278126 -0.056176901 -0.99841219 -0.0041567455 0.001336547
0.017529707 0.45003268 -0.26353681 -0.10001505 -0.99498564 0.00078903645 0.00029130955
0.16633181 0.45860469 -0.26716596 -0.41348192 -0.91051137 0.0013465208 0.0014060426
0.17620432 0.45399925 -0.26281193 -0.50051248 -0.86568153 0.0090925591 0.0020598986
-0.15039761 0.46407357 -0.2616235 0.40410063 -0.91471452 1.4391643e-05 0
-0.14436662 0.46673828 -0.26460701 0.40412697 -0.91470289 -9.4038711e-05 5.1925654e-05
-0.13710159 0.46994829 -0.26877338 0.40420899 -0.91466671 4.0674309e-05 0
0.14676499 0.46617934 -0.2687743 -0.36096784 -0.93257827 -2.2749047e-05 0.00016174128
0.15304209 0.46374938 -0.26996866 -0.38070169 -0.92469728 0.0010589077 0.00036379739
0.16135503 0.46053129 -0.2678628 -0.41504061 -0.90978467 -0.0057556913 0.001427007
-0.1233354 0.47603074 -0.26643071 0.40420187 -0.91466987 -0.00010489672 0.00010404782
-0.11993761 0.47753197 -0.26201698 0.39752692 -0.91758889 -0.001697548 0.00011396276
0.11733685 0.47757149 -0.26243255 -0.36102292 -0.93255693 0.00020232388 0
0.12463532 0.47474614 -0.26468551 -0.36103615 -0.93255186 -2.866686e-05 2.3452836e-05
-0.10692665 0.48328072 -0.26369876 0.30706519 -0.95168352 0.0030731424 0.0013922272
-0.091132969 0.48714662 -0.26241922 0.20612711 -0.97850341 -0.0065313182 0.00093277055
-0.084458746 0.48818436 -0.26455486 0.19036061 -0.98170972 -0.0029801002 0.00051134499
-0.073326364 0.48991525 -0.26715291 0.15365569 -0.98812449 -2.911969e-06 1.6018223e-05
0.090062425 0.48812991 -0.26264095 -0.27453873 -0.96155775 0.0059259692 0.0023153003
-0.047839582 0.49387801 -0.26704609 0.15364151 -0.98812664 -2.6044223e-05 0
-0.016819626 0.49870104 -0.26440644 0.076165311 -0.99706286 0.0080270348 0.0013556449
0.0053411759 0.49850935 -0.26591441 -0.069841579 -0.99755108 -0.0037407277 0.00064501021
0.014017084 0.49757263 -0.26590389 -0.10708619 -0.9942497 -0.00010002561 0
0.030033223 0.49584341 -0.26671365 -0.10733803 -0.99422258 6.8197883e-06 0
0.053267997 0.49333477 -0.26750949 -0.10736933 -0.99421924 7.3131851e-05 0
0.062032044 0.49238858 -0.26161554 -0.12215284 -0.99250996 -0.0016584928 6.8426045e-05
-0.023010945 -0.40141779 -0.25385827 0.19190089 0.6919933 0.69593054 0.0025848434
-0.015553951 -0.40363178 -0.25322881 0.088565752 0.71764046 0.69075918 0.0025466017
0.0022363791 -0.40019107 -0.25722414 -0.085463412 0.69541591 0.71350729 0.002171837
0.013233518 -0.40138531 -0.25408816 -0.19029896 0.7005927 0.68771815 0.0031210044
-0.044538479 -0.39291424 -0.25193498 0.4922294 0.59486318 0.63549042 0.0053404677
-0.035251603 -0.39413351 -0.25617748 0.39757326 0.64428896 0.65332013 0.0041728914
0.019077998 -0.39786819 -0.25549409 -0.31917784 0.6638183 0.67636579 0.0024081517
0.026834095 -0.3977783 -0.25231674 -0.39828211 0.63712329 0.65988278 0.0068174326
0.034367096 -0.39237532 -0.25231871 -0.44067177 0.61219925 0.65652156 0.0045800875
0.039360888 -0.3815234 -0.25852495 -0.61579502 0.50770342 0.60252285 0.017662443
0.04114173 -0.38259798 -0.25523317 -0.6157366 0.50779217 0.60250765 0.01760854
-0.057460178 -0.3754923 -0.25474808 0.83077049 0.37923715 0.40743044 0.043677241
0.04431162 -0.37560189 -0.25732577 -0.78757221 0.42032877 0.45061502 0.054328084
-0.061747674 -0.36305195 -0.25675726 0.95910257 0.16289607 0.23148899 0.061148692
0.050381169 -0.36356348 -0.25372162 -0.99475729 0.098926552 -0.025913345 0.041582841
-0.063036956 -0.35536116 -0.2544046 0.99836934 -0.037294991 0.043216962 0.042425606
0.050335608 -0.35732299 -0.25355151 -0.98812866 0.083104245 -0.12921081 0.044398937
-0.060398802 -0.34467074 -0.25107098 -0.89381254 0.25347871 0.36992922 0.052482694
0.048535325 -0.34587574 -0.25492859 0.96632624 0.11257005 0.23139037 0.05411816
-0.061191965 -0.33815211 -0.25937265 -0.98249793 0.17636572 0.059942156 0.05625492
-0.059281923 -0.33410549 -0.25774103 -0.90036845 0.30748749 0.30787697 0.066577576
0.044388045 -0.33941865 -0.25222889 0.86364621 0.35060444 0.36220413 0.048648085
-0.053554945 -0.32422352 -0.25933492 -0.76298743 0.42001909 0.4913595 0.03209896
0.019192079 -0.32051164 -0.2500695 0.30339274 0.59045321 0.74787551 0.0072507472
0.023214336 -0.32049012 -0.25191733 0.35040927 0.56004781 0.75070626 0.0066348128
0.035704732 -0.32489288 -0.25590801 0.63212818 0.43067017 0.64415622 0.020991981
-0.041716639 -0.31727859 -0.25558537 -0.45058829 0.49695554 0.74162346 0.014477913
-0.037411369 -0.31665984 -0.25422573 -0.39774689 0.52113336 0.75512743 0.0098495679
-0.025047099 -0.31326789 -0.25255263 -0.17624383 0.54143506 0.82206219 0.0063741975
0.0037653688 -0.31368905 -0.2514149 0.12144895 0.54875469 0.82711452 0.0062160222
0.018085761 -0.31620145 -0.25323728 0.29277217 0.54215932 0.78762168 0.0065652761
0.023950642 -0.31641692 -0.25535995 0.32950854 0.53896874 0.77520114 0.0064443531
-0.034525819 -0.30833536 -0.25797373 -0.30341843 0.5036487 0.80887282 0.005616847
-0.02805084 -0.30599612 -0.25709277 -0.2497783 0.52939689 0.81077111 0.0071227425
-0.0166786 -0.30281726 -0.25710341 -0.10669972 0.52253854 0.84591299 0.0061597656
-0.007038895 -0.30363268 -0.25636566 -0.0097855926 0.50554395 0.8627454 0.0040546325
0.0023873129 -0.30727258 -0.25475016 0.092939027 0.52419949 0.84650886 0.0054809074
0.011057033 -0.30432901 -0.25801203 0.21460794 0.51632792 0.82906514 0.0044821575
-0.0042245104 -0.29722831 -0.25999463 0.003476585 0.51026142 0.86001229 0.0019811583
-0.033918321 -0.22044748 -0.25636852 0.10734692 0.99422151 5.9710042e-06 1.8417109e-05
-0.026734009 -0.22122318 -0.25339618 0.10734183 0.9942221 2.9512353e-06 1.789316e-05
-0.015780894 -0.22240573 -0.25638279 0.10042836 0.99493825 -0.0034551781 5.6682515e-05
-0.0039928486 -0.22367847 -0.25445309 0.05712489 0.99829996 -0.011576852 0.0017058287
0.0058439206 -0.22474055 -0.25467801 -0.0095480606 0.99989623 -0.010784872 0.0022650587
0.012248127 -0.22443542 -0.25657463 -0.052327238 0.99862993 0.00029767098 0.0027391468
0.022035051 -0.22291371 -0.25840214 -0.11852814 0.99294603 -0.003039144 0.0011069886
-0.0817452 -0.21528366 -0.25881964 0.21692157 0.9756093 -0.033639036 0.0019900827
-0.061718117 -0.21744595 -0.25926027 0.11111375 0.99380475 0.0024010469 2.8320082e-05
-0.056987479 -0.21795672 -0.25148806 0.10734916 0.99422139 1.7947421e-05 0
0.045392819 -0.219282 -0.25573915 -0.15362635 0.98812902 -3.1261923e-05 3.6395115e-05
0.054685336 -0.21783717 -0.25316811 -0.15362592 0.98812914 -1.1518954e-05 1.4195614e-05
0.065452725 -0.21616304 -0.25501308 -0.15363939 0.98812699 2.1071641e-05 0
0.092698887 -0.21192673 -0.25219089 -0.20877653 0.97796333 0.00013380908 0.0016003816
-0.11336323 -0.20413326 -0.2529541 0.36100766 0.93256283 3.5542115e-07 6.383465e-06
0.10545399 -0.20895499 -0.25390419 -0.3108907 0.95015723 -0.023416378 0.001530025
0.1212824 -0.20196138 -0.25823811 -0.38802156 0.92165035 7.7957575e-06 0.00030937302
-0.14051285 -0.19362317 -0.25092891 0.3610338 0.93255275 5.717864e-05 0
-0.13779584 -0.19467497 -0.25509861 0.36101958 0.9325583 4.4392433e-05 0
0.1340521 -0.19631922 -0.25595856 -0.40412176 0.91470522 -1.3823975e-05 2.2989399e-05
0.14431898 -0.19178292 -0.25271481 -0.40414602 0.91469449 5.8091307e-05 0
-0.17154792 -0.18160897 -0.25063819 0.45994189 0.88794112 0.0037392722 0.0018278655
-0.16346969 -0.18473619 -0.25596884 0.40988001 0.9119193 0.020042149 0.001631761
0.16197535 -0.18398164 -0.25305238 -0.4041498 0.91469282 -1.0160828e-05 0
-0.18443975 -0.17300364 -0.2584911 0.56039482 0.82822472 0.0012088539 0.00087444851
-0.1765094 -0.17879978 -0.25108975 0.50966203 0.86026055 0.014012755 0.0020005102
-0.060114235 -0.17045844 -0.25799516 0.14511599 0.98939091 0.0068465155 0.00083568407
-0.053926062 -0.17112656 -0.25549033 0.11324816 0.99356467 0.0020236475 5.6734159e-05
-0.044264577 -0.17216972 -0.2562356 0.10734443 0.99422187 6.1432955e-05 0
-0.019724756 -0.17481925 -0.25942743 0.10306772 0.99467421 -0.00039389168 3.1096621e-05
-0.0018034368 -0.17675419 -0.25812203 0.077358767 0.99700153 -0.0018982165 0.00054084847
0.0095255626 -0.17740719 -0.25982994 -0.036097214 0.99933034 -0.0059979712 0.002490992
0.016108321 -0.17638369 -0.25294307 -0.077272333 0.99700481 0.0032337753 0.001705091
0.037647247 -0.17303476 -0.25864491 -0.1536402 0.98812687 7.6183369e-07 0
0.052211076 -0.17077035 -0.25615269 -0.15363628 0.98812747 -2.9338527e-05 2.8520856e-06
0.17356455 -0.17886108 -0.25460884 -0.43315181 0.90131998 0.001331795 0.00061407511
0.18687466 -0.17298014 -0.25297844 -0.5117656 0.8591181 0.0034732393 0.0024069895
-0.19568416 -0.16478534 -0.25722784 0.59008628 0.80734026 3.3392644e-05 0
0.062696524 -0.16914004 -0.25682205 -0.15408149 0.98805815 -0.00013913808 6.9611037e-06
0.077217758 -0.16688223 -0.25678697 -0.19629377 0.98054254 0.0022533638 0.0014194637
0.086170934 -0.1654315 -0.25369158 -0.28353974 0.95895678 0.0026689374 0.0031692123
0.098162636 -0.16091555 -0.25684699 -0.35217384 0.93593216 -0.0021406983 0.0013491899
0.19528812 -0.16682848 -0.25085464 -0.57282829 0.81967521 -0.00056023133 0.0017756943
0.20161803 -0.16173223 -0.25834408 -0.6066857 0.79492992 0.0043527768 0.00060467911
-0.21245478 -0.15252805 -0.2589519 0.59008092 0.80734408 1.9711049e-06 0
-0.11284445 -0.15405518 -0.25042468 0.36103842 0.93255091 -1.6735697e-05 0
0.10727437 -0.15688965 -0.25366417 -0.40052181 0.916287 -0.00062831125 6.9438669e-05
0.11000368 -0.15568371 -0.2549212 -0.4005709 0.91626531 -0.0008420911 4.164056e-05
0.20445225 -0.15945041 -0.25384575 -0.6202907 0.7843672 0.0027485741 0.00012582773
0.21494767 -0.15100048 -0.25189236 -0.62711358 0.77892786 1.6528229e-05 0
-0.21944824 -0.1474167 -0.25441077 0.59007549 0.80734801 -1.7441382e-05 0
-0.14238995 -0.14261761 -0.2532993 0.4235658 0.90585363 -0.0045949742 0.0012434451
-0.13358088 -0.14602776 -0.25053936 0.37071198 0.92874789 -3.3351738e-05 9.2025679e-05
0.12865081 -0.14744468 -0.25991559 -0.40414578 0.91469461 1.8469542e-05 0
0.13167801 -0.14610714 -0.25603583 -0.40411523 0.91470802 3.7478624e-06 2.249177e-06
0.22737783 -0.14099291 -0.25980783 -0.62708133 0.77895379 -3.5331672e-05 2.4973089e-05
-0.24180953 -0.13107328 -0.25278252 0.63876402 0.76931292 -0.011755655 0.00179602
-0.23677199 -0.1347551 -0.2525104 0.60947311 0.7927978 -0.0037596079 0.00065035414
-0.16324162 -0.13042018 -0.2575644 0.56285334 0.82654059 0.0051705004 0.00056442712
-0.1530171 -0.13789308 -0.25142512 0.51231432 0.8587876 -0.0042327624 0.0019231302
0.16507931 -0.13095379 -0.25755948 -0.5352205 0.8445071 0.01861926 0.0019894214
0.23033696 -0.13861051 -0.25159365 -0.62709272 0.77894461 -5.7217444e-06 0
0.24093321 -0.1300794 -0.25869432 -0.62835777 0.7779243 0.00057138578 9.3303843e-06
-0.24421382 -0.12931603 -0.2544145 0.66099221 0.75036889 -0.0059863008 0.00190914
-0.17338581 -0.12300602 -0.25282231 0.59008646 0.80734003 3.8018607e-05 0
0.24656159 -0.12554798 -0.25592554 -0.63906115 0.76914251 0.0045424616 0.00043472572
0.25112015 -0.12187785 -0.25677776 -0.65292031 0.75742346 0.0022180812 0.0011936693
-0.26172355 -0.11070377 -0.25052518 0.75398868 0.65688521 -0.0017187831 0.00077123748
-0.25700516 -0.11656435 -0.25061014 0.73451757 0.67853147 -0.0088828942 0.0017593643
-0.18878596 -0.11175038 -0.25069857 0.59007001 0.80735213 -2.4494069e-05 0
0.1821841 -0.11718264 -0.25745791 -0.62705398 0.77897578 -9.7319617e-07 3.4601983e-06
0.25434378 -0.1192825 -0.25255209 -0.67491585 0.73786479 -0.0066514839 0.0015854274
0.26229298 -0.11288254 -0.25931785 -0.72634304 0.68693566 0.02334892 0.0024127099
-0.26811934 -0.10275974 -0.25626361 0.77894306 0.62709463 1.795708e-05 0
-0.20478508 -0.10005695 -0.25274226 0.61861485 0.78569359 -0.001110857 0.0010313598
0.1942784 -0.10744546 -0.25108439 -0.62712055 0.7789222 -4.6641861e-05 1.075062e-05
0.20291874 -0.10048907 -0.25105235 -0.62715065 0.778898 -9.4517134e-05 0
0.26740164 -0.10590827 -0.25592011 -0.75882816 0.65127647 0.0043326262 0.0019707801
-0.27666897 -0.092140421 -0.25647032 0.7789306 0.62711012 6.9020847e-05 0
-0.21236451 -0.094517313 -0.25248492 0.65662181 0.754219 -0.0012761498 0.0020498063
0.21247831 -0.092792615 -0.25259137 -0.64151394 0.76711094 -0.00085580349 0.00033501559
0.27875999 -0.090367571 -0.2512207 -0.80732095 0.59011263 5.4010787e-05 0
-0.28082433 -0.086979181 -0.25620744 0.77892816 0.62711304 5.6478243e-06 0
-0.22480436 -0.08179228 -0.25601357 0.74813038 0.66350329 -0.0080248853 0.001143243
0.21656311 -0.089503936 -0.25163099 -0.6501115 0.7598235 -0.004827586 0.00047376988
0.22037657 -0.086433679 -0.25844514 -0.68890101 0.72458005 -0.01997898 0.0015837994
0.28216475 -0.08570914 -0.25166497 -0.80734533 0.59007925 -4.5821565e-05 5.6974873e-06
-0.29369161 -0.070997059 -0.2524505 0.781564 0.62382406 0.0011490136 5.3682208e-05
-0.28836364 -0.077614799 -0.25273204 0.77893364 0.62710631 -1.5534282e-05 0
-0.2308989 -0.074222393 -0.25477761 0.7682597 0.64013517 -0.0019929383 0.00026160409
0.22876444 -0.079310797 -0.2556681 -0.728333 0.68483549 -0.023053318 0.0020738372
0.23233183 -0.074429862 -0.25792372 -0.75048149 0.66038424 -0.025888968 0.0021407604
-0.29883099 -0.064613596 -0.25856262 0.79111975 0.61151683 0.013290468 0.00053214986
0.23736998 -0.067536563 -0.25756627 -0.77491379 0.63201612 -0.0080182031 0.0012615032
0.29377124 -0.069828913 -0.25682536 -0.80733901 0.59008789 -6.2698135e-05 2.1308852e-05
0.30018228 -0.061057247 -0.25674579 -0.80735236 0.59006959 5.0914809e-05 0
-0.30599311 -0.055717707 -0.2595861 0.8274377 0.56155282 -0.0023075305 0.0023090451
-0.24731977 -0.053826462 -0.2547808 0.77892983 0.62711114 3.3941113e-05 0
0.24509843 -0.056962401 -0.25495833 -0.8073445 0.59008044 2.3736827e-06 9.3715689e-06
0.30461955 -0.054986119 -0.25374377 -0.81254411 0.58289921 0.00082822418 3.6962101e-05
-0.31080058 -0.048634589 -0.25426579 0.85027254 0.52589428 0.02172124 0.0023020958
-0.25447449 -0.044939779 -0.25189686 0.778907 0.62713945 -2.5752157e-05 0
-0.31875148 -0.03063952 -0.25126997 0.90948242 0.41574213 0.00039914527 0.00013387627
-0.2639066 -0.033224419 -0.25354996 0.81482691 0.57968295 0.0049752058 0.0011447215
-0.25881147 -0.039552912 -0.25779364 0.78311515 0.62186426 0.0039538569 4.8955932e-05
0.26163265 -0.034340009 -0.25236487 -0.8073535 0.59006798 -4.0220693e-06 0
0.3195942 -0.032775696 -0.25868511 -0.88521165 0.46466443 -0.022077771 0.0027472524
0.27488017 -0.016214564 -0.25530148 -0.85940683 0.51124412 0.0070279841 0.0019295785
-0.32963279 -0.0060122702 -0.25797436 0.91469717 0.40413997 2.9699118e-05 0
-0.27905965 -0.0044552721 -0.25662833 0.91328472 0.40731776 -0.0017991883 1.7068942e-05
0.28017449 -0.0047243298 -0.25101772 -0.91075009 0.41295573 0.0013639921 0.0015226476
0.32927191 -0.007776374 -0.25760278 -0.93255061 0.36103937 -5.7973481e-05 4.0447107e-05
-0.33585602 0.008072543 -0.25542605 0.91469419 0.40414667 -1.4463268e-05 0
-0.28337017 0.0053005517 -0.25233153 0.91469246 0.40415058 -3.04897e-05 9.3022654e-06
0.28201276 2.4148729e-05 -0.25207326 -0.92273253 0.38541734 0.0042588795 0.00066863128
0.33613211 0.0099449065 -0.25034219 -0.93256181 0.36101037 2.992914e-06 0
-0.28764558 0.014976962 -0.25458547 0.91469175 0.40415233 1.9629679e-05 1.2376853e-06
0.28688729 0.012616136 -0.25473803 -0.93255806 0.36101997 9.9466721e-05 2.0018409e-05
-0.34258059 0.023292016 -0.25526327 0.9325251 0.36110309 -0.0012669981 0.00089956442
-0.29140326 0.02348166 -0.25448546 0.91561592 0.40205228 -0.001215567 2.8265382e-05
0.29138526 0.024235211 -0.25315243 -0.9325617 0.36101079 -2.7589169e-05 0
0.3437556 0.029637896 -0.25153518 -0.93423402 0.35665986 -0.0006575163 0.00016151162
-0.34705484 0.033418465 -0.25516909 0.95281655 0.30346069 -0.0072230953 0.0019546566
-0.29621762 0.034377828 -0.25118804 0.91577452 0.40169251 -0.00022367784 3.089539e-05
0.2956835 0.035338413 -0.25429571 -0.93255979 0.36101553 3.7545644e-05 0
0.34538919 0.033857804 -0.25559634 -0.93523788 0.35401893 0.00080351904 5.0729883e-05
-0.34971628 0.046727329 -0.25488231 0.97801602 0.20847876 -0.0046149818 0.0010027104
-0.30033398 0.043694243 -0.25375158 0.95622027 0.29255834 -0.0072384891 0.0028197123
-0.29980719 0.042501923 -0.25481394 0.95621097 0.29258761 -0.007284693 0.0028570867
0.3481499 0.040989183 -0.25008404 -0.95742279 0.28862798 -0.0059633446 0.00163802
-0.3028079 0.050220739 -0.2509194 0.96322453 0.26866877 -0.0039538951 0.0023366588
0.30164811 0.050746195 -0.25512886 -0.94786239 0.31860337 0.0069856183 0.0011507467
-0.3522568 0.063066863 -0.25165379 0.98812592 0.15364617 -1.8951479e-05 0
-0.30516005 0.065349102 -0.25381851 0.98455501 0.17506623 -0.0018042966 0.00041900878
0.30621243 0.064107731 -0.25450313 -0.97191936 0.23527232 -0.0044315588 0.0030468947
0.35408843 0.067936763 -0.25226384 -0.98943228 0.14495163 0.0035745825 0.0007802975
-0.3547298 0.078972355 -0.253286 0.98812282 0.15366615 -5.6540299e-05 7.5475982e-05
-0.30645239 0.073660821 -0.25512922 0.98812896 0.15362653 -1.1809668e-05 6.5875333e-06
-0.3555961 0.084543884 -0.25331077 0.98811978 0.15368578 -7.0655682e-05 6.7087822e-05
0.30885509 0.085787602 -0.25584912 -0.9940027 0.10935586 7.3005263e-05 0
0.35590801 0.084789738 -0.25265425 -0.99422389 0.10732616 3.6321599e-05 0
-0.3091374 0.090929821 -0.25326282 0.98812729 0.15363745 -2.0900776e-05 0
0.30966368 0.093276739 -0.25456321 -0.99402636 0.10914031 -0.00015795039 1.5392425e-05
-0.35857707 0.10371649 -0.25889659 0.98812163 0.15367402 -4.6208846e-05 4.6187455e-05
0.31118563 0.10737305 -0.25136992 -0.99421823 0.1073782 -5.7313868e-05 0
-0.31303748 0.11601343 -0.25749457 0.99280661 0.11963997 -0.0046256986 0.00063852931
-0.36177653 0.12429407 -0.25336349 0.99844146 0.055361226 0.0070602177 0.0020970213
0.31299993 0.12417695 -0.25535643 -0.99590504 0.090399601 0.00097186642 0.00034194833
0.3600848 0.1234749 -0.25682005 -0.99462783 0.10349906 -0.0018370333 2.4710427e-05
-0.36199859 0.1337759 -0.25534344 0.99999553 -0.0022978918 -0.0018835459 0.0017793878
0.3610791 0.13268389 -0.25842658 -0.9980464 0.062463317 -0.0013395237 0.00099698023
-0.31396747 0.14183795 -0.25003085 0.9987933 -0.048862271 0.0049394956 0.00090832246
0.3618865 0.14016214 -0.25399116 -0.99962926 0.026854938 -0.0044996534 0.001621241
-0.35963547 0.15566324 -0.25054839 0.99421895 -0.1073716 -4.5263198e-05 4.2829393e-05
-0.31250545 0.15537904 -0.25638789 0.99421859 -0.1073755 6.4143928e-06 8.9366504e-06
0.31395456 0.15306474 -0.25918972 -0.99758989 -0.06929791 0.003499784 0.0018603737
0.36065966 0.15786566 -0.25370845 -0.99574316 -0.091310114 0.012568598 0.0014339212
-0.3586646 0.16465537 -0.25329483 0.99422228 -0.10734062 -5.2068622e-06 4.6311383e-05
0.31207597 0.16514742 -0.25783232 -0.98873943 -0.14962806 0.0024185688 1.612179e-05
0.35879016 0.16988975 -0.25732261 -0.98825818 -0.15279274 0.00043869036 0
0.35803521 0.17474496 -0.25699648 -0.98813444 -0.15359165 5.4790518e-05 0
-0.30884522 0.18928 -0.25641799 0.99252105 -0.12206531 0.0014281039 0.00021523183
0.35659978 0.18397729 -0.25727016 -0.98812264 -0.15366761 -6.3106527e-06 2.6903474e-05
0.35563594 0.19017622 -0.25112155 -0.98811722 -0.15370233 -7.3145915e-05 0
-0.35446411 0.20355974 -0.25752079 0.99357891 -0.11313739 0.00093973527 9.6744887e-05
0.30607897 0.20371769 -0.25545272 -0.9871788 -0.15960896 -0.0017280044 5.5065346e-05
0.35410625 0.20001477 -0.25147527 -0.98812616 -0.15364474 2.1134076e-05 4.1546418e-06
-0.35325351 0.21477228 -0.25277984 0.97735584 -0.21050562 -0.021515897 0.0016039521
-0.30433846 0.21728049 -0.25790799 0.96213597 -0.27251944 0.0052504423 0.0020292893
0.30505082 0.21033028 -0.25447047 -0.98235077 -0.1870447 -0.0011317588 0.00099807454
0.35179949 0.21485084 -0.25942451 -0.98812944 -0.15362357 -9.1510148e-05 4.8256017e-05
-0.30188712 0.22361273 -0.25399107 0.94501728 -0.32687774 0.0096634421 0.00068342045
0.30162662 0.22835675 -0.25236672 -0.96104646 -0.27635381 0.0042780838 0.0023505087
0.34958178 0.22911432 -0.25967559 -0.9722876 -0.23239827 -0.025451588 0.0017817745
-0.29911244 0.23078035 -0.2552813 0.93966514 -0.34208614 0.0025432818 0.00043056271
0.29741254 0.2378943 -0.25510222 -0.93571645 -0.3527137 -0.0052581909 0.0018924902
0.34798405 0.23939037 -0.25968751 -0.9586609 -0.28422397 -0.013636615 0.0024019436
-0.3442173 0.2441459 -0.25510761 0.93606615 -0.35181645 -0.002324088 9.0852554e-05
0.29371434 0.24626434 -0.25734559 -0.91564685 -0.4019835 0.00018122213 0
-0.34161666 0.25086382 -0.25514045 0.93256748 -0.36099559 -5.3652406e-05 8.8358291e-05
0.2877962 0.25965863 -0.25091264 -0.91469073 -0.40415457 3.2780528e-05 0
0.34156811 0.25397599 -0.25696436 -0.92859614 -0.37108284 0.0025785286 0.00077671593
-0.33806735 0.26003245 -0.25512317 0.93258119 -0.36096027 -2.5582403e-05 4.4290588e-05
0.2848317 0.26636815 -0.25889993 -0.91465217 -0.40424177 1.0429446e-05 0
0.33679876 0.26477024 -0.2534267 -0.91479385 -0.40392095 1.3442096e-05 0
-0.33274859 0.27377194 -0.25166744 0.93251932 -0.36112016 5.4426586e-05 0
-0.28238484 0.27399108 -0.25562733 0.92552447 -0.37867141 -0.0035285281 0.00027796486
0.27895391 0.27967116 -0.25677529 -0.91311061 -0.40771082 -0.00091362681 0
-0.32964474 0.28178972 -0.25229257 0.93251491 -0.36113149 -8.042188e-05 0
-0.27876651 0.28333786 -0.25311837 0.89557242 -0.44490293 -0.0033793198 0.0019765117
-0.32262537 0.29992214 -0.2536889 0.90838271 -0.41813818 0.001161865 0.0014222632
-0.27368206 0.29283026 -0.25422072 0.86417317 -0.50309598 -0.0099600926 0.0020156081
0.32190281 0.29848379 -0.256989 -0.91463178 -0.4042879 5.8232877e-06 0
-0.26407546 0.30597413 -0.25351086 0.81413424 -0.58066565 -0.0035894811 0.00018378136
-0.25657007 0.31624314 -0.25129697 0.80736279 -0.59005541 -8.775061e-05 1.5601507e-05
0.25640172 0.31752247 -0.2597197 -0.79502594 -0.60655701 0.0047346028 0.00054367539
0.31287289 0.31892082 -0.25715587 -0.88101393 -0.47308791 0.001497668 0.0022760592
-0.31023929 0.32227358 -0.25607812 0.83078843 -0.55658191 0.0026776248 0.00079626992
-0.30801067 0.32532281 -0.25170195 0.82994616 -0.5578416 0.0014586526 0.00074971246
-0.24849027 0.32729805 -0.25426921 0.80735946 -0.59005994 -3.2500184e-06 1.8702134e-05
0.25087443 0.32438773 -0.25173089 -0.77893943 -0.6270991 1.5538554e-07 0
0.31167156 0.32163978 -0.25974959 -0.87669313 -0.48102403 0.0050099865 0.0023446786
0.24360952 0.33341131 -0.2598632 -0.77893275 -0.6271075 -8.0126694e-07 2.9899704e-05
-0.29655221 0.34100044 -0.25163922 0.80719852 -0.59028006 2.286334e-05 0
0.23426421 0.34501892 -0.25549036 -0.77758372 -0.62877935 -0.00032280435 8.6838932e-05
0.29691684 0.34196755 -0.25217366 -0.79228914 -0.61006624 0.0098534105 0.00032937099
-0.28719735 0.35379988 -0.25675574 0.80733716 -0.59009039 -0.00011109489 9.1285918e-05
0.22986865 0.3504785 -0.2523956 -0.77338195 -0.63392997 0.0036368789 9.2736946e-06
-0.2210394 0.36087647 -0.25305617 0.6692915 -0.74299908 -0.0010939331 0.0011659584
-0.21212642 0.36805233 -0.2564705 0.63616729 -0.77154964 -0.0015360975 0.00013972443
0.21656722 0.36642212 -0.25432605 -0.68688005 -0.72675449 0.0048745601 0.0041216952
0.27587751 0.36809993 -0.25711611 -0.77899092 -0.6270352 -0.00011158312 6.2612489e-05
-0.26958489 0.3778975 -0.25395983 0.78049558 -0.62515974 -0.0013920226 0.0011596968
-0.20794499 0.37141883 -0.25504023 0.62949711 -0.77700287 -0.00018770465 0
-0.19959158 0.3781442 -0.25516942 0.62709332 -0.77894419 -7.4934498e-05 7.1610928e-05
0.27217409 0.37269983 -0.25304762 -0.77886277 -0.62719446 -1.7117934e-05 0
-0.197019 0.38021544 -0.25697398 0.62713367 -0.77891171 3.1129039e-05 3.3397839e-05
-0.18593153 0.38914201 -0.25804448 0.62543958 -0.78027254 0.00022472214 5.8933445e-05
0.18948832 0.38621351 -0.25746652 -0.59021229 -0.80724806 3.1168318e-05 0
0.19400281 0.38291395 -0.25216234 -0.59013945 -0.80730134 -4.6255343e-05 9.099469e-05
-0.25394079 0.3945834 -0.25087148 0.67067897 -0.74171996 -0.0064176829 0.001267671
-0.180775 0.39329353 -0.25439143 0.62036306 -0.78431273 -0.0018110537 8.9785855e-05
0.17176381 0.39916801 -0.25068924 -0.58371437 -0.81195873 -0.00072285393 0.00010224825
0.18325807 0.39076701 -0.25623944 -0.59010869 -0.80732381 -4.5433089e-06 2.3335433e-05
0.25614119 0.39261389 -0.25770324 -0.7243737 -0.68933004 0.010335702 0.0017463028
-0.1668326 0.40451866 -0.25292003 0.55044407 -0.83487195 0.00019070884 0.0017437948
0.15875307 0.40867728 -0.25690794 -0.53282547 -0.84611815 -0.013452507 0.001712779
0.16429535 0.40462652 -0.25586495 -0.5694201 -0.8220427 -0.0025564071 0.00055456423
0.24898803 0.40080312 -0.25744182 -0.65931499 -0.75169432 0.016102977 0.0013232436
-0.14554067 0.41495851 -0.25713471 0.41147324 -0.9114179 0.0026833338 0
0.13814862 0.41923597 -0.2534768 -0.39207649 -0.9199326 -0.000326095 0.00064143841
0.14689413 0.4158504 -0.25064141 -0.4705404 -0.88217634 -0.018884581 0.001725967
0.23291664 0.41254938 -0.25471282 -0.59011209 -0.80732125 -0.00011379725 1.4354821e-05
-0.215186 0.42578506 -0.25357586 0.62715578 -0.77889377 6.8949826e-06 5.5164339e-05
-0.12079026 0.4258942 -0.25123581 0.40421802 -0.91466266 0.00013911483 5.4045457e-05
-0.11910135 0.42664039 -0.25296339 0.4041791 -0.91467983 0.00010118278 0
0.13185547 0.42167217 -0.25892195 -0.38040194 -0.92482126 -5.1630264e-05 0.00046989013
0.21545061 0.4253149 -0.2508412 -0.59013498 -0.80730456 5.8838148e-05 0
-0.11065092 0.43037415 -0.25810081 0.40131038 -0.9159413 -0.0012145613 4.2498217e-05
-0.10287764 0.43380871 -0.25799546 0.38084346 -0.92463589 -0.002591776 0.00043384827
-0.089783862 0.43959403 -0.25184524 0.30254242 -0.95302635 0.014450674 0.0020614457
0.093023926 0.43670452 -0.25500652 -0.34204236 -0.93967271 -0.0047295801 0.0003809685
-0.18479586 0.44887513 -0.25391018 0.47385362 -0.87972635 0.039297327 0.0018840331
-0.079003885 0.44158092 -0.25564897 0.21274035 -0.97702074 0.013109505 0.0014475079
-0.066090107 0.44358879 -0.25363511 0.15622175 -0.98772198 0.00025442126 0
-0.058313034 0.44479799 -0.25679591 0.15363136 -0.98812824 1.7886516e-05 0
-0.027545406 0.44958186 -0.25360209 0.1450748 -0.98940969 -0.004665364 8.5362146e-05
0.027765192 0.44892758 -0.25540632 -0.10736582 -0.9942196 0.00013170121 0.00013323818
0.053869247 0.44610921 -0.25459331 -0.11734801 -0.99309075 0.00038465706 0.00014352101
0.060527369 0.44539031 -0.25527182 -0.13445349 -0.99091971 0.00060531963 0.00049646117
0.077982292 0.44252741 -0.25212434 -0.25194684 -0.96774107 0.00028818109 0.0014847268
0.19257317 0.44203556 -0.25977975 -0.59015155 -0.80729246 2.3486282e-05 9.7614458e-05
-0.01614303 0.45135474 -0.25496796 0.076806992 -0.99701411 -0.0079802582 0.0016914865
-0.0052080438 0.45248771 -0.25148368 -0.007111161 -0.99992484 0.0099902926 0.0022108175
0.0044691036 0.45144287 -0.25598019 -0.059205916 -0.99824309 -0.0022939341 0.0015776558
0.014974944 0.45030856 -0.25494537 -0.093252517 -0.99563974 -0.0023323144 0.00033454821
0.16573739 0.4588348 -0.25995243 -0.42766738 -0.90392244 0.0049806261 0.0017620588
0.17668712 0.45364636 -0.25897044 -0.50043535 -0.8657493 0.0065244171 0.0018572439
-0.15883613 0.46034512 -0.25145912 0.40419641 -0.91467226 -1.7874461e-05 0.00015220852
-0.14363132 0.46706319 -0.25269917 0.40419239 -0.91467392 -4.4395802e-05 6.4153865e-05
0.14443679 0.46708065 -0.25458953 -0.36100346 -0.9325645 -3.4656488e-05 5.8051184e-05
0.15627223 0.46249893 -0.25535455 -0.37284705 -0.92789274 -0.00040106822 0.00011741389
0.16193043 0.46030858 -0.25314811 -0.39587623 -0.91825682 0.0092912288 0.00061205297
-0.12136953 0.47689933 -0.25689268 0.39699295 -0.91782159 -0.00014660911 0.00023272363
-0.11470969 0.47984189 -0.25245023 0.36758149 -0.92998844 0.0023077719 0.0008432293
0.11248555 0.47944951 -0.25703204 -0.36101735 -0.93255907 0.00013237038 0
0.13339537 0.47135496 -0.25502396 -0.36101055 -0.9325617 -4.6547677e-05 0
-0.11110106 0.48143631 -0.25971562 0.3306073 -0.94376498 0.0025421891 0.0014868539
-0.10744347 0.48305237 -0.25193092 0.31890407 -0.94776922 0.0058063846 0.0018811573
-0.096577562 0.48630008 -0.25188872 0.25616607 -0.96662408 0.0040932372 0.0016493163
-0.085727103 0.48798716 -0.25228402 0.18433744 -0.98286223 -0.0011943624 0.00062799599
0.088924348 0.48857048 -0.25688362 -0.23756832 -0.97137082 8.3346735e-05 0.0021500615
0.093590125 0.48676425 -0.25700337 -0.31628445 -0.94863701 0.0072082723 0.0010235127
0.10212657 0.48345965 -0.25562096 -0.34615266 -0.93817794 -0.00065368932 0.00069417414
-0.064730957 0.49125168 -0.25066325 0.15364972 -0.98812538 0.00011491515 4.4736524e-05
-0.040224772 0.49506193 -0.25991911 0.1536344 -0.98812777 -1.5362742e-06 2.5299449e-05
-0.036158092 0.49569425 -0.25334281 0.1536438 -0.98812628 -2.2077451e-05 4.0987448e-05
-0.0050248476 0.49958438 -0.256028 -0.0016173639 -0.99996305 0.0084481109 0.0015375138
0.025205731 0.49636462 -0.25566348 -0.10733011 -0.99422348 -5.0233895e-05 0
0.037188366 0.49507087 -0.25850213 -0.10734031 -0.99422234 6.6801142e-05 2.5656289e-05
0.053743333 0.49328345 -0.25205061 -0.10734021 -0.9942224 -1.768961e-05 4.3940316e-05
0.060045443 0.49260303 -0.25201619 -0.11699041 -0.99313295 0.00031001618 0.0001262945
-0.01924265 -0.41484714 -0.24143592 0.14872961 0.78359699 0.60320425 0.0038693894
0.0068124877 -0.41452095 -0.24265487 -0.13309664 0.74678069 0.65161639 0.0034128744
-0.032769036 -0.40267712 -0.24941032 0.36050865 0.67064571 0.64828074 0.0033045923
-0.01735156 -0.40863955 -0.24843624 0.12707372 0.74724531 0.65228575 0.0032810301
0.027871773 -0.40503058 -0.24517849 -0.39743111 0.66992539 0.62709522 0.0078169079
0.033727698 -0.4036544 -0.24237083 -0.48411646 0.65801299 0.57675838 0.0096100774
