# .PCD v0.7 - Point Cloud Data file format
VERSION 0.7
FIELDS x y z normal_x normal_y normal_z curvature
SIZE 4 4 4 4 4 4 4
TYPE F F F F F F F
COUNT 1 1 1 1 1 1 1
WIDTH 591
HEIGHT 1
VIEWPOINT 0 0 0 1 0 0 0
POINTS 591
DATA ascii
-0.02864418 -0.30810642 -0.14563204 -0.30268916 0.95287198 0.020354297 0.0024851002
-0.016228352 -0.30276752 -0.14944419 -0.3774921 0.92483151 0.046759404 2.2894976e-06
0.059953466 -0.30647886 -0.14034252 -0.48756531 0.87150294 0.052560534 0.0025364144
0.06409049 -0.30283323 -0.1474833 -0.52204806 0.8509171 0.058361515 0.00181847
-0.31557354 -0.2908681 -0.14303181 0.60793579 0.79226267 0.052287865 0
-0.3062259 -0.29806513 -0.14266306 0.57011169 0.81984884 0.053108808 0.00099634542
-0.24503647 -0.29232475 -0.145042 0.38229352 0.92282069 0.047472879 0
-0.23467621 -0.29685163 -0.14046417 0.38236484 0.92278802 0.047531743 0
-0.22745834 -0.2994889 -0.1473147 0.3821997 0.92286092 0.047444258 4.6620284e-05
0.074376084 -0.29506058 -0.1456681 -0.60181826 0.79678714 0.054267749 0.0001687964
-0.31913507 -0.28777757 -0.14845163 0.60797024 0.79223615 0.052288432 9.1117281e-06
-0.27157289 -0.28156197 -0.14059207 0.44136924 0.89579082 0.052459218 0.001400288
-0.25665393 -0.28760111 -0.14332214 0.38315791 0.92248785 0.046969172 1.3400268e-05
0.027091527 -0.28492638 -0.14745063 -0.39668867 0.91692668 0.043399613 0.0002840583
0.037684001 -0.28052989 -0.14762473 -0.47464684 0.87921435 0.04113996 0.0022118546
0.090896294 -0.28265038 -0.14163396 -0.60796046 0.79224217 0.052311301 2.1525613e-05
-0.28369012 -0.27450764 -0.14471711 0.54431957 0.83595085 0.070016958 0.0015971226
0.039834671 -0.27988437 -0.14285713 -0.48963693 0.8711136 0.037640233 0.0025623124
0.045371681 -0.27661523 -0.14554738 -0.54094982 0.83996409 0.042820733 0.0016101918
0.10452794 -0.27171761 -0.14879937 -0.60794884 0.79225326 0.052278001 4.1129835e-05
-0.3452307 -0.26798558 -0.14493786 0.60793799 0.79226184 0.052272167 6.0136535e-06
-0.3009342 -0.26144317 -0.14192392 0.6080749 0.79245883 0.047476649 1.8262203e-05
0.062469803 -0.26351789 -0.14517114 -0.60270393 0.79661864 0.046333268 9.6809257e-05
0.10882199 -0.26898849 -0.14022478 -0.60793829 0.79226321 0.052250061 2.5389179e-05
0.1122714 -0.26602599 -0.14500855 -0.60792547 0.7922737 0.052241169 0
-0.36545685 -0.25251058 -0.14425451 0.68183976 0.72845483 0.066694334 0.001735743
0.07343626 -0.25514427 -0.14448287 -0.60807699 0.79245836 0.047456477 0
0.12660809 -0.25527498 -0.14122103 -0.66326153 0.74587923 0.061223403 0.0017837198
-0.37474489 -0.24195918 -0.14314565 0.76782304 0.63832843 0.054630805 0.00090520392
-0.31838304 -0.24759939 -0.14951459 0.60810888 0.79243171 0.047492735 0
0.085885823 -0.24554099 -0.14532384 -0.60810435 0.79243731 0.04745632 3.3305219e-05
-0.37763676 -0.23821299 -0.1428839 0.78301573 0.61955839 0.055078477 0.00019437297
-0.34118587 -0.23044768 -0.14374885 0.66836673 0.74087995 0.06620241 0.0014115779
-0.33661672 -0.23396285 -0.14359583 0.65960538 0.74950385 0.056255475 0.0015294094
-0.32904994 -0.23962763 -0.14595538 0.61366236 0.78802466 0.049350206 4.8672355e-05
0.098458305 -0.2360248 -0.14313737 -0.64087063 0.76632321 0.045093711 0.0010875104
0.10281694 -0.23254882 -0.14533202 -0.66648811 0.74379474 0.050625127 0.0016237771
0.14473306 -0.23493122 -0.14159377 -0.77207291 0.63296896 0.057041295 0.00057114608
-0.39121124 -0.22010253 -0.14776587 0.79219699 0.6080218 0.052281395 0
-0.38776949 -0.22463907 -0.1471706 0.79224342 0.60795945 0.052304104 3.480654e-05
-0.34596536 -0.22607857 -0.14717537 0.72227776 0.68940705 0.055069279 0.0016070586
0.10916102 -0.2279059 -0.14157532 -0.6971848 0.71476394 0.055188462 0.0026730706
0.11155706 -0.22469783 -0.14652073 -0.71165764 0.7008127 0.049040347 0.0024869516
0.14962332 -0.2282341 -0.14536196 -0.79165399 0.6087622 0.051890027 3.1294683e-05
-0.39516044 -0.21549116 -0.14154086 0.79220372 0.60800803 0.052339483 0
-0.35323346 -0.21657234 -0.14761397 0.76037169 0.64721769 0.054260585 0.0012102016
0.12140889 -0.2123456 -0.14028445 -0.78043103 0.62328809 0.049390398 0.00040538554
0.15941316 -0.2152815 -0.14762017 -0.79225039 0.60795277 0.05227641 4.8242373e-06
-0.40412229 -0.20344646 -0.14578936 0.79226679 0.6079219 0.052384593 0
-0.39954159 -0.20990449 -0.14011084 0.79220998 0.6080029 0.052304853 0
-0.36128259 -0.20663157 -0.14058271 0.79240948 0.6081391 0.047476891 5.1979907e-05
0.12429871 -0.2081349 -0.14597823 -0.78795028 0.61377639 0.049120378 0.00011744739
0.16714548 -0.2058437 -0.14018759 -0.79227018 0.6079272 0.052273486 2.3715781e-06
-0.41312826 -0.19208956 -0.14137252 0.80264443 0.59408265 0.053176627 0.00035927305
-0.40783238 -0.1986506 -0.14533374 0.79225039 0.60795414 0.052260693 8.4667314e-05
-0.37148619 -0.19288957 -0.14627393 0.79240036 0.60815257 0.047455318 7.1524977e-05
0.13161337 -0.19872537 -0.14440151 -0.79246509 0.60806745 0.047466174 1.5748915e-06
0.17310929 -0.19737336 -0.14830631 -0.79526174 0.60401148 0.052239444 6.1999403e-05
-0.41590932 -0.18857193 -0.14013094 0.80830121 0.58603734 0.056651771 0.00053473026
0.1430504 -0.18398103 -0.14234382 -0.79246354 0.60806578 0.047513206 5.2341252e-06
0.18477833 -0.18282396 -0.14065447 -0.83727181 0.54410523 0.054087646 0.0023619507
-0.42759782 -0.17001462 -0.14046776 0.88866532 0.4562071 0.046357028 0.0018405586
-0.38640273 -0.17375152 -0.14241111 0.81148958 0.58295971 0.040529277 0.00074598653
0.14733091 -0.17849743 -0.14112866 -0.79457742 0.60506976 0.050371483 5.9481299e-05
0.18804681 -0.1781553 -0.14254327 -0.8609494 0.50466025 0.063907981 0.0024715962
0.19036472 -0.17314255 -0.148065 -0.86842418 0.49149099 0.065392382 0.0022118909
-0.4279542 -0.16866687 -0.14403072 0.88895422 0.45592543 0.043500777 0.0019281787
-0.3952015 -0.1621598 -0.1440116 0.85936213 0.50931287 0.045793779 0.0022303362
0.15763386 -0.16468342 -0.14608479 -0.84461272 0.53370267 0.042317126 0.0026910035
0.1605112 -0.16101895 -0.14499159 -0.85243183 0.51998717 0.054528326 0.0026728881
0.19390509 -0.16505015 -0.14474019 -0.91072702 0.40864342 0.059890307 0.00057269423
-0.43336061 -0.155371 -0.14581144 0.91924644 0.38998219 0.053850632 0.00016777545
-0.4000749 -0.15123098 -0.14667031 0.89860886 0.4352611 0.055225506 0.0016550596
-0.39864179 -0.15450127 -0.14819571 0.8929829 0.44703999 0.052313652 0.0017059891
0.19760473 -0.15647699 -0.14211895 -0.91710651 0.39479479 0.055251803 0.0002751851
-0.43833989 -0.14373417 -0.14300294 0.9226048 0.38218081 0.052328061 0
-0.40461028 -0.14045283 -0.14529218 0.92211312 0.38400447 0.047412805 0
0.16759768 -0.14427386 -0.14379318 -0.91076905 0.4110066 0.039665639 0.00052018662
-0.4428488 -0.13219772 -0.14776102 0.9226076 0.38218075 0.052278917 6.3582855e-05
-0.40801504 -0.13272567 -0.14132497 0.92281681 0.3822991 0.04750333 3.1702541e-05
-0.44540897 -0.12630366 -0.14566547 0.92258638 0.38222849 0.052303594 0.00011941172
-0.41113991 -0.12421074 -0.14914066 0.92283452 0.38225329 0.047527894 0
0.1747162 -0.12645325 -0.14890471 -0.92283487 0.38225785 0.047484457 0
-0.45023379 -0.11443768 -0.14725801 0.92638409 0.37257978 0.054743316 6.7573586e-05
-0.44823992 -0.11973464 -0.14372432 0.92257029 0.38227275 0.052265573 0.00014877794
-0.41536504 -0.11452165 -0.14502423 0.92282653 0.38227397 0.047515806 0
0.21489814 -0.11483285 -0.14134505 -0.9256832 0.37435812 0.054466598 0.00014220034
-0.4540922 -0.10489672 -0.14890966 0.93019497 0.36295134 0.054805767 0.00021413022
-0.41771865 -0.10926832 -0.14157319 0.92366725 0.3802824 0.047162063 0
-0.45780122 -0.096431367 -0.14533436 0.94304979 0.32813802 0.054611899 0.0013463759
-0.42247826 -0.097498581 -0.14381936 0.93241382 0.35798272 0.049525678 0.00059262943
0.2237922 -0.092971347 -0.14419152 -0.963974 0.26094472 0.051594473 0.0020839199
-0.46020108 -0.086678937 -0.1498058 0.96579665 0.2502397 0.067948423 0.0029874789
-0.42648739 -0.088109374 -0.14148785 0.95384359 0.29775122 0.039073035 0.002295292
0.19179502 -0.084810048 -0.14532843 -0.96027654 0.27376795 0.054038461 0.0026911807
0.22488721 -0.087052085 -0.14521781 -0.97096908 0.23254426 0.05605536 0.00236656
-0.4621231 -0.073236406 -0.14692199 0.98824507 0.14241461 0.055585183 0.0002662403
0.19392344 -0.075034842 -0.14456725 -0.98434007 0.17122951 0.041894726 0.00077511469
0.22564524 -0.079394005 -0.14995614 -0.98369229 0.17247511 0.051008057 0.0011863834
-0.46337342 -0.06598632 -0.14131871 0.99008757 0.13035426 0.052290898 0
-0.43111223 -0.061457381 -0.14677285 0.9890576 0.1401961 0.045937214 0.0001405268
0.19457254 -0.068191208 -0.14982086 -0.98772168 0.14959039 0.045039784 0.00050911051
0.19661771 -0.056071591 -0.14044295 -0.98968792 0.13478094 0.048496388 4.571391e-05
0.22971107 -0.050510053 -0.14497134 -0.9802078 0.19584645 -0.028926887 0.020259885
-0.46612942 -0.045443058 -0.14034523 0.99008852 0.13034955 0.052284725 0
0.1979906 -0.043671668 -0.14585784 -0.99032658 0.1303786 0.047481865 9.5414171e-06
0.23047447 -0.04472331 -0.14494166 -0.98612916 0.16180003 -0.037013039 0.028100837
0.4557592 -0.046484798 -0.14710604 -0.23916437 -0.97085011 0.015828691 0.10388175
0.47781467 -0.043398872 -0.14384794 -0.85281056 0.46411094 0.23940581 0.072787568
-0.43543968 -0.030166345 -0.14243683 0.99032652 0.13038655 0.047463086 4.0795916e-05
0.23256767 -0.035748187 -0.14631194 -0.99004757 0.13646419 -0.034399409 0.0303322
0.44354653 -0.035673082 -0.14111908 -0.94154263 -0.28708336 0.17629695 0.039063692
-0.46938851 -0.020437038 -0.14097038 0.99176735 0.11923945 0.046684694 0.00025987203
0.23293769 -0.026144432 -0.14461514 -0.98543066 0.15609178 -0.06754069 0.028959909
0.44359592 -0.022472043 -0.14092529 -0.95924431 -0.16191295 0.23159136 0.023245154
-0.47050488 -0.012324714 -0.14005509 0.99512756 0.084020063 0.051592439 0.0010397716
-0.43705642 -0.017674405 -0.14301804 0.99317205 0.10497043 0.050896272 0.00016425803
0.23460221 -0.014579741 -0.14192553 -0.99450999 0.070561461 -0.077271841 0.031586915
0.44368955 -0.0109422 -0.14055817 -0.96099859 0.00042140929 0.27655292 0.00027598461
0.47768283 -0.016096056 -0.14436488 -0.96477962 0.0040337131 0.26302862 0.00017786292
-0.47154707 -0.00078210898 -0.14909631 0.9992882 0.0016276053 0.037689246 0.0020945475
-0.43831849 -0.0080944747 -0.14299965 0.99668545 0.056676898 0.05835966 0.0015846328
0.20324576 -0.0025881012 -0.14906207 -0.99887627 -0.010167643 0.046290878 0.0024225449
0.23563322 -0.0050035454 -0.14882022 -0.99092668 0.026773771 -0.13170929 0.048574299
0.44249368 -0.0036656093 -0.14524758 -0.95388514 0.00060759328 0.3001712 0.00033108259
0.4779982 -0.0037354901 -0.14312819 -0.96808404 0.00040367682 0.25062522 0.00022067296
-0.47188258 0.0015658849 -0.14078882 0.99840742 -0.011738948 0.05517976 0.0018452829
-0.43891874 0.0034545697 -0.14322114 0.99824178 -0.027223298 0.052651435 0.0030951221
0.20303588 0.004038828 -0.1494562 -0.99710453 -0.05581224 0.051647436 0.0013842735
0.2364026 0.0099316798 -0.14741975 -0.99355799 -0.042491421 -0.10505711 0.037838463
0.44244927 0.00083539635 -0.14542177 -0.95382166 0.0038565507 0.30034888 0.00026091695
0.47724339 0.0030672685 -0.146088 -0.96392781 0.00037523365 0.26616359 0.0001674778
-0.47059155 0.010696397 -0.14247331 0.99641943 -0.06102265 0.058519952 0.0015146685
-0.43694666 0.017790664 -0.14498712 0.99315149 -0.10464142 0.051963657 0.00078730762
0.20162885 0.017225998 -0.14259183 -0.99265563 -0.11298403 0.043237831 0.00024175893
0.23377684 0.012587465 -0.1466842 -0.9968968 -0.014139385 -0.077438861 0.03438184
0.4434095 0.015564842 -0.14165634 -0.95977068 0.0023209772 0.28077537 0.00045548935
0.47767425 0.017151617 -0.14439844 -0.96593857 -0.0089831296 0.25861546 0.00034750087
-0.46894741 0.022091396 -0.14519972 0.99027777 -0.12873265 0.052705698 0
-0.43635157 0.023213942 -0.1425069 0.99032718 -0.13037263 0.047488429 0
0.19968022 0.029336484 -0.14998087 -0.99032599 -0.13038409 0.047480687 0
0.20092294 0.020155447 -0.14927146 -0.99136442 -0.12100294 0.0505458 0.00010699002
0.23336129 0.024748676 -0.14653417 -0.98316395 -0.040251087 -0.17823726 0.054475598
0.44226837 0.02450986 -0.14613108 -0.94796288 0.10382572 0.30097619 0.014669823
0.47666749 0.024496425 -0.14834626 -0.95516545 -0.1231887 0.26922765 0.022329355
-0.43423676 0.03943219 -0.14208227 0.99032718 -0.13037959 0.047467899 9.3403823e-06
0.23648138 0.031218788 -0.14755361 -0.97525775 -0.020647708 -0.22010441 0.058202561
0.44138512 0.037461966 -0.14873105 -0.76834279 0.57218814 0.2867927 0.072894797
0.47695863 0.035058532 -0.14720455 -0.90428132 -0.39532065 0.16123545 0.070881277
-0.46624389 0.044036094 -0.14168555 0.99008793 -0.13034174 0.052315827 0
0.44349432 0.044042807 -0.14332454 -0.74515611 0.6357708 0.20134026 0.08090391
0.45714849 0.046484828 -0.14094296 -0.21410362 0.97525656 -0.055084404 0.085342683
0.46279052 0.046484828 -0.14086673 -0.18194929 -0.98329079 0.0058154771 0.11986779
0.47566822 0.043869838 -0.14572984 -0.77528316 -0.62406993 0.097328216 0.082043216
-0.46455649 0.055930972 -0.14398457 0.99009162 -0.13032335 0.052291837 0
0.19660227 0.055212233 -0.14312606 -0.98991376 -0.13341974 0.047642965 3.1527517e-05
0.2293849 0.05324921 -0.14431936 -0.98252559 -0.18203735 -0.038806301 0.018557062
-0.46408015 0.060131766 -0.14253183 0.99008644 -0.13035667 0.052306633 0
0.19526729 0.063951567 -0.14697206 -0.98887134 -0.14145684 0.046080858 0.00013835575
0.22757792 0.066453144 -0.14561902 -0.98236537 -0.18154587 0.044713978 0.0036406179
-0.46205926 0.073184207 -0.1482611 0.98675936 -0.15513115 0.047330692 0.00033771599
-0.42884901 0.078866884 -0.14617291 0.96667844 -0.25391245 0.032577146 0.0021885571
0.19416839 0.074351989 -0.14133316 -0.9775914 -0.20332702 0.054526906 0.0017183523
0.22687873 0.072883666 -0.14282778 -0.98682511 -0.15290801 0.052871153 0.00065444916
-0.425621 0.089237913 -0.14924116 0.95942408 -0.27884951 0.041812472 0.0020941375
0.19223362 0.084698468 -0.14307201 -0.96507317 -0.25446311 0.062307786 0.0023762428
0.22523433 0.084574342 -0.14482188 -0.9737674 -0.22014211 0.057570983 0.0024345675
-0.45684916 0.099024884 -0.1431779 0.94822949 -0.31317884 0.052723307 0.0014771037
-0.42376664 0.094224393 -0.14513846 0.94415885 -0.32633194 0.045514029 0.0009517828
0.18828756 0.094082236 -0.14574024 -0.93519634 -0.35185629 0.040061727 0.00058586564
0.22405058 0.091905676 -0.14715645 -0.96969348 -0.2377478 0.056307916 0.00262108
-0.45309177 0.10828612 -0.14178851 0.93270338 -0.35670778 0.053141277 0.00054797099
-0.41849643 0.10684705 -0.14594954 0.92477304 -0.37744939 0.048236679 0.00014668847
0.18238682 0.1084962 -0.14438519 -0.92297053 -0.38193503 0.047446784 0
0.21842989 0.10588601 -0.14441875 -0.93591541 -0.34808317 0.053856269 0.00069078745
0.22049576 0.101455 -0.14035143 -0.94968879 -0.31107411 0.036388151 0.0017295765
-0.44935757 0.1165431 -0.14733085 0.92272639 -0.3818748 0.052417412 8.9743575e-05
-0.44670469 0.12370285 -0.14181101 0.92264128 -0.38210076 0.052269444 0
-0.41214928 0.12281971 -0.14072219 0.92284441 -0.38223848 0.047454774 2.4609768e-05
0.17343336 0.12981132 -0.14680399 -0.92283762 -0.38225481 0.047455914 4.6904165e-06
-0.44177631 0.13532482 -0.14382988 0.92260641 -0.38218424 0.052273653 6.7844368e-05
-0.40865484 0.13017766 -0.14940396 0.92284775 -0.38223329 0.047432128 0
-0.43796945 0.14397787 -0.14775892 0.92261088 -0.38217753 0.052244805 0
-0.40282524 0.14493498 -0.14390245 0.91701347 -0.39580515 0.049239635 0.00027748369
0.16598824 0.14744085 -0.14957833 -0.90508372 -0.42154315 0.055899709 0.0012010805
0.20385277 0.14122501 -0.14334664 -0.92261529 -0.38215896 0.052301604 0
-0.4339819 0.15424787 -0.14305723 0.92210788 -0.38338888 0.052249484 1.3592268e-06
-0.39788848 0.15678662 -0.14443895 0.87886822 -0.47314346 0.061039995 0.0019068256
0.16366449 0.15316662 -0.14864652 -0.89144552 -0.44929984 0.058774889 0.0019923695
-0.43145657 0.16027196 -0.14358813 0.9148044 -0.4001978 0.054539144 0.00052069209
-0.39144549 0.16697331 -0.14505538 0.84283102 -0.53731555 0.030461241 0.0015125277
0.15789962 0.16474621 -0.14084542 -0.85263789 -0.51890063 0.061243244 0.0016640259
0.19347896 0.1659749 -0.14550103 -0.89798492 -0.43590847 0.060058199 0.0015186185
-0.42653519 0.17210892 -0.14391254 0.87434232 -0.47992456 0.072095856 0.0019739242
-0.38419518 0.17640682 -0.14525142 0.7978043 -0.60124886 0.044812929 0.00012788901
0.15127942 0.17334083 -0.1412683 -0.80525136 -0.59062904 0.052226659 0.00045951043
0.19185884 0.17000595 -0.14462547 -0.88579273 -0.45998865 0.061494581 0.002070419
-0.41563794 0.18824267 -0.14807308 0.80369258 -0.59219289 0.058188561 0.0001620386
-0.3753041 0.18824631 -0.14201741 0.79244745 -0.60809034 0.047466949 3.9467555e-05
0.1394926 0.1883934 -0.14521661 -0.79245716 -0.60807675 0.047478855 2.0579975e-07
-0.36665708 0.19927388 -0.14511009 0.79242516 -0.60811597 0.047509715 0
0.13338783 0.1962069 -0.14704001 -0.7924583 -0.60807526 0.047480062 0
0.17625526 0.19358277 -0.14471029 -0.80325377 -0.59356493 0.049639478 0.00029524916
-0.40276137 0.20542127 -0.14345045 0.79228175 -0.60791016 0.052295689 0
-0.36295527 0.20390251 -0.14761594 0.79250193 -0.60801709 0.047496811 7.4338441e-06
0.12608647 0.20569874 -0.14734057 -0.79223597 -0.60837531 0.047345273 5.9226231e-06
0.16361874 0.20998202 -0.14551218 -0.79227376 -0.60792172 0.0522829 1.8990251e-05
-0.39676133 0.21317489 -0.14421554 0.79224402 -0.60796261 0.052257422 0
-0.35183749 0.21892077 -0.14083813 0.75773323 -0.65060431 0.050540384 0.0017921489
0.12192243 0.21152261 -0.14225414 -0.79223728 -0.60837317 0.047351468 6.8156305e-06
-0.38639387 0.22691983 -0.14149645 0.79228491 -0.60790461 0.052312452 0
-0.34705484 0.22478053 -0.14561647 0.71576977 -0.69707721 0.041915961 0.0026216891
0.11162864 0.22450931 -0.1477408 -0.72377628 -0.68842095 0.047165226 0.0022011485
0.15213014 0.22477706 -0.14757273 -0.79222357 -0.60798663 0.052289192 0
-0.38262451 0.23188245 -0.14091188 0.78516316 -0.61691457 0.054177202 0.00012068624
-0.37737316 0.23817921 -0.14727196 0.76562065 -0.64098918 0.054386176 0.00081391982
-0.33365837 0.23626868 -0.14299953 0.64359385 -0.76367617 0.050849572 0.0010318292
0.096137702 0.23766765 -0.14543864 -0.63053572 -0.77435547 0.052898772 0.00057578896
0.14359932 0.23616563 -0.14442152 -0.77923018 -0.62462002 0.05148105 0.00042815862
-0.37034696 0.24766839 -0.14340553 0.72894037 -0.68235689 0.055090923 0.0024653077
-0.32285741 0.24466611 -0.14117068 0.6080696 -0.79246408 0.047455158 4.8717091e-05
-0.3159523 0.24947037 -0.14941919 0.60800767 -0.79250902 0.047498424 0.00011295817
0.085726313 0.24551834 -0.14774556 -0.60806823 -0.79246271 0.047495175 0
0.13898695 0.24236228 -0.14226234 -0.75761759 -0.64994073 0.059938863 0.0016035629
-0.36368108 0.25405154 -0.14155246 0.68141448 -0.7291078 0.063844778 0.0023080276
-0.3149105 0.25046408 -0.14617637 0.60804814 -0.79248065 0.047454976 6.4165106e-05
-0.30390882 0.25874627 -0.14884126 0.60806507 -0.79246622 0.047477257 0
0.074727982 0.25417757 -0.14407612 -0.60808015 -0.792454 0.047487814 0
0.12277211 0.25780445 -0.14749567 -0.64071232 -0.7658115 0.054957483 0.00087579957
0.13223825 0.25077233 -0.14398742 -0.68575639 -0.72529429 0.060715266 0.0018431427
-0.3459956 0.26746407 -0.14394674 0.60794365 -0.79225516 0.0523092 0
-0.30113569 0.26122266 -0.14302456 0.60818583 -0.79237139 0.04751483 0
-0.29710576 0.26441714 -0.1413188 0.60539746 -0.7945419 0.04687253 0
0.06376002 0.26249677 -0.14569208 -0.6080761 -0.79245818 0.047471214 0
0.11148777 0.26684865 -0.14165412 -0.60795575 -0.79224986 0.052249365 2.3580898e-05
-0.33496821 0.27587211 -0.14475918 0.60790575 -0.79229164 0.052197054 4.477565e-05
-0.28266612 0.27499139 -0.14975926 0.55273843 -0.83234751 0.040961832 0.0018073332
0.050924376 0.27263761 -0.14082366 -0.54937422 -0.833749 0.055231784 0.0016756456
0.097684175 0.27717271 -0.14571314 -0.60796964 -0.79223722 0.052278616 0
0.10269711 0.2731007 -0.14912964 -0.60794008 -0.79225934 0.052288849 1.9293228e-05
-0.32280767 0.28537133 -0.14221048 0.60798264 -0.79222631 0.05229377 0
-0.31880298 0.2881912 -0.14604586 0.60798866 -0.79222167 0.052293833 3.5282301e-05
-0.27124631 0.28151798 -0.14407769 0.45349917 -0.89020121 0.043362767 0.0014541214
-0.26671827 0.28344071 -0.14316152 0.41239947 -0.90990907 0.044633303 0.00072168151
0.016893802 0.28906947 -0.14902534 -0.38225046 -0.92283934 0.047456041 0
0.08455395 0.28712836 -0.14752452 -0.60794944 -0.79225081 0.05230755 3.2628301e-05
-0.31242004 0.29322475 -0.1439887 0.60614508 -0.79365081 0.052024994 0
-0.24006927 0.29413068 -0.14993194 0.38236326 -0.92279083 0.047491759 0
-0.0050251633 0.29820549 -0.1479198 -0.38225448 -0.92283499 0.047509633 0
0.0090361349 0.292566 -0.1443257 -0.38225049 -0.92283916 0.047458999 0
0.012284925 0.29131779 -0.14243078 -0.38227737 -0.92282605 0.047497202 3.334889e-05
-0.29639512 0.30538478 -0.14605434 0.5273543 -0.84773928 0.056883175 0.0025763297
-0.22400904 0.30117181 -0.14237604 0.37307158 -0.92654914 0.048212204 9.4024952e-05
-0.21260375 0.30575001 -0.14521348 0.32508475 -0.9444117 0.049056526 0.0007181933
-0.025290625 0.30664694 -0.14700179 -0.35334933 -0.93453932 0.04219605 0.00077871128
-0.01451262 0.3023054 -0.14461415 -0.37393337 -0.92613059 0.04955712 0.0001364762
0.058407336 0.30698031 -0.14608338 -0.48418981 -0.87371749 0.046668474 0.0018460827
0.064574167 0.30290329 -0.14079753 -0.53026307 -0.84608918 0.054353561 0.0022638733
-0.2757327 0.31455663 -0.145285 0.38776812 -0.92004699 0.056117851 0.00011631777
-0.26683369 0.31815913 -0.14676014 0.38213924 -0.92262506 0.052273978 6.6530694e-05
-0.19584267 0.31135023 -0.14299589 0.24223113 -0.97009248 0.015641972 0.0018884256
-0.12956551 0.31987339 -0.14721732 0.06116059 -0.99738282 0.038562261 0.001779841
-0.10121417 0.31941754 -0.14374408 -0.080517061 -0.99618775 0.033570159 0.00093942572
-0.054775909 0.31327009 -0.14444797 -0.14681639 -0.98814255 0.044935696 0.00029898051
0.028693022 0.3190836 -0.14969711 -0.38216102 -0.92261493 0.052294996 0
0.039172571 0.31523532 -0.14100555 -0.39282331 -0.91801959 0.054127902 0.00035670755
0.048435956 0.31100571 -0.1479339 -0.42492867 -0.90394139 0.048223954 0.00087741442
-0.26240641 0.32017773 -0.14349988 0.38219506 -0.92260188 0.052274395 4.8934489e-05
-0.25824815 0.32178342 -0.14555974 0.3821499 -0.92261875 0.05230758 0
-0.23933494 0.32976586 -0.14294216 0.38217154 -0.92261559 0.052205399 0.00014183698
-0.12681815 0.32042563 -0.14324325 0.06160007 -0.99706042 0.045562331 0.0017951542
-0.11315688 0.32095757 -0.1444167 -0.057325363 -0.99737847 0.044158615 0.0013896791
0.0098515395 0.32739389 -0.14076878 -0.38215873 -0.92261606 0.052290328 0
-0.23325226 0.33213371 -0.14561844 0.38056284 -0.92324007 0.052911185 0
-0.22299236 0.33641919 -0.14498843 0.36581951 -0.92938828 0.049127322 0.00021510135
-0.017026003 0.33854842 -0.14038976 -0.34309769 -0.93725038 0.062013581 0.0010190428
-0.0056152889 0.33356738 -0.1448822 -0.3813366 -0.92296904 0.05206351 0
-0.20536481 0.34269828 -0.14206699 0.25380698 -0.96547115 0.058714595 0.0012490213
-0.16481392 0.34779963 -0.14722826 0.13033848 -0.99009442 0.052200593 7.741624e-05
-0.084035538 0.34971946 -0.1441353 -0.13034329 -0.99009067 0.052260358 0
-0.076380484 0.3486726 -0.14487512 -0.13035648 -0.99009013 0.05223823 1.0154535e-05
-0.06799604 0.34768236 -0.14272311 -0.13034375 -0.99008822 0.052304968 0
-0.049385652 0.34492978 -0.14845158 -0.1393194 -0.98900807 0.049528785 3.2247935e-05
-0.039557077 0.34405658 -0.14048341 -0.17073677 -0.98405451 0.04985632 0.00083368539
-0.13183744 0.35202444 -0.14943705 0.072883785 -0.99642706 0.0426745 0.0014734673
-0.10226982 0.35191625 -0.14799565 -0.088511333 -0.99480176 0.050350159 0.00095713523
-0.096612543 0.35128701 -0.14580669 -0.11957043 -0.99129474 0.055115376 0.00016200115
-0.14540935 -0.35104614 -0.13412349 0.12807989 0.9904058 0.051883623 2.9843211e-05
-0.13512516 -0.35253251 -0.13161553 0.10978071 0.99279219 0.048081774 0.00064716797
-0.12321566 -0.35388356 -0.1357227 0.027390221 0.99768883 0.06218297 0.002921012
-0.11651193 -0.35438794 -0.13507575 -0.013347302 0.99899721 0.04273656 0.0026566274
-0.093845144 -0.35144687 -0.13587858 -0.12012972 0.99135631 0.052740108 0.00014253867
-0.0887907 -0.35084531 -0.1346685 -0.12968712 0.9901728 0.05233622 1.6742708e-05
-0.21253186 -0.34136164 -0.13422975 0.26416254 0.96282333 0.056476206 0.0017447196
-0.20070407 -0.34379756 -0.13353464 0.20211004 0.97842914 0.042753521 0.0019690131
-0.19773349 -0.34403723 -0.1364021 0.17662786 0.98310947 0.04794139 0.0011433701
-0.16951324 -0.34768766 -0.13763002 0.13037333 0.99008417 0.05230698 0
-0.15932201 -0.34891751 -0.13974807 0.13032347 0.99009126 0.052297119 0
-0.082601503 -0.34984612 -0.13816051 -0.13034703 0.9900918 0.052229401 3.083549e-05
-0.076241344 -0.34928966 -0.13284102 -0.13031498 0.99009389 0.052268956 0
-0.065566435 -0.3476969 -0.13638937 -0.13036788 0.99009025 0.052204937 3.973578e-05
-0.055826157 -0.34664533 -0.13201883 -0.13035013 0.99008858 0.052281845 3.3883876e-05
-0.04881189 -0.34540319 -0.13805506 -0.14005968 0.98865318 0.054297306 0.00013292194
-0.036682628 -0.34394956 -0.13534266 -0.17708807 0.98290038 0.050463967 0.00106218
-0.23114544 -0.33333755 -0.13977355 0.38214961 0.92262137 0.05226399 0
-0.0066494485 -0.33462656 -0.13374922 -0.37954068 0.92382848 0.049897302 0
0.003587475 -0.33036095 -0.1341963 -0.38216171 0.92261535 0.052282754 0
-0.26293913 -0.32045043 -0.13479187 0.38220337 0.92259824 0.052279238 0
-0.2442933 -0.32827407 -0.13302171 0.38216513 0.922616 0.052245293 9.6417316e-05
-0.13172615 -0.32026875 -0.13303617 0.089311995 0.99493897 0.046041541 0.0011292684
-0.12296659 -0.32126272 -0.13635764 0.035468422 0.99812675 0.04984853 0.0019560917
-0.11475746 -0.32148385 -0.13432878 -0.022876298 0.99843901 0.050952945 0.0024559826
0.0075642848 -0.32846147 -0.13864714 -0.38218051 0.92260915 0.052254725 2.4287056e-05
0.012391067 -0.32680631 -0.13257331 -0.38216776 0.92261261 0.052285444 0
0.021308389 -0.32287484 -0.13677034 -0.38216469 0.92261112 0.052334648 0
-0.28571373 -0.31084916 -0.13775145 0.44007304 0.89710331 0.039260689 0.0014555568
-0.27462214 -0.31550151 -0.13672733 0.38745603 0.92044187 0.051619284 0.00011047497
-0.26629037 -0.31899917 -0.13590616 0.38218033 0.92260635 0.052304991 0
-0.2019392 -0.31068143 -0.13392982 0.25132248 0.96638668 0.054165032 0.0029319297
-0.198053 -0.31167704 -0.13010798 0.21901664 0.97468853 0.044877693 0.0021637368
-0.1856592 -0.31309146 -0.13463929 0.16819301 0.9843483 0.052626368 0.0009186003
-0.16792129 -0.31527802 -0.13774075 0.13042378 0.99032003 0.047496535 4.8450893e-05
-0.14456603 -0.31834537 -0.13789594 0.13034794 0.99033183 0.047458451 0.00011498282
-0.097824723 -0.31960404 -0.1305456 -0.12144384 0.99136651 0.049435079 0.00014818872
-0.081502736 -0.31731078 -0.13355786 -0.13040152 0.99032342 0.047487229 4.1097246e-05
-0.053853318 -0.31359538 -0.13512802 -0.14494652 0.98782259 0.056543358 0.000359192
-0.035604708 -0.31107387 -0.13761054 -0.29390389 0.9552449 0.033580061 0.0022211361
0.035184316 -0.31715018 -0.13636556 -0.38275346 0.92236245 0.052415062 4.7933834e-05
0.044626672 -0.31329998 -0.1352901 -0.40474883 0.91274893 0.05538734 0.0005772686
0.050330278 -0.31111789 -0.13210608 -0.43855169 0.89705312 0.054479662 0.0016749676
-0.29017341 -0.30914178 -0.1352828 0.44264534 0.89576828 0.040796787 0.0014706242
-0.22493529 -0.3009637 -0.13896278 0.38199338 0.92294556 0.047462564 0
-0.21634699 -0.30450374 -0.13929966 0.36617497 0.929519 0.043707449 0.00038313173
-0.20632602 -0.30871314 -0.13816127 0.30600655 0.95093727 0.045588728 0.0023601151
-0.014229169 -0.30276355 -0.13342567 -0.36847475 0.928792 0.039644796 0.00023674945
-0.0089105517 -0.30069512 -0.13080913 -0.38039413 0.92361975 0.047189694 1.5652238e-05
0.058812395 -0.30743572 -0.13508412 -0.49094284 0.86940092 0.055830762 0.0023750912
0.063369811 -0.30435595 -0.13278703 -0.51805723 0.85384363 0.050673798 0.002446729
-0.23345207 -0.29754132 -0.13691416 0.38230848 0.92281264 0.047508381 0
-0.0028590304 -0.29788941 -0.13662292 -0.3822794 0.92282665 0.047470443 3.7593134e-05
0.0069576739 -0.29392317 -0.13467978 -0.38225287 0.92283702 0.04748245 0
0.076367691 -0.29395583 -0.13925028 -0.60690653 0.79309303 0.051652849 1.0572292e-05
-0.32738715 -0.28238195 -0.13426 0.6079514 0.79225516 0.052218601 1.0824618e-05
-0.31951314 -0.28851002 -0.13295464 0.60790664 0.79228383 0.052306212 9.2535352e-05
-0.27414462 -0.28095722 -0.13164073 0.4581804 0.88769948 0.045390438 0.0018762172
-0.26296303 -0.28543359 -0.13465814 0.40671799 0.91189533 0.055020943 0.0004471679
0.017971126 -0.28917897 -0.13822238 -0.38225433 0.92283612 0.047488432 0
0.033843838 -0.28280962 -0.1342314 -0.42702183 0.90291506 0.048957225 0.0018133357
0.091252849 -0.28273326 -0.1362312 -0.60794675 0.79225242 0.052314017 0
-0.33158728 -0.27931848 -0.13184448 0.60792482 0.79227191 0.052274678 3.0937335e-05
-0.28374571 -0.27514097 -0.13343501 0.52512234 0.84963274 0.04869042 0.002781068
0.048536122 -0.27485913 -0.1343303 -0.53581053 0.84320337 0.043762881 0.0015543116
0.095482826 -0.27932763 -0.13865378 -0.60793221 0.79226416 0.052307405 0
0.10384326 -0.27319753 -0.13433382 -0.60791516 0.79227972 0.052269083 0
-0.3535251 -0.26242453 -0.1327607 0.61883098 0.78377384 0.052408896 0.00032186383
-0.30243441 -0.26040754 -0.13999519 0.60811687 0.79242551 0.047494233 0
-0.29335874 -0.26772887 -0.13403174 0.59203047 0.80428874 0.051181786 0.00039294441
0.057970904 -0.26753634 -0.13571924 -0.5831064 0.81114656 0.045036167 0.00055640191
0.067292124 -0.26026952 -0.13762842 -0.60808837 0.7924484 0.047476903 1.2486123e-05
-0.36412176 -0.25410709 -0.135585 0.66551232 0.74391192 0.060731824 0.0013689499
-0.35747075 -0.25923964 -0.13514492 0.63279772 0.77223516 0.056744013 0.0008208123
-0.31337398 -0.25216928 -0.13739267 0.60819083 0.79236931 0.04748353 0
0.076446131 -0.25324234 -0.13767968 -0.60807776 0.79245216 0.047550201 0
0.12576854 -0.25626644 -0.13595876 -0.66371632 0.74531817 0.063098602 0.0019379315
0.13229442 -0.25100252 -0.13984472 -0.69787616 0.71424764 0.05309628 0.0021378577
-0.37315768 -0.24500635 -0.13176502 0.73462927 0.67694026 0.045516536 0.0018189193
-0.32488358 -0.24362874 -0.13253386 0.60814786 0.79240489 0.047441289 0
0.082737029 -0.24848802 -0.1364634 -0.60808402 0.79245079 0.047492273 0
0.092588522 -0.24074939 -0.1394565 -0.61620468 0.7862094 0.046547897 0.00021910267
0.14021732 -0.24120183 -0.13711002 -0.76272893 0.64447242 0.053851146 0.00069481786
-0.33542958 -0.2354245 -0.1344036 0.64061004 0.76552272 0.059947707 0.00091463473
0.14142869 -0.23962067 -0.13713859 -0.7627244 0.64447749 0.053854432 0.00066861016
-0.35096437 -0.22051677 -0.13496949 0.74876356 0.66043204 0.056415714 0.0012191271
0.11341906 -0.22308451 -0.1361049 -0.73487705 0.6769594 0.041008759 0.0020842955
0.15345126 -0.22416882 -0.13462375 -0.79228532 0.60790664 0.052283436 1.3740588e-05
-0.39618796 -0.21477681 -0.13427554 0.79228169 0.607912 0.052275587 5.8856305e-05
0.11862299 -0.2165653 -0.13274045 -0.7582249 0.65018016 0.048587047 0.0015383833
-0.40101945 -0.20836993 -0.13555937 0.7921738 0.60804546 0.052359674 0
-0.3600896 -0.20866935 -0.13439611 0.7923969 0.60815251 0.047514282 0
0.12600487 -0.20665973 -0.13639438 -0.7918393 0.60886395 0.047700398 0
0.13049459 -0.20116261 -0.13186079 -0.79247254 0.60805517 0.047498044 3.3932565e-06
0.16725744 -0.20614359 -0.13500352 -0.79224885 0.60795212 0.052306566 7.7712166e-06
0.17169318 -0.20022643 -0.13658991 -0.79285479 0.60715353 0.052401803 0
-0.41218168 -0.19347742 -0.1395784 0.80341929 0.59286475 0.055034377 0.00046605698
-0.40889663 -0.19824535 -0.13391748 0.79261184 0.60750258 0.052029058 7.4701595e-05
0.17855397 -0.1913148 -0.13624617 -0.80177754 0.59552425 0.05003712 0.00026975694
-0.41612196 -0.18893899 -0.13263996 0.80843079 0.58507091 0.064278163 0.00066248112
-0.38008547 -0.18227026 -0.13874897 0.79238868 0.60816705 0.047466327 0
0.13963711 -0.18873325 -0.13845102 -0.79244393 0.60809135 0.047513817 0
0.14210317 -0.18579976 -0.1348609 -0.79244715 0.60808802 0.047502704 0
0.18675981 -0.1808316 -0.13379394 -0.85052001 0.52357131 0.049887624 0.0031769369
-0.38232714 -0.1798594 -0.13221075 0.80139077 0.59652239 0.043977011 0.00026213934
0.14968716 -0.17606148 -0.13299927 -0.79248321 0.60804278 0.047479339 1.7344653e-05
0.15100348 -0.17381386 -0.1398145 -0.79604977 0.60312074 0.050499365 0.00010508564
0.18849345 -0.17829159 -0.13592428 -0.85474193 0.51612371 0.055069827 0.0031549344
0.19144526 -0.17239064 -0.13449173 -0.89012957 0.45295471 0.050014358 0.0024707566
-0.39636409 -0.16138878 -0.13448152 0.8671152 0.4965699 0.039108947 0.0028837088
0.15631065 -0.16752693 -0.1317527 -0.83247674 0.55213094 0.046193935 0.0023402837
0.19560264 -0.16192679 -0.13761334 -0.91252363 0.40538213 0.05446101 0.00059254433
-0.40125784 -0.15036729 -0.13063172 0.91776007 0.39501429 0.040991254 0.00025307067
-0.39919916 -0.1553452 -0.13056874 0.88631028 0.46177277 0.034928672 0.0026557657
0.19680032 -0.15968949 -0.1328312 -0.91469538 0.40076026 0.0521877 0.00041063805
-0.43756327 -0.14659058 -0.13582821 0.92257601 0.38225019 0.05232821 6.3193744e-05
-0.40319175 -0.14493282 -0.13679501 0.91884989 0.39245421 0.041165862 8.6258588e-05
0.20255408 -0.14582479 -0.1326407 -0.92262334 0.38214511 0.05226174 1.0477542e-05
-0.4434067 -0.13251406 -0.13560349 0.92258209 0.38224137 0.052286223 0.00012620828
-0.40798786 -0.13381118 -0.13311425 0.9226532 0.38269979 0.047454666 0
0.20838915 -0.13111292 -0.13720743 -0.92262203 0.382144 0.052293308 0
-0.44662082 -0.12546098 -0.13043846 0.92259288 0.38220975 0.052326832 0
-0.41165578 -0.12415329 -0.1395767 0.92283428 0.38225713 0.047502488 1.0393828e-05
0.17610337 -0.12482462 -0.13505527 -0.92283815 0.3822518 0.047469001 3.9423932e-05
0.21154176 -0.12386215 -0.13457398 -0.92261231 0.38216618 0.052301917 0
-0.45124257 -0.11369421 -0.13488963 0.92556953 0.37485638 0.052949876 0
0.18043262 -0.11449723 -0.13405372 -0.92282891 0.38227499 0.047461886 7.0256069e-06
-0.45300245 -0.10962777 -0.13355659 0.92856622 0.36700505 0.055425696 0.00010018385
-0.42031637 -0.10427375 -0.1312926 0.92427343 0.37874579 0.047646631 0
-0.41843787 -0.10822558 -0.13598828 0.92359251 0.38039246 0.047733199 0
0.18428218 -0.10563641 -0.13056925 -0.92745489 0.37046021 0.050858743 0.00016098909
0.22007392 -0.10345218 -0.13319606 -0.94130266 0.33277357 0.056666214 0.0012198748
-0.46041605 -0.091236547 -0.13437015 0.96029812 0.27535081 0.044828042 0.0029721633
-0.42309478 -0.097203121 -0.13421492 0.93811792 0.34343329 0.044590242 0.00099264586
0.18934801 -0.092740104 -0.13593325 -0.94346744 0.32812765 0.046919238 0.001082546
0.22368869 -0.094838023 -0.13237238 -0.95863986 0.27638906 0.067961082 0.0022056438
-0.46092135 -0.086781569 -0.13590878 0.96628267 0.25307253 0.047456268 0.0030285008
-0.42889535 -0.082054876 -0.13643408 0.96365398 0.26450139 0.037551593 0.0031556045
0.19363403 -0.080554515 -0.1354467 -0.97333997 0.22696424 0.03311304 0.0018058051
0.22589588 -0.083121069 -0.13591619 -0.9813686 0.18290341 0.058838442 0.00134946
-0.43061668 -0.070948519 -0.13104618 0.98403347 0.17247786 0.043927461 0.0011689897
0.19453098 -0.074522823 -0.13330129 -0.98020226 0.19456798 0.03669817 0.0013398323
0.22718459 -0.073591888 -0.13526887 -0.98827827 0.1448199 0.048305344 0.00020802302
-0.43145671 -0.063370772 -0.13433339 0.98882204 0.14059126 0.049648285 0.00013812592
0.22819144 -0.06611269 -0.13484907 -0.98930466 0.13618039 0.052260939 6.6405097e-05
-0.43215257 -0.057337224 -0.1363872 0.99019033 0.13181561 0.046345245 0
0.19748801 -0.053157654 -0.13029207 -0.99032414 0.1303883 0.04750827 0
0.22895613 -0.058630776 -0.13902089 -0.98799264 0.15032998 0.035655901 0.0016016375
-0.46655256 -0.042674582 -0.13923414 0.99008805 0.13038555 0.052203123 0.00011815434
-0.43349671 -0.048040729 -0.13387957 0.99032444 0.13038117 0.047519848 0
0.19807774 -0.046144437 -0.13725013 -0.99032813 0.13037774 0.047452718 1.7224902e-05
0.44718659 -0.045178574 -0.13297719 -0.63663173 -0.75025624 0.17836936 0.067297325
0.45957249 -0.046484794 -0.13379595 -0.29999661 -0.95076084 0.077819616 0.093596876
0.47655636 -0.046484798 -0.135236 -0.5144276 0.83405882 0.19927409 0.11011376
-0.46798348 -0.031645134 -0.13963422 0.99009019 0.13036567 0.052213568 7.4543481e-05
-0.4343915 -0.039501593 -0.13866495 0.99032807 0.13037126 0.047472611 0
0.19968982 -0.036045544 -0.13135682 -0.99032503 0.13038117 0.047508642 0
0.23229143 -0.033931039 -0.13743985 -0.99013299 0.13981707 -0.009374232 0.011311689
0.4452728 -0.034045506 -0.13434976 -0.951855 -0.21516922 0.2183446 0.029027471
-0.46897167 -0.025944233 -0.13513365 0.99042147 0.12783565 0.05218498 0
-0.43643314 -0.024204735 -0.13808538 0.99105442 0.12425116 0.048711292 0
0.20072244 -0.026252307 -0.13671105 -0.99032724 0.13037427 0.047481723 0
0.2330403 -0.029562915 -0.13414784 -0.99232787 0.11973962 -0.030785473 0.0090662949
0.44510844 -0.028503016 -0.1349944 -0.95389819 -0.19740501 0.22607419 0.026726276
-0.47055852 -0.014927126 -0.13255057 0.99443918 0.088073552 0.05774007 0.00097778812
-0.43845141 -0.010526381 -0.13354981 0.99527925 0.083295152 0.049810641 0.0010238794
0.44527894 -0.011803241 -0.13432571 -0.96699047 0.0012495614 0.25480959 9.9191522e-05
0.47893471 -0.017456926 -0.1394558 -0.96944714 0.019857401 0.24449547 0.00074303435
0.20417555 -0.00090172992 -0.13429929 -0.99866885 0.0078727156 0.050975643 0.0024351212
0.23621562 -0.0055586929 -0.13386187 -0.99687958 0.078088321 -0.011544641 0.012175139
0.44531304 -0.006134944 -0.13419208 -0.96770203 -0.00027883123 0.25209683 7.251474e-05
-0.43908501 0.0055239685 -0.13407069 0.99848121 -0.018392434 0.051931355 0.0018344105
0.23584372 0.0084959762 -0.1335818 -0.99875408 -0.049902491 1.9031688e-05 0.0093389936
0.44451058 0.0085412338 -0.13733867 -0.96352351 -0.00055887748 0.26762292 9.4162147e-05
-0.47106299 0.0113953 -0.13180222 0.99635869 -0.061637826 0.058908112 0.0016274741
-0.43802643 0.014602982 -0.13121966 0.99415451 -0.092772461 0.055226434 0.00078278343
0.20268968 0.011322503 -0.13667634 -0.99494427 -0.093697466 0.0361492 0.00083968585
0.48062342 0.015567183 -0.13283379 -0.97123408 0.001289973 0.23812324 0
-0.46909446 0.025178432 -0.13471873 0.99025273 -0.12869205 0.053272538 4.4779856e-05
-0.43656501 0.024606995 -0.13423066 0.99032688 -0.13037655 0.047483481 0
0.23301648 0.02749582 -0.13975367 -0.99114221 -0.034216084 -0.12832133 0.039379682
0.47979355 0.026385959 -0.13608812 -0.95172673 -0.21237384 0.22161578 0.034309037
0.48130172 0.02764279 -0.13017406 -0.93802422 -0.30532673 0.16396993 0.04495937
-0.46778363 0.036712419 -0.13078487 0.99008739 -0.13033785 0.052335031 8.1347625e-06
0.19975831 0.035181042 -0.13230281 -0.99032724 -0.13037643 0.047475941 0
0.23271501 0.033652425 -0.13011244 -0.99235034 -0.12137648 -0.022553286 0.0075302487
0.444635 0.032999482 -0.13685077 -0.90233129 0.30014676 0.30937064 0.05557093
0.47967622 0.038930725 -0.13654812 -0.81988555 -0.56640118 0.083530813 0.074260451
0.19804162 0.047335554 -0.13473305 -0.99032557 -0.13038306 0.047491632 0
0.45358917 0.046484832 -0.13355096 -0.32221407 0.94657147 0.013441182 0.08318349
0.46772531 0.046484832 -0.13764237 -0.25683209 -0.95966166 0.11439778 0.10317904
0.47836509 0.046484828 -0.13092256 -0.59420526 -0.80030012 0.080248326 0.067202948
-0.46472627 0.059709881 -0.13134728 0.99007463 -0.13040589 0.052407011 0
-0.43294919 0.053590585 -0.13006037 0.99032718 -0.13037655 0.047477912 2.9105437e-05
-0.43122768 0.065134048 -0.13426915 0.9863838 -0.1589468 0.042224839 0.00061962445
-0.46269959 0.07333602 -0.1357553 0.98487866 -0.16514756 0.052347556 0.00038854932
-0.42948359 0.076935515 -0.13824017 0.97353154 -0.22683367 0.027977353 0.0017115943
0.19419512 0.07722839 -0.13287689 -0.97236377 -0.22296995 0.069231637 0.0018416338
-0.46134269 0.083572231 -0.135931 0.97923923 -0.198552 0.040836751 0.0016736902
-0.42796564 0.085618794 -0.13280691 0.96241087 -0.268356 0.041837495 0.0024696286
0.19146949 0.087735362 -0.13499202 -0.94550091 -0.32106963 0.054242585 0.0016281251
0.22628772 0.081024908 -0.13372158 -0.98075831 -0.18957421 0.046632942 0.001635527
-0.42420778 0.093883984 -0.13930486 0.93887824 -0.33995682 0.054193199 0.0012254904
0.18775216 0.097289264 -0.13032731 -0.93609637 -0.34910902 0.042972025 0.0007922657
-0.4216125 0.10090275 -0.13324074 0.92757648 -0.37061805 0.047372274 0.00037042235
0.18546437 0.10181527 -0.13835573 -0.9334569 -0.35642394 0.040252395 0.00046419183
0.21712013 0.1097939 -0.13896678 -0.93183893 -0.35871246 0.054786429 0.0003892814
0.2206398 0.10196736 -0.13406378 -0.94353151 -0.32858989 0.042154096 0.0013250458
0.17878401 0.11823395 -0.1360139 -0.92283601 -0.3822529 0.047502358 0
0.18171671 0.11160748 -0.13236146 -0.92283309 -0.38225809 0.047517009 0
0.21416874 0.11748455 -0.13483371 -0.92344558 -0.38011524 0.052543472 2.8539833e-05
-0.44674113 0.1251141 -0.13085082 0.92259777 -0.38219967 0.05231512 8.3781502e-05
-0.41164225 0.12519942 -0.13141833 0.92282534 -0.38227752 0.047509789 0
-0.40976191 0.12890366 -0.13814339 0.92284054 -0.38224596 0.047469467 0
0.2111727 0.12495165 -0.13312301 -0.92261571 -0.38216159 0.05227676 4.516742e-05
-0.44088858 0.13868769 -0.13491404 0.92261547 -0.38216361 0.052265979 0
0.17227614 0.13401119 -0.13548368 -0.92283595 -0.38225687 0.047470443 6.6540233e-06
-0.4389863 0.14280215 -0.13840854 0.92261648 -0.38216978 0.05220224 9.9123652e-05
-0.40468973 0.14202373 -0.13109998 0.92266053 -0.38269299 0.047366835 0
0.16874933 0.142325 -0.13709933 -0.91880798 -0.39174044 0.048283849 0.00021591269
-0.43223971 0.15924421 -0.13727956 0.91589934 -0.39779335 0.053749248 0.00032375319
0.16295357 0.15660828 -0.1347561 -0.87446141 -0.48147053 0.059189387 0.0023081044
0.19854802 0.15509228 -0.13559459 -0.92086226 -0.3866187 0.05038444 4.5083812e-05
0.20076942 0.15039933 -0.13069631 -0.92261451 -0.38216308 0.052285627 7.7247605e-06
-0.42452002 0.17748816 -0.1356972 0.86125064 -0.50312221 0.071522117 0.0023587169
-0.3887198 0.17140126 -0.13383925 0.81949496 -0.5714826 0.042844154 0.0013575737
0.14850737 0.17727022 -0.13721114 -0.79851967 -0.60011917 0.047152311 0.00018982436
0.15003073 0.17531019 -0.13688736 -0.80431014 -0.59147966 0.056895658 0.00041763697
0.18969408 0.17615271 -0.1378967 -0.87137544 -0.48842442 0.04633034 0.0020568196
0.19135678 0.17285827 -0.13263494 -0.87454379 -0.48050147 0.065510266 0.0023265122
-0.42149436 0.18194777 -0.13252202 0.84624624 -0.52862692 0.066489853 0.0020769974
-0.41983396 0.18364388 -0.13796136 0.84229094 -0.53364813 0.075931422 0.0020477681
0.18224433 0.18657067 -0.13548839 -0.82388353 -0.56384534 0.057396963 0.001268144
-0.41198108 0.1943524 -0.13244423 0.80020279 -0.59717667 0.055276766 0.00022873173
-0.3702966 0.19541457 -0.13379157 0.79245937 -0.60807294 0.047491882 5.9432996e-06
0.13682951 0.19244191 -0.13781539 -0.79245281 -0.60808092 0.04749899 0
-0.40668136 0.20105885 -0.13477352 0.79273158 -0.60732192 0.052313719 7.5267177e-05
-0.36092597 0.2075628 -0.1346083 0.79130751 -0.60967016 0.046203244 2.1357053e-05
0.1294502 0.20219 -0.13613525 -0.79247367 -0.60805595 0.04747073 8.9970144e-06
0.16428484 0.20986941 -0.13672723 -0.79226804 -0.60793209 0.052249447 0
0.17020434 0.20263918 -0.13109612 -0.79229242 -0.607898 0.052276451 1.0433702e-05
-0.39332896 0.21883336 -0.13043176 0.79223305 -0.60797745 0.052251402 8.9600166e-05
-0.35385147 0.21658021 -0.13719918 0.76474309 -0.64221436 0.052238382 0.0017078493
0.12155282 0.21263787 -0.13413993 -0.77815652 -0.62698752 0.036866277 0.00064672524
0.16245627 0.21221918 -0.13711391 -0.79222459 -0.60798651 0.05227394 0
-0.38681731 0.22706135 -0.13343368 0.79225409 -0.6079517 0.05223259 0
-0.35105014 0.22014996 -0.1382369 0.76021641 -0.64743727 0.053814106 0.0015489679
-0.34547549 0.22789657 -0.13139077 0.69276619 -0.7184149 0.062888913 0.0024677024
0.1096008 0.2277481 -0.13857797 -0.70851648 -0.70492613 0.03291614 0.0025536909
0.14994282 0.22905333 -0.13099372 -0.79227579 -0.60792083 0.052261408 2.5157238e-05
0.15634963 0.22043553 -0.13411367 -0.79226106 -0.60793978 0.052265212 9.9649424e-06
-0.3832137 0.23139408 -0.13766195 0.79224581 -0.60795563 0.052311625 0
-0.33387786 0.23662353 -0.13426591 0.64362895 -0.76352447 0.052651156 0.0010542438
0.095440805 0.23856589 -0.13937132 -0.61688536 -0.78556252 0.048414446 0.0001508228
0.10287801 0.23318876 -0.13386965 -0.65939927 -0.75045025 0.044911791 0.0016213062
0.14276786 0.23839194 -0.13113302 -0.77650619 -0.62783611 0.053478278 0.00053133769
-0.3717674 0.24656558 -0.13470325 0.7315554 -0.67957622 0.054799482 0.0022510891
-0.32794872 0.24114789 -0.13468663 0.61167395 -0.78962529 0.048445527 4.6432244e-05
-0.31721917 0.24953853 -0.13205722 0.60809886 -0.79244012 0.047479268 0
0.088382959 0.24424624 -0.13495347 -0.60807812 -0.79245436 0.047507647 0
0.13561927 0.24744625 -0.13417874 -0.72575927 -0.68546587 0.058395956 0.0027332052
-0.36873579 0.25088596 -0.13040641 0.72229165 -0.68902302 0.059514735 0.0021783146
-0.30529785 0.25878859 -0.13034543 0.60799611 -0.79252011 0.047462177 5.8642836e-05
0.072533391 0.25631705 -0.13647333 -0.60808414 -0.79245007 0.047503911 4.3066925e-06
0.080342658 0.25040838 -0.13507763 -0.60806727 -0.79246408 0.047485981 0
0.12673379 0.25542909 -0.1374248 -0.67543 -0.73484057 0.06167426 0.0018437045
-0.35350817 0.26246923 -0.13228118 0.62304479 -0.78053242 0.050836496 0.00036429567
-0.34952974 0.26553181 -0.13213298 0.61670387 -0.78538048 0.053421743 0.00019608485
-0.30246451 0.26087782 -0.131762 0.60804486 -0.79248065 0.047495443 3.6305246e-05
-0.29324663 0.26771861 -0.13564076 0.59070086 -0.80549598 0.047419552 0.00043840706
0.057708021 0.26757228 -0.13848761 -0.59273398 -0.80414784 0.044862542 0.00034762523
0.063438803 0.2632193 -0.13774657 -0.60810173 -0.79243839 0.04747235 1.8456229e-05
0.11398462 0.26523679 -0.13704656 -0.61309642 -0.78823721 0.05286609 0.00012827234
-0.33225149 0.27848056 -0.1368196 0.60794091 -0.79225928 0.052279472 0
-0.28776667 0.27191591 -0.13576768 0.57413185 -0.81769693 0.041766148 0.00094727031
-0.27634257 0.27994406 -0.13364004 0.48998049 -0.87081963 0.039903287 0.0024372938
0.044591665 0.27767149 -0.13790858 -0.50958389 -0.8590048 0.04934594 0.0021321857
0.051951945 0.27219692 -0.13501877 -0.56176996 -0.82595146 0.047101852 0.0013386591
0.097806327 0.27762347 -0.13746187 -0.60794228 -0.7922588 0.052268811 2.7010865e-06
0.10107795 0.27539635 -0.13316865 -0.60794413 -0.79225725 0.052272353 0
-0.32545409 0.28390414 -0.13367131 0.60805166 -0.79217565 0.052258406 0
-0.31894401 0.28871414 -0.13648079 0.60799932 -0.79221594 0.052256934 0
-0.27268085 0.28141677 -0.13449587 0.46462351 -0.88487726 0.033425376 0.0013522076
0.026445195 0.28572264 -0.13717866 -0.41174963 -0.90967304 0.054379538 0.00087206502
0.037783597 0.28113708 -0.13502279 -0.45752919 -0.88690883 0.063717 0.0019994311
-0.30694932 0.29809052 -0.13386613 0.58225965 -0.81154418 0.048680007 0.0010754893
-0.25125208 0.29013565 -0.13755168 0.38222545 -0.92284846 0.047480416 7.1307563e-06
-0.0050045364 0.29880318 -0.13613665 -0.38226274 -0.92283255 0.047491062 1.3131666e-05
0.0056748027 0.29439503 -0.13583738 -0.3822543 -0.92283648 0.047482561 0
0.077620476 0.29310739 -0.13754112 -0.60625756 -0.7935102 0.052851923 0
-0.30101845 0.30287731 -0.13029152 0.54824513 -0.83460516 0.053493641 0.0024604599
-0.29418287 0.3073619 -0.13738641 0.46856469 -0.88074344 0.068834342 0.0029447668
-0.028211161 0.30826467 -0.13907163 -0.2974433 -0.95362639 0.046088722 0.0026706089
-0.015372297 0.30312204 -0.1356627 -0.378638 -0.92437422 0.04653509 3.8880749e-05
0.066706225 0.30177492 -0.13310464 -0.54941136 -0.83373857 0.05502009 0.0017134417
-0.28372639 0.31188059 -0.13407749 0.41053009 -0.91015613 0.055504855 0.00088149321
-0.27526808 0.31528449 -0.13583621 0.39330339 -0.91793454 0.052045196 0.00034407101
-0.26917601 0.31765532 -0.13852856 0.38219935 -0.9225986 0.052302081 0
-0.17256021 0.31497529 -0.13131802 0.13037756 -0.99032748 0.047466964 7.1317327e-06
-0.16989665 0.31525502 -0.13279794 0.13038795 -0.99032527 0.047484454 0
-0.15034565 0.31752619 -0.13911289 0.13036209 -0.99032885 0.047481537 1.2628812e-05
-0.14974466 0.31791413 -0.13267158 0.13037235 -0.99032724 0.047486182 0
-0.08546555 0.31769446 -0.13643853 -0.13036987 -0.99032718 0.047494337 0
-0.076676175 0.31660897 -0.13494477 -0.13039224 -0.99032533 0.047472544 0
