# .PCD v0.7 - Point Cloud Data file format
VERSION 0.7
FIELDS x y z normal_x normal_y normal_z curvature
SIZE 4 4 4 4 4 4 4
TYPE F F F F F F F
COUNT 1 1 1 1 1 1 1
WIDTH 586
HEIGHT 1
VIEWPOINT 0 0 0 1 0 0 0
POINTS 586
DATA ascii
-0.2694442 0.0079425275 0.25966495 0.22318758 0.97291541 0.060190488 0.011625288
-0.25069514 0.0054741679 0.25494948 0.66880363 -0.70760745 -0.22802067 0.24715601
-0.24670093 0.0035786005 0.25363612 0.87335342 -0.47734722 -0.096920013 0.21987973
-0.19255736 0.0072723376 0.25334764 0.99841875 -0.056213446 -0.00024618942 0.0017975372
0.44970486 0.0057603591 0.25195503 -0.99989355 -0.01402578 0.0040190173 0.0020454477
0.49935094 0.004930119 0.25464126 -0.99864036 -0.047941785 0.020473316 0.0013267798
-0.28502139 0.01139092 0.25036308 0.55064821 0.7684021 0.3261053 0.068575829
-0.2406303 0.018391322 0.25990528 0.9528659 -0.29888928 0.052075338 0.067443728
-0.19122824 0.017368093 0.25381175 0.99479157 -0.1018763 0.003299051 0.00053097709
0.44862813 0.013939161 0.25040007 -0.99628949 -0.085996859 -0.0034475008 0.0009463951
0.49760967 0.018156372 0.25853243 -0.99465144 -0.10271046 0.010909508 0.00045504089
-0.43143082 0.029268472 0.25814432 0.41678172 -0.88875055 -0.19082808 0.073189519
-0.29124603 0.023517314 0.25229117 0.77691472 0.30058649 0.55321896 0.054522134
-0.2395393 0.026678458 0.25700989 0.95949507 -0.28154635 0.010041122 0.02280025
-0.18992306 0.027281884 0.25275952 0.99144387 -0.1305339 1.6610595e-05 0
0.49662516 0.025634466 0.2515831 -0.99205774 -0.12577535 0.0014197438 1.6308488e-05
-0.46442747 0.03361256 0.25408566 0.53884423 0.84075886 -0.052644908 0.057377085
-0.44692248 0.031307984 0.25198609 -0.0026489112 -0.99999619 0.0007458796 0.015359043
-0.42260104 0.033729002 0.25487125 0.60670704 -0.76907116 -0.2010873 0.073626585
-0.23842286 0.035158582 0.25786379 0.99144429 -0.13053048 3.2039148e-05 4.0792576e-05
-0.18843886 0.038555499 0.2539106 0.991445 -0.13052464 -2.1945445e-05 7.4019545e-06
0.44571877 0.036037825 0.25517055 -0.99144053 -0.13055892 7.4960371e-05 7.4028183e-05
0.49477187 0.039711483 0.2523284 -0.99144572 -0.13052003 8.2521357e-05 0.00011944707
-0.47680789 0.04738703 0.25546756 0.98468274 0.088447668 -0.15025605 0.027437987
-0.29052866 0.04619921 0.25668013 0.80299634 -0.1457714 0.57788199 0.0057498184
-0.28844154 0.04153806 0.25129628 0.83038324 -0.14141588 0.53894824 0.0041367598
-0.18813369 0.040873628 0.25403726 0.99144346 -0.13053679 3.3881079e-05 2.860231e-05
0.44423753 0.047288939 0.25032511 -0.99144179 -0.13054977 8.7197892e-05 2.9078348e-05
0.49421796 0.043918941 0.25625682 -0.99144971 -0.13048954 -0.00018155319 2.7311549e-05
-0.47577986 0.054706037 0.25586504 0.98766434 0.041290164 -0.15104404 0.022571364
-0.41785383 0.0548384 0.25396448 0.96055788 -0.23517574 -0.14839424 0.011228235
-0.29140753 0.056183539 0.25935739 0.79167944 -0.14044906 0.5945735 0.0055684568
-0.28770423 0.058185317 0.25464553 0.83256263 -0.12322138 0.54005176 0.003504528
-0.18684739 0.050643984 0.25493234 0.99144286 -0.13054168 2.0894939e-05 3.9538708e-07
0.49243426 0.057467621 0.25418326 -0.9914422 -0.13054638 0.00010996249 0
-0.47517627 0.060089625 0.25521678 0.99317944 0.034136239 -0.11148703 0.021089671
-0.28702044 0.063054986 0.25454721 0.8388018 -0.11486898 0.53218102 0.002758014
-0.2348887 0.062003236 0.25508723 0.99144238 -0.13054538 -3.730361e-06 0
-0.18486474 0.06570372 0.25839615 0.9865303 -0.16307242 0.012859988 0.00087776221
0.44250542 0.060445517 0.25228316 -0.99060172 -0.13677493 0.00092301029 0.00011892107
0.49161303 0.063705176 0.25212148 -0.99144351 -0.1305362 2.6317575e-06 0
-0.47344348 0.073570989 0.25495753 0.97791815 -0.12968649 -0.1638826 5.5188366e-06
-0.41441739 0.075178981 0.25864053 0.97253937 -0.12201395 -0.19819123 0.00066891446
-0.28841034 0.077601418 0.25914073 0.77028215 -0.22814383 0.59549636 0.033412784
-0.23302895 0.076129422 0.25410914 0.99411607 -0.054242201 -0.093760543 0.037921239
-0.1836914 0.074616 0.25545788 0.97904223 -0.20216101 0.024640385 0.0018566761
0.4405677 0.07516405 0.2500349 -0.97725737 -0.21183746 -0.0096396971 0.0025320111
0.49043852 0.072626591 0.25078034 -0.99093038 -0.13437478 -0.00070455117 0
-0.41316199 0.087547794 0.25634134 0.98660225 -0.01143746 -0.16274248 0.010241944
-0.28567469 0.085143782 0.25630981 0.60480434 -0.41856864 0.67750424 0.061096024
-0.23134978 0.088883959 0.25976038 0.96694547 -0.22542049 -0.11917283 0.15123701
-0.181768 0.084608912 0.25689235 0.96072304 -0.27744821 0.0058047478 0.0018382896
0.43956077 0.082812436 0.2542578 -0.96006805 -0.27948558 -0.012539479 0.0027395943
-0.41260055 0.094594486 0.25408342 0.97855461 0.16622007 -0.12166318 0.049717747
-0.28143388 0.090741917 0.25007606 0.60450494 -0.60608429 0.5169484 0.05598345
-0.27617848 0.09667623 0.25569797 0.41844097 -0.86077803 0.2897729 0.051712759
-0.2696881 0.096863478 0.25647271 0.36459726 -0.89347261 0.26225084 0.053070739
-0.25853032 0.095394537 0.25138202 0.07028465 -0.99316311 0.093204312 0.048186596
-0.24295089 0.093343467 0.25149018 0.049691036 -0.99855429 -0.020500753 0.16442761
-0.23350991 0.092216171 0.25664657 0.9169609 -0.37440339 -0.13785823 0.19954312
-0.17835282 0.093453579 0.25329232 0.94787842 -0.31852686 0.0081873061 0.0012552233
0.43614712 0.091411501 0.25018296 -0.94460511 -0.32774922 -0.017365269 0.0019673423
0.48622358 0.098854579 0.25711179 -0.95749897 -0.2884258 0.0025054084 0.0021715576
-0.47020826 0.10110079 0.25255844 0.94708127 -0.2724883 -0.16966763 0.019204712
-0.41016528 0.10733226 0.25875813 0.87684989 0.44977877 -0.16980378 0.066252671
-0.22751899 0.10309434 0.25820485 0.94565958 -0.32515025 -0.0022787992 0.017109215
-0.17524152 0.10096489 0.25833917 0.93158275 -0.36351693 0.003022583 0.0003257413
0.42856032 0.10972761 0.25683236 -0.92415988 -0.3820059 9.5756921e-05 0
0.43226671 0.10077959 0.25586039 -0.92876571 -0.37066555 0.001175648 0.00040806894
-0.46583518 0.11701339 0.25610256 0.55130929 -0.83412969 0.016902652 0.071068041
-0.44068581 0.11937577 0.25588822 -0.095100828 -0.99540418 -0.011245032 0.008060636
-0.43067288 0.11805753 0.2587302 0.35228011 0.93520826 -0.035835538 0.039243739
-0.4224475 0.11697464 0.25380006 0.49750501 0.86475611 -0.068451956 0.063467734
-0.41969943 0.11661284 0.25372201 0.6383068 0.76594353 -0.076778024 0.075164258
-0.22174329 0.11703813 0.25777221 0.92609239 -0.37728515 -0.0029748429 0.00048770435
-0.16918947 0.11557586 0.25335631 0.92388284 -0.38267544 -3.792351e-05 2.9537651e-07
0.42609024 0.11569103 0.25431105 -0.92386466 -0.38271922 7.8868252e-05 9.3953568e-05
0.47798938 0.11873375 0.25467435 -0.92388499 -0.38267019 -2.0575686e-05 0
-0.45102239 0.1207366 0.25836265 0.12899126 -0.99135321 -0.02408685 0.044611786
-0.21884528 0.12403452 0.25809562 0.92388368 -0.38267341 -3.7546291e-05 1.5156998e-06
-0.16329426 0.12980816 0.25655699 0.92387414 -0.38269654 -1.8907547e-05 1.2407309e-05
0.47654724 0.12221538 0.2570633 -0.92387247 -0.38270047 -6.2013598e-05 0
-0.21603975 0.13080774 0.2597312 0.92387491 -0.38269466 -5.2397791e-05 0
-0.16171201 0.13362807 0.25824544 0.92388463 -0.38267109 7.5220632e-06 7.1379832e-06
0.4184007 0.13425517 0.25355405 -0.9238773 -0.38268864 4.0460844e-05 0
-0.21117547 0.14255108 0.25418529 0.92387789 -0.38268739 -5.1458293e-05 0
0.41296047 0.14738898 0.25485492 -0.91329819 -0.40724182 0.006366679 0.00060898776
0.41125712 0.15150124 0.25197542 -0.90446025 -0.42644915 0.00962984 0.00064283021
0.4646098 0.1510348 0.25746152 -0.92385358 -0.38274616 -2.0500076e-05 0
-0.20213974 0.16436528 0.25742021 0.9233579 -0.38394022 -0.00029175944 2.2566548e-05
-0.19996747 0.16960961 0.25127026 0.91512603 -0.40295035 0.013243402 0.0007382654
-0.1504731 0.16076119 0.25599003 0.87008834 -0.49289569 0.00026885531 0.0030336056
0.40271613 0.16700076 0.25411275 -0.84504026 -0.53468812 0.0039442051 0.0017672061
0.45874774 0.16518719 0.25300205 -0.9206146 -0.39046904 0.001616068 4.6834921e-05
0.4605262 0.1608936 0.25444785 -0.9239077 -0.38261551 -7.0927468e-05 0
-0.19655581 0.17784604 0.25605315 0.88680744 -0.46212322 0.0038420118 0.0018341844
-0.13791302 0.17723718 0.25685924 0.79433608 -0.60747796 0.00085242029 0
-0.19479012 0.18210882 0.25792611 0.88682449 -0.46209031 0.0038550724 0.0018386868
-0.13399351 0.18234518 0.25916022 0.79358244 -0.60846275 3.8108392e-05 0
0.39158547 0.1815065 0.25077328 -0.79334474 -0.60877264 -5.2864376e-05 0
-0.18494704 0.19661814 0.25400192 0.81833702 -0.57455713 -0.014440986 0.00076947693
-0.12407404 0.19527249 0.25756064 0.79334068 -0.608778 -7.1995011e-05 0
0.37917224 0.19768372 0.25990555 -0.79329777 -0.60883379 -9.3984185e-05 0
0.38208461 0.19388828 0.25664538 -0.7933501 -0.60876572 9.3026858e-05 1.2179367e-05
0.4443967 0.19335848 0.25840852 -0.83423924 -0.5510509 -0.019692164 0.00074864074
-0.1768737 0.20713952 0.25474074 0.79587227 -0.60545671 -0.0030630718 4.633826e-05
-0.11529069 0.20671917 0.25686884 0.79335302 -0.60876191 6.5314566e-06 1.0768084e-05
0.3732852 0.20535588 0.25614432 -0.79298097 -0.60924631 6.3645653e-05 6.0969629e-05
0.43669212 0.2033993 0.25995463 -0.79328287 -0.60885322 5.1260165e-05 0
-0.1080009 0.2162194 0.2502571 0.77070838 -0.63718647 -0.0014394475 0.00060794852
0.36561331 0.21535413 0.25642005 -0.78605193 -0.61814982 -0.0036316554 0.00020360645
-0.16464284 0.22307909 0.2592864 0.79336149 -0.60875082 -7.5760895e-06 5.8430001e-06
-0.10323036 0.2224365 0.25985357 0.72725445 -0.68636584 -0.0017153467 0.0020632825
0.35664767 0.22692201 0.25346923 -0.71906745 -0.6948632 -0.010346609 0.0022451817
0.41824579 0.22743896 0.25319856 -0.79333031 -0.60879153 7.0799724e-05 0
0.42064533 0.22431183 0.25563219 -0.79333913 -0.60877997 -1.440004e-05 0
-0.15413901 0.23676795 0.25024599 0.79336554 -0.60874557 1.7472321e-05 0
-0.094203472 0.23151952 0.2543242 0.66926062 -0.74296951 0.0092947315 0.0017173574
-0.085125178 0.23848553 0.25497907 0.62367541 -0.78168195 0.001533651 0.00045411059
0.4131901 0.23402771 0.25948268 -0.79332602 -0.60879701 1.9631914e-05 0
-0.15095071 0.24092302 0.25561956 0.79335833 -0.60875493 5.8036778e-05 1.6854721e-05
-0.14666024 0.24651447 0.25433248 0.78185415 -0.62346137 5.3773103e-05 0.00037763183
-0.076373339 0.24520105 0.25408286 0.60875273 -0.79335999 2.2403747e-05 6.3282582e-06
0.32799953 0.24928497 0.25802442 -0.60878837 -0.79333264 -1.4595314e-05 1.1582855e-05
0.40552175 0.24402125 0.25240463 -0.78783602 -0.61588401 0.0011699201 0.0002004757
-0.14240712 0.25205722 0.25101423 0.76061928 -0.64919108 0.0030274449 0.0011835042
-0.064187475 0.25455159 0.25719991 0.60876459 -0.79335088 7.1698625e-05 0
0.31526116 0.25905943 0.25643191 -0.6089322 -0.79322231 -4.5079953e-05 0
0.39925331 0.25219047 0.25883836 -0.76697105 -0.64167953 -0.0016771386 0.0008566613
-0.12579836 0.26918143 0.25474334 0.65739626 -0.75342411 0.013501458 0.0013114057
-0.045497894 0.26889265 0.2529833 0.5945732 -0.80403364 0.003566996 0.00041714098
0.3022899 0.26901266 0.25900528 -0.58637142 -0.81004119 -0.0013851826 0.00055534253
0.31224352 0.26137495 0.25996703 -0.60747778 -0.79433668 6.0275848e-05 0
0.38625574 0.26648891 0.25043151 -0.68433344 -0.72910333 0.0097950706 0.0019886123
-0.12168345 0.27233893 0.25652021 0.64764249 -0.76188731 0.0093189189 0.0013453987
-0.11771989 0.27538025 0.25657934 0.6113767 -0.79133976 -7.9608479e-05 5.3551794e-05
-0.0385199 0.27424702 0.25762439 0.53570783 -0.84427512 0.014724756 0.0015925149
0.28878653 0.27910268 0.25582498 -0.50114816 -0.86534148 0.0058776936 0.00339481
0.36913621 0.27962518 0.25053245 -0.60872656 -0.79338008 4.8950762e-05 0
0.3756825 0.27460206 0.25435495 -0.62665319 -0.77929205 0.0030981023 0.00030557584
-0.015482059 0.28590813 0.25417805 0.40659812 -0.9135924 -0.0051855361 0.0003025707
0.28236023 0.28179511 0.25798896 -0.46164578 -0.88705719 -0.0035649792 0.0024563011
0.35989368 0.28671727 0.25442791 -0.60877305 -0.79334438 0.00010310912 0.00010579954
-0.09426263 0.29337963 0.25388542 0.60876423 -0.79335117 4.72879e-05 9.4968291e-06
-0.087582268 0.29850566 0.25936431 0.60880005 -0.7933237 -4.6639492e-05 0
0.0057264641 0.29469299 0.25139248 0.38267288 -0.92388397 -7.4167016e-05 0
0.014382823 0.29827857 0.25627738 0.382698 -0.92387354 6.843661e-05 4.3768046e-06
0.26131806 0.29051104 0.25709671 -0.38289008 -0.92379391 8.064726e-05 0
0.34760571 0.29614615 0.25446838 -0.60869193 -0.79340672 1.4473088e-05 0
-0.074990839 0.30816743 0.25347269 0.60880011 -0.7933237 -2.3405997e-05 0
0.019048704 0.30021125 0.25446323 0.38271132 -0.923868 -7.2885407e-05 1.931218e-05
0.21856159 0.30822134 0.25404519 -0.28694078 -0.95788157 -0.011304427 0.0023127191
0.22765206 0.30445594 0.25999928 -0.35783431 -0.93375075 -0.0080043161 0.00042727109
0.33784437 0.30363628 0.25150228 -0.60870904 -0.79339349 2.188906e-05 7.2320319e-05
0.34054434 0.30156454 0.25764596 -0.60876411 -0.79335123 1.5902924e-05 3.1237811e-05
-0.07178551 0.31062695 0.254866 0.59314281 -0.80507201 0.0063783433 0.00035285403
-0.06704317 0.31426591 0.25928372 0.56509131 -0.8250221 0.003203487 0.00098949485
0.051978499 0.31191814 0.25651786 0.19517574 -0.98066306 0.014366198 0.0015579659
0.070129678 0.31430778 0.25709745 0.13484965 -0.9908635 -0.0022190195 6.1368191e-05
0.083763778 0.31610274 0.25373822 0.13053061 -0.99144429 -5.5663608e-05 1.0837719e-05
0.15349251 0.31869528 0.25519824 -0.13052589 -0.99144489 -2.6212818e-05 0
0.16522829 0.31715024 0.25370514 -0.1305047 -0.99144763 -3.2874963e-05 6.5908971e-05
0.17007758 0.31651181 0.25268209 -0.13052012 -0.99144572 -3.3652308e-05 0
0.1879445 0.31415957 0.25449255 -0.13053566 -0.99144357 0.0001027028 7.4712756e-05
0.19337277 0.31344497 0.25597081 -0.16217183 -0.98675704 0.0032873431 0.00051859929
0.20634735 0.31173679 0.25949204 -0.21768306 -0.97590148 0.015178643 0.0015167418
0.32320186 0.31487188 0.25872257 -0.56715316 -0.8234697 0.015324275 0.0012532329
-0.045655347 0.32656944 0.25352764 0.44420123 -0.89592564 -0.0015996343 0.0011643186
-0.039554901 0.32909632 0.25192833 0.38434076 -0.92319059 -0.001110736 6.9040354e-05
0.11498255 0.32021278 0.25262296 0.063757323 -0.99795359 -0.0048574028 0.0011130741
0.12882212 0.32194319 0.25361276 0.013691507 -0.99990624 0.00013149803 0.0014634212
0.13942102 0.32054782 0.25521356 -0.059435762 -0.99821812 -0.0052983798 0.0017659854
0.14165531 0.32025367 0.25914687 -0.078878105 -0.99688208 -0.002092717 0.0019511791
0.3028577 0.3264643 0.25508669 -0.44695523 -0.89443362 0.014815089 0.001434121
-0.034095153 0.33135784 0.25137216 0.38267544 -0.92388278 1.6178299e-07 5.0959143e-06
-0.017392887 0.33827615 0.25696647 0.38268536 -0.92387867 -1.2483998e-05 0
0.2729997 0.33883184 0.25563383 -0.38268426 -0.92387921 2.8871513e-05 3.0460866e-05
0.2861855 0.33337012 0.25358948 -0.38266084 -0.9238888 7.8989622e-05 0
-0.012576198 0.34027129 0.25463897 0.3826898 -0.92387688 -3.513453e-05 4.9380164e-06
-0.0056015085 0.34316033 0.25148171 0.38273838 -0.92385679 -5.5277233e-05 5.5620632e-05
0.003335298 0.34686202 0.2545414 0.38268587 -0.92387855 -6.1198974e-05 0
0.24729016 0.34948111 0.25637317 -0.37750509 -0.92600608 0.001630923 0.00012823478
0.25648776 0.34567133 0.25264022 -0.38277155 -0.92384303 -4.6489247e-05 0
0.26923394 0.34039167 0.252231 -0.38271391 -0.92386687 4.904731e-05 7.0367445e-05
0.026659841 0.35652339 0.257121 0.33458164 -0.94236636 0.00080967881 0.0010564713
0.21658283 0.35992607 0.25977471 -0.1818797 -0.98331666 -0.0028404691 0.0017325305
0.22606599 0.35824332 0.25177881 -0.28525883 -0.95844793 -0.0022104832 0.0027340364
0.2378401 0.35339546 0.25408739 -0.32664782 -0.94513756 0.0040169903 0.0013190543
0.062524706 0.36284339 0.25840309 0.13055342 -0.99144125 1.5419493e-05 4.92162e-05
0.087249905 0.36609852 0.25413951 0.13054964 -0.99144179 8.4893218e-05 0
0.094712004 0.36708093 0.25917637 0.13056202 -0.99144018 2.2560705e-05 5.4153625e-05
0.10251725 0.36810848 0.25508082 0.13052903 -0.99144453 4.9183651e-05 5.2660125e-05
0.11521553 0.36978024 0.25629967 0.08466392 -0.99640906 0.0010670898 0.0013302661
0.1423431 0.36969993 0.25628704 -0.07582096 -0.99712127 0.00053097802 0.0009544472
0.15381145 0.36819011 0.25689569 -0.13058853 -0.99143666 -8.7930042e-05 0
0.16216424 0.36709043 0.25992772 -0.13055624 -0.99144089 -0.0001875797 0
0.17426603 0.36549717 0.25303555 -0.13049857 -0.99144852 2.1110895e-06 0
0.18835491 0.36364236 0.25476506 -0.13050023 -0.99144828 -2.2742362e-05 9.5322075e-06
0.19046494 0.36336458 0.25774884 -0.13050424 -0.99144769 3.046259e-05 0.00010001005
0.2073836 0.36113715 0.2529867 -0.13502757 -0.99084067 -0.001527286 2.9326509e-05
0.21568525 0.36004424 0.25096348 -0.18202408 -0.98320997 -0.012856458 0.0014341513
0.12843361 -0.37136364 0.26274902 -0.00026325879 0.99946254 0.032780368 0.0021271093
0.1336489 -0.37084454 0.26275128 -0.0082510831 0.99931264 0.036140848 0.0019275215
0.046507183 -0.36073464 0.263796 0.18850751 0.98196328 -0.014597182 0.00097501127
0.061315928 -0.36268425 0.26481605 0.13050394 0.99144781 6.9578564e-06 2.3981878e-05
0.09373837 -0.36695275 0.26724041 0.13056692 0.9914394 6.4965076e-05 0.00012221682
0.10333914 -0.36821669 0.26465672 0.1293311 0.99160135 0.00048539881 1.6289043e-05
0.11013515 -0.36911142 0.26010457 0.11886779 0.99290878 0.0016257565 0.00014886356
0.14599791 -0.36921877 0.26251519 -0.1201387 0.99271619 -0.0090163797 0.00014184718
0.1554352 -0.36797631 0.26539367 -0.12953581 0.9915747 -0.0001051448 7.7949524e-05
0.19214952 -0.36314279 0.26558015 -0.13053901 0.99144316 4.0075527e-05 9.5062569e-06
0.20884877 -0.36094427 0.26094881 -0.15309148 0.98820454 -0.0038505225 0.00044856415
0.016347498 -0.35225192 0.26799592 0.37334907 0.92767316 0.0057439632 0.00018643163
0.023924284 -0.35539031 0.26330698 0.33539695 0.94206488 0.0047616377 0.0013017823
0.23915379 -0.35285133 0.26426494 -0.35612741 0.93443364 -0.0026462227 0.00057838205
0.24441396 -0.35067248 0.26941174 -0.3734588 0.92764473 0.0019319389 3.7028927e-05
-0.010045216 -0.34131962 0.26080823 0.38268152 0.92388034 4.9757975e-05 0
0.0031250506 -0.34677497 0.26993588 0.38268435 0.92387921 -9.9397739e-06 0
0.25390735 -0.34674016 0.26836446 -0.38270289 0.92387146 -2.9348776e-05 3.0952124e-05
0.2638661 -0.34261513 0.26651457 -0.38261047 0.92390978 -5.0084527e-05 2.7399099e-05
-0.035416491 -0.33081052 0.26004368 0.38886535 0.92129457 -4.3906846e-05 8.0940903e-05
-0.023760259 -0.33563867 0.26859716 0.38268271 0.92387974 -8.571059e-06 2.2240929e-06
-0.014089555 -0.33964446 0.26395229 0.38268721 0.92387801 -2.3773879e-05 0
0.27940091 -0.33618039 0.26520374 -0.38273445 0.9238584 -4.3188778e-05 0
0.28020579 -0.33584702 0.26800227 -0.38273537 0.92385805 -2.3115823e-05 0
-0.056611773 -0.32176104 0.2644223 0.48137888 0.87628758 0.019861057 0.0025864509
-0.041277893 -0.32838267 0.26376641 0.40333912 0.91503829 -0.004743448 0.00035576755
-0.039038271 -0.32931033 0.26662529 0.40027389 0.91637331 -0.0063908207 0.0003098874
0.11764378 -0.32056317 0.26219359 0.042468939 0.99904162 0.010595808 0.0019069641
0.12553349 -0.32160187 0.26559782 0.013633256 0.99971426 0.019634891 0.0016580526
0.13350919 -0.32132614 0.26768047 -0.036658652 0.99925685 0.011912147 0.0017905892
0.14319669 -0.32005075 0.26158163 -0.078836717 0.9968853 -0.0021153339 0.0011882513
0.3053 -0.32545266 0.26136154 -0.43803278 0.89895797 0.0013356796 0.0014250295
0.043628152 -0.31039238 0.26051503 0.26960933 0.96295547 0.0052456842 0.0019585227
0.065442652 -0.31369072 0.26624292 0.15071702 0.98856974 0.0037776018 0.00056269643
0.075498506 -0.3150146 0.26254758 0.13054933 0.99144185 6.7735658e-05 3.0750587e-05
0.083722055 -0.31609726 0.26426679 0.13052084 0.99144554 2.8220493e-06 1.0690611e-05
0.10359177 -0.31871316 0.2639645 0.13053268 0.99144399 0.00010339505 7.9107058e-06
0.14595598 -0.31968749 0.26741919 -0.095644876 0.99541384 -0.0017911062 0.00089335174
0.15001608 -0.31915295 0.26900131 -0.11461626 0.99340475 -0.0031649556 0.0002662873
0.16497853 -0.31718311 0.26953557 -0.13054009 0.99144304 1.7508333e-05 5.259918e-06
0.18703322 -0.31427956 0.26746109 -0.13530575 0.99080384 0.00025712306 5.3987853e-05
0.19188836 -0.31364036 0.26246032 -0.15142372 0.98845613 0.0050372574 0.00035364259
0.21372864 -0.31022322 0.26776409 -0.26496604 0.96424729 0.0044932603 0.0024958132
0.32621494 -0.31255987 0.26308155 -0.57951087 0.81496423 0.00066067011 0.00073088048
0.024201259 -0.30234551 0.26167834 0.37868521 0.92552555 -0.00019873818 4.3032054e-05
0.036751028 -0.30754375 0.266655 0.3022944 0.95302588 0.018965408 0.0022887159
-0.088382564 -0.29789159 0.26640156 0.60877454 0.79334325 2.627106e-05 0
-0.0049471036 -0.29027185 0.26027441 0.38268998 0.92387688 -3.4510529e-05 0
0.24132767 -0.29879132 0.26563436 -0.38270363 0.92387116 4.9603314e-05 4.0607021e-05
0.34752399 -0.29620886 0.261861 -0.6087932 0.79332894 -5.3328054e-05 0
0.35189056 -0.29285824 0.2620413 -0.60891008 0.7932393 -1.7784558e-05 0
-0.10475868 -0.28532574 0.26490298 0.60877341 0.79334408 -8.1805956e-06 0
-0.0092398711 -0.28849375 0.26005927 0.38976747 0.92091233 -0.0013326881 2.6913141e-05
0.28115302 -0.28229517 0.26345459 -0.441212 0.89736819 -0.0078904154 0.0015669212
0.35845894 -0.28781819 0.26600462 -0.60865229 0.79343712 -4.0869163e-05 3.8933591e-05
0.3625221 -0.28470039 0.26381844 -0.60859901 0.79347795 -0.00011818927 7.9059455e-06
-0.036354296 -0.27590871 0.26866087 0.52427852 0.85154599 0.0011991708 0.0015401632
0.29486561 -0.27470949 0.26742193 -0.55974132 0.82860905 -0.0098320702 0.0012363276
-0.12553643 -0.26938242 0.26399374 0.64987063 0.76000166 -0.0080997376 0.0014326692
-0.048934668 -0.2662555 0.26326787 0.60878664 0.79333401 6.7990622e-05 1.2360096e-05
0.30362618 -0.26798725 0.26581669 -0.59063691 0.80693531 0.0018341887 0.00039899172
0.31348398 -0.26042309 0.26782909 -0.60877007 0.7933467 0.00013675742 3.0594816e-05
0.38876718 -0.26456183 0.26606318 -0.72704285 0.68642271 -0.015249167 0.0020065648
-0.0624515 -0.25588366 0.26904401 0.60876113 0.7933535 -1.0189611e-05 8.3068317e-06
-0.058255602 -0.2591033 0.26621872 0.60876411 0.79335123 1.4562378e-05 0
0.32254303 -0.25347191 0.26241237 -0.60881126 0.79331505 -2.6717529e-05 7.7851255e-05
0.39627379 -0.25607347 0.26573479 -0.77240849 0.63512415 0.0015990408 0.00048151563
-0.14483681 -0.24889082 0.26397359 0.76724786 0.64123034 0.012428094 0.00091241626
-0.07880614 -0.24333429 0.26976913 0.60876703 0.79334915 5.161473e-05 1.205934e-05
0.32883549 -0.24864349 0.26577508 -0.60879451 0.79332799 -5.5015994e-06 5.8865469e-05
0.3370184 -0.2423645 0.26548901 -0.61004621 0.79236573 -0.00036731514 0
-0.15802753 -0.23170033 0.26509598 0.79336506 0.60874617 7.0419164e-06 7.0580563e-07
-0.092784718 -0.23260817 0.26619238 0.68241221 0.73071933 -0.019051217 0.0016684617
-0.084470741 -0.2389877 0.26815557 0.62252003 0.78260285 -0.0012810292 0.00055071327
0.34673157 -0.23491134 0.26366046 -0.63224763 0.77475172 -0.0047620507 0.00099646975
0.41327441 -0.23391785 0.26542509 -0.79335606 0.60875791 -0.00012908694 0
-0.16594858 -0.22137737 0.26349607 0.79336184 0.60875028 1.0486146e-05 1.8354796e-05
-0.10484704 -0.22032961 0.26276696 0.74017715 0.67240822 -0.0022430019 0.0016252314
0.35519585 -0.22840898 0.26523459 -0.71286398 0.70126969 -0.0067642117 0.0026234249
0.4168019 -0.2293207 0.26900601 -0.79324871 0.60889781 -1.1038221e-05 0
-0.17265129 -0.21264228 0.26242274 0.79335988 0.60875297 3.1715281e-05 2.0887401e-05
-0.10751595 -0.21685141 0.26345614 0.77248937 0.63502401 -0.00216642 0.00057219976
0.36296532 -0.21880503 0.26801372 -0.76250958 0.64694548 0.0063852319 0.0011881145
0.43138421 -0.21031667 0.26449764 -0.79336798 0.6087423 -1.0376266e-06 0
-0.17753775 -0.20627409 0.26769191 0.79606408 0.60521185 0.00075239234 7.1658076e-05
-0.11824574 -0.20286807 0.26529786 0.79335368 0.60876101 3.3834614e-05 6.4141232e-06
0.37110275 -0.20820013 0.26431942 -0.79173213 0.61086798 0.00076977973 0
0.4378967 -0.20182943 0.26877904 -0.80455256 0.59388143 0.00011314405 0.00033277806
-0.12502538 -0.19403271 0.26629719 0.79329181 0.6088416 -1.9550956e-05 0
0.38228989 -0.19362077 0.26745048 -0.79330343 0.60882658 -4.479591e-05 0
0.44590947 -0.19138703 0.26200491 -0.82917464 0.55891865 -0.0089034177 0.0017072394
-0.1927837 -0.18541831 0.26474908 0.86556935 0.50077397 0.00388978 0.002008138
-0.13360751 -0.18284822 0.26477128 0.79333943 0.60877949 1.8540311e-05 0
0.38917422 -0.18464889 0.26401493 -0.79330891 0.60881937 1.1957969e-05 2.744485e-05
0.45167333 -0.18226632 0.26660004 -0.87069225 0.49157515 0.015774939 0.0021847747
-0.1967764 -0.17731351 0.26145235 0.89968288 0.43650743 0.005654207 0.0013029652
0.39624476 -0.17543435 0.26224372 -0.81146872 0.58437103 0.0053878999 0.00049396616
0.45294881 -0.179187 0.26144305 -0.88469493 0.46606332 0.0099896118 0.002382315
-0.20382845 -0.16028836 0.26429448 0.92261177 0.38572973 -0.00027003273 3.7188674e-05
0.40319073 -0.16638221 0.26712736 -0.83413589 0.55155897 -0.00011658473 0.0013586441
-0.20740311 -0.15165837 0.26332304 0.92388958 0.38265926 7.5712001e-06 3.0495297e-05
0.40873173 -0.15759805 0.26678315 -0.87161821 0.49016535 -0.0044361465 0.0018532487
0.41001034 -0.15451123 0.26147121 -0.88197482 0.47128314 0.0035534024 0.0024770999
0.4639357 -0.15266231 0.26764083 -0.92388386 0.38267294 -1.9288296e-05 0
-0.20911372 -0.14752865 0.2631323 0.92388588 0.38266805 1.8903862e-05 1.0358038e-05
-0.15734084 -0.144181 0.26449028 0.91648489 0.40006581 -0.0016520583 0.00022202142
0.46783215 -0.14325546 0.26279074 -0.92387265 0.38269991 6.2742874e-05 0
-0.21406111 -0.1355845 0.26613599 0.92387193 0.38270178 3.3123255e-05 0
-0.16140154 -0.13437755 0.26777819 0.92387289 0.38269949 -6.6272762e-05 0
0.41823885 -0.13464585 0.26744729 -0.92385834 0.38273472 -0.00016956466 0
0.47166657 -0.13399829 0.2657724 -0.92385101 0.38275212 -2.1120135e-05 0
-0.21897824 -0.12371352 0.2636784 0.92387724 0.38268903 2.1416237e-05 2.650768e-05
-0.16516268 -0.12529735 0.26686046 0.92388117 0.38267958 2.5341458e-06 3.8730132e-06
0.4232209 -0.12261809 0.26679707 -0.92386609 0.38271588 2.1192887e-05 2.3899067e-05
0.47546339 -0.124832 0.26568371 -0.9238739 0.38269708 -0.00010037167 0
-0.22129391 -0.11812302 0.26603684 0.9282791 0.37188166 -0.0014179313 7.9624522e-05
-0.22608867 -0.10654748 0.2692875 0.93627304 0.35127088 -0.0012806266 0.00060146931
-0.1728279 -0.10679188 0.26064429 0.92578512 0.37804893 0.0010084464 1.1607944e-05
0.43243659 -0.10036945 0.26965475 -0.93251252 0.36101681 -0.0093446653 0.00031743466
0.4843848 -0.10329381 0.26238137 -0.95225126 0.30524969 0.0063338457 0.0020146153
0.4344233 -0.095573127 0.26784462 -0.93884391 0.34424949 -0.00802828 0.00064369687
0.48716483 -0.095859706 0.2648735 -0.96534497 0.26081729 -0.0091400808 0.002072315
0.43903205 -0.084446572 0.26568761 -0.95883191 0.28384703 0.0084960088 0.001740196
0.49047279 -0.072366282 0.26590639 -0.9909088 0.13453501 -0.00030682143 0
-0.23454908 -0.064582869 0.26379055 0.99144554 0.13052091 3.1450963e-06 0
-0.18516019 -0.063459441 0.26287067 0.99144787 0.13050362 1.7204455e-05 2.0021746e-05
0.44246906 -0.060721673 0.26411706 -0.99121845 0.13223435 -0.00027107168 4.2446278e-05
-0.18583868 -0.058305785 0.26277658 0.99144644 0.1305145 6.420022e-05 4.2830674e-05
0.44354904 -0.052518472 0.26824701 -0.99144542 0.13052228 1.7838267e-05 3.1749049e-05
0.49276125 -0.054983694 0.26273185 -0.99144632 0.13051488 3.8919636e-05 0
-0.23674464 -0.047905855 0.26372162 0.99144465 0.13052779 -3.7366669e-06 0
-0.18728754 -0.047300637 0.26422822 0.99144584 0.13051899 4.8874073e-05 2.4040713e-05
0.44460842 -0.04447173 0.26562145 -0.99144417 0.13053115 2.8727829e-05 3.7536935e-05
0.49367726 -0.0480261 0.26424688 -0.99143988 0.13056329 -4.4770615e-05 0.00010714216
-0.2384423 -0.035011057 0.26625389 0.99144506 0.13052511 2.2262077e-05 1.6353531e-05
-0.18934423 -0.031678662 0.26817551 0.99144584 0.1305186 4.2066982e-05 3.2319922e-06
0.44538492 -0.038573388 0.2603063 -0.9914453 0.13052252 -0.00010586022 0
-0.23926663 -0.028749343 0.26998314 0.9914456 0.13052016 9.9232879e-05 2.2653609e-05
0.44659826 -0.029357361 0.26922137 -0.99144435 0.1305299 8.1012349e-06 0
-0.24131095 -0.013221404 0.26407307 0.95942014 0.28059596 -0.02791003 0.034075495
-0.19180262 -0.013005345 0.26264471 0.9942956 0.1066567 0.00072218606 0.00057973102
0.44832629 -0.016231695 0.26445222 -0.99464738 0.10332436 -0.0008261801 0.00057111221
0.49800044 -0.015187971 0.26675272 -0.99458778 0.1038709 -0.0024251419 0.00037446481
-0.24268138 -0.002811837 0.26571572 0.97281635 0.22519971 -0.053976744 0.10298106
-0.19342774 -0.000661219 0.2657184 0.99953747 -0.0245208 -0.01798806 0.0019126583
0.44969299 -0.0058504553 0.26670113 -0.99923778 0.039010752 0.0014605424 0.0014628265
-0.26263055 0.0070454944 0.26298195 0.091262221 0.99315035 -0.072962366 0.099796943
-0.25612938 0.0061895982 0.26553547 0.20251188 0.97914976 -0.01596049 0.17080957
-0.24236114 0.0052443072 0.26612404 0.99822539 0.006827706 -0.059156671 0.12336913
-0.19290704 0.0046163583 0.26519608 0.99863094 -0.052301243 0.00090013724 0.0013192788
-0.30096632 0.017072916 0.2671048 0.64162284 0.50824052 0.57446641 0.11075732
-0.29382113 0.012633775 0.26393816 0.59883672 0.67340791 0.43349311 0.070314877
0.44863021 0.013923155 0.26674944 -0.99628705 -0.086061902 0.0023199331 0.0012215136
0.49804974 0.0148135 0.26336548 -0.99559331 -0.093077175 0.011427747 0.00043793491
-0.43003404 0.029084578 0.2680347 0.22988974 -0.97062236 -0.071013607 0.055832319
-0.42905486 0.02895567 0.26080278 0.41780862 -0.87417972 -0.24747866 0.077553235
-0.24031916 0.020754701 0.26413578 0.93486589 -0.35497078 0.0046438389 0.057735737
-0.18997729 0.026869999 0.26204348 0.99159497 -0.12938108 -5.0595525e-05 1.3346164e-05
0.44680536 0.027784396 0.26631099 -0.99144483 -0.13052662 -7.4305201e-05 0
0.49697936 0.022944026 0.26782739 -0.99143916 -0.13056929 -0.00020385963 0
-0.46949169 0.034279276 0.26102033 0.70173281 0.70616049 -0.094383992 0.081795633
-0.45044512 0.031771749 0.266307 0.24199831 0.96945399 -0.039946955 0.015994905
-0.44649529 0.031251743 0.26335552 -0.029757211 -0.99953252 0.007025172 0.014345543
-0.41915521 0.036007192 0.2612254 0.69741702 -0.67144233 -0.25054881 0.070055582
-0.29980132 0.038348701 0.26589864 -0.66172063 0.0013175762 -0.74974936 0.012528691
-0.23857069 0.034035675 0.26255032 0.99144417 -0.1305318 -4.9933144e-05 1.9716132e-05
-0.18854709 0.037733372 0.26894969 0.99144435 -0.13053018 -1.9540032e-06 0
0.44569272 0.036235586 0.2638945 -0.99144405 -0.13053215 -4.9321898e-05 3.8488572e-05
0.49511033 0.037140783 0.26716626 -0.99144304 -0.13054003 -7.489368e-05 4.6731453e-05
-0.47500715 0.045473047 0.26812249 0.88950121 0.39259872 -0.23378187 0.0457475
-0.41818807 0.04029271 0.26370946 0.8083539 -0.54155219 -0.23083584 0.065061606
-0.30351412 0.043430902 0.26985121 -0.64745826 0.061477657 -0.75961721 0.0063639423
-0.29935595 0.040999707 0.26580209 0.67038268 -0.043867376 0.74071771 0.0067391712
-0.23729055 0.043759316 0.26493424 0.9914453 -0.13052277 6.1982981e-05 8.1998242e-06
-0.186965 0.049750537 0.26308554 0.99144411 -0.13053174 2.3512703e-05 4.5005504e-06
0.44429275 0.046869598 0.26337093 -0.99144298 -0.13054073 0.00013987234 0.00014181963
0.49387902 0.046493467 0.26105696 -0.99144614 -0.13051639 -0.00011534151 0
-0.47480422 0.052449852 0.26371104 0.95132369 0.15102601 -0.2686533 0.037982743
-0.41591972 0.052734558 0.26681042 0.91514903 -0.26670298 -0.30227774 0.023562452
-0.30016342 0.050848883 0.26789588 0.65853745 -0.094731197 0.74656171 0.0050606495
-0.2978439 0.055000283 0.26610509 0.71368814 -0.11433992 0.69106847 0.0053665
-0.23527312 0.059083112 0.26514545 0.99144465 -0.13052782 -3.9361948e-05 0
0.44334549 0.054064296 0.26562479 -0.99144405 -0.13053232 5.3820164e-05 7.5556956e-05
-0.47333443 0.063764118 0.26358923 0.98242128 -0.059272125 -0.17701787 0.0062805647
-0.296931 0.067889221 0.26691991 0.68808967 -0.074788056 0.72176123 0.0053212391
-0.18455493 0.068056829 0.26162297 0.98591381 -0.16689943 0.010888167 0.00096976908
0.44150996 0.068006873 0.26361841 -0.98485833 -0.17334783 -0.0021517717 0.0014499218
0.49175549 0.062623188 0.26677069 -0.99144727 -0.13050815 -6.3955058e-06 3.8186787e-05
-0.41284046 0.077339955 0.26575214 0.94151878 -0.13111535 -0.31040484 0.0065068379
-0.29208234 0.071846791 0.26258165 0.77810645 -0.051569574 0.62601191 0.0064038197
-0.23281893 0.077724606 0.26691464 0.99513209 -0.096457385 -0.020202681 0.017014798
-0.18394586 0.0726832 0.26815549 0.98047978 -0.19627571 -0.011627339 0.0017868035
0.44058946 0.074998625 0.2691476 -0.98385519 -0.178819 0.0072653503 0.001120802
0.48954991 0.079376161 0.26762077 -0.9893378 -0.14562877 0.001704685 0.00042936252
0.49030569 0.073635519 0.26557723 -0.99086499 -0.13482493 0.0029518637 3.1973689e-06
-0.4121564 0.085941471 0.26384422 0.96262646 -0.08576943 -0.25689271 0.0062122871
-0.29599175 0.086696841 0.26834705 0.54520637 -0.50392175 0.66993499 0.071481928
0.43894631 0.084653616 0.26869109 -0.96255761 -0.27105704 0.003309187 0.0027191094
0.48821056 0.089549571 0.26733324 -0.97809261 -0.20804499 0.0072148694 0.0025528702
-0.46976343 0.094909713 0.26032549 0.97541904 -0.14573993 -0.16528007 0.00048711954
-0.41196209 0.091097265 0.26085773 0.97754455 0.066335134 -0.20001592 0.031116908
-0.25803149 0.09532886 0.26169395 0.0053067254 -0.9979617 0.063594393 0.020061381
-0.2308283 0.093116023 0.26341587 0.95588189 -0.29300985 -0.020859299 0.083242595
-0.17950876 0.090662867 0.26712885 0.95536304 -0.29531258 -0.0084841261 0.001334299
0.43424553 0.096002266 0.26388359 -0.93915766 -0.34331033 -0.010994228 0.0014526539
0.48777962 0.092823148 0.26753819 -0.97543079 -0.22023322 0.0056759035 0.0022975591
-0.22561648 0.10768743 0.26731795 0.91439444 -0.4036665 -0.030597957 0.01169504
-0.17426832 0.10331436 0.26594755 0.92588764 -0.37779748 -0.0010167238 3.5967598e-05
0.43108898 0.10362296 0.26037285 -0.92419928 -0.3819105 0.00015699399 0.00011118294
-0.46476531 0.1149215 0.26815483 0.47943097 -0.87687719 -0.035104375 0.087442555
-0.4400636 0.11929385 0.26207051 -0.045388944 -0.99856514 -0.02841555 0.0088935513
-0.43667015 0.11884709 0.26008067 -0.1219802 -0.99253184 -0.0011623137 0.012670252
-0.42404121 0.11718445 0.26929814 0.41978008 0.89142841 -0.17070438 0.069505483
-0.41334146 0.1137888 0.26615906 0.65414745 0.69730961 -0.29300225 0.080072269
-0.22456613 0.11022313 0.2604481 0.91420525 -0.40481278 -0.018851407 0.010898131
-0.16737138 0.11996512 0.26079962 0.92387819 -0.38268679 2.8116248e-05 1.8111222e-06
0.42810434 0.11082849 0.26372588 -0.92386138 -0.38272727 4.7462847e-05 0
-0.45687559 0.12150718 0.26775408 0.30219781 -0.9531157 -0.015714152 0.054694425
-0.44860828 0.12041877 0.26287451 0.042898532 -0.99717182 -0.061710693 0.024198314
-0.21912739 0.12335347 0.2664986 0.92387992 -0.38268241 -1.4813568e-05 2.0082734e-05
-0.16479282 0.1261903 0.2654283 0.92388129 -0.38267928 -7.5965786e-06 1.0307906e-05
0.42311704 0.12286881 0.26178628 -0.92388761 -0.38266397 -2.1626245e-06 2.7479353e-05
0.4756678 0.12433852 0.26233292 -0.9238748 -0.38269478 2.5980897e-05 5.7111538e-05
-0.21483742 0.13371037 0.26153848 0.92388254 -0.38267606 -2.7224773e-05 0
0.47192794 0.13336733 0.2654109 -0.92387724 -0.38268894 1.0271943e-06 0
-0.21014011 0.14505067 0.26538572 0.92388058 -0.3826811 -2.6427162e-05 0
-0.15879272 0.14067583 0.26656055 0.92218816 -0.38673952 -0.0012144068 1.7297474e-05
0.41356432 0.14593112 0.2606824 -0.912552 -0.40893397 -0.0046766284 0.00041060962
0.46840948 0.14186177 0.26991764 -0.92388099 -0.38267985 -0.00017111379 0
-0.20498994 0.15748425 0.26680487 0.92347062 -0.38366902 -0.00013272175 1.8994337e-05
0.4110266 0.15205786 0.26855832 -0.90100718 -0.4337891 -0.0036344633 0.001196634
-0.15002599 0.16145122 0.2609286 0.86478275 -0.50187469 0.016511399 0.0031684691
0.40543345 0.16345945 0.26285982 -0.84706235 -0.53148139 0.003569304 0.0019408552
0.45879903 0.16506323 0.26723838 -0.92386466 -0.38271943 -3.7466794e-05 0
-0.19778727 0.17487311 0.26341048 0.891518 -0.45298514 -0.00029151779 0.0016306834
-0.14168781 0.17231776 0.26315862 0.80945498 -0.58718181 -0.00038780525 0.0008349141
-0.13968864 0.17492312 0.26514578 0.80498075 -0.59326595 -0.0064369002 0.00062617497
0.39472243 0.17741834 0.26385915 -0.79696482 -0.60401893 -0.0028650719 7.0502487e-05
0.45524317 0.1736479 0.26282489 -0.90497708 -0.42510185 -0.017461011 0.00074381026
-0.1934002 0.18478787 0.26534611 0.87128025 -0.49010077 0.025919152 0.0026917958
-0.13004577 0.18748999 0.26938882 0.79335493 -0.60875946 -4.3664231e-06 1.1945229e-05
0.38872084 0.18523976 0.26417714 -0.79334617 -0.60877067 -9.9608596e-06 0
-0.18579563 0.19551222 0.2688058 0.82450813 -0.56584698 0.0018767503 0.0012145182
-0.12736994 0.19097719 0.26603854 0.79333997 -0.60877883 -1.5108795e-05 1.8623565e-06
0.44372422 0.19423488 0.26577052 -0.82901061 -0.55918127 -0.0076008649 0.0013433967
-0.11746868 0.20388074 0.26651776 0.79336053 -0.60875213 -1.6024651e-05 3.1825468e-06
0.37541521 0.20257999 0.26671103 -0.79326135 -0.60888129 -4.2639011e-05 0
0.43336138 0.20773998 0.26517516 -0.79324663 -0.60890043 -7.6414552e-05 5.7940972e-05
-0.17296644 0.21223158 0.26698309 0.7933501 -0.60876572 5.1836283e-05 0
-0.16862129 0.21789427 0.26507837 0.79336435 -0.60874707 -5.6186433e-05 1.3696517e-05
0.36650485 0.21419226 0.26286346 -0.78643644 -0.61765683 -0.0042113615 0.00021715161
0.43117854 0.21058473 0.26638189 -0.79332584 -0.60879737 -0.00010349392 0
-0.16048974 0.22849151 0.26755649 0.79335493 -0.60875928 5.2483647e-06 0
-0.096568003 0.22970514 0.26652724 0.67632383 -0.73657936 -0.0060852906 0.0015959693
0.35980606 0.22292224 0.26512507 -0.73849994 -0.6742177 0.0069443765 0.0020318946
0.41891018 0.22657311 0.26560804 -0.79336226 -0.60874975 0.00011677365 4.2958312e-05
-0.15765886 0.23218077 0.26663572 0.7933585 -0.60875463 4.3387648e-05 2.712859e-06
-0.09097831 0.23399428 0.26226065 0.64871579 -0.76102829 0.0019159968 0.0011022156
-0.08595749 0.23784688 0.26517984 0.63216692 -0.77483082 -0.0015299979 0.00057532795
0.34411901 0.23691604 0.26417673 -0.63149112 -0.7753818 -0.0014177455 0.00041914464
0.41243371 0.23501343 0.26222816 -0.79330391 -0.6088258 -2.1138576e-05 0
-0.081697777 0.24111547 0.26747382 0.6170159 -0.78695041 0.00067193562 0.0002807249
0.33947027 0.24048313 0.26372272 -0.62283355 -0.78235185 0.0019879669 0.00017495059
-0.061906323 0.256302 0.26687711 0.60875756 -0.79335636 -2.6278363e-05 0
0.31487679 0.25935438 0.26699975 -0.60880816 -0.7933175 -7.3880889e-05 0
0.39418861 0.25879091 0.26373672 -0.71640402 -0.69768006 0.0028021638 0.0018197577
-0.1349158 0.26182011 0.26443678 0.72295648 -0.69084114 0.0085133342 0.0023270058
-0.12851846 0.26709422 0.26094329 0.68199039 -0.73131371 0.0083356267 0.0018703907
-0.055127833 0.26150328 0.26655233 0.60878074 -0.79333848 -8.0325757e-05 2.201234e-05
-0.049852546 0.26555115 0.26116374 0.60875797 -0.79335594 -1.7078366e-05 0
0.30413479 0.26759705 0.26953676 -0.58788133 -0.80894589 0.0014492627 0.00043630929
0.38515875 0.26733071 0.26759157 -0.65401572 -0.756401 0.010998157 0.0011207931
0.39290419 0.26046482 0.26816636 -0.71351981 -0.70054942 0.010956191 0.0017291867
-0.12172229 0.27230912 0.2624957 0.62154865 -0.78336513 -0.0040445998 0.00024515629
-0.11732743 0.27568141 0.26542529 0.62011915 -0.78450072 -0.0032971699 0.00016839826
-0.037107781 0.27533057 0.26365662 0.54170024 -0.84055537 0.0052357526 0.0017987569
0.28718403 0.27979702 0.26824567 -0.47259954 -0.88125777 -0.0058650165 0.0020975941
0.37209004 0.27735865 0.26277125 -0.6197173 -0.78481799 0.0033378056 0.00024345506
-0.018473823 0.28466892 0.264716 0.41131371 -0.91148913 0.0029342601 0.00037829336
-0.0089427764 0.28861681 0.26232898 0.38662964 -0.92223507 -0.00026308378 0
0.27286279 0.28572911 0.26934609 -0.38764113 -0.92181033 -0.00017094893 0.0001214094
0.35852686 0.28776604 0.26736471 -0.60871547 -0.79338866 1.1936399e-05 6.9332596e-06
-0.093386993 0.29405153 0.26791376 0.60877347 -0.79334408 -6.2475883e-05 0
-0.086403437 0.29941022 0.26909572 0.60880417 -0.79332054 0.00011528694 2.8655111e-05
-0.0017032474 0.29161552 0.26173478 0.38268134 -0.9238804 -1.4187764e-05 0
0.0053953789 0.29455584 0.26657248 0.38268438 -0.92387915 -2.2832046e-05 3.9230508e-06
0.24900407 0.29561168 0.26500928 -0.3827115 -0.92386788 -3.0260369e-05 2.1982249e-05
0.25479627 0.29321247 0.26657313 -0.38259614 -0.92391574 -2.0215033e-05 2.0079409e-05
0.019503994 0.30039981 0.26638639 0.3826772 -0.92388207 2.9570923e-05 0
0.034599043 0.30665237 0.2611987 0.34890717 -0.93714774 -0.0042274818 0.00081545656
0.041895062 0.3096745 0.26998323 0.26946145 -0.96301037 0.0012676332 0.003003831
0.21867609 0.30817392 0.26704988 -0.28360847 -0.95877296 0.017906763 0.0020727383
0.23580794 0.30107766 0.26501161 -0.38266563 -0.9238869 4.6761961e-05 0.00010398465
0.043105152 0.31017575 0.26798481 0.25593382 -0.96665555 0.0086571276 0.0028637655
0.067489013 0.31396013 0.26261467 0.14550646 -0.98934692 0.0045211324 0.00011216672
0.076833725 0.31519037 0.26144195 0.13051155 -0.99144679 -0.00013413916 0
0.086433887 0.31645429 0.26686662 0.13052377 -0.99144524 -2.6087475e-05 0
0.1062431 0.31906223 0.265578 0.11292455 -0.99360138 0.0021002677 0.00028976973
0.11019563 0.31958258 0.26688528 0.10328335 -0.99465168 0.00071958773 0.0004931094
0.16658251 0.31697196 0.26965222 -0.13048264 -0.99145061 2.2094577e-05 5.8622434e-05
0.18708228 0.31427312 0.26992631 -0.13054559 -0.99144226 9.6740159e-06 0
0.19281267 0.3135187 0.26274768 -0.15454817 -0.9879483 0.0085475547 0.00041079934
0.20634338 0.3117373 0.26301295 -0.21350525 -0.97687745 0.01122108 0.0016836321
0.32663843 0.31223494 0.26442671 -0.57882422 -0.81533259 0.013975873 0.00092563702
0.11444574 0.32014212 0.26152354 0.073720537 -0.99727142 0.0038688078 0.00090301345
0.13503826 0.32112482 0.26665279 -0.015965726 -0.99984843 -0.0069458508 0.001830004
0.1408909 0.32035428 0.26653975 -0.066808306 -0.99775219 -0.0052147494 0.0017196001
0.29662001 0.32904804 0.26968569 -0.39216051 -0.91989481 -0.0019414084 0.00016624929
0.30589119 0.32520774 0.26353791 -0.4536449 -0.89115828 0.006574932 0.0017291349
0.31040835 0.32333666 0.26682112 -0.46440634 -0.88555622 0.010816513 0.0020299
-0.032069501 0.33219689 0.26496369 0.38434523 -0.92318916 -0.00079294504 0
-0.022306152 0.33624101 0.26285058 0.3826873 -0.92387795 2.2274964e-05 1.326057e-05
0.27696732 0.33718842 0.26946068 -0.38265783 -0.92389011 -2.5236817e-05 3.361663e-05
0.25060597 0.3481077 0.26167619 -0.38255551 -0.92393249 8.2580693e-05 5.3560027e-05
0.016909072 0.35248449 0.26556098 0.35502446 -0.93485558 0.0016304081 0.00086482149
0.026332187 0.35638767 0.26462001 0.31742519 -0.9482789 -0.0028768557 0.0014015705
0.22587293 0.35835242 0.26476032 -0.2943629 -0.95560157 0.01327002 0.0019535196
0.23813456 0.35327351 0.26915288 -0.34533936 -0.93845367 0.0067461212 0.00076766708
0.043928266 0.36039513 0.26837608 0.18961124 -0.98178458 0.012110533 0.0013991344
0.065203585 0.36319605 0.26642525 0.13054134 -0.99144286 5.9464615e-05 2.6622798e-05
0.084097266 0.36568347 0.2685287 0.13053077 -0.99144429 2.609275e-06 1.9968989e-05
0.097904921 0.36750126 0.26157907 0.13054429 -0.9914425 9.6145937e-05 3.8723167e-05
0.10723694 0.36872986 0.26748568 0.13052748 -0.99144465 6.6553468e-05 4.0163486e-05
0.11625516 0.36991715 0.26875624 0.070049442 -0.99753368 0.0044327411 0.0013977936
0.17862462 0.36492336 0.26018181 -0.13050488 -0.99144763 -6.1805586e-05 0
0.18492614 0.36409375 0.26697725 -0.13049346 -0.99144918 1.7704397e-05 6.0036535e-05
0.19506341 0.36275914 0.26398933 -0.13051569 -0.99144626 -1.2278924e-05 0
0.21316707 0.36037576 0.26584268 -0.17443275 -0.98464799 0.0064458041 0.0013558805
0.12441772 0.37099177 0.26734897 0.039940026 -0.99919766 -0.0029548127 0.002081285
0.13680494 0.37042904 0.26238573 -0.067752585 -0.99769622 0.0034394634 0.0014713077
0.12370575 -0.37089801 0.27316415 0.04585674 0.9986769 0.023271175 0.0016955675
0.13694176 -0.37041101 0.27938014 -0.075255506 0.99714661 0.0059361411 0.0011044206
0.060001224 -0.36251116 0.27356526 0.1348729 0.99086285 -0.00038438538 0
0.077098072 -0.36476201 0.27691308 0.13052745 0.99144471 2.728097e-05 2.8851437e-05
0.090106234 -0.3664746 0.27694455 0.1305211 0.9914456 3.709997e-05 0
0.11424755 -0.36965281 0.27255812 0.10600977 0.99435878 0.0035348677 0.00052260805
0.1759856 -0.36527076 0.27365452 -0.13046105 0.99145347 1.0548614e-05 0
0.18865786 -0.36360246 0.27685314 -0.13047782 0.9914512 -6.0757586e-05 0
0.21369648 -0.36030608 0.27792329 -0.18934728 0.98188961 0.0063569495 0.0012437277
0.019669738 -0.35362801 0.27348346 0.34397659 0.93897623 0.0019213037 0.0012553742
0.029115673 -0.35754061 0.27203143 0.299288 0.95398211 -0.018569777 0.0022846153
0.030501656 -0.35811472 0.272203 0.27928084 0.95999432 -0.020324735 0.0026964869
0.22672814 -0.35799819 0.27640876 -0.28573877 0.95811349 -0.019286431 0.0018770965
0.23345013 -0.35521385 0.27301574 -0.31368175 0.94949847 -0.007514948 0.0013556401
0.24348706 -0.3510564 0.27869999 -0.38268209 0.92387998 7.8618265e-05 9.6352505e-06
-0.0026042275 -0.34440184 0.2727105 0.38268304 0.92387974 1.4623896e-05 0
0.0052976236 -0.34767488 0.27578861 0.38269171 0.92387605 -2.87522e-05 0
0.26690048 -0.34135824 0.27203178 -0.38261825 0.92390651 3.8750401e-05 1.4461945e-05
-0.026480112 -0.33451211 0.27664733 0.38273036 0.92386007 7.4239557e-05 3.3732082e-05
0.28208023 -0.33507058 0.2760475 -0.3827686 0.92384428 1.9591051e-05 9.6260028e-06
0.11833617 -0.32065427 0.27275869 0.052908123 0.99851948 0.012628821 0.0015649584
0.12193371 -0.32112795 0.27473909 0.024583424 0.99954277 0.017605888 0.0018671321
0.30646777 -0.32496893 0.27444434 -0.45001677 0.89301646 0.0025760506 0.0013694256
-0.064076722 -0.31654209 0.27467149 0.54416138 0.83896017 0.0058492427 0.0021204306
0.047414582 -0.31131729 0.27044836 0.23888274 0.97088516 0.017804498 0.0022303825
0.063910134 -0.31348899 0.2779111 0.15774219 0.98741412 0.01143319 0.0007905924
0.088445164 -0.31671906 0.27662486 0.13052824 0.99144459 2.7891825e-05 0
0.10415848 -0.31878778 0.27579784 0.126112 0.99201417 -0.0019032201 0.00013477753
0.11168814 -0.31977907 0.27592021 0.11366327 0.99350834 -0.0046695163 0.00027879851
0.15522486 -0.3184672 0.27222115 -0.13056283 0.99144006 2.2504748e-05 1.1794844e-05
0.16362368 -0.31736147 0.2766555 -0.13049197 0.9914493 -3.0247079e-06 6.1402311e-06
0.17410751 -0.31598124 0.27685153 -0.13053414 0.99144381 1.6343874e-05 9.6339309e-06
0.18817538 -0.31412917 0.27582106 -0.14135945 0.98995769 -0.0011379184 0.0001221562
0.21354829 -0.31029794 0.27312323 -0.24978881 0.9682951 0.003195527 0.0021884951
-0.080080859 -0.30426168 0.27310151 0.60877544 0.79334259 -3.9792617e-06 8.5321835e-06
0.035652414 -0.30708873 0.27720213 0.32004535 0.94739854 -0.0026587094 0.0022238835
0.21637569 -0.30912676 0.27663094 -0.28270626 0.95919615 0.0044739526 0.0024892273
0.22761302 -0.30447212 0.27400866 -0.37087798 0.92866862 -0.0049211415 0.00024816082
0.011415241 -0.29704934 0.27622911 0.38268623 0.92387831 -4.3721186e-05 0
0.24565938 -0.29699707 0.27290165 -0.38266379 0.92388773 -8.5673619e-06 9.1198417e-06
0.25960964 -0.2912187 0.27656251 -0.38270044 0.92387253 1.5099326e-05 0
-0.10265493 -0.28694004 0.27561134 0.60878259 0.79333711 -5.3216618e-06 0
-0.013854879 -0.28658211 0.2731221 0.39740944 0.91762477 -0.0055248756 0.00017044539
-0.0088089034 -0.28867224 0.27072483 0.38271719 0.92386562 -2.5600917e-05 2.8635166e-05
0.27479416 -0.28492907 0.2733748 -0.4136523 0.91042894 -0.0033116278 0.00040153167
0.36483923 -0.28292242 0.27249533 -0.608845 0.79328924 0.00011099263 3.0369352e-05
0.29506016 -0.27456021 0.27841085 -0.55367631 0.83272481 0.0034684176 0.0016459688
0.37497273 -0.27514666 0.278074 -0.6167587 0.78715128 0.0012143718 0.00028466596
-0.13221423 -0.26425835 0.27916306 0.7048493 0.70931637 -0.0076040761 0.0013636634
-0.12520522 -0.26963654 0.27961937 0.65266544 0.75761533 -0.0068494668 0.0011522388
-0.046465736 -0.26814994 0.27332768 0.59752953 0.80183876 -0.0036130112 0.00028533026
0.30380371 -0.26785105 0.27248099 -0.58273625 0.81264615 0.00496556 0.00057783595
0.3124778 -0.26119518 0.27292186 -0.6087482 0.79336339 1.9029407e-05 2.1771879e-05
0.38571629 -0.26690286 0.27647528 -0.6741513 0.73859322 -0.00011970993 0.002456404
-0.1378291 -0.25802341 0.2748948 0.72732425 0.68620908 0.010804173 0.001820256
