# .PCD v0.7 - Point Cloud Data file format
VERSION 0.7
FIELDS x y z normal_x normal_y normal_z curvature
SIZE 4 4 4 4 4 4 4
TYPE F F F F F F F
COUNT 1 1 1 1 1 1 1
WIDTH 588
HEIGHT 1
VIEWPOINT 0 0 0 1 0 0 0
POINTS 588
DATA ascii
-0.044087172 -0.25804609 -0.31431735 -0.26031259 0.90147537 0.34580278 0.092452437
-0.039856054 -0.25570881 -0.31580943 -0.30907363 0.9148162 0.25997084 0.090247005
-0.028802972 -0.25240186 -0.31256503 -0.32022768 0.89729869 0.30382445 0.084584713
-0.00064953556 -0.25432685 -0.31514123 -0.44376516 0.87097406 0.21089502 0.079197638
-0.26149896 -0.24821392 -0.31909212 0.36294371 0.86801344 0.33885774 0.085476667
-0.24031392 -0.24298561 -0.31757978 0.39329642 0.89410239 0.21424006 0.078233883
-0.23620255 -0.24640077 -0.31321055 0.37314162 0.9121598 0.16949868 0.080725573
0.014751501 -0.24701507 -0.31663191 -0.42835829 0.85080105 0.30437919 0.09362521
0.020377822 -0.2431455 -0.3179751 -0.47906512 0.83116239 0.28225097 0.088029228
-0.28427458 -0.23365203 -0.31730881 0.56582963 0.76329637 0.31179422 0.074320324
-0.26465467 -0.23432666 -0.31157357 0.43503106 0.84205341 0.31889513 0.094060041
-0.25398445 -0.23813225 -0.31551489 0.36676052 0.87434405 0.31781951 0.095175304
0.006993629 -0.23694724 -0.31416547 -0.39253861 0.8778758 0.27431291 0.088854648
0.017608054 -0.23112386 -0.31172863 -0.54983866 0.79404086 0.25918433 0.086605787
0.035625562 -0.23206113 -0.31662607 -0.59130776 0.7302348 0.34221649 0.086974017
-0.29489505 -0.22549546 -0.31732452 0.61122471 0.70321655 0.36316767 0.085128233
-0.28858718 -0.22946499 -0.31923243 0.55913675 0.75701529 0.33807388 0.078338243
0.01964193 -0.22961354 -0.31161836 -0.54539996 0.79877299 0.25396967 0.09085124
0.024886439 -0.22354326 -0.31610185 -0.58543533 0.76134783 0.27859461 0.085106693
0.043895572 -0.22666939 -0.31453541 -0.65302765 0.70394129 0.27932325 0.080732942
-0.31370592 -0.21293692 -0.31321463 0.46617481 0.8088116 0.35847557 0.080299675
-0.30860502 -0.21623984 -0.31455386 0.52002931 0.78248572 0.3424699 0.087609693
-0.29103267 -0.21453077 -0.31059909 0.61246943 0.74085754 0.27570143 0.090071209
-0.28520834 -0.21547505 -0.31832328 0.55168557 0.76995248 0.32064974 0.084874764
0.03982842 -0.21457055 -0.31063962 -0.63740987 0.70300359 0.31542796 0.067169428
-0.32538968 -0.20345969 -0.31433651 0.61184275 0.73320782 0.29674017 0.081829369
-0.30470192 -0.20274532 -0.31344053 0.45973963 0.78544056 0.4143942 0.082544379
-0.2994473 -0.20381415 -0.31993383 0.58473301 0.71371341 0.38561711 0.090935476
0.045202792 -0.20763344 -0.31680426 -0.65096217 0.70485932 0.2818183 0.066629805
0.055430286 -0.20044968 -0.31534904 -0.58389294 0.7667653 0.26672089 0.079169169
0.075243369 -0.20439732 -0.31063059 -0.56837082 0.75789547 0.32023278 0.08641658
-0.33268046 -0.19609347 -0.31259894 0.6790204 0.6393733 0.3607395 0.073160551
0.058391519 -0.19697271 -0.31798899 -0.50200105 0.83927089 0.20885262 0.080138534
0.063205451 -0.19551624 -0.31308609 -0.58509648 0.77003437 0.25437984 0.085682988
0.07907185 -0.19826329 -0.31438565 -0.62515235 0.72206587 0.29631972 0.10228205
0.08075434 -0.19699883 -0.31282485 -0.59894651 0.73863822 0.30931649 0.085064292
-0.34066945 -0.18374366 -0.3158583 0.72045165 0.54682535 0.42653427 0.077797964
0.06767872 -0.18812965 -0.31914389 -0.62292069 0.72396648 0.29638204 0.082110971
0.073363535 -0.18546055 -0.31117457 -0.58978069 0.7265113 0.3526189 0.085015193
0.089124635 -0.1868812 -0.31149521 -0.66680717 0.69246459 0.27542883 0.08012113
0.093524218 -0.18149811 -0.31090581 -0.73064488 0.61014897 0.30639267 0.085006975
-0.35205525 -0.17023519 -0.3136223 0.70752531 0.58055484 0.40294415 0.085530333
-0.34792915 -0.17429796 -0.31583256 0.77878422 0.46241057 0.42387691 0.079283573
-0.33106786 -0.17650607 -0.31182116 0.7601409 0.49007091 0.42663378 0.088180006
0.082122914 -0.17151284 -0.31543249 -0.69834399 0.6187343 0.35983816 0.087347031
0.096128158 -0.17687398 -0.31297502 -0.73645514 0.5743975 0.35735327 0.085514143
0.10094006 -0.17105725 -0.31221119 -0.71996033 0.62149471 0.30887121 0.090066932
-0.35201904 -0.16806297 -0.31735417 0.71659076 0.55981779 0.41605505 0.086579606
-0.33570951 -0.16660401 -0.31829971 0.77970028 0.46903431 0.41481838 0.083144464
0.087222442 -0.1647144 -0.31568912 -0.69622213 0.60756713 0.38227865 0.092045642
0.099600166 -0.16894025 -0.31870699 -0.73229903 0.55963373 0.38800538 0.093652017
0.10561274 -0.16509828 -0.3119916 -0.74688882 0.55800921 0.36163902 0.09006165
-0.36244649 -0.15782955 -0.31171119 0.75929391 0.51620537 0.39623833 0.10023915
-0.35950407 -0.15830503 -0.31735969 0.74301773 0.55570078 0.37298983 0.093323462
-0.34979713 -0.1516057 -0.31264827 0.72475988 0.55195397 0.41239536 0.091535665
0.094760977 -0.15570797 -0.3143138 -0.72967833 0.51448637 0.4504146 0.087030984
0.1139093 -0.15040469 -0.3185178 -0.77429855 0.48948732 0.4010784 0.083672844
-0.37214312 -0.14478287 -0.31240037 0.79381913 0.49835542 0.34855857 0.099106699
-0.35278752 -0.14647466 -0.31472296 0.74108565 0.52396488 0.41982472 0.086160369
0.10318194 -0.1430275 -0.31718242 -0.7900939 0.46582282 0.3984479 0.092398174
0.11865116 -0.14586616 -0.31575829 -0.79071879 0.45191461 0.41296124 0.093606286
0.12063515 -0.14124046 -0.31862491 -0.78947127 0.37698039 0.48437682 0.086369425
-0.37525713 -0.13585564 -0.31540149 0.88465273 0.34637445 0.31211254 0.091041982
-0.36345148 -0.13112897 -0.3132768 0.85568857 0.39075586 0.33927405 0.097990081
-0.35971239 -0.13969365 -0.31095034 0.79145992 0.50645065 0.34219712 0.10155669
0.11198117 -0.13421035 -0.31089243 -0.75462705 0.46131688 0.46660987 0.091050871
0.12398903 -0.13786402 -0.3136352 -0.82467425 0.38651732 0.41293681 0.090600044
-0.36668676 -0.12048175 -0.31627506 0.91408885 0.31027859 0.2610915 0.088395528
0.12844655 -0.12542303 -0.31541061 -0.86694461 0.28849867 0.40641794 0.081480645
-0.38368219 -0.11366507 -0.3173576 0.89048231 0.32827762 0.31507948 0.087219946
-0.3688224 -0.11482993 -0.31679931 0.90524596 0.33305967 0.26382014 0.095725991
0.11609557 -0.11726201 -0.31830764 -0.8795588 0.28234413 0.38295966 0.086178333
0.13449419 -0.11485461 -0.31114891 -0.87176126 0.31729588 0.37330365 0.083876669
-0.37216407 -0.10612591 -0.31747207 0.89173812 0.35233301 0.28401518 0.085509293
0.11967396 -0.10805272 -0.31891048 -0.85818011 0.38750756 0.33669686 0.088726468
0.12306844 -0.10494287 -0.31353542 -0.86890358 0.31691918 0.38022211 0.090264365
-0.37695137 -0.094090857 -0.31797677 0.83635664 0.46851298 0.28461057 0.084731169
0.12654242 -0.092556804 -0.31776255 -0.87402809 0.41722748 0.24899001 0.086014278
0.13926387 -0.099829428 -0.31485915 -0.87261003 0.3557165 0.33469012 0.081847027
0.14123453 -0.090766765 -0.31940967 -0.87594235 0.38302425 0.2932871 0.090495385
-0.37955126 -0.089963675 -0.31570482 0.83145136 0.44864911 0.32772332 0.07963872
0.12891495 -0.088562906 -0.31592983 -0.87930489 0.40790075 0.24584503 0.089513548
0.13130212 -0.084221587 -0.31442696 -0.83636242 0.48156175 0.26190856 0.080480166
-0.38672236 -0.071871459 -0.31652886 0.91624802 0.30313084 0.26191813 0.092838876
0.13510808 -0.073906474 -0.3155576 -0.88386178 0.39358172 0.25274834 0.085902944
0.14904051 -0.079650365 -0.31124011 -0.86839724 0.39593932 0.29852682 0.078376167
0.1504083 -0.072653525 -0.31424487 -0.87855351 0.29701313 0.37406799 0.075760141
-0.40110758 -0.064879902 -0.31822246 0.91467696 0.13596281 0.38063115 0.089907542
-0.38722163 -0.067652859 -0.31800187 0.9217602 0.25192636 0.29477298 0.092358179
0.13717459 -0.06765072 -0.3150416 -0.90698665 0.26799941 0.32488704 0.092673607
0.15055564 -0.065152079 -0.31654587 -0.90428019 0.18649314 0.38405436 0.082527339
-0.4040665 -0.058211021 -0.31252378 0.9272089 0.095266409 0.36222655 0.086358123
-0.38804212 -0.057399582 -0.31945154 0.87148166 0.13213386 0.47229272 0.085473195
0.1526489 -0.051931091 -0.31558001 -0.89456838 0.10238159 0.43504643 0.084842809
-0.40436369 -0.046905018 -0.31578612 0.90175974 0.077020392 0.42532021 0.08196985
-0.39046398 -0.048168093 -0.3161476 0.90418881 0.025332276 0.42638108 0.082784414
0.13918896 -0.040516697 -0.31930777 -0.9367851 0.053238899 0.34583116 0.071850896
0.15309387 -0.04391928 -0.31724995 -0.92276663 0.0010802731 0.38535792 0.077463083
-0.40744039 -0.031503085 -0.31291345 0.92689997 0.027490946 0.3743003 0.084772557
-0.3923381 -0.036301054 -0.31529379 0.9173041 0.1477523 0.36976007 0.090024501
0.15484086 -0.033612385 -0.31618178 -0.93933392 -0.023782546 0.34217873 0.085065827
-0.40705469 -0.025590599 -0.31610122 0.92521298 0.16214624 0.34305909 0.092045419
-0.39521727 -0.024176959 -0.31178039 0.94734699 0.11748774 0.29787639 0.091196097
0.14347771 -0.028277874 -0.31197557 -0.96072584 -0.0017625045 0.27749369 0.088704608
-0.40897566 -0.012913902 -0.31541097 0.96687657 0.12090954 0.2247903 0.087519057
-0.39641982 -0.011915383 -0.31290776 0.95532078 0.088663898 0.28195903 0.086987145
0.14429608 -0.016389312 -0.3140206 -0.90921378 0.086632393 0.40721637 0.083954401
-0.39553249 -0.0052159219 -0.31775299 0.95961499 -0.01273513 0.2810283 0.078737848
0.14614561 -0.0074808309 -0.3121675 -0.92942297 0.083742008 0.35938856 0.077264875
-0.41007397 0.00027579805 -0.3169598 0.96601832 0.032141715 0.2564674 0.08618933
0.16045037 0.0037336864 -0.31159234 -0.91395223 0.059063636 0.40150079 0.07415016
-0.41099617 0.010225309 -0.31084719 0.94946355 -0.062208574 0.30765104 0.085058354
-0.40908211 0.010212546 -0.31609336 0.94618464 -0.074624181 0.31490627 0.085002497
-0.39695871 0.014123699 -0.31063581 0.95876789 -0.035318065 0.28198704 0.088005215
0.14354821 0.018882219 -0.31516993 -0.94312268 -0.051446222 0.32843989 0.096310519
0.15717793 0.010964202 -0.31794703 -0.91182435 -0.078189448 0.40306669 0.082440384
-0.40708673 0.021746352 -0.31739938 0.93989295 -0.052556671 0.33740044 0.094714865
-0.39456788 0.022051923 -0.31432474 0.93470919 -0.045383122 0.35250413 0.085351877
0.14369759 0.025072686 -0.31252903 -0.91954458 -0.15411067 0.36150742 0.091153279
0.1546787 0.02996196 -0.3179419 -0.91380388 -0.17852396 0.36481738 0.088865809
-0.40636519 0.037160426 -0.31381825 0.9361155 -0.18146706 0.30125961 0.07948003
-0.39209795 0.033798419 -0.3168537 0.9388746 -0.12831956 0.31945038 0.088479646
0.1413172 0.035540108 -0.31527388 -0.93055975 -0.095297761 0.35352051 0.091093004
0.15498397 0.034405489 -0.31550398 -0.93347049 -0.17014691 0.31572619 0.083788395
-0.40638131 0.041143462 -0.31233811 0.92850822 -0.097325444 0.35832971 0.080617785
-0.39012191 0.047577895 -0.31729704 0.94248062 -0.11796906 0.31275168 0.094684198
0.14091596 0.045390472 -0.31282133 -0.95298427 -0.14548521 0.26581016 0.076210096
-0.4023737 0.0561365 -0.3179073 0.91135597 -0.039462741 0.40972286 0.074110188
-0.39073709 0.057710268 -0.31195951 0.92136544 -0.17771596 0.34569171 0.086428061
0.13860121 0.052236632 -0.31669202 -0.95310777 -0.1475206 0.26424071 0.084193848
0.15152079 0.051805448 -0.31871459 -0.9545573 -0.12498369 0.27055395 0.074149601
0.13571541 0.069064863 -0.31852767 -0.92601806 -0.22790852 0.30091238 0.10676492
0.14947766 0.065884963 -0.3192336 -0.93031883 -0.22353344 0.29075703 0.09146893
0.13362373 0.077355318 -0.31576023 -0.84251779 -0.43915275 0.31194332 0.095961951
0.14884989 0.07418789 -0.31683165 -0.89391243 -0.32450628 0.30921885 0.092842415
0.15075007 0.073416226 -0.31303394 -0.91411412 -0.28110626 0.29218945 0.093753174
-0.38149408 0.082377948 -0.31876519 0.85247874 -0.3963744 0.34083337 0.093367763
0.13003133 0.084486224 -0.31739005 -0.8601439 -0.43560374 0.26533321 0.087459885
0.14565814 0.087498471 -0.31157583 -0.89265448 -0.34129894 0.29441997 0.092384562
-0.39218521 0.091666453 -0.31891203 0.82273781 -0.36554641 0.43529114 0.072601579
-0.37906736 0.093559578 -0.31313872 0.80252683 -0.41420573 0.42939994 0.074295521
0.12552182 0.094448946 -0.31836694 -0.86431998 -0.41609535 0.28251678 0.084879056
0.14169413 0.090678044 -0.31833059 -0.85151803 -0.42016366 0.31365514 0.088143349
-0.38784435 0.10941599 -0.31122774 0.88006991 -0.36995956 0.2976692 0.088851109
-0.37357691 0.10759419 -0.31231466 0.9017756 -0.2434303 0.35713086 0.083738446
0.12263504 0.10847566 -0.31090719 -0.87243021 -0.35661265 0.33420494 0.078740522
0.13869722 0.10246403 -0.31352031 -0.87725258 -0.35954225 0.31805247 0.081900112
-0.3708685 0.1136476 -0.31282771 0.87179637 -0.39093232 0.29519999 0.089984313
0.1170898 0.11786903 -0.31512892 -0.8592217 -0.34644118 0.37645259 0.074049927
0.13298126 0.11261831 -0.31737345 -0.83118093 -0.41634309 0.36850598 0.084785372
-0.38201907 0.12251494 -0.31224728 0.91419137 -0.33680186 0.22542985 0.077921167
-0.37916514 0.12609786 -0.31574294 0.88636804 -0.36289227 0.28750804 0.087103643
0.11411582 0.12938507 -0.31054547 -0.85341305 -0.36601278 0.37110749 0.082140863
0.12954918 0.12635161 -0.31161535 -0.829579 -0.42697546 0.35984808 0.082604222
-0.37482297 0.13691922 -0.31538516 0.88337195 -0.40022394 0.2438744 0.081543773
-0.36342537 0.13179529 -0.31263915 0.84318227 -0.44288808 0.30478474 0.087627828
0.12795103 0.13119477 -0.31057432 -0.86071515 -0.32707867 0.39011392 0.0863778
-0.3700366 0.14793895 -0.31170961 0.81992644 -0.53043622 0.21530907 0.078957334
-0.36841226 0.14829259 -0.31467444 0.79801762 -0.51930398 0.30576351 0.082133383
-0.35433722 0.1444145 -0.31479114 0.77976948 -0.55289495 0.29371196 0.088976219
0.10478183 0.14187057 -0.31562185 -0.82570714 -0.4420594 0.35041592 0.079708919
-0.34708098 0.15452002 -0.3136999 0.75842661 -0.55414194 0.34309745 0.084299266
0.096793264 0.15511492 -0.31085753 -0.779338 -0.55844247 0.28420836 0.087589331
0.10920612 0.15601 -0.31939894 -0.81031638 -0.5216282 0.26700431 0.079873726
-0.34088993 0.16345717 -0.31223905 0.75376457 -0.54337591 0.36956957 0.084953941
-0.3396467 0.16074869 -0.31951761 0.72793537 -0.5835582 0.35995832 0.081354119
0.10544385 0.16441201 -0.31351563 -0.77699578 -0.54625487 0.31286287 0.077878974
-0.35192907 0.17114033 -0.3123768 0.73509794 -0.56315434 0.37747619 0.079293549
-0.34478921 0.1773438 -0.31759167 0.72152013 -0.53333181 0.44154945 0.091060497
-0.32849979 0.17765471 -0.31551713 0.70813543 -0.54777741 0.44551545 0.083246447
0.081511542 0.17372194 -0.31305772 -0.69285023 -0.60395896 0.39394432 0.08049228
0.097259045 0.17543156 -0.31292224 -0.74212122 -0.56450593 0.36137131 0.079908572
-0.34185839 0.18178204 -0.31655133 0.74279583 -0.53077567 0.40808281 0.092173889
-0.33650035 0.18998134 -0.3145057 0.66108322 -0.65550959 0.36507007 0.089528792
-0.32299128 0.18401212 -0.31689847 0.68801373 -0.62322927 0.37178254 0.089872368
0.073161975 0.18229619 -0.31693703 -0.60547686 -0.70990878 0.3597602 0.081116393
0.089662366 0.18140739 -0.31952089 -0.68812907 -0.62113529 0.37505916 0.07487496
0.091902874 0.18100965 -0.31527999 -0.77413386 -0.52396452 0.35521531 0.080681615
-0.33337829 0.19539113 -0.31225085 0.56893212 -0.7399618 0.35884926 0.081637003
-0.32054216 0.19124351 -0.31010592 0.56521869 -0.77324253 0.2874437 0.074734263
-0.31333229 0.19611083 -0.31346717 0.65164256 -0.68063623 0.33480778 0.088220641
0.059215404 0.19823034 -0.31384778 -0.55362827 -0.73238355 0.39637107 0.087103315
0.063082539 0.19308606 -0.31853434 -0.64833021 -0.66371322 0.37303168 0.089961715
0.078883171 0.19558087 -0.31930944 -0.61265492 -0.70572639 0.35581475 0.085343242
0.081906907 0.19668618 -0.31082493 -0.58891165 -0.71566409 0.3755101 0.075812787
-0.32318664 0.20302834 -0.31898609 0.66722912 -0.6886304 0.28389007 0.082669705
-0.30131191 0.20265427 -0.31934017 0.61403084 -0.72413951 0.3139874 0.087422848
0.047176994 0.20572384 -0.31766924 -0.61994642 -0.6904366 0.3727783 0.092937537
0.050549828 0.20429559 -0.3151277 -0.55828965 -0.74251485 0.37011388 0.095103301
0.073454499 0.20426273 -0.31393346 -0.63178635 -0.67436022 0.38220963 0.083499417
-0.30629808 0.21847913 -0.31352589 0.65129513 -0.66000885 0.3744368 0.087865703
0.036894027 0.21575113 -0.31298661 -0.63313919 -0.69502115 0.34070584 0.089046031
0.056272089 0.21812129 -0.31245643 -0.68250954 -0.67697102 0.27548337 0.08491084
0.063044906 0.21071196 -0.31730443 -0.56404221 -0.74941117 0.34675515 0.090915561
-0.29764813 0.22327378 -0.31756377 0.54996186 -0.75622845 0.35448632 0.085675076
-0.27353728 0.22721727 -0.31221676 0.5356639 -0.77979004 0.32402426 0.088377677
0.024324188 0.22565018 -0.31243035 -0.54257047 -0.76732957 0.34179321 0.084527835
0.051401787 0.22224322 -0.31161314 -0.5619024 -0.75475639 0.33853871 0.094575487
-0.28566682 0.23417442 -0.31382304 0.53561884 -0.80887169 0.24256745 0.081643216
-0.26379097 0.23522244 -0.3110629 0.51039517 -0.77416956 0.37437728 0.084524482
-0.2545073 0.2387269 -0.31344482 0.47918913 -0.80210572 0.35637659 0.086222276
0.0066757184 0.23778492 -0.31236386 -0.41680735 -0.7948606 0.44098544 0.088034257
0.012384991 0.23358829 -0.31500557 -0.40890056 -0.79887259 0.44113833 0.082369722
0.03427675 0.236038 -0.31017938 -0.53604102 -0.76696664 0.35273522 0.081994869
-0.27146065 0.2437039 -0.31682795 0.59793329 -0.73614115 0.31713092 0.084806867
-0.2621609 0.24880683 -0.31687936 0.43330249 -0.83525014 0.33853531 0.088034526
-0.24021769 0.24221976 -0.31963578 0.38624966 -0.8778761 0.28309849 0.092340663
-0.23441163 0.24797757 -0.3110798 0.355699 -0.86765867 0.34734216 0.087354437
-0.01540561 0.24521625 -0.31674045 -0.34250706 -0.87282485 0.3476572 0.085973956
-0.0017475733 0.24014826 -0.31523645 -0.40555131 -0.79133266 0.45751575 0.090398006
0.006846176 0.24947447 -0.31960076 -0.41370252 -0.82700342 0.3806777 0.078794949
0.025873289 0.24018647 -0.3152189 -0.55067295 -0.75795239 0.34966788 0.086097173
-0.24359185 0.25553289 -0.31934315 0.40100572 -0.85576224 0.32690284 0.087715268
-0.22411618 0.25221986 -0.31113654 0.46867782 -0.83559328 0.28657451 0.090741388
-0.2139843 0.25579143 -0.31273186 0.43979514 -0.8683629 0.22918569 0.087042399
-0.046904765 0.25935814 -0.31394735 -0.28500953 -0.83278692 0.47458977 0.082440324
-0.036344208 0.25280276 -0.31951308 -0.37458611 -0.81943816 0.43382764 0.086558282
-0.027114332 0.25140399 -0.31332651 -0.3488127 -0.83324665 0.42898691 0.084316663
-0.015714968 0.25991431 -0.31680721 -0.31288254 -0.83948201 0.44426844 0.080933861
-0.0074548707 0.2572152 -0.31496391 -0.31685224 -0.87030768 0.37705332 0.093809634
0.0076521798 0.25157109 -0.31339851 -0.40228206 -0.81164974 0.42354909 0.086774789
0.011795172 0.25017655 -0.31257799 -0.45782506 -0.7777198 0.43075296 0.076775737
-0.23143877 0.26121193 -0.31769708 0.44121867 -0.85779363 0.26365912 0.088383161
-0.22469322 0.26460725 -0.31616288 0.47227862 -0.84550244 0.2491556 0.084935568
-0.17632563 0.26485097 -0.31534639 0.037374668 -0.92390543 0.38079107 0.088199802
-0.15843111 0.26763996 -0.31416023 0.096464001 -0.90454334 0.41532645 0.090665869
-0.14795199 0.26790115 -0.31722295 0.0036217102 -0.94249785 0.33419243 0.076801725
-0.12474564 0.2696889 -0.31919545 0.018478969 -0.93458605 0.35525692 0.088380903
-0.10366302 0.26965633 -0.31259197 -0.10674126 -0.9194926 0.37833801 0.08481399
-0.085040398 0.26561844 -0.31693569 -0.096388042 -0.94138169 0.32327986 0.087403417
-0.072437495 0.26449317 -0.31547356 -0.061201733 -0.93222582 0.35666412 0.092694849
-0.066447988 0.26283473 -0.31785572 -0.16210325 -0.92989117 0.33018914 0.092871271
-0.033406015 0.26614749 -0.31960067 -0.34402439 -0.8059665 0.48173153 0.066263013
-0.026261371 0.26544315 -0.31384614 -0.38898778 -0.83104306 0.39756247 0.087953702
-0.014557909 0.26095349 -0.31293243 -0.34855348 -0.85498112 0.38408026 0.087482639
-0.21224034 0.27115375 -0.31261998 0.33770117 -0.90966576 0.2417976 0.079103664
-0.19915509 0.27451608 -0.31787103 0.25593001 -0.93260813 0.25444427 0.075158261
-0.18863216 0.2767688 -0.31551996 0.13736199 -0.95842075 0.25012264 0.069636457
-0.17610708 0.27795607 -0.31678426 0.012540801 -0.91705805 0.39855653 0.076582335
-0.16557282 0.27844992 -0.31922972 0.080395162 -0.92363495 0.37474674 0.081340685
-0.12553906 0.27086049 -0.31608102 0.054443598 -0.91448581 0.40093827 0.082425401
-0.080158263 0.27925688 -0.31507403 -0.10673571 -0.94219458 0.31761131 0.088617072
-0.073573001 0.27889323 -0.31369579 -0.14685312 -0.91856092 0.36698788 0.083254062
-0.054692239 0.27587199 -0.31503722 -0.13824639 -0.92112523 0.36389035 0.084219128
-0.044693194 0.27296841 -0.31412542 -0.21975099 -0.85230488 0.47464296 0.082572706
-0.17039429 0.28075823 -0.31117022 0.1577612 -0.9429518 0.29317802 0.097439378
-0.14624131 0.2817727 -0.3170999 0.062232703 -0.92572546 0.3730408 0.074285105
-0.1200799 0.28380266 -0.31701833 0.043002598 -0.91291279 0.40588292 0.091959707
-0.11662426 0.28388259 -0.31555364 0.058109477 -0.93212986 0.35743144 0.091195531
-0.098830841 0.28261864 -0.3125999 -0.067678109 -0.93199492 0.35609701 0.084784016
-0.087502316 0.28014788 -0.31528181 -0.20336293 -0.91844964 0.3392548 0.087387621
-0.17781353 -0.28026739 -0.30983955 0.11361554 0.9301275 0.34921938 0.084293284
-0.14648324 -0.28594846 -0.30557752 0.19370811 0.89977401 0.3910037 0.087959483
-0.13651325 -0.28698656 -0.30632919 0.071801476 0.91637403 0.39383137 0.091074228
-0.11618982 -0.28798729 -0.30413234 -0.11965805 0.96267647 0.24276754 0.086203061
-0.10518509 -0.28724188 -0.30214912 0.048906654 0.94537032 0.3223089 0.091129042
-0.094932094 -0.28441405 -0.3062776 0.024955101 0.95692837 0.28924978 0.094965637
-0.083069563 -0.28293312 -0.30605638 -0.018331615 0.94948041 0.31329036 0.089124538
-0.077075899 -0.28209782 -0.30618289 -0.18229282 0.93646413 0.29967371 0.089954503
-0.056128103 -0.2810508 -0.30134523 -0.29428151 0.89942777 0.32315353 0.080474615
-0.21215765 -0.27300364 -0.3079868 0.25172356 0.91544366 0.31400323 0.08980646
-0.19783707 -0.27890882 -0.30634093 0.29644346 0.88680106 0.35454911 0.091215208
-0.16681236 -0.27090046 -0.30220985 0.11921494 0.92394131 0.36348349 0.078833707
-0.13918571 -0.27297425 -0.30649096 0.092663839 0.94175923 0.32326913 0.08940763
-0.12325412 -0.27577791 -0.30289131 -0.095446132 0.93832004 0.33233342 0.07539998
-0.11607291 -0.27402613 -0.30509949 -0.077082723 0.93458694 0.34728321 0.087049
-0.1095513 -0.27277315 -0.30617955 -0.033813044 0.96744227 0.25082278 0.083380036
-0.087428555 -0.27021304 -0.30521452 -0.023377901 0.91704631 0.39809486 0.088507421
-0.042032741 -0.27704653 -0.30068126 -0.39659485 0.88256246 0.25257909 0.089084223
-0.032332424 -0.27205026 -0.3034029 -0.36690903 0.89793622 0.24308072 0.097830243
-0.22624597 -0.26748291 -0.3071833 0.43073669 0.85100371 0.30043066 0.08981888
-0.20078368 -0.26594755 -0.30076832 0.30508181 0.88990432 0.33910972 0.092074797
-0.19275358 -0.26545382 -0.30777282 0.19730075 0.91391635 0.35472426 0.087508485
-0.18361519 -0.26836541 -0.30309412 0.17674044 0.92483336 0.33681744 0.08266589
-0.093591914 -0.26988316 -0.30833992 -0.091294564 0.93691552 0.33742335 0.091926731
-0.074367583 -0.26961663 -0.30213889 -0.22727036 0.88593829 0.4043037 0.081257552
-0.064979494 -0.26795566 -0.30330282 -0.19816679 0.90763736 0.37003285 0.089425161
-0.054196484 -0.26562786 -0.30565548 -0.28308982 0.88772446 0.36305001 0.091811672
-0.049434423 -0.26255912 -0.30845287 -0.23096846 0.89234364 0.38778403 0.08693336
-0.030184004 -0.26998651 -0.30639839 -0.39007986 0.88481063 0.25484872 0.098001011
-0.025325285 -0.26807678 -0.30611405 -0.39487717 0.89486831 0.20804502 0.084726617
-0.012337346 -0.26306337 -0.30520111 -0.44777304 0.86472851 0.22747289 0.085127786
-0.26565635 -0.25223392 -0.30428761 0.35566399 0.86420828 0.35587528 0.10488803
-0.2552259 -0.25543377 -0.30729878 0.29277405 0.89001638 0.34950575 0.087749228
-0.23327793 -0.25043449 -0.30600849 0.38672274 0.87496752 0.29133701 0.080259442
-0.2280907 -0.2547259 -0.30054036 0.37986168 0.85364628 0.35636088 0.074691497
-0.20801249 -0.25942671 -0.30976748 0.2644493 0.92536986 0.27158299 0.092686057
-0.032622222 -0.25765693 -0.3031919 -0.38868314 0.86219352 0.3248812 0.08854913
-0.026540218 -0.25626546 -0.30031392 -0.38179529 0.87873179 0.28646627 0.092420273
-0.01880045 -0.25284162 -0.30087009 -0.40042776 0.86854237 0.29204759 0.087956943
0.0023318038 -0.25729212 -0.30430394 -0.36226532 0.88815457 0.28274605 0.081946954
0.011824034 -0.25331724 -0.3043893 -0.3848787 0.86367285 0.32548058 0.095074415
-0.28116861 -0.24234191 -0.30348897 0.54680747 0.7854932 0.28983098 0.079073615
-0.27537546 -0.24497889 -0.30745152 0.53536588 0.80828005 0.24508511 0.071515992
-0.25536278 -0.24303363 -0.30155039 0.23557024 0.90101314 0.36425522 0.083154872
-0.23771653 -0.24849752 -0.30625963 0.38237545 0.87636811 0.29286191 0.081970789
-0.014043227 -0.24819575 -0.30769718 -0.41389608 0.86104912 0.29543933 0.078769155
-0.0014374899 -0.24467298 -0.30336231 -0.3182205 0.89762497 0.30496728 0.078654915
0.0043402603 -0.24108967 -0.3063992 -0.42995429 0.85206133 0.29854783 0.084676966
0.010061426 -0.24105588 -0.30043817 -0.41093558 0.85089326 0.32728055 0.092299193
0.026339509 -0.24353331 -0.30710095 -0.50636375 0.79395437 0.33649972 0.09211129
0.030966751 -0.24094309 -0.30499643 -0.48778078 0.77044934 0.41046038 0.09422674
-0.27109271 -0.2325139 -0.30472055 0.49536571 0.79674089 0.34614557 0.088409483
-0.26425433 -0.23719102 -0.30479807 0.43228096 0.8476243 0.30767858 0.090243362
0.013672453 -0.23711088 -0.30522668 -0.48376262 0.81531566 0.31817293 0.092182375
0.034972858 -0.23749398 -0.30581844 -0.55297524 0.7493816 0.3642056 0.092998378
-0.31066677 -0.22034998 -0.3020128 0.55100411 0.78029156 0.29587087 0.089822352
-0.30446991 -0.22396702 -0.30451241 0.55019313 0.75820947 0.34986565 0.089256279
-0.29952601 -0.22829556 -0.30340183 0.62079406 0.72422403 0.30019051 0.08425267
0.024638262 -0.22786832 -0.30704162 -0.5271523 0.77630621 0.34562865 0.087882042
0.050358184 -0.22703634 -0.30286467 -0.64845079 0.70282388 0.29248974 0.083230153
-0.31352049 -0.2154562 -0.30800587 0.54333866 0.75948787 0.35771674 0.096305631
-0.30003273 -0.21000129 -0.30539146 0.49898866 0.80208462 0.32813182 0.10212453
-0.29339516 -0.21532317 -0.3048903 0.57858717 0.76472235 0.28361365 0.094548255
0.037520193 -0.21987921 -0.30288777 -0.59194976 0.73137915 0.33864453 0.07923387
0.047320016 -0.21008992 -0.30786124 -0.56799328 0.72913408 0.38176835 0.066402726
-0.33064145 -0.20237228 -0.30650955 0.69852573 0.67508513 0.23732243 0.077452876
-0.32468382 -0.20877743 -0.3038705 0.68351424 0.68113315 0.26242319 0.08651033
-0.30613533 -0.20377955 -0.30876398 0.49665165 0.79451996 0.34939247 0.10152322
0.062315181 -0.20036744 -0.30395257 -0.61809564 0.69365466 0.36986616 0.081256598
0.075166255 -0.20624891 -0.30670285 -0.6029259 0.73518747 0.30980584 0.096388809
-0.32296515 -0.1907275 -0.30566391 0.68032634 0.69013757 0.24671085 0.079963103
0.065117016 -0.19574897 -0.30936193 -0.6202336 0.73477995 0.27460635 0.09072604
0.073227085 -0.19189854 -0.30064839 -0.61229002 0.71861994 0.32967597 0.086331196
0.084094919 -0.19856201 -0.30284682 -0.58950418 0.7459501 0.30990839 0.083146617
-0.34457105 -0.18548743 -0.30437648 0.75756758 0.61369669 0.22241305 0.075124048
0.07864923 -0.18436393 -0.30143586 -0.62993401 0.71787429 0.29637772 0.075751744
0.080859162 -0.18171743 -0.30104318 -0.67035162 0.68376172 0.28826839 0.078998514
0.094505489 -0.18214434 -0.30766889 -0.7300241 0.6156494 0.29671615 0.084961854
-0.35595521 -0.17219712 -0.30166897 0.75483537 0.56725413 0.329312 0.093754813
-0.34884161 -0.17910679 -0.30574715 0.74185032 0.59036154 0.31801125 0.089402586
-0.33670282 -0.17498398 -0.30203253 0.74409431 0.60040402 0.29298228 0.085441031
0.085240871 -0.17561267 -0.30170637 -0.71371198 0.64808536 0.26570746 0.087080516
0.099871553 -0.17498694 -0.30794495 -0.72704077 0.61714375 0.30090761 0.085654914
0.10302588 -0.17134902 -0.30714983 -0.6983481 0.64040685 0.31967008 0.091231354
-0.35858727 -0.1664395 -0.30569077 0.7327475 0.54908562 0.40197754 0.084294237
-0.34669644 -0.16146815 -0.30285951 0.75292629 0.55241728 0.35768309 0.091930494
0.088893875 -0.16777498 -0.30688024 -0.67861605 0.68946171 0.25322485 0.083902851
0.11038905 -0.16387686 -0.30357891 -0.7598573 0.58196127 0.28972057 0.076166794
-0.37112388 -0.15282668 -0.30091038 0.80904156 0.48962179 0.3251496 0.07753662
-0.36951768 -0.15211321 -0.30582786 0.77182639 0.53710753 0.34029338 0.084916331
0.098098956 -0.15903912 -0.30139792 -0.79050243 0.550183 0.26908079 0.082968354
0.11702356 -0.15413503 -0.30539021 -0.82192826 0.50499278 0.26346952 0.089972682
-0.37353662 -0.14703955 -0.30555218 0.81335723 0.46991521 0.34297183 0.093510099
-0.35522145 -0.14922862 -0.30475882 0.7744503 0.53757387 0.33352846 0.10122437
0.12561211 -0.14199829 -0.30512345 -0.85892552 0.44309753 0.25673249 0.076216765
-0.36634883 -0.13543124 -0.30133566 0.84801489 0.41945255 0.32392961 0.082016647
0.11068299 -0.13816765 -0.30891687 -0.77028579 0.49859992 0.39756519 0.094197571
0.12692885 -0.13535139 -0.30878913 -0.85654038 0.43714789 0.27429965 0.089481108
-0.36929777 -0.12180391 -0.3082146 0.87440675 0.33571595 0.35029632 0.086943552
0.11760404 -0.12268535 -0.30872577 -0.88033438 0.28725561 0.37748581 0.082684122
0.12133697 -0.12074355 -0.30125242 -0.89975429 0.26167464 0.34923998 0.081792265
0.13266036 -0.12600441 -0.30404305 -0.87135911 0.31691068 0.37456757 0.086206496
0.13818571 -0.11422826 -0.3022891 -0.91179436 0.25742573 0.31994238 0.085405849
-0.37858963 -0.10062915 -0.30688515 0.85796869 0.44018033 0.26482254 0.07828562
0.12685338 -0.10286686 -0.30607119 -0.87616551 0.29689845 0.37971738 0.078987107
-0.39623475 -0.093932897 -0.30618244 0.84686595 0.42649734 0.31767613 0.089371532
-0.3813954 -0.094068319 -0.30666009 0.86582428 0.39876416 0.30221757 0.087876387
0.12983525 -0.097661026 -0.30396456 -0.86951667 0.35034555 0.34813598 0.076686621
0.14722635 -0.092402093 -0.30229986 -0.85821533 0.41015151 0.3086133 0.083156154
-0.4006995 -0.084983774 -0.30424848 0.85730153 0.41679582 0.30218422 0.08088889
-0.39962304 -0.085150748 -0.30681893 0.87494761 0.38591626 0.2924642 0.083067991
-0.38584948 -0.083033189 -0.30695832 0.88208371 0.3526212 0.3123886 0.087603524
0.13494419 -0.08533147 -0.30395979 -0.83891207 0.41885471 0.34754455 0.080939531
-0.40324169 -0.0757486 -0.30752289 0.88839942 0.38250962 0.25383615 0.085594036
-0.38755709 -0.078101709 -0.30781332 0.8758837 0.42146525 0.23493591 0.094071843
0.13954857 -0.073986992 -0.30420125 -0.87460774 0.38128632 0.29946962 0.083639264
0.15270901 -0.074092463 -0.30742568 -0.86521977 0.34724936 0.36168042 0.07782308
-0.40540242 -0.067186296 -0.30562961 0.9110958 0.26041687 0.31951135 0.083121277
-0.39255634 -0.065271229 -0.30425158 0.93215811 0.25987402 0.25208485 0.087769255
0.15519151 -0.063804582 -0.30433643 -0.91157496 0.20968623 0.35364202 0.086869054
-0.40703008 -0.054999392 -0.30549839 0.92639893 0.14244497 0.34856045 0.086628251
-0.39342281 -0.056310464 -0.30510938 0.91753542 0.13311572 0.37471166 0.092083059
0.15521117 -0.058260784 -0.3062813 -0.92238492 0.064338841 0.38087597 0.083893612
-0.40843195 -0.046101548 -0.30493498 0.92075276 0.10629403 0.37538758 0.080102086
-0.394178 -0.042580348 -0.30799136 0.90132987 0.091845505 0.42328343 0.080709405
0.14303157 -0.040835351 -0.30867004 -0.92026418 -0.0226383 0.39064211 0.077378415
0.15750849 -0.045758974 -0.30449736 -0.94944882 -0.027713884 0.31269619 0.080782793
-0.39690089 -0.036316775 -0.30279306 0.94718653 0.0903337 0.30769721 0.082523763
0.14577778 -0.033074684 -0.30394757 -0.91420293 0.025588429 0.40444794 0.086085685
0.15972267 -0.034858573 -0.30233422 -0.92029297 0.021220556 0.39065379 0.088853359
-0.41139507 -0.02633981 -0.30388734 0.93264914 0.095335297 0.3479608 0.086367801
-0.39823395 -0.024149444 -0.30352911 0.94484186 0.12966818 0.3007656 0.087504171
0.14549105 -0.021142362 -0.30903465 -0.92184222 0.16494191 0.35071504 0.090651475
0.15966544 -0.02485127 -0.30612838 -0.89573407 0.041084453 0.44268784 0.076889254
-0.4117538 -0.017659653 -0.3060922 0.94773144 0.12019409 0.29556465 0.09259098
-0.40049839 -0.016178008 -0.30020189 0.94834983 0.15387587 0.27740741 0.084666915
0.14655618 -0.01612014 -0.30792844 -0.93208951 0.1360542 0.33570585 0.080840506
0.16073057 -0.014772249 -0.30684531 -0.92058808 0.13956146 0.36474681 0.087309822
-0.41540068 -0.0015193506 -0.30183572 0.96106255 0.015103895 0.27591765 0.086159274
-0.4016332 -0.0062696496 -0.30066645 0.96555048 -0.0030452043 0.26019755 0.088405199
-0.398956 -0.0066133011 -0.30787405 0.96086466 0.0019619637 0.27701095 0.089247733
0.1478231 -0.0021704929 -0.30948824 -0.91920346 0.092365995 0.38279694 0.072171554
0.16339262 -0.0016085831 -0.30430123 -0.92213929 0.14178137 0.35994074 0.088745452
-0.40131885 0.0025532674 -0.30286717 0.95328075 0.036540288 0.29986772 0.089844726
-0.41139713 0.015707992 -0.30777255 0.95399821 -0.050876576 0.29546398 0.086564243
-0.40077728 0.014186191 -0.30015633 0.93978536 -0.035212189 0.33994627 0.098819114
0.14811797 0.012186847 -0.3050696 -0.91580892 0.02502859 0.40083358 0.07915055
0.16085774 0.014361859 -0.30664501 -0.94210285 0.0037716688 0.33530298 0.085921958
-0.41125733 0.021873208 -0.30593264 0.95370626 -0.097376391 0.28453851 0.095284402
-0.39866194 0.027432092 -0.30117363 0.95572007 -0.076395214 0.28418815 0.087591723
0.14632882 0.024464983 -0.30554253 -0.91479695 -0.12851955 0.38292205 0.086195409
0.16162026 0.021131612 -0.30205336 -0.95371813 -0.1336337 0.26937687 0.088515878
-0.41096163 0.038739547 -0.30040348 0.95619714 -0.012409981 0.29245996 0.078597479
-0.39659834 0.033074915 -0.30479032 0.91682035 -0.1240999 0.37952545 0.085664183
0.15904023 0.030359024 -0.30585486 -0.91050941 -0.22805375 0.34491196 0.085271329
0.160623 0.030089738 -0.30148777 -0.94608128 -0.16496326 0.27877814 0.087773673
-0.40825883 0.044967711 -0.30579641 0.9201836 -0.11854269 0.37310827 0.082660228
0.15545624 0.047685117 -0.309423 -0.93055236 -0.13615458 0.33990332 0.087438039
-0.40706202 0.051863603 -0.30660909 0.90943265 -0.024006112 0.41515779 0.088292561
-0.39375976 0.055737227 -0.30439326 0.92090428 -0.15303928 0.35848898 0.085764505
0.15681674 0.053509831 -0.3035973 -0.95409346 -0.11372636 0.27707762 0.08207231
0.13977073 0.068678603 -0.30756158 -0.91925627 -0.23840532 0.31325853 0.098561898
-0.40627557 0.071870059 -0.30141106 0.9245795 -0.2049434 0.32117122 0.071426049
0.13551821 0.078510702 -0.30970454 -0.87599522 -0.41096139 0.25247389 0.10225243
0.14212812 0.07154531 -0.30007234 -0.91239893 -0.28447461 0.29428262 0.089945704
0.15246138 0.079376042 -0.30280057 -0.89919782 -0.35378048 0.25745422 0.094915934
-0.40048021 0.087197453 -0.30245265 0.87459433 -0.30970183 0.37305439 0.078633443
0.13490185 0.08427459 -0.30518496 -0.84643233 -0.430002 0.31408697 0.092413753
0.15017509 0.080176756 -0.3077884 -0.87811112 -0.36924872 0.30426338 0.09143097
-0.39419168 0.099207565 -0.30582082 0.83905357 -0.36243498 0.40574634 0.086136445
0.13037038 0.095839053 -0.30452481 -0.89012706 -0.32912022 0.31520426 0.076263912
-0.39026609 0.10951759 -0.30494052 0.81414241 -0.45998117 0.354386 0.092171356
-0.38961783 0.10936315 -0.30675805 0.8174668 -0.48541108 0.31003913 0.098692775
-0.37766984 0.10483326 -0.30478859 0.86153245 -0.36521822 0.35267192 0.097498745
0.12620389 0.10399896 -0.30653197 -0.87431836 -0.33897173 0.34736949 0.078918025
-0.38528678 0.11744925 -0.30926311 0.8581447 -0.41121495 0.30739218 0.094726332
-0.37283239 0.1154671 -0.30589288 0.86554623 -0.38625374 0.31880665 0.096476145
0.13667725 0.11246093 -0.30810815 -0.86724919 -0.33009908 0.37271082 0.080030151
-0.38170373 0.12763247 -0.30764276 0.9089731 -0.34028277 0.24078131 0.083609916
-0.37010643 0.123128 -0.30475146 0.86088979 -0.44229284 0.25148711 0.084279872
0.11781587 0.12365669 -0.30715847 -0.79197168 -0.46823829 0.39183396 0.08936581
0.13503399 0.12198466 -0.30218792 -0.8763144 -0.27954847 0.39233363 0.086289853
-0.36454853 0.13694717 -0.30366972 0.82611829 -0.50670147 0.24654026 0.08768627
-0.37107846 0.14896715 -0.30769765 0.79340178 -0.56548363 0.22525966 0.079990737
-0.35607919 0.14739153 -0.3059682 0.80755723 -0.53713202 0.24359919 0.09234637
0.10345128 0.14845784 -0.30746126 -0.85659057 -0.44539189 0.26053533 0.086457737
0.12405311 0.14528178 -0.30366516 -0.77914417 -0.53643215 0.32430705 0.090194792
-0.37127808 0.15307118 -0.30006075 0.77359253 -0.58928537 0.23301774 0.089386292
0.097997479 0.15725568 -0.30461913 -0.81286579 -0.5105772 0.28028598 0.093828157
0.11365942 0.15625641 -0.30922598 -0.78492093 -0.5455091 0.29380068 0.08218804
-0.36136249 0.16071147 -0.30924085 0.79526669 -0.53167176 0.29133487 0.089945406
-0.35598496 0.16917332 -0.30679655 0.79642946 -0.53637975 0.27927911 0.088745341
-0.34700027 0.16069537 -0.30349311 0.76170492 -0.55441278 0.335309 0.094048217
0.090916507 0.16530636 -0.30659887 -0.77021003 -0.5098002 0.3832497 0.081701741
0.10840325 0.16725105 -0.30221301 -0.811459 -0.45360911 0.36847413 0.072627731
0.11256845 0.16112559 -0.30342939 -0.79599506 -0.49536678 0.34785581 0.09079124
-0.35270968 0.17548448 -0.30331489 0.78140402 -0.52304858 0.34033507 0.084874861
-0.34989357 0.17694291 -0.30708039 0.79026699 -0.56110001 0.24626175 0.088879876
-0.33156648 0.17788824 -0.30840439 0.73286062 -0.57733417 0.36000073 0.092190087
0.1022788 0.17080337 -0.30970445 -0.8402738 -0.45756772 0.29081237 0.076698042
-0.3461535 0.18088493 -0.30864787 0.76468873 -0.57226115 0.29625705 0.090738647
-0.32798421 0.1874595 -0.30016065 0.6839323 -0.68246788 0.25782582 0.085849367
0.092104316 0.1874446 -0.30401847 -0.70373243 -0.64511979 0.29762575 0.077873051
-0.34096524 0.1903711 -0.30406633 0.71964848 -0.63010311 0.29167819 0.08571402
-0.3358897 0.1948632 -0.30763513 0.61358625 -0.74244994 0.26884922 0.081658818
-0.3119747 0.19952212 -0.30827469 0.65657926 -0.68295234 0.32012469 0.083546229
0.067035258 0.19536884 -0.30604598 -0.62713414 -0.69301599 0.35557219 0.084845878
0.086577199 0.19168061 -0.30900747 -0.62525582 -0.7003392 0.34435481 0.08341229
-0.3292594 0.20401302 -0.30661726 0.6241188 -0.68179858 0.38161042 0.08714541
-0.31296647 0.20214868 -0.30085143 0.62651169 -0.71007478 0.32136744 0.090906478
-0.30093613 0.20804954 -0.30814931 0.62906039 -0.69737321 0.3434436 0.096267737
0.048621941 0.20918866 -0.30764711 -0.54026818 -0.76010674 0.36103746 0.084307551
0.056396935 0.20364186 -0.30672854 -0.5712651 -0.73593736 0.36339 0.081121452
0.062205456 0.20161554 -0.301402 -0.62312704 -0.72574335 0.29156372 0.086887762
0.077470511 0.20723645 -0.30040655 -0.62764198 -0.71933186 0.29770303 0.085282855
0.08197102 0.20231314 -0.30104014 -0.5729382 -0.75277108 0.32415661 0.075247347
-0.32052311 0.21050847 -0.30707332 0.60962212 -0.72351009 0.32387343 0.079871118
-0.28708667 0.2191312 -0.30715308 0.51911253 -0.82955599 0.20581314 0.073464103
0.037347019 0.21749243 -0.30840918 -0.59279752 -0.71147949 0.37734324 0.086433724
0.042698868 0.21372044 -0.3076759 -0.60782772 -0.72688115 0.31967062 0.089708701
0.065722197 0.21629418 -0.30029985 -0.60981411 -0.70182842 0.36818978 0.088706948
-0.30650526 0.22252803 -0.30426583 0.60102111 -0.73972571 0.30262119 0.089826837
-0.27783751 0.22702006 -0.30541822 0.54327971 -0.80690706 0.23183627 0.079750456
0.026595727 0.22746521 -0.3046335 -0.56379902 -0.75586456 0.33286557 0.081671745
0.047356613 0.2283994 -0.30492479 -0.66330016 -0.67548931 0.32209802 0.089277469
0.057231124 0.22200647 -0.30229607 -0.63377559 -0.7151823 0.29469082 0.090356827
-0.29785949 0.23002535 -0.30239061 0.52386981 -0.8063103 0.27463469 0.093966976
-0.28766677 0.23641357 -0.3055535 0.4985835 -0.83509701 0.23243812 0.079354882
-0.27410048 0.23036782 -0.30436584 0.56460273 -0.78571767 0.25272825 0.088242836
-0.26588827 0.23586625 -0.30574688 0.53826934 -0.77773243 0.32465124 0.099003054
0.014440961 0.23699091 -0.30415124 -0.47168019 -0.79563719 0.38010418 0.093175493
0.03573462 0.2389103 -0.30127949 -0.59224337 -0.76070857 0.26565057 0.085103437
0.041656971 0.233252 -0.30387491 -0.55523163 -0.78508776 0.27450886 0.088776141
-0.2734538 0.24864948 -0.30257308 0.60936719 -0.67210466 0.42065072 0.086575486
-0.26041171 0.2408763 -0.30171883 0.43122241 -0.79508817 0.42647639 0.08851067
-0.23791918 0.24705842 -0.30971789 0.32343587 -0.88682669 0.33004186 0.084678397
-0.011625694 0.24881868 -0.30355218 -0.29627636 -0.90418655 0.30768019 0.089706331
-0.0037165738 0.24604006 -0.30228275 -0.36170471 -0.8344003 0.41586772 0.097186588
0.0029420601 0.24353254 -0.30164337 -0.47923639 -0.79282975 0.37650168 0.087222598
0.010237271 0.24019495 -0.30244929 -0.43638384 -0.82549661 0.35794488 0.088916615
0.023747884 0.24505538 -0.30812335 -0.44229931 -0.8036986 0.39804521 0.080246396
-0.26169172 0.25342137 -0.30559975 0.39029634 -0.78587502 0.47965527 0.093589343
-0.25220463 0.25749853 -0.30522335 0.3490161 -0.86146539 0.36887005 0.089293748
-0.23751993 0.25034478 -0.30175349 0.32843995 -0.87154734 0.36405012 0.08258339
-0.22671695 0.25285804 -0.306759 0.41350192 -0.83255965 0.36859277 0.09773165
-0.21259902 0.25991079 -0.30368423 0.38079828 -0.86403441 0.32929802 0.094581187
-0.040057257 0.25892958 -0.30780315 -0.3086527 -0.84558439 0.43556917 0.082424104
-0.021535249 0.2518712 -0.30623713 -0.35845903 -0.85751015 0.36903042 0.088433288
0.0040423982 0.25670886 -0.30404255 -0.36313912 -0.86842072 0.33760232 0.092872202
0.015617837 0.25213891 -0.30348441 -0.45104381 -0.81400561 0.36599779 0.078719661
-0.23667297 0.26257831 -0.30867767 0.31943202 -0.88326287 0.34323451 0.087002628
-0.22629061 0.2689912 -0.30328721 0.38644603 -0.85021418 0.3574847 0.087749265
-0.21178912 0.26109183 -0.30152646 0.35106125 -0.88531834 0.30490565 0.089222871
-0.19466148 0.26610389 -0.30518422 0.31826183 -0.92618912 0.20219545 0.082692146
-0.1853821 0.26823634 -0.30281067 0.22943315 -0.94977969 0.21278875 0.084583633
-0.080784105 0.26959628 -0.30450806 -0.11314165 -0.92356271 0.36637539 0.085809477
-0.06544669 0.2658844 -0.3091433 -0.10547101 -0.95699656 0.27024683 0.08956676
-0.055957887 0.26617026 -0.30468354 -0.076219618 -0.94701213 0.31202343 0.077196114
-0.011707853 0.26280671 -0.30519071 -0.28876132 -0.90605247 0.309331 0.083599299
-0.0089817327 0.26224643 -0.30373889 -0.37307519 -0.8999939 0.22544576 0.081725478
-0.22040728 0.27189061 -0.30204308 0.32955843 -0.88602835 0.32610583 0.090055369
-0.21641126 0.27197242 -0.30612218 0.37548956 -0.87464833 0.30659091 0.086527362
-0.15253109 0.27233624 -0.30342668 -0.0048538279 -0.93673003 0.35001904 0.078634821
-0.13277395 0.27387634 -0.30633223 0.10012156 -0.91104335 0.39996958 0.084287159
-0.12496016 0.27420798 -0.30780554 0.037614837 -0.9232614 0.3823266 0.084160328
-0.11498282 0.27376273 -0.3054277 -0.081621088 -0.9504993 0.29981527 0.095920123
-0.10361414 0.27257031 -0.30459458 -0.086941063 -0.92926174 0.35904604 0.088303283
-0.091032587 0.27047321 -0.3058013 -0.21159434 -0.89646786 0.3893241 0.078643605
-0.082516722 0.27033377 -0.30311301 -0.18326068 -0.91529387 0.35868192 0.082401752
-0.071698099 0.27000302 -0.3001183 -0.1773479 -0.93046087 0.32060936 0.09438473
-0.054089177 0.2791833 -0.305877 -0.074145645 -0.96125513 0.26550168 0.08229284
-0.048314311 0.27691096 -0.3078922 -0.099827006 -0.93556589 0.33874914 0.091752984
-0.033930521 0.27385792 -0.30019662 -0.36894608 -0.88428199 0.28622413 0.081554711
-0.20102194 0.28038907 -0.30068618 0.23041973 -0.93274426 0.27729923 0.088683739
-0.18453909 0.28131199 -0.30455425 0.16868736 -0.96547836 0.19848466 0.08744625
-0.17127639 0.28433847 -0.30084169 0.16760193 -0.95231789 0.25495136 0.07978224
-0.16769248 0.28376585 -0.30377176 0.15734552 -0.95382071 0.25586826 0.086325541
-0.15348628 0.28415585 -0.3079617 -0.030345546 -0.95702738 0.28840557 0.082895085
-0.14646721 0.2852917 -0.30738187 -0.031046243 -0.92149037 0.38715854 0.068793468
-0.1398589 0.28619227 -0.30729812 0.062902085 -0.92465824 0.37556678 0.077158071
-0.11533326 0.28739789 -0.30543119 -0.070411727 -0.91257793 0.40279496 0.099020578
-0.10709891 0.28727502 -0.30282938 -0.047708374 -0.95585787 0.2899304 0.096624553
-0.092341542 0.28415507 -0.30605292 -0.21924283 -0.93068105 0.29285735 0.088295765
-0.085055359 0.28362525 -0.30485693 -0.21086967 -0.90937775 0.35856107 0.093087994
-0.053943779 0.28066972 -0.30164257 -0.082625575 -0.93546784 0.34361744 0.08360862
-0.14226125 -0.29090393 -0.29231352 0.049166694 0.92826658 0.36865109 0.078931153
-0.1333738 -0.29206559 -0.29233953 -0.028885117 0.9504289 0.30959752 0.086283728
-0.19116172 -0.28411254 -0.29341164 0.18261777 0.93264645 0.31116131 0.083758324
-0.18559469 -0.28447282 -0.29456902 0.19456072 0.92571032 0.32435551 0.095915191
-0.16547528 -0.28742015 -0.29364163 0.14378996 0.94231075 0.30228269 0.081379585
-0.14982767 -0.28979778 -0.29265514 0.22692868 0.9224574 0.31237128 0.10089276
-0.10568267 -0.28894699 -0.29708976 -0.024458308 0.94728363 0.3194612 0.090255834
-0.094055802 -0.28666496 -0.29942355 0.0012436439 0.95952207 0.28163072 0.087863378
-0.082654625 -0.28616253 -0.29632184 -0.045278024 0.95770371 0.28417152 0.08391434
-0.077663183 -0.28580391 -0.29539457 -0.10992327 0.95992535 0.25779888 0.086239003
-0.06503664 -0.28353682 -0.2972731 -0.21757756 0.93616456 0.27614465 0.079178132
-0.047933448 -0.2811245 -0.29595229 -0.19142964 0.93155599 0.30912474 0.094751611
-0.22637601 -0.27176306 -0.2952562 0.34187165 0.87991601 0.32995698 0.084105857
-0.21375912 -0.27590522 -0.29839361 0.39651322 0.8781544 0.26762313 0.08027368
-0.20907173 -0.27849197 -0.29652604 0.30914754 0.91745168 0.25041994 0.086904742
-0.19013092 -0.27107129 -0.29265055 0.18253709 0.93233567 0.31213832 0.087024271
-0.16460897 -0.27454159 -0.29230797 0.13248438 0.92864889 0.34649539 0.081853665
-0.15651682 -0.27400601 -0.2972807 0.14186631 0.91403192 0.38002586 0.083397374
-0.14489144 -0.27651006 -0.29425675 0.18560508 0.91928446 0.34708336 0.09177915
-0.13503897 -0.27792829 -0.2938804 0.0025544129 0.95696378 0.29019639 0.08212658
-0.11368919 -0.27709755 -0.2954661 -0.10185357 0.95653921 0.27323702 0.075897247
-0.10377699 -0.27626169 -0.2940222 0.017351091 0.96533954 0.26041976 0.087873481
-0.085802801 -0.2735472 -0.29510367 -0.058539987 0.97697794 0.20515168 0.088542096
-0.072250821 -0.27145061 -0.29602957 -0.22787689 0.9331429 0.27805847 0.080926903
-0.04419155 -0.27859497 -0.29878765 -0.34912112 0.90138286 0.25617051 0.090024948
-0.035525031 -0.27715006 -0.29257929 -0.28801724 0.9006117 0.32549128 0.08959832
-0.027559351 -0.2736716 -0.29309735 -0.27565941 0.89845598 0.34174368 0.088686086
-0.25414488 -0.26151717 -0.29161957 0.31649366 0.87794328 0.35923171 0.084840305
-0.24869265 -0.26390699 -0.29123926 0.31712371 0.85202652 0.41651344 0.083454214
-0.21267265 -0.26339552 -0.29421443 0.39875376 0.86583364 0.30220464 0.085762657
-0.20761573 -0.26481801 -0.29608732 0.38610572 0.86840498 0.31111917 0.081353165
-0.19966592 -0.26855582 -0.29482806 0.31842625 0.89809507 0.30336449 0.09062659
-0.056157768 -0.26990703 -0.29428777 -0.22342297 0.93457234 0.2768693 0.08264257
-0.043911561 -0.26663578 -0.29137677 -0.25334668 0.90423536 0.34376436 0.087595634
-0.036214612 -0.26120883 -0.29785687 -0.346488 0.8941747 0.28354469 0.096496813
-0.018647037 -0.26885709 -0.29634756 -0.4927015 0.82887959 0.2649602 0.082090996
-0.27304843 -0.25229955 -0.29402995 0.50554365 0.83358037 0.22264154 0.097854406
-0.2636914 -0.25705019 -0.29310361 0.42183071 0.87499267 0.23758507 0.094044462
-0.25539482 -0.2592566 -0.29666415 0.23084587 0.92558926 0.2999911 0.075675294
-0.24029739 -0.25248241 -0.29268193 0.35025033 0.89067906 0.28985447 0.087072834
-0.23347551 -0.25393081 -0.29666859 0.37935093 0.85537934 0.35273096 0.081043519
-0.22697696 -0.25749028 -0.29415709 0.36464161 0.88693982 0.28350326 0.079802737
-0.024235805 -0.25869095 -0.29078308 -0.46905535 0.8224479 0.32181746 0.084010534
-0.013792824 -0.25271299 -0.29556566 -0.43968692 0.8727054 0.212275 0.076217823
-0.0057098037 -0.25056428 -0.29209405 -0.41228709 0.86158276 0.2961325 0.077449679
0.021531936 -0.25257945 -0.29439187 -0.45329407 0.82135499 0.34626639 0.087466128
-0.2805064 -0.24738874 -0.29232937 0.51419377 0.7985335 0.31296805 0.089207634
-0.27572915 -0.24803822 -0.29982638 0.47028926 0.8102988 0.34963393 0.091008261
-0.26235691 -0.2423265 -0.2955955 0.45577762 0.84961963 0.26535508 0.10311897
-0.25730693 -0.24508463 -0.29370135 0.29591003 0.90767568 0.29759404 0.079289764
-0.24825048 -0.24868971 -0.29412466 0.30272013 0.8941521 0.32992828 0.084242105
-0.0070992387 -0.24914908 -0.297791 -0.35343984 0.88506323 0.30289146 0.078133628
