# .PCD v0.7 - Point Cloud Data file format
VERSION 0.7
FIELDS x y z normal_x normal_y normal_z curvature
SIZE 4 4 4 4 4 4 4
TYPE F F F F F F F
COUNT 1 1 1 1 1 1 1
WIDTH 591
HEIGHT 1
VIEWPOINT 0 0 0 1 0 0 0
POINTS 591
DATA ascii
-0.052291036 -0.16489127 -0.42716351 0.096806847 -0.13109681 0.98663169 9.000214e-05
-0.046889532 -0.1649788 -0.42769727 0.10095657 -0.13361946 0.9858771 4.2779666e-05
-0.40682358 -0.15592368 -0.42741084 0.46233904 0.25636896 0.84883302 0.02602189
-0.32406056 -0.1521402 -0.42908508 -0.12191091 -0.12213267 0.98499811 1.021365e-05
-0.3066861 -0.1517505 -0.42701522 -0.10929619 -0.12208714 0.98648322 0
-0.28350171 -0.15353408 -0.42492372 -0.092774995 -0.12188952 0.98819822 0
-0.27401218 -0.1554513 -0.42434669 -0.079686649 -0.12708423 0.98868585 1.7622871e-05
-0.26652029 -0.15420905 -0.42358041 -0.074610576 -0.1260199 0.98921794 4.5546825e-05
-0.25125623 -0.15033135 -0.42203331 -0.063135691 -0.12214497 0.99050218 3.3328477e-05
-0.24385887 -0.15167977 -0.42174327 -0.056424633 -0.12265921 0.99084359 0
-0.22288953 -0.15341231 -0.42090395 -0.04263537 -0.12178928 0.99163985 1.9716874e-05
-0.21567576 -0.15373522 -0.42063263 -0.034348831 -0.1268865 0.99132228 4.6651632e-05
-0.20590067 -0.1596559 -0.42109668 -0.027845867 -0.12853733 0.9913137 5.1754912e-05
-0.19143976 -0.15809038 -0.42056143 -0.015171307 -0.12733597 0.99174368 6.8176605e-06
-0.16279896 -0.15743424 -0.42039791 0.0071670962 -0.12847416 0.991687 0
-0.13923649 -0.15893638 -0.42097047 0.026972715 -0.13078584 0.99104369 6.4686203e-05
-0.12139145 -0.15352517 -0.4209134 0.044181135 -0.12122446 0.9916414 8.7890388e-05
-0.11738191 -0.15647031 -0.42145672 0.045126557 -0.12463382 0.99117613 6.4266031e-05
-0.091586858 -0.1528756 -0.42243573 0.064563349 -0.12341091 0.99025309 0
-0.075381048 -0.15458247 -0.42380044 0.078657374 -0.12274771 0.98931593 1.9184494e-05
-0.061856039 -0.15917626 -0.42555481 0.088834852 -0.12774113 0.9878211 6.1928418e-05
-0.047100086 -0.15122321 -0.4259491 0.099557661 -0.11891934 0.98790008 0
-0.031412683 -0.15439631 -0.42805159 0.11228423 -0.12633878 0.98561192 0
-0.02967279 -0.1590745 -0.42885968 0.11143982 -0.12883034 0.98538512 1.9666257e-05
-0.016247019 -0.15499537 -0.42987531 0.12669885 -0.12032617 0.98461616 0
0.068202764 -0.1531501 -0.42282966 -0.48773086 0.29261264 0.82249403 0.015562706
-0.32588729 -0.14411394 -0.42836934 -0.12219532 -0.11725014 0.98555601 1.7336017e-05
-0.31481671 -0.14212073 -0.42672169 -0.1153168 -0.11360264 0.98681128 6.0818435e-05
-0.29699773 -0.14556429 -0.42527571 -0.10080417 -0.11926058 0.98773241 0
-0.28716522 -0.14516221 -0.4242112 -0.092428818 -0.11673421 0.98885298 0
-0.27545965 -0.14546135 -0.42323333 -0.081892006 -0.11368284 0.99013633 0
-0.252664 -0.14680509 -0.42167616 -0.064688943 -0.12057984 0.99059373 5.9917206e-06
-0.24765682 -0.14573032 -0.42122918 -0.061307359 -0.11960809 0.9909265 3.8178405e-05
-0.21846378 -0.14805104 -0.42007452 -0.039238963 -0.11892582 0.99212754 0
-0.12667106 -0.14807333 -0.42003798 0.036802281 -0.11804517 0.99232602 3.0163426e-06
-0.10074675 -0.14019385 -0.42034575 0.054353632 -0.11567634 0.9917987 4.0871106e-05
-0.086722046 -0.14426231 -0.42168498 0.07099615 -0.11881936 0.99037439 4.9483227e-05
-0.038421482 -0.14579275 -0.42620629 0.10748094 -0.11765014 0.98722148 0
-0.028061105 -0.14965852 -0.42781731 0.1153343 -0.12057279 0.98598188 7.0226277e-05
-0.015347296 -0.14771497 -0.42916089 0.12747553 -0.11684443 0.98493522 0
-0.4249002 -0.13620853 -0.42031941 0.51764703 0.30154249 0.80069572 0.0060161334
-0.34294912 -0.13433579 -0.42948645 -0.13769184 -0.10827947 0.98453873 4.203152e-06
-0.33229378 -0.13607025 -0.42828482 -0.12806147 -0.11190592 0.98543262 0
-0.32667133 -0.1328733 -0.42719001 -0.12429918 -0.10749517 0.98640484 0
-0.31731567 -0.1327727 -0.42604953 -0.1173424 -0.1063649 0.98737895 6.004619e-05
-0.27084601 -0.13443029 -0.42158327 -0.080195844 -0.11104602 0.99057424 0
-0.26586026 -0.13877535 -0.42170179 -0.076933347 -0.11252676 0.99066597 0
-0.25624543 -0.13446477 -0.42050499 -0.070677325 -0.10775394 0.99166214 6.2849242e-05
-0.24617656 -0.13954392 -0.42042559 -0.059086647 -0.11513359 0.99159116 0.00012252857
-0.096886277 -0.13841315 -0.42035952 0.060792062 -0.11704011 0.99126488 0.00011161374
-0.084507734 -0.13831504 -0.42117542 0.074359164 -0.11209903 0.99091095 3.7694022e-05
-0.070490949 -0.13330689 -0.42167211 0.081218481 -0.11171913 0.99041528 0
-0.067992806 -0.13646984 -0.42226025 0.081221581 -0.11169491 0.99041772 4.2100191e-06
-0.056766175 -0.13551067 -0.42316717 0.092697069 -0.11291064 0.9892717 6.0021854e-08
-0.045914963 -0.13727614 -0.42442662 0.10207736 -0.11192925 0.98845947 1.1566553e-05
-0.033747338 -0.13543826 -0.42551994 0.11306352 -0.10816005 0.98768324 1.1076952e-05
-0.02525687 -0.13550496 -0.42651877 0.11929848 -0.10872869 0.98688698 7.6532218e-05
-0.0047020135 -0.13597247 -0.42920613 0.13421573 -0.10827146 0.98501956 5.0204068e-05
0.0019619986 -0.13287687 -0.42973253 0.13718331 -0.10600928 0.98485672 0.00019959957
0.077063918 -0.13611704 -0.42448127 -0.50096112 0.28538862 0.81706262 0.014280282
-0.42340675 -0.12844966 -0.42668572 0.52234495 0.27924749 0.80571496 0.011015855
-0.34393996 -0.12903206 -0.42904896 -0.13839179 -0.10255088 0.98505384 0
-0.33773205 -0.12940533 -0.42823187 -0.13502598 -0.10474701 0.98528981 7.369079e-05
-0.32721737 -0.12490165 -0.42640877 -0.12514664 -0.10107866 0.98697597 0
-0.30417466 -0.12498338 -0.42370301 -0.10589664 -0.10230088 0.98910081 0
-0.29666725 -0.1270926 -0.42313749 -0.099095367 -0.10282716 0.98975074 0
-0.27638575 -0.12202516 -0.42074808 -0.087501317 -0.098535143 0.99127913 0
-0.26462209 -0.12709698 -0.42032182 -0.071971998 -0.10546794 0.99181479 7.7651071e-05
-0.064764768 -0.1278526 -0.42161608 0.085426755 -0.10257755 0.99105 6.0418861e-05
-0.053728901 -0.12382583 -0.42221352 0.096940018 -0.10018355 0.99023527 2.9485504e-05
-0.020652063 -0.12501289 -0.42597663 0.12196779 -0.10105427 0.98737633 8.4666863e-05
-0.013190192 -0.12092372 -0.42644998 0.12703782 -0.09685836 0.98715746 0.00010218301
0.0001039987 -0.12889576 -0.42908177 0.13742347 -0.10228132 0.98521739 3.8296512e-05
0.08279793 -0.12624726 -0.42365175 -0.52400535 0.25801638 0.81169331 0.012740469
-0.43122885 -0.1169636 -0.42377573 0.53502667 0.24350117 0.80898303 0.0090575013
-0.31710947 -0.11574726 -0.42426676 -0.11875427 -0.094995618 0.98836899 0
-0.2976529 -0.11149745 -0.4217633 -0.10169146 -0.089942195 0.99074179 5.0243175e-06
-0.27513856 -0.11699188 -0.42017499 -0.086491525 -0.097689718 0.9914515 0
-0.046933256 -0.11252696 -0.42181316 0.10276146 -0.091044247 0.99053061 0
-0.034003627 -0.11547108 -0.42345297 0.11099127 -0.091313958 0.98961753 9.5719906e-06
-0.025997933 -0.11315823 -0.42414021 0.11690785 -0.089246877 0.98912466 6.5050132e-05
-0.019147882 -0.1120425 -0.42489874 0.12205479 -0.090748087 0.98836601 0.00011050476
-0.0012583242 -0.11075894 -0.42713985 0.13833877 -0.090358295 0.98625445 0.00014912225
0.0036730042 -0.11826878 -0.42857304 0.14185993 -0.094793238 0.98533756 0.00011669035
-0.43777809 -0.10116114 -0.42394698 0.59580058 0.23026176 0.76941615 0.0063452614
-0.36078674 -0.10552487 -0.42928034 -0.15081075 -0.084311947 0.98496073 7.6769225e-05
-0.35816789 -0.10335684 -0.4287073 -0.14941853 -0.082620308 0.98531616 1.1446095e-05
-0.34465945 -0.10615276 -0.42695141 -0.13719775 -0.086680211 0.98674381 3.6358048e-05
-0.33142641 -0.10512785 -0.42513338 -0.13012739 -0.084050119 0.98792839 3.8810329e-05
-0.31529897 -0.10434248 -0.42304647 -0.11511139 -0.087247387 0.98951364 0
-0.30565304 -0.10266622 -0.4217903 -0.10794592 -0.08145947 0.99081385 8.9931258e-05
-0.29670656 -0.10319908 -0.42090064 -0.099654816 -0.082531318 0.99159336 1.8462722e-06
-0.28787172 -0.10758997 -0.42043447 -0.092462778 -0.085064068 0.99207598 0.00014971943
-0.050121572 -0.10573322 -0.4208585 0.099709056 -0.083590984 0.99149919 7.6713703e-05
-0.042904675 -0.10508656 -0.42154926 0.10544872 -0.08171463 0.99106169 0
-0.031349391 -0.10066636 -0.42246783 0.11239848 -0.079577178 0.9904716 6.2064682e-05
-0.026873559 -0.10576409 -0.42338932 0.11730899 -0.08399684 0.98953682 0
-0.013177006 -0.10425481 -0.42499882 0.12849554 -0.082653373 0.98825973 9.6707721e-05
0.00098112272 -0.10529204 -0.4269363 0.13707188 -0.085135639 0.98689574 3.646054e-05
0.021544838 -0.10433839 -0.42995277 0.15132803 -0.085189976 0.98480576 0.00012120624
-0.43922442 -0.094526082 -0.42501342 0.56218243 0.17785324 0.80766273 0.011357922
-0.36526507 -0.096054956 -0.42925054 -0.1543491 -0.077149168 0.98499972 0.00013723936
-0.35555494 -0.094250545 -0.42760357 -0.14495471 -0.077474996 0.98640043 2.4630643e-05
-0.34448528 -0.093237191 -0.4259125 -0.13808556 -0.074253321 0.98763293 0
-0.31750754 -0.095965736 -0.42265034 -0.11921427 -0.074511461 0.99006867 1.9186888e-05
-0.29751515 -0.090856537 -0.42003351 -0.10193326 -0.071242295 0.99223691 0
-0.032985035 -0.095258631 -0.42185414 0.11136439 -0.076558098 0.99082631 6.9910646e-05
-0.023981819 -0.093871497 -0.42279837 0.1175781 -0.07705389 0.99006981 0.00012721107
-0.014723895 -0.094520658 -0.42394862 0.12998086 -0.078084797 0.98843706 9.0984788e-05
-0.0076366668 -0.095980108 -0.42501637 0.13139121 -0.078030787 0.98825485 8.8136905e-05
0.0075213797 -0.096455202 -0.42716986 0.14282089 -0.076448798 0.98679167 0
0.014211772 -0.096396863 -0.42820492 0.14609049 -0.077236474 0.98625147 9.8375276e-05
-0.44275987 -0.085132129 -0.42455602 0.56440878 0.18078381 0.80545634 0.01263903
-0.36636814 -0.083067223 -0.42842677 -0.15699251 -0.065557271 0.98542154 0.00012083337
-0.35455152 -0.084434763 -0.42671809 -0.14894313 -0.065440752 0.986678 5.9117177e-05
-0.33979452 -0.081731737 -0.42445409 -0.13525599 -0.06699539 0.98854309 2.0492393e-05
-0.31522024 -0.082793482 -0.42136157 -0.11549513 -0.067192324 0.99103284 7.0595597e-05
-0.30559483 -0.086051472 -0.42053714 -0.10585499 -0.068951316 0.99198818 2.6473408e-05
-0.032768246 -0.087913617 -0.42130575 0.11286438 -0.072079912 0.99099249 7.4233889e-05
-0.020017099 -0.087263793 -0.42275411 0.1227881 -0.070602104 0.98991841 0.00024297698
-0.019309036 -0.084638581 -0.4226802 0.12495676 -0.067371219 0.98987222 8.8722401e-05
0.0089526605 -0.08872211 -0.42681241 0.14405778 -0.071153842 0.9870078 0
0.012681522 -0.084105037 -0.42704561 0.1464148 -0.069803879 0.98675746 3.4145138e-05
0.024643511 -0.081538007 -0.42868721 0.15973713 -0.064420491 0.98505539 8.492839e-05
0.098238707 -0.087686211 -0.42373109 -0.5205996 0.21624406 0.82596284 0.018012343
-0.37137473 -0.077661783 -0.42889285 -0.15999521 -0.063882113 0.98504853 2.7499011e-05
-0.35396567 -0.075809635 -0.42604437 -0.14741856 -0.059801705 0.98726469 9.6338605e-05
-0.34606916 -0.075288139 -0.4248952 -0.14234424 -0.059224717 0.98804384 4.2727886e-05
-0.33575207 -0.076919466 -0.42359102 -0.13094795 -0.061990894 0.9894492 0
-0.32666624 -0.074165642 -0.42225841 -0.12629178 -0.058962416 0.99023926 0.00010930274
-0.014401528 -0.078664914 -0.42292756 0.12567455 -0.064423673 0.98997748 0
-0.0085366536 -0.077697858 -0.42360696 0.13330939 -0.063342363 0.98904824 7.4104915e-05
0.0020762382 -0.075098842 -0.42489955 0.13968572 -0.059172835 0.98842621 0
0.025538063 -0.078927666 -0.42868748 0.15939096 -0.062892802 0.98521012 0
0.10230939 -0.071577288 -0.42533141 -0.60204852 0.15949041 0.78236848 0.013708232
-0.45113575 -0.062256783 -0.42166314 0.59955251 0.12666015 0.79024935 0.0085581383
-0.3802824 -0.065948069 -0.42970186 -0.162736 -0.051099185 0.98534554 6.0626331e-05
-0.3753742 -0.066084862 -0.42890432 -0.1634669 -0.052283954 0.9851625 0.00012757743
-0.36413705 -0.063134968 -0.42690927 -0.15433973 -0.047738716 0.98686391 9.3381213e-06
-0.35183239 -0.061016731 -0.42496538 -0.14479038 -0.050343852 0.98818088 0
-0.34326077 -0.063495889 -0.42383087 -0.13695066 -0.052396212 0.98919117 0
-0.33298072 -0.064543545 -0.42249209 -0.13041525 -0.049967568 0.99019951 2.0322441e-06
-0.31654203 -0.067392088 -0.42060557 -0.11666463 -0.053945832 0.99170524 5.2861702e-05
-0.024432806 -0.066026621 -0.42088526 0.12093277 -0.055805657 0.99109077 8.369128e-05
0.0034830302 -0.065551743 -0.42457092 0.13956584 -0.052381668 0.98882633 8.8084293e-05
0.021276886 -0.066099867 -0.42727414 0.15565081 -0.054554295 0.98630452 0
0.10203078 -0.065910071 -0.42760652 -0.56127721 0.12609994 0.81796497 0.016695812
-0.45317379 -0.05821678 -0.42025518 0.59223282 0.15049587 0.79158777 0.0078478623
-0.38372093 -0.054048199 -0.42966154 -0.16867346 -0.041700236 0.98478955 0
-0.37387878 -0.055623837 -0.42809895 -0.16178945 -0.045715313 0.98576587 4.0438012e-05
-0.36380026 -0.056938987 -0.42653766 -0.15433773 -0.045783103 0.98695683 7.160697e-05
-0.35539794 -0.055008974 -0.42519206 -0.14801377 -0.04494955 0.9879632 7.3138472e-05
-0.34744403 -0.054076269 -0.42396343 -0.13983078 -0.043839559 0.98920447 6.3186555e-05
-0.33825338 -0.059205376 -0.42295283 -0.13345854 -0.0463099 0.98997182 0
-0.32751912 -0.052017935 -0.42119879 -0.12825331 -0.043450423 0.99078912 6.0688257e-05
-0.021955512 -0.054088783 -0.42062652 0.12286431 -0.043123689 0.99148613 0.0001162071
-0.015413181 -0.057139803 -0.42159307 0.12765361 -0.045765895 0.99076241 0
-0.0083154971 -0.058997527 -0.42262203 0.13074957 -0.046541493 0.99032241 5.110338e-05
0.0056553246 -0.053803325 -0.42430967 0.14065763 -0.043188639 0.98911583 0
0.014171701 -0.051502109 -0.42545033 0.15224738 -0.04280439 0.98741513 2.1351598e-05
0.023369372 -0.05211366 -0.42687207 0.15655792 -0.040870722 0.98682278 0
0.036708325 -0.053573526 -0.42916715 0.16742769 -0.043324132 0.98493189 1.527779e-05
0.041060165 -0.052899815 -0.4298766 0.16983002 -0.04323329 0.98452461 3.0903189e-05
0.10812529 -0.052913636 -0.42282799 -0.60649997 0.092396401 0.78969657 0.011279724
-0.45331615 -0.045948036 -0.42291498 0.58731896 0.077530906 0.80563354 0.010694909
-0.3845095 -0.046438515 -0.42953834 -0.17081848 -0.039381485 0.98451513 0
-0.36162394 -0.048323743 -0.42582875 -0.15394269 -0.037978765 0.98734963 0
-0.34832954 -0.042576544 -0.42362547 -0.1430072 -0.034778088 0.98911047 3.234404e-05
-0.33603659 -0.042495921 -0.42192802 -0.1332695 -0.032991081 0.99053049 0
-0.32628676 -0.045616534 -0.42076921 -0.12482291 -0.036884155 0.99149323 0
-0.020569785 -0.042743288 -0.42033604 0.12348469 -0.033959936 0.9917652 4.3026772e-05
-0.015327915 -0.045391902 -0.42107347 0.12684558 -0.035795089 0.99127638 0.00014794071
0.0096704131 -0.044276178 -0.42450491 0.14549178 -0.03509162 0.98873699 3.7588939e-05
0.012508564 -0.047245167 -0.4250325 0.14895381 -0.041226 0.98798436 0
0.041576572 -0.044008542 -0.42966387 0.17069627 -0.034996487 0.98470205 0.0001096697
-0.38017207 -0.03906453 -0.42855212 -0.16640095 -0.034672841 0.98544836 6.3332445e-05
-0.36807507 -0.035129499 -0.42641753 -0.15684628 -0.02936266 0.98718643 5.0115836e-05
-0.34633306 -0.033359967 -0.42309734 -0.14137672 -0.027721945 0.98956764 0
-0.33447164 -0.034800578 -0.4215011 -0.13188978 -0.031669039 0.99075842 1.1837838e-05
-0.32680103 -0.038144324 -0.42058307 -0.12608513 -0.032238834 0.99149543 2.0423604e-05
-0.019733842 -0.033313613 -0.42017543 0.12349707 -0.025927929 0.99200612 0
-0.0021669799 -0.039559595 -0.42266816 0.13695681 -0.030662484 0.99010229 0
0.0018507303 -0.036519572 -0.42313886 0.13818909 -0.030480416 0.98993677 0
0.010099639 -0.034870185 -0.42428309 0.14555477 -0.024474252 0.98904747 0
0.02904165 -0.035988353 -0.42726296 0.16118276 -0.028550396 0.98651147 3.8301845e-05
0.043823551 -0.036481094 -0.42979121 0.17278907 -0.027485333 0.98457533 4.7132562e-06
0.11203461 -0.031503379 -0.42194748 -0.62261146 0.061978571 0.78007281 0.014343698
-0.45193207 -0.026367351 -0.42890352 0.56841719 0.024248553 0.82238311 0.017827474
-0.38106886 -0.025761256 -0.42829427 -0.16674317 -0.022281736 0.98574853 1.7158865e-05
-0.36410865 -0.024642089 -0.42550555 -0.15430063 -0.019615043 0.98782921 5.0870298e-05
-0.35464227 -0.022362962 -0.42401272 -0.14771578 -0.021546943 0.9887951 0
-0.34200883 -0.023699475 -0.42225218 -0.13752858 -0.016373005 0.99036247 0
-0.33272833 -0.028648976 -0.42109194 -0.12749168 -0.024047412 0.99154806 5.2359421e-05
0.017263964 -0.024686154 -0.42507869 0.15288651 -0.019038277 0.9880603 0
0.034543257 -0.025022946 -0.42787611 0.16536655 -0.021253236 0.98600316 0
0.10714008 -0.029014131 -0.42988724 -0.44578865 0.00090451323 0.89513779 0.025737489
0.11047949 -0.02552163 -0.42452577 -0.57161319 0.0088825189 0.82047522 0.018477615
-0.45805982 -0.014224583 -0.4210692 0.60769635 0.030749746 0.79357398 0.0082773799
-0.3739208 -0.016158244 -0.42694977 -0.16302651 -0.01575708 0.98649585 2.6422545e-05
-0.36413908 -0.012389492 -0.42537832 -0.15143301 -0.010019567 0.98841673 0.0001522222
-0.34548214 -0.016471997 -0.4226326 -0.13934352 -0.014107653 0.99014366 8.8940673e-05
-0.0084078228 -0.012177074 -0.42122728 0.13286719 -0.010594715 0.99107718 5.532604e-05
0.00021580909 -0.019186562 -0.42250168 0.13640666 -0.013368482 0.99056274 0
0.013691306 -0.015888972 -0.42442909 0.15034722 -0.013356272 0.98854303 0.00022258537
0.039733559 -0.015907278 -0.42867005 0.16863956 -0.014436495 0.98557204 7.972098e-05
0.10893428 -0.018462362 -0.42775136 -0.53211349 -0.040482052 0.84570473 0.017345576
0.1124138 -0.017225731 -0.42264956 -0.5716778 -0.035808604 0.81969631 0.014972623
-0.45760301 -0.0053218305 -0.42262134 0.61273122 -0.00075205328 0.79029101 0.011158904
-0.38268042 -0.0035750943 -0.42832148 -0.1697491 -0.0049756863 0.98547477 4.1961455e-05
-0.3628028 -0.0055571529 -0.42509902 -0.15267496 -0.0051416489 0.98826307 0
-0.35301176 -0.0041872468 -0.42358726 -0.14500633 -0.004013224 0.98942256 0
0.0030485853 -0.0044611031 -0.42276371 0.14006284 -0.0017375316 0.99014109 2.5912945e-05
0.013190049 -0.0051343003 -0.42424026 0.15040392 -0.0041540996 0.98861593 9.9316181e-05
0.039654028 -0.0019815478 -0.42849851 0.16752952 -0.0018282339 0.98586535 0.0001175297
0.046810277 -0.0084478157 -0.42980891 0.17215075 -0.011231977 0.98500663 8.1592385e-05
0.11201241 -0.0051158429 -0.42438316 -0.58720171 0.0025528495 0.80943668 0.010356456
-0.4575915 0.0082001248 -0.42234063 0.6090014 -0.0036790504 0.79316056 0.008702538
-0.34923828 0.0077500357 -0.42307946 -0.14081991 0.0065434673 0.9900136 0
-0.33282316 0.0029857731 -0.4207578 -0.13035361 0.0034411685 0.99146158 2.9842695e-05
-0.011389086 0.0082624396 -0.42079359 0.12962751 0.00525025 0.9915489 0
-0.0013566548 0.0088142678 -0.42218566 0.13737337 0.0056129014 0.99050343 1.8276729e-05
0.0064121853 0.0080390517 -0.42326856 0.14510942 0.0063027232 0.9893955 0
0.015445281 0.0051850686 -0.42459384 0.14924222 0.0053670099 0.9887861 3.6673562e-05
0.025595702 0.0021362833 -0.4261516 0.15741707 0.00010591885 0.98753226 7.2368326e-05
0.034090228 0.0068701506 -0.4275921 0.1658076 0.0055709872 0.9861424 0.0001723804
0.11480253 0.0078721717 -0.42054951 -0.61838204 -0.0096400268 0.78581858 0.0052001686
-0.45618588 0.019742033 -0.42292446 0.60974193 -0.038179643 0.79167998 0.0080327885
-0.39108112 0.010305188 -0.42984998 -0.17996994 0.0068986039 0.98364788 0
-0.38563564 0.015103239 -0.42896298 -0.17126504 0.016016975 0.98509479 9.7784232e-06
-0.36028898 0.017900942 -0.42483214 -0.15182576 0.016462194 0.98827016 0
-0.35517347 0.012636336 -0.42397732 -0.14621559 0.010889358 0.98919278 0
-0.0075973114 0.014966737 -0.42136663 0.13290949 0.013151794 0.99104095 0
0.0059819943 0.015084925 -0.423273 0.14539899 0.013689104 0.98927844 0
0.013846093 0.015772102 -0.42445213 0.14835773 0.012729317 0.98885185 5.2309264e-05
0.025826953 0.013648156 -0.42630592 0.15607056 0.013161677 0.98765826 3.7775178e-05
0.10827066 0.01854641 -0.42894381 -0.53896141 -0.0063698213 0.84230638 0.017302327
0.11060217 0.018039046 -0.4250707 -0.57429063 0.0078609418 0.81861377 0.012919203
-0.45493409 0.022876898 -0.42472258 0.57705116 -0.045494892 0.81543982 0.012551126
-0.3885403 0.026925821 -0.42961374 -0.17006758 0.020441497 0.98522031 5.9331971e-05
-0.36510625 0.027865609 -0.42574334 -0.15590665 0.023418577 0.98749411 3.9065573e-05
-0.35263571 0.024525236 -0.42375675 -0.14217901 0.018449934 0.98966897 3.4700582e-07
-0.010777034 0.023540681 -0.42104137 0.12954281 0.01894935 0.99139273 6.0782488e-05
-0.0050604604 0.02468513 -0.42186698 0.13337995 0.019886285 0.99086541 2.4025958e-05
0.013089759 0.025564061 -0.4244594 0.14945418 0.020838793 0.98854905 4.1637642e-05
0.022278827 0.02291798 -0.42584556 0.15478984 0.019097511 0.98776281 5.6279892e-05
0.036732003 0.024911765 -0.42825317 0.16422246 0.019171447 0.98623699 0
0.1090286 0.022203378 -0.42721391 -0.54226375 -0.0081437407 0.84016883 0.017724946
-0.4540678 0.03049252 -0.42488259 0.59009963 -0.084026754 0.80294573 0.011102751
-0.38819832 0.030792505 -0.4296363 -0.16831744 0.022860169 0.98546773 5.7173675e-06
-0.3717261 0.038451575 -0.42709631 -0.16053051 0.030932432 0.9865461 0.00015205661
-0.36276037 0.035982568 -0.42562592 -0.15353763 0.031517848 0.98764002 5.1727926e-05
-0.35754144 0.031783048 -0.42469433 -0.14968592 0.027806416 0.98834246 7.712518e-05
-0.34130144 0.038287468 -0.42253858 -0.13714166 0.031046627 0.99006474 0.00011218288
-0.016689688 0.032975741 -0.42054701 0.12656282 0.025144139 0.99163985 0.00014811275
0.0064454763 0.033730008 -0.42371181 0.14519376 0.026036715 0.98906058 2.2041688e-06
0.013179153 0.034988217 -0.42476052 0.14797278 0.02666539 0.98863184 1.8696868e-05
0.02459505 0.032856833 -0.42645186 0.15787528 0.025004631 0.98714244 6.1100036e-05
0.032568742 0.03908886 -0.42796704 0.16473272 0.032330446 0.98580825 4.4473763e-05
0.11275861 0.034539539 -0.42084441 -0.634781 -0.060757902 0.77029967 0.0071983426
-0.4516499 0.041773401 -0.42646027 0.52128804 -0.11386468 0.84575033 0.021096349
-0.44932878 0.043857947 -0.42996615 0.4845148 -0.11992085 0.86652434 0.021145308
-0.38359919 0.043126147 -0.4292717 -0.16968641 0.034814041 0.98488295 0
-0.37500396 0.045199316 -0.42788133 -0.1627147 0.040341254 0.98584807 8.5611442e-05
-0.35380837 0.044960454 -0.42452323 -0.14552203 0.036382217 0.98868585 4.1867694e-05
-0.34738636 0.044537857 -0.42355695 -0.14187045 0.033468604 0.98931926 0
-0.33698574 0.040360734 -0.42200032 -0.13171557 0.034107823 0.9907006 0
-0.3267048 0.043255005 -0.420724 -0.12352376 0.035059564 0.99172211 0
-0.022678968 0.044801481 -0.42016989 0.12161007 0.036809891 0.9918952 0
-0.0086464183 0.044092603 -0.42192256 0.13184507 0.035809174 0.9906233 8.6227163e-05
0.0026063723 0.047683481 -0.42356491 0.14060058 0.038037445 0.98933548 4.8422735e-05
0.016221279 0.047636077 -0.42561567 0.14954211 0.0383831 0.98800999 1.6056933e-05
0.033906944 0.046979591 -0.42846113 0.16554287 0.039453417 0.98541307 8.3570638e-05
0.10755177 0.048160776 -0.42469019 -0.59112954 -0.12433737 0.79693544 0.010594687
0.11064259 0.04137231 -0.42220688 -0.61429256 -0.084525675 0.78453821 0.0092709288
-0.44787586 0.05294067 -0.42923144 0.49938917 -0.031440888 0.86580706 0.022820564
-0.38317379 0.055227127 -0.4296084 -0.1679503 0.044463549 0.98479223 0
-0.37635168 0.055676643 -0.4285098 -0.16401112 0.045410819 0.98541272 1.7160364e-06
-0.36341688 0.054666143 -0.42636609 -0.15222399 0.044841435 0.98732829 9.4296345e-05
-0.34177744 0.056183279 -0.42328545 -0.13707753 0.045962032 0.98949349 0
-0.33186877 0.058779325 -0.4220835 -0.12849593 0.047534637 0.99057013 0
-0.3181197 0.054049075 -0.42014432 -0.1206207 0.044974033 0.99167937 0
-0.020721495 0.055556342 -0.42083055 0.12226968 0.042694502 0.99157822 4.6804234e-05
-0.017894235 0.053871185 -0.42111498 0.12330868 0.042910185 0.99144024 0.00011885545
-0.0031465115 0.054992601 -0.42312926 0.13558662 0.044585668 0.98976183 5.7541351e-05
0.0052055656 0.058746502 -0.42448366 0.14114232 0.049034175 0.98877424 0
0.014399601 0.0585218 -0.4258382 0.14958571 0.044938602 0.98772705 0
0.023195142 0.050691321 -0.42679158 0.15722926 0.040479485 0.98673218 0
0.10852193 0.057596464 -0.42091346 -0.58582675 -0.12907633 0.80009139 0.011624977
-0.35505807 0.062125646 -0.42550051 -0.14695856 0.048200112 0.98796761 1.4670096e-05
-0.33388644 0.062840573 -0.42253569 -0.13209137 0.05066862 0.98994172 0
-0.3238633 0.067190483 -0.42147115 -0.12038263 0.054111037 0.99125177 5.3549506e-05
-0.028532302 0.06614437 -0.42043433 0.11868886 0.052757334 0.99152893 7.9192369e-06
-0.016683914 0.061801765 -0.42164245 0.12589522 0.048290607 0.99086756 4.7618301e-05
-0.0064078784 0.063972324 -0.42310086 0.13494162 0.051036943 0.98953825 4.0082956e-05
0.0090883086 0.066399775 -0.42544645 0.14335097 0.054539721 0.988168 5.4688903e-06
0.019742139 0.069904588 -0.42723423 0.15354678 0.055603359 0.98657572 4.9353523e-05
0.023220694 0.065132864 -0.42753914 0.15579742 0.052886918 0.98637223 1.3666113e-05
0.10562111 0.06482698 -0.42264825 -0.57557958 -0.16358063 0.80121756 0.011218154
-0.44874871 0.071970113 -0.42216045 0.61341989 -0.11910968 0.78072339 0.010728978
-0.37389815 0.072724774 -0.42903191 -0.16353837 0.058814358 0.98478228 0.00015185674
-0.36721134 0.073551685 -0.42798102 -0.16086985 0.059660818 0.98517078 9.7038093e-05
-0.35780954 0.079110824 -0.42680708 -0.14872442 0.061615121 0.98695731 6.7771907e-05
-0.33379671 0.077117413 -0.42334116 -0.13130122 0.061957709 0.9894045 0.00010273143
-0.32675028 0.076487601 -0.42241338 -0.11985938 0.061200012 0.99090278 2.5700498e-05
-0.014353286 0.074251011 -0.42265913 0.12891987 0.057631109 0.98997897 9.3973836e-07
-0.0086879348 0.078345835 -0.42362821 0.13117361 0.061360873 0.98945862 0
0.0043349783 0.077897526 -0.42541158 0.14133322 0.063964769 0.98789346 0.00010623437
0.022349898 0.079526499 -0.42819786 0.15637811 0.064323321 0.98560047 6.0895873e-05
0.10395512 0.072966792 -0.42270637 -0.57036573 -0.17384207 0.80278379 0.0077346144
-0.44008723 0.089857638 -0.4259378 0.59275317 -0.19429901 0.78159559 0.012805739
-0.3645159 0.083754197 -0.42819163 -0.15510036 0.067289285 0.98560441 0.00016982252
-0.35636854 0.08293584 -0.42688534 -0.14758927 0.067991845 0.98670894 7.2819926e-06
-0.33711398 0.082836092 -0.4241536 -0.13695954 0.065923803 0.98838061 0.0001447203
-0.32901201 0.088967159 -0.4234747 -0.1258084 0.073305771 0.98934245 0.00012493218
-0.31867912 0.083161123 -0.42181429 -0.11815196 0.064818248 0.99087781 9.6810079e-05
-0.30385 0.087178476 -0.42043456 -0.10950065 0.066601641 0.99175286 0.00010528456
-0.0044170814 0.085345373 -0.42469692 0.13817908 0.067730114 0.98808861 0
0.006879366 0.083491854 -0.42615774 0.14370818 0.068010814 0.98728037 4.1716026e-05
0.029068865 0.087467775 -0.42982918 0.15624735 0.068646193 0.98532969 0
0.096183747 0.088588245 -0.42619535 -0.52756667 -0.23606497 0.8160556 0.0078691756
-0.36962974 0.093997449 -0.42977104 -0.15300883 0.07401596 0.98544914 0.00015817402
-0.35982358 0.094370484 -0.428276 -0.14853148 0.076269329 0.98596215 6.1227758e-05
-0.33440065 0.09762235 -0.42486721 -0.13281855 0.078318842 0.98804116 4.1284866e-06
-0.32659292 0.099871211 -0.42404473 -0.1204771 0.080922067 0.98941231 0
-0.30711457 0.097212993 -0.42153272 -0.11149931 0.079607263 0.99057078 0
-0.29873067 0.094358735 -0.42040133 -0.10540441 0.07844989 0.99133015 0
-0.04260454 0.095314302 -0.42075905 0.10552656 0.077456549 0.99139529 0
-0.021178288 0.092368826 -0.42300874 0.12194636 0.072821215 0.98986167 0
-0.015590678 0.094219021 -0.42382559 0.12642349 0.077241704 0.98896456 1.3143805e-05
0.0217412 0.093402475 -0.4291454 0.1552747 0.075322255 0.9849956 7.7008117e-05
-0.36056966 0.10224924 -0.42899561 -0.14939497 0.08194074 0.98537654 3.891845e-05
-0.34477106 0.10884123 -0.42722535 -0.13992946 0.084799513 0.98652363 1.2060734e-05
-0.33335724 0.10644823 -0.42550036 -0.12980108 0.083299384 0.9880349 3.6708483e-05
-0.29997131 0.10708395 -0.42159924 -0.1071547 0.085657112 0.99054563 8.1663624e-05
-0.053397566 0.10822624 -0.42075777 0.097429045 0.089906886 0.99117315 0
-0.042811103 0.10011435 -0.4210982 0.10608602 0.083199225 0.99087012 5.2170031e-05
-0.032773454 0.1065052 -0.4227823 0.11200736 0.089342184 0.98968291 0.0001575304
-0.021327727 0.10511015 -0.42401767 0.12279906 0.084864728 0.98879641 0
0.013055882 0.10334057 -0.4285641 0.14764956 0.081989065 0.98563546 6.4093118e-05
0.021751469 0.10323866 -0.42990065 0.15409869 0.083601601 0.98451227 3.0144365e-05
0.092163987 0.10208452 -0.42540038 -0.54860622 -0.19789539 0.81232291 0.008485049
-0.43271089 0.11171611 -0.42522117 0.56171703 -0.27562889 0.78006572 0.0090808412
-0.35960904 0.11021465 -0.42949486 -0.14597365 0.083898284 0.98572451 0.00011879663
-0.34212571 0.11400915 -0.42734164 -0.13634492 0.092312813 0.98635107 0.00011072974
-0.33437803 0.11935723 -0.42675868 -0.12974231 0.097925112 0.98670036 0.00011983792
-0.32424963 0.11556589 -0.42511648 -0.12065936 0.09329582 0.98830014 9.1790913e-05
-0.31837171 0.11411902 -0.42424452 -0.11876698 0.092657864 0.98858935 3.6377482e-05
-0.30728248 0.11970644 -0.42354235 -0.10999706 0.09755566 0.98913264 9.2605202e-05
-0.29923788 0.11725044 -0.42246425 -0.10221583 0.094899684 0.99022526 1.2378635e-05
-0.28247976 0.1109219 -0.42020944 -0.094354808 0.089703538 0.99148899 2.9274144e-05
-0.063033536 0.11707011 -0.42067304 0.088307649 0.095044076 0.99154848 7.5664902e-05
-0.053316414 0.11026513 -0.4209314 0.097431645 0.089884311 0.991175 0
-0.047281042 0.11002067 -0.42154408 0.099682108 0.090468593 0.99089801 0
-0.025236076 0.11693025 -0.42459986 0.11417409 0.095196068 0.98888928 4.9692906e-05
-0.011850337 0.11954489 -0.42650455 0.1300189 0.095397525 0.98691154 0
0.0055467407 0.11648561 -0.4286713 0.14164567 0.095297217 0.98531967 0
0.013014819 0.11263923 -0.42937684 0.15024534 0.08928147 0.98460919 0
0.084228955 0.11747447 -0.42743897 -0.53853142 -0.18933094 0.82105887 0.013646776
0.09249571 0.1126535 -0.42018893 -0.53254241 -0.20375974 0.82151121 0.0063344701
-0.33694273 0.12916647 -0.42810178 -0.13389368 0.10416514 0.98550606 0.00011236539
-0.32288221 0.12077171 -0.42546469 -0.12048213 0.096193925 0.9880439 0.0001735814
-0.31605864 0.12564203 -0.42516366 -0.11738739 0.10179655 0.98785508 6.3541505e-05
-0.30548394 0.12844197 -0.42420596 -0.10789086 0.10594965 0.98850095 4.1195133e-05
-0.29634082 0.12807557 -0.42321113 -0.10203011 0.10490728 0.98923427 1.7477201e-05
-0.27534634 0.12822726 -0.42128077 -0.085277744 0.1047225 0.99083847 1.1273203e-05
-0.060707867 0.12116593 -0.42128533 0.088822998 0.10014039 0.99100065 0
-0.044830725 0.12574026 -0.42326042 0.1030038 0.10111196 0.98952848 9.5990014e-05
-0.035744995 0.12412625 -0.42410463 0.1092562 0.099552058 0.98901594 9.5975622e-05
-0.01927897 0.12456572 -0.42609233 0.12272465 0.10124214 0.98726326 7.991703e-05
-0.009865962 0.12187269 -0.42696971 0.13109758 0.097550802 0.98655826 0
0.0049099461 0.1247015 -0.42937031 0.141688 0.10285796 0.9845531 7.4224998e-05
0.081654146 0.12987456 -0.42265174 -0.54788113 -0.27514616 0.79001319 0.0089811916
-0.42495719 0.13573307 -0.42049164 0.51691693 -0.27412474 0.81095773 0.011372897
-0.33302245 0.13678703 -0.42846161 -0.12795003 0.11061992 0.98559225 0
-0.32509226 0.13733003 -0.42749643 -0.12436429 0.10865507 0.98626959 4.2120657e-05
-0.31721392 0.13533688 -0.42630273 -0.11562232 0.10883816 0.98731238 0
-0.28351164 0.13461336 -0.42271286 -0.091233402 0.11033856 0.98969781 0
-0.26432943 0.13960576 -0.42167932 -0.07185664 0.11574264 0.9906767 0
-0.090950079 0.13764666 -0.42062399 0.065468691 0.11172942 0.99157971 0
-0.076432183 0.13430525 -0.4213247 0.077176854 0.10812839 0.99113673 4.7394329e-05
-0.064274877 0.13903138 -0.42284325 0.08537063 0.11154468 0.99008566 1.8604635e-05
-0.050431278 0.13112316 -0.42329067 0.098117135 0.1055003 0.98956692 0
-0.04608788 0.13392855 -0.42402434 0.10330208 0.10447215 0.98914832 0
-0.037822112 0.13707805 -0.42524034 0.10735397 0.11156709 0.98794121 6.1253726e-05
-0.026941098 0.13329804 -0.42609182 0.11592691 0.10642699 0.98753953 0.00012801414
-0.016329736 0.13538621 -0.4276247 0.12903742 0.11005016 0.98551422 0
0.076793633 0.13590248 -0.42498213 -0.52338135 -0.30063024 0.79730386 0.0097954907
-0.42043018 0.14185132 -0.42205393 0.51206511 -0.27314597 0.81435895 0.015625272
-0.41830096 0.1408018 -0.42529052 0.485971 -0.27204174 0.83055729 0.019265836
-0.33512813 0.14481077 -0.42965239 -0.12865706 0.1155389 0.98493558 5.0285973e-05
-0.32644552 0.14154516 -0.42814845 -0.12492966 0.11275432 0.98573786 5.7940492e-06
-0.30794615 0.14817005 -0.42671558 -0.10990378 0.11726524 0.98700058 2.3519333e-05
-0.29437971 0.14258936 -0.42465401 -0.09898179 0.11329758 0.98861843 0
-0.28524551 0.1445394 -0.42394868 -0.091771014 0.11928903 0.98860925 0
-0.26554495 0.14508027 -0.42241427 -0.07493896 0.11820904 0.99015695 3.7095902e-05
-0.22763582 0.14919852 -0.42057648 -0.046623368 0.12227843 0.99140018 7.5276679e-05
-0.21295559 0.14983918 -0.42006493 -0.031201955 0.11984761 0.99230188 9.7358308e-05
-0.11953387 0.14792754 -0.42030621 0.041160576 0.11778501 0.99218571 5.4441527e-05
-0.099839918 0.14219874 -0.42061937 0.058821324 0.11524374 0.99159414 0
-0.086062178 0.14265132 -0.42154819 0.068054304 0.11697165 0.99080086 0
-0.075915314 0.14574566 -0.42270255 0.078528486 0.11569691 0.99017549 0.00010170959
-0.06293454 0.14467545 -0.42359146 0.088438533 0.11529446 0.98938656 5.1337724e-05
-0.055326052 0.14405555 -0.42425275 0.094497889 0.11651222 0.98868352 1.4603465e-05
-0.046803132 0.14665067 -0.42544046 0.098829947 0.11940047 0.98791498 2.6413977e-06
-0.030637184 0.14366372 -0.42676038 0.11318953 0.1172708 0.98662841 0.00012930855
-0.026664315 0.14222533 -0.42707705 0.11632526 0.11611352 0.9864006 0.00013107229
-0.015427824 0.14415962 -0.42874429 0.12376844 0.11575983 0.98553592 0.00010580889
-0.0068358849 0.14491558 -0.42994976 0.12853631 0.11076859 0.98549926 0.00025127502
0.069206968 0.14873362 -0.42507303 -0.54876071 -0.32044327 0.77212542 0.0083998302
0.073380284 0.14343369 -0.42439836 -0.51071316 -0.31266242 0.80088347 0.0087988339
-0.41106352 0.15315725 -0.42431021 0.46653405 -0.30928165 0.82866812 0.01428179
-0.32494995 0.15217429 -0.42916781 -0.12217558 0.12392261 0.98474169 1.0933707e-05
-0.31206262 0.15612885 -0.42819962 -0.11280809 0.12339777 0.98592466 7.5607488e-05
-0.29031837 0.15429032 -0.4256165 -0.092303507 0.1235713 0.98803353 0
-0.28633353 0.15265754 -0.42506704 -0.091404207 0.12229 0.98827648 6.9222864e-05
-0.26306149 0.1563583 -0.4235476 -0.07425981 0.12237766 0.98970157 0
-0.25602892 0.15526623 -0.42295241 -0.064757876 0.12516642 0.99002004 0
-0.22696534 0.1553399 -0.42131492 -0.044428237 0.12718964 0.99088293 9.4250565e-05
-0.21020348 0.15918432 -0.42114967 -0.031272478 0.12860793 0.99120235 1.4842273e-05
-0.20456181 0.15754777 -0.42079028 -0.02777303 0.12833199 0.99134231 9.554039e-06
-0.19827285 0.15686291 -0.4205541 -0.019971879 0.12696198 0.99170649 2.5188589e-05
-0.17085274 0.15843558 -0.42045671 0.001141259 0.1283375 0.99172992 0
-0.16224191 0.15761262 -0.42042461 0.0076717022 0.12935583 0.99156857 0
-0.15105584 0.15371896 -0.4200449 0.017829983 0.1232666 0.99221343 5.8910278e-05
-0.14794034 0.15901053 -0.42076617 0.019098559 0.12776738 0.99162024 3.4626413e-05
-0.13982911 0.15127113 -0.42001873 0.026368905 0.12135461 0.99225891 2.2402643e-05
-0.12355973 0.15561464 -0.42106363 0.038647223 0.12665963 0.99119312 0
-0.11268642 0.15704781 -0.42174587 0.049868811 0.12400612 0.99102747 0
-0.075783633 0.15408419 -0.42370075 0.077610642 0.12622693 0.98896074 4.1962262e-06
-0.039399575 0.15652473 -0.42741653 0.10596578 0.12465772 0.98652506 8.5584834e-05
0.068651333 0.15674073 -0.4200533 -0.53788191 -0.30364186 0.78643799 0.0074792844
-0.40257326 0.16403936 -0.42576647 0.46466002 -0.301218 0.83268172 0.013027784
-0.30131209 0.1680055 -0.42851859 -0.10334235 0.13282032 0.98573786 3.1874115e-05
-0.29819131 0.16105729 -0.42725712 -0.10280698 0.1319479 0.98591095 3.4919569e-05
-0.2820991 0.16363585 -0.42611918 -0.08620064 0.13234563 0.98744828 4.8751717e-06
-0.2729786 0.16459471 -0.42544931 -0.081245333 0.1338186 0.98766994 7.3743933e-05
-0.26667672 0.16660145 -0.42519945 -0.077697873 0.13324155 0.98803324 8.0122321e-05
-0.25131977 0.16357273 -0.4237248 -0.061746173 0.12913047 0.98970336 8.8237239e-06
-0.24539298 0.16171867 -0.42310464 -0.061879978 0.12916002 0.98969114 3.0370025e-05
-0.23045821 0.16318119 -0.42251682 -0.046357732 0.1312433 0.99026567 0
-0.21510425 0.16504353 -0.42210269 -0.034214195 0.13493751 0.99026322 1.1739564e-05
-0.19157586 0.16433895 -0.42138851 -0.016113501 0.13568702 0.99062067 9.8912196e-06
-0.17424853 0.16380595 -0.42116037 5.0141178e-05 0.13293193 0.99112517 1.5601921e-05
-0.15993911 0.16729547 -0.42173564 0.0088861501 0.13409956 0.99092799 0
-0.14806867 0.16495545 -0.42155826 0.017502608 0.13428631 0.99078804 0.00017866629
-0.11627071 0.16758163 -0.42298639 0.042008884 0.13378417 0.99011976 7.4235145e-06
-0.095593743 0.16581903 -0.42384377 0.06194894 0.1317848 0.98934078 0
-0.075540811 0.16472822 -0.42508632 0.079798341 0.1333451 0.9878518 0
-0.065747574 0.16200739 -0.425585 0.085294925 0.13103452 0.98770171 8.4247775e-05
-0.053173035 0.16481508 -0.42705899 0.095701218 0.13111526 0.98673713 6.4289037e-05
-0.040298235 0.16803354 -0.42881286 0.10440347 0.13432133 0.98542261 4.4292276e-05
-0.035265654 0.16646215 -0.42918307 0.11268518 0.13130312 0.98491704 3.4450692e-05
-0.02946583 0.16465977 -0.42961079 0.11313863 0.13134372 0.98485959 0
0.058107108 0.16730082 -0.42349637 -0.51672602 -0.37199473 0.77111226 0.0096330326
-0.39641801 0.17268705 -0.42607382 0.48539716 -0.32850763 0.81022984 0.012386136
-0.29763687 0.1746297 -0.42911327 -0.099500373 0.14073782 0.98503423 5.2295247e-05
-0.28805831 0.17463605 -0.42819229 -0.090962738 0.14289649 0.98554879 5.0489813e-05
-0.264521 0.17475134 -0.42618716 -0.073385946 0.14169496 0.98718643 5.0742721e-05
-0.24360307 0.17193572 -0.42437753 -0.057265591 0.13892047 0.98864639 0
-0.2346908 0.17698522 -0.4246344 -0.049198661 0.14259854 0.98855716 5.6580979e-05
-0.21101162 0.17054935 -0.42273912 -0.033271264 0.13657799 0.99007046 0
-0.2067306 0.17623916 -0.42340633 -0.02933239 0.14135474 0.98952436 0
-0.17864718 0.1779488 -0.42317915 -0.0066234716 0.13899402 0.99027103 4.0477244e-05
-0.1651677 0.17463094 -0.42271677 0.0056394031 0.14022386 0.99010378 0
-0.14976469 0.17000805 -0.4222098 0.017251464 0.1369905 0.99042219 8.8440582e-05
-0.13860221 0.17475426 -0.42316926 0.026506031 0.13987333 0.98981458 8.4894062e-05
-0.11923361 0.17368712 -0.42366543 0.044152573 0.14294973 0.98874468 0
-0.094494969 0.17513375 -0.42520979 0.062147867 0.14113148 0.98803818 6.4296014e-06
-0.081973396 0.17989336 -0.42674834 0.072646827 0.14401966 0.98690468 5.7010344e-05
-0.051926158 0.17657922 -0.4288736 0.09677349 0.1432395 0.98494536 0.00019507179
-0.044042513 0.17292449 -0.42910594 0.10375562 0.13773252 0.98502004 9.4668409e-05
-0.037315667 0.17135331 -0.42958599 0.10760137 0.13600104 0.98484808 0
0.04744624 0.17794384 -0.42649582 -0.44672871 -0.40933585 0.79553598 0.019371657
0.050974771 0.17144153 -0.42941618 -0.41665521 -0.30373827 0.85682058 0.026259912
-0.27337876 0.18688482 -0.42867321 -0.083658054 0.15060823 0.98504746 0
-0.26730171 0.18899651 -0.4285357 -0.078047022 0.15047382 0.98552847 2.7531427e-05
-0.25776953 0.18758821 -0.4275865 -0.066783547 0.15004742 0.98642069 9.5143856e-05
-0.24290074 0.18499601 -0.42623851 -0.058303405 0.14945041 0.98704875 2.3217543e-05
-0.23267266 0.1894604 -0.42638591 -0.048497662 0.15118918 0.98731446 4.3056629e-05
-0.22329631 0.18310542 -0.42496902 -0.040928211 0.14749186 0.9882161 0
-0.21192974 0.18564877 -0.42496973 -0.034877334 0.14683624 0.98854572 0
-0.20612498 0.18300188 -0.42438474 -0.027891397 0.14615427 0.98886853 0
-0.19244908 0.18444909 -0.42426848 -0.017436219 0.14832313 0.98878521 8.8632041e-05
-0.18075381 0.18287125 -0.42390147 -0.0080588944 0.14767043 0.98900378 0
-0.17004265 0.18450837 -0.42408961 0.0043850862 0.1472749 0.98908579 0
-0.15573758 0.18406543 -0.42416707 0.012145013 0.1487304 0.98880315 0
-0.13602449 0.18976666 -0.42548707 0.028867789 0.1515746 0.98802418 0
-0.081446245 0.18654412 -0.42780274 0.073022492 0.14957596 0.98605007 3.6610345e-05
-0.075127907 0.18598098 -0.42819935 0.077370636 0.14841875 0.98589337 4.0072999e-05
-0.061151128 0.18397525 -0.4290511 0.090123221 0.14854614 0.98479027 0
0.037542149 0.18943527 -0.42652977 -0.35409996 -0.40730828 0.84185112 0.02080862
0.04429831 0.18379362 -0.4244723 -0.40687513 -0.41271245 0.81493628 0.01663848
-0.37738428 0.19182485 -0.42920792 0.42039603 -0.36482 0.83076686 0.022636039
-0.26066062 0.19892807 -0.42956996 -0.068653211 0.15978494 0.98476166 6.4862106e-05
-0.23458335 0.19520578 -0.42739296 -0.049758404 0.15650487 0.98642296 2.9568919e-05
-0.20659663 0.1923627 -0.4258396 -0.029108468 0.15531105 0.98743665 0
-0.17283335 0.19261932 -0.42536253 0.0013809537 0.15586929 0.9877767 0
-0.14315784 0.19239984 -0.4256739 0.020506132 0.15428086 0.98781425 0
-0.1341656 0.19574955 -0.42646456 0.030650768 0.15671016 0.98716885 5.6394529e-05
-0.12522449 0.19810779 -0.42711848 0.038519256 0.15928715 0.98648053 9.9560522e-05
-0.10415492 0.1959952 -0.42780888 0.056683071 0.15697794 0.98597413 7.1592884e-05
-0.080934785 0.19180724 -0.42865968 0.072655752 0.1570649 0.98491198 1.0814409e-05
-0.078221314 0.19582406 -0.4294917 0.072226256 0.15931891 0.98458153 4.9124214e-05
0.031836107 0.19906864 -0.42320994 -0.42027721 -0.40765464 0.8106693 0.011064583
-0.37261206 0.20246299 -0.42336676 0.44830996 -0.47374824 0.7580111 0.010006115
-0.36430162 0.20512307 -0.42894176 0.30519238 -0.4178293 0.85573143 0.023546366
-0.25897712 0.20028706 -0.42965212 -0.067082494 0.15913664 0.98497486 4.450071e-05
-0.23594455 0.20538111 -0.42912278 -0.051998988 0.16314095 0.98523146 0
-0.22959444 0.2075026 -0.42911717 -0.044505637 0.16536058 0.98522848 1.7206576e-05
-0.2160569 0.2023683 -0.42774525 -0.032723967 0.16271004 0.98613113 4.331353e-06
-0.20696023 0.20626423 -0.42809981 -0.030270353 0.16614628 0.98563641 1.817573e-05
-0.16505504 0.20615803 -0.42759216 0.0062024505 0.16511944 0.98625416 3.8574708e-05
-0.15601435 0.20439744 -0.42739418 0.011886211 0.16328393 0.98650748 8.0471567e-05
-0.1452619 0.20863503 -0.42824465 0.022346796 0.17007713 0.98517734 0
-0.12159777 0.2022628 -0.42794701 0.038671564 0.16298734 0.98587 9.02623e-05
-0.11254555 0.20885222 -0.42945078 0.047474686 0.16307816 0.98547029 0.00016767491
0.02861722 0.20436348 -0.42142722 -0.41751334 -0.42650452 0.80235678 0.0092586568
-0.35787475 0.21556434 -0.42319846 0.36383873 -0.45227119 0.81429243 0.017312478
-0.34981149 0.21902575 -0.42732328 0.31787708 -0.43657324 0.84164006 0.019187
-0.22914825 0.21255554 -0.42992124 -0.044720788 0.16996944 0.98443413 0
-0.20070499 0.21813181 -0.42990687 -0.024401611 0.16725464 0.98561168 4.5940476e-05
-0.19132434 0.21451183 -0.42917478 -0.014691526 0.17055233 0.98523909 2.4427498e-05
-0.18312329 0.21136625 -0.42853808 -0.0079455795 0.16816583 0.98572665 0
-0.16765401 0.21005562 -0.42823648 0.0045004226 0.17035024 0.98537332 7.7599179e-05
-0.15027225 0.21009019 -0.42843941 0.019053675 0.16982153 0.98529059 0
-0.14006938 0.21217966 -0.42900774 0.024869867 0.17273383 0.98465455 6.5090731e-05
-0.13567887 0.21036948 -0.42884856 0.027124643 0.17158711 0.98479545 0
-0.12475056 0.21092705 -0.42931268 0.037031252 0.16921216 0.98488373 5.5254e-05
0.021324826 0.21066241 -0.42160887 -0.37945241 -0.44646108 0.81036317 0.010741127
-0.35018834 0.22119083 -0.42435423 0.34004879 -0.44374046 0.82913285 0.017955238
-0.34937379 0.22562213 -0.42081928 0.3851237 -0.46808317 0.79534763 0.010460312
-0.17433862 0.22010992 -0.42995009 -0.0028365061 0.16458897 0.98635817 8.6051085e-05
0.007001807 0.22226384 -0.42243063 -0.3937566 -0.45551828 0.79841018 0.012635296
-0.33201173 0.23059756 -0.42973363 0.27729177 -0.44642511 0.8507725 0.017108334
-0.32284552 0.23876907 -0.42656362 0.290714 -0.4785378 0.82854503 0.014259079
-0.020210762 0.23975599 -0.42437544 -0.30581 -0.47069719 0.82760155 0.018118812
-0.01110294 0.2369878 -0.42087391 -0.35653847 -0.51166815 0.78171355 0.010045458
-0.0078552244 0.2327611 -0.4229545 -0.37405539 -0.47609201 0.79587626 0.013758401
-0.31898129 0.24363928 -0.42367938 0.30084386 -0.49255162 0.81663084 0.011129881
-0.30516464 0.24867168 -0.4272716 0.22778359 -0.50375843 0.83327192 0.015261874
-0.03699588 0.24954414 -0.42462495 -0.25229436 -0.54244471 0.80131221 0.013922733
-0.028262729 0.24365413 -0.42621332 -0.27415347 -0.48899046 0.82808709 0.023541886
-0.29384583 0.25319967 -0.42897835 0.24113493 -0.48102778 0.84289157 0.018225964
-0.2872526 0.26264668 -0.42085177 0.22905006 -0.55358893 0.80067182 0.0079627987
-0.2609919 0.26736102 -0.42751303 0.21600586 -0.57543159 0.78880912 0.010079114
-0.25198942 0.26906168 -0.42998907 0.12447471 -0.50840372 0.85207492 0.021253739
-0.083890885 0.26814997 -0.42660862 -0.20931184 -0.53516936 0.81840229 0.014523312
-0.077060536 0.26560098 -0.42725033 -0.22908086 -0.50905257 0.82969117 0.014390531
-0.055427559 0.26086789 -0.42199937 -0.24896048 -0.49127793 0.83466434 0.0067959488
-0.24394594 0.27723849 -0.4213962 0.16391185 -0.60386521 0.78005111 0.010384943
-0.23674066 0.27881217 -0.4214204 0.11358335 -0.58940089 0.79981583 0.010666244
-0.20603004 0.27886838 -0.42994142 0.11775711 -0.49576366 0.86043692 0.022014486
-0.13196619 0.27949804 -0.42716038 -0.064132422 -0.56055802 0.8256281 0.014361822
-0.11337394 0.27776501 -0.42434457 -0.12630655 -0.60107821 0.78914613 0.012512004
-0.10778867 0.27784592 -0.42259833 -0.16788477 -0.64032787 0.7495299 0.0063821361
-0.094620802 0.27543399 -0.4217163 -0.15187719 -0.59494561 0.78928632 0.010767625
-0.23251715 0.28045368 -0.42046794 0.1079273 -0.58816469 0.80150723 0.010592346
-0.21387258 0.28159928 -0.42365915 0.10528923 -0.54559034 0.83141166 0.012368664
-0.19589776 0.28410369 -0.42267284 0.063044801 -0.62146211 0.78090346 0.009293478
-0.18879674 0.28199041 -0.42643631 0.017000133 -0.56161487 0.82722414 0.017322743
-0.17402783 0.28292418 -0.4264043 -0.030526392 -0.58762079 0.80856037 0.010175729
-0.16555603 0.28387526 -0.42474508 -0.035958942 -0.57584912 0.81676483 0.0090392828
-0.1541135 0.28206217 -0.42609873 -0.04810616 -0.54598343 0.83641374 0.015593848
-0.14604315 0.28318739 -0.42356592 -0.027487829 -0.58182698 0.81284797 0.0099635031
-0.25417304 -0.29103553 -0.41028556 0.14215328 0.52802628 0.83724588 0.0058666798
-0.20592096 -0.2940332 -0.41336334 0.034142423 0.59589285 0.80233788 0.0070789088
-0.18527377 -0.29215154 -0.41544574 0.030405084 0.58543634 0.81014806 0.0073648002
-0.14415725 -0.29672161 -0.41218206 -0.076634429 0.55682379 0.82708794 0.0087097147
-0.13294953 -0.2987352 -0.41079062 -0.07448025 0.52950275 0.84503233 0.0055287103
-0.12872192 -0.29297 -0.41321349 -0.083688915 0.51386154 0.85378128 0.0062082019
-0.11341304 -0.29598299 -0.41037649 -0.10737997 0.53001386 0.8411628 0.0056478879
-0.26176471 -0.28606573 -0.41133389 0.16132289 0.51078343 0.84443778 0.0054467102
-0.25562438 -0.28609025 -0.41215134 0.16035734 0.53308821 0.83072406 0.0080231586
-0.24066618 -0.28164929 -0.41772419 0.15951955 0.57420748 0.80301887 0.0073963283
-0.23657569 -0.28377312 -0.41689181 0.14241652 0.58186251 0.80072069 0.0077223061
-0.16387498 -0.2891022 -0.41827995 -0.025415936 0.59590667 0.80265141 0.012706064
-0.1360206 -0.28897783 -0.41675395 -0.088205405 0.60930783 0.78801256 0.0074664662
-0.12549224 -0.28549409 -0.41820842 -0.096426621 0.58598691 0.80456275 0.0092608947
-0.11126262 -0.28938496 -0.41327614 -0.099179208 0.56313467 0.82039183 0.0087636048
-0.10523974 -0.28518623 -0.41518968 -0.080886498 0.60009944 0.7958253 0.0080974838
-0.093935996 -0.28636724 -0.41293502 -0.15564753 0.55443656 0.81754148 0.0086121894
-0.064203203 -0.28099614 -0.41075093 -0.1858186 0.50933266 0.84026879 0.0036192287
-0.29381663 -0.27374446 -0.41136312 0.22121532 0.49172518 0.84218174 0.003513769
-0.28454202 -0.27584648 -0.41244876 0.21990868 0.50733316 0.83321857 0.0055459994
-0.27502114 -0.27023959 -0.41830921 0.21534339 0.57853681 0.78671622 0.0051855524
-0.26530018 -0.27346453 -0.41839162 0.23049542 0.58147234 0.78023195 0.0066930926
-0.088138893 -0.2763617 -0.41859859 -0.17942043 0.61246628 0.76986593 0.0085760541
-0.073896162 -0.27753747 -0.41409516 -0.21082735 0.52465451 0.82479656 0.0063561695
-0.065990604 -0.27934983 -0.41170901 -0.17447256 0.50450653 0.8455959 0.0039469511
-0.054303348 -0.27408138 -0.41214728 -0.21155794 0.48641169 0.8477304 0.0047890381
-0.042966142 -0.27207053 -0.41061425 -0.22509807 0.4920817 0.84094375 0.0045297085
