# .PCD v0.7 - Point Cloud Data file format
VERSION 0.7
FIELDS x y z normal_x normal_y normal_z curvature
SIZE 4 4 4 4 4 4 4
TYPE F F F F F F F
COUNT 1 1 1 1 1 1 1
WIDTH 577
HEIGHT 1
VIEWPOINT 0 0 0 1 0 0 0
POINTS 577
DATA ascii
-0.2960425 0.27765799 0.067251012 0.50704575 -0.86191911 -1.2665995e-05 2.134368e-05
-0.010056203 0.27794743 0.06385617 -0.49026957 -0.87157071 -0.00040846967 0
-0.0056317793 0.2754429 0.060412645 -0.49261934 -0.87024486 -4.0967961e-06 4.0759587e-06
0.0015545199 0.27137497 0.06492544 -0.4926143 -0.87024778 1.2374601e-05 0
0.059525818 0.27823409 0.068331271 -0.61607587 -0.78767067 -0.005048126 0.001446081
0.067847095 0.27005315 0.069810957 -0.67103118 -0.74138576 -0.0080194762 0.00081863429
-0.27529001 0.28982067 0.06469667 0.39272213 -0.91952211 -0.015762074 0.0021117104
-0.023295958 0.28544199 0.062810756 -0.45768949 -0.88910896 -0.0023402162 0.00083386613
0.040626094 0.28948519 0.061165661 -0.49556899 -0.86856848 -0.00047721114 5.7673715e-05
0.053236026 0.28234717 0.064935222 -0.5788371 -0.81543493 0.0036590076 0.0020712391
-0.26560041 0.29250553 0.061464652 0.32271475 -0.94648349 -0.0049274913 0.0011587708
-0.24729364 0.29757807 0.0666757 0.26700285 -0.9636957 1.3324584e-05 1.1216882e-05
-0.058371983 0.29798326 0.062085897 -0.25156638 -0.96784008 -6.1668354e-05 6.011199e-05
-0.042477917 0.29386896 0.067677736 -0.34941924 -0.93694705 -0.0060372762 0.0010598181
-0.035466909 0.29190278 0.064704329 -0.38504863 -0.92259228 -0.023687687 0.0015779105
0.029008664 0.2960614 0.063308015 -0.49261436 -0.87024772 -1.4935094e-05 0
-0.31503987 0.30709767 0.064875692 0.5074994 -0.86165214 -4.6313748e-05 0
-0.22478618 0.30381456 0.062827133 0.26707199 -0.96367657 1.9755356e-05 0
-0.2138384 0.30684805 0.066273168 0.25385886 -0.96723837 -0.0023617845 0.00031557665
-0.10175514 0.30921313 0.065790251 -0.20014855 -0.97976542 0.00045201369 0.00074941962
-0.081130207 0.30387428 0.061000347 -0.25063077 -0.96808273 8.7042636e-06 4.1984938e-05
0.0084873373 0.30767781 0.060178205 -0.49263737 -0.87023467 -8.3536077e-07 2.2893788e-05
-0.30228841 0.31460503 0.062878817 0.45869637 -0.88859129 0.0018129393 0.0012125273
-0.19806293 0.31121922 0.061033726 0.14300282 -0.98953027 -0.019495726 0.0026471815
-0.18766958 0.31178638 0.065129831 0.06801977 -0.99764723 -0.0085597858 0.0015048141
-0.17424951 0.3119005 0.068981759 0.019749895 -0.99980456 0.00090825814 4.39617e-05
-0.16636895 0.31196752 0.067461327 0.0084707551 -0.99996412 -3.8181402e-06 5.1315201e-06
-0.15741123 0.31204373 0.063655131 0.008529936 -0.99996358 -6.8518943e-06 0
-0.13877764 0.31220219 0.063935734 0.0047215596 -0.99998856 -0.00080430595 0
-0.11155656 0.31175029 0.069746152 -0.1204689 -0.99266022 0.010628805 0.0019112435
-0.006141712 0.3159588 0.064853184 -0.45768517 -0.88909352 -0.0060906294 0.00087308098
0.0019891895 0.31135619 0.062804699 -0.49253064 -0.87029517 -3.0631432e-05 0
-0.28401601 0.32372952 0.069911554 0.3441864 -0.93887353 0.0072276387 0.0015304615
-0.27582222 0.32599989 0.063918181 0.31598377 -0.94874817 0.0055823182 0.00096036843
-0.26278752 0.32961166 0.061979309 0.2670525 -0.96368194 5.4109569e-06 5.4010698e-06
-0.031672183 0.32723337 0.069603622 -0.31550902 -0.94887668 0.009329156 0.0016307862
-0.021381158 0.32456949 0.063809901 -0.37822756 -0.92571008 0.0021741928 0.0023776547
-0.015100148 0.32102987 0.066803515 -0.43555757 -0.90015423 -0.0034666148 0.0014370482
-0.24614024 0.33422434 0.06770923 0.26715609 -0.96365327 -5.0902112e-05 0
-0.23167904 0.33823133 0.065046959 0.26592663 -0.96399319 0.00024560443 3.7483601e-06
-0.047943365 0.33144525 0.067476608 -0.25059429 -0.96809226 -1.1167653e-05 0
-0.20495424 0.34548849 0.064789079 0.17120545 -0.98521727 0.005961075 0.0012599025
-0.18716832 0.34679952 0.069699042 0.049859162 -0.99874938 0.0036972165 0.00077538064
-0.17338225 0.34691679 0.066802368 0.0084272195 -0.99996448 -1.363113e-05 0
-0.16959842 0.34694898 0.066138461 0.0084401565 -0.99996442 7.3722131e-06 5.2703163e-05
-0.15428734 0.34707919 0.065758601 0.0085142003 -0.99996382 -2.4429608e-05 4.1482166e-05
-0.14339396 0.34717184 0.067127734 0.0084919585 -0.999964 -1.0862064e-05 1.552916e-05
-0.13825798 0.34721553 0.063868135 0.0085245473 -0.99996364 9.5319492e-06 0
-0.12639207 0.34731644 0.06672743 -0.01737584 -0.99983817 -0.0046584411 0.00046118698
-0.096416883 0.34399283 0.067172207 -0.21084382 -0.97751337 -0.003553174 0.00098640623
-0.22000821 -0.34105736 0.078574792 0.24637932 0.96917325 0.00071035535 3.9315612e-05
-0.21902716 -0.34131128 0.074427232 0.24694063 0.96903008 -0.0010222713 8.8954446e-05
-0.20860168 -0.34400997 0.078092694 0.20586029 0.97857445 -0.0036809288 0.0012432247
-0.19414094 -0.34730637 0.075079978 0.15903313 0.9872427 0.0077672536 0.0019383203
-0.18647021 -0.34738261 0.072069019 0.057447366 0.99831313 -0.0084074177 0.0020324825
-0.15373307 -0.34710416 0.076931402 -0.0085631786 0.9999634 2.3691191e-05 6.4533044e-05
-0.148307 -0.347058 0.072626308 -0.0085327765 0.99996358 9.8430191e-06 2.1032256e-05
-0.12288573 -0.34684175 0.071968615 -0.024198979 0.99970657 -0.0011257512 0.00023479243
-0.097539119 -0.34491834 0.073342614 -0.18233055 0.98293096 0.024544243 0.0017209444
-0.08544796 -0.34156808 0.074200891 -0.25077996 0.96804243 0.00180208 4.7592832e-05
-0.25524402 -0.33193642 0.074970633 0.25054535 0.9681049 6.1812479e-08 0
-0.060029313 -0.33452487 0.077125043 -0.26706916 0.96367735 1.3839346e-05 4.7910693e-05
-0.051834114 -0.33225411 0.073088586 -0.26703513 0.96368676 1.4218984e-05 0
-0.04821654 -0.33125174 0.077661455 -0.26708603 0.9636727 7.6722927e-06 4.9977221e-05
-0.28176725 -0.32507074 0.077464193 0.35543421 0.93432403 0.026555208 0.0026497517
-0.27468666 -0.32690361 0.073507406 0.28537714 0.95840794 -0.0037539124 0.00062166725
-0.26818076 -0.32858768 0.079378203 0.2566826 0.96649557 -0.00049009005 7.5474585e-05
-0.041175853 -0.32930085 0.078170493 -0.26748675 0.96356153 -1.9007637e-05 1.1266639e-05
-0.033699352 -0.32722923 0.072780505 -0.28889239 0.95736063 0.0013629808 0.00041229412
-0.016482856 -0.32241464 0.077368595 -0.37262124 0.92797959 -0.0027001069 0.0019896382
-0.30737233 -0.31118736 0.077073753 0.48870319 0.87244964 0.00089332566 0
-0.17791972 -0.31230098 0.071197271 0.037412714 0.99929976 0.00067383068 0.0012385414
-0.16137855 -0.31216025 0.077516019 -0.0084952023 0.99996394 1.9418751e-05 9.4233428e-06
-0.1543901 -0.31210083 0.076323479 -0.0084966654 0.99996394 -1.2110082e-05 1.5778405e-05
-0.14423002 -0.31201443 0.075847507 -0.0084902812 0.999964 -1.4890441e-05 0
-0.13662443 -0.31194973 0.07643418 -0.0085661253 0.99996328 3.3050983e-05 9.1607311e-05
-0.12368727 -0.3118397 0.074874863 -0.039918683 0.99920225 -0.0011641813 0.00053433696
-0.0034370299 -0.31498218 0.070775941 -0.48180825 0.87627149 0.0030044257 0.00087548787
-0.32329983 -0.30217135 0.078819424 0.49256819 0.87027383 3.7966356e-06 0.00012391248
-0.31541803 -0.306633 0.070861846 0.49268219 0.87020928 -2.5782963e-06 3.2444577e-06
-0.2345487 -0.30113199 0.076880924 0.25055981 0.96810114 1.4315266e-05 6.4346395e-06
-0.22211221 -0.30435121 0.076143369 0.25057948 0.96809608 9.610495e-06 0
-0.21525367 -0.30612659 0.073573031 0.25064752 0.96807843 4.4630697e-06 2.4623449e-05
-0.20654996 -0.30837956 0.074540459 0.21415848 0.9767763 -0.006645544 0.00065655104
-0.092940509 -0.30731747 0.076451346 -0.25341991 0.96735591 0.0009603058 0.00029727022
-0.088654906 -0.30612996 0.073040783 -0.2670494 0.96368289 -4.8094471e-06 3.2278949e-05
-0.072996356 -0.30179122 0.07359913 -0.26702154 0.96369052 -1.6585771e-05 0
-0.27223247 -0.29085153 0.074464716 0.3898629 0.92087156 -0.0015831632 0.0021940852
-0.26442543 -0.29339826 0.073165834 0.33561662 0.94199854 0.0005423057 0.0018079068
-0.25297785 -0.29636151 0.077548653 0.25356001 0.96731967 7.8419842e-05 0
-0.045261756 -0.29410633 0.074829198 -0.2877185 0.95771462 0.00090787874 0.00074110279
-0.032899342 -0.29068089 0.071766764 -0.38369456 0.92333204 0.015377687 0.0019536745
0.025905009 -0.29770714 0.075925276 -0.50735056 0.86173975 -9.199548e-06 0
-0.35670921 -0.28325951 0.075838178 0.55966145 0.82868397 0.0078696674 0.0017834619
-0.34709948 -0.28869921 0.073113456 0.51962209 0.85431719 0.011626715 0.00055605633
-0.29117268 -0.28013018 0.07776773 0.49269655 0.87020117 9.1743041e-06 0
-0.28746411 -0.28222948 0.077901654 0.47226048 0.88145649 -0.0021000188 0.00034184038
-0.025368026 -0.28726965 0.071820334 -0.43281624 0.90145504 0.0069962004 0.0014305698
0.046983685 -0.28529716 0.075651072 -0.51751459 0.85567296 -0.0015960126 9.5061419e-05
-0.37048674 -0.27245718 0.077231333 0.66371596 0.74794537 0.0076689571 0.0015903673
-0.36916149 -0.27376008 0.073032349 0.66268349 0.74889487 0.0026699884 0.0016133651
-0.30616659 -0.27164263 0.073699765 0.49262634 0.87024093 -3.0039312e-06 4.6732595e-05
-0.011316123 -0.27899665 0.070786044 -0.49522325 0.8687619 -0.0025552937 0.00012809614
-0.0057774265 -0.27573577 0.078258865 -0.50734758 0.86174148 -2.5778858e-05 0
0.0023177401 -0.27096978 0.075571224 -0.50735021 0.86173993 1.0258495e-05 4.5381598e-06
0.065617219 -0.27317333 0.075639032 -0.63244158 0.77460593 -0.0017938972 0.002217341
-0.38186648 -0.26126939 0.072405688 0.70111853 0.71304476 -2.6787606e-05 0
-0.37706363 -0.26599121 0.074944042 0.68555242 0.72802198 0.0013279655 0.00043455343
-0.3224287 -0.26243722 0.077410981 0.49597141 0.86833811 0.001076318 5.9365702e-05
-0.31976634 -0.26394427 0.078900814 0.49532065 0.86870843 0.0017478801 1.9227577e-05
0.0059213773 -0.26884809 0.074066393 -0.50735825 0.86173517 -1.0048348e-06 1.2784816e-05
0.014784251 -0.26363015 0.074762993 -0.5073474 0.8617416 -2.3364605e-06 0
0.075879574 -0.26273492 0.07546135 -0.70045632 0.71364915 -0.0081117768 0.00053063227
-0.3855167 -0.25768065 0.075583741 0.70103627 0.71312559 -9.6522335e-06 6.2006598e-05
-0.34319651 -0.25019452 0.072837859 0.60445666 0.79632711 -0.02225549 0.0022316361
-0.3348065 -0.25543058 0.078446575 0.57275546 0.81966525 -0.0099989632 0.0018873586
0.02353861 -0.25847605 0.077958003 -0.5147242 0.85735428 -0.001651783 4.4078821e-05
0.036385104 -0.25091273 0.071005866 -0.59171075 0.80599976 -0.015579808 0.0014704214
-0.40044296 -0.24300623 0.079131544 0.70099282 0.7131682 1.8279545e-05 0
-0.39852217 -0.24489459 0.074961752 0.70104814 0.7131139 3.1977226e-05 1.4889949e-05
-0.35316452 -0.24039465 0.077358082 0.68024451 0.7329731 -0.0042249961 0.00048438681
0.042135935 -0.24707212 0.075406469 -0.61314875 0.78994036 0.0065348032 0.0020341624
0.095036209 -0.24324961 0.073393553 -0.7130962 0.70106626 3.2895684e-06 1.2570073e-06
-0.41051579 -0.23310328 0.073226035 0.70116365 0.71300042 9.9209183e-07 6.3668616e-05
-0.40500444 -0.23852164 0.075352728 0.70101404 0.71314746 1.2134552e-05 3.6234353e-05
-0.35544303 -0.23815456 0.075919814 0.68534184 0.72822142 -6.911518e-05 0.00047504963
0.054479789 -0.23456706 0.077870578 -0.70526379 0.7089414 0.0022643895 0.00020972507
0.10444209 -0.23368236 0.078844354 -0.71305603 0.70110708 -1.9425945e-05 0
-0.41913122 -0.22463316 0.073188163 0.72497261 0.68872654 -0.0083940113 0.00071157387
-0.37150931 -0.22235928 0.079326913 0.70100194 0.71315932 1.8735314e-05 8.3885068e-05
-0.36455441 -0.22919685 0.077986494 0.7012462 0.71291924 -8.4880421e-06 0
0.059365876 -0.22959715 0.075312033 -0.7128135 0.70135361 -4.0199677e-05 0
0.063672081 -0.22521706 0.071823634 -0.7130897 0.70107275 -2.3827965e-06 0
0.11704229 -0.22086599 0.075924136 -0.72839975 0.68514931 0.0020571118 0.00038245815
-0.42608666 -0.21779501 0.072755359 0.7680155 0.64026922 -0.014403757 0.0022077339
-0.37456381 -0.21935633 0.078387558 0.70113117 0.71303225 -1.5063343e-05 0
0.074465789 -0.21423817 0.071650878 -0.71307236 0.7010904 1.1504444e-05 0
0.11974659 -0.21811529 0.078238346 -0.74857259 0.6630497 -0.0020633528 0.0019423283
0.12584548 -0.21191177 0.074198499 -0.80376154 0.59491879 0.0062510846 0.0021759404
-0.43319067 -0.20742241 0.073141366 0.83066875 0.55676264 -0.0021824781 0.0014124006
0.081768155 -0.20681053 0.07586015 -0.71844864 0.69557959 -0.00070002931 0.00018059301
0.12967753 -0.20600308 0.077932552 -0.83367407 0.55225605 0.00097961025 0.0015028437
-0.44327524 -0.19029352 0.078296036 0.86169678 0.50742352 -2.323188e-06 2.0172189e-05
-0.43973339 -0.19630948 0.076267794 0.85890472 0.51213521 0.00037577338 0.0002229165
-0.40145746 -0.19232069 0.07922107 0.81833702 0.57450998 0.016211336 0.0018334417
-0.39773399 -0.19657697 0.077673569 0.73858339 0.67413741 0.0057764468 0.001014658
0.093475029 -0.19490281 0.072807938 -0.75424594 0.65646005 0.013163944 0.0015680782
0.13661206 -0.19375271 0.072091609 -0.86669844 0.49882787 -0.0021255529 0.00011981723
-0.44778645 -0.18263111 0.074287534 0.86172098 0.50738251 -2.8364368e-05 0
-0.4066036 -0.18357986 0.071073003 0.83684731 0.54739738 0.0065332982 0.0010119966
0.10151509 -0.18468961 0.076790757 -0.81352329 0.58153206 0.00051645917 0.0023932282
0.13952091 -0.18861395 0.071071267 -0.86915559 0.49453864 -0.00011747119 4.6684479e-05
0.14230911 -0.1836884 0.078749776 -0.87021738 0.49266803 -1.1195317e-05 0
-0.46070817 -0.1606833 0.071925461 0.86168015 0.50745183 5.7675414e-05 0.00014308549
-0.45615503 -0.16841689 0.07654193 0.86174011 0.50734997 8.1421431e-06 9.1683032e-06
-0.41632098 -0.16707468 0.076325521 0.86174053 0.50734925 -4.6281421e-06 1.888246e-05
0.1099623 -0.16976696 0.071405075 -0.86699307 0.4983179 0.0015091324 0.00011577225
0.15546826 -0.16044171 0.07283853 -0.87023449 0.49263763 3.3538938e-06 0
-0.46203876 -0.1584232 0.078447714 0.86176372 0.50730991 7.9059902e-07 1.4216228e-05
-0.42342624 -0.15500627 0.075429291 0.86166823 0.5074721 -0.00010216821 0
0.15923676 -0.15378433 0.073842302 -0.87022936 0.49264678 -2.1649526e-05 0
0.16016157 -0.1521506 0.079299867 -0.87025058 0.49260935 8.2892284e-06 3.9451666e-06
-0.47023484 -0.14450206 0.072915599 0.88869524 0.45849693 0.001198456 0.0014121996
-0.46965209 -0.14549178 0.07624092 0.88789004 0.46001789 0.0058955769 0.0015333263
-0.43036085 -0.14322761 0.073923454 0.86266673 0.50577247 0.00070676225 1.4825025e-05
-0.42643747 -0.14989156 0.078246191 0.86171615 0.50739068 2.6246213e-05 6.6374538e-05
0.163295 -0.14661512 0.079485953 -0.88621509 0.46321517 0.0073819486 0.00049872918
-0.43684629 -0.13221195 0.0739545 0.89248675 0.4508802 -0.013207818 0.0018359923
0.17091078 -0.13316125 0.077248275 -0.91036022 0.41299802 0.026016377 0.0018368923
-0.47684941 -0.12938949 0.074754298 0.94501525 0.32696521 0.0063068536 0.0011426604
-0.4414207 -0.12410048 0.072250172 0.91830659 0.39525253 -0.022101551 0.0017155326
0.13452177 -0.12638071 0.077206589 -0.90761876 0.41975665 -0.0057030506 0.0014548694
0.17383039 -0.12419463 0.071831197 -0.9457584 0.32487065 -0.00022847514 0.0020276208
-0.4816469 -0.11207549 0.078118525 0.96365321 0.26715621 -9.5444018e-05 0
-0.44475868 -0.11410196 0.071686074 0.94192445 0.33545083 -0.01584526 0.0013816562
0.14097264 -0.11143178 0.074660331 -0.94818205 0.31724951 -0.017425783 0.001709976
-0.48462 -0.10134563 0.07923454 0.96369535 0.26700413 2.0948295e-05 2.7377513e-05
-0.44692114 -0.10629763 0.072211392 0.95457894 0.29783079 -0.0087066144 0.00063970219
0.14220372 -0.10667592 0.075610563 -0.95302421 0.3027558 -0.0091530485 0.0015949764
0.17923772 -0.10330515 0.073262095 -0.96809453 0.25058511 5.4666575e-08 1.3145967e-05
-0.48677567 -0.093565725 0.071321778 0.96365637 0.26714495 2.8409639e-05 0.00019708757
-0.44894147 -0.099006295 0.077287994 0.96208555 0.27274737 0.00062844431 1.7791461e-05
0.181261 -0.095488876 0.075461142 -0.96809208 0.25059479 -1.2676183e-05 0
-0.45165312 -0.089220084 0.072812274 0.96369123 0.26701921 -2.9739108e-06 0
0.14689717 -0.088544257 0.075187609 -0.9680922 0.2505945 9.886262e-06 1.5103234e-05
-0.4917869 -0.075480297 0.073293619 0.96367508 0.26707748 1.6939659e-05 0.00010256778
0.149205 -0.079628646 0.073018178 -0.96809173 0.25059623 -7.5624683e-07 0
-0.45952445 -0.060812563 0.079282276 0.9705199 0.24101371 0.0018917185 0.00081179349
0.15203437 -0.068698317 0.077702522 -0.96808976 0.25060368 4.1660492e-06 0
-0.46197477 -0.051969301 0.070181474 0.9747414 0.22333163 -0.0015091581 0.00083314051
0.15524384 -0.056299541 0.077483401 -0.97254539 0.23270944 -0.001333976 0.00036409436
0.19157544 -0.055642385 0.07749705 -0.97834325 0.20698902 0.00026385402 0.0016082471
-0.46276954 -0.049101047 0.078171968 0.98668772 0.16114347 -0.021911202 0.0026660182
0.15862221 -0.043248214 0.074238978 -0.98678863 0.16200674 -0.0014294963 0.0024739143
-0.4993217 -0.037007999 0.074704997 0.9989959 0.043773029 -0.0095463516 0.00043503888
-0.4643009 -0.038403109 0.075902715 0.99479306 0.10009712 -0.019164909 0.0018484538
0.46283698 -0.035007644 0.073766701 -0.45761809 -0.87729633 0.1446953 0.055523772
0.4770115 -0.035007644 0.073729247 0.033590235 0.99918813 -0.022245031 0.050304361
-0.49943757 -0.023385456 0.075897112 0.99996382 0.0085031893 3.0788906e-05 4.3148793e-06
-0.46445286 -0.020538826 0.075644381 0.99979979 0.019882442 -0.0022320815 0.0001911142
0.15976161 -0.025740463 0.07297945 -0.99935937 0.034699768 0.0087628961 0.0012282091
0.19476295 -0.024848754 0.076011464 -0.99993235 0.011554283 0.0013212793 0.00038010057
0.45799083 -0.025997344 0.07608401 -0.89393336 -0.44819456 -0.0021892108 0.09092135
0.5 -0.025434721 0.075968906 -0.92169231 0.38772959 0.012213589 0.078246407
-0.49947813 -0.018613901 0.073424771 0.99996382 0.0085088313 1.5943167e-05 0
-0.46447262 -0.018216664 0.071870312 0.99996382 0.0085113868 -9.7540224e-06 0
0.1946725 -0.014215212 0.072564095 -0.99996382 -0.0085052429 -4.752997e-06 5.3658136e-06
0.5 -0.015893592 0.075253136 -0.97449708 0.22376533 0.016867213 0.046847969
-0.49958712 -0.0058029238 0.074423924 0.99996388 0.0085048275 -4.713324e-06 0
0.19457048 -0.0022217929 0.079544783 -0.99996382 -0.0085048452 -1.0308661e-05 0
0.45799083 -0.0047189081 0.073086888 -1 -2.1469975e-06 -3.5352863e-07 0.00023804477
-0.4996919 0.0065174513 0.072622582 0.99996376 0.0085074808 2.8259166e-05 0
0.15950912 0.0039444156 0.072856396 -0.99996382 -0.0085039185 -1.0415237e-05 2.9366544e-07
0.19448251 0.0081213843 0.074012391 -0.99996382 -0.0085038329 -5.9097675e-07 1.9150559e-07
0.45799083 0.0025921799 0.076301455 -1 -1.0103729e-07 1.3970606e-05 0.00028411456
0.5 0.003563121 0.075556546 -1 0 0 0
-0.49974257 0.01247569 0.076444089 0.99996382 0.0085114846 2.2765507e-05 0.0001805986
-0.46474904 0.014286791 0.07958971 0.99996883 0.0079035927 0.00020309334 0
0.15940402 0.016302528 0.076640114 -0.99991161 -0.013285297 0.00054787053 1.8166622e-05
0.19442756 0.014579572 0.072822005 -0.99996382 -0.0085038757 -8.0076616e-06 0
0.5 0.0147576 0.075339183 -0.98889226 -0.14639193 0.025720365 0.018059811
-0.49982882 0.022611881 0.076438479 0.99999785 -0.0020692926 4.7316509e-05 0
-0.46480575 0.020954993 0.079219609 0.99975902 -0.021374829 0.0049939877 0.00094253797
0.15933347 0.024598973 0.076602213 -0.99990201 -0.013994679 0.00040984081 3.0543437e-05
0.19430365 0.029150905 0.076302506 -0.99930263 -0.037156973 0.0036925697 0.00068313797
-0.49991742 0.03303121 0.070443332 0.99893743 -0.04571192 -0.0058665411 0.00087944866
-0.46484503 0.035786603 0.073506206 0.99355048 -0.1129962 0.0094538555 0.0022358368
0.15927316 0.031689405 0.07503628 -0.99922669 -0.039232995 -0.0026152586 0.0012444394
0.19423869 0.036788121 0.076817788 -0.99832004 -0.057626978 0.0060172146 0.0013304369
0.45895535 0.035007644 0.07574816 -0.73439962 0.67871529 -0.0016789241 0.086717956
0.47516549 0.035007648 0.07613685 -0.090929903 0.99569196 0.018144624 0.057009038
0.48600149 0.035007648 0.074917987 -0.36197993 -0.92585063 0.10849468 0.048477646
-0.49907666 0.046307642 0.076012738 0.98952758 -0.14365797 -0.014052941 0.0017388656
0.15882894 0.04497131 0.07004495 -0.9877851 -0.15568878 -0.0064523485 0.0030062879
0.19411775 0.04538675 0.076234244 -0.99105477 -0.13209024 0.019042648 0.0019906475
-0.49689502 0.054735728 0.076851323 0.98101091 -0.19292605 -0.019930398 0.00096794072
-0.46190909 0.050194308 0.074949339 0.98231643 -0.1872059 0.0028815307 0.0017077383
0.15503187 0.058674864 0.078093365 -0.97228205 -0.23380864 -0.0010622928 0.00076340127
0.19151503 0.058110103 0.070997864 -0.98256928 -0.18539323 -0.013671361 0.0022001301
-0.45895332 0.061612882 0.076809995 0.96960127 -0.24469016 -0.00031642852 0
0.15349945 0.064205416 0.077089988 -0.96580678 -0.25925985 -0.0012346345 3.6661953e-05
0.14999945 0.076836869 0.078058027 -0.9636901 -0.26702306 -5.461226e-06 0
0.18760936 0.072205633 0.070780091 -0.96596432 -0.25867519 -0.00042571159 7.364765e-05
-0.45203575 0.088336781 0.075540885 0.96809584 -0.25058013 -6.7625615e-06 0
0.1473244 0.086491078 0.074131057 -0.96368808 -0.26703033 2.3672875e-07 0
0.18422914 0.084404759 0.077203691 -0.96368629 -0.26703697 6.0366128e-06 0
-0.48760474 0.090625778 0.079602346 0.96808207 -0.25063327 7.1798668e-06 2.5938882e-05
-0.44921106 0.099248946 0.071057878 0.96259803 -0.27093342 0.00036072184 0.00045808591
0.17991494 0.099974759 0.075395279 -0.96368891 -0.26702726 5.5357856e-07 0
0.18008032 0.0993779 0.078025363 -0.96368575 -0.26703879 1.7824433e-06 0
-0.44804364 0.10375887 0.071006425 0.95414525 -0.29932985 0.0029245694 0.0011630821
0.14142926 0.10776658 0.077202335 -0.95326507 -0.30213305 0.0011524921 0.00080811273
0.17727186 0.10951361 0.077930287 -0.96369171 -0.26701736 2.6259152e-06 1.6633692e-05
-0.44412041 0.1183106 0.073194385 0.92092919 -0.38971174 0.0037810043 0.0023015738
0.13988134 0.11335295 0.070467107 -0.95094079 -0.30936253 -0.0025497146 0.0010487044
0.17500481 0.11769535 0.073931366 -0.95814979 -0.28619367 0.0064882538 0.00045650438
-0.47797871 0.12781285 0.076133609 0.9328298 -0.36025915 0.0064726612 0.0030018289
0.13619624 0.12467922 0.072256081 -0.91714436 -0.39855292 0.001285256 0.0021719364
-0.47531629 0.13436143 0.075731426 0.91362971 -0.40628719 0.01453902 0.0018615361
0.13196069 0.13187343 0.073806211 -0.90201652 -0.43145171 0.014681974 0.0021984736
0.17028964 0.13471238 0.078123987 -0.9355455 -0.35313991 0.0068425923 0.0025417479
-0.46768388 0.14784467 0.073083453 0.87749219 -0.47958755 0.0018205649 0.00021099382
0.12554003 0.14277907 0.079208598 -0.86290526 -0.50536573 5.5232344e-06 2.6917149e-05
0.16604127 0.14298813 0.076120317 -0.89776075 -0.44035205 0.010748865 0.0021437942
-0.46600324 0.1508137 0.071084276 0.8728525 -0.48797476 -0.0030191594 8.1851147e-05
-0.42229527 0.1569626 0.071509652 0.87024134 -0.49262562 2.3096505e-05 6.6468921e-05
-0.45667654 0.16729005 0.077076383 0.8702606 -0.49259156 -1.8613948e-05 0
-0.41779122 0.16491938 0.071319483 0.87023324 -0.49263993 6.5078848e-06 0
0.11238876 0.16511682 0.074142694 -0.86172831 -0.50737 -3.0930737e-06 0
0.15058835 0.16923526 0.077538833 -0.86174738 -0.50733775 2.5515503e-06 0
-0.45110273 0.17713667 0.073392019 0.87022775 -0.49264979 -2.7614212e-06 0
0.10653361 0.17506193 0.075043909 -0.85541666 -0.51793915 -0.0011464657 0.00019912916
-0.44737193 0.18372744 0.078221172 0.87023473 -0.49263731 3.6890713e-06 0
-0.40530574 0.18697594 0.074821889 0.81802779 -0.57504481 0.012413596 0.0016171426
0.098990001 0.18787494 0.078957833 -0.82266533 -0.5684396 -0.009905518 0.002013952
0.10153504 0.1835521 0.077345699 -0.83665907 -0.54746932 -0.016702566 0.0013577979
0.13980295 0.18755451 0.071630396 -0.86173755 -0.50735444 -4.0632978e-07 1.3838995e-05
-0.43965042 0.1973681 0.076344825 0.84952867 -0.52742898 -0.010940715 0.00093800121
-0.39886796 0.19458944 0.079461329 0.7456485 -0.66623187 -0.011974067 0.00097350241
0.091359295 0.19784498 0.079403356 -0.76953125 -0.63857454 -0.0066594542 0.002626799
0.1333008 0.19859858 0.076692656 -0.85941458 -0.51127934 2.263499e-06 5.8194699e-05
-0.43792385 0.20041811 0.072396562 0.84158611 -0.53991288 -0.015064254 0.0014108331
-0.38430834 0.20939887 0.075403184 0.71310914 -0.70105308 -1.1833526e-05 1.2951076e-05
-0.42954671 0.21331915 0.075989664 0.78378993 -0.62102598 0.00020035791 0.0017707255
-0.38213015 0.21161443 0.075236492 0.71309561 -0.70106679 -2.5648034e-05 0
0.07460244 0.21431921 0.077687733 -0.70106822 -0.71309417 -6.7446936e-06 0
0.12188308 0.2169286 0.071722656 -0.78160012 -0.62366748 -0.011835788 0.0018442529
-0.42042452 0.22259787 0.072868265 0.73231566 -0.68096501 -0.00067198795 0.00075021927
-0.4181233 0.22493854 0.077090606 0.72018951 -0.69377249 0.0026079586 0.00022148433
-0.36512893 0.22890732 0.073262095 0.7119962 -0.70218331 9.9587814e-05 6.622362e-05
0.11560712 0.2230987 0.074245907 -0.75058025 -0.66076553 0.004259353 0.00088365754
-0.40863186 0.2345928 0.072729543 0.71303272 -0.70113069 -2.0559022e-05 0.00011566098
-0.35693279 0.23724408 0.07185857 0.68364382 -0.72980869 0.003243559 0.00097727065
0.054052893 0.23452213 0.076962307 -0.69394118 -0.72003162 3.8582813e-05 0.00017386519
-0.40281963 0.24050477 0.074839376 0.71303552 -0.70112795 3.307256e-05 0
-0.39779413 0.24561651 0.078737393 0.71305871 -0.7011044 -4.3479577e-06 0
-0.35261074 0.2416403 0.079382658 0.66437823 -0.74739361 -0.0020643098 0.00085792923
-0.34586561 0.24790183 0.075906605 0.60716128 -0.79457778 -0.0011688781 0.0026512418
0.042511195 0.24586919 0.07815586 -0.65352434 -0.75685704 0.0085661607 0.0018435871
0.088593811 0.24965638 0.076466352 -0.7010929 -0.71306992 -1.0786095e-07 2.1364498e-05
0.091000475 0.2472903 0.070792645 -0.70108569 -0.71307713 -1.6852426e-06 0
-0.39278337 0.25071323 0.077706732 0.7130878 -0.70107478 -1.9086178e-06 5.8501914e-06
-0.38476947 0.25886458 0.078572467 0.71139163 -0.70279509 -0.0010423432 0.00011042663
-0.34048849 0.25149059 0.074994206 0.57847238 -0.81569862 -0.0023271611 0.0016732967
0.029773947 0.25540093 0.073354676 -0.56456524 -0.82536429 0.0063201152 0.0020304306
0.032181788 0.25403795 0.072408646 -0.58957767 -0.80769777 0.0047267773 0.0022057698
0.087558851 0.25067389 0.075188383 -0.70108223 -0.71308041 -8.4567237e-06 0
-0.37650761 0.26726821 0.074491963 0.68036878 -0.73286664 0.0021622607 0.0012909505
-0.32431382 0.26101333 0.072703853 0.5091452 -0.86068052 -0.00049671537 2.4379797e-05
-0.31408638 0.26703471 0.073034614 0.50732899 -0.86175251 1.1130238e-05 2.7816031e-05
0.005734466 0.26900885 0.072038688 -0.49261674 -0.87024641 1.8697963e-06 0
0.014991837 0.26376858 0.076364413 -0.49261507 -0.8702473 2.5889167e-06 0
0.07441514 0.26359591 0.077625938 -0.69221389 -0.72169197 -0.00075182226 0.0001473547
-0.36965531 0.27423811 0.078466408 0.64534116 -0.76389074 0.0023806489 0.0018602001
-0.30783197 0.27071697 0.070590824 0.50733417 -0.86174941 1.5093487e-05 2.3930714e-05
-0.29512084 0.27820063 0.079666749 0.49911436 -0.86653179 0.0027366956 0.00017641031
-0.012979647 0.27960226 0.074941441 -0.4901827 -0.87161928 0.00076637272 6.3279898e-05
0.00012300443 0.27218533 0.077942237 -0.49262688 -0.87024069 4.8773022e-06 9.8716228e-06
-0.35436916 0.28394267 0.071605764 0.54416621 -0.83897704 0.00076059537 0.001088178
-0.34789976 0.2877515 0.074161097 0.51437163 -0.85756701 0.00070669991 1.4107673e-05
-0.2879045 0.28244922 0.070730612 0.46387663 -0.88589907 -0.0011546081 0.0010229807
-0.015436354 0.28099293 0.077956766 -0.49016502 -0.871629 0.001020245 4.4094802e-05
0.046622802 0.28609067 0.075491592 -0.54342461 -0.83939314 -0.010434255 0.0014361347
0.052826516 0.28257895 0.075664341 -0.59405905 -0.80418682 -0.019423855 0.0017675253
-0.34079844 0.29193234 0.071590707 0.50745404 -0.8616789 -4.5330162e-05 0
-0.27083898 0.29105398 0.076956525 0.34653908 -0.9378494 -0.018687783 0.001853641
-0.26137489 0.29367638 0.072142228 0.31139144 -0.950243 -0.0085877702 0.0011712743
-0.25272757 0.29607242 0.076112747 0.26700255 -0.96369582 1.7462546e-05 6.4750934e-06
-0.2441351 0.29845327 0.076526925 0.266978 -0.96370262 5.8238916e-06 0
-0.051332314 0.296161 0.073937878 -0.25199616 -0.96772826 -0.00013820235 0
0.025815047 0.29786921 0.071033195 -0.49266309 -0.87022012 1.425265e-05 5.2573258e-05
-0.31604791 0.30650416 0.078867808 0.5073263 -0.86175406 2.9810722e-06 8.9499415e-05
-0.2379469 0.30016792 0.074437886 0.26704255 -0.9636848 -1.0669936e-05 2.2677437e-05
-0.22733387 0.30310863 0.078003928 0.26707917 -0.96367466 6.166757e-06 0
-0.21801056 0.30569202 0.077915318 0.26593843 -0.96399003 -0.00013094327 4.7717185e-05
-0.087787405 0.30559754 0.071197629 -0.25059509 -0.96809196 9.8228147e-06 1.1163119e-05
0.0061440431 0.30900428 0.071590707 -0.49263346 -0.87023693 -5.1150568e-07 1.8248289e-05
-0.30509561 0.31295234 0.073590353 0.48775354 -0.87297887 0.0020703841 0.00037061112
-0.29601395 0.31829908 0.078384548 0.43657389 -0.89966798 0.00087590329 0.0019804866
-0.2003379 0.31058887 0.078920349 0.17473939 -0.98461396 -0.0011554976 0.0022247955
-0.19685742 0.31131133 0.074420854 0.14843684 -0.98887926 -0.0091815721 0.0021466489
-0.18173033 0.3118369 0.079273775 0.025774013 -0.99966681 0.0014289079 0.00010373666
-0.16001932 0.31202152 0.076253042 0.0084891161 -0.999964 4.4916223e-06 3.9352533e-05
-0.15589215 0.31205666 0.073127471 0.0084594749 -0.99996418 2.2807233e-05 5.0387156e-05
-0.14485024 0.31215054 0.073176496 0.0085403733 -0.99996346 1.934873e-05 1.4718013e-05
-0.13121636 0.3122665 0.070733964 -0.019696014 -0.9998008 -0.0032333909 0.00056009548
-0.12562908 0.31231403 0.074222937 -0.044237468 -0.99901795 -0.0024847249 0.001110648
-0.11895559 0.31237078 0.079353884 -0.075172856 -0.99714977 -0.0064334231 0.0020389913
-0.10798858 0.31082669 0.079130858 -0.14916505 -0.98881 -0.0021077441 0.0018084464
0.0034654997 0.3105205 0.075579554 -0.49264202 -0.87023211 1.2133091e-05 2.3130131e-05
-0.28551483 0.32331419 0.077103116 0.34268916 -0.93933892 0.014369881 0.0017440157
-0.27430558 0.32642013 0.071994029 0.29441792 -0.95566761 0.0041827178 0.00051649736
-0.26157832 0.3299467 0.07834807 0.26700678 -0.96369463 -4.0705631e-06 0
-0.036401667 0.32845765 0.075716421 -0.26813251 -0.96337956 0.002202173 0.00034597376
-0.029282046 0.32661468 0.076417714 -0.32108101 -0.9470489 0.0023016999 0.00155301
-0.23587568 0.33706853 0.075047337 0.26709804 -0.96366936 -1.4875324e-05 0
-0.071351588 0.33750457 0.074101135 -0.25060913 -0.96808839 1.156407e-05 1.2168427e-05
-0.063705094 0.33552521 0.075669691 -0.25059557 -0.96809185 -1.3250336e-05 0
-0.22171129 0.34099326 0.074976414 0.25596648 -0.96668559 2.4220371e-05 0.00020585849
-0.21280006 0.34346241 0.078881606 0.20446494 -0.97887236 0.0017156677 0.0013328614
-0.195685 0.3467271 0.07889089 0.097640641 -0.99520731 0.0053716358 0.0015256461
-0.18860964 0.34678727 0.072447687 0.057058528 -0.99835652 0.0053388397 0.00074163091
-0.1750707 0.3469024 0.074338362 0.0085157128 -0.99996376 3.3925235e-06 4.6819328e-06
-0.16957368 0.34694916 0.079106659 0.0085207485 -0.9999637 -3.6917329e-06 0
-0.15816496 0.3470462 0.07667502 0.0085207131 -0.9999637 -1.0722556e-05 6.7448447e-05
-0.13667579 0.34722897 0.074060462 0.0084886057 -0.99996394 -1.3098761e-05 0
-0.12514879 0.34732699 0.07382413 -0.044028409 -0.99898618 0.0093860114 0.0011514042
-0.10320806 0.34575072 0.075182803 -0.14087336 -0.98996454 -0.011171626 0.0015872265
-0.096832454 0.34410036 0.077340677 -0.18901134 -0.9819566 -0.0060028601 0.0016314921
-0.087418362 0.34166348 0.078223348 -0.24630725 -0.96919131 -0.00097719871 1.4745215e-05
-0.21589327 -0.34212252 0.08922448 0.23782846 0.97130704 0.00047906273 0.0002901103
-0.2089908 -0.34390923 0.080009148 0.21071854 0.97754198 -0.003062797 0.0010558538
-0.19548339 -0.34703708 0.082313754 0.16795124 0.98578465 0.0045694658 0.001581311
-0.18085268 -0.3473348 0.081180602 0.047223266 0.9988842 0.00057313161 0.0016950177
-0.16439682 -0.34719485 0.088209912 -0.008563973 0.99996328 1.7128907e-05 4.7943573e-05
-0.15975505 -0.34715539 0.085696265 -0.0084738899 0.99996406 -2.642734e-05 0
-0.14548114 -0.34703398 0.082887679 -0.0084756827 0.99996406 -3.4830751e-05 0
-0.13448745 -0.34694049 0.087882489 -0.0084828567 0.99996406 -2.4355602e-06 0
-0.12565532 -0.34686536 0.085599542 -0.015408023 0.99988127 0.00035000563 0.00020616157
-0.11609828 -0.34678403 0.086615622 -0.046730459 0.99890494 -0.0022621795 0.00096192263
-0.10691658 -0.34670597 0.080399126 -0.12277473 0.99242586 -0.0041527711 0.0021110987
-0.099628419 -0.34549725 0.089828938 -0.16815588 0.98574662 0.0052162255 0.0017754575
-0.085342124 -0.3415387 0.084287308 -0.25401044 0.96719521 0.0034954534 8.6854634e-05
-0.25709149 -0.33145815 0.085081361 0.25056601 0.96809953 1.313577e-05 2.4032168e-05
-0.24223147 -0.33530477 0.087242112 0.25064915 0.96807802 -6.0011012e-06 0
-0.23804569 -0.33638826 0.083382986 0.25059164 0.96809292 1.937741e-05 1.3646213e-05
-0.077207543 -0.33928475 0.086347632 -0.26708493 0.96367294 1.3421486e-05 6.418219e-05
-0.056695715 -0.33360121 0.08597102 -0.26701683 0.96369183 -3.7458864e-05 0
-0.047494844 -0.33105177 0.088124871 -0.26704669 0.96368355 -2.9224922e-05 0
-0.28656724 -0.3229644 0.085455164 0.41044509 0.91180104 0.012395938 0.0023884582
-0.273027 -0.32733318 0.087753713 0.29582301 0.95524269 6.8882931e-05 0.00084891118
-0.041643754 -0.32943052 0.086325631 -0.26734936 0.96359962 3.3557179e-05 0
-0.037928417 -0.32840106 0.082655266 -0.27116156 0.96253318 -0.0011130015 0
-0.18511742 -0.31236219 0.084889337 0.10457069 0.99445194 0.011418981 0.0020049412
-0.17647012 -0.31228861 0.088747144 0.0040919422 0.99998975 -0.0019647777 0.00019898475
-0.16389978 -0.31218171 0.081291564 -0.0084461877 0.99996436 -1.6102756e-05 0
-0.14219892 -0.31199715 0.087145634 -0.0085532153 0.9999634 1.3983672e-05 0
-0.13013543 -0.31189454 0.082211658 -0.028210675 0.99960202 0.00029406187 0.00027561287
-0.12477332 -0.31184894 0.080616578 -0.036352705 0.99933875 0.00079287874 0.00049158215
-0.11564446 -0.3117713 0.085255504 -0.073456779 0.99708992 0.020390164 0.0014162801
-0.10553326 -0.31080672 0.085069761 -0.1389422 0.98977077 0.032386001 0.0027382153
-0.30991089 -0.30975035 0.086866677 0.49257576 0.87026954 7.6716087e-06 4.5607721e-05
-0.23408636 -0.30125165 0.087393954 0.25058725 0.96809399 1.2956217e-05 1.5316213e-05
-0.2271893 -0.30303702 0.087911882 0.25061956 0.96808565 -1.1885847e-05 0
-0.21362172 -0.30654904 0.085946925 0.23712593 0.97147828 0.0011099075 0.00018396597
-0.10185451 -0.30978739 0.086069196 -0.17931613 0.98325825 0.032387741 0.0028117271
-0.099930301 -0.30925423 0.088342771 -0.20763566 0.97772282 0.030748961 0.0016242667
-0.083264835 -0.30463645 0.083256647 -0.26700994 0.9636938 1.6799554e-06 0
-0.074683934 -0.30225879 0.089001596 -0.26702255 0.96369028 -2.400019e-05 0
0.0060473867 -0.30939826 0.082986325 -0.50631815 0.86234671 9.1848255e-05 0
0.015308474 -0.30394584 0.084339239 -0.50736088 0.86173368 2.4680205e-06 1.1388322e-05
-0.34418383 -0.29034966 0.080371439 0.4985286 0.86687094 -0.0020235139 4.1641284e-05
-0.27066728 -0.29173756 0.086033627 0.3855873 0.92263168 -0.008556379 0.0028879826
-0.25481063 -0.29588711 0.080091685 0.25362915 0.96730131 0.00062160543 0
-0.24401778 -0.29868087 0.088814929 0.25081712 0.96803451 2.2840743e-05 0
-0.062740654 -0.29894948 0.087951198 -0.26702392 0.96368998 -2.0207366e-05 0
-0.054036733 -0.29653776 0.080869868 -0.26705214 0.96368206 -8.6164973e-06 4.5949793e-05
-0.042622823 -0.29337513 0.083941422 -0.29394469 0.95580703 -0.0054293554 0.00064677699
-0.033642709 -0.29088685 0.083966151 -0.36406177 0.93131244 0.010776415 0.0028973508
0.02444726 -0.29856539 0.083790392 -0.5073489 0.86174077 -3.2720918e-06 0
0.030226875 -0.29516265 0.082643151 -0.50736338 0.86173218 -6.6407961e-06 2.1033284e-05
-0.36089736 -0.28088871 0.083401978 0.58971703 0.80760902 -0.0012000304 0.0024939806
-0.35724971 -0.28295353 0.083173119 0.57401109 0.81883961 0.0036020805 0.0021385264
-0.02041354 -0.28435272 0.080808416 -0.44314197 0.89631909 0.015409312 0.0014103991
-0.015211918 -0.28129029 0.085738406 -0.49181736 0.87069333 0.0029840027 0.00024341088
0.044135265 -0.28697413 0.086378045 -0.5188778 0.8548457 0.0021385788 7.222662e-05
0.055250518 -0.28043008 0.084399417 -0.57193065 0.82011569 0.017479651 0.0023565332
-0.36527708 -0.27757898 0.087894663 0.61068952 0.79184759 0.0059780725 0.0023646737
-0.30387086 -0.27294216 0.080859482 0.49259874 0.8702566 2.7142311e-05 3.4838413e-06
-0.2963714 -0.27718735 0.085612297 0.49264809 0.87022865 -1.7415237e-05 0
-0.012161943 -0.27949461 0.081741273 -0.49279162 0.87014043 0.0034837271 0.00020372854
-0.0048058797 -0.27516377 0.083454788 -0.50737727 0.86172408 4.6063865e-06 3.8632304e-05
0.064718157 -0.27408782 0.081502125 -0.63271368 0.77434939 0.0075069661 0.0027522079
-0.37324119 -0.26974916 0.080766812 0.68068475 0.73257005 -0.0030832465 0.00069386774
-0.32088852 -0.26330903 0.083790094 0.49455664 0.8691451 0.00067448098 0
0.01961646 -0.26078519 0.086050928 -0.51325703 0.85823387 0.001377156 7.0323185e-05
0.0776923 -0.26089108 0.087651804 -0.69918078 0.71494335 0.0014586695 0.00074422994
-0.39003432 -0.2532393 0.081994116 0.70105326 0.7131089 2.8285031e-06 0.00010251859
-0.38614413 -0.25706387 0.081927471 0.70107043 0.71309203 5.9883537e-06 0.00012237291
-0.3398785 -0.25255948 0.08982335 0.59256124 0.80552506 -0.00081483083 0.0023341135
-0.32798901 -0.25928968 0.087659627 0.51789272 0.85541439 -0.007301955 0.00073684019
0.025150524 -0.25752705 0.084471866 -0.53544432 0.84453487 0.0077543831 0.00069491426
0.084192574 -0.25427926 0.086309113 -0.71304083 0.70112246 -2.2063528e-05 0
-0.40268224 -0.2408047 0.088943064 0.70106918 0.71309328 4.1942567e-05 4.6152851e-05
-0.397652 -0.24575008 0.085987806 0.70103925 0.71312273 -1.9084252e-06 4.2063777e-05
0.047223583 -0.24194777 0.086651027 -0.66085172 0.75051171 0.0026544388 0.0022576493
0.093941689 -0.24436291 0.08571326 -0.71309644 0.70106608 2.4576875e-06 9.8089026e-07
-0.41158921 -0.23204798 0.088537335 0.70574051 0.70846665 -0.0023348914 0.00013167966
-0.40730405 -0.23626082 0.081895463 0.70099771 0.7131635 4.9109963e-06 0.00013550006
-0.36200553 -0.23170277 0.084169 0.70115805 0.7130059 -7.4638338e-06 1.2790508e-05
-0.35966921 -0.2339997 0.085167751 0.69865811 0.7154544 -0.0014236735 0
0.049189523 -0.23994809 0.086057127 -0.67640811 0.73651433 0.0043197223 0.0016479763
0.055661693 -0.23336488 0.084976852 -0.70704544 0.70716137 0.0030918913 0.00015604489
-0.42204726 -0.22176632 0.082330465 0.74466944 0.66741192 -0.005362343 0.0013520652
-0.37349522 -0.22040686 0.086693525 0.70120478 0.71295989 -6.2876973e-07 0
-0.36476985 -0.22898506 0.08041738 0.70124757 0.7129178 -2.9016333e-05 0
0.065989576 -0.2228598 0.083957985 -0.7131058 0.70105642 1.0778775e-05 9.298773e-06
0.11632299 -0.22159763 0.089453384 -0.73269677 0.68044662 -0.012157318 0.00044123715
-0.42828667 -0.21563213 0.087119877 0.78475946 0.61967909 0.012266718 0.002580723
-0.37785146 -0.21612412 0.086503625 0.70124573 0.71291965 -4.8844871e-05 0
0.11948165 -0.21838477 0.084666684 -0.76115549 0.64849246 -0.0099858493 0.0020385322
0.12386501 -0.21392621 0.084841862 -0.77833325 0.62765998 -0.01550499 0.0026012361
-0.43334764 -0.20715579 0.089625083 0.83417064 0.55144519 0.008213914 0.00092945294
0.082484454 -0.20608194 0.086167812 -0.71754462 0.69651222 -0.00064255262 0.0001169274
0.12808599 -0.20881471 0.085337415 -0.83105481 0.55614489 0.007122125 0.0019238772
-0.44283232 -0.1910459 0.083266571 0.86159736 0.50759232 -5.6641788e-05 3.0631567e-05
-0.43791914 -0.19939098 0.08327084 0.85297883 0.52194548 -0.00037623927 0.00038217701
-0.3968797 -0.19741684 0.080946147 0.75366426 0.65722573 -0.0066785044 0.0016246206
0.093169108 -0.19521397 0.086793423 -0.75442332 0.65635455 -0.0066494453 0.0013177695
0.13612725 -0.19460917 0.084753901 -0.85524786 0.51821756 -0.001297793 0.00081590435
-0.44908363 -0.18042789 0.085965313 0.86170667 0.50740677 -6.6636102e-07 0
-0.40472543 -0.18676999 0.08505211 0.83837956 0.54493713 0.012776748 0.001320266
0.098779604 -0.18950722 0.085384578 -0.79979575 0.60019779 0.0094490796 0.0027074199
0.1009689 -0.18565452 0.087574042 -0.82337463 0.56741261 -0.0098588774 0.0024537263
-0.45269156 -0.17429969 0.08258763 0.86171323 0.50739557 -5.5705259e-06 9.1695198e-05
-0.4138751 -0.17122905 0.085165724 0.86171567 0.50739133 -2.426522e-05 0
0.14837985 -0.17296396 0.085582636 -0.87023532 0.49263635 1.2781832e-05 1.6720136e-05
-0.45694584 -0.16707367 0.081709318 0.8616907 0.50743389 -1.0129203e-05 3.5471603e-05
-0.41650477 -0.16676241 0.084889702 0.86171514 0.50739235 -4.7218095e-05 0
0.11202167 -0.16612892 0.081778407 -0.8702206 0.4926621 -9.9401359e-06 0
0.15299775 -0.16480607 0.086068884 -0.87024438 0.49262029 -1.7770555e-05 0
-0.46420643 -0.15474139 0.08789511 0.86202681 0.50686252 -0.00030998321 0
-0.42350698 -0.15486905 0.085422203 0.86172628 0.50737345 -3.1767797e-08 0
-0.43098208 -0.14217247 0.088819288 0.86292905 0.50532514 -0.00028111786 0
-0.42692369 -0.14906573 0.080422468 0.86169469 0.50742728 -2.7522313e-07 6.6217479e-05
0.12487635 -0.1434201 0.084011629 -0.87026042 0.49259186 -3.5987318e-06 1.5186919e-06
0.16440147 -0.14466047 0.083522215 -0.88396311 0.4675411 0.0038176319 0.00049135904
-0.43596902 -0.13370198 0.085547857 0.8881883 0.45944038 0.0060068225 0.0015279645
0.12796986 -0.13795516 0.088244528 -0.87620753 0.48193076 -0.0017609213 0.00015535014
0.13230072 -0.13030434 0.089109674 -0.89531314 0.44543144 0.0022939462 0.0010691512
0.16812596 -0.13808087 0.083861701 -0.90729177 0.42028245 0.013578988 0.0016134682
-0.47931397 -0.12049496 0.085978471 0.9522652 0.30496863 0.013601671 0.00068182894
-0.43900591 -0.12854375 0.083128095 0.90366018 0.42823154 0.0040064375 0.0022777671
0.13587205 -0.12399532 0.085763305 -0.90800816 0.41880736 -0.011031026 0.0014696566
0.17359735 -0.12509491 0.082946822 -0.94249284 0.33376062 0.017639924 0.0020874443
-0.48133153 -0.11321348 0.082855046 0.96363598 0.2672185 -1.3921371e-05 5.0728981e-05
-0.44563344 -0.110945 0.089355141 0.9481774 0.31767583 0.0064662341 0.0013299251
0.13996293 -0.11533249 0.086050555 -0.93015784 0.36694694 -0.012501546 0.0018594026
0.1771498 -0.11137117 0.085472733 -0.96478844 0.26302078 0.0018258864 0.00032690851
-0.48366141 -0.10480509 0.085524984 0.96370375 0.26697382 -2.4144292e-06 2.9912195e-05
-0.44733816 -0.10479262 0.086572461 0.95982271 0.28059015 0.0031079769 0.00035318753
0.17927861 -0.10314721 0.084371455 -0.96809113 0.25059861 -2.0971933e-05 1.4501644e-05
-0.44989529 -0.095564067 0.086132079 0.96365166 0.267162 1.850325e-05 0.00018728555
0.14403592 -0.099597804 0.085607767 -0.96074313 0.27740395 0.0044274819 0.00064171804
-0.48952731 -0.083635047 0.083011538 0.96368116 0.26705554 -2.183574e-05 3.2867283e-05
-0.45325404 -0.083442345 0.084501237 0.96368545 0.26703978 -2.4647588e-06 0
0.14782867 -0.084945723 0.084053881 -0.96809077 0.25059956 2.0055936e-06 0
0.18352336 -0.086749002 0.083364666 -0.96809155 0.2505967 -7.5251137e-07 1.3066032e-06
-0.49233612 -0.073498212 0.085667469 0.96503794 0.26210666 0.0013660076 7.0706112e-05
-0.45549279 -0.075362697 0.082763702 0.96367204 0.26708835 3.22657e-05 0.00018370179
0.18695761 -0.07348185 0.080443025 -0.96809459 0.25058526 1.5082812e-06 0
-0.45881382 -0.063377157 0.086112849 0.96869725 0.2481876 0.0053433995 0.00068851915
0.15281448 -0.065684609 0.088675715 -0.96851385 0.24895954 0.00040348162 0
0.18858723 -0.067186341 0.08600381 -0.96815622 0.25034687 -1.586281e-05 1.6993885e-05
-0.49698448 -0.056722134 0.087999195 0.97322553 0.22889569 0.020944998 0.000685037
-0.46089056 -0.055882201 0.086253405 0.97077525 0.23997448 0.0027669687 0.00077330827
0.15543902 -0.055545475 0.086035624 -0.97275805 0.23174243 0.0060966108 0.00042580336
0.19196481 -0.05413818 0.086098269 -0.98262513 0.18560117 -0.00017272474 0.0017974783
-0.49924591 -0.04591373 0.080185682 0.99361557 0.11064566 -0.022035757 0.0017894653
-0.46291268 -0.048584431 0.088172689 0.9853394 0.16936015 -0.020576457 0.0017762397
0.1581503 -0.045071334 0.084780976 -0.98547947 0.16971378 0.0052355509 0.0025356147
0.19475995 -0.043169785 0.084349066 -0.99509233 0.09894792 0.00076044619 0.0025994503
-0.4643355 -0.034340579 0.083280742 0.99559408 0.090901367 -0.023008363 0.001831832
0.15974373 -0.037424497 0.083651751 -0.98937219 0.14529301 0.0056994506 0.0027520151
0.45933592 -0.035007644 0.085048288 -0.45315951 -0.88854223 0.071687661 0.056412891
0.46595109 -0.035007644 0.083238147 -0.39996001 -0.91403639 0.067597017 0.052318782
0.47537562 -0.035007644 0.088460155 -0.11264 -0.99362522 0.0046019792 0.068898007
0.48776841 -0.035007644 0.084474251 -0.33439666 0.94176292 0.035514988 0.07367795
0.49080247 -0.035007644 0.084750742 -0.46711385 0.88411349 -0.012166699 0.083678149
0.5 -0.032405995 0.082130373 -0.70945263 0.70433021 -0.024413308 0.084515162
-0.49941927 -0.025534965 0.082807757 0.99996376 0.008502732 1.3775311e-05 0
-0.46442434 -0.0238971 0.084787585 0.99951631 0.030466016 -0.0062327906 0.00041017652
0.15979084 -0.029178552 0.081015058 -0.99493301 0.097574666 0.02423984 0.002392926
0.19478278 -0.027181972 0.081750847 -0.99912584 0.041751765 -0.0020770745 0.0010077055
0.45799083 -0.025698431 0.089026235 -0.90029001 -0.43503278 0.014979687 0.057613209
-0.49952489 -0.013119358 0.082935363 0.99996388 0.0085043386 2.1725902e-05 0
-0.46449661 -0.015395847 0.083016999 0.99996388 0.0085067498 -7.6872202e-06 3.2329095e-05
0.15968154 -0.016327469 0.085628211 -0.9999581 0.0083163399 0.0038368749 0.00029592187
0.19466436 -0.01325923 0.084452271 -0.99997407 -0.0072056782 -7.2901516e-05 3.2959631e-06
0.45799083 -0.015930098 0.089335479 -0.98046583 -0.19598369 0.016648808 0.032454208
0.5 -0.01234153 0.083334133 -0.99219847 0.12452473 0.0059900647 0.019335648
-0.46456563 -0.0072843786 0.084623307 0.99996382 0.008506895 2.7725917e-05 0.00012760487
0.1945903 -0.0045515597 0.085116699 -0.99996382 -0.0085034408 -1.2521699e-05 5.6509282e-07
0.45799083 -0.0047806883 0.087599069 -1 -6.6312573e-06 3.485474e-05 0.00018686417
0.5 -0.00088037644 0.083539344 -1 -0 -0 0
-0.49970877 0.008500753 0.084990248 0.99996388 0.0085086431 -7.0259483e-07 3.9404469e-05
-0.46466941 0.0049210186 0.085519478 0.99996388 0.0085019404 -3.1388314e-05 0
0.15949452 0.0056617539 0.087238312 -0.99996382 -0.0085065635 -7.0999772e-06 0
0.5 0.005638869 0.08662758 -0.99968857 -0.024809031 0.002692549 0.0021824562
-0.49976304 0.014883286 0.081997186 0.99998873 0.0047248364 -0.0004740576 0
0.19444415 0.012630713 0.08436887 -0.99996382 -0.0085041374 1.0704877e-05 8.5283355e-06
0.45799083 0.012063427 0.087597899 -0.99210495 0.12404028 0.018487602 0.02665206
-0.49984097 0.02404353 0.089437902 0.9997915 -0.019794105 0.0050173751 0.00055330433
-0.46482486 0.023197033 0.081409745 0.99953735 -0.029697638 0.0065616942 0.00094793254
0.45799083 0.021333175 0.08598315 -0.94505417 0.32125849 -0.060544576 0.060121149
0.5 0.025568895 0.086165309 -0.82865226 -0.54045898 0.14573821 0.077523716
0.15923709 0.035931073 0.089189947 -0.99461734 -0.10309274 -0.010399492 0.00213546
0.4579908 0.030907352 0.089180395 -0.76876622 0.63924587 -0.019057751 0.096204892
0.4666788 0.035007644 0.083638608 -0.39305222 0.91748071 0.061148148 0.077548891
0.47785425 0.035007644 0.08017388 -0.0028440298 -0.99828869 -0.058409154 0.036976688
0.4944571 0.035007644 0.088877246 -0.51980841 -0.849424 0.090984136 0.090360366
-0.49938664 0.044065733 0.086451784 0.99377757 -0.11130749 0.004086602 0.0020279996
0.15865566 0.044961885 0.084649526 -0.99059856 -0.13656452 -0.0080402754 0.0026449831
-0.49747038 0.052513011 0.086066492 0.98502386 -0.17231429 -0.0059788837 0.0017265732
0.19182295 0.056998819 0.084935933 -0.97893429 -0.2041505 0.0031939184 0.0015870364
-0.49375117 0.066880941 0.083702229 0.96858829 -0.24866855 -0.00085978251 0
-0.45762134 0.066758588 0.085507259 0.9680931 -0.25059095 -7.2462299e-06 0
0.15209727 0.069265835 0.089284584 -0.9651615 -0.26165366 -0.00087899686 5.0856062e-05
-0.49207172 0.073368989 0.084577993 0.96808147 -0.2506358 -9.1074435e-06 0
-0.4553529 0.075521998 0.083772779 0.96808374 -0.25062686 -2.1673337e-05 4.8482536e-05
-0.48812085 0.088631928 0.087368384 0.96808249 -0.25063196 3.456233e-05 0.00017337015
-0.45218706 0.087752305 0.08361464 0.96809089 -0.25059938 7.1787085e-06 1.7755233e-06
0.14741763 0.08615458 0.08591371 -0.96368641 -0.26703668 1.7720469e-06 2.6056373e-06
0.18397191 0.085333183 0.085640483 -0.96368796 -0.26703092 8.4744115e-06 7.0938136e-06
-0.4512547 0.09135405 0.089323059 0.96808267 -0.25063121 -4.1373412e-05 7.3064555e-05
0.14499815 0.094886497 0.086254872 -0.96368939 -0.26702586 -1.0580715e-06 0
-0.48332429 0.10716186 0.085756503 0.96720546 -0.25399134 -0.0013585717 0
