# .PCD v0.7 - Point Cloud Data file format
VERSION 0.7
FIELDS x y z normal_x normal_y normal_z curvature
SIZE 4 4 4 4 4 4 4
TYPE F F F F F F F
COUNT 1 1 1 1 1 1 1
WIDTH 578
HEIGHT 1
VIEWPOINT 0 0 0 1 0 0 0
POINTS 578
DATA ascii
-0.32851478 0.032779202 -0.23807611 0.93784678 0.34696776 0.0075390576 0.0019612215
-0.27185243 0.031629197 -0.23527808 0.92739666 0.37405321 -0.0044243052 0.001887518
0.26767465 0.035512201 -0.23779273 -0.91411567 0.40524337 0.01305456 0.00070017879
-0.27597669 0.04427363 -0.23789863 0.94960815 0.31343535 -0.0016332576 3.2000464e-06
0.32894838 0.042180132 -0.23743579 -0.95083088 0.30971056 -6.1040984e-05 0
-0.33362371 0.053800266 -0.23737969 0.97682542 0.21402511 -0.0022965949 9.3728057e-05
-0.27934039 0.054586302 -0.23307881 0.95069849 0.3101165 -6.4419473e-05 2.4438645e-05
0.27680191 0.057207178 -0.23558927 -0.95035988 0.31113172 -0.0036206143 0.0023674222
0.33452219 0.059291523 -0.2393067 -0.95082992 0.30971336 1.4279111e-05 0
-0.33680961 0.068843372 -0.23405229 0.9783017 0.20718567 8.4913663e-05 0
0.27786964 0.062258452 -0.23403037 -0.96097773 0.27661568 -0.0023596119 0.0016211086
-0.33784249 0.073720515 -0.23437929 0.97830641 0.20716287 3.5015222e-05 0
0.28003639 0.072509199 -0.23463421 -0.9768858 0.21375373 -0.0018735845 0.00018530783
0.33865783 0.071987644 -0.23708147 -0.95526785 0.29565275 -0.0072650071 0.00021009456
0.34116241 0.079676598 -0.23371461 -0.96630847 0.25734445 -0.0046555679 0.0011518971
-0.34062475 0.086857609 -0.23192292 0.97830039 0.2071915 1.178459e-05 0
-0.28854534 0.08280731 -0.23197733 0.95958585 0.2812154 0.010623508 0.00066698424
-0.34180945 0.092451625 -0.23253602 0.97830242 0.20718199 3.4267894e-05 3.2309948e-05
-0.29101235 0.090370819 -0.23833004 0.97681707 0.21376042 0.011612801 0.0022700098
0.28504401 0.096200332 -0.23371279 -0.97838485 0.20679255 -2.5590833e-05 0
0.34390968 0.091318972 -0.23087817 -0.98604327 0.1664499 -0.0036073979 0.0026247145
-0.34545618 0.10967067 -0.23378241 0.98433995 0.17626633 -0.0022061474 0.001017994
-0.29299092 0.10442848 -0.23694035 0.99455804 0.10357162 -0.011278799 0.0010129416
-0.34590071 0.11176963 -0.23477989 0.98533976 0.17058805 0.0022679882 0.00090470986
0.2895706 0.11761542 -0.23507902 -0.98887277 0.14876246 0.00073230878 0.0010710623
0.34500128 0.11185747 -0.23552915 -0.99849212 0.054894798 8.3422507e-05 6.6611108e-05
-0.3482967 0.12322618 -0.23628478 0.99575323 0.091864571 -0.006035117 0.0025265575
-0.29383257 0.12014703 -0.23662582 0.99812841 0.061150141 -0.0004830613 0.00011363939
-0.29474735 0.13723165 -0.23904702 0.99856937 0.053471953 -3.1563613e-05 0
0.29067844 0.13904709 -0.23157471 -0.99994844 -0.0066245436 0.0077028936 0.00089282892
0.3460291 0.13119575 -0.23774302 -0.99858922 0.053099975 -2.1703131e-06 5.4076532e-05
-0.34743688 0.14521793 -0.23454224 0.99877048 -0.049543127 -0.0017713957 0
-0.29540643 0.14954084 -0.23156554 0.99856794 0.053498387 6.8711619e-05 0
0.34676296 0.14500299 -0.23322017 -0.99858934 0.053096775 1.0874798e-05 0
-0.29550442 0.15137038 -0.2367152 0.99888527 0.047142554 0.002415139 0.00014504259
0.28980786 0.15530601 -0.23317681 -0.99856859 -0.053485703 5.1658801e-05 0
0.34720299 0.1532823 -0.23770414 -0.99873197 0.050336394 -0.00081978552 0
-0.3461279 0.16984591 -0.23474149 0.99858904 -0.053102355 -6.3577427e-05 6.3509971e-05
-0.29639193 0.16794646 -0.23488756 0.9976455 -0.067190349 -0.013739885 0.0021205272
0.28935441 0.16377501 -0.23272157 -0.998568 -0.05349626 -9.1041955e-05 1.1312244e-06
0.34792951 0.16695143 -0.23350038 -0.99998277 -0.0057196552 0.0013180821 0.0019841136
-0.34596705 0.17287181 -0.23592679 0.99859077 -0.053070199 -7.6597325e-06 4.077124e-05
0.34823415 0.17268324 -0.23118493 -0.99925721 -0.038202424 0.0050539658 0.0030423056
-0.34524351 0.18648544 -0.23539999 0.99847364 -0.055229425 0.00011654613 0
-0.2938267 0.18482774 -0.23395419 0.98383629 -0.17901258 -0.0045335433 0.00041370912
0.28841773 0.18126866 -0.23920096 -0.99857098 -0.053441755 2.228576e-06 2.5221425e-05
0.34822172 0.1801715 -0.23273849 -0.99297947 -0.11404862 0.031380754 0.0024658758
-0.34456456 0.19925976 -0.23519492 0.99698621 -0.077567339 0.0013551797 0.00084860832
-0.29135218 0.19653472 -0.23494293 0.97952998 -0.20129804 7.6707161e-05 3.2780816e-05
0.28762218 0.19612657 -0.23007889 -0.99048191 -0.13759014 -0.0038141641 0.002002049
0.34494224 0.19565648 -0.23561887 -0.98454797 -0.17509498 0.0026712839 0.00071976101
-0.34402275 0.20945315 -0.2372631 0.99409634 -0.10850067 -3.5201297e-06 0.0011149257
0.28733334 0.20152089 -0.23317836 -0.98436803 -0.17605338 -0.0049809087 0.0027382593
0.34224075 0.20841232 -0.2307651 -0.97830212 -0.20718338 2.3520211e-05 0
-0.34338179 0.21527243 -0.23375706 0.98663175 -0.16295463 -0.0018765016 0.0023025882
-0.28724459 0.21596768 -0.23504899 0.97838509 -0.20679124 2.5735286e-05 0
0.28262886 0.21717568 -0.23793262 -0.95901406 -0.28333649 -0.0035345245 0.00045595763
0.3416962 0.21098357 -0.23217383 -0.97829801 -0.20720279 2.0612859e-05 0
-0.33954781 0.22818041 -0.23343621 0.96781838 -0.25143623 0.010362919 0.0013753491
-0.28592888 0.22219229 -0.23208886 0.97839606 -0.20673919 -2.5758323e-05 6.4080159e-05
0.27915379 0.22782969 -0.23791316 -0.95166975 -0.30712304 -0.00038733927 6.8957968e-05
0.28070959 0.22305974 -0.23821789 -0.95497251 -0.29666385 -0.0042564343 0.0002104561
0.33866322 0.22530463 -0.23758508 -0.97829354 -0.20722382 4.8034792e-05 0
-0.28299052 0.23609357 -0.23667951 0.96048462 -0.27805462 -0.012443853 0.0020576511
0.27763486 0.23248655 -0.23598939 -0.95069975 -0.31011292 -2.392723e-05 1.5196255e-05
0.33716875 0.23236135 -0.23367296 -0.97830003 -0.20719317 0.00012888496 0
-0.33262271 0.24944012 -0.2301749 0.95082444 -0.30973029 6.1106788e-05 0
-0.28162131 0.2425714 -0.23212132 0.95643228 -0.2911765 -0.021297628 0.0021075229
-0.33085537 0.2548658 -0.23532587 0.95084226 -0.30967578 -6.1789785e-07 6.2411105e-05
-0.27718616 0.25391212 -0.23684254 0.92116684 -0.38851485 -0.022534499 0.0010710834
0.26944304 0.2576015 -0.23086478 -0.95065129 -0.31026134 6.665277e-05 0
0.33213589 0.25612554 -0.23286571 -0.97218829 -0.23409398 0.0070574777 0.00064964191
-0.32675698 0.26744768 -0.23277891 0.95081878 -0.30974755 -2.221331e-07 0
-0.27210355 0.2639153 -0.23671493 0.9065116 -0.42208931 -0.0087968009 0.00053680886
0.26623774 0.26742849 -0.23617661 -0.92515314 -0.37936851 -0.013085496 0.0021386023
0.3299405 0.26649183 -0.2366367 -0.94899237 -0.31527779 0.0036510038 0.0025977492
0.33017462 0.26538634 -0.23961687 -0.95032203 -0.31123811 0.0043532914 0.0023160134
-0.32549539 0.27132067 -0.23506606 0.95077139 -0.30989301 -1.557151e-05 0
-0.26719439 0.27357721 -0.23703824 0.89149231 -0.45303577 1.6059623e-05 0
0.26367745 0.27527797 -0.2369598 -0.9086746 -0.41707429 -0.01896088 0.0018026934
0.32587698 0.27530777 -0.23731944 -0.91477913 -0.40395391 0.00066677365 0.0015721748
-0.32196662 0.28215384 -0.23450615 0.94448149 -0.32856312 0.00097115146 0.00023563564
-0.26362762 0.280597 -0.23200423 0.89153534 -0.45295119 1.0933036e-05 1.1342895e-05
-0.25912988 0.28944904 -0.23031503 0.89153546 -0.45295084 2.2386934e-05 0
0.25738391 0.28539279 -0.23063402 -0.86304682 -0.50511378 -0.0031952003 0.0011144272
-0.31777146 0.29503277 -0.23577183 0.92463297 -0.3807905 -0.0072360081 0.0013770072
-0.25597283 0.29566252 -0.23127255 0.88851732 -0.45884019 0.0016467447 7.0030175e-05
0.25206491 0.29356304 -0.23753411 -0.84731925 -0.53108031 -0.0019443766 0.0004552122
0.31645682 0.29382977 -0.2344216 -0.89131951 -0.45337567 4.0116047e-05 0
-0.31254506 0.30664241 -0.23311006 0.88670748 -0.46232724 -0.0018103757 0.0024276848
-0.25372043 0.30009556 -0.23353793 0.87798166 -0.47868603 0.0028174613 0.00071878656
0.24692678 0.30145547 -0.23682161 -0.83804262 -0.54560471 3.6789879e-05 0
-0.30482897 0.31850499 -0.23094806 0.84662259 -0.5321933 0.00076768931 0.00033609458
-0.24471481 0.31653863 -0.23645039 0.81764579 -0.57572162 1.4924854e-05 0.0021548672
0.23856795 0.31429505 -0.2335442 -0.83800447 -0.54566336 5.4094664e-05 0
0.30634731 0.31370705 -0.23397094 -0.89133966 -0.45333597 -6.3150379e-05 9.228471e-05
-0.29806179 0.32890868 -0.23162973 0.8382566 -0.54527593 4.0361474e-06 6.1961968e-05
-0.23869716 0.32358387 -0.23009126 0.7807191 -0.6248821 -0.00024629591 0.0017143502
0.29913124 0.32789537 -0.23741347 -0.8913154 -0.45338371 -3.9673159e-05 7.3148047e-05
-0.29392689 0.33526552 -0.23261252 0.83825123 -0.54528427 -6.0145021e-06 0
-0.22564767 0.33810988 -0.23771496 0.74480921 -0.66727751 -0.00020781776 0
0.22508688 0.33500272 -0.23595771 -0.79285824 -0.6092217 -0.014987841 0.0021138652
0.29465839 0.33668995 -0.23921141 -0.87753797 -0.47950625 0.00095579744 0.00053314067
-0.28714904 0.34568563 -0.23534851 0.83825403 -0.54527992 -2.6428501e-05 2.3692812e-05
-0.22150394 0.34272248 -0.2344937 0.74391997 -0.66826868 6.1332001e-05 2.2384103e-05
-0.21946925 0.34498736 -0.23618403 0.74387234 -0.66832173 -1.3589181e-05 0
0.21469305 0.34669882 -0.23583306 -0.7125653 -0.70147032 -0.013786393 0.0023507096
0.29142064 0.34305608 -0.23402444 -0.84674889 -0.53187221 0.011325999 0.001796596
-0.28347704 0.35133091 -0.23746833 0.8382386 -0.5453037 -5.0423532e-05 0
-0.27898246 0.35824072 -0.23421915 0.83330804 -0.55280703 0.0014537993 0.00022356347
0.20036906 0.35956687 -0.23723227 -0.66827327 -0.74391586 -3.5040197e-05 1.5478274e-05
-0.27705032 0.36121115 -0.23028471 0.83271152 -0.55370456 0.0016403894 0.0001371892
-0.19840279 0.36843741 -0.23839599 0.65533924 -0.75499046 0.022800248 0.0019846249
0.19488521 0.36449331 -0.23656105 -0.66829365 -0.74389756 -4.0326184e-05 3.745647e-05
0.27284652 0.36640844 -0.23421037 -0.75200272 -0.65916002 2.833014e-05 0.0002966671
-0.19460969 0.37265971 -0.23648091 0.63928527 -0.76872081 0.019566096 0.0016612547
-0.18850078 0.3767494 -0.23962821 0.60969049 -0.79245675 0.017025717 0.0018965674
0.18119895 0.37678844 -0.23364837 -0.66576827 -0.74615812 -0.00073704863 0
-0.25599098 0.38740554 -0.23531245 0.71520025 -0.69890618 0.0043290742 0.0013304013
-0.17995723 0.38231137 -0.23625289 0.56106454 -0.82774514 0.0066725882 0.00036145802
0.16835481 0.38832703 -0.23723835 -0.58821255 -0.80870628 -0.00050036097 0.0027678215
0.17125009 0.38572603 -0.23938008 -0.6255421 -0.78016955 -0.0057161632 0.0013833254
-0.25111568 0.39178878 -0.23427841 0.67999488 -0.73321635 -0.00087357935 0.00016638637
-0.16659307 0.39101174 -0.23785441 0.54563665 -0.83802187 -4.7414491e-05 6.692941e-05
-0.15465809 0.39878166 -0.2300612 0.54560763 -0.83804083 1.2714469e-05 0
0.1516664 0.39845675 -0.23273146 -0.48394144 -0.8750847 0.0052366476 0.00055404223
0.16479217 0.39147472 -0.23562768 -0.55571955 -0.83136594 0.0025094422 0.0026421577
0.24646565 0.39575094 -0.23592129 -0.74363762 -0.66858292 2.9156929e-05 0
-0.2314477 0.40947157 -0.23634672 0.66867328 -0.74355632 1.7212407e-05 0
-0.14468157 0.40527654 -0.23322573 0.52787185 -0.84932381 -0.00069746753 0.00036376709
0.13719803 0.40580812 -0.2353472 -0.45295069 -0.89153552 -1.2598413e-05 0
0.14324692 0.4027347 -0.23628846 -0.46245688 -0.88664144 -0.0008443094 0.00017212208
0.23583695 0.40757293 -0.23568179 -0.70878732 -0.70536399 -0.0090677738 0.0011961329
0.24021915 0.40269873 -0.2355898 -0.72945684 -0.68393326 -0.011312987 0.00050317863
-0.22583598 0.41451687 -0.23454604 0.66869271 -0.74353886 -3.0634266e-05 0
-0.13440704 0.41196546 -0.23577005 0.46214819 -0.88679761 -0.0030255378 0.0021393981
-0.11512226 0.41973385 -0.23585877 0.335114 -0.94215584 -0.0064025624 0.0005051982
0.11812349 0.41549987 -0.23668721 -0.44944638 -0.89330703 -0.00059998524 1.7439501e-05
0.12273808 0.41315523 -0.23215199 -0.45298412 -0.89151859 -6.5588014e-05 0
0.22778593 0.41652778 -0.23108321 -0.66664559 -0.74534851 -0.0062587373 0.0021602365
-0.10749447 0.42222184 -0.23731574 0.31832317 -0.94798082 -0.0016370104 0.00014894288
-0.095965154 0.42598239 -0.23055291 0.31008098 -0.95071012 -3.2387925e-05 9.8610026e-06
-0.084288202 0.42979109 -0.23318034 0.31012121 -0.95069706 2.8292152e-05 1.2579974e-05
0.08914607 0.42833769 -0.23169425 -0.30101579 -0.95361912 -0.0003795145 0.0025582551
0.094778135 0.42712706 -0.23946804 -0.32845885 -0.94451654 0.0017949488 0.002989566
0.20818728 0.42952412 -0.23480271 -0.54680616 -0.83725888 0.00076890638 4.9482554e-05
0.21180737 0.42716941 -0.23181537 -0.55723751 -0.83032244 0.0071468344 0.00036358612
0.22056007 0.42147616 -0.23558095 -0.61179006 -0.7909146 0.012922722 0.0017723539
-0.072703615 0.43356967 -0.23903918 0.3008253 -0.95367891 0.0008086302 9.285946e-05
-0.053427741 0.43897146 -0.23151469 0.14818168 -0.98895371 0.0035671138 0.0022873851
0.043487612 0.43798864 -0.23286255 -0.2068135 -0.97838038 -3.2968743e-05 5.7723042e-05
0.052919772 0.43599492 -0.23064688 -0.20682353 -0.97837824 -4.2778329e-06 1.9854868e-05
0.065541327 0.43332708 -0.2374759 -0.20694248 -0.97835308 -2.1827009e-06 7.7818149e-05
0.19660483 0.43705806 -0.2314827 -0.54523551 -0.83828288 -0.00013895977 1.6954738e-05
0.20182377 0.43366337 -0.23398837 -0.54514688 -0.83834058 -1.0204448e-05 2.0410955e-05
-0.19407745 0.44161376 -0.23383132 0.53042227 -0.84771812 0.0051245834 0.0019042128
-0.18546456 0.4459942 -0.23836938 0.48604861 -0.8738215 0.01388263 0.00081181369
-0.17788312 0.44985008 -0.23657221 0.45431948 -0.89083874 -0.00033187139 0
-0.032590792 0.44008711 -0.23906252 0.061358292 -0.99811512 -0.0011843463 8.1517959e-05
-0.023803329 0.44055763 -0.2327853 0.053457472 -0.99857014 6.3739259e-05 1.8642484e-05
-0.014372018 0.4410626 -0.23230763 0.053481054 -0.99856883 -9.5087504e-05 7.7856668e-05
-0.005472539 0.44153914 -0.2344211 0.052227035 -0.99863523 -0.00011586641 0
0.00086939335 0.44187874 -0.23559661 0.037987161 -0.99927795 0.00080155616 0.0004558542
0.010377022 0.44238779 -0.23272729 -0.011834469 -0.99964821 -0.023736533 0.0016267439
0.021236988 0.4426918 -0.2346164 -0.063170373 -0.99799663 -0.0034805755 0.0022945153
0.17816362 0.44905335 -0.2332589 -0.54530555 -0.83823735 7.4582553e-05 0
0.18487263 0.44468939 -0.23741466 -0.54529637 -0.83824337 -4.8043275e-06 6.7994064e-05
-0.17258394 0.45254526 -0.23475015 0.45330319 -0.89135641 4.7275556e-05 6.0460657e-06
-0.16425408 0.45678174 -0.23711835 0.45331302 -0.89135146 5.2233321e-05 0
0.16222526 0.45942056 -0.23042184 -0.52729523 -0.84968221 0.00017217745 0.00022548471
0.17286177 0.45250195 -0.23951387 -0.54274231 -0.83989853 0.0011479199 2.0419813e-05
-0.15063302 0.46370929 -0.23995 0.45338663 -0.89131397 -4.5884211e-05 8.8340727e-05
-0.14411785 0.46702293 -0.23367956 0.45337895 -0.89131784 -4.508362e-05 8.8789806e-05
0.14654876 0.46825552 -0.23292981 -0.41698721 -0.90891218 -0.00052488089 0.0016565822
-0.13316879 0.47259152 -0.2329073 0.44293413 -0.89655089 -0.0024069913 0.00013176669
-0.1202018 0.47918645 -0.23340175 0.37072846 -0.92874128 -0.00021786141 0.0016536714
0.11790234 0.47758675 -0.23490861 -0.30970711 -0.95083195 8.4125473e-05 0
0.12965074 0.47375977 -0.23169765 -0.31383803 -0.94947582 -0.0011518883 6.1684994e-05
0.1336602 0.4724538 -0.23987076 -0.31986094 -0.94746435 -0.00057217159 0.00014501342
-0.11225014 0.48198184 -0.23352532 0.30698681 -0.95161641 -0.01361021 0.0020528859
-0.096477605 0.48532224 -0.23150587 0.21454599 -0.97671324 -0.0011277155 8.7596411e-05
-0.080781356 0.48864639 -0.23593566 0.20716023 -0.97830707 5.9220594e-07 0
-0.07822863 0.48918703 -0.23167121 0.20715085 -0.97830898 1.9409123e-05 0
0.086996287 0.48765397 -0.23123345 -0.3069945 -0.9517104 0.0013068337 6.9483431e-05
0.097440705 0.4842518 -0.23415163 -0.3097502 -0.95081794 -8.948924e-06 0
-0.069689006 0.49099559 -0.23756367 0.20718804 -0.97830111 7.4897184e-06 0
-0.057782374 0.49351722 -0.23504257 0.20720713 -0.97829711 -9.7279764e-05 2.3495004e-05
-0.043012619 0.49664521 -0.23220733 0.17258486 -0.98497671 -0.0059415326 0.00080560986
-0.020756237 0.499659 -0.23699655 0.046286512 -0.99889266 -0.0084303971 0.001788861
-0.0065306239 0.49890289 -0.23407578 -0.03732194 -0.99929976 -0.0026452388 0.00032751681
0.0060253842 0.49823555 -0.23409387 -0.05307221 -0.99859065 8.4656967e-05 0
0.024366118 0.49726075 -0.23790477 -0.053106852 -0.99858886 0.00011726918 0
0.035350993 0.49667692 -0.23453097 -0.053083278 -0.99859005 -5.0147672e-05 0
0.045724656 0.49612558 -0.23325768 -0.062122751 -0.99806851 -1.2676357e-05 0.00015975782
0.052241519 0.49577919 -0.23363809 -0.074226856 -0.99724054 -0.0013186798 0.00057075499
-0.046057642 -0.33257449 -0.22054577 0.53837723 0.33562785 0.77298373 0.090268761
-0.024083588 -0.33165902 -0.22089855 0.038428057 0.36272085 0.93110514 0.002643323
-0.016328081 -0.33049196 -0.22134835 -0.045531198 0.34305882 0.93820977 0.0043391949
-0.044337373 -0.32309347 -0.22419967 0.44634151 0.40303653 0.79896235 0.091908053
-0.036061566 -0.32302454 -0.22422622 0.32019708 0.33353978 0.88669336 0.071523339
-0.025544262 -0.32361156 -0.22400001 0.0572339 0.31656897 0.94684124 0.0060496698
-0.014643486 -0.32284901 -0.22429387 -0.059382286 0.31933019 0.94578111 0.0092841061
-0.0024226131 -0.32339892 -0.22408193 -0.29227003 0.33822554 0.89452875 0.060893424
0.0081285406 -0.32631737 -0.22295719 -0.50400257 0.31063932 0.80590606 0.091039158
-0.05028462 -0.31381363 -0.22387162 0.83590722 0.26707616 0.47950965 0.10848108
-0.045354556 -0.31299153 -0.22809286 0.52037764 0.26763996 0.81091064 0.083494954
-0.034279525 -0.31826925 -0.22605886 0.27683917 0.3315337 0.90191209 0.067632668
-0.027868517 -0.31278715 -0.22817163 0.052600913 0.25922558 0.9643833 0.0089470102
0.0084573403 -0.31259727 -0.22824481 -0.57150221 0.21844752 0.79099047 0.078799926
0.011951592 -0.31808227 -0.22613093 -0.67600399 0.23746039 0.69758952 0.070703618
0.012435724 -0.30919865 -0.22457592 -0.90244037 0.032788634 0.42956528 0.051492386
-0.050284624 -0.29618239 -0.22462128 0.68182671 0.013616745 0.73138696 0.10122032
0.012435724 -0.29484197 -0.22378555 -0.84041286 -0.046942666 0.5399099 0.10567051
0.012435724 -0.28647459 -0.22689149 -0.80909276 -0.092344157 0.58038038 0.093954183
-0.05028462 -0.27212098 -0.2203953 0.97204173 0.045990232 0.23025993 0.035930391
0.012435724 -0.27313414 -0.22675604 -0.60988498 0.087469131 0.78764802 0.053158026
-0.050284624 -0.26082915 -0.22688755 0.9055528 0.13015653 0.4037739 0.12163665
0.012435725 -0.26825613 -0.22829404 -0.7152971 -0.00092028 0.69881994 0.062912174
0.012435725 -0.25075746 -0.22215265 -0.89862543 -0.003890008 0.43869942 0.086738259
-0.050284617 -0.24085288 -0.22388193 0.80837083 -0.057660542 0.58584279 0.10856671
0.012435723 -0.2441445 -0.22683597 -0.78367847 -0.01542448 0.6209752 0.080967091
-0.05028462 -0.23034744 -0.229766 0.71711856 -0.24772625 0.65143895 0.084943712
0.012435724 -0.22860274 -0.22870576 -0.80222172 -0.063031003 0.59368962 0.085853599
-0.050284624 -0.21445577 -0.22557294 0.65016723 0.11045646 0.7517193 0.11946681
-0.030020259 -0.21370444 -0.22981331 0.0087850662 0.033248238 0.99940848 0.12420816
0.0081758946 -0.21156566 -0.22910564 -0.66389894 0.17974813 0.72589856 0.22329953
-0.05028462 -0.20525402 -0.2228689 0.83318543 0.17015374 0.52616513 0.13181116
-0.032121852 -0.20773624 -0.22783852 0.052269131 -0.094500974 0.99415171 0.13936248
-0.019614521 -0.20101459 -0.2256144 -0.36126056 -0.57479215 0.73423755 0.19971558
0.0061606863 -0.2043 -0.22670151 -0.90547198 -0.29156658 0.30839819 0.26991016
-0.070166282 -0.19023572 -0.22168696 0.15669692 0.98131877 -0.11162187 0.066501349
-0.064774677 -0.19184862 -0.2216893 0.26032788 0.93522763 -0.2399555 0.18399081
-0.032823328 -0.19402419 -0.2264477 0.071305633 -0.68668813 0.72344661 0.17132133
-0.022690823 -0.19349079 -0.22205237 -0.39638504 -0.50673974 0.76556766 0.19930682
-0.011907111 -0.19502252 -0.22569123 0.064625882 0.85079622 -0.52150685 0.19090436
-0.0093298098 -0.19442643 -0.2236454 -0.12993379 -0.72512287 0.67624998 0.18738112
0.020748302 -0.19675815 -0.22066312 -0.36466002 0.93078291 -0.025813073 0.14194342
0.035055608 -0.19542995 -0.22617818 -0.10673825 0.99381113 -0.030762479 0.029830147
0.044323098 -0.19346724 -0.2270904 -0.18890439 0.9819923 -0.0024846932 0.00023751013
0.058960434 -0.19036731 -0.22764213 -0.20719296 0.97830009 -2.9282685e-06 0
-0.093126215 -0.18275683 -0.22551934 0.30970547 0.95083255 7.5635403e-06 0
-0.086393103 -0.18495005 -0.22486305 0.30694357 0.95172727 -0.00093016401 3.4743589e-05
-0.07828971 -0.18758962 -0.22879463 0.28843492 0.95749569 -0.0027230349 0.00058400864
-0.0127747 -0.18745226 -0.22112679 -0.17076977 -0.66423959 0.72775227 0.18242659
0.077056147 -0.18653494 -0.2282013 -0.2071896 0.97830081 1.9930507e-05 0
0.088254184 -0.18416339 -0.22659358 -0.20805754 0.97811651 0.00042726137 0
0.091223568 -0.18353453 -0.22848889 -0.20895524 0.97792506 0.00046920762 0
0.10641916 -0.18031636 -0.22670548 -0.26127505 0.96523458 -0.0075895516 0.001230233
-0.12094194 -0.17369618 -0.22193833 0.30972522 0.95082611 1.7507275e-05 0
-0.11955452 -0.17414813 -0.22733693 0.30972922 0.9508248 2.8356004e-05 0
-0.10601798 -0.17855749 -0.22316143 0.30971959 0.9508279 1.608103e-05 0
0.10846364 -0.17988336 -0.22195351 -0.26733944 0.96348107 -0.015292916 0.0015885448
0.11219081 -0.179094 -0.22529438 -0.31207037 0.94997412 -0.012698476 0.002303113
0.12864673 -0.17199104 -0.22280836 -0.41317353 0.91064399 0.0038989598 0.0008914473
-0.15268731 -0.16272426 -0.22885135 0.46163362 0.8870523 -0.0057070316 0.0020763462
-0.14069647 -0.16726139 -0.22167414 0.36079001 0.93264568 -0.0016357655 0.001229936
-0.13979878 -0.16755381 -0.22131197 0.35688204 0.93414944 -8.6898362e-05 0.0012207455
0.14735165 -0.16247781 -0.22595553 -0.45332855 0.89134347 1.4254325e-05 2.0496061e-06
0.15821412 -0.15695325 -0.22176951 -0.45338351 0.89131558 -1.7860492e-07 0
0.16817334 -0.15188804 -0.22161254 -0.45333403 0.89134061 -1.8374603e-05 1.9397248e-05
-0.18553191 -0.14136016 -0.2293205 0.54525357 0.8382712 2.654426e-06 2.0320611e-05
-0.1758451 -0.14766102 -0.22639127 0.54528069 0.83825356 2.2174243e-05 0
-0.042207427 -0.14150196 -0.22615975 0.2396033 0.94594312 0.21859056 0.11259583
-0.015949393 -0.14454484 -0.22492945 -0.02757268 0.96139145 0.27379981 0.095881999
-0.0055731488 -0.14398925 -0.2286655 -0.028983654 0.96924442 0.24438769 0.07542944
0.0036126939 -0.14349741 -0.22453362 -0.013465295 0.96242738 0.27120537 0.11993843
0.013860026 -0.14294875 -0.22321463 -0.15520145 0.96452224 0.21356322 0.072923176
0.024255693 -0.1423921 -0.22351499 -0.18061443 0.97292238 0.1442237 0.056492347
0.035851639 -0.14177121 -0.22753374 -0.071955509 0.99737918 0.0075658644 0.00035219893
0.046912968 -0.14117894 -0.22296956 -0.14112602 0.98995173 -0.0088823456 0.0026283709
0.053251185 -0.14034882 -0.22922395 -0.19628964 0.98054475 -0.0015182572 0.0032672731
0.17652526 -0.14764032 -0.22156873 -0.46103272 0.88737947 0.0025682116 0.00010530954
0.18684193 -0.14239332 -0.2211203 -0.50082707 0.86551428 0.0075688027 0.00134731
-0.073881231 -0.13480699 -0.22482155 0.20968877 0.977768 0.00057340309 2.763613e-05
-0.065577686 -0.13656211 -0.22417891 0.20679842 0.97838366 2.564987e-05 9.2963464e-06
-0.055114828 -0.13877368 -0.22844404 0.28155366 0.9560107 0.082286984 0.029990869
0.075234599 -0.13317843 -0.22169217 -0.30164492 0.95341808 0.0020891561 0.00015984349
0.081756465 -0.13105117 -0.22198567 -0.31009972 0.95070404 2.0711577e-06 3.1376526e-06
0.19741388 -0.13649632 -0.22597998 -0.56230843 0.82687378 0.0094286958 0.0021799961
0.20528823 -0.13009025 -0.22638467 -0.62892956 0.77746224 0.00028760856 0.0013849726
-0.11354267 -0.1226204 -0.22246772 0.42620459 0.90462667 -0.0005122929 0.00068873656
-0.10996409 -0.12443868 -0.22184606 0.39802837 0.91735947 -0.0050103795 0.0013018354
0.092288636 -0.12761585 -0.22914451 -0.3100808 0.95071024 -1.8371906e-06 5.1668235e-06
0.1057035 -0.12324029 -0.2270066 -0.32616055 0.94528824 -0.0070364294 0.00040951036
0.20651019 -0.12899165 -0.22640611 -0.62892228 0.77746809 0.00022967208 0.0014113318
0.21562617 -0.12079579 -0.22686292 -0.66708642 0.74497986 -0.00079933804 4.2772212e-05
-0.2303654 -0.11075833 -0.22491698 0.65754443 0.75340849 0.0033209559 0.0014139777
-0.22704582 -0.11379436 -0.22573327 0.64321709 0.76568335 0.00084679836 0.0018097995
-0.1381171 -0.11013415 -0.22054093 0.45297742 0.89152199 -1.6879567e-05 1.7242737e-05
-0.12305287 -0.11778829 -0.22482796 0.45058632 0.89273179 -0.0013913418 3.3394575e-05
0.12639131 -0.11592097 -0.22935045 -0.4545491 0.89066041 0.010446744 0.0023021589
-0.23740585 -0.10292747 -0.22553064 0.72895801 0.68455815 0.00059445546 0.00040785814
-0.15266292 -0.10274345 -0.22720581 0.46729589 0.88409841 0.0021290884 0.00021741058
-0.14500259 -0.10663565 -0.22697723 0.45298472 0.89151829 2.5199004e-05 6.4480955e-06
0.14248583 -0.10544312 -0.22750659 -0.53965908 0.84188223 0.0015538837 8.4498468e-05
0.22933534 -0.10847032 -0.2277967 -0.66855979 0.74365842 8.5666106e-06 1.2616557e-05
0.2369983 -0.10158081 -0.22818336 -0.66856682 0.74365211 2.3026753e-06 1.4283864e-05
-0.17262191 -0.091325581 -0.2219916 0.61274606 0.79026932 -0.0040940694 0.0017940367
-0.16573356 -0.096102275 -0.227357 0.52982348 0.84810638 -0.0016154387 0.0018771744
0.15628351 -0.096460558 -0.22589664 -0.54557973 0.83805901 1.8034951e-05 0
0.24097098 -0.098009132 -0.22035387 -0.66860127 0.74362111 4.6354984e-05 0
-0.25667495 -0.081495084 -0.22468415 0.74361479 0.66860825 -2.4522444e-05 1.2562653e-05
-0.18279175 -0.082189456 -0.22393306 0.65949476 0.7517091 3.8745678e-05 0.00016389907
0.25412452 -0.086183213 -0.22308353 -0.6917426 0.72213829 0.0028986202 0.0008204492
0.26011485 -0.080797508 -0.22448048 -0.73213953 0.68112856 -0.0059646931 0.0021099162
-0.26385084 -0.073513567 -0.22991121 0.74362242 0.66859978 -7.7281175e-06 5.0913627e-06
-0.19412351 -0.072009526 -0.22783642 0.66828138 0.74390858 -2.0089446e-05 2.3668208e-06
0.19026452 -0.07381922 -0.22719336 -0.63936239 0.76887047 -0.007344774 0.002232587
0.26763546 -0.072716422 -0.22575486 -0.77722067 0.62913018 -0.011097311 0.0021726582
-0.27539641 -0.060671877 -0.2264037 0.750597 0.66074771 -0.0040664342 0.0002056275
-0.20661089 -0.06079144 -0.22467884 0.66846573 0.74374294 -2.9406405e-05 0
-0.19824341 -0.068308398 -0.22691922 0.66829789 0.74389374 -5.7416014e-06 0
0.27255508 -0.065221615 -0.22631074 -0.81469119 0.57982278 -0.0091504427 0.0010164981
-0.28237265 -0.052912392 -0.22393331 0.77201855 0.63559461 -0.0026320021 0.0011550403
-0.27820504 -0.057547882 -0.22734992 0.76855379 0.63976502 -0.0050923252 0.0011557704
-0.21749219 -0.051016167 -0.22469442 0.71517944 0.69876224 0.015801318 0.0017008639
0.20655373 -0.05568694 -0.22135544 -0.74273264 0.66958755 -0.00083653053 9.234448e-06
0.27861375 -0.055907167 -0.22858778 -0.83622044 0.54839242 -0.001087359 2.5969255e-05
0.28211021 -0.050531805 -0.22687012 -0.83814144 0.54545289 -1.6415774e-05 8.424131e-06
-0.29108408 -0.04081732 -0.22328773 0.85372704 0.52072024 -0.0007146945 0.002240028
-0.28994393 -0.043059148 -0.22048558 0.84398907 0.53635025 -0.0033054561 0.0025380375
-0.22565834 -0.043680072 -0.22391817 0.75260204 0.65837383 0.011577789 0.0025042542
0.2133325 -0.048141189 -0.2265826 -0.74387711 0.66831642 -6.1618841e-05 6.0211237e-06
-0.29326013 -0.036538802 -0.22611508 0.86072373 0.50907224 -0.0003808832 0.0018190204
-0.23373336 -0.031884901 -0.22843297 0.82206136 0.5693984 -0.00071170676 0.00087358954
-0.22875376 -0.039533846 -0.22665183 0.76989019 0.63815433 0.0052993209 0.0024425671
0.22465065 -0.035542462 -0.22495864 -0.7439003 0.66829056 4.929159e-05 0
0.29348457 -0.033045206 -0.22631964 -0.83826321 0.54526573 -1.1397768e-05 5.5689025e-06
-0.30127248 -0.020784831 -0.22469859 0.89133471 0.45334581 6.0738748e-05 0
-0.29925799 -0.024745725 -0.22547375 0.8899312 0.45609429 -0.00069702277 3.8905422e-05
0.23443353 -0.024652671 -0.22233538 -0.79242349 0.6098699 -0.011121579 0.0025216585
0.29701635 -0.027615495 -0.2234734 -0.83825958 0.54527134 -3.224612e-05 1.4926103e-05
-0.30391908 -0.015581066 -0.22052068 0.89133638 0.45334256 6.0055627e-05 0
-0.24545608 -0.013878194 -0.22401258 0.83804917 0.54559475 -3.3965462e-05 5.0207941e-06
0.30846286 -0.010017981 -0.22308017 -0.86583275 0.50028312 -0.0071083331 0.0010929909
-0.31165284 -0.0003749039 -0.22529329 0.89133024 0.4533546 8.373984e-05 1.8255076e-06
-0.30699173 -0.0095396116 -0.22229829 0.89129978 0.4534145 -4.8087637e-05 0.00010088042
0.31250834 -0.0037985714 -0.22514828 -0.87948811 0.47590315 -0.0040898649 0.0018319944
-0.31528777 0.0067720935 -0.22863321 0.89134258 0.45333022 -1.4680778e-05 0
-0.26050851 0.0092431214 -0.22124484 0.8518697 0.5235728 0.013769218 0.00080603326
-0.25953642 0.0077499403 -0.22016197 0.84537661 0.53415209 0.0044692843 0.00029685846
0.31736809 0.006629277 -0.22361 -0.92522395 0.37941915 0.0013327829 0.001477665
-0.3188993 0.013873134 -0.22285172 0.89499599 0.44607371 -0.00065730448 8.9717119e-05
-0.26724166 0.019585589 -0.22579922 0.89548957 0.44507945 0.0016800896 0.0023127105
-0.27059752 0.027781794 -0.22628616 0.91879594 0.39471847 0.0033644882 0.0025976177
0.26197636 0.024297269 -0.22291248 -0.89150828 0.45300454 -2.714628e-05 1.8090415e-05
0.26654816 0.033295091 -0.22077759 -0.90358061 0.42841125 -0.0024285205 0.00041902385
0.32567298 0.032124836 -0.22824849 -0.95082897 0.30971634 2.8698412e-05 0
-0.33156276 0.044068832 -0.22638716 0.96418279 0.265093 -0.0087882793 0.00107977
-0.27570891 0.043452635 -0.22091097 0.94748276 0.31979099 -0.0031935724 9.3103205e-05
0.27334791 0.046677839 -0.22572735 -0.93196863 0.36251992 0.0037164129 0.0019968199
0.3305029 0.046952415 -0.22588544 -0.95082617 0.30972487 -6.2915336e-05 1.6526101e-05
-0.28049019 0.058111362 -0.22058511 0.95069581 0.31012508 -7.3439267e-05 3.9614039e-05
0.27676374 0.057026517 -0.2224773 -0.9541235 0.29941139 -0.0010534411 0.001650315
-0.33643103 0.067055821 -0.22784126 0.97829878 0.20719926 -6.9313406e-05 2.5405663e-05
-0.28256601 0.064475596 -0.22876117 0.95069849 0.31011653 -5.0342878e-05 6.311468e-06
0.2784532 0.065019272 -0.22593129 -0.9692781 0.24580775 -0.0088681243 0.0011226269
0.33734894 0.067969434 -0.22445427 -0.95586127 0.29381776 -0.0005906304 0.00019404761
-0.33794597 0.074208945 -0.22314398 0.97829896 0.20719802 3.6296493e-05 4.1157409e-06
0.28044158 0.074426249 -0.22120427 -0.97681737 0.21407336 0.0007116567 0.0001256292
0.33822989 0.070673965 -0.22917975 -0.95540905 0.29526532 -0.0034452938 0.00020692339
0.34049419 0.0776252 -0.22297661 -0.96333694 0.26829308 -0.00092135026 0.00085405144
-0.2890622 0.084391914 -0.22481677 0.9658497 0.25904784 0.0053571588 0.0015442518
0.28203493 0.081964418 -0.22330819 -0.97838545 0.20678979 -8.0940345e-06 0
0.34350267 0.086861141 -0.22405221 -0.98279774 0.18461496 -0.005088619 0.0027503187
-0.34244898 0.095471382 -0.22662015 0.9785794 0.20586984 -0.0001164443 0
-0.29208815 0.093669094 -0.229202 0.98733526 0.15864654 -0.00055773032 0.0022919276
0.28430164 0.092688195 -0.22302252 -0.97838378 0.20679747 2.4826479e-05 0
0.34398466 0.092730001 -0.22571123 -0.98790014 0.1550232 -0.0045954906 0.0023481739
-0.34455425 0.10541207 -0.22435731 0.98274398 0.18488723 -0.005567404 0.00056865526
-0.29278448 0.10057263 -0.22550899 0.9910484 0.1321464 -0.018986149 0.0017876485
0.28783849 0.10942093 -0.22374266 -0.9833867 0.18151991 0.0010588296 0.00059308921
0.34437829 0.10013619 -0.22537416 -0.99643826 0.084315725 0.0012906307 0.00090798055
-0.34725177 0.11814919 -0.22062488 0.99034476 0.13862188 0.0010880558 0.0017193949
-0.29353863 0.11465739 -0.22591121 0.99788594 0.064851478 0.0042398339 0.00015366965
0.28895971 0.11472543 -0.22205603 -0.98819137 0.15314102 0.005067233 0.001098429
0.34493947 0.11069441 -0.22791417 -0.99853349 0.054137055 -0.0001766855 7.2567964e-05
-0.34817711 0.12394518 -0.228111 0.99695551 0.075742543 -0.01851391 0.0028691604
-0.29395822 0.12249365 -0.22196659 0.99848443 0.055032879 0.00039335215 6.2791922e-05
0.29088643 0.12505527 -0.2234174 -0.99762082 0.068088166 0.010805553 0.00182833
-0.34805652 0.13355923 -0.22486243 0.99850357 0.048336405 -0.025577012 0.0022704408
-0.29442099 0.13113624 -0.22538927 0.99856859 0.053485867 2.2170085e-05 3.5688707e-05
0.29083219 0.13617596 -0.2272473 -0.99997562 0.0065492438 0.0024064037 0.0011142883
0.34635317 0.13729282 -0.2214852 -0.99859202 0.053046219 1.1387724e-05 0
-0.34757301 0.14265646 -0.22318177 0.99944109 -0.027806364 -0.018555628 0.00070327474
-0.2952964 0.14748612 -0.22296032 0.99857098 0.053441495 -4.1423056e-05 0
0.34667224 0.14329638 -0.22403987 -0.99859053 0.053074904 6.7853405e-05 0
-0.34702229 0.15301764 -0.22442734 0.99871922 -0.05059341 0.00034856648 0
-0.29547608 0.1508411 -0.22302891 0.99941146 0.034304105 6.3700395e-06 0.00034832285
0.28971788 0.15698677 -0.22043736 -0.99856812 -0.053494565 -1.5395357e-05 0
0.29002333 0.15128233 -0.22012693 -0.99872041 -0.050571118 0.0003626965 1.346863e-06
-0.34636417 0.16540028 -0.22266084 0.99858981 -0.05308808 3.0222618e-05 2.5826373e-06
-0.29621375 0.16461882 -0.22824365 0.99959004 -0.027278062 0.0086967694 0.0016224396
0.2890566 0.16933727 -0.22867173 -0.99856913 -0.053476427 6.7320863e-05 0
-0.34580678 0.1758877 -0.22920288 0.99859482 -0.052993614 2.34417e-05 0
-0.29516929 0.17847618 -0.22032343 0.99245489 -0.12229396 -0.0088004768 0.0019880284
0.2887632 0.17481667 -0.22846963 -0.99856806 -0.053496964 -3.8860559e-05 0
-0.29360744 0.18586516 -0.22371194 0.98334467 -0.18173884 -0.0020350213 0.00017912779
0.28818727 0.1855723 -0.22470713 -0.99719948 -0.074768104 -0.0017173679 0.0007772948
0.3478823 0.18177402 -0.22402115 -0.99048251 -0.13723709 0.010503189 0.0018610426
-0.34487864 0.19335036 -0.22633423 0.9984867 -0.054991852 0.00041962904 1.1655639e-05
-0.29121304 0.1971931 -0.22455052 0.97835201 -0.2069477 0.00010281453 0
0.34497628 0.19549574 -0.226243 -0.98340893 -0.18124574 0.007542877 0.00086590828
-0.34427792 0.20465253 -0.2214433 0.99510461 -0.098735787 0.0042433036 0.0010658917
-0.28971875 0.20426257 -0.22732928 0.9783709 -0.20685819 3.8513259e-05 3.0211031e-05
0.34365678 0.20172629 -0.22645029 -0.98043573 -0.19683947 0.00028159373 0.0002253581
-0.28728807 0.215762 -0.22373599 0.97838259 -0.20680322 2.770812e-05 0
0.28381854 0.21352817 -0.22920091 -0.96512306 -0.2617873 -0.0021994787 0.0011556009
-0.28464067 0.22828676 -0.2294746 0.97351903 -0.22854005 -0.0054816101 0.00054285943
-0.3366929 0.23694481 -0.22600144 0.95165461 -0.30715376 0.0031822219 7.1380127e-05
-0.28253686 0.23823981 -0.22470324 0.96405101 -0.26398683 -0.030277086 0.0012514864
0.27657431 0.23573807 -0.22792867 -0.95067698 -0.31018257 8.8975081e-05 0
0.33719349 0.23224455 -0.22038764 -0.97828597 -0.20725979 -5.9358728e-05 4.1069274e-05
0.27368993 0.24458107 -0.22258954 -0.95069587 -0.31012487 7.3614799e-05 5.9499821e-06
0.33479577 0.24356602 -0.22365785 -0.97829401 -0.20722191 -6.344248e-05 7.7415127e-05
-0.33024853 0.25672874 -0.22859851 0.95079678 -0.30981517 5.0671966e-05 0
-0.32949784 0.25903326 -0.22885534 0.95080817 -0.30978036 3.487317e-05 0
-0.27772695 0.25284776 -0.22263844 0.9217211 -0.38785174 -0.0011053588 0.0011706238
0.3324737 0.25453058 -0.22188953 -0.96861154 -0.24857931 0.00028654892 0.0015269935
-0.32811168 0.26328883 -0.22603162 0.95083278 -0.3097046 -4.8816521e-05 2.4576279e-05
-0.26903763 0.26994941 -0.22067159 0.89152241 -0.45297655 8.9371179e-06 0
0.2675035 0.26354781 -0.22483285 -0.93727595 -0.34858721 -0.00085907156 0.0010002814
0.32990792 0.26664558 -0.22980347 -0.94903213 -0.31490862 0.013058576 0.0024020295
-0.26482674 0.27823702 -0.22582541 0.89149559 -0.45302925 -8.7448116e-06 0
0.32701665 0.27306694 -0.22279398 -0.92211205 -0.38692287 -7.9370802e-06 0.0022330435
-0.32117304 0.28459013 -0.22397256 0.9455238 -0.32555285 0.00037417037 0.00028531425
0.31981659 0.28722382 -0.22979663 -0.8938328 -0.44839552 0.0020887535 0
-0.25534183 0.29690441 -0.22175589 0.88432491 -0.4668698 -0.0013946447 0.00034646125
0.24902982 0.29822516 -0.22422434 -0.83797878 -0.54570287 -1.7592918e-05 0
0.31594735 0.29483148 -0.22468494 -0.89133447 -0.45334622 -2.1431291e-05 0
-0.31177813 0.30782154 -0.2273346 0.88867331 -0.45844498 -0.0093850382 0.0018796539
-0.25176322 0.30394751 -0.2248864 0.87013948 -0.49277791 -0.0052177315 0.001004349
-0.24969605 0.30801603 -0.22866876 0.84994394 -0.5268535 0.0045472044 0.0016634817
0.30960292 0.30730593 -0.22277285 -0.89132941 -0.4533563 -3.1845245e-06 1.6115166e-05
-0.30855396 0.31277823 -0.22496429 0.85662651 -0.51586181 -0.00880221 0.00098029838
-0.24416922 0.31749266 -0.22373012 0.82569402 -0.56407124 0.0072874017 0.0019318397
0.23825258 0.31477952 -0.22675465 -0.83807075 -0.54556167 -2.0703133e-05 1.7377115e-05
0.30573019 0.31492051 -0.22277409 -0.89129806 -0.45341796 -1.9871266e-05 0
-0.2981171 0.32882363 -0.22434041 0.83824646 -0.5452916 -5.7475998e-05 0.00012196813
-0.24003337 0.3220965 -0.22513536 0.7909779 -0.61181349 -0.0061751567 0.0018608391
-0.23342156 0.32945639 -0.22172265 0.7630558 -0.64633071 -0.0015751354 0.00067581702
0.23169637 0.32485023 -0.2266622 -0.81846893 -0.57454818 -0.0017340863 0.00069812511
0.30168775 0.32286873 -0.22563685 -0.89132255 -0.45336971 -9.8380351e-06 4.7211743e-05
-0.29468775 0.33409578 -0.22184913 0.83831799 -0.54518163 -1.2493793e-05 1.4830018e-05
-0.23056406 0.33263719 -0.22654063 0.74584872 -0.66611534 6.4108877e-05 1.4104868e-05
0.29572314 0.33459646 -0.22388327 -0.87987667 -0.47520104 -0.00099428045 0.00042366475
-0.28711772 0.34573379 -0.22301961 0.83822429 -0.54532558 -3.919291e-06 3.1028172e-05
-0.2221922 0.34195632 -0.22826904 0.7439478 -0.66823769 5.5088014e-05 6.117313e-05
0.21603367 0.34549451 -0.22853772 -0.71956497 -0.69442481 -0.00056079769 0.0019387894
0.28278905 0.35534969 -0.22295943 -0.79094815 -0.61185831 0.0055240332 0.0019858291
-0.27453423 0.36507934 -0.22778288 0.8143509 -0.58036292 0.0033946151 0.001088263
-0.20232105 0.36407584 -0.22303374 0.71737427 -0.69668245 -0.0027820843 0.00056273583
0.19517769 0.36423054 -0.22574954 -0.66834116 -0.74385488 4.6946287e-05 0
0.27066123 0.368839 -0.22673629 -0.74365014 -0.66856897 -2.6241629e-05 3.1978401e-05
-0.26803192 0.37507582 -0.22309357 0.77326995 -0.63391894 0.014155946 0.0018069546
-0.18898696 0.3764329 -0.22761449 0.60669845 -0.79490691 0.0063258107 0.0019279981
0.17923564 0.3785522 -0.22699451 -0.6654802 -0.7464155 0.00020304727 0
0.18748501 0.37114134 -0.22332475 -0.66835171 -0.7438454 3.4626399e-05 2.7792878e-05
0.26520592 0.37490678 -0.22560416 -0.74369073 -0.66852385 9.6485692e-06 5.5409488e-05
-0.25625849 0.38716507 -0.2246964 0.71671677 -0.69735032 0.004428009 0.0015666466
-0.17855325 0.38322541 -0.22859098 0.55930656 -0.82895207 0.0038389333 0.00032374379
-0.16995026 0.3888261 -0.22116011 0.54561049 -0.83803886 -3.1131076e-05 2.1800282e-05
0.16720977 0.38935569 -0.22840148 -0.5808965 -0.81386918 -0.013275241 0.0026640641
0.25521857 0.38601542 -0.2250555 -0.74367529 -0.66854101 -3.775219e-05 4.4238623e-05
-0.25096279 0.39192623 -0.22284392 0.67784488 -0.73520219 -0.0020101434 0.00011515303
0.15485945 0.39683437 -0.22346553 -0.50339001 -0.86405796 -0.0015536556 0.0015094808
0.16211271 0.39314902 -0.22485438 -0.54569018 -0.83798379 -0.0023031197 0.0024634537
0.24538736 0.39695033 -0.22646548 -0.7434938 -0.66874284 -4.2209256e-05 0
-0.15031722 0.4016076 -0.22572979 0.54568076 -0.8379932 -6.7435431e-05 8.9463356e-05
-0.14378031 0.40586326 -0.22851084 0.5155623 -0.85682911 -0.0062819612 0.00078616402
-0.13851807 0.40928909 -0.22795759 0.49260706 -0.87021446 -0.0080661466 0.0012008204
0.12928243 0.40983003 -0.22678915 -0.45296308 -0.8915292 -4.6994388e-05 0
0.13365003 0.40761083 -0.22505739 -0.45297113 -0.89152521 -8.1509046e-05 3.1395164e-05
0.14744726 0.40060052 -0.2244053 -0.46342084 -0.88613582 0.0021150936 0.00010481387
0.23668492 0.40662974 -0.22442976 -0.71083349 -0.7033065 -0.0086972872 0.00085728837
-0.22395964 0.41620383 -0.2258749 0.66862941 -0.74359584 6.2716313e-06 0
-0.12265217 0.41727778 -0.22280566 0.38203296 -0.92412686 -0.0063603008 0.0022427973
-0.1180395 0.41878232 -0.22409175 0.35107207 -0.93634719 -0.0015040475 0.0013972498
0.1096085 0.41982636 -0.22892044 -0.42112333 -0.90700305 -0.0007965921 0.00068077416
0.11493498 0.41712001 -0.22892252 -0.4375 -0.89921314 -0.0030828409 0.00022653546
0.12240853 0.41332266 -0.2272673 -0.45298752 -0.8915168 -4.2940901e-05 7.1670474e-05
0.22473735 0.41875902 -0.2274224 -0.6209082 -0.78373736 0.015123692 0.001814309
-0.21229263 0.4266932 -0.22512186 0.65465367 -0.75590259 0.0063099167 0.00038293566
-0.20994152 0.42880702 -0.22951892 0.64442974 -0.76455498 0.012882032 0.00087753031
-0.10321989 0.42361608 -0.2243634 0.31007242 -0.95071292 -2.3853609e-05 4.5903245e-05
-0.091939926 0.42729527 -0.22739249 0.31011677 -0.95069844 0.00011893523 0
0.08399374 0.4294267 -0.22553599 -0.26822338 -0.96331418 -0.0090580396 0.0017278421
0.092984527 0.42752632 -0.22846848 -0.32088411 -0.94710857 -0.004319062 0.0030351076
0.10597122 0.42167443 -0.22598581 -0.41726351 -0.90878403 0.0016445371 0.00067069393
0.20865971 0.42921686 -0.22715428 -0.54616606 -0.837677 -4.4432243e-05 0.00011336165
0.21876201 0.42264572 -0.22464585 -0.5847007 -0.81118613 0.010106162 0.0015126294
0.22203881 0.42051429 -0.22901507 -0.61710268 -0.78672361 0.015817109 0.0018944062
-0.19825128 0.43926269 -0.22618449 0.56963634 -0.82188839 0.0037388681 0.0022567043
-0.082961462 0.43022382 -0.2230922 0.31012356 -0.95069629 -6.1859682e-05 0
-0.074584402 0.43295622 -0.22524159 0.29215124 -0.95637083 -0.0015857106 0.00043165713
-0.058149971 0.43831664 -0.22446196 0.18743302 -0.98225868 0.0060602403 0.0028275589
-0.046449967 0.43934503 -0.22414197 0.11781278 -0.99303448 -0.001656341 0.0021830695
0.037523221 0.43924934 -0.22530724 -0.16783467 -0.98580641 0.0041365535 0.00095466076
0.068596847 0.4326812 -0.22388005 -0.20918547 -0.97787565 -0.00084285514 0
0.19368851 0.43895501 -0.22905371 -0.54532087 -0.83822739 2.6821828e-05 0
-0.19222213 0.44255736 -0.2249347 0.54161763 -0.84057599 0.0090677775 0.0025538001
-0.18457028 0.44644904 -0.22527178 0.48146874 -0.87646204 0.001412723 0.00090887072
-0.024649793 0.44051233 -0.22051865 0.05346816 -0.99856961 -2.4122124e-05 2.3222909e-05
-0.015154474 0.44102076 -0.22666276 0.053469833 -0.99856949 5.8612208e-05 0
-0.0082576713 0.44139004 -0.22965185 0.052154254 -0.99863905 0.00014968027 0
0.0011836775 0.44189554 -0.22955477 0.044592809 -0.9990018 -0.0026398157 2.3415183e-05
0.024303056 0.44204375 -0.22394764 -0.10142062 -0.99484277 0.0013139313 0.0019627006
0.032687701 0.44027147 -0.22790375 -0.14783201 -0.98900884 -0.0026457012 0.0012356293
0.18682806 0.44341746 -0.22478457 -0.54529351 -0.83824521 -5.6316338e-05 7.7253944e-06
-0.15581556 0.46107352 -0.22309482 0.45332181 -0.89134699 7.9278572e-05 0
-0.14260373 0.46779296 -0.22760671 0.45345089 -0.89128125 7.713474e-05 0
0.14480452 0.46882367 -0.22691691 -0.3881374 -0.92157483 0.0070132934 0.0022427889
0.1530223 0.46540675 -0.22333267 -0.45770714 -0.8887766 0.024091452 0.0019649675
-0.13369726 0.47232273 -0.22188677 0.44267181 -0.89668322 0.00090302172 0.00023971417
-0.12664157 0.4759112 -0.22565909 0.41315821 -0.91061318 -0.009160554 0.0010816018
0.11502843 0.47852287 -0.22429684 -0.30969819 -0.95083487 -5.4347518e-05 2.3003578e-05
0.098046213 0.48405463 -0.22659056 -0.30975762 -0.95081556 1.6952474e-05 0
0.10794742 0.48082939 -0.22605534 -0.30976999 -0.95081156 1.1908945e-05 0
-0.069916487 0.49094743 -0.22197425 0.20720446 -0.97829765 -7.9800644e-05 0.00010013774
-0.044922728 0.49624065 -0.2253077 0.17846538 -0.9839052 -0.0089787357 0.00058028905
-0.034869362 0.49836981 -0.22842495 0.11327821 -0.99352449 -0.0087837093 0.0021108722
-0.014491672 0.49932605 -0.22406134 -0.0014827944 -0.99997914 -0.0062842872 0.0010833826
-0.0050745597 0.49882555 -0.22539942 -0.036129612 -0.99934703 0.00027503286 0.00040887395
0.0014960729 0.4984763 -0.22825062 -0.053093124 -0.99858958 -2.7174021e-05 0.00018185165
0.018317029 0.49758226 -0.22185254 -0.053089511 -0.99858975 -3.6601388e-05 6.7283756e-05
0.023007018 0.49733299 -0.22250476 -0.053073786 -0.99859059 5.7554964e-05 3.5093533e-05
0.036474794 0.4966172 -0.2271851 -0.057420217 -0.99834961 -0.0010199022 0.0001144375
0.047088917 0.49605304 -0.22610869 -0.06876725 -0.99763024 -0.002248435 0.00025552887
0.054185685 0.49567586 -0.22275171 -0.12142068 -0.99255651 -0.0094083957 0.0013012961
0.065358214 0.49437994 -0.22212142 -0.19163585 -0.98126709 0.019763157 0.0021403122
0.079004601 0.49025717 -0.22008476 -0.26436096 -0.96427727 0.016807983 0.0014724437
-0.042866245 -0.35193717 -0.21308355 0.4313648 0.27558601 0.85905576 0.073937967
-0.026874481 -0.35707495 -0.21110347 0.1575709 0.35159683 0.92279524 0.023854807
0.0078805257 -0.35110119 -0.21340573 -0.5988282 0.25019044 0.76079535 0.090620153
0.010051206 -0.3560932 -0.21148184 -0.66642869 0.32032242 0.67325068 0.097119711
-0.050284624 -0.34252876 -0.21321374 0.75757849 0.19588549 0.62265861 0.087225735
-0.034862429 -0.34841567 -0.21444067 0.28743598 0.35508513 0.88954771 0.056951534
-0.012781115 -0.34071785 -0.21740736 -0.12894179 0.33769417 0.93238229 0.022027936
-0.0073511703 -0.34464377 -0.21589434 -0.16981225 0.36372498 0.91589731 0.034499094
0.0066758245 -0.34176177 -0.21700504 -0.66082823 0.24403319 0.7097562 0.09903685
-0.033734791 -0.33831227 -0.21833445 0.32124314 0.37058854 0.87147409 0.059568081
-0.023860822 -0.33662897 -0.21898317 0.035928957 0.35732782 0.93328768 0.0022318307
-0.0086092707 -0.33774528 -0.21855298 -0.16609788 0.34294409 0.92455447 0.041200958
0.005495985 -0.33923721 -0.217978 -0.44776729 0.32545373 0.83281714 0.090402111
0.012435724 -0.33536354 -0.21556179 -0.74992698 0.28534889 0.59681278 0.10295822
-0.05028462 -0.32278311 -0.219561 0.73137671 0.37545699 0.56931561 0.098895565
0.012435723 -0.32759604 -0.21530172 -0.77200246 0.23394451 0.59100091 0.10636939
-0.050284624 -0.31167978 -0.21981537 0.8358807 0.26707628 0.47955579 0.10847973
0.012435723 -0.31558299 -0.21548434 -0.95278662 0.11127932 0.28251475 0.068180136
0.012435724 -0.30719319 -0.21449327 -0.98327529 0.012106527 0.1817226 0.032797586
-0.05028462 -0.2947154 -0.2147086 0.97348189 -0.041389935 0.22498891 0.056680836
0.012435724 -0.29671505 -0.21545964 -0.97947067 -0.0094503025 0.20136493 0.046693332
-0.05028462 -0.28868306 -0.21266717 0.98641485 -0.070115894 0.14855786 0.047955133
0.012435725 -0.2842136 -0.21832231 -0.88095558 0.0011383251 0.47319764 0.1064899
-0.050284617 -0.27339232 -0.21131369 0.99955589 -0.0068410286 0.029004084 0.021998083
0.012435724 -0.27566135 -0.21974301 -0.89819968 0.054017298 0.43625617 0.080164328
0.012435725 -0.25147569 -0.21521293 -0.96975303 -0.017337503 0.24347179 0.052716322
-0.05028462 -0.24527602 -0.21299919 0.99904627 0.032821756 -0.028797705 0.0094520235
0.012435724 -0.24310623 -0.21274573 -0.9901526 0.013723451 0.13931744 0.041456219
-0.05028462 -0.23295742 -0.21490324 0.99778861 -0.011720357 0.065424949 0.013745285
0.012435724 -0.23070945 -0.21467379 -0.97667038 0.023396811 0.21346579 0.052792802
-0.050284624 -0.22984606 -0.2139627 0.98961407 -0.027113494 0.14117011 0.045180183
0.012435725 -0.22167531 -0.21573664 -0.95104277 0.073658168 0.30015334 0.07182876
-0.05028462 -0.21569435 -0.21356487 0.90032405 0.076837972 0.42838371 0.10916934
0.012435724 -0.218061 -0.21519139 -0.95970041 0.11750167 0.25528112 0.069869213
0.012435723 -0.20637736 -0.21388787 -0.99637443 0.085033536 -0.0026844093 0.27573746
-0.064341083 -0.19171868 -0.21332875 -0.37092146 -0.58966559 0.71743411 0.23177756
-0.053639252 -0.19280449 -0.21808544 0.70043546 -0.24964912 0.66862947 0.24606042
-0.024112012 -0.19437383 -0.21177283 0.0019673579 0.90452558 -0.42641473 0.24254222
-0.0072426936 -0.19527043 -0.21612504 0.41423213 0.79916137 -0.43560627 0.19360603
0.00376553 -0.19585553 -0.21933617 0.5483079 0.75486648 -0.3599098 0.2149435
0.012435725 -0.19162199 -0.21540895 -0.53759748 -0.63858396 0.55063546 0.23165618
0.025635866 -0.19685286 -0.21914876 -0.37713599 0.92067403 -0.10063697 0.12967546
0.035727687 -0.19528763 -0.21332952 -0.10557238 0.99436849 -0.0092682382 0.045873251
0.042535506 -0.19384584 -0.21722408 -0.18177299 0.98333991 -0.0011500536 0.00040561281
-0.097089782 -0.18146573 -0.21587914 0.30971864 0.95082825 -4.465272e-06 1.0488418e-05
-0.085230559 -0.18532872 -0.21239263 0.30673435 0.9517951 0.00032109846 4.3665896e-05
-0.074859396 -0.18870701 -0.21502669 0.10433416 0.99431288 -0.021360267 0.04262498
