# .PCD v0.7 - Point Cloud Data file format
VERSION 0.7
FIELDS x y z normal_x normal_y normal_z curvature
SIZE 4 4 4 4 4 4 4
TYPE F F F F F F F
COUNT 1 1 1 1 1 1 1
WIDTH 590
HEIGHT 1
VIEWPOINT 0 0 0 1 0 0 0
POINTS 590
DATA ascii
-0.22650111 -0.058681034 0.036108054 0.75049478 0.53586102 -0.38679519 0.26619062
-0.19910955 -0.055970393 0.039674774 0.70320237 0.67874968 -0.21167251 0.21795915
0.19689 -0.057588875 0.030716375 -0.58589917 0.77724123 0.22938661 0.22671817
0.23227134 -0.050972305 0.034078006 -0.80106395 0.30503669 -0.51502353 0.18414205
-0.23677544 -0.044544514 0.035494417 0.82216066 0.55635291 -0.12051238 0.14947532
-0.24455747 -0.03407165 0.033519521 0.63173521 0.49705538 0.59485006 0.2262928
-0.21631773 -0.03304451 0.033139594 0.83262259 0.40916172 -0.37326446 0.25999981
0.21387076 -0.035617702 0.039476406 -0.88859785 0.45151186 -0.080813333 0.19762214
0.24676719 -0.033239707 0.033676155 -0.23908052 -0.39544171 0.88682944 0.22470084
-0.25099462 -0.024640629 0.0368319 0.73596865 0.61253661 0.28835568 0.24728404
-0.22118875 -0.026314568 0.033015281 0.95283741 0.30347481 -0.0019808975 0.1884933
0.22422825 -0.023387766 0.035746351 -0.880337 0.35198054 -0.31798834 0.1905614
0.25365579 -0.022200583 0.035387158 -0.67130494 0.15147778 0.72553718 0.29543516
-0.25732303 -0.015808206 0.037259687 0.80826604 0.58688372 0.047680914 0.17957
-0.23088318 -0.013080332 0.031620488 0.52875096 0.73127335 0.43088487 0.19634138
-0.22996594 -0.014036385 0.033877805 0.43481585 0.74959648 0.49903941 0.17784056
0.22829893 -0.017985241 0.038896091 -0.85843831 0.50408632 -0.094765455 0.23022808
0.23061813 -0.01564822 0.03495165 -0.83534485 0.50204223 -0.22394757 0.23124856
0.2574054 -0.01455649 0.032190785 -0.67251998 0.50869852 0.53753394 0.24693282
-0.26168358 -0.0071196258 0.03841373 0.86884713 0.49430948 0.027616784 0.1689207
-0.2352128 -0.0066242209 0.03491348 0.92372513 0.36575964 0.11380622 0.22856736
0.2338333 -0.0089112008 0.035569727 -0.91958028 0.38870329 -0.057287764 0.22022143
-0.26659864 0.00437637 0.032839932 0.93423051 0.11466933 0.33773407 0.22753862
0.23898736 0.0018049106 0.031721771 -0.83231783 0.50883681 0.2198457 0.18378492
0.26658496 0.0071318774 0.03776617 -0.64666289 0.75609875 0.10070582 0.28075397
-0.26936081 0.012434934 0.035958208 0.89386106 0.42294317 -0.14876656 0.2614435
-0.24488813 0.015057648 0.039638489 0.95663393 0.28540167 -0.058287494 0.20379771
0.24337023 0.011249051 0.030113563 -0.90021831 0.43154511 0.058101907 0.15788236
-0.27420545 0.025390161 0.036816388 0.6802237 0.53242648 0.50380337 0.27597731
-0.24942699 0.026370576 0.036939625 0.49512282 0.78592336 -0.37037522 0.27351204
0.24742693 0.020781351 0.032596961 -0.85825741 0.4960829 0.13151415 0.2280733
-0.27691543 0.03185273 0.034228668 0.12741736 -0.14332607 -0.98143899 0.19216859
-0.25318483 0.035644189 0.034301274 0.93235755 0.29750028 -0.20543382 0.25415751
0.25166786 0.030976882 0.036349393 -0.84397817 0.52174592 -0.12442644 0.23568803
0.28000546 0.035365354 0.030263349 -0.90106165 0.34245977 -0.26609987 0.17839101
-0.28179824 0.045383032 0.036943719 0.97407657 0.22522144 0.021215811 0.23235138
-0.25567657 0.042744804 0.036699459 0.81513214 0.57562512 -0.064924851 0.24570344
0.28328601 0.04484823 0.033101663 -0.99418098 0.066853113 -0.084468357 0.14568219
-0.28673059 0.057391439 0.033196554 0.90334427 0.30717835 -0.29935023 0.15593036
-0.26206934 0.058425017 0.031793177 0.93890268 0.22591124 -0.25966498 0.22877839
0.26073167 0.05323264 0.035437297 -0.4704645 0.87897855 0.077845804 0.25027031
0.28450021 0.051826127 0.03348051 -0.99656147 -0.0039515812 0.082762271 0.19455034
-0.28820384 0.066815279 0.034129322 0.93329805 0.24993984 -0.25784647 0.15478231
-0.26424271 0.06772235 0.03911145 0.86924344 0.43166807 -0.24099502 0.23191354
0.28679478 0.066244647 0.033848491 -0.79003608 0.54938376 0.27206713 0.22952864
-0.28889582 0.074529611 0.035171434 0.98726207 0.14298858 -0.069770284 0.18456233
-0.26525211 0.074995831 0.035851613 0.94313884 0.22021651 0.2489855 0.20993613
0.28786102 0.076178789 0.039692067 -0.97194278 -0.00078608544 -0.23521607 0.20178558
-0.29072943 0.088433072 0.03063092 0.87308204 -0.27880362 -0.39999536 0.20610745
-0.26674056 0.088733286 0.034795441 0.31303987 -0.72142619 -0.6176976 0.25592995
0.26621261 0.088585407 0.038199618 -0.99962455 0.019672569 -0.019070866 0.17139086
-0.29072124 0.093929738 0.03685949 0.98386854 0.052071948 -0.17114666 0.19969028
0.29145163 0.094326198 0.032524209 -0.98875314 0.088582903 -0.12050036 0.21015157
-0.29200268 0.10413682 0.034234017 0.92030782 0.11376956 -0.37428612 0.18961871
-0.2688992 0.10882612 0.033474747 0.92737728 0.15842398 -0.33892947 0.25132406
0.29286376 0.10323831 0.032818016 -0.76192123 0.56561208 0.31552988 0.222487
0.26992941 0.11092097 0.036870122 -0.93621206 0.24114083 -0.25565261 0.22717333
0.2714344 0.11753113 0.031574324 -0.83934784 -0.38123462 0.3874988 0.24712038
0.29438898 0.11324781 0.033808827 -0.94348234 0.31201068 -0.1117605 0.2423549
-0.29463518 0.12789051 0.031951018 0.9958967 0.056670815 -0.070557281 0.15487053
-0.27036694 0.12376235 0.034162551 0.95004183 0.19643427 -0.24255748 0.28982535
0.29446295 0.12615119 0.03523954 -0.93333435 0.12022246 -0.33828044 0.21335289
-0.29453993 0.1336638 0.039441124 0.94748259 -0.0066087916 -0.3197391 0.16191998
-0.27123639 0.13560429 0.033494309 0.7528547 -0.23891707 -0.61329317 0.26054472
0.27015498 0.13408332 0.033577293 -0.9309901 -0.11996002 0.34477088 0.22109161
0.29333618 0.13393435 0.038878936 -0.96113837 -0.10650258 -0.2546961 0.2203121
0.26884335 0.14370929 0.037594408 -0.90633231 -0.41293749 0.089690022 0.20520228
0.29260808 0.14375328 0.035881862 -0.87740463 -0.46636871 0.11252251 0.22984758
-0.29216754 0.15589692 0.033650171 0.96985328 -0.18686257 0.15641901 0.18071166
0.26868373 0.15023774 0.031415626 -0.97734648 -0.13962179 0.15905823 0.19524379
0.29123557 0.15699567 0.036113985 -0.87063861 -0.32291132 0.37110206 0.22754845
-0.2670221 0.16562147 0.030534822 0.90327817 -0.4287734 -0.015552404 0.27381414
0.29051945 0.1657823 0.034138337 -0.97712123 -0.1154635 0.1786121 0.22854196
-0.28859815 0.17595772 0.037231475 0.97097623 -0.10649113 -0.21416083 0.20898062
0.26591438 0.17217565 0.037889365 -0.99388456 -0.10334942 0.03888673 0.15610391
0.28911352 0.17917657 0.034567013 -0.22320674 -0.16597031 0.96053761 0.26608714
-0.28699622 0.18678728 0.035635591 0.95703769 -0.20925526 0.20072661 0.19006282
-0.26373073 0.18428282 0.033896662 0.85314435 -0.45218024 0.26014933 0.23897785
0.2647039 0.18407057 0.037848592 -0.99835747 -0.025271621 0.051416632 0.17441879
-0.28598952 0.19064043 0.039811127 0.86386955 -0.41819125 -0.28079441 0.18891434
-0.26125857 0.19912307 0.034811512 0.69157773 -0.7222774 -0.0059671826 0.20718552
0.26344708 0.19243394 0.035356864 -0.95482284 -0.094372086 0.28179276 0.22348148
0.28740752 0.1951001 0.035454407 -0.96045953 0.08734718 0.2643632 0.20323682
-0.28362375 0.20817654 0.03474851 0.96073085 -0.25245982 0.11515308 0.21303125
0.25722522 0.20848022 0.036708668 -0.75161147 -0.63324881 -0.18459722 0.24687909
0.28451949 0.20256422 0.037714675 -0.95865667 -0.18512198 0.21611841 0.22899093
-0.28174168 0.21560359 0.03234154 0.97770959 -0.20456548 -0.047296342 0.1677191
0.27904442 0.21797164 0.033747755 -0.977332 -0.21070245 0.020654181 0.21736446
-0.25168392 0.22469187 0.034309406 0.96435469 -0.19911249 -0.1742819 0.20813039
0.24950631 0.22844678 0.038126536 -0.88606751 -0.46011609 -0.056370482 0.16293275
0.27627477 0.22416335 0.03800825 -0.7442165 -0.6142872 -0.26228452 0.21376365
-0.26789889 0.24614435 0.033688173 0.80271477 -0.56821007 -0.18106973 0.2110384
0.26879999 0.24473868 0.034389641 -0.89536315 -0.43308172 0.10375444 0.25204501
-0.24008495 0.25086313 0.032650277 0.66270858 -0.71755219 -0.21432738 0.21980715
-0.23744237 0.25609717 0.035930324 0.82379186 -0.55125672 -0.13222384 0.21423241
0.24041319 0.25404537 0.030741557 -0.84297812 -0.26150462 -0.47010976 0.20008792
0.26352203 0.2579996 0.036791459 -0.9392159 -0.32807273 -0.10120184 0.19438201
-0.26112872 0.26095548 0.034912899 0.67657799 -0.73260051 0.074423052 0.19376682
0.23348631 0.26465943 0.032433625 -0.89970374 -0.3480598 -0.26341501 0.18577987
-0.23100802 0.27064446 0.033584714 0.96095628 -0.20520598 0.18561696 0.2181816
-0.22491971 0.27842233 0.031216111 0.77361101 -0.60159028 0.19903529 0.22306788
-0.24551803 0.28981137 0.035480618 0.31703651 -0.94246155 -0.10608572 0.23769924
-0.21681836 0.28803822 0.033746619 0.24841492 -0.96796662 0.036477603 0.20753932
0.21742558 0.2864936 0.035396889 -0.68314248 -0.72449303 0.091793753 0.20994802
0.24671996 0.28580084 0.037213411 -0.79584628 -0.59614015 -0.1060446 0.23028547
0.21389388 0.29109445 0.037486982 -0.81157637 -0.47851974 0.33520529 0.202723
0.24164608 0.29387748 0.030461961 -0.70864308 -0.6698541 -0.22163154 0.24274297
-0.2039493 0.30407751 0.031846054 0.82498723 -0.5543294 -0.11006805 0.17997625
0.20189914 0.30821341 0.033869363 -0.69422704 -0.44900915 0.56252962 0.2308533
-0.19123437 0.3191539 0.035938546 0.5310393 -0.79838634 -0.28385991 0.21603692
0.19563453 0.31530091 0.034833267 -0.31056395 -0.86183482 0.40098721 0.24427094
0.22408098 0.31725156 0.036623362 -0.70518327 -0.52002233 0.48196828 0.22981988
-0.21896237 0.32218841 0.036969095 0.49885958 -0.85670894 -0.13110639 0.20027646
-0.18921393 0.32184893 0.034270648 0.52464098 -0.85127938 0.0086781457 0.16643946
0.21601045 0.32878679 0.034330674 -0.82394379 -0.56577849 -0.031802438 0.16835029
0.22110276 0.32220301 0.031304352 0.4178479 -0.89427537 0.16023351 0.26618865
-0.20736049 0.33663669 0.03551279 0.72118115 -0.66586208 -0.19111624 0.21347816
-0.17100187 0.33621466 0.036225021 0.63908595 -0.74659067 0.18485555 0.24030495
0.20681137 0.33643335 0.038493 -0.69250023 -0.70105088 -0.17020892 0.17828088
-0.19907686 0.34472966 0.038056314 0.7524454 -0.65525573 -0.066826798 0.21961458
-0.16596657 0.34019053 0.032838084 0.97629613 -0.21051092 -0.050309718 0.20974365
-0.15822136 0.34546477 0.035991438 0.41530198 -0.88989186 -0.18872358 0.21053699
0.15644255 0.34749413 0.035543501 -0.82975119 -0.55788773 -0.0165626 0.24823336
0.1953813 0.34652317 0.031870775 -0.5931744 -0.80409324 -0.039725974 0.16304091
-0.18765074 0.35295904 0.038229581 0.69504118 -0.71420527 0.082635 0.21935888
-0.14108531 0.35815871 0.032780178 0.55987799 -0.75365657 -0.34429392 0.23813085
0.14638019 0.35588524 0.033716455 -0.69878268 -0.54245526 0.46631005 0.19808637
0.15146621 0.35159159 0.035138041 -0.6046564 -0.75260299 0.26072848 0.1984226
0.1853863 0.35482493 0.030525463 -0.66603655 -0.74063718 0.0886105 0.21366623
-0.17604159 0.36198908 0.032439694 0.70285338 -0.70997947 -0.043889523 0.21788362
-0.16814065 0.36782286 0.03128127 0.62529576 -0.74471855 -0.23323707 0.20225696
-0.13319835 0.36382473 0.033057079 -0.016238589 -0.95428336 -0.29846221 0.24573831
-0.12504546 0.36808214 0.036403 -0.069910884 -0.99448842 0.078136481 0.27760348
0.12847613 0.36542761 0.03202942 -0.46294385 -0.87364924 0.14973272 0.20291412
0.14003322 0.36003852 0.034283757 -0.64063746 -0.32780766 0.69435281 0.20248829
-0.15226476 0.37853736 0.037941881 0.37284762 -0.81528676 -0.44304863 0.20077032
-0.10673358 0.37551543 0.031044915 0.42854995 -0.9020775 0.051002555 0.22226644
0.097652078 0.37933162 0.03126584 -0.2883521 -0.9541164 -0.080715127 0.2138025
0.15483111 0.37887761 0.034629408 -0.27212104 -0.94935215 0.15710068 0.25945094
-0.15023366 0.38063467 0.032313168 0.36928728 -0.78794473 -0.49271703 0.23564681
-0.14126413 0.38715735 0.031890884 0.69823158 -0.71426249 -0.047977634 0.23242226
-0.13976613 0.38779491 0.034679383 0.64248407 -0.69732398 -0.31773183 0.20596023
-0.085253753 0.38321301 0.036467701 0.27917132 -0.95984358 0.027635941 0.19574349
-0.075754866 0.38690838 0.035527281 0.5626781 -0.8196134 -0.10782927 0.18052134
0.065723605 0.38976794 0.035639241 0.010405521 -0.99621069 -0.086348303 0.23070319
0.078195624 0.38751227 0.037447453 -0.32140699 -0.88153821 0.34581494 0.27185568
0.086427405 0.38428155 0.032254539 -0.6971966 -0.70293427 0.14071387 0.23856832
0.094942577 0.38035217 0.033454418 -0.40620419 -0.90786117 -0.10385697 0.20849417
0.14117108 0.38550243 0.032355741 -0.36364534 -0.92213082 -0.13204892 0.21795511
0.15112688 0.38047305 0.037982434 -0.63410985 -0.73927379 0.22666916 0.27639958
-0.13169339 0.39088458 0.034485273 0.28669786 -0.68263507 0.67217094 0.22992732
-0.12839618 0.39248276 0.030948833 0.51915693 -0.85281789 0.056371551 0.24551973
-0.11045008 0.3988589 0.035580635 -0.31449041 -0.94259942 0.11225923 0.21744938
-0.10989942 0.39939162 0.032256693 -0.217831 -0.97581357 0.018371399 0.23738618
-0.063972026 0.39179605 0.03087984 0.31896928 -0.83573121 -0.44700325 0.25858593
-0.052657314 0.39294559 0.035305724 0.11668588 -0.90393579 -0.41144201 0.24202752
-0.045455776 0.39361927 0.03605251 0.61237109 -0.78778243 0.066335961 0.245368
-0.032673705 0.39496243 0.035578672 0.21967873 -0.96995336 0.10455523 0.25931564
-0.017355032 0.3961834 0.03975293 0.36260849 -0.93192601 0.0053817886 0.24675165
0.035612144 0.39461541 0.035823487 -0.68364912 -0.72950512 -0.021123944 0.21706137
0.054055028 0.39181745 0.033640042 -0.28656197 -0.95219785 -0.10583679 0.20886409
0.11976047 0.39482909 0.035203878 -0.056692764 -0.85390061 0.51733893 0.23962167
0.12455076 0.39301574 0.03182283 -0.58091754 -0.13618684 0.80248857 0.1896973
-0.098237194 0.40347785 0.035855658 0.41414124 -0.82971025 0.37425655 0.23082294
0.088925734 0.40834385 0.038473651 -0.30084306 -0.95234662 0.050291568 0.25015891
0.092339605 0.40695474 0.037036106 -0.66629279 -0.72888499 0.15741858 0.22822112
-0.072384119 0.41335028 0.035463914 0.1198237 -0.98035425 -0.15667772 0.20472492
-0.069623753 0.41450685 0.034368888 -0.1186649 -0.98038721 -0.15735175 0.19338208
0.034207344 0.4187752 0.034508839 -0.30569327 -0.93567663 -0.17624104 0.16006942
0.046079643 0.41677237 0.035438158 -0.32540223 -0.91428995 -0.24122043 0.20599647
0.074955583 0.41172749 0.039583579 0.018353513 -0.99373972 -0.11020193 0.22550875
0.08338698 0.4104557 0.038046673 -0.47883049 -0.87752897 -0.025772367 0.20873913
-0.0065023908 0.4210822 0.037576236 0.15407404 -0.97982788 0.12727329 0.15404588
0.0041650464 0.42255643 0.033354908 0.029791312 -0.9992792 0.023528932 0.15573435
0.01259613 0.42222887 0.0349029 0.043294705 -0.99849522 0.033658009 0.13148771
-0.021905279 -0.49976045 0.04021902 0.031852663 0.99948156 -0.0046870336 0.00085267692
-0.015818501 -0.49966821 0.043484505 0.012399408 0.99984211 -0.012729086 0.00037072515
-0.0095731076 -0.49956334 0.047195792 -0.00011062628 0.99973869 -0.022861077 0
0.02751293 -0.49968106 0.043028414 -0.29210076 0.95571285 -0.035916679 0.018864645
0.036566399 -0.49855459 0.046065759 -0.58010435 0.80397922 -0.13075282 0.06193912
0.043562669 -0.4935298 0.043191403 -0.77841187 0.61719435 -0.11465655 0.056808431
-0.04817443 -0.47430944 0.049485669 0.99969417 0.024698332 -0.0012759627 0.028174883
0.043562673 -0.47479093 0.048151348 -0.99821377 0.058902442 -0.0099947061 0.0057027973
-0.047871739 -0.45323718 0.046680309 -0.85253209 0.52234173 0.018659258 0.07922411
-0.044617068 -0.4483546 0.043892752 -0.55715138 0.83041012 -0.0011258122 0.091645077
-0.018224789 -0.44794926 0.045926098 4.6066281e-05 0.99986708 -0.016303597 0.00012058271
-0.0054117274 -0.44796857 0.045242906 0.0016599866 0.99972409 -0.023432188 0
0.0079621319 -0.44807827 0.041361503 0.0004195518 0.99982977 -0.018446751 0.00016166309
0.015447174 -0.44789028 0.048013445 -0.00043372248 0.99972516 -0.023439884 0
0.023369603 -0.44810015 0.040586006 0.20579877 0.97638124 -0.065775946 0.028369227
-0.040262233 -0.16185005 0.041558102 -0.43236202 0.66741067 -0.60632169 0.24034835
-0.013948789 -0.16585334 0.044230547 0.26685908 0.93345171 -0.23969619 0.21991687
-0.0050710002 -0.16620691 0.04587217 0.73834407 0.67254579 0.05030264 0.22885031
0.0066080475 -0.16526407 0.043147922 0.033504669 0.90368265 -0.42688999 0.25567564
0.011819857 -0.16468111 0.043707587 -0.28662354 0.91550851 -0.28229624 0.2416777
0.024870083 -0.16349727 0.042089425 0.19853851 0.91750723 0.34462005 0.19207194
0.039301489 -0.16200382 0.042317204 0.16932403 0.95661998 0.23708133 0.19280314
0.047574226 -0.16091223 0.045025073 -0.18930039 0.97955257 0.068133496 0.19770642
-0.083614469 -0.15468287 0.041889407 0.23830356 0.96966064 -0.054495063 0.19591482
-0.072464392 -0.15601668 0.048433464 0.14918905 0.98587376 0.076128781 0.19590357
-0.05712755 -0.15910538 0.041787177 -0.23916388 0.88326544 -0.40328988 0.24865471
0.059805334 -0.15979147 0.043631271 -0.34981689 0.89228761 -0.28539628 0.18552828
0.087462015 -0.15124337 0.046498664 -0.20548189 0.97262186 0.10855341 0.19176175
-0.10485791 -0.14554471 0.041981906 0.58834517 0.61943275 -0.51976258 0.19462959
-0.024881087 -0.1405714 0.041618254 0.13846944 0.97052979 -0.19722638 0.13219106
-0.0086841527 -0.14249498 0.049995251 0.26734424 0.96226346 -0.050754767 0.24235095
0.0086394101 -0.14147025 0.043464161 0.0834198 0.99621874 0.024277633 0.2273044
0.022120737 -0.14030902 0.040848441 -0.6720376 0.30096611 -0.67659813 0.22906913
0.11543844 -0.14054927 0.047033686 -0.0082186116 0.99378282 -0.11103255 0.23064542
-0.081441686 -0.13036585 0.041822657 0.63079798 0.76407343 0.13522466 0.22613049
-0.067839153 -0.1335934 0.042110808 -0.22394156 0.88800156 0.40162596 0.22768016
-0.055528622 -0.13510379 0.047892459 0.12934208 0.9800725 -0.15075983 0.22557272
-0.043124922 -0.13711306 0.047817379 -0.38149211 0.92435926 -0.0048685493 0.24346109
-0.033615682 -0.13882512 0.045682136 -0.027439468 0.966196 -0.25634426 0.14075555
0.030754328 -0.13936985 0.041558035 -0.022581937 0.98976922 -0.1408793 0.23513344
0.045273077 -0.13745263 0.046872228 0.40912446 0.91222811 0.021379555 0.20280595
0.077111177 -0.13021669 0.045583516 -0.47051948 0.88143361 0.041063227 0.13974874
-0.15142328 -0.12420138 0.04641705 0.50997555 0.85612762 -0.083489396 0.14118168
-0.10191564 -0.12094049 0.044455454 0.60765207 0.7642566 -0.21603425 0.22127569
-0.09984611 -0.12166373 0.046756312 0.60399699 0.75644618 -0.25095171 0.20208775
-0.083955295 -0.12898779 0.044616777 0.62448508 0.74254084 0.24218093 0.22973587
0.079064935 -0.12963228 0.043763727 -0.4455317 0.89484727 0.027383812 0.10717221
0.089708209 -0.1254946 0.044784263 -0.14187518 0.98582113 0.089600213 0.16317111
0.099249661 -0.1217816 0.045741051 -0.12734653 0.98725104 0.095488779 0.18211399
0.1485007 -0.1254493 0.042465672 -0.52349383 0.85087085 -0.044419166 0.2354196
-0.16016664 -0.11834815 0.04526116 0.63526642 0.73960358 -0.22231318 0.18918347
-0.1198753 -0.11297218 0.043414019 -0.17173623 0.96387136 -0.20361392 0.17521104
-0.10567389 -0.11878078 0.049743935 0.22845902 0.96958745 -0.087787561 0.15857659
-0.178763 -0.10355511 0.042195201 0.69533497 0.52587253 -0.4898645 0.16360123
0.17572767 -0.10597169 0.040875763 0.201968 0.96723002 0.15386732 0.21203205
0.18107548 -0.10172668 0.044303551 -0.10161796 0.89508551 0.43416086 0.22549197
-0.15476167 -0.092566386 0.045040373 0.70066839 0.65782672 -0.2762751 0.20041242
0.14511006 -0.098455027 0.047691308 -0.47583944 0.8748548 -0.090586022 0.20601888
0.15332526 -0.092732355 0.045622434 -0.40018994 0.91526258 -0.046288297 0.2541317
0.18493369 -0.098596811 0.047376633 -0.79800022 -0.039318178 -0.60137326 0.24727453
-0.20463145 -0.082500719 0.041994948 0.79581732 0.59701633 0.10122417 0.25507328
0.16539896 -0.08391998 0.046577383 -0.74534887 0.37832704 -0.54892957 0.25180143
0.20209114 -0.08596871 0.045251086 -0.72129315 0.69253123 0.011691866 0.18227349
-0.21395433 -0.074427687 0.043353979 0.76907986 0.62446505 -0.13623331 0.24543281
-0.18180108 -0.070839889 0.042136334 0.77584803 0.52057958 -0.35645017 0.17267683
-0.17653835 -0.07466048 0.046580385 0.73417401 0.58581638 -0.34323126 0.21926838
0.18436879 -0.070683315 0.042022794 -0.18303943 -0.11797579 -0.97600114 0.23028593
0.21030129 -0.076524235 0.043886691 -0.1937183 0.97527194 -0.10638528 0.2433632
-0.22151722 -0.064161286 0.045273677 0.63422275 0.75007898 -0.18746498 0.21453623
-0.18697289 -0.066564977 0.042715102 0.80824941 0.52153718 -0.27337119 0.25219688
0.1882187 -0.066696897 0.042597935 -0.23622379 0.85727328 -0.45747218 0.22306694
0.19219199 -0.06174352 0.043194961 -0.37276003 0.75750959 0.53593767 0.21506447
0.22073141 -0.063915931 0.042549983 -0.76003015 0.63812339 0.12309653 0.2035383
-0.23152956 -0.050955318 0.041004539 0.83880746 0.49510694 -0.22643121 0.24445069
-0.22958353 -0.05326746 0.043473698 0.58149451 0.75817579 -0.29501432 0.19125631
-0.20249781 -0.051009212 0.041597024 0.48028168 0.87602329 -0.043735288 0.1958904
-0.19957024 -0.054045558 0.048909351 0.85946262 0.50725824 0.063348904 0.20439103
0.1974487 -0.055089988 0.044759806 -0.42940834 0.90124536 0.058011517 0.20785733
0.20137566 -0.050450157 0.043368399 -0.5927186 0.75281769 0.28626934 0.23213695
0.2266154 -0.056439321 0.044324003 -0.815512 0.54564917 -0.19289145 0.18445674
-0.20386159 -0.048309468 0.047414914 0.47355247 0.84900159 -0.23440202 0.19660051
-0.24028538 -0.038849667 0.040857852 0.88097459 0.47296801 -0.013602012 0.2216281
-0.21311262 -0.036012314 0.043702953 0.73015517 0.66599107 -0.15273923 0.26710841
-0.20989509 -0.039764259 0.04876212 0.70837265 0.70205677 -0.072969019 0.20435104
0.21673119 -0.031303722 0.04569909 -0.90127969 0.40567598 -0.15205908 0.14997661
0.24222036 -0.03733721 0.043979775 -0.72346497 0.53078634 -0.4414345 0.24254106
0.22212186 -0.025027987 0.043064777 -0.68120563 0.63284242 -0.36806163 0.22164723
0.25149947 -0.024107123 0.048440143 -0.082874209 0.81534421 -0.57301456 0.20535366
-0.25852242 -0.012864536 0.045516789 0.89392346 0.44491994 -0.054287441 0.13367517
0.23154481 -0.012735575 0.041966509 -0.77342874 0.63383222 -0.0080512315 0.24623929
0.25788307 -0.010335912 0.04641027 -0.26395366 0.167482 0.94988328 0.22731008
0.23414472 -0.0063835569 0.044777498 -0.77541655 0.62377566 -0.098148167 0.23820382
-0.26749048 0.0085855117 0.040133379 0.89929122 0.29672921 0.3212899 0.22847386
0.23928064 0.0054910597 0.04694929 -0.74335515 0.65921527 0.11339447 0.18575439
0.24066617 0.008059727 0.044347975 -0.81039351 0.52246124 0.26513508 0.20422921
0.26319349 0.0015897937 0.046837673 -0.89165717 0.25110504 0.37668768 0.23462939
0.241754 0.010250979 0.043181553 -0.86140603 0.43573856 0.26098195 0.19664676
0.2680617 0.012006373 0.044904806 -0.7312932 0.39494163 -0.55608582 0.27834475
-0.27406001 0.026308775 0.041905008 0.55286932 0.82953507 0.078785151 0.24639904
-0.24929644 0.027801789 0.044674642 0.81242377 0.56409597 -0.14752373 0.27262011
0.24615708 0.021298956 0.049400236 -0.34274349 0.80393517 -0.48601958 0.22638963
0.27329561 0.023656463 0.044858322 -0.76032859 0.53070241 -0.37450689 0.19985759
-0.27659234 0.034097955 0.046332862 0.90319729 0.39219612 -0.17440449 0.21931851
-0.25051633 0.031490803 0.046776205 0.9216882 -0.025812503 0.38707176 0.27506331
0.25323772 0.037103273 0.049549073 -0.97799706 0.17375435 -0.11546077 0.18972525
0.25506371 0.040436238 0.045858633 -0.88485652 0.46410224 -0.0404725 0.23075749
0.28224108 0.04567026 0.047219649 -0.92887676 0.1489387 -0.33912411 0.21643178
-0.25934839 0.054008171 0.043721095 0.97779894 0.17866457 -0.1094903 0.2349467
0.26105112 0.059191279 0.043218207 -0.36676335 0.93030578 0.0039675822 0.26986659
0.28450084 0.056270812 0.041269168 -0.94245136 0.25051016 0.22142731 0.24936135
0.26172161 0.06321568 0.042968974 -0.69707769 0.29465958 -0.65365005 0.22029155
0.28570759 0.064623706 0.042813051 -0.94494838 0.31980169 0.069278806 0.23421112
-0.28752708 0.070368633 0.045504436 0.9736746 -0.013061436 -0.2275679 0.18434258
0.26297796 0.072275043 0.045470588 -0.90863264 0.36566484 -0.20168273 0.25419137
0.28674513 0.073692091 0.047449708 -0.88438082 0.24699996 -0.39605761 0.23396048
-0.28885308 0.080526724 0.042336568 0.95911574 0.14617126 -0.24234471 0.18647245
-0.2651664 0.082052127 0.045680448 0.99316269 0.048098616 -0.10636891 0.26514617
0.28880668 0.085446358 0.045675378 -0.9300772 0.15573098 -0.33272246 0.19358562
-0.29009134 0.093518071 0.043293849 0.97980499 -0.020383136 -0.19891404 0.20204127
-0.26669294 0.097077787 0.045762729 0.98972428 -0.14295843 -0.0029521757 0.23486762
0.26722386 0.097543851 0.043470457 -0.95497161 0.017778665 -0.29616413 0.23527594
-0.26779926 0.10684193 0.044421405 0.21878463 0.56602263 -0.79482806 0.26282915
0.29199398 0.10587437 0.046887986 -0.95275915 0.19404887 0.23365594 0.22511534
-0.29239404 0.11718909 0.044527858 0.99854571 0.042819992 0.032754846 0.22908451
0.26954487 0.11025907 0.040231064 -0.96680778 0.19545928 -0.16455486 0.26528367
0.29449826 0.11794697 0.040863961 -0.91211373 0.26642749 -0.31155246 0.16393073
-0.29257202 0.12212776 0.048095692 0.99105936 -0.064134449 -0.11699605 0.21273158
0.27016222 0.12232941 0.048119158 -0.80417877 0.45470524 0.38280484 0.23240976
0.29401782 0.12232 0.044389851 -0.84016556 0.19780931 -0.5049687 0.21258232
-0.29419211 0.13309251 0.042609721 0.93593782 0.09822394 -0.33818993 0.19051234
-0.27019125 0.13697162 0.048177168 0.85141271 -0.51763475 -0.084561795 0.24839726
0.26890361 0.13682407 0.045429401 -0.77585131 -0.31182438 0.54847091 0.19057447
0.29241139 0.13502091 0.047787055 -0.97515559 -0.21566229 0.050609939 0.20809467
-0.29212934 0.14729232 0.049156189 0.97665489 -0.025758745 -0.21326435 0.19842866
0.26799116 0.14445665 0.047059137 -0.7356416 -0.54386359 0.40378669 0.20342714
0.2918855 0.1427592 0.04490013 -0.98003668 -0.053892832 0.19137329 0.25266325
-0.29154617 0.15532464 0.041402116 0.99227053 -0.046544064 -0.11503386 0.20229757
-0.26732236 0.15809053 0.041621156 0.97250867 -0.22472169 -0.06104999 0.20911917
0.26698059 0.15923539 0.040990844 -0.9844206 -0.16413341 0.063057974 0.18714561
-0.29013884 0.16144551 0.045951381 0.97963351 -0.14636785 -0.13745806 0.16127765
-0.2889753 0.16714075 0.048599601 0.96311063 -0.15043885 -0.22312808 0.20467873
-0.26534438 0.16658092 0.048967145 0.83561766 0.073634408 -0.5443539 0.25356904
0.26599181 0.16627991 0.04428345 -0.95934278 -0.025905678 0.28105208 0.1980395
0.26515716 0.17666467 0.04153771 -0.99362165 -0.056875128 0.097372308 0.18363813
-0.28664133 0.18615636 0.040596493 0.84026104 -0.45430678 -0.29591668 0.1673189
-0.26330793 0.18113114 0.045175135 0.87664831 -0.20643923 -0.43459246 0.24218504
0.2876173 0.18117386 0.048711278 -0.95482796 -0.075411379 0.28743115 0.20118871
-0.28549403 0.19123559 0.044148564 0.81835747 -0.44538519 -0.36321244 0.18176754
0.2618016 0.19403726 0.047224645 -0.96377701 -0.26109505 0.054436091 0.23685816
-0.28318083 0.20744327 0.040844783 0.96157056 -0.2588076 -0.091655053 0.20478499
-0.26049078 0.2004272 0.041556019 0.82029754 -0.56841606 0.063365713 0.2353649
-0.25914744 0.20596737 0.044544071 0.95130217 -0.30306968 -0.056329049 0.25390515
0.28143334 0.20898904 0.044318154 -0.89907014 -0.43501493 0.049344208 0.23588394
-0.28274506 0.210373 0.040439069 0.97510707 -0.2208207 0.020108499 0.21846275
0.25363162 0.21586478 0.045699347 -0.80937064 -0.58576614 0.042394225 0.20178235
0.27988696 0.21182616 0.049121805 -0.82163954 -0.53908795 -0.18518274 0.23729263
-0.27657485 0.22432242 0.044920083 0.88836312 -0.2929365 -0.3535524 0.17124386
-0.25122216 0.22404537 0.042720787 0.47290069 0.088913426 -0.87661821 0.22604044
0.24848558 0.2293933 0.045698181 -0.88856506 -0.45833212 -0.019590983 0.20554516
-0.27257204 0.23357171 0.043426201 0.83841258 -0.53209704 -0.11805551 0.15075724
-0.24738976 0.23274837 0.041892406 0.93046242 -0.36634207 -0.0057638222 0.23298319
0.27229264 0.23174886 0.049284928 -0.91185677 -0.31319204 -0.26538271 0.21435522
-0.26745826 0.24543932 0.041286759 0.87387794 -0.41267508 -0.25697595 0.19482538
-0.24357684 0.24108346 0.042693522 0.77345175 -0.58111578 -0.25313389 0.26119915
0.24414006 0.24208975 0.04015024 -0.93661141 -0.34148911 -0.078385442 0.22146049
0.26865923 0.24309857 0.042252034 -0.9268893 -0.3748512 0.019046666 0.20924602
-0.26267388 0.25479695 0.047148969 0.87522596 -0.42056501 -0.23896581 0.21411481
-0.23730689 0.25403064 0.047821879 0.79500175 -0.12025207 0.59456855 0.25438592
-0.25855947 0.26359999 0.048785493 0.95222491 -0.061386738 -0.2991645 0.26267198
0.23456345 0.26120329 0.046530023 -0.9834438 -0.18024051 0.018748362 0.20360801
0.2620464 0.26045597 0.042356983 -0.78221369 -0.62300289 0.003039629 0.18509638
-0.2531423 0.27680275 0.043676823 0.82745665 -0.53777325 0.16160285 0.22440709
-0.2272197 0.27376366 0.045435563 0.67950159 -0.19668525 0.70681858 0.19530109
0.22562082 0.27424023 0.04186685 -0.91837919 -0.29702485 0.26144937 0.2112139
-0.25091773 0.28245848 0.040524483 0.88153625 -0.35003892 0.31680661 0.17903383
-0.24625379 0.28748566 0.045367315 0.62604958 -0.7772249 0.063113697 0.22953121
-0.22036877 0.28254491 0.042544857 0.70769757 -0.54431891 0.45042315 0.21399055
-0.2182721 0.28464985 0.046171349 0.54055685 -0.68312365 0.49106041 0.20314963
0.21991891 0.28192276 0.043414619 -0.81092161 -0.58420324 -0.033357162 0.20762646
0.24793901 0.28253555 0.047366038 -0.87389427 -0.4827531 -0.057079978 0.19732332
-0.2423562 0.29194453 0.047622822 0.61840546 -0.67030567 0.41020125 0.21014377
-0.23822249 0.29770005 0.042881146 0.86736101 -0.41687185 0.27185071 0.24121624
-0.21072683 0.29412851 0.044479042 0.41639772 -0.74395978 0.52262485 0.17694244
-0.20739156 0.29851717 0.042191446 0.78967047 -0.49473739 0.36284345 0.16454494
0.23567356 0.29911667 0.049998254 -0.73701531 -0.66962355 -0.091721326 0.185523
-0.2016598 0.3048428 0.047681313 0.77897966 -0.5627737 0.27654371 0.21529098
0.20612133 0.30149779 0.040092826 -0.97041482 0.11807838 -0.21060069 0.21354042
-0.1937594 0.31490624 0.044835791 0.68379903 -0.72907084 0.02957366 0.23509461
0.22401188 0.31664824 0.041124918 -0.83904999 -0.53992015 -0.066942036 0.23240285
-0.21646406 0.32412234 0.044836737 0.59686488 -0.80070037 0.05129518 0.25302157
-0.18469159 0.32513496 0.042180631 0.68946666 -0.72378331 0.027809005 0.23238869
0.18043461 0.32738277 0.04088901 -0.81526095 -0.55183691 0.17557202 0.23593189
0.22162867 0.32009137 0.04021094 -0.88428861 -0.46659246 0.0180277 0.23529369
-0.2065441 0.33656052 0.043004714 0.77834606 -0.61588812 0.12189833 0.1768515
-0.17319338 0.33392689 0.043240786 0.54740131 -0.81543362 0.18820174 0.18724228
-0.16710484 0.33826602 0.043800902 0.53135157 -0.82943821 0.17233007 0.2222794
0.20341948 0.33785051 0.049977876 -0.60491335 -0.79318893 -0.070223369 0.18909451
0.21211441 0.33110473 0.047086924 -0.70610416 -0.69881696 0.11433177 0.17101133
-0.19456331 0.34669766 0.049566884 0.73559678 -0.66110456 0.14777696 0.22209154
-0.1602501 0.34266043 0.049310312 0.43132624 -0.86540425 0.25501597 0.20076355
-0.15837713 0.34457287 0.043740228 0.48790929 -0.87276477 -0.015041802 0.21005927
0.16094142 0.34299797 0.043437168 -0.56693113 -0.61678791 0.54604191 0.17908214
0.1951036 0.34499756 0.0468117 -0.55559534 -0.80151129 -0.22111857 0.12021838
-0.18390261 0.35451975 0.04844394 0.35188016 -0.93185651 0.088451467 0.21451268
-0.13841113 0.3587389 0.04620488 0.14191905 -0.66892081 -0.72966015 0.23523268
0.14950064 0.35246289 0.042079195 -0.77308702 -0.38475111 0.50428468 0.24605165
0.15073322 0.35142672 0.04238189 -0.61361402 -0.61886597 0.49039033 0.2523067
0.17921059 0.35812777 0.045273244 -0.44868508 -0.8889342 -0.092074595 0.17635138
0.18569589 0.35292861 0.04454701 -0.71280938 -0.68696022 -0.1413801 0.20811614
-0.1735335 0.36209846 0.04761472 0.56951761 -0.81327814 -0.11928276 0.21229017
-0.1672267 0.36661077 0.047977891 0.57431036 -0.79129577 -0.2098061 0.179674
-0.13536751 0.36093244 0.046241883 0.61131227 -0.72742397 -0.31169161 0.25490931
-0.12851296 0.3663846 0.040235572 -0.066528246 -0.99480337 -0.077073537 0.25631607
0.12811759 0.36439341 0.045398172 -0.43609264 -0.89897037 0.040931806 0.20692542
0.17062286 0.3656027 0.041200012 -0.38814378 -0.91137552 -0.13689062 0.19054465
-0.15141204 0.37843132 0.04437824 0.071039617 -0.68880761 -0.7214551 0.23096848
-0.11634246 0.37048602 0.046793506 0.37125173 -0.90520245 0.2068349 0.24715951
-0.10772083 0.37406671 0.043343566 0.29889369 -0.95091152 0.080186345 0.20101681
-0.098823085 0.37719992 0.046224818 0.14255188 -0.97791392 -0.15285084 0.1942921
0.10379643 0.37496147 0.049299657 -0.34576058 -0.93537515 -0.074317507 0.17507175
0.11360829 0.37099051 0.044453427 -0.036313392 -0.98302662 -0.17983344 0.17356881
0.15998733 0.37418523 0.041911587 -0.63309413 -0.74065155 0.22500455 0.2094999
0.16230805 0.37210572 0.043519706 -0.78832948 -0.56591469 0.24140665 0.21495682
-0.1385932 0.38725013 0.044869006 0.67188853 -0.69760519 -0.24882287 0.23486368
-0.084443137 0.38282657 0.044429928 0.56905758 -0.81999099 0.061547447 0.18805449
-0.077108018 0.38531774 0.047857404 0.62357152 -0.71776861 0.30978498 0.17675471
0.058866613 0.38969746 0.049895801 0.090224564 -0.95558751 0.28055653 0.20617956
0.084245652 0.38441259 0.041743159 -0.5256719 -0.8262102 0.20259774 0.21010745
0.091972686 0.38025945 0.049403384 -0.72597861 -0.68378341 -0.073452823 0.18559852
0.13388193 0.38715944 0.048563436 -0.041596934 -0.93869144 -0.34223986 0.18672489
0.14329919 0.38370809 0.040777713 -0.50690353 -0.80877703 0.2982088 0.17581837
-0.12036008 0.3936947 0.049919594 0.22072774 -0.91030371 -0.3501806 0.23787299
-0.11380497 0.39658737 0.045815423 0.26019606 -0.91677004 -0.30303562 0.21320315
-0.1086443 0.39873412 0.043926779 0.22988148 -0.88973993 -0.39435697 0.26797557
-0.055211343 0.39206767 0.042835891 -0.11010259 -0.98154575 -0.15635054 0.20827588
-0.041704141 0.39353859 0.041706234 0.3457033 -0.93391842 0.091025487 0.18531173
-0.033662114 0.39423418 0.043231227 0.23435105 -0.94626337 0.22285698 0.24510786
-0.012482123 0.3965838 0.040933922 0.51915687 -0.81763208 -0.24890554 0.22758946
0.00085679977 0.39789528 0.041540042 0.83600074 -0.49498457 0.23683958 0.16612649
0.042370431 0.39292473 0.043077514 -0.5186249 -0.78203744 -0.3456091 0.21140027
0.05519741 0.39063495 0.04572029 -0.11859945 -0.9803136 -0.15785915 0.20783097
0.11639298 0.39549786 0.043662421 -0.2253195 -0.92266589 -0.31291956 0.20775644
0.12753044 0.39049935 0.043655649 -0.28088608 -0.8708114 -0.40347308 0.24604796
-0.086735949 0.40698552 0.044774003 0.44904125 -0.84489912 -0.29070142 0.19026186
0.086624652 0.40871027 0.044633243 -0.62919462 -0.77491766 -0.060139485 0.22863372
0.090483531 0.40665889 0.048367098 -0.52175438 -0.85306716 -0.0069953986 0.17912894
-0.076703124 0.41086265 0.044149704 0.83854073 -0.53202492 0.11746927 0.2430926
-0.04869625 0.41590112 0.047157168 0.13537084 -0.98352069 -0.11984095 0.21143036
-0.034712195 0.4174189 0.046163991 0.40177497 -0.91384405 -0.05887159 0.18814859
-0.026785582 0.41878569 0.040057585 0.30093068 -0.94673485 0.11460287 0.21461268
0.023480542 0.41945848 0.045901313 -0.33995765 -0.90661037 -0.24997258 0.1140268
0.036660951 0.4176113 0.042845838 -0.20413455 -0.96320289 -0.17484082 0.16455111
0.05479157 0.41421741 0.047906421 0.62196195 -0.61295432 -0.48728874 0.23142305
0.063927919 0.41317657 0.043186769 -0.0083114365 -0.99843419 0.055318002 0.20540203
0.073069982 0.41123509 0.048238438 -0.26963905 -0.95990717 -0.076635517 0.20630002
-0.011927223 0.42001551 0.043191969 0.017346589 -0.99845141 -0.052857269 0.20817667
-0.0015504465 0.42082107 0.045964316 0.17624465 -0.97066331 -0.16355614 0.1755446
-0.040264823 -0.49943948 0.051578991 0.48806718 0.87206197 -0.036032677 0.07189817
-0.034219764 -0.4993605 0.05437291 0.43940932 0.89827043 -0.0054350705 0.063132055
0.01140786 -0.49944749 0.05129537 -0.0064068707 0.99968958 -0.024078062 8.9537876e-05
0.024081454 -0.49932402 0.055663902 -0.32327008 0.94515705 -0.046632148 0.031438962
0.042085871 -0.49522185 0.054651003 -0.73436952 0.67036521 -0.10635726 0.069427304
-0.048174426 -0.4834896 0.057520747 0.96422678 0.26483873 0.011275296 0.029410737
0.043562677 -0.4841736 0.056247167 -0.87647951 0.45226654 -0.16504112 0.058770359
-0.04817443 -0.47004983 0.055456042 -0.98863703 0.14149225 0.050760493 0.029415546
0.043562677 -0.47276622 0.052075401 -0.99583662 -0.038956922 -0.082411736 0.016564183
-0.047142424 -0.4502368 0.059389278 -0.80049038 0.5990563 0.018619772 0.094185203
-0.041897677 -0.44770232 0.054666162 -0.51284617 0.85407364 -0.086873017 0.090299226
-0.036331035 -0.44779032 0.05155044 -0.43620947 0.89677036 -0.074325249 0.088389926
-0.023517139 -0.44774684 0.053091288 -0.062328141 0.99767387 -0.027606098 0.0035726628
-0.014674861 -0.44764233 0.056790035 0.00011406826 0.99961299 -0.027817078 6.2675143e-05
-0.009811447 -0.44768602 0.055242695 0.00021777545 0.99961251 -0.027834795 0.0002159209
0.0090586441 -0.44777894 0.051953431 -3.0485573e-06 0.99960071 -0.028257452 0
0.023342315 -0.44771045 0.054378577 0.095928617 0.99534768 0.0089890249 0.010628622
0.033496279 -0.44760424 0.058137424 0.36314803 0.92868835 -0.075242825 0.053226758
0.0052820868 -0.16416068 0.056704685 0.36280736 0.92891258 0.074110299 0.24619842
0.020705327 -0.16308892 0.051209711 -0.013577427 0.99391639 0.10929794 0.23002481
-0.080502637 -0.1539131 0.057181403 0.48201784 0.85331362 -0.19878289 0.19635968
-0.072799325 -0.15567714 0.051533431 0.27934319 0.93455935 0.22037749 0.18073696
-0.044045776 -0.15975222 0.057705723 -0.21943066 0.97358429 0.063117541 0.22099935
0.046957448 -0.1597012 0.058967806 -0.14721519 0.95705134 -0.24976081 0.13176614
0.053353466 -0.15931205 0.056083694 -0.26112449 0.95719504 -0.12486658 0.16889001
0.06446299 -0.15821885 0.055641014 -0.18970016 0.95745397 -0.2174757 0.19209711
0.072566196 -0.15597987 0.056058981 -0.59069818 0.79996616 -0.10549813 0.20565368
-0.11258721 -0.14106509 0.052121021 0.23301642 0.88803649 -0.39635158 0.25378445
-0.096546553 -0.14819767 0.052798346 0.6205318 0.75133729 -0.22457187 0.20510967
-0.016178349 -0.14069185 0.057171833 0.14293626 0.96907663 0.20114566 0.20998359
-0.0068518645 -0.1417927 0.058813419 0.11998965 0.99235362 -0.028926995 0.26573706
0.0026032785 -0.14103989 0.056226999 -0.13865393 0.89128393 -0.43172678 0.23825419
0.096212104 -0.14711706 0.054702334 0.10560594 0.99271709 0.057965968 0.2029299
0.10689363 -0.14305466 0.05469425 0.24740976 0.88505143 -0.39429975 0.19414087
0.11160775 -0.14107436 0.056617994 0.29857555 0.77233446 -0.56067121 0.23869742
-0.12254966 -0.13641721 0.053888652 0.042084239 0.9721306 -0.23063175 0.23391299
-0.051896036 -0.13527596 0.052909151 -0.13803399 0.95261312 -0.27106243 0.19367383
-0.046410568 -0.13617086 0.052799605 -0.51174289 0.79168487 -0.33369786 0.23795494
-0.024870627 -0.13918573 0.058411494 0.025506832 0.9867515 0.16022149 0.15216996
0.013631489 -0.13984875 0.057029217 0.20261069 0.88534039 -0.41847485 0.22747751
0.023706906 -0.13904475 0.054295469 0.1711939 0.96793604 0.18382718 0.20159464
0.050625458 -0.13592574 0.058834791 -0.018092467 0.98470652 -0.17327917 0.22263582
0.064544871 -0.13393873 0.057584032 -0.72263038 0.67500228 -0.14892042 0.16482218
0.12302969 -0.13670295 0.056891099 -0.73095804 0.64705592 -0.21683852 0.18999715
0.13220945 -0.13360733 0.052816287 -0.64625973 0.72389561 -0.24150266 0.16296104
-0.15475765 -0.12209085 0.050929353 0.89559937 0.036729157 -0.44334269 0.17607032
-0.14723897 -0.12547821 0.05245246 0.42429325 0.90533674 -0.018455375 0.1726916
0.095706403 -0.12223005 0.056048099 0.12017556 0.95217127 0.28094056 0.18040827
-0.15871742 -0.118334 0.055452585 0.63903064 0.76699847 -0.057906382 0.20189145
-0.11399691 -0.11433086 0.057731107 0.11150442 0.99065459 -0.078551486 0.20461404
0.11028066 -0.11659127 0.057134822 -0.4625068 0.65457511 0.59801239 0.21200456
0.12402883 -0.11165608 0.05375962 -0.63713229 0.72679603 0.25657338 0.14819209
0.15805563 -0.11736209 0.05307363 -0.29961386 -0.16375025 -0.9399029 0.18643534
-0.18077826 -0.10056002 0.053734601 0.47638884 0.67840165 -0.55930746 0.21256073
-0.13621216 -0.10449964 0.056161202 0.53951156 0.8277573 0.15409462 0.25709575
0.16994318 -0.10911231 0.050110817 -0.17011335 0.64872634 -0.7417652 0.23870625
0.17291453 -0.10637575 0.055386618 0.26624218 0.8542307 -0.44654784 0.20393154
0.18223092 -0.10025146 0.050021827 -0.61448616 0.61300707 -0.49661773 0.21992999
-0.15385312 -0.091930628 0.058120161 0.67223662 0.69004822 -0.26820049 0.18642902
-0.14985812 -0.095773727 0.052531764 0.91064554 0.32398343 -0.25643596 0.17360434
0.15271038 -0.092633203 0.051021233 -0.5031082 0.86307019 -0.044632189 0.1947338
0.18432221 -0.098419785 0.052893184 -0.72400981 0.24357961 -0.64535159 0.22033487
-0.20048231 -0.084163859 0.056643873 0.12599003 0.977651 0.16830026 0.24277672
-0.16063771 -0.086285472 0.059232265 0.8756246 0.47301358 -0.097671337 0.22114465
-0.15914932 -0.087762117 0.056724042 0.61355042 0.75826347 -0.22043683 0.19651674
0.15890706 -0.088207886 0.050541744 -0.70300728 -0.60071319 -0.3806895 0.26723421
0.16076702 -0.086194687 0.057206832 -0.019050833 0.79937929 -0.6005246 0.2193664
-0.21190777 -0.075075924 0.054753333 0.25812954 -0.70087665 -0.66493696 0.24325638
-0.20646673 -0.078902185 0.059931725 0.96874303 -0.12415222 -0.21476312 0.24753204
-0.17459358 -0.075253889 0.056002349 0.58749568 0.80897075 0.020374184 0.17365944
-0.16991445 -0.0788064 0.058474526 0.61971384 0.78369582 -0.042138677 0.12778059
0.2124477 -0.072206862 0.055583097 -0.3648462 0.92751676 0.081239246 0.19660775
-0.19187297 -0.061253324 0.055252649 0.85810214 0.44222757 0.26095107 0.23096482
-0.18232337 -0.068977058 0.055798106 0.41679415 0.89475894 0.16027823 0.18610328
0.18831733 -0.064890116 0.055654284 -0.20378475 0.95921218 0.19591777 0.13478191
0.21676129 -0.066593468 0.057802886 -0.69612527 0.71583164 -0.054723453 0.2368657
-0.22738063 -0.054051142 0.058076691 0.45136899 0.86762065 -0.20856754 0.19443153
-0.20080964 -0.051721796 0.053265363 0.66911578 0.70668125 -0.22996892 0.21950617
0.22917478 -0.051126488 0.059416041 -0.96714932 0.24615881 -0.063467138 0.16473396
-0.23522073 -0.043323398 0.057225164 0.80219972 0.59353566 -0.064738654 0.17138065
-0.24002478 -0.037209757 0.053742625 0.80378455 0.58932745 -0.081385218 0.16001223
-0.24909876 -0.024854805 0.052363191 0.74507338 0.66656113 0.023705443 0.16148406
-0.22225651 -0.02185354 0.054416765 0.54775065 0.83377361 0.069216006 0.21451056
0.21893556 -0.027611408 0.053342953 -0.93285167 0.32768321 -0.14970461 0.12735817
0.22065702 -0.024640216 0.059991941 -0.87252992 0.48854727 -0.003612489 0.17553534
0.25156131 -0.022627158 0.054486547 -0.13378415 0.99054158 0.030484173 0.24820867
-0.25191429 -0.019865841 0.059375308 0.86032033 0.49453661 -0.12362195 0.13782634
-0.22411001 -0.019191055 0.055098768 0.87504476 0.46617427 0.13030024 0.21493432
0.2265439 -0.018397104 0.052388296 -0.70518327 0.70513934 -0.074128978 0.20864378
0.25739604 -0.010483825 0.050632045 -0.52626109 0.33317932 0.78233039 0.24631074
-0.26142788 -0.0027190221 0.058255553 0.85311431 0.18753123 -0.48685518 0.14363216
0.232216 -0.0091496622 0.05246374 -0.76612955 0.63125759 0.12066204 0.21350776
0.25824717 -0.0079327356 0.053582437 -0.77905285 0.59984922 -0.18236677 0.26865134
-0.26455665 0.0048436741 0.055664942 0.83030647 0.32302076 -0.45414609 0.20161161
-0.23959723 0.0052035162 0.057315022 0.9811573 0.030710228 -0.19075449 0.21282287
0.26574129 0.0085716601 0.05272004 -0.89907306 0.079194531 0.43057626 0.27918163
-0.24443454 0.016579017 0.051468797 0.97845584 0.20508635 0.023743482 0.20713334
0.24295481 0.014316959 0.050164256 -0.92086095 0.32094914 -0.22137479 0.20855856
0.26676756 0.011336339 0.054874938 -0.80467683 -0.20353779 0.55773425 0.23411004
0.27060807 0.019311562 0.052257881 -0.74171805 0.46478632 -0.48355761 0.23979059
-0.24814303 0.02694644 0.054164022 0.78201288 0.61690456 0.088794738 0.18877752
0.24675079 0.023940701 0.056023329 -0.66640699 0.56440437 -0.48718527 0.21764132
0.27229637 0.023771707 0.055406071 -0.80440092 0.58052677 -0.12620592 0.24717908
-0.27524653 0.032874111 0.055384204 0.99771035 -0.042795088 0.052369896 0.2356665
0.25153112 0.035331361 0.0597426 -0.5254221 0.60346198 -0.5998044 0.27147797
-0.27904746 0.041550156 0.050236396 0.91905159 0.26379094 -0.29284576 0.17873938
-0.25479946 0.044324011 0.053635523 0.95510763 0.27404103 0.11256497 0.22086294
0.25804877 0.049830392 0.059635192 0.20926052 -0.4731271 -0.85578078 0.21703348
0.28075865 0.042358872 0.054209933 -0.94208843 0.3343702 0.025807928 0.19427283
-0.25881708 0.055372186 0.055756185 0.96899241 0.20840158 0.13274963 0.21178599
-0.28632894 0.062945001 0.050326303 0.98784792 0.15343533 -0.024783663 0.23763198
0.26124993 0.064060129 0.050329383 -0.93458378 0.31248969 -0.17000984 0.25650454
0.28463534 0.06340462 0.052320171 -0.98750919 0.13410671 -0.082710564 0.18504754
-0.26371846 0.078783564 0.059273943 0.80602413 0.58645016 -0.080007784 0.22613582
0.26308545 0.078859679 0.057040758 -0.88020468 0.21204595 -0.42458957 0.21470453
0.28717285 0.07825017 0.050798528 -0.7887553 0.30794206 -0.53201205 0.22824821
-0.28778842 0.080300122 0.053735882 0.54794061 -0.83606106 0.027623925 0.23344056
-0.26505852 0.08986976 0.05672726 0.050545983 -0.96154374 0.26996067 0.19967379
0.26478595 0.087556273 0.053456299 -0.93603659 -0.0023279046 -0.35189503 0.16426742
0.26568976 0.096154884 0.059324462 -0.97163564 0.071927592 -0.225279 0.21534559
0.29012218 0.099805318 0.05657227 -0.94462907 0.16211918 -0.28529507 0.20806779
0.29119515 0.10713184 0.057769101 -0.93300444 0.22462036 -0.28115526 0.1885675
-0.29147014 0.11679697 0.054201566 0.98636788 -0.13023064 -0.10059026 0.18850109
-0.26854566 0.11978482 0.051427312 0.85883427 -0.35420662 0.37005588 0.20353003
0.26882496 0.11155567 0.051479757 -0.97331154 0.22290523 -0.054570284 0.22377303
-0.26948425 0.12963244 0.052235842 0.51601422 0.61093962 -0.60040158 0.22758186
-0.29294652 0.13640657 0.054710466 0.95412064 0.11253132 -0.27747163 0.17693168
-0.26911682 0.13076711 0.058129877 0.88967252 -0.20514785 -0.40791813 0.22177626
0.26856795 0.13348809 0.053676367 -0.86923701 0.013625291 0.49420783 0.2220511
0.29203898 0.13348424 0.053578913 -0.98374373 -0.17076075 0.055578582 0.17796484
-0.26919678 0.14054611 0.053227082 0.87797779 -0.38274211 -0.28751248 0.22175291
0.29097211 0.14030132 0.05764167 -0.56059885 0.56745833 -0.6030919 0.21554333
-0.26689658 0.15489417 0.053022981 0.98632699 0.047496721 -0.15780701 0.21489981
0.26564229 0.15730909 0.059712857 -0.76056194 -0.41134417 0.50233614 0.17416115
0.28960046 0.15247339 0.059059918 -0.93717664 -0.30382621 0.17143378 0.20535454
0.29043168 0.15110661 0.051488891 -0.86924517 -0.45366892 0.19646183 0.22989383
-0.28853434 0.16679865 0.05398839 0.92450672 -0.20206256 -0.32319972 0.21580577
0.26515821 0.16284612 0.05872561 -0.79447532 -0.32176399 0.51505029 0.20369436
0.28875077 0.16110088 0.058723897 -0.9542017 -0.2604157 0.14725056 0.16758464
-0.28682813 0.17905204 0.051028147 0.80929613 -0.51391381 -0.28448626 0.17399946
-0.26272196 0.17869066 0.057038173 0.84577662 -0.1808482 -0.50195211 0.21240695
0.26443297 0.17030521 0.058287404 -0.86946833 -0.26326013 0.41799393 0.2328421
0.28730202 0.17563221 0.058350965 -0.97803468 -0.087741233 0.18907574 0.21024644
-0.28551322 0.18527047 0.054402139 0.95354742 -0.22061217 -0.20512816 0.24207142
-0.26124915 0.18822725 0.056224123 0.78405267 -0.40108079 -0.47370422 0.17497347
0.28671652 0.18235056 0.057255931 -0.94548935 0.20311649 0.25454578 0.20902088
-0.28388143 0.19712016 0.051341519 0.97259086 -0.22693305 0.050679944 0.24875087
0.25919375 0.19851449 0.057593107 -0.99688315 0.077130467 0.016578635 0.2380306
-0.28294224 0.20015404 0.05622077 0.93941605 -0.23260558 -0.25177759 0.201527
-0.25768211 0.20706423 0.055721242 0.90262598 -0.060436666 -0.42616156 0.22210157
-0.25474435 0.21313138 0.058120046 0.96471339 -0.26237798 -0.02204054 0.21459132
0.25353935 0.21369775 0.05620325 -0.83842659 -0.46775934 -0.27971786 0.19657858
0.27810323 0.21489337 0.055465758 -0.69166452 -0.6673944 -0.27601624 0.24690001
-0.27448064 0.22678488 0.054845303 0.95026273 -0.22018187 -0.22027394 0.15920547
0.25049448 0.22160506 0.056627363 -0.8989203 -0.4359358 0.04361527 0.20950368
0.27472457 0.22309959 0.05810903 -0.82445925 -0.53548241 -0.18309994 0.2479938
-0.27259481 0.23150092 0.05252634 0.95193857 -0.2948586 -0.082893759 0.2097832
-0.24389616 0.23799825 0.054612547 0.79728794 -0.59971017 -0.068408959 0.23330796
