# .PCD v0.7 - Point Cloud Data file format
VERSION 0.7
FIELDS x y z normal_x normal_y normal_z curvature
SIZE 4 4 4 4 4 4 4
TYPE F F F F F F F
COUNT 1 1 1 1 1 1 1
WIDTH 606
HEIGHT 1
VIEWPOINT 0 0 0 1 0 0 0
POINTS 606
DATA ascii
-0.22952072 0.14770471 0.17809448 0.69325256 -0.68510342 0.22368304 0.0026476472
0.22806741 0.14857541 0.17786492 -0.68539512 -0.69254822 0.22496752 0.0023733168
0.305603 0.14404763 0.17469826 -0.77760506 -0.58808434 0.22245716 3.0050231e-05
-0.30051178 0.15007137 0.17293142 0.76929319 -0.59892994 0.22242066 0
-0.29496965 0.15785757 0.17472908 0.76928711 -0.59893155 0.22243759 1.620585e-05
-0.2257477 0.15144581 0.17931473 0.66346139 -0.71227062 0.22910568 0.0022418755
0.29823259 0.15479089 0.17733431 -0.77761322 -0.58810252 0.22238033 0
-0.29159531 0.16238555 0.17525084 0.76927131 -0.59895092 0.22243993 1.2451607e-05
-0.28733528 0.16910663 0.17861468 0.76851225 -0.60005641 0.222084 7.5484536e-06
-0.20621955 0.16537233 0.17633681 0.58995563 -0.77689093 0.21998356 9.3487006e-06
0.20291446 0.16637868 0.17163491 -0.59931785 -0.7697342 0.219835 0
0.28735355 0.16891903 0.17665312 -0.77213359 -0.5955143 0.22174878 0.00015479153
0.29041612 0.16566214 0.17874931 -0.77760345 -0.58808851 0.22245172 1.9618266e-05
-0.28499818 0.17183034 0.17786562 0.76844507 -0.60006976 0.22227992 0
-0.2009137 0.17002161 0.17859071 0.58842766 -0.77808821 0.2198443 0
-0.19604866 0.17280115 0.17540689 0.58840883 -0.77809924 0.21985559 0
-0.18938677 0.17779158 0.17523873 0.58841729 -0.77808785 0.21987361 1.5108046e-05
0.18801014 0.17782456 0.17108274 -0.59932381 -0.76972556 0.21984914 0
0.19827636 0.1703683 0.1729608 -0.59928638 -0.76975071 0.21986289 2.6402695e-06
0.2783871 0.17892295 0.17175463 -0.72965437 -0.64601111 0.22421911 0.001727419
0.28143203 0.17583703 0.17424124 -0.75681835 -0.61446124 0.22285302 0.00077746593
-0.27675545 0.18212706 0.17708287 0.74421531 -0.62606007 0.23279242 0.00062691886
-0.18403184 0.18198299 0.17574072 0.58845627 -0.77806872 0.21983691 0
-0.17750382 0.18673719 0.17509472 0.58392876 -0.78288287 0.21475969 8.6419604e-05
0.18215235 0.18373537 0.17581047 -0.58881271 -0.77900344 0.2155302 0.00012388281
0.2749849 0.1858761 0.17824346 -0.69094414 -0.68497759 0.2310884 0.0023943577
-0.26302058 0.19636522 0.17781898 0.63181895 -0.74076492 0.22819327 0.0013357283
-0.16583011 0.19670901 0.17914265 0.50995582 -0.83044606 0.22428641 0.0020198312
0.16080245 0.19941565 0.17723688 -0.4761937 -0.85185188 0.21814679 0.0024480792
0.26319501 0.19379413 0.1717827 -0.63245237 -0.7430796 0.21871619 0.0010089664
-0.24717493 0.20750773 0.1748805 0.58806831 -0.77762854 0.22241725 0
-0.15967152 0.2007166 0.17816868 0.44607571 -0.86651456 0.22398452 0.0018109845
-0.14325771 0.2078083 0.17992625 0.38304141 -0.89642131 0.22295327 0.00036588567
-0.1382103 0.2093001 0.177634 0.36697954 -0.90387148 0.219869 1.4505864e-05
0.13819146 0.20829915 0.17450321 -0.37966505 -0.89862853 0.21982074 0
0.1412279 0.20769191 0.17726454 -0.37963802 -0.89863741 0.21983114 0
0.15269023 0.20161968 0.17223746 -0.41695136 -0.88273227 0.21664561 0.0014069207
0.24791634 0.20761435 0.17844115 -0.5989114 -0.76931143 0.22240734 2.347583e-05
0.25299132 0.20129132 0.17023756 -0.60067642 -0.76809275 0.22185878 4.7536309e-05
-0.24142841 0.21152882 0.17374554 0.58818144 -0.77755159 0.22238761 0
-0.23501498 0.21808156 0.17969832 0.58805275 -0.77763951 0.22242008 1.2340374e-07
-0.13355739 0.21049727 0.17478907 0.36699 -0.90386701 0.21987008 0
-0.12578939 0.21294881 0.17190126 0.36698255 -0.90387225 0.21986072 8.1294247e-06
-0.11720458 0.21694705 0.17400907 0.36700571 -0.90387124 0.2198263 0
0.11810063 0.2172358 0.17633873 -0.3796213 -0.89863038 0.21988907 6.2292352e-06
0.12960383 0.21257517 0.17715228 -0.37966377 -0.89862376 0.21984261 0
0.13208288 0.2108739 0.17447911 -0.37965438 -0.8986252 0.21985276 0
0.23530066 0.21719804 0.17761776 -0.59893197 -0.76929283 0.22241639 8.2787328e-06
-0.22514307 0.22420146 0.17499407 0.58809018 -0.77760243 0.22245076 0
-0.10753402 0.22120082 0.17535512 0.36697012 -0.90387547 0.21986833 1.57623e-05
-0.097797647 0.22495995 0.17455755 0.34657958 -0.91184074 0.22006617 0.00057852955
-0.086302273 0.2288406 0.17132334 0.29130927 -0.93206912 0.21537422 0.0016328107
0.085410893 0.22992177 0.17253843 -0.27457407 -0.93963587 0.20418994 0.13489567
0.095785789 0.22632134 0.17494228 -0.47076461 -0.87281835 0.12871981 0.095321715
0.10625818 0.2226726 0.17811199 -0.53861105 -0.82016212 0.19295663 0.0310238
-0.082601257 0.23072851 0.17290719 0.26108518 -0.94228292 0.20961274 0.0020437283
-0.067309588 0.23312382 0.17397995 0.14991854 -0.96450919 0.21736242 0.00036623006
-0.035031039 0.23724437 0.17442608 0.12053844 -0.96806002 0.21984167 0
-0.015398936 0.23889872 0.17094666 0.10111144 -0.97038704 0.21937512 0.0003163642
0.027584776 0.23814845 0.17341946 -0.13302039 -0.96642727 0.21982691 0
0.036517333 0.23754737 0.17622685 -0.13410859 -0.96626836 0.21986461 0
0.044148192 0.23691216 0.1780903 -0.13412261 -0.96627241 0.21983807 1.8155522e-05
0.050740965 0.2352756 0.17491913 -0.13411555 -0.9662739 0.21983577 0
0.067950651 0.23378848 0.17888181 0.012131693 -0.9876228 0.15637787 0.038097497
0.075379215 0.23233977 0.17704622 -0.02875605 -0.98451447 0.17292885 0.062593289
0.088092007 0.23707058 0.17740798 -0.92649162 -0.25475657 0.27696988 0.20102926
0.20660967 0.23815402 0.17284104 -0.57497203 -0.78766954 0.22132277 0.00058687601
0.21662414 0.2309061 0.17473891 -0.59735137 -0.77048558 0.2225385 0
-0.20042749 0.2430519 0.17555222 0.54486573 -0.80760038 0.22561687 0.00079416716
-0.19687286 0.24472053 0.17198804 0.51571226 -0.8247574 0.23198301 0.0018197672
-0.014234588 0.24069354 0.17821151 0.10290312 -0.96979398 0.22115736 0.0003975041
-0.0043419972 0.24130836 0.17549491 0.036862649 -0.96957779 0.24199183 0.0011992326
0.0052283467 0.24172974 0.17633501 -0.043390591 -0.96942317 0.24152844 0.0012705019
0.089842997 0.24342655 0.17722774 -0.99451536 0.044232067 0.094777584 0.19261065
0.19388832 0.24975552 0.17987449 -0.49549022 -0.84032756 0.21986167 0.0021696009
-0.18277973 0.25356615 0.17383914 0.44017595 -0.86822164 0.22898956 0.0014563954
-0.17848203 0.25529703 0.17378217 0.42321512 -0.87773728 0.22464702 0.001390552
0.094279423 0.25953043 0.17979483 -0.96527267 0.25758442 -0.043578163 0.035198379
0.18475126 0.25209785 0.17374635 -0.43382713 -0.87287867 0.22333123 0.0011775097
-0.15956527 0.26430649 0.1791795 0.36677071 -0.90332544 0.22244649 3.6992482e-05
-0.1441973 0.26911119 0.17335202 0.36676374 -0.9033218 0.22247291 1.8657476e-05
0.095830157 0.26515955 0.17587936 0.93438548 -0.20789362 -0.28931653 0.15671222
0.14472088 0.26889834 0.17329887 -0.37940377 -0.89809203 0.22244892 1.3053441e-05
0.15504302 0.26461557 0.17361358 -0.37941009 -0.89809644 0.22242028 2.3043172e-05
0.16363256 0.26103398 0.17380409 -0.37939677 -0.89809012 0.2224685 4.9193641e-05
-0.13067266 0.27567047 0.17768979 0.36673862 -0.90333378 0.22246531 6.0838643e-06
-0.12439121 0.27786157 0.1762307 0.36673722 -0.90334368 0.22242755 0
0.097765476 0.27218461 0.17503832 0.77629 -0.083795048 -0.62478185 0.28772765
0.12723401 0.27600163 0.17215124 -0.26071247 -0.94404602 0.20200539 0.022144694
0.13631713 0.27304983 0.17572635 -0.37942094 -0.89808524 0.22244711 1.1599861e-06
-0.10781086 0.28449488 0.17583044 0.32102689 -0.91870493 0.23005015 0.001411602
-0.097019114 0.28836232 0.17381543 0.26661676 -0.93426919 0.23676264 0.0018999592
0.024033831 0.28908271 0.1744597 -0.21609671 -0.93021923 0.29663834 0.027744919
0.037356105 0.28740129 0.17518781 -0.15918981 -0.92037952 0.35715568 0.038328126
0.054452509 0.28607601 0.1797367 -0.13533045 -0.93512857 0.32744503 0.035443429
0.067601062 0.28291142 0.17392083 -0.078895144 -0.94661146 0.31257358 0.041062392
0.086625107 0.28951973 0.17502132 -0.25579044 -0.95961833 0.11706339 0.094867192
0.096716568 0.28893673 0.17857139 -0.24747273 -0.94248044 0.22469492 0.16605553
0.10409319 0.28468475 0.17415665 -0.2111508 -0.97051388 0.11626761 0.13113302
0.11148159 0.28293711 0.17328441 -0.14862882 -0.97946709 0.1362116 0.12848258
-0.079385184 0.29052746 0.17318819 0.14957187 -0.96389002 0.22032754 0.00065293902
-0.064717591 0.29327166 0.17718045 0.12048423 -0.96748275 0.22239748 0
-0.057324223 0.29414445 0.17697231 0.12048846 -0.96747822 0.22241516 0
-0.045058411 0.29465583 0.17255358 0.12046611 -0.96748245 0.22240853 1.7698845e-05
-0.024400333 0.29808879 0.17629714 0.1204748 -0.96747357 0.22244267 2.1271399e-05
-0.013892198 0.29908529 0.17494042 0.093097501 -0.96944946 0.2269372 0.00042274629
0.00071064173 0.2998102 0.17018449 -0.077251241 -0.97442818 0.21100226 0.017553378
0.017948799 0.29447833 0.17469153 -0.18628117 -0.93466723 0.30281428 0.027566273
0.025802907 0.29865652 0.17803764 -0.19931416 -0.92036569 0.33645332 0.029221049
0.032967124 0.2973218 0.17655997 -0.14352776 -0.93183589 0.33328897 0.032192867
0.041863784 0.29661673 0.17886007 -0.15580156 -0.93542665 0.31733704 0.031385783
0.05200975 0.29320586 0.17016532 -0.11213028 -0.95343488 0.27997977 0.042500272
0.06466721 0.29274139 0.17577648 -0.081002742 -0.95226473 0.2943306 0.039307036
0.078387812 0.29008633 0.17251748 -0.15281779 -0.95757866 0.24431492 0.046135701
0.085326679 0.29020381 0.17720892 -0.22658949 -0.95499974 0.19139695 0.081286006
-0.0034200905 0.30059156 0.1758204 -0.034253202 -0.96498811 0.26004726 0.016584726
0.010920402 0.30008256 0.17526056 -0.16780896 -0.95114648 0.25915337 0.022573281
0.037944186 0.43868223 0.17626417 -0.62618703 -0.70001441 -0.34332147 0.093336962
0.044392675 0.43634945 0.17831779 -0.59460217 -0.7106871 -0.37599483 0.089053608
0.054603972 0.43774378 0.17430799 -0.29856762 -0.82789814 -0.47480735 0.040934086
0.065550938 0.43649283 0.17341872 -0.12861605 -0.89579242 -0.42545733 0.003526978
0.086279109 0.43310469 0.17540507 0.23183149 -0.89235532 -0.38724178 0.06283059
0.095185496 0.43307793 0.17266095 0.40983382 -0.82790953 -0.38288662 0.082835041
0.035839252 0.44447571 0.17937893 -0.95376158 -0.15454754 -0.25778633 0.057619363
0.10444726 0.44088334 0.17902757 0.87776458 -0.44758761 -0.17086482 0.06627804
0.037217114 0.45520511 0.17628707 -0.97969228 -0.078523003 -0.1844918 0.040787444
0.1061262 0.45395744 0.17520157 0.96581811 -0.24034445 -0.097107947 0.041345
0.038262885 0.46334893 0.17652813 0.99454874 -0.099539533 0.031060563 0.019833561
0.10744062 0.46419314 0.17302752 -0.97129422 -0.18664199 -0.14748673 0.054731831
0.039923292 0.47627884 0.17260581 0.87362987 -0.42659876 -0.23406063 0.03574153
0.10916556 0.47762561 0.17573664 -0.74337131 -0.63181698 -0.21955957 0.070392042
0.040491238 0.48070157 0.17109008 0.80336171 -0.56168514 -0.19778718 0.064153425
0.050486274 0.48834389 0.178267 0.35868952 -0.86996979 -0.33837026 0.056752607
0.082014516 0.48522586 0.17486711 -0.1546586 -0.94060922 -0.30221707 0.0018453345
0.097061127 0.48364639 0.17357871 -0.51206458 -0.81819952 -0.26141807 0.058899645
0.10341166 0.48213667 0.17611444 -0.63644582 -0.70365661 -0.31591788 0.068481721
-0.064650878 -0.46045309 0.18582051 0.13404568 0.96567947 0.22247455 7.78881e-05
-0.052603535 -0.46169505 0.18395275 0.13403936 0.96568096 0.22247194 0
-0.047206406 -0.46229213 0.18329263 0.13405591 0.96567696 0.22247937 1.1068716e-05
-0.03647064 -0.46334332 0.18138695 0.13402659 0.96570408 0.22237892 0
-0.024246823 -0.46681929 0.18911183 0.11892193 0.96750295 0.22314949 0.000237329
-0.0070485985 -0.46849176 0.18600909 0.064176492 0.97234321 0.2245665 0.0012037213
0.002092991 -0.46776295 0.18282381 -0.025218314 0.97466296 0.22225235 0.0023770609
0.013939107 -0.46707776 0.18625927 -0.094838239 0.97085053 0.22012512 0.00071942928
0.023818558 -0.46591553 0.18655489 -0.12043393 0.96745121 0.22256207 0
0.035236776 -0.46446374 0.18642423 -0.12051383 0.96749562 0.22232549 0
0.046633665 -0.46291563 0.18586329 -0.12047715 0.96747458 0.22243679 1.3256748e-05
0.052850801 -0.46185255 0.18460643 -0.12050135 0.96744025 0.222573 0.00013971125
0.064313434 -0.46050221 0.18494144 -0.12049901 0.96747679 0.22241564 0
-0.10429732 -0.4526619 0.18642153 0.15965863 0.92055714 0.35648805 0.14170744
-0.095245771 -0.45508772 0.18096331 0.34052801 0.90501845 0.25491622 0.11016784
-0.081669621 -0.45687908 0.18055952 0.32202148 0.91652304 0.23725019 0.043683987
-0.074736036 -0.45891264 0.18520996 0.21614194 0.94966412 0.22676128 0.01166623
0.06675645 -0.45988095 0.18356216 -0.12048925 0.96746677 0.22246408 0
0.077976853 -0.45934153 0.1872929 -0.13092346 0.96588838 0.22342493 0.00025503433
0.080706753 -0.45939749 0.18901493 -0.14278777 0.96222395 0.23181194 0.00079901493
0.094474755 -0.45649534 0.18384837 -0.21834497 0.94601297 0.23955154 0.0026913858
0.10722777 -0.45134369 0.18076932 -0.32046804 0.92174518 0.21837144 0.0014106554
-0.1309398 -0.44287026 0.18441874 0.37309083 0.90068412 0.22264631 0.00021271847
-0.11512231 -0.449242 0.18316463 0.091706283 0.96445733 0.24781422 0.082216412
-0.10039685 -0.44713247 0.18319385 0.23608568 0.9110983 0.33788082 0.24166301
-0.099295549 -0.4431347 0.18796378 0.44651976 0.66051745 0.60360324 0.26487425
0.1176037 -0.44840026 0.18592426 -0.35524061 0.90697908 0.22625859 0.00013039152
0.13343702 -0.44188827 0.18558548 -0.36674225 0.90332031 0.22251408 3.7669797e-05
-0.15551306 -0.43229008 0.18361551 0.37941736 0.89807647 0.22248834 5.7788409e-05
-0.14981076 -0.43475616 0.183846 0.37941051 0.89810765 0.22237429 0
-0.097811326 -0.43774706 0.18212631 -0.94600767 0.31303659 0.08412873 0.18586975
0.13560374 -0.43988422 0.18101934 -0.36672273 0.90334362 0.22245187 0
0.1499635 -0.43439487 0.18240386 -0.36677301 0.90333128 0.22241884 0
0.15593746 -0.43187743 0.18203054 -0.36677569 0.90333098 0.22241588 0
-0.16683863 -0.42724544 0.18256575 0.37946612 0.89809912 0.22231378 0
-0.093940973 -0.42369786 0.18640189 -0.97133648 0.23659718 0.022964204 0.026716836
0.16420345 -0.4296847 0.18675524 -0.36672655 0.90334016 0.22245969 4.0918032e-05
0.18328695 -0.42143166 0.18470483 -0.44706771 0.86425954 0.23062076 0.0022876926
-0.20343225 -0.41032881 0.18773088 0.56714696 0.79169965 0.2270593 0.00066972448
-0.19418564 -0.41662699 0.18633924 0.47499552 0.85393542 0.21254061 0.0029021548
-0.1866837 -0.418753 0.18212694 0.43449965 0.87634623 0.20791198 0.0013647445
-0.092520595 -0.41854191 0.18300411 -0.97446495 0.22412692 -0.013606682 0.045985214
0.19688077 -0.41371465 0.18458831 -0.52578545 0.81513101 0.24312764 0.0013751662
-0.21633101 -0.40003252 0.18685201 0.59691399 0.77068824 0.22300962 7.7798046e-05
-0.20450874 -0.40825877 0.18347 0.56194699 0.79663581 0.22268149 0.00097967242
-0.088040933 -0.40228114 0.18333609 0.75520289 0.61816746 0.21803135 0.23333669
-0.051990807 -0.40196604 0.181371 0.13411774 0.96626675 0.21986568 0
-0.037466891 -0.40572253 0.18902132 0.13412243 0.96629721 0.21972916 0
-0.023938268 -0.406427 0.18386427 0.13262607 0.96630347 0.2206082 0
-0.017609317 -0.40705532 0.18276486 0.099989943 0.97062498 0.21883579 0.00080246647
-0.0060305377 -0.40846062 0.18187778 0.027945327 0.97838616 0.20488928 0.0013796682
0.0087036798 -0.40875235 0.18690448 -0.053645585 0.97631955 0.20957632 0.0011742853
0.017813506 -0.40650573 0.18200661 -0.11014965 0.96922755 0.22014771 3.0660474e-05
0.026562044 -0.40555322 0.18260917 -0.12054805 0.96805274 0.21986824 6.292858e-06
0.043905802 -0.40392339 0.18494208 -0.12053191 0.96804577 0.21990769 3.5003861e-05
0.20755346 -0.40592843 0.1855841 -0.57355553 0.78601372 0.23068722 0.00032532914
0.21174914 -0.40288848 0.18604904 -0.58804095 0.77766263 0.22237073 2.7549813e-06
-0.21750849 -0.39758953 0.1815733 0.59888935 0.76930934 0.2224739 4.4648557e-05
-0.10029767 -0.39321303 0.18884766 0.58406901 0.79271168 0.17456105 0.063441232
-0.094759285 -0.39406705 0.18277466 0.62126225 0.76046908 0.18899785 0.13297516
-0.086256959 -0.39770597 0.18439543 0.56399858 0.81674254 0.12180805 0.21820302
0.083922312 -0.39903939 0.18729468 -0.26557326 0.93690914 0.2273151 0.0019354199
0.095708206 -0.39346951 0.18387119 -0.33939278 0.91287071 0.22689128 0.00049522449
0.10377301 -0.39056683 0.18539962 -0.36207893 0.90610003 0.21881877 7.4547977e-05
-0.13142391 -0.38027042 0.18969417 0.37965867 0.89861798 0.21987496 0
-0.12294599 -0.38219425 0.18291773 0.37963805 0.89863849 0.21982673 0
-0.10744416 -0.3890315 0.18409625 0.44450745 0.87156361 0.20685725 0.013240144
0.10557669 -0.38912904 0.18249896 -0.36667374 0.9039883 0.21989912 0
0.11464229 -0.38600072 0.18477035 -0.36701107 0.90385163 0.21989819 5.9131096e-05
0.12635197 -0.38167 0.18651177 -0.36703232 0.90387595 0.21976241 0
0.22844277 -0.38914382 0.18213221 -0.58810425 0.77758372 0.22247916 8.729093e-05
0.23942909 -0.38070846 0.18168771 -0.58799952 0.77768183 0.22241314 1.4941176e-05
-0.24588257 -0.37678602 0.18602404 0.59894526 0.76928043 0.22242345 0
-0.14311031 -0.37377802 0.1833365 0.37964576 0.89863646 0.21982156 1.723668e-05
-0.12821923 -0.37954015 0.18117508 0.3796612 0.89862549 0.21983977 0
0.13786384 -0.37699965 0.18652672 -0.36703941 0.90385336 0.21984354 0
0.15154305 -0.3709389 0.18444294 -0.41434702 0.88230789 0.22326952 0.0011175472
0.24629188 -0.37577939 0.18259956 -0.58796459 0.77771974 0.22237262 0
0.2507751 -0.37344283 0.18628384 -0.5924527 0.77412325 0.22300881 1.0492154e-05
-0.26267841 -0.36474645 0.18960935 0.61794889 0.75220245 0.22875889 0.0005055021
-0.15688834 -0.36777681 0.18259865 0.44493073 0.86869633 0.21772304 0.0016189462
0.15638728 -0.36866254 0.18317054 -0.44549793 0.86476898 0.23174591 0.0017873726
0.2587038 -0.36590311 0.18088679 -0.60908699 0.76149964 0.22165573 0.00048211415
0.26450872 -0.36288476 0.18568183 -0.64206052 0.73272073 0.2255628 0.002074481
-0.26885974 -0.35771272 0.18192673 0.69139147 0.68417102 0.23213753 0.0020323461
-0.18507406 -0.35015729 0.18736742 0.59727198 0.77116466 0.2203888 2.0290552e-06
-0.17643124 -0.35626474 0.185192 0.58093524 0.78298014 0.2223876 0.000600325
0.18381189 -0.35056242 0.18641892 -0.58837736 0.77813095 0.21982796 0
0.26955083 -0.35981053 0.18826467 -0.66960537 0.70624816 0.22987401 0.0026044289
0.27312896 -0.35450673 0.18391158 -0.69226855 0.68457007 0.22831553 0.0028791933
-0.27854303 -0.34892881 0.18448824 0.72415298 0.6491397 0.2328517 0.0019905469
-0.19185117 -0.34288934 0.18039371 0.59927726 0.76974696 0.21990082 3.7087604e-05
-0.18594161 -0.34893733 0.1854609 0.5974372 0.77099931 0.22051944 1.0510999e-05
0.18552315 -0.34791788 0.1816394 -0.58839792 0.77810806 0.2198538 0
0.19235995 -0.34368551 0.18495853 -0.58842206 0.77808225 0.21988058 6.9236565e-05
0.28469747 -0.34094054 0.18682697 -0.75814426 0.61262619 0.22339728 0.00029475157
-0.29332203 -0.33075333 0.18810353 0.77757698 0.58813775 0.22241417 0
-0.28832239 -0.33661491 0.18612146 0.77000833 0.59858984 0.22085592 0.00033820636
-0.20830938 -0.33003631 0.18025489 0.59930629 0.7697323 0.21987301 3.9566283e-05
-0.19810447 -0.33942425 0.18530756 0.59935433 0.76970172 0.21984906 0
0.20573442 -0.33373341 0.18553232 -0.58860558 0.77792168 0.21995743 0
0.29139346 -0.33292726 0.18840876 -0.76879179 0.59948742 0.22265252 0
-0.29773712 -0.32214215 0.18077236 0.77763611 0.5880512 0.22243638 0
-0.21518235 -0.32589021 0.18447316 0.6074127 0.76359433 0.21902871 0.00020788106
0.21056962 -0.32941186 0.18317875 -0.59538192 0.77264798 0.22030759 7.9913458e-05
0.22263205 -0.32055494 0.18411699 -0.62121278 0.7475853 0.23497005 0.00099878211
-0.30374402 -0.31483856 0.18246344 0.77751273 0.58818805 0.22250555 0
-0.23059781 -0.31400716 0.18488795 0.67147082 0.7070533 0.2218165 0.0020483041
-0.2283361 -0.31547511 0.18386263 0.67121917 0.70775366 0.2203397 0.0022127323
0.22767591 -0.31679797 0.1846073 -0.64429134 0.72689092 0.23773602 0.0020648083
0.23099273 -0.31460154 0.18733919 -0.69513649 0.68328196 0.22340776 0.0027223583
0.30280149 -0.31815457 0.18808688 -0.76929134 0.59893107 0.2224237 0
-0.31187832 -0.30557925 0.18642111 0.77760345 0.58810484 0.22240864 0
-0.30821711 -0.30819452 0.18053563 0.77758455 0.58810967 0.22246188 3.0984571e-05
-0.24116559 -0.30294541 0.18944505 0.76200956 0.60810393 0.22260058 0.00033896475
-0.23570552 -0.30724406 0.18162575 0.72346932 0.64960063 0.23369011 0.002092391
0.23370519 -0.30914509 0.18196246 -0.73468447 0.64188635 0.21959203 0.0014347993
0.31386757 -0.30419892 0.18878211 -0.76928383 0.59894186 0.2224208 0
-0.3211863 -0.29151121 0.18176864 0.77833778 0.58700591 0.22274297 4.6313551e-05
-0.3188431 -0.29614949 0.18583965 0.77762359 0.58805603 0.22246717 4.8514925e-05
-0.24546111 -0.29585382 0.1856672 0.77111858 0.59712762 0.22094071 0.00021846141
0.24769917 -0.29339433 0.18802477 -0.7697137 0.59934521 0.21983209 0
0.31804341 -0.29818547 0.18703237 -0.76984257 0.59808123 0.22280329 0
0.3230873 -0.29045409 0.18365917 -0.78926575 0.56662315 0.23663862 0.0011473477
-0.32748419 -0.28429711 0.18471359 0.8130849 0.54065353 0.21583952 0.0013905917
-0.25175896 -0.28701359 0.18429612 0.77808625 0.5884397 0.21981932 0
0.24884099 -0.28923765 0.18069181 -0.76977879 0.59927595 0.21979298 0
0.2546564 -0.28408149 0.18699847 -0.76976931 0.59927809 0.21982029 0
0.32765335 -0.28343278 0.18054521 -0.81477308 0.53165996 0.23126289 0.002323484
0.33228105 -0.28069562 0.18918055 -0.832991 0.50178361 0.23310776 0.0029000835
-0.33140481 -0.27980292 0.18653834 0.82730663 0.51661092 0.22062854 0.0015435929
-0.26034737 -0.27774799 0.18989325 0.77815729 0.5883286 0.21986511 2.3137636e-05
-0.25886786 -0.27699408 0.18263906 0.77810365 0.58840096 0.21986134 5.7729467e-05
0.2577818 -0.27830282 0.18218921 -0.76975834 0.59927481 0.21986747 3.057673e-06
0.26362494 -0.27212548 0.18580906 -0.76979822 0.59922028 0.21987639 2.9040184e-05
0.33328903 -0.27801055 0.1861667 -0.84272724 0.48832089 0.22661307 0.0028891289
-0.34181291 -0.26037481 0.18796009 0.8857491 0.41631758 0.2052516 0.0016970647
-0.33856127 -0.26655304 0.1849418 0.86080521 0.4575347 0.22288196 0.0020021854
-0.27098247 -0.26103264 0.18279475 0.78573632 0.57856745 0.21881084 0.00021850572
-0.26766911 -0.26454711 0.1804745 0.78158963 0.58370733 0.2200076 0.00010103462
0.26578006 -0.2685346 0.1835663 -0.76976377 0.59928167 0.2198301 0
0.3378813 -0.26472417 0.18155608 -0.87868619 0.41996905 0.22701678 0.0011617411
-0.34144616 -0.25913402 0.18442471 0.89163858 0.39850929 0.21487457 0.0011413181
-0.27182811 -0.25954497 0.18180592 0.78962392 0.57240885 0.22100239 0.00034702459
0.34346145 -0.25619012 0.18952978 -0.89589006 0.38521442 0.22133859 4.0397514e-05
-0.28471127 -0.2438293 0.18787491 0.84247142 0.48682725 0.23074035 0.0016120014
0.28567848 -0.2402577 0.18620907 -0.87571931 0.42902502 0.22147954 0.0010392872
0.34695414 -0.24564867 0.1856509 -0.89810783 0.3793675 0.22244704 2.7926913e-05
-0.28702605 -0.2391313 0.18761165 0.86780369 0.44544432 0.22021836 0.0019711091
0.28853247 -0.23485376 0.1885432 -0.88090724 0.41815001 0.22170489 0.0010453117
0.35324666 -0.23113227 0.18629649 -0.89809811 0.37941885 0.22239847 8.9847081e-06
-0.35562947 -0.22655261 0.18830247 0.90333217 0.36677605 0.22241047 0
-0.29243854 -0.22420311 0.184945 0.89835143 0.38081762 0.21895802 0.0003305701
0.29174414 -0.22464032 0.18403405 -0.89861959 0.37966004 0.21986637 2.8121867e-05
0.35562009 -0.22487031 0.18519823 -0.89808851 0.37942335 0.22242947 2.6265319e-05
-0.36111712 -0.21072176 0.18448544 0.90334481 0.36669958 0.22248511 7.3277617e-05
-0.29596105 -0.21417767 0.18269217 0.90384632 0.36702701 0.21989301 2.2377186e-05
0.29518688 -0.21722822 0.18530697 -0.89862722 0.37960115 0.21993656 2.8313209e-05
0.3593967 -0.2147662 0.18321158 -0.89807528 0.37944621 0.22244388 0
0.36175111 -0.21075283 0.18587232 -0.89902508 0.37716615 0.22248508 0
-0.29868054 -0.20996505 0.18684104 0.90385652 0.36706725 0.21978429 0
0.30031455 -0.20414838 0.18367976 -0.89862138 0.37963971 0.21989374 9.0891321e-05
0.36327645 -0.20456775 0.18148078 -0.90170985 0.37227395 0.21984403 5.8341568e-05
-0.36783436 -0.19501431 0.18586552 0.91469395 0.3370111 0.223066 0.00071628945
-0.30519524 -0.19385734 0.18673714 0.90385354 0.36700878 0.21989384 5.5994719e-06
0.30462018 -0.19358295 0.18303457 -0.89949054 0.37745962 0.22009344 0
-0.37314999 -0.18366498 0.18873939 0.93288141 0.28070357 0.22569397 0.0020141897
-0.30731869 -0.18778391 0.18532923 0.9050473 0.36424077 0.21958636 1.4544658e-05
0.30739805 -0.18612213 0.18150574 -0.91098368 0.35412288 0.211437 0.00045655249
0.37216267 -0.18384996 0.18353637 -0.9444297 0.24723405 0.2166281 0.0022602966
-0.37521571 -0.17205384 0.18724605 0.95515805 0.18734944 0.22928864 0.0018174282
-0.37591612 -0.16405641 0.18596104 0.96343267 0.14730151 0.22382976 0.00056708977
-0.31643087 -0.16318734 0.18388858 0.95015436 0.22500648 0.21582107 0.0027013191
0.3167454 -0.16437092 0.18839128 -0.95132309 0.20008528 0.23441462 0.0015894322
0.3765505 -0.16057849 0.18856287 -0.96568477 0.13405378 0.22244664 0
-0.37723601 -0.15920465 0.18907416 0.96513397 0.13523619 0.22411521 0.00019290821
-0.31732476 -0.15914062 0.185606 0.9530409 0.19201694 0.23418501 0.0017549576
0.3176586 -0.15497619 0.18667361 -0.96130002 0.16160047 0.2231313 0.00082001026
-0.37830085 -0.14313093 0.18500018 0.96747601 0.12049256 0.22242244 0
-0.31907842 -0.14736335 0.18687047 0.96640569 0.14029296 0.21535549 0.00034156317
0.37855148 -0.14382072 0.18715194 -0.96569669 0.13404088 0.2224025 1.9667013e-05
-0.3803744 -0.13261192 0.18832231 0.96746123 0.12049183 0.22248711 6.2400082e-05
-0.37981126 -0.13531365 0.18733601 0.96745706 0.12048101 0.22251095 0
-0.32021597 -0.13771605 0.18659009 0.9680624 0.12055375 0.2198225 0
0.31950885 -0.1353308 0.18282092 -0.96626878 0.13411501 0.21985836 0
0.3209855 -0.13211755 0.18735111 -0.96627903 0.13411546 0.21981324 0
0.37794101 -0.13759258 0.18074836 -0.96568316 0.13406585 0.22244631 0
-0.32139763 -0.123018 0.18373451 0.96805257 0.12055764 0.21986389 1.5256941e-05
0.32273662 -0.12302424 0.18950018 -0.96625787 0.13414288 0.21988966 6.7801171e-05
0.38048467 -0.12660898 0.18517296 -0.96568114 0.13404837 0.22246557 5.7878865e-06
-0.38156864 -0.11458569 0.18375368 0.96749955 0.12043427 0.22235176 0
0.38232365 -0.11015812 0.18324356 -0.96605861 0.13052356 0.22292216 7.911586e-05
-0.38222757 -0.10950302 0.1838669 0.96748322 0.12044603 0.22241627 5.76189e-06
-0.32532647 -0.10288072 0.18999355 0.96924967 0.11324226 0.21847494 6.0854953e-05
0.32526565 -0.10326647 0.18856218 -0.96867543 0.11403625 0.22059843 0.00032081915
-0.32550845 -0.092902273 0.18532382 0.97270471 0.07475169 0.21967624 0.0011833617
0.38457045 -0.097496696 0.18536833 -0.97201431 0.093713455 0.2154206 0.00094469462
-0.38653269 -0.082704999 0.18807857 0.97228277 0.014673352 0.23334713 0.0021288525
-0.32682005 -0.084483027 0.18648295 0.97381306 0.014595906 0.22688116 0.0026317171
0.32597676 -0.082429744 0.1819374 -0.97431195 -0.013294107 0.22480994 0.0022222921
0.38504791 -0.082570218 0.18168513 -0.97721612 -0.001703884 0.21223994 0.002149086
-0.38508302 -0.071512759 0.18541665 0.97298658 -0.073054545 0.21899791 0.0013817665
-0.32690674 -0.078785866 0.18561465 0.97422326 -0.0096654072 0.22537883 0.0027634734
0.32552803 -0.078072891 0.18235031 -0.97354817 -0.061006028 0.22018698 0.0015485057
-0.3838844 -0.066000804 0.18353422 0.96680576 -0.12188484 0.22456783 9.1072026e-05
-0.32506239 -0.06690117 0.18475848 0.97023946 -0.10653844 0.21745113 0.00069769891
0.32460093 -0.065686896 0.18505925 -0.97063142 -0.094169535 0.22137482 0.00062901829
0.38303104 -0.066332258 0.18170705 -0.96954978 -0.10178955 0.22273761 0.00030265274
-0.38235021 -0.055204093 0.18337971 0.96663314 -0.12884007 0.22140607 4.0516039e-05
0.38181162 -0.055475306 0.18228328 -0.967471 -0.1204591 0.22246228 0
-0.38103005 -0.046063382 0.18315642 0.96571064 -0.13402985 0.22234853 1.1935964e-05
-0.32232869 -0.046469152 0.1852079 0.96626663 -0.1341217 0.219864 2.0090747e-05
0.32212475 -0.044117834 0.18598202 -0.96806031 -0.12053949 0.21983935 0
0.37991083 -0.041519444 0.18157405 -0.96746141 -0.12049177 0.22248641 7.134692e-05
0.38157406 -0.046981025 0.18585058 -0.96747011 -0.12048423 0.22245277 2.2094227e-05
-0.32123825 -0.036123376 0.18672666 0.96626735 -0.13412069 0.21986146 0
0.31951198 -0.031158235 0.18158287 -0.96805435 -0.12054248 0.21986423 0
-0.37711608 -0.022584895 0.18031207 0.96569014 -0.13403642 0.22243363 0
-0.31983557 -0.022752399 0.18871875 0.96625286 -0.13413267 0.21991774 1.9294574e-05
0.31940562 -0.02642826 0.18370794 -0.96801358 -0.12077887 0.21991405 0
0.32040441 -0.029171903 0.18660152 -0.96806008 -0.12054763 0.21983601 0
0.37879196 -0.024524482 0.18591201 -0.96748418 -0.12047334 0.22239706 0
-0.37724295 -0.014268942 0.18587427 0.96568936 -0.13403735 0.22243664 0
-0.31907693 -0.017871551 0.18836179 0.96538687 -0.13771124 0.2215035 0
-0.377177 -0.0081287827 0.18928805 0.96566278 -0.1341332 0.22249444 8.5672713e-05
-0.31760532 -0.0068138596 0.18863945 0.95570028 -0.18990301 0.22488637 0.0015646841
0.31734943 -0.0054385988 0.18616231 -0.95633584 -0.18894401 0.22298408 0.0016284196
-0.37495366 0.0042714062 0.18710785 0.96164739 -0.1526915 0.22785868 0.00059966347
0.31336924 0.0074353134 0.18524502 -0.91447443 -0.33149683 0.23204808 0.0007573177
0.37431684 0.0028150463 0.18125406 -0.95719117 -0.18264619 0.22455615 0.0016342807
-0.37355557 0.016371796 0.18832976 0.9471702 -0.23320532 0.22019057 0.0022782229
-0.30881718 0.018404303 0.18329696 0.9125911 -0.34656087 0.21696325 0.00072943297
0.30973431 0.014511941 0.18211329 -0.91173613 -0.34489435 0.22312585 0.00070245523
0.31111437 0.013610484 0.18628243 -0.9113459 -0.3426789 0.22807857 0.00075022824
0.37314057 0.011084793 0.18061687 -0.94847143 -0.23191318 0.21591258 0.0019168286
-0.37329909 0.020200739 0.18958956 0.94479698 -0.24624594 0.21615183 0.0024544273
-0.36745548 0.029455366 0.18178107 0.9273113 -0.30893442 0.21131302 0.0018214647
-0.30671293 0.024336161 0.18493891 0.89993429 -0.37717977 0.21875496 1.5124102e-05
0.30443582 0.027724404 0.1823844 -0.90386778 -0.36699119 0.21986482 8.8852703e-06
0.36802149 0.027057128 0.18240154 -0.91557074 -0.33161151 0.22751728 0.00074550387
0.37064123 0.021305557 0.18355705 -0.92242134 -0.29887274 0.24456896 0.0011687486
-0.36673275 0.033944562 0.18652038 0.90682352 -0.35963309 0.21985273 0.00033301191
-0.30179662 0.036373835 0.18563052 0.89862818 -0.37964496 0.21985708 1.3068372e-05
0.30061027 0.039635085 0.18653831 -0.90389085 -0.36698332 0.21978307 0
0.36801735 0.030850422 0.18863957 -0.91302264 -0.34267431 0.22127838 0.00057844288
-0.36338687 0.040881552 0.18484354 0.90122938 -0.37347198 0.21978232 5.9160709e-05
-0.30008888 0.041151371 0.18690009 0.89860648 -0.37966728 0.21990712 3.4788573e-05
-0.29712942 0.045023754 0.18149 0.89863789 -0.37963209 0.21983968 0
0.29795793 0.043383829 0.18189108 -0.9038741 -0.36698562 0.21984807 7.2858747e-06
0.36120981 0.042711049 0.18054983 -0.90330899 -0.36680767 0.22245239 5.9960126e-05
-0.35743594 0.05217012 0.18007126 0.89810711 -0.37940776 0.22238138 0
0.29162419 0.05909165 0.18207137 -0.90265316 -0.37066209 0.21869382 0
0.35704207 0.056716729 0.18671763 -0.90333742 -0.36676967 0.2223994 7.9298816e-06
-0.35432541 0.062942274 0.18588667 0.89809227 -0.37939534 0.22246207 3.7254931e-06
-0.28858018 0.066923648 0.18436211 0.89153773 -0.39507559 0.22153056 0.00026061467
0.2888639 0.068348467 0.18617491 -0.89056087 -0.3956475 0.2244201 0.001168034
0.2914117 0.063058957 0.18782026 -0.90220559 -0.37106264 0.21985818 3.8752751e-05
-0.34767634 0.07734213 0.18360247 0.89808595 -0.37941232 0.22245905 0
-0.28501478 0.074878491 0.18352491 0.87025553 -0.44389501 0.21357103 0.0013644092
0.28724986 0.071705662 0.18514311 -0.86987871 -0.44138765 0.22019999 0.0019150599
-0.34232843 0.088510953 0.1810607 0.89797258 -0.37994951 0.22199905 0
-0.27773371 0.088069089 0.18434176 0.8170011 -0.53594238 0.21277867 0.0018403513
0.28279352 0.080155849 0.18316197 -0.83346021 -0.50747305 0.21866649 0.0018499992
0.34465054 0.084805347 0.18270861 -0.90304685 -0.3674815 0.22240469 3.7659709e-05
-0.34214854 0.092477441 0.18710028 0.89416474 -0.38865241 0.22230323 0.0002387422
-0.33954582 0.098517656 0.18689446 0.88311166 -0.410703 0.22679691 0.00075120438
-0.27275527 0.094897285 0.18552376 0.79040813 -0.56933326 0.22608542 0.0009657825
0.2687293 0.097753219 0.18048455 -0.78271919 -0.58116275 0.22271152 6.2233186e-05
0.27329934 0.094029292 0.18669209 -0.79413706 -0.56422251 0.22583024 0.00040145119
0.33899903 0.098009288 0.18152866 -0.88302416 -0.41376629 0.22150807 0.0010546652
0.34081692 0.094567314 0.18323597 -0.88871437 -0.40166664 0.22102182 0.00081996224
-0.33648017 0.10323786 0.18256785 0.86243045 -0.44384232 0.2433468 0.0020505518
-0.26487181 0.10485398 0.18506227 0.76972163 -0.59932828 0.21985027 3.7860147e-05
0.2651763 0.10281684 0.18146236 -0.77806515 -0.58845407 0.21985582 3.0029107e-05
0.33742601 0.10406683 0.18512851 -0.85222983 -0.47807059 0.21249202 0.002086421
-0.3338612 0.11253333 0.18784924 0.83766878 -0.49571034 0.22930861 0.002034381
-0.32727265 0.11957861 0.18338029 0.79817981 -0.56126857 0.21883 0.00123714
-0.25521296 0.11628336 0.18239923 0.76975453 -0.59928352 0.21985729 0
0.329281 0.1172934 0.18674414 -0.80711901 -0.54854119 0.21831533 0.0010219667
0.33009416 0.11560578 0.18512505 -0.81828785 -0.53290594 0.21544454 0.0012862203
-0.32282406 0.12567806 0.18441807 0.78552991 -0.57771963 0.22177175 0.00058253884
-0.31931725 0.12863734 0.18025774 0.77382636 -0.59198439 0.22527151 0.00016486052
0.24749427 0.12665237 0.18267737 -0.77447337 -0.59282464 0.22079371 9.046866e-05
0.32138857 0.12742913 0.18594885 -0.78334153 -0.58001363 0.22351776 0.000102688
-0.31830615 0.1326521 0.18757108 0.77007496 -0.59790242 0.22247967 6.7127144e-06
-0.24265587 0.13299866 0.18399745 0.76172554 -0.60984081 0.21878849 0.00024128034
-0.23811518 0.13966818 0.18627952 0.7444002 -0.62973827 0.22203186 0.0010777205
0.24230695 0.13349938 0.1826442 -0.75953323 -0.61063433 0.22413154 0.00059119344
-0.31169662 0.14163426 0.18889727 0.76926935 -0.59895599 0.22243288 0
-0.30399048 0.14840251 0.18046924 0.76930547 -0.59891784 0.22241065 0
-0.23491858 0.14297777 0.18410896 0.73106331 -0.64458495 0.22373325 0.0011980457
0.23351409 0.14439532 0.1806871 -0.72180372 -0.65504569 0.22341564 0.0018405896
0.31220591 0.14035602 0.18802255 -0.77760869 -0.5880937 0.22241972 3.2210966e-05
-0.29875284 0.15756829 0.1870348 0.76930821 -0.59891677 0.22240387 0
-0.2252124 0.15465611 0.18924412 0.64775455 -0.72621596 0.23027053 0.0018429563
-0.21984851 0.1561981 0.18034504 0.62498182 -0.74539727 0.23190647 0.0010994471
0.224778 0.15321329 0.18513709 -0.6488713 -0.72695404 0.22473055 0.0016711459
-0.29226372 0.16463155 0.18361047 0.76926607 -0.59895039 0.22245945 4.9600192e-05
-0.21262442 0.16434753 0.18985263 0.5959745 -0.77222675 0.22018243 0.00015627188
-0.20605677 0.16785197 0.18467739 0.58846271 -0.77805966 0.21985169 0
0.21648899 0.16043736 0.18783572 -0.60274494 -0.7667526 0.2208823 2.9775327e-05
0.29417843 0.1627496 0.18420246 -0.77762556 -0.58807582 0.22240804 2.5392788e-05
-0.19232948 0.17836618 0.1851487 0.58845788 -0.77805734 0.21987286 0
0.28561845 0.17388928 0.1837277 -0.76988453 -0.59841567 0.22175804 0.00010300298
0.17770119 0.18840376 0.18002264 -0.57343429 -0.79057992 0.21484056 0.00053440884
0.18693596 0.18145837 0.18087775 -0.59927255 -0.76977247 0.21982434 0
0.27780199 0.18462576 0.18478645 -0.7081157 -0.66860962 0.22700973 0.0026174092
-0.27033556 0.19260034 0.18399644 0.68010163 -0.69405919 0.23610084 0.0023589763
-0.17242096 0.19241804 0.18159632 0.57081282 -0.79270875 0.21397568 0.00051206211
-0.16734275 0.19702448 0.18430789 0.50360924 -0.83651555 0.21591528 0.0019757936
0.2622534 0.1979579 0.18364829 -0.61929381 -0.75169045 0.22679666 0.00062609283
0.27265882 0.19114658 0.18810886 -0.67132926 -0.70465326 0.22974084 0.0019000748
-0.25143743 0.20761816 0.186536 0.58804965 -0.7776348 0.22244509 6.923829e-06
-0.15764183 0.202905 0.18377799 0.44340166 -0.86758578 0.22514412 0.0018330216
-0.14688273 0.20797873 0.18667825 0.38240781 -0.89677995 0.2225983 0.00033536344
0.14966683 0.20656088 0.18721412 -0.38064197 -0.89843637 0.2189147 0
0.16106148 0.20043884 0.18186653 -0.47280169 -0.85494107 0.21338767 0.0017937679
0.25590542 0.2031693 0.18457954 -0.60440528 -0.76499414 0.22243716 0.00012381694
-0.13617958 0.21307954 0.18978301 0.36700654 -0.90386349 0.21985655 0
-0.12166822 0.21726659 0.18277402 0.36698937 -0.90387428 0.21984127 0
-0.1171552 0.21909143 0.18274307 0.36697704 -0.90386367 0.21990526 3.3538777e-06
0.12103625 0.21881193 0.18785062 -0.37964797 -0.89863575 0.21982113 8.2065353e-06
0.13268746 0.213497 0.18624526 -0.37963754 -0.89863825 0.21982855 2.1849341e-06
0.23799275 0.21709354 0.18450521 -0.5989269 -0.76930523 0.22238691 0
0.24171436 0.21336237 0.18162152 -0.59891683 -0.76930451 0.22241656 6.4815817e-06
-0.10234897 0.22573364 0.18533601 0.35382548 -0.90998435 0.21618514 0.00048009728
-0.0966589 0.22682697 0.18033275 0.34659234 -0.91450441 0.20869921 0.00050124008
-0.089207925 0.22987652 0.18043281 0.29500976 -0.93403596 0.20136024 0.0013564741
0.094841838 0.22829226 0.18136859 -0.47084126 -0.85397393 0.22144325 0.073859058
0.10586349 0.2243294 0.18420272 -0.53573465 -0.82719541 0.16951714 0.029811926
0.22242975 0.22983682 0.18667339 -0.59892291 -0.76928592 0.22246478 2.3871409e-05
0.2356161 0.22021432 0.18889931 -0.59892774 -0.7692908 0.22243482 2.2169879e-05
-0.21430707 0.23467854 0.18297388 0.5880568 -0.77762336 0.22246596 2.1497315e-05
-0.073941372 0.23377445 0.18048115 0.20371161 -0.95592231 0.21145698 0.0018651802
-0.053972434 0.23752874 0.18606377 0.12052879 -0.9680599 0.21984747 1.2261232e-05
-0.046263296 0.23826616 0.18508403 0.12055333 -0.96806353 0.21981768 7.0739875e-06
-0.035446741 0.23925292 0.18349847 0.12054369 -0.96806157 0.21983178 0
0.030980252 0.23999695 0.1836156 -0.13284716 -0.96639448 0.22007588 0
0.04237831 0.23858057 0.18434358 -0.1341127 -0.96627235 0.21984453 0
0.054992318 0.23588827 0.18020564 -0.13413993 -0.96627587 0.21981251 0
0.073292449 0.23520397 0.18836199 0.010307903 -0.98011923 0.19814163 0.073275194
0.087805994 0.23603234 0.18397242 -0.54663825 -0.80241704 0.23940238 0.21588059
0.21474141 0.23510726 0.18419963 -0.59721851 -0.77040118 0.22318622 4.2385251e-05
0.2218729 0.23038793 0.18707997 -0.59890568 -0.76928514 0.22251377 6.0686121e-05
-0.20131122 0.24512368 0.18513182 0.5348171 -0.81589299 0.21974839 0.0010169277
-0.19950715 0.245983 0.18336645 0.53483188 -0.81588638 0.21973698 0.00096867216
-0.003841544 0.24421778 0.18803173 0.024387535 -0.9723978 0.23205115 0.0013236646
0.0097361421 0.24240579 0.1812427 -0.052371237 -0.9698028 0.23820099 0.0013706436
0.015399611 0.24210119 0.18335903 -0.10561991 -0.96842945 0.22580697 0.00044490409
0.027433123 0.24130483 0.18719999 -0.12934931 -0.96704304 0.21930905 8.6599148e-06
0.19433454 0.24969853 0.18040551 -0.49549004 -0.84032685 0.2198647 0.0021692668
0.2025463 0.24604709 0.18919906 -0.54367793 -0.80808455 0.2267458 0.001967394
-0.19502813 0.25071001 0.18805057 0.51615381 -0.8257491 0.22742826 0.0014910811
-0.1844185 0.25530192 0.1835908 0.43647501 -0.8721928 0.22083749 0.0011272646
0.17783248 0.25783041 0.1850909 -0.3983767 -0.8903563 0.22036731 0.00057007436
0.18391295 0.25529814 0.18523823 -0.4113293 -0.88396275 0.22230189 0.00069552509
-0.16462269 0.26308054 0.18253997 0.36677846 -0.90330869 0.22250131 6.2597683e-05
-0.15545142 0.26647991 0.18122286 0.36675981 -0.90332669 0.22245955 2.9975354e-05
0.095495984 0.26394653 0.18785042 -0.96803027 0.2506662 0.0091601452 0.054380469
0.17350914 0.26057872 0.18881308 -0.37944764 -0.89808208 0.22241397 0
-0.14310846 0.27256018 0.18556371 0.36678061 -0.9033094 0.22249527 4.6871024e-05
-0.138339 0.27332407 0.18080163 0.3667798 -0.90331602 0.22246952 1.2666009e-05
0.099402942 0.27812853 0.18567467 0.051281743 -0.9956395 -0.077923879 0.24297382
0.12345532 0.27977881 0.18095674 -0.23782 -0.94766468 0.21300969 0.037886068
0.13816272 0.2756311 0.18929696 -0.37944692 -0.89807642 0.22243826 0
0.14862673 0.27076387 0.18749382 -0.37939554 -0.89810127 0.22242551 0
-0.12708139 0.28012502 0.18985902 0.36674622 -0.90334237 0.2224182 2.0453555e-05
-0.11748448 0.28280985 0.18493828 0.36041811 -0.90601301 0.22189887 0.00010451974
-0.10372232 0.28877857 0.18648589 0.28543061 -0.93375218 0.21595439 0.002415247
0.047690932 0.28751245 0.1818985 -0.17197765 -0.92538309 0.33777201 0.03628201
0.06052414 0.2853348 0.18017748 -0.092902787 -0.93111706 0.35268986 0.031848233
0.082607076 0.28264353 0.18180078 -0.37340397 -0.91353285 0.16132969 0.13108315
0.10078788 0.28315577 0.18093562 -0.17554219 -0.98391956 0.032973792 0.17216325
0.11602338 0.28389883 0.18491489 -0.061182804 -0.97829652 0.19797125 0.10828544
-0.10138069 0.29023492 0.18853928 0.27056846 -0.93772781 0.21785137 0.0027234319
-0.09223789 0.29085523 0.18157479 0.20325075 -0.95341295 0.22291887 0.0017452838
-0.059052024 0.29526603 0.18278669 0.12046359 -0.9674843 0.22240214 0
-0.047656432 0.29733616 0.18561918 0.120478 -0.96748072 0.22240981 0
-0.029978588 0.29894209 0.18302998 0.12048142 -0.96746439 0.22247903 0
0.023952529 0.29958433 0.18095061 -0.20030318 -0.92765242 0.31518185 0.026243247
0.035851866 0.29867887 0.18419011 -0.18156861 -0.92207348 0.34177962 0.026303696
0.0420321 0.29774955 0.18387964 -0.1425412 -0.94407749 0.29732099 0.028307747
0.058384597 0.29672489 0.1892852 -0.16569155 -0.92765772 0.33466023 0.025692824
0.061178371 0.29555005 0.18586817 -0.11523581 -0.93796414 0.32702315 0.026519369
0.081537627 0.29197195 0.18260223 -0.21965879 -0.93951964 0.26277912 0.054190338
0.095119491 0.29007179 0.18253702 -0.1365615 -0.99041247 0.020834209 0.14790943
-0.026658986 0.30088955 0.18970282 0.12045551 -0.96749407 0.22236368 1.8230174e-05
-0.01462449 0.30066273 0.18219817 0.09246821 -0.97069871 0.22179638 0.00049833901
-0.0068739266 0.30190372 0.18339844 0.029970013 -0.96849847 0.24720947 0.004553813
0.0036110491 0.30387533 0.18732254 -0.076801889 -0.96021402 0.26849666 0.0097025065
0.017222825 0.3016538 0.18588004 -0.16969623 -0.92298383 0.34540427 0.021038523
0.022487495 0.30014113 0.18248519 -0.17326859 -0.93535715 0.30835834 0.024655927
0.047652233 0.42855275 0.18838738 -0.38807324 -0.80112928 -0.45562163 0.058806907
0.064038098 0.42994434 0.18361628 -0.12431827 -0.84210342 -0.52479213 0.0026320722
0.074780859 0.42449886 0.1891655 -0.071206823 -0.8205936 -0.56705886 0.0074011185
0.085218042 0.42650831 0.18459374 0.19301319 -0.79645658 -0.57306457 0.052100565
0.096379615 0.42839807 0.18005839 0.59085643 -0.7062788 -0.38994727 0.086237088
0.10200453 0.42186123 0.18904327 0.60229772 -0.65058416 -0.46257728 0.078317612
0.037291382 0.43454352 0.18385582 -0.71145469 -0.6304453 -0.31043664 0.10146603
0.065015137 0.4301722 0.18313412 -0.13232365 -0.84790736 -0.51336485 0.002795595
0.10372353 0.43524739 0.18563896 0.83310157 -0.51452041 -0.20300394 0.079112075
0.035977345 0.44555104 0.18082289 -0.95375651 -0.15457329 -0.25778985 0.057613879
0.10467494 0.44265628 0.18507482 0.91549206 -0.38913232 -0.10222712 0.058769044
0.036824182 0.45214534 0.18334025 -0.98757249 -0.030856235 -0.15410519 0.04009534
0.10631063 0.45539364 0.18407516 -0.99307919 0.061847217 -0.099842593 0.032083075
0.038903482 0.46833742 0.18704154 0.90206951 -0.4078618 -0.14113609 0.039162714
0.039595008 0.47372243 0.18040302 0.85915726 -0.45121056 -0.2413664 0.050672062
0.10511259 0.47585163 0.18599848 -0.63818598 -0.70740759 -0.30379793 0.072352625
0.059397951 0.48542595 0.18429913 0.13081931 -0.92137444 -0.36599937 0.031387504
0.066692077 0.48405397 0.18550345 -0.0028245377 -0.91822404 -0.39605129 0.016018407
0.07760068 0.48277774 0.18588032 -0.12964281 -0.89890069 -0.41853353 0.0030698148
0.087216608 0.48167604 0.18539387 -0.25779751 -0.87824959 -0.4027631 0.025140507
0.090765759 0.48193172 0.18279511 -0.27897763 -0.87597662 -0.39349273 0.028570527
-0.0101065 -0.47118777 0.19955695 0.062011898 0.97322243 0.22134289 0.0014801775
0.0040998813 -0.47017688 0.19441041 -0.023973599 0.97358632 0.22705722 0.0021211028
-0.07181339 -0.46123445 0.19352916 0.13404441 0.96568137 0.22246704 0
-0.063592792 -0.46240973 0.19367787 0.13401873 0.96568143 0.22248203 0
-0.045342207 -0.46560067 0.1965335 0.13404348 0.96569377 0.22241387 0
-0.029404406 -0.4678365 0.19663632 0.13288721 0.96585321 0.22241528 4.5560344e-05
-0.012756857 -0.46862966 0.19004783 0.080619402 0.97058493 0.22685984 0.0011185581
0.0067209685 -0.46965736 0.19357021 -0.077625804 0.97218126 0.2209927 0.00093647902
0.036577869 -0.46607447 0.19415669 -0.1204582 0.96747243 0.22245672 1.9851263e-06
0.069391377 -0.46196809 0.19406752 -0.12052838 0.96746254 0.22246131 7.432625e-05
0.070738658 -0.46171093 0.19367875 -0.12085393 0.96746099 0.22229153 0
-0.11226954 -0.45258108 0.19178076 0.12828469 0.93396091 0.33355674 0.094968483
-0.10220514 -0.45494503 0.19461161 0.22975402 0.90356559 0.36163834 0.14701769
-0.094386823 -0.45916581 0.1981512 0.2688027 0.91741723 0.29341224 0.083110005
-0.087130591 -0.45922339 0.19402841 0.31135017 0.91597873 0.25306919 0.072334766
0.094938852 -0.45948541 0.19710554 -0.2264668 0.94639009 0.2303447 0.0024652577
0.1047363 -0.45517385 0.1922162 -0.2796036 0.93104815 0.23445944 0.0021346598
0.11404412 -0.45173025 0.19357881 -0.35078093 0.90850532 0.22709204 0.00020309137
-0.13324338 -0.44556612 0.19923304 0.37946814 0.8980726 0.2224174 7.1797054e-05
-0.12403776 -0.44788301 0.19288543 0.250523 0.94266605 0.22049703 0.02260573
-0.11914512 -0.44974118 0.19204238 0.1304719 0.96350169 0.23375547 0.074038453
-0.10078461 -0.44854003 0.19800243 -0.41857848 0.89557123 0.15081185 0.21196945
0.1188676 -0.44918501 0.19119555 -0.35816339 0.90616357 0.22491477 0.00012140944
0.12322359 -0.44771436 0.19240548 -0.36677596 0.90332675 0.22243245 0
0.1328284 -0.44445568 0.1950089 -0.36680403 0.90331006 0.22245391 5.1031624e-05
-0.1679433 -0.43101442 0.19966796 0.37945828 0.89807731 0.22241533 2.4493778e-05
-0.15512791 -0.43579826 0.19712353 0.37939376 0.8981002 0.22243272 0
-0.14800066 -0.43740246 0.19144332 0.37943551 0.89808887 0.22240765 0
-0.096290633 -0.43222699 0.19560054 -0.9503293 0.30582482 0.057838764 0.069851704
-0.18717746 -0.42180443 0.19528992 0.4336969 0.87297815 0.22319551 0.0013569497
-0.1781565 -0.42655116 0.19906808 0.38205296 0.89725208 0.22130133 2.2099624e-05
-0.16759567 -0.42918521 0.19168916 0.37946951 0.89807039 0.22242399 4.1965472e-05
-0.094758287 -0.42666465 0.19459043 -0.96106064 0.27633056 0.0019572382 0.00046282931
0.17654659 -0.4265976 0.1945706 -0.3976914 0.89103591 0.21885273 0.00061687769
0.18449004 -0.42354536 0.19527286 -0.44904023 0.86590594 0.22038554 0.0017292281
0.19232874 -0.42143729 0.19963695 -0.4914147 0.84348536 0.21689637 0.0023899323
-0.20455226 -0.41206473 0.19675058 0.55911291 0.79774797 0.22581181 0.00088871288
-0.19116394 -0.41888607 0.19030659 0.45190659 0.86416274 0.22136657 0.0019860577
-0.0059589585 -0.41089052 0.19251405 0.024784584 0.97476196 0.22186653 0.0018072134
0.19349797 -0.41960832 0.19624947 -0.51717585 0.82830596 0.21549559 0.0015198663
0.20026921 -0.4143267 0.19568674 -0.54145592 0.81093574 0.22183053 0.0011103944
-0.21533132 -0.40297103 0.19432338 0.59079635 0.77548778 0.22266202 5.8033234e-05
-0.20957643 -0.40774506 0.19533901 0.56930131 0.79050726 0.22581917 0.00066819316
-0.076531768 -0.40185106 0.19583723 -0.047073759 0.97837508 0.20141096 0.088878244
-0.069365665 -0.40233576 0.19359589 -0.0106112 0.98145539 0.19139734 0.033921331
-0.052280597 -0.40513015 0.19545491 0.134121 0.96627015 0.21984889 0
-0.046705864 -0.40518016 0.19227368 0.13412026 0.96627557 0.21982573 0
-0.037272505 -0.40722573 0.19550961 0.13411659 0.96627295 0.21983935 0
-0.023375664 -0.40825194 0.19154206 0.13371432 0.96628916 0.22001307 0
-0.016803874 -0.4091067 0.19128984 0.088089488 0.97143763 0.2203387 0.0011029862
0.014057285 -0.40889406 0.19046366 -0.1060615 0.97015744 0.2180495 0.00023011591
0.023927063 -0.40851951 0.19422609 -0.12054151 0.96807492 0.21977426 0
0.042968318 -0.406721 0.19674677 -0.12057872 0.96802968 0.21995312 7.2985182e-05
0.056591511 -0.40448856 0.19438641 -0.12316126 0.96770608 0.21994582 2.6113217e-05
0.078272343 -0.40190649 0.19490418 -0.2324257 0.94697738 0.22183819 0.0017227329
0.083258182 -0.40051073 0.19203779 -0.25971097 0.93968147 0.22259609 0.0017633397
0.20682111 -0.40845561 0.19248328 -0.57053304 0.78995496 0.22464019 0.00037813885
