# .PCD v0.7 - Point Cloud Data file format
VERSION 0.7
FIELDS x y z normal_x normal_y normal_z curvature
SIZE 4 4 4 4 4 4 4
TYPE F F F F F F F
COUNT 1 1 1 1 1 1 1
WIDTH 574
HEIGHT 1
VIEWPOINT 0 0 0 1 0 0 0
POINTS 574
DATA ascii
-0.47786468 0.11607327 -0.18210641 0.92505658 -0.37982908 0.000529307 2.6097523e-05
-0.40278965 0.11004467 -0.18799107 0.92388326 -0.38267449 -6.6495486e-05 0
-0.39897311 0.11925863 -0.18637502 0.92100281 -0.38955298 -0.0015391312 0.00012848547
0.18748966 0.11578804 -0.18599345 -0.92387289 -0.38269937 1.2321178e-05 2.2801971e-05
-0.47459704 0.12396205 -0.18220259 0.92385286 -0.38274798 -5.5538309e-05 0
-0.39787549 0.12190847 -0.18543771 0.92098486 -0.389595 -0.0015783338 0.00010109513
0.10694505 0.12296413 -0.18398277 -0.91691512 -0.3990685 0.0033153126 0.00032995359
0.18563968 0.12025429 -0.18049814 -0.92386913 -0.38270849 -8.3137041e-07 0
-0.47124627 0.13205159 -0.18701267 0.92387915 -0.38268438 2.8061944e-05 0
-0.3926895 0.13442856 -0.18465258 0.89626282 -0.44351783 -0.0022092911 0.0024999818
0.1790967 0.13605046 -0.18948846 -0.92388201 -0.38267735 -1.1999121e-05 5.0076583e-06
0.18070321 0.13217197 -0.18908109 -0.92386895 -0.38270894 -7.7060295e-06 0
-0.46577245 0.14526647 -0.18653159 0.92385256 -0.38274854 -9.2155147e-05 0.00015670301
-0.39017352 0.14050259 -0.18482013 0.86865515 -0.49541631 -0.00097422639 0.0027317242
-0.38629225 0.14589727 -0.18553394 0.8507719 -0.52553427 -0.00084614923 0.0025467146
0.094859503 0.14712177 -0.18691653 -0.85673118 -0.5156669 0.009965417 0.0018638258
0.17650193 0.14231479 -0.18256117 -0.92387813 -0.38268664 7.1684149e-06 0
-0.37647006 0.15869778 -0.18212502 0.80355096 -0.59523576 -0.00043740167 0.00033151038
0.090353251 0.15299442 -0.18373634 -0.7967115 -0.604357 -0.001818797 3.3682212e-05
-0.45880404 0.16208974 -0.18809155 0.91664863 -0.39969367 0.00050917169 0.00058293116
-0.37093323 0.16591354 -0.18431568 0.79337668 -0.60873103 -5.6592139e-06 0
0.16753137 0.16397162 -0.18244556 -0.9136017 -0.40660101 -0.0027390469 0.00067486375
-0.45398244 0.17349543 -0.18530931 0.88750231 -0.46060959 0.013361496 0.0023754872
-0.36374462 0.1752819 -0.18380074 0.79337722 -0.60873038 -2.6480269e-05 0
0.16066498 0.17908891 -0.18743053 -0.86043227 -0.5094887 0.008815052 0.0027419741
-0.44626459 0.18546629 -0.18413067 0.83054882 -0.55674064 0.015114686 0.0011398647
0.066617675 0.18392718 -0.18670553 -0.7812041 -0.62426919 -0.0028738924 0.00054635899
0.15642682 0.1846122 -0.18866891 -0.84491187 -0.53452098 -0.020280199 0.0018190375
-0.44180301 0.19128078 -0.18372767 0.80600268 -0.59191185 0.00021436776 0.00051494176
-0.35084808 0.19208892 -0.18428563 0.74228394 -0.66995448 -0.013246906 0.0013039631
-0.34810251 0.1956671 -0.18234359 0.72999531 -0.68328851 -0.014953811 0.0017711181
0.060883172 0.19140051 -0.18952143 -0.76417106 -0.64496523 -0.0078986567 0.00089139474
0.14832078 0.19517624 -0.18450722 -0.79377472 -0.60821182 0.00031574094 4.6474902e-06
0.15029334 0.19260556 -0.1816636 -0.79387045 -0.60808694 0.00018797549 0
-0.43229333 0.203674 -0.18462807 0.79333889 -0.60878032 5.2753454e-05 0
-0.42831102 0.20886387 -0.18987608 0.7933138 -0.60881299 6.9453614e-05 2.5199924e-05
-0.33638281 0.20633255 -0.18685901 0.66082519 -0.75053036 -0.0037771203 0.0012200701
0.046619941 0.20577218 -0.18469267 -0.66179967 -0.74967128 -0.0037647204 0.0017833182
-0.33062336 0.21075194 -0.18295114 0.6315977 -0.77529567 -0.00095454475 0.00053469109
-0.32608861 0.21423157 -0.18366279 0.61888212 -0.78548366 0.00048170661 0.00017075193
0.029137895 0.21918663 -0.1837137 -0.60876548 -0.79335022 5.4530856e-06 4.2105985e-06
0.13166663 0.21688041 -0.18577126 -0.79336494 -0.60874617 -1.3984934e-05 1.8377221e-05
-0.41440386 0.22698805 -0.18194357 0.79326898 -0.60887134 -0.00010353218 0.00014570364
-0.31524071 0.22255544 -0.18138067 0.60894489 -0.79321259 1.4632497e-05 0
0.023453489 0.22354844 -0.18309078 -0.60876244 -0.79335254 -6.633763e-06 0
-0.41090339 0.23154989 -0.18579295 0.79071367 -0.61218619 -0.00017957146 3.3064702e-05
-0.40860921 0.23453978 -0.18942969 0.78756201 -0.61623502 0.000793782 0.00023863016
-0.30487499 0.23050931 -0.18041542 0.60863155 -0.79345298 9.3490653e-06 4.1979856e-06
-0.29631373 0.23707859 -0.18113987 0.57474685 -0.81832832 -0.0022034717 0.0014212287
0.0061315135 0.23684008 -0.18545486 -0.58033818 -0.81437564 -6.3296087e-05 0.00073246239
0.010548718 0.23345065 -0.18008788 -0.59211802 -0.80584359 -0.0035181625 0.00051280222
0.11710849 0.23585299 -0.1821702 -0.77868789 -0.62740302 -0.0032482801 0.0005508808
0.1209177 0.23088871 -0.1866004 -0.79329145 -0.60884202 6.3120688e-06 0
-0.39773071 0.24871697 -0.18046382 0.72052014 -0.69343221 -0.0015884312 0.0023299106
-0.28761393 0.24370927 -0.18452387 0.51337212 -0.85809773 0.01083547 0.0024167416
-0.0067644874 0.24576388 -0.18276787 -0.46934265 -0.88289821 -0.014431619 0.0019483701
-0.39412862 0.25235742 -0.18381426 0.71042407 -0.70377284 0.0012096268 0.002665238
-0.38728142 0.25761145 -0.1889001 0.63728696 -0.77058393 0.0081004621 0.00087233982
-0.27069628 0.25116202 -0.18880518 0.41334724 -0.91056722 0.0033741682 0.00055203139
-0.2670272 0.25268179 -0.18897364 0.39745051 -0.91762358 0.00028976344 0.00014221868
-0.040728327 0.25983214 -0.18379554 -0.38268363 -0.9238795 -3.4583714e-05 1.272983e-06
-0.033807572 0.25696549 -0.18733284 -0.38271135 -0.92386794 -1.5391084e-05 2.8450262e-05
0.098297425 0.25645354 -0.18456209 -0.68468249 -0.72881109 -0.0066693672 0.0014837815
-0.38093361 0.26248237 -0.18326716 0.62252343 -0.78259951 0.0016436791 0.00039100245
-0.37714091 0.26539257 -0.18371253 0.61163878 -0.79113698 -0.00052700669 2.1348502e-05
-0.23118304 0.26752901 -0.18403891 0.35496411 -0.93485773 0.0064468086 0.00062468462
-0.060650352 0.26808414 -0.18028653 -0.35231754 -0.93587285 0.0037925006 0.00058168656
-0.055163193 0.26581129 -0.18610449 -0.35692453 -0.93413323 -5.4130109e-05 0.00053717976
-0.048215441 0.26293343 -0.18627322 -0.37550661 -0.92681545 0.0027902138 9.2375471e-05
0.086254194 0.26569462 -0.18186498 -0.60877323 -0.79334426 3.4168752e-05 0
-0.36678851 0.27333629 -0.18410595 0.60881341 -0.7933135 7.530552e-06 0
-0.359092 0.27924204 -0.18501991 0.60883892 -0.79329377 4.750395e-06 8.6692125e-06
-0.22269674 0.27104414 -0.18866715 0.30859417 -0.95116115 0.0078743203 0.0015356169
-0.21430704 0.27337557 -0.18107697 0.20548531 -0.97864813 -0.0048660845 0.0016061678
-0.19943173 0.27533394 -0.18608788 0.14968772 -0.98873317 0.00062548363 0.00034599184
-0.18999712 0.27657607 -0.18169345 0.13052763 -0.99144465 -1.775324e-05 0
-0.16654053 0.27966416 -0.18458708 0.12849434 -0.99170917 0.0014323202 9.2539276e-06
-0.12590389 0.27992105 -0.18658952 -0.11260904 -0.99363828 -0.0014912537 0.00023709273
-0.11585462 0.27859804 -0.18716519 -0.13050213 -0.9914481 1.9009118e-05 0
-0.10662576 0.27738306 -0.18713534 -0.13052744 -0.99144471 -7.6260731e-06 0
-0.095505714 0.27591905 -0.18728903 -0.13279939 -0.99114299 -3.3414024e-05 0
-0.082913533 0.27426127 -0.18148682 -0.20900874 -0.9779073 -0.0035616085 0.00202753
-0.079161733 0.27376732 -0.18499969 -0.21412602 -0.97675073 -0.010396732 0.001819678
0.06775406 0.27989024 -0.18895435 -0.60876149 -0.79335326 -2.0869258e-05 8.6272321e-06
-0.34773576 0.28795594 -0.1809051 0.60879493 -0.79332769 3.1741365e-05 0
-0.15203394 0.28157401 -0.18769413 0.0066279094 -0.99997133 -0.003644468 0.0016224204
0.054739747 0.28987646 -0.18986049 -0.60806215 -0.7938894 0.00029025003 2.3344506e-05
-0.34281304 0.29173326 -0.18682374 0.60807133 -0.79388231 0.00027345499 0
-0.33603382 0.2969352 -0.18560408 0.58128661 -0.81368577 0.0046069557 0.00069718744
0.052081477 0.29191619 -0.18386343 -0.60437065 -0.79670137 0.0017379517 6.5455504e-05
-0.33091909 0.30085981 -0.1835891 0.55008894 -0.83506948 -0.0078192754 0.0012239371
-0.32660219 0.30417228 -0.18453357 0.5394516 -0.84201223 -0.0027131937 0.0017955382
-0.31643534 0.30978858 -0.1835078 0.4761363 -0.87908125 -0.022591069 0.0011726861
0.028836302 0.30858976 -0.18463315 -0.47161174 -0.88178986 -0.0054003573 0.0025393832
0.035504058 0.3045468 -0.18640475 -0.52960116 -0.84813285 -0.013902666 0.0027587183
-0.3143782 0.31064069 -0.18119466 0.47283247 -0.88106942 -0.012087407 0.0013666676
-0.30496076 0.31454152 -0.18148962 0.41657093 -0.90909487 0.0039011596 0.0007470827
0.0037761573 0.31896999 -0.18675387 -0.38269761 -0.92387366 6.5318192e-05 0
0.018954102 0.31268311 -0.18560395 -0.41529882 -0.90958053 -0.013786007 0.0010547114
0.021979913 0.31142977 -0.18517558 -0.42962113 -0.9029724 -0.008157026 0.0013992782
-0.27319416 0.32769966 -0.18862216 0.38263154 -0.92390108 3.1274478e-05 1.6385729e-05
-0.0072501511 0.32353726 -0.1850493 -0.38267809 -0.92388177 -3.91592e-05 0
-0.26326883 0.33181083 -0.18442282 0.38271603 -0.92386603 -2.1483434e-05 0
-0.25461572 0.33539507 -0.18447891 0.36299291 -0.93178481 -0.0036374433 0.0004911322
-0.24427974 0.33967638 -0.18362018 0.31119069 -0.9502669 -0.0123801 0.0020669347
-0.046269145 0.33969951 -0.18434632 -0.30906868 -0.95100927 0.0076164147 0.002242455
-0.032292701 0.33391029 -0.18930863 -0.37801313 -0.9258002 0.00021358029 8.5100386e-05
-0.24215974 0.34055448 -0.18401255 0.28819665 -0.95750153 -0.011558132 0.0022528176
-0.23734888 0.34254724 -0.18556677 0.27691939 -0.96073163 -0.017617334 0.0022652848
-0.21513024 0.34555298 -0.18434271 0.14875682 -0.9888736 -0.00062432588 0.00037520827
-0.19483376 0.34822515 -0.18484713 0.13052845 -0.99144465 -3.4977809e-05 1.7422883e-05
-0.18374836 0.34968454 -0.18530729 0.13057527 -0.99143839 -1.6190314e-05 1.7703169e-05
-0.091599241 0.34769064 -0.18680429 -0.13050877 -0.99144709 -2.7078062e-05 0
-0.084841155 0.34680083 -0.18418378 -0.13244338 -0.99119055 0.0002355852 2.9508272e-05
-0.073801152 0.3453474 -0.18732955 -0.15040746 -0.98862338 -0.0011615698 0.00034762701
-0.065550774 0.34426123 -0.18593895 -0.17827928 -0.98397428 0.0033204991 0.0011908388
-0.055396095 0.34258729 -0.18302888 -0.24657561 -0.9690488 0.012039165 0.0024709499
-0.16657993 0.35194474 -0.18593949 0.12871043 -0.99168217 0.00036989429 1.1414023e-05
-0.15900661 0.35294178 -0.18669482 0.078234576 -0.99691868 -0.0057072379 0.00071492727
-0.13270392 0.35310215 -0.18404071 -0.080273293 -0.99677277 -0.00024973945 0.001342516
-0.12137989 0.35161126 -0.18866809 -0.12696275 -0.99190748 -0.00026667773 0.00011349332
-0.11455389 0.35071263 -0.18422616 -0.13051662 -0.99144614 3.4821966e-05 7.300072e-06
-0.10969458 0.35007289 -0.1837213 -0.13053915 -0.99144316 4.1957901e-05 0
-0.18049875 -0.35011232 -0.17379257 0.13048154 0.99145073 1.1536742e-05 0
-0.17148724 -0.35129875 -0.17859338 0.13054468 0.9914425 -3.1257565e-05 7.1230177e-05
-0.14870131 -0.35429856 -0.17546028 0.039418012 0.99914861 0.012176338 0.0019119337
-0.12559474 -0.35216618 -0.17181937 -0.11083917 0.99383664 -0.0018625127 0.00037823131
-0.22791736 -0.34386957 -0.17914224 0.21797916 0.97591257 0.0089331549 0.0016990302
-0.21264242 -0.34588051 -0.17422068 0.13156843 0.99130702 0.00046408465 9.0422482e-08
-0.19301657 -0.34846434 -0.17074682 0.13048819 0.99144983 -9.071744e-05 1.4503013e-05
-0.18209288 -0.34990248 -0.17194432 0.13050368 0.99144787 -5.5469991e-05 0.0001078882
-0.094797373 -0.3481116 -0.17846188 -0.13054554 0.99144238 4.5123536e-05 4.4320195e-06
-0.080904156 -0.34628251 -0.17937377 -0.13352226 0.99104583 0.00031748664 1.027878e-05
-0.069076821 -0.34472543 -0.17133376 -0.13508596 0.99083388 -0.0002863241 5.5941877e-05
-0.054459091 -0.342592 -0.17633529 -0.25127342 0.96782142 -0.013538833 0.0023842489
-0.2654174 -0.33092088 -0.17881326 0.38266358 0.92388773 -8.75736e-05 2.7550352e-05
-0.25470939 -0.33535632 -0.17612922 0.36262259 0.93190873 0.0071436809 0.00040451728
-0.035937443 -0.33541992 -0.17459542 -0.37561849 0.92677414 0.00062316289 2.2436268e-06
-0.28486222 -0.32286659 -0.1768415 0.38271737 0.92386544 -6.0314011e-05 0
-0.27801791 -0.32570159 -0.17742017 0.38265356 0.9238919 1.6442252e-06 7.485944e-06
-0.021601565 -0.32948181 -0.17871064 -0.38270611 0.92387009 7.738686e-05 0
-0.01653092 -0.32738149 -0.17193133 -0.38268384 0.92387933 1.2543491e-05 0
-0.0039117732 -0.32215443 -0.17075035 -0.38268304 0.92387968 -1.4364437e-05 0
-0.30457082 -0.31470299 -0.17466676 0.39275938 0.91963702 0.0027855732 0.0001941698
0.0090441937 -0.3167879 -0.17431906 -0.38445091 0.92314535 0.00020971757 0
0.016886076 -0.31353968 -0.17367214 -0.3958959 0.91829205 -0.0024757653 0.00026606128
0.022847828 -0.31107023 -0.17916627 -0.46396467 0.88585079 -0.0023031691 0.0016722487
-0.32290867 -0.30685386 -0.17361741 0.50793618 0.86138868 0.0032202692 0.0021131772
0.032970026 -0.30640155 -0.17769364 -0.50423074 0.86356896 -0.00013586742 0.0020373503
-0.33551365 -0.29733422 -0.1789642 0.58351123 0.81205183 -0.0092954813 0.00085858011
0.046880517 -0.29590696 -0.1765801 -0.59245598 0.80560154 -0.0014261772 0.00045642306
0.052806124 -0.29136014 -0.17154384 -0.60809743 0.79386228 0.00019699188 0
-0.35282579 -0.28405017 -0.17765492 0.60890174 0.79324567 4.8840593e-05 0
-0.34675816 -0.28870609 -0.17716104 0.60891211 0.79323763 3.5280133e-05 0
-0.1528354 -0.28146842 -0.17685378 0.053688142 0.99841809 0.016702767 0.001527146
-0.13042066 -0.28051567 -0.17885973 -0.092348985 0.99572462 -0.0020347296 0.00061118032
0.059063494 -0.28655866 -0.17943226 -0.60878807 0.79333287 -2.0226482e-05 2.5986728e-05
0.067091063 -0.28039891 -0.17332321 -0.60876846 0.7933479 -2.6082609e-05 0
-0.36768612 -0.27264753 -0.17458503 0.6088174 0.7933104 -3.1922915e-05 2.3023294e-06
-0.2154538 -0.27322459 -0.17323893 0.23280187 0.97252285 -0.0016267899 0.0017758524
-0.20681638 -0.27436173 -0.17777665 0.19876692 0.98002666 0.0062777316 0.0014113912
-0.18917644 -0.27668405 -0.17308143 0.13051148 0.99144679 9.4555016e-06 0
-0.17601542 -0.27841672 -0.17258072 0.13047101 0.99145216 1.9696254e-06 9.0075728e-06
-0.16720043 -0.27957726 -0.17546807 0.12780423 0.99179935 -0.0005881883 6.7504014e-05
-0.11789777 -0.27886698 -0.17267513 -0.13016202 0.99149275 6.8922178e-05 0
-0.10869528 -0.27765542 -0.17543885 -0.13052461 0.99144506 4.7480684e-05 0
-0.084591739 -0.27448216 -0.17526478 -0.1705163 0.98535484 -0.00030469662 0.00089322636
-0.075139262 -0.27323771 -0.17638393 -0.23438041 0.97213489 0.0044267289 0.0019188448
0.068595424 -0.2792446 -0.1781422 -0.60877031 0.79334652 -1.2879931e-05 3.9742094e-06
0.076602533 -0.27310053 -0.17752486 -0.60877907 0.79333979 -2.4575356e-05 2.5451358e-05
-0.38184196 -0.2617853 -0.17645752 0.62644416 0.77946597 -0.00056757592 0.0003850628
-0.37793446 -0.26478365 -0.17704004 0.61574024 0.78794807 -0.0013026026 7.9523837e-05
-0.23423254 -0.26626581 -0.17690286 0.35643077 0.93427831 0.0090054944 0.00078293995
-0.2268054 -0.26934224 -0.17937315 0.30443496 0.95249355 0.008686197 0.001289185
-0.063323528 -0.26919138 -0.1758187 -0.32036659 0.94723636 -0.010415008 0.001502556
-0.044914488 -0.26156613 -0.17205836 -0.38216579 0.92409372 -0.00018411438 8.4429939e-06
0.089542031 -0.2631717 -0.17746036 -0.6158694 0.78784627 -0.0017826156 0.0002429875
-0.39520168 -0.25153399 -0.1752505 0.68688262 0.72670364 -0.0096990559 0.0018279537
-0.26441997 -0.25376177 -0.17369154 0.39604169 0.91823244 9.1463568e-05 9.5640404e-05
-0.25695148 -0.25685531 -0.17918716 0.38269508 0.92387474 -1.7964858e-05 6.4717206e-06
-0.030457443 -0.2555778 -0.17420229 -0.38311404 0.92370105 -0.0001297416 1.2283168e-05
0.098604463 -0.25621784 -0.17526823 -0.67225087 0.74028885 0.0071574156 0.0019645751
-0.29101434 -0.24114494 -0.17311028 0.53189123 0.84677893 0.0075548878 0.0021239391
-0.28523001 -0.24488874 -0.17475291 0.50047237 0.8657515 -0.0013438408 0.0026802595
-0.27637812 -0.2488085 -0.17793302 0.42940104 0.9029783 -0.015650144 0.0010369569
-0.0061194194 -0.24549666 -0.1775486 -0.48012322 0.87716419 -0.0080469605 0.00187028
0.10930914 -0.24601725 -0.17423913 -0.72318792 0.69061577 0.007005428 0.0020444363
0.11331128 -0.24080156 -0.17698845 -0.75993574 0.64996552 0.0065187784 0.001336237
-0.29364425 -0.23912695 -0.17661169 0.55288744 0.83324593 0.0040784227 0.0016394487
0.0061001014 -0.23686419 -0.17535262 -0.56724936 0.82350039 -0.0086811027 0.0010881368
0.010995078 -0.23310815 -0.17474198 -0.60290956 0.79780912 -0.00086130848 3.4507331e-05
0.11778712 -0.23496851 -0.17763111 -0.78371608 0.62111908 0.00028888375 0.00045731853
-0.41613045 -0.22473785 -0.17648289 0.79335189 0.6087634 -6.276372e-05 5.9272148e-05
-0.31588179 -0.22206353 -0.17363979 0.60894382 0.79321337 2.8021035e-05 0
-0.30699399 -0.22888333 -0.17939319 0.60568738 0.79570258 0.00047287342 6.135954e-05
0.023457848 -0.2235451 -0.17413846 -0.60877925 0.79333967 -4.0439634e-05 1.7411099e-05
0.12650162 -0.22361153 -0.17504638 -0.79333919 0.60877985 -1.5481692e-05 0
-0.42082632 -0.21861811 -0.17534077 0.79332668 0.60879606 -0.00010149903 7.6873577e-05
-0.32382041 -0.21597201 -0.17500305 0.61051011 0.79200852 -6.5177417e-05 3.3809592e-05
-0.31878218 -0.21983796 -0.17007242 0.60878116 0.7933383 -1.3770871e-05 1.7166223e-05
0.037139203 -0.21304703 -0.1751073 -0.60972565 0.79261243 -0.00029423353 2.124752e-06
0.13249017 -0.21580708 -0.17585431 -0.79334903 0.60876709 -3.1335589e-05 9.4501465e-06
-0.43242043 -0.20350838 -0.17801893 0.79333365 0.60878712 -8.6240325e-06 1.5071922e-05
-0.33432719 -0.20790988 -0.17517994 0.64517689 0.76402819 0.0027921984 0.001075073
0.043991461 -0.20778908 -0.17521913 -0.62530816 0.78033829 0.0078674639 0.00052015408
0.053479556 -0.20050861 -0.17045064 -0.72122175 0.69243234 0.019407788 0.0017732771
-0.35218781 -0.19034301 -0.17664194 0.75315732 0.65779227 0.0079687685 0.0014855101
-0.34589854 -0.19853935 -0.17488253 0.69381481 0.72011542 0.007405052 0.001539768
0.14740257 -0.19637284 -0.17447472 -0.79609644 0.60516965 0.00043186027 1.5741303e-05
-0.45005837 -0.18052213 -0.17112623 0.85266101 0.52222931 0.015676456 0.0024064214
-0.44731107 -0.18410251 -0.17515051 0.83774495 0.54597366 0.0098064644 0.0015792882
0.065340266 -0.18559192 -0.17617863 -0.77290779 0.63451809 -0.00059643597 0.00066665281
0.15857717 -0.1818098 -0.17014846 -0.83971775 0.54301316 -0.0032864246 0.0021705709
-0.36416447 -0.17473474 -0.17536047 0.79332125 0.60880327 4.9825452e-05 0
0.070934013 -0.17830202 -0.17783493 -0.79213011 0.61035186 -0.0007192663 8.3062605e-06
0.1621722 -0.17685382 -0.17295796 -0.87498724 0.48413163 -0.0037379642 0.0020589384
-0.45873103 -0.16226605 -0.17540634 0.91484207 0.40380749 -0.0018929654 0.00046368933
0.079288423 -0.16741432 -0.17721541 -0.79333931 0.60877979 -5.1123989e-06 0
0.16768335 -0.16360472 -0.17572291 -0.91399848 0.40569565 -0.0042302362 0.00054044876
-0.46192789 -0.15454809 -0.17718937 0.92126548 0.38893101 -0.0015904488 4.0046922e-05
-0.38270426 -0.15057321 -0.17781332 0.8155179 0.57871044 -0.0049851285 0.00098504149
-0.37713799 -0.15782736 -0.17398481 0.80281973 0.59622186 0.00014945297 0.00041229319
0.087111652 -0.15721892 -0.1746918 -0.80458087 0.59382093 0.0051233671 0.0002649652
-0.3900798 -0.14072891 -0.17420359 0.8600015 0.51028824 -0.0018209297 0.0028361273
-0.38365903 -0.14932887 -0.17504333 0.8183049 0.57476997 -0.0040725097 0.00098950497
0.097643226 -0.14322445 -0.17654587 -0.86342394 0.50446934 -0.0031486533 0.0023947211
0.17587364 -0.14383161 -0.17697878 -0.92387605 0.3826918 3.3116578e-06 6.6581956e-06
-0.47162881 -0.13112798 -0.17291141 0.92385238 0.38274896 -5.1764891e-05 9.4866809e-05
-0.39140338 -0.13753347 -0.17464525 0.88131166 0.47253388 0.0011730962 0.0026496735
0.10090864 -0.13753726 -0.17184973 -0.8897242 0.45625097 -0.015029582 0.0021058922
-0.47375497 -0.12599498 -0.17944568 0.92389399 0.38264859 5.8334135e-06 6.9476118e-05
-0.39485222 -0.1292073 -0.17070277 0.9022736 0.43109626 -0.0076404586 0.0017621439
0.1854976 -0.12059732 -0.1751571 -0.92387146 0.38270292 5.2178209e-05 0
-0.47842368 -0.11472376 -0.17458861 0.92493063 0.38013595 3.8234837e-05 3.2110016e-05
-0.40209645 -0.11171813 -0.17364742 0.92387938 0.38268378 6.1247163e-05 1.4566209e-05
-0.39949024 -0.11801006 -0.1781981 0.9238714 0.38270298 5.8580445e-05 6.5782651e-06
0.10883599 -0.11839898 -0.17457464 -0.92207551 0.38700995 9.8691278e-05 5.8025511e-05
0.11126535 -0.11253399 -0.17602172 -0.92387247 0.3827005 -1.149873e-07 0
0.18871291 -0.11283482 -0.17469515 -0.92649174 0.37630275 0.003054929 9.7105265e-05
-0.40319926 -0.10905581 -0.17194876 0.92386788 0.38271159 4.7469137e-05 3.9858125e-05
0.11443268 -0.1048874 -0.17735267 -0.92387927 0.38268408 1.6559693e-06 0
0.19336404 -0.101606 -0.17531054 -0.94042152 0.3400107 -0.0003573107 0.00089004036
-0.48760611 -0.092040941 -0.1749655 0.96457875 0.26355278 0.011301703 0.0024648053
-0.40771642 -0.098150358 -0.17413294 0.92487228 0.38027778 -0.00020676656 0
0.11759267 -0.097258508 -0.17413326 -0.92387855 0.38268587 -2.2068534e-05 1.0669518e-05
0.12007958 -0.091254592 -0.17148572 -0.92777634 0.37313646 -0.00035364987 0.00031999088
0.19526708 -0.09701167 -0.17709777 -0.95743364 0.28862005 0.0043861568 0.0021243908
-0.48886618 -0.084569074 -0.17110617 0.98035681 0.19712062 -0.0066276616 0.0021229784
-0.41225901 -0.087183602 -0.17609623 0.93921578 0.3433032 -0.0040786345 0.00086010119
0.1218695 -0.08693333 -0.17805998 -0.938245 0.34596631 -0.0019286067 0.001116846
0.19844294 -0.084038027 -0.17653456 -0.98222518 0.18737707 -0.01111686 0.0014632771
-0.41747031 -0.073883519 -0.17322409 0.96432859 0.26380584 0.021837102 0.0020012518
0.126642 -0.075411513 -0.17030519 -0.96241802 0.27079326 -0.020554226 0.0017324511
0.20002371 -0.072030753 -0.17501758 -0.98987943 0.14189018 -0.0024380966 0.00014676868
-0.41867393 -0.068667367 -0.17658265 0.97034603 0.2416285 0.0066493717 0.0016576392
0.20130052 -0.062332477 -0.17868096 -0.99144608 0.13051727 6.0491825e-06 2.3431356e-05
-0.49285719 -0.054254752 -0.17450653 0.99144298 0.13054027 -8.6672757e-05 0.00015676358
-0.42027932 -0.056473371 -0.17324567 0.99102211 0.1336973 -0.00041430836 3.5719724e-05
0.12948194 -0.058783866 -0.17896187 -0.98373783 0.17949258 0.0065062954 0.00087080192
0.20259015 -0.052536689 -0.17700306 -0.99144453 0.13052858 9.1690208e-06 0
-0.42138237 -0.048094872 -0.17574431 0.99109554 0.13315119 -0.00055229873 0.00016207792
0.20332301 -0.046970118 -0.17787947 -0.99144423 0.13053088 6.6307925e-06 0
-0.49542204 -0.034772798 -0.17211112 0.99144161 0.1305507 -2.6053091e-05 0.00011991514
-0.42306027 -0.035349753 -0.17550986 0.99144185 0.13054912 -1.7956565e-05 7.3627867e-05
0.13199376 -0.039704688 -0.17725021 -0.99144524 0.13052295 -1.1815014e-05 8.7594999e-06
0.20494911 -0.034618873 -0.17227098 -0.99144363 0.13053544 2.304024e-05 0
0.31339279 -0.031797323 -0.17518418 -0.50696009 -0.76896471 0.38946727 0.054161813
0.32785916 -0.035268001 -0.17038015 -0.31755432 -0.89975387 0.29933614 0.057662245
0.33220452 -0.035942122 -0.17006065 -0.24067158 -0.93631375 0.25572237 0.039087784
0.34816945 -0.036213811 -0.17080349 -0.11806811 0.98726028 0.1066635 0.013342711
0.35337991 -0.033965982 -0.1761473 -0.20743863 0.94073242 0.26831269 0.026988419
-0.49698216 -0.022922751 -0.17843953 0.99198371 0.1263659 0.00018776693 0.00015056595
-0.42395002 -0.02859143 -0.17901027 0.99144107 0.13055484 -3.1476149e-05 0.00015573869
0.13365524 -0.027084436 -0.17401192 -0.9915446 0.12976585 6.7327164e-05 0
0.20619892 -0.025125729 -0.17835927 -0.99144447 0.13052934 2.5544554e-05 0
-0.42578763 -0.014633346 -0.1746648 0.99581033 0.091223285 -0.006327746 0.0006235707
0.29655665 -0.017963739 -0.17878734 -0.58594823 -0.17552784 0.7911098 0.027015697
0.30310208 -0.014774724 -0.1737389 -0.62967116 -0.19988163 0.75070733 0.030929245
0.38125443 -0.017208017 -0.17115298 -0.71262866 0.4034138 0.57394922 0.023995906
-0.49922729 -0.0058693676 -0.17491168 0.99851751 0.053795185 -0.0082999934 0.0019917341
-0.42662194 -0.0082958983 -0.17093217 0.99766755 0.068044998 -0.0054213195 0.0011415345
0.304838 -0.0062845089 -0.1724 -0.63593358 -0.056180615 0.76969624 0.005633634
0.38049957 -0.0016103145 -0.17214942 -0.75263393 -0.078427933 0.65375161 0.0082083233
-0.4987767 0.0092917439 -0.17615564 0.99541193 -0.095528558 -0.0054218289 0.00087060092
-0.42655215 0.0088262362 -0.17227919 0.99815589 -0.060074955 0.008706321 0.0018123721
0.13713971 0.00061713735 -0.17881824 -0.99977309 0.014171001 -0.015903704 0.0020621712
0.20842513 0.0082161427 -0.17445067 -0.99293113 -0.11868492 -0.0012503642 0.00014441207
0.29675221 0.0063099517 -0.17863652 -0.62107515 0.034392305 0.782996 0.0040919571
-0.49845701 0.01172014 -0.17630275 0.99537903 -0.09591765 -0.0045166332 0.00076434488
-0.42568302 0.015427953 -0.17431316 0.9941957 -0.10758442 0.00081130356 0.00045772147
0.1354312 0.013594505 -0.17206927 -0.99546397 -0.095137529 0.00061982468 0.0006880195
0.20689233 0.019858755 -0.17334521 -0.99144381 -0.13053395 1.4835407e-05 2.5414183e-05
0.29923886 0.011220809 -0.17671859 -0.58695197 0.17134826 0.791282 0.026851825
0.37932312 0.013701949 -0.17353466 -0.74087334 -0.31489572 0.59325153 0.025114454
-0.49664593 0.025476735 -0.17884469 0.99192953 -0.12678961 0.00036508008 0.00014283118
-0.42476925 0.022368679 -0.17275766 0.9919396 -0.12670878 -0.00086610758 0.00018443828
0.2059007 0.027390916 -0.17862082 -0.99144524 -0.13052319 -1.1525894e-05 4.6026375e-06
0.29534417 0.025853738 -0.17972252 -0.58239329 0.56089818 0.5883972 0.05514095
0.30398387 0.026856851 -0.17417064 -0.57331389 0.5674175 0.59105706 0.03094223
0.31400684 0.029999916 -0.17048126 -0.43341699 0.75137341 0.49758175 0.033465929
0.36543864 0.026982209 -0.17874096 -0.43444961 -0.71506184 0.5476678 0.02981461
0.37360305 0.025004588 -0.17256692 -0.61325592 -0.57525814 0.54129046 0.031682998
-0.49518403 0.036580548 -0.17316793 0.99144304 -0.13054004 -3.9431852e-05 3.116715e-05
-0.42349863 0.032020073 -0.17827627 0.99144536 -0.13052242 2.5579418e-05 0
0.13235211 0.036982749 -0.17439485 -0.99144411 -0.13053226 3.9757077e-07 0
0.20466109 0.03680646 -0.17386481 -0.99144495 -0.13052514 5.2088508e-06 0
0.31705222 0.033202037 -0.17520124 -0.3338016 0.86763608 0.36848888 0.049575068
0.32470226 0.035952892 -0.17731974 -0.15701249 0.95349067 0.25729847 0.053503577
0.33451161 0.036537278 -0.17383753 -0.11672793 0.96916854 0.21699531 0.059671123
0.34044188 0.036781855 -0.17279881 -0.034853801 -0.99922496 0.018292733 0.042345203
0.35436454 0.033875316 -0.17548074 -0.28253868 -0.90502858 0.31795469 0.016330579
-0.49416029 0.044356659 -0.17747806 0.99144256 -0.13054378 -5.5459695e-05 8.1110928e-05
0.13120246 0.045715258 -0.17565863 -0.99144495 -0.13052545 -3.8041799e-06 7.1313311e-06
0.20346065 0.045924485 -0.17422448 -0.99144483 -0.13052665 3.1159558e-05 1.9333709e-05
-0.42021045 0.056996584 -0.17694014 0.99073511 -0.13578713 0.0024031836 0
0.12987751 0.055779319 -0.17607939 -0.98863596 -0.15031965 -0.0017513705 0.00037630461
0.13051392 0.050945278 -0.17619248 -0.98945522 -0.14483924 -0.00020626094 0.00028834777
0.20278066 0.051089622 -0.17245403 -0.9914456 -0.13052109 -1.1950122e-05 1.6100521e-05
-0.41860658 0.069179155 -0.17575324 0.97029299 -0.24177894 0.008634788 0.0022849543
0.20080003 0.066133961 -0.17393419 -0.99144602 -0.13051744 2.3812394e-05 1.4696418e-05
-0.49052349 0.071980692 -0.17471054 0.99085915 -0.1348995 -0.00042887966 5.5184973e-05
-0.41750181 0.074345335 -0.17560735 0.96247154 -0.27132091 0.0057897088 0.0020158349
0.19964236 0.07492736 -0.17508297 -0.98694867 -0.16087152 -0.0072620995 0.00062721054
-0.48844188 0.087791823 -0.17422232 0.97392362 -0.22682714 -0.0047149039 0.0027535225
0.12197286 0.086683832 -0.1739531 -0.9367469 -0.34999976 -0.0023300662 0.00090175675
0.19795582 0.087737978 -0.17065585 -0.97358173 -0.22823334 -0.0069386396 0.0019138373
-0.48742664 0.092389166 -0.17482032 0.95489371 -0.29674262 -0.011034944 0.0023612869
-0.41049755 0.0914362 -0.1703282 0.9262557 -0.37689421 0.0010420175 0.00012518092
-0.40842712 0.096434675 -0.17420194 0.92586118 -0.37786278 0.00088163296 8.4400497e-05
0.19449672 0.098871432 -0.17954217 -0.95037436 -0.31110716 0.00097053358 0.0017047727
-0.48224297 0.10550312 -0.170472 0.9355402 -0.35321826 -0.0011839839 0.00095012807
-0.40610889 0.10203132 -0.17814445 0.92387813 -0.38268679 8.9592886e-06 0
0.11588334 0.10138521 -0.17794621 -0.92388034 -0.38268155 1.2807053e-05 0
0.1899801 0.10977555 -0.17520411 -0.93132073 -0.3641994 0.00073098275 0.00026913171
0.19061895 0.10823324 -0.17278801 -0.93215001 -0.36206865 -0.001632055 0.00030093984
-0.47850445 0.11452869 -0.17534149 0.92659754 -0.37605387 -0.00077852543 0.00019841142
-0.40145892 0.11325729 -0.17770419 0.92387891 -0.38268489 -6.079581e-05 0
-0.39938468 0.11826502 -0.17012547 0.92322278 -0.38426509 0.00011860331 0
0.11180811 0.11122368 -0.17544448 -0.92388159 -0.38267842 -4.1812051e-05 8.8512879e-06
0.18901727 0.11210001 -0.17596741 -0.92784399 -0.37296271 0.0020795187 0.0001589665
-0.47430289 0.12467218 -0.17784396 0.92385858 -0.38273403 -2.6571448e-05 4.2864569e-05
-0.39674515 0.12463742 -0.17210966 0.91722441 -0.39837077 0.00044190628 0.00044653311
0.10643612 0.12419279 -0.17462844 -0.91297519 -0.40784639 0.011734905 0.00042877687
0.18492974 0.12196821 -0.17060935 -0.92387873 -0.38268536 3.8398317e-05 0
-0.47104841 0.13252923 -0.17645907 0.92382461 -0.38281602 -8.8182947e-05 0.00016181993
-0.46868932 0.13822447 -0.17613661 0.92385113 -0.38275185 1.658076e-05 7.3850504e-05
-0.39252019 0.13483731 -0.178201 0.88900834 -0.45775834 -0.011020216 0.0026057276
0.10034105 0.13890758 -0.17021649 -0.87297869 -0.48772541 0.0056661479 0.0021330968
0.17831355 0.13794117 -0.17984112 -0.92389017 -0.38265786 4.8608689e-07 8.2317024e-07
-0.46486777 0.14745063 -0.17656654 0.92367762 -0.38317046 0.00013186873 4.9026359e-05
-0.38883746 0.14258033 -0.17858987 0.85577279 -0.5173161 -0.0060842033 0.0026181366
0.093598507 0.14876512 -0.17228286 -0.83638668 -0.54811794 -0.004907466 0.0021584004
0.17550981 0.14470996 -0.17328294 -0.92388099 -0.38267994 -5.9224903e-06 6.4139647e-07
-0.46249172 0.15318692 -0.17772569 0.92317259 -0.38438541 0.00045506519 0
-0.37705296 0.15793814 -0.17127961 0.80294192 -0.59605163 0.0026028543 0.00028400775
0.087311417 0.15695861 -0.17773698 -0.79588974 -0.60544056 -0.001110954 4.1421587e-05
-0.45614949 0.1684984 -0.1725971 0.89976019 -0.43627915 0.0095946081 0.0015724204
0.077699378 0.16948524 -0.17225622 -0.79335457 -0.60875982 3.4302291e-06 0
0.084541261 0.16056874 -0.17784026 -0.79595941 -0.60534871 -0.0012552913 2.9191093e-05
0.16911116 0.16015765 -0.17967889 -0.91382855 -0.40609151 0.0026630431 0.00052631169
-0.45197183 0.17789078 -0.17481312 0.87164235 -0.49013969 -0.0016428982 0.0023955482
-0.36305308 0.1761831 -0.1729528 0.79333812 -0.60878122 -2.416861e-05 9.0501242e-05
0.075955346 0.17175812 -0.17975529 -0.79335654 -0.60875726 -1.2845237e-05 2.4939905e-06
-0.35784638 0.18296865 -0.17256613 0.79332119 -0.60880339 2.7969127e-05 0
0.064816393 0.18627465 -0.17794788 -0.77216238 -0.63542515 0.00051860814 0.00078253594
0.15721108 0.18359011 -0.17433329 -0.83550692 -0.54947126 -0.0030796882 0.0017207067
-0.34736505 0.19662815 -0.17399473 0.71544063 -0.69866395 0.0036460964 0.0024372835
0.056158192 0.1975392 -0.1731714 -0.7339015 -0.6792556 0.00058101694 0.00099741458
0.14705515 0.19682562 -0.17101237 -0.7938593 -0.60810131 -0.00042644746 2.5395728e-05
-0.4319948 0.20406304 -0.17702976 0.79333484 -0.60878551 7.95163e-05 0
-0.33379638 0.20831718 -0.17548113 0.64433706 -0.764741 -0.0010033158 0.00054884551
0.04820691 0.20455444 -0.1715225 -0.66050303 -0.75077474 0.0085428366 0.0016328295
0.13808493 0.20851587 -0.17002547 -0.79333878 -0.60878032 1.0043266e-06 0
0.14294134 0.20218687 -0.1755852 -0.79334885 -0.60876727 9.9708004e-06 0
-0.42466754 0.21361217 -0.17510331 0.79335928 -0.60875368 1.5757349e-05 1.3489836e-05
-0.32462636 0.21535358 -0.1764513 0.61438227 -0.78900826 -0.00059208419 0.00015336747
0.028321646 0.21981299 -0.1715996 -0.60876882 -0.79334778 7.3334272e-06 1.2019441e-06
-0.4161627 0.22469589 -0.17441046 0.79335111 -0.60876435 3.3613622e-05 6.853752e-05
-0.30786628 0.228214 -0.17862359 0.6086008 -0.79347652 1.0408949e-05 6.7097601e-05
0.016884793 0.22858879 -0.17208454 -0.60642117 -0.79514325 -0.00081193808 3.0110712e-05
0.021169739 0.22530083 -0.17631727 -0.60876554 -0.79335016 2.880612e-05 0
0.12811181 0.22151312 -0.17336088 -0.79336232 -0.60874975 -3.4005952e-06 1.9530413e-05
-0.4094978 0.23338173 -0.17555413 0.7853334 -0.61906868 -0.0023303451 0.00013159955
-0.30342451 0.23162232 -0.17526251 0.60673243 -0.79490346 -0.0020844452 0.00010419559
-0.29440492 0.2385433 -0.17220479 0.57486659 -0.81821805 -0.0069002374 0.0015991088
0.012042584 0.23230435 -0.1711313 -0.60162532 -0.7987783 -0.00047679833 8.276727e-05
0.11559882 0.23782043 -0.17131345 -0.7746399 -0.63239855 0.0022539827 0.00061763439
-0.39927274 0.24670729 -0.17161433 0.73267025 -0.68056226 0.0054119527 0.0023543718
-0.28889647 0.24277006 -0.17474627 0.51626539 -0.85641408 0.0049982397 0.0025003229
-0.27362385 0.24994938 -0.17731281 0.42085496 -0.90712774 -0.00046582802 0.00080057856
-0.014013933 0.24876669 -0.17524584 -0.45301706 -0.89150155 -0.0007189326 0.001843169
-0.0023493411 0.24334769 -0.17632784 -0.50800681 -0.86131281 -0.008318671 0.0025464585
0.0018889401 0.24009553 -0.1770018 -0.56323844 -0.82623887 -0.0095736524 0.001500614
-0.39197436 0.2540105 -0.17341506 0.6875428 -0.72595584 -0.016523635 0.0021368242
-0.38669816 0.25805902 -0.17457555 0.63813621 -0.76988429 -0.007777581 0.00083129137
-0.26578391 0.25319681 -0.1734025 0.39065793 -0.92053562 0.00079204701 6.8292997e-05
-0.25455028 0.2578499 -0.17463429 0.38272592 -0.92386192 -2.8158793e-05 1.787052e-05
-0.24954799 0.25992194 -0.17166376 0.38281 -0.92382705 -6.4232954e-05 0
-0.031603258 0.25605243 -0.17181541 -0.38268054 -0.92388076 2.4398561e-05 0
-0.029134205 0.25502971 -0.17498323 -0.38538092 -0.92275751 0.00035516635 1.30292e-05
-0.019318391 0.25096387 -0.17319459 -0.40831706 -0.91282719 0.0048644198 0.00079725339
0.094120629 0.25965852 -0.17477256 -0.61349362 -0.78969163 0.0035533549 3.4688717e-05
-0.38119525 0.2622816 -0.17109287 0.62804139 -0.77815002 -0.0068262862 0.00053306989
-0.37739545 0.26519728 -0.17898244 0.61605215 -0.7877022 -0.0022253194 0.00017400447
-0.2425545 0.26281875 -0.17571592 0.38276523 -0.92384565 -2.1311962e-05 0
-0.22739443 0.26909828 -0.17036062 0.33950779 -0.94049364 -0.014360518 0.0011227767
-0.055900328 0.26611659 -0.17454639 -0.35823557 -0.93361974 0.0046326793 0.0005301882
-0.045093141 0.26164013 -0.17272946 -0.38270253 -0.92387158 1.6500169e-05 1.5113586e-05
0.082035094 0.26893204 -0.17176963 -0.60879213 -0.79332983 -2.0557045e-05 2.1296122e-05
0.091766201 0.26146513 -0.1776768 -0.61288059 -0.7901625 0.0045277481 3.9229741e-05
-0.36417282 0.27534336 -0.17713842 0.60875583 -0.79335755 8.0867167e-06 2.6155878e-05
-0.22105992 0.27172214 -0.17675266 0.29083952 -0.95676517 -0.0035674844 0.0019134622
-0.21287486 0.27356413 -0.17539747 0.20592588 -0.97856504 -0.0022456392 0.0015065817
-0.1859763 0.27710539 -0.17775711 0.13053596 -0.99144357 -2.5843017e-06 0
-0.16856125 0.27939814 -0.17601387 0.12947975 -0.99158198 -0.00047754546 0
-0.11478636 0.2784574 -0.17379542 -0.13050961 -0.99144703 -5.8075957e-06 0
-0.1039474 0.27703044 -0.17228498 -0.13052905 -0.99144447 7.7289069e-06 0
-0.090263501 0.27522889 -0.17492235 -0.14681493 -0.98916066 -0.0025562164 0.00022675309
-0.089480571 0.27512583 -0.1702287 -0.14771287 -0.98902982 -0.00096406811 0.0002576666
-0.073432155 0.2727899 -0.17498799 -0.25644863 -0.96627873 0.023226248 0.0022926263
-0.066758975 0.27061439 -0.17502987 -0.29914752 -0.95420152 -0.0031949847 0.0024167316
0.069847107 0.27828419 -0.17810345 -0.60879105 -0.79333067 3.5700203e-05 2.5322857e-05
0.071785927 0.27679649 -0.17328738 -0.60877913 -0.79333985 1.3379687e-05 0
-0.34666219 0.28877974 -0.1738279 0.60882747 -0.7933026 -1.1165575e-05 0
-0.14741851 0.28218165 -0.17053553 -0.0092681805 -0.99987429 0.012866801 0.0021445774
-0.13007565 0.28047031 -0.17539883 -0.10459314 -0.99451476 0.00077399146 0.00037597388
-0.12801152 0.28019851 -0.17124763 -0.10557735 -0.99440598 0.0031863826 0.00036491093
0.056284506 0.28869116 -0.17325012 -0.60848755 -0.79356337 0.00022462755 0
-0.3443462 0.29055685 -0.17210552 0.60884112 -0.79329216 -2.2921628e-05 0
-0.33509943 0.29765213 -0.17524825 0.57770604 -0.81623042 -0.0048603914 0.00070302893
0.042918872 0.29894692 -0.17441055 -0.56980556 -0.8217485 0.0071453983 0.0012304618
0.05422461 0.29027179 -0.17653127 -0.60766429 -0.7941938 0.00054359203 4.1187604e-06
0.02756346 0.30911699 -0.17799851 -0.44594052 -0.89497894 -0.01223696 0.001438977
0.031680733 0.30731693 -0.17403883 -0.50070506 -0.86560172 -0.0052934159 0.002750166
0.041337933 0.30016002 -0.17322753 -0.56448179 -0.82540596 0.0080853384 0.0011767079
-0.30625862 0.31400388 -0.17522365 0.44236335 -0.89682895 -0.0035290211 0.0006199191
-0.29903257 0.31699702 -0.170306 0.38268268 -0.9238798 5.4065888e-05 4.5105848e-05
0.011206838 0.31589216 -0.17860532 -0.38939223 -0.92107123 0.0012076378 7.4825446e-05
0.022495933 0.311216 -0.17474236 -0.42831847 -0.90361452 -0.0049155829 0.0014704326
-0.27105221 0.32858688 -0.17974535 0.3827194 -0.92386466 -1.0550877e-05 1.2881356e-05
-0.0042548203 0.32229659 -0.17548622 -0.38268435 -0.92387921 3.1354801e-05 0
-0.26212168 0.33228603 -0.17440319 0.38264665 -0.9238947 -4.271141e-05 8.4440631e-05
-0.2556054 0.33498514 -0.17982645 0.36423445 -0.93130606 -0.0015097262 0.00030716253
-0.2451349 0.33932218 -0.17685807 0.33370942 -0.94244951 -0.020661514 0.0010189764
-0.043194368 0.33842587 -0.17541769 -0.32967454 -0.94407636 -0.0058728354 0.0012295119
-0.031629641 0.3336356 -0.17778517 -0.37854365 -0.92558318 0.00061829109 2.7094984e-05
-0.023628097 0.33032128 -0.17479467 -0.38269103 -0.92387635 2.558099e-05 8.2265915e-06
-0.23216689 0.34331012 -0.17391531 0.24113071 -0.97038776 -0.014274 0.0021243549
-0.22825465 0.34382519 -0.17301638 0.22042353 -0.97533214 -0.011860952 0.0021606453
-0.21330175 0.34579378 -0.17340013 0.13104284 -0.9913767 0.00026959484 0
-0.20188597 0.34729668 -0.17347573 0.13055049 -0.99144167 -6.2841005e-05 4.2918367e-05
-0.19701421 0.34793803 -0.1711534 0.13059014 -0.99143648 -4.583233e-05 0
-0.093503617 0.34794131 -0.17962074 -0.13054319 -0.99144262 4.93261e-05 0
-0.087337151 0.34712946 -0.17549981 -0.13053691 -0.99144346 -1.4152169e-05 0
-0.068439603 0.34464157 -0.17523074 -0.16556978 -0.9861958 -0.0021006209 0.00079696823
-0.052461553 0.34211278 -0.17535582 -0.27117607 -0.96246058 -0.01154328 0.0019788218
-0.049001403 0.34083122 -0.17385018 -0.2867597 -0.9579652 -0.0084589403 0.0020322395
-0.17478664 0.35086438 -0.17487276 0.13060455 -0.99143457 -6.4934252e-06 0
-0.16312583 0.35239953 -0.17884468 0.10188773 -0.99479306 0.0023562671 0.00049918989
-0.13644646 0.35359484 -0.1749038 -0.061169043 -0.99811733 0.0044983909 0.0012150318
-0.11608414 0.35091406 -0.17476419 -0.13052031 -0.99144566 -1.2930552e-05 0
-0.17519169 -0.35081103 -0.16278581 0.13049836 0.99144852 1.4230664e-05 0
-0.1673383 -0.35184497 -0.16795796 0.13062623 0.99143165 6.7814035e-05 0
-0.15332361 -0.35369 -0.16429426 0.050334882 0.99867088 -0.011087867 0.001992268
-0.14749342 -0.35445759 -0.16546994 0.0392319 0.99912828 -0.014265887 0.0016763054
-0.13601716 -0.3535383 -0.16343315 -0.083092757 0.99652207 -0.0062653241 0.00080825953
-0.11646496 -0.35096422 -0.16718106 -0.13054723 0.99144208 -3.526434e-05 4.117718e-05
-0.23295884 -0.34316662 -0.16851233 0.2251012 0.97430062 0.0082281325 0.0023361312
-0.21291332 -0.34584486 -0.16718444 0.13184468 0.99127018 -0.00053215161 9.3547103e-05
-0.20733123 -0.34657976 -0.16862218 0.13081843 0.99140626 0.00015933486 0
-0.18633541 -0.34934396 -0.16947147 0.13048607 0.99145019 -3.2767031e-05 4.1704327e-05
-0.10115409 -0.34894848 -0.16892323 -0.13053806 0.99144328 4.1829728e-05 4.9816437e-05
-0.094547406 -0.3480787 -0.16661966 -0.13052776 0.99144465 7.9758203e-05 0
-0.088453799 -0.34727642 -0.16105658 -0.1305193 0.99144572 7.2075336e-06 1.2115189e-06
-0.077996723 -0.34589976 -0.16007008 -0.13540141 0.99079031 -0.00098179257 1.2250895e-05
-0.069302306 -0.34475511 -0.16661693 -0.1365542 0.99063218 -0.00091816275 0
-0.26672128 -0.33038083 -0.16346732 0.38264543 0.92389524 -8.3230392e-05 0
-0.25850534 -0.33378395 -0.16048697 0.37339041 0.927674 0.0007230381 0.00010265798
-0.2485649 -0.33790141 -0.16346133 0.34823605 0.93740511 0.0018042094 0.00071219617
-0.035806708 -0.33536577 -0.16563427 -0.37843665 0.92562675 -0.00095296022 0
-0.026815619 -0.33164155 -0.16540478 -0.38277265 0.92384255 -2.9403882e-05 9.9042045e-05
-0.28784573 -0.32163078 -0.16119578 0.38264924 0.92389369 -3.1776857e-05 1.57054e-05
-0.27961683 -0.32503927 -0.16861854 0.38257161 0.92392582 -8.3071231e-05 7.5418218e-05
-0.021092435 -0.32927093 -0.16824427 -0.38269129 0.92387623 6.0301925e-05 0
-0.011614166 -0.32534492 -0.16032828 -0.38269904 0.92387307 1.6320422e-05 1.1148614e-05
-0.0080936514 -0.32388666 -0.1603037 -0.38271308 0.92386729 6.3066718e-06 2.9481032e-05
-0.31229728 -0.31150258 -0.16170105 0.42463639 0.90534598 0.0057061012 0.0010841484
-0.29193711 -0.31993607 -0.16246428 0.38266894 0.92388552 7.8498442e-06 1.7389919e-05
0.0065538189 -0.31781942 -0.16621125 -0.38273251 0.92385924 -1.1184321e-05 6.0460487e-05
0.012744697 -0.31525511 -0.16071071 -0.39214912 0.91990131 0.00089178595 0.00016386274
0.020063002 -0.31222376 -0.16072935 -0.419157 0.90788817 -0.0068156538 0.00082255556
-0.31732908 -0.30941832 -0.16707683 0.46053126 0.88760257 0.0085171107 0.0016535365
0.02847423 -0.30873969 -0.16480088 -0.47280645 0.88116151 -0.0028989986 0.0016954916
0.037048478 -0.30345136 -0.16333848 -0.53287226 0.8461594 -0.0078328755 0.001725295
-0.33558908 -0.29727638 -0.16743839 0.5804686 0.81421691 -0.010342271 0.00064504344
0.046013519 -0.29657227 -0.16766363 -0.58850032 0.80849624 0.001139706 0.00046784847
-0.35017353 -0.28608537 -0.16607572 0.60892272 0.79322958 9.2104325e-05 0
-0.34738827 -0.28822252 -0.16950355 0.60881948 0.79330868 3.9343904e-05 0
-0.15249304 -0.28151351 -0.16513789 0.044811253 0.99899054 -0.0031688879 0.0022017465
-0.14372937 -0.28221208 -0.16777222 -0.015308131 0.99964803 0.021665692 0.0016726461
-0.1347008 -0.28107914 -0.1649203 -0.074120566 0.99718273 0.011523913 0.00096815039
0.06426499 -0.28256744 -0.16467141 -0.60877389 0.79334378 6.3580655e-06 0
-0.36309206 -0.27617264 -0.16563374 0.6088382 0.79329443 2.8722174e-05 0
-0.2232423 -0.27081811 -0.16559331 0.28077847 0.95976937 -0.0025188627 0.0019887821
-0.21783565 -0.27291098 -0.16649503 0.24269597 0.97006816 -0.0081478143 0.0019609274
-0.20620902 -0.27444166 -0.16498893 0.18164589 0.98333669 -0.007332549 0.0015611839
-0.19450578 -0.27598244 -0.16530856 0.13724887 0.99053562 -0.0014140345 0.00013659606
-0.17787805 -0.27817151 -0.16193661 0.13053922 0.9914431 2.6010341e-05 0
-0.16493097 -0.27987602 -0.16781947 0.12070787 0.99267912 -0.0042285169 0.00019856411
-0.12559189 -0.27987993 -0.16050573 -0.113456 0.99354154 0.0017330757 0.00037943214
-0.1007621 -0.276611 -0.16130871 -0.13050699 0.99144739 5.2937008e-05 0
-0.095473424 -0.27591479 -0.16619134 -0.13053839 0.99144328 -7.1441254e-06 2.3273451e-05
-0.084233545 -0.27443501 -0.1660655 -0.15108293 0.98852074 -0.00079410902 0.00053442671
-0.072357111 -0.27287143 -0.16780208 -0.27111 0.9625355 0.0049807564 0.0029432306
0.071757898 -0.27681792 -0.1601657 -0.60878927 0.79333204 1.4771891e-05 1.8728888e-05
-0.38094157 -0.26247621 -0.16495016 0.6273852 0.7787075 -0.001595743 0.00056651665
-0.37479356 -0.26719376 -0.16133766 0.60886663 0.7932725 -3.9796163e-05 0
-0.23395699 -0.26637995 -0.16630742 0.35362804 0.93538451 -0.0017420892 0.00080149237
-0.2260866 -0.26963997 -0.1613847 0.31309569 0.9497028 -0.0059837038 0.0014141714
-0.044840835 -0.26153558 -0.16652799 -0.3822369 0.92406434 -6.4296066e-05 0
0.088334203 -0.2640985 -0.16643783 -0.62076962 0.78399217 -0.0011416604 0.00024681771
-0.39005437 -0.25548372 -0.16811159 0.66895807 0.7433002 -0.00014798439 0.0018076096
-0.38699841 -0.25782859 -0.16731599 0.64483494 0.7643218 -0.00026866782 0.0011118716
-0.27143109 -0.25085765 -0.16947538 0.42710456 0.90419292 -0.0041015502 0.00079232809
-0.26163679 -0.25491458 -0.1684368 0.38697737 0.92208904 -0.00053079589 2.6147145e-05
-0.25728914 -0.25671545 -0.16118196 0.38265163 0.92389274 -2.4092309e-05 1.9804143e-05
-0.035764359 -0.25777602 -0.16717461 -0.38268799 0.92387772 3.8961734e-05 0
-0.021162923 -0.25172788 -0.1663366 -0.39869171 0.91708499 -0.00010178416 0.000654187
-0.017058196 -0.25002766 -0.1638484 -0.42876419 0.90341634 0.00040998415 0.001381953
0.10303299 -0.25281975 -0.16517046 -0.68746561 0.72621679 0.00050560699 0.0019578561
-0.40047556 -0.24513966 -0.16125405 0.74710411 0.66470641 0.00095941417 0.0017052426
-0.3980315 -0.24832484 -0.16614395 0.70193267 0.71221608 -0.0062181232 0.0016440342
-0.29130375 -0.2409229 -0.16677615 0.53885978 0.84237427 -0.0059759957 0.0016362898
-0.28830931 -0.2432206 -0.16753946 0.50603646 0.8625012 -0.0043492434 0.0023204314
-0.27876937 -0.24781804 -0.16868904 0.44824243 0.89384598 -0.010859462 0.0016901927
-0.0041920058 -0.2445889 -0.16589752 -0.51286191 0.85845774 -0.0048082643 0.0024593805
0.10912726 -0.2462543 -0.16037536 -0.72579688 0.68781763 -0.011215347 0.0022986985
0.11188251 -0.24266359 -0.16585197 -0.773709 0.63353926 0.0015817892 0.00054979126
-0.40532893 -0.23881465 -0.16550599 0.77593374 0.63080323 -0.0037652247 0.00075726124
-0.30289403 -0.23202938 -0.16387421 0.59574509 0.80316949 -0.0025849706 0.00033170954
-0.29499811 -0.23808809 -0.16786447 0.56185263 0.82723725 0.00046690129 0.0015332238
0.005126338 -0.2376114 -0.16848338 -0.55340731 0.83281171 -0.012843586 0.0018039618
0.1175307 -0.23530272 -0.16163376 -0.7873401 0.61651856 -0.00061495649 0.00017846083
-0.41666827 -0.22403695 -0.16207287 0.79332912 0.60879302 -6.7919937e-05 1.9229565e-05
0.018234773 -0.22755292 -0.16394797 -0.60804588 0.7939018 -0.00024794947 3.1259045e-05
-0.42303497 -0.21573973 -0.16817153 0.79336023 0.60875243 -5.7177472e-06 0
-0.31974193 -0.21910155 -0.16037589 0.60881561 0.79331183 2.0171157e-05 0
0.029500257 -0.21890859 -0.16552427 -0.60878396 0.79333603 -1.663723e-05 2.4457006e-05
0.13212574 -0.21628205 -0.1634877 -0.7933473 0.60876924 -1.3913412e-05 0
-0.43218845 -0.20381072 -0.16648555 0.79330766 0.60882109 -4.121249e-05 6.1719038e-05
0.046339791 -0.20598714 -0.16606349 -0.64997572 0.75994694 0.0034920254 0.0016905678
0.14242996 -0.20285329 -0.16793394 -0.79335153 0.60876369 -1.4090861e-05 0
-0.43797037 -0.19627553 -0.16521838 0.79629672 0.60490632 -7.4873657e-05 3.5259258e-05
0.055052016 -0.19899982 -0.1673165 -0.72862369 0.68463522 0.019547567 0.0019266434
-0.35531917 -0.18626213 -0.1655677 0.78061748 0.62495238 -0.0084163053 0.00052323414
0.068977296 -0.18085206 -0.16526669 -0.7880792 0.61557257 -0.0012597694 0.00013442448
0.15550594 -0.18581232 -0.16636978 -0.82820773 0.56039244 -0.0056818104 0.0017001031
0.076611772 -0.17090259 -0.16640815 -0.79332584 0.60879731 -1.0788601e-05 0
0.16209665 -0.17630672 -0.16809466 -0.87277383 0.48810312 0.0045993649 0.0023046674
-0.45823944 -0.16345276 -0.16642769 0.91242266 0.40924346 0.002185076 0.00025071294
-0.3728528 -0.16341183 -0.16799077 0.79370558 0.60830212 9.6017597e-05 8.4636813e-06
-0.36969611 -0.16752574 -0.16682014 0.79327357 0.60886538 -1.1251825e-05 3.9225724e-05
0.079801172 -0.16674609 -0.16873461 -0.79334766 0.60876888 -8.8321076e-06 0
0.082508661 -0.16321765 -0.16565935 -0.79415256 0.60771817 0.00063360023 0
-0.46154106 -0.15548207 -0.1652692 0.91959739 0.3928608 -0.0010292103 0.0002082455
-0.37985796 -0.15428255 -0.16701309 0.81540889 0.57888281 -0.0017328713 0.00077181327
0.087268203 -0.15701488 -0.16710135 -0.80325526 0.59561002 0.0054489616 0.00020666415
0.17125034 -0.15499321 -0.16458896 -0.92263836 0.38566622 0.0003073235 1.3286303e-05
-0.4656046 -0.14567177 -0.16350077 0.92388111 0.38267958 2.7187429e-05 3.3983786e-05
-0.38730657 -0.1445753 -0.16785957 0.83120513 0.55577117 -0.014713281 0.0016264535
0.093980566 -0.14826715 -0.16311112 -0.82039171 0.57170212 0.010683747 0.0013413593
-0.46816963 -0.13947916 -0.16464025 0.92385274 0.3827481 -8.8822868e-05 0.00010167526
-0.39261183 -0.13461606 -0.1644129 0.88598508 0.46369624 -0.0040334295 0.0025825552
0.17831421 -0.13793953 -0.16705096 -0.92387021 0.38270581 5.0559131e-05 0
