# .PCD v0.7 - Point Cloud Data file format
VERSION 0.7
FIELDS x y z normal_x normal_y normal_z curvature
SIZE 4 4 4 4 4 4 4
TYPE F F F F F F F
COUNT 1 1 1 1 1 1 1
WIDTH 573
HEIGHT 1
VIEWPOINT 0 0 0 1 0 0 0
POINTS 573
DATA ascii
-0.039929103 -0.25950104 0.068098217 -0.38268906 0.92387724 -8.1090902e-06 0
-0.025660345 -0.25359073 0.067573845 -0.38800961 0.92165488 0.00086450489 5.5586206e-05
-0.018508803 -0.25062844 0.064061217 -0.41231152 0.91104293 -3.4637342e-05 0.00071519258
0.095567964 -0.25854778 0.065516256 -0.64739966 0.76213837 0.0043360349 0.0012741562
-0.29206836 -0.24033624 0.067687325 0.55240363 0.83357161 0.0029256358 0.0016809111
-0.28449988 -0.24524927 0.065111339 0.49050939 0.87137407 0.010381273 0.0023157638
-0.27833366 -0.24799855 0.060799304 0.43240163 0.90167093 0.0042829579 0.00083941524
-0.0039725257 -0.24426058 0.065665424 -0.50253981 0.86449528 -0.010079692 0.0017783958
0.10831661 -0.24731062 0.063220233 -0.72487366 0.68886554 -0.0047346698 0.0026284398
0.11069341 -0.24421309 0.06478025 -0.75061888 0.66063619 -0.011447784 0.0018680067
-0.29567632 -0.23756775 0.063571207 0.56230223 0.82692116 0.0041881143 0.0014834357
0.004483548 -0.23810449 0.06133002 -0.5562557 0.8309896 -0.0059935628 0.0017422773
0.11866997 -0.23381782 0.065043271 -0.7916376 0.61098999 -0.0010607701 1.8888679e-05
-0.41849297 -0.22165912 0.069823667 0.7932927 0.60884041 -2.3155304e-05 0
-0.30794609 -0.22815286 0.06691125 0.60592061 0.79552364 0.0014977192 0
0.015872495 -0.22936547 0.065792143 -0.60777748 0.79410744 -9.3806499e-05 2.7106718e-05
0.025107201 -0.22227943 0.065728143 -0.60876739 0.79334879 2.1456995e-06 6.7953765e-06
0.12404708 -0.2268102 0.063983016 -0.79336834 0.60874188 9.050571e-06 2.3393864e-05
-0.42404628 -0.21442187 0.068949103 0.79328752 0.60884714 2.7730621e-05 2.8897621e-05
-0.33003122 -0.21120633 0.060184427 0.63189518 0.77505112 -0.0020354062 0.000445076
-0.32512555 -0.2149706 0.068865284 0.61376601 0.78948343 -0.0026844647 0.00010354794
0.029358353 -0.21901739 0.065234825 -0.60876954 0.79334718 -2.3043729e-06 4.0038576e-06
-0.33406934 -0.20810778 0.065435819 0.65960872 0.75150079 -0.012762912 0.0008710582
0.044406243 -0.20747074 0.062585786 -0.64864391 0.76109195 0.00020347392 0.0011197211
0.13907342 -0.20722747 0.066261224 -0.79336065 0.60875183 1.6202834e-05 2.9218329e-05
-0.43770331 -0.19662368 0.06412711 0.79596615 0.60534108 7.8098827e-05 0.00020057538
-0.34984493 -0.19339637 0.062669724 0.72981781 0.68350947 -0.013445549 0.0015785964
0.057964697 -0.19520384 0.061138365 -0.73361278 0.67956769 0.00021819053 0.0017631227
0.14717793 -0.19666545 0.065716207 -0.80081743 0.59890831 0.00050096057 0.0001334572
0.15096888 -0.19172497 0.064951129 -0.80985034 0.58663654 -3.3723332e-05 0.00066555076
-0.44690636 -0.18463007 0.068093747 0.82579279 0.56396782 0.0025802795 0.0010232298
-0.35438448 -0.18748033 0.06692788 0.75270063 0.65836269 -0.00055735826 0.0014089217
0.064543843 -0.18662971 0.064794995 -0.76766217 0.64081061 -0.0075113173 0.00086685922
-0.45321929 -0.17533503 0.064090289 0.85853904 0.51272237 0.0051489715 0.0020490296
0.075255819 -0.17266959 0.066845059 -0.79335618 0.60875773 5.98832e-06 0
0.16373026 -0.17314798 0.06500306 -0.8803885 0.47398147 -0.016052626 0.0023926275
-0.37401414 -0.16189848 0.065090738 0.79330885 0.60881943 -3.5958781e-06 0
0.16652933 -0.16639045 0.066719636 -0.89951712 0.43688318 -0.0014517526 0.0014865572
-0.46234158 -0.1535496 0.06644436 0.92365938 0.38321429 0.00013940029 0.00011323261
-0.38175553 -0.15180969 0.064229339 0.8007828 0.59892976 -0.0054858983 0.00014575553
-0.37706536 -0.15792207 0.06743449 0.7968052 0.60423446 -0.0014798598 1.0608049e-05
0.090484485 -0.15282315 0.066811219 -0.80227929 0.59693509 0.004052124 0.00025626225
0.16987321 -0.15831761 0.062356286 -0.92333454 0.38399306 0.0016370987 0
0.17144497 -0.15452309 0.064526342 -0.92384732 0.38276106 -4.1093048e-05 4.7487579e-06
0.17470007 -0.14666459 0.065624431 -0.92388105 0.38267985 -9.0838594e-06 0
-0.46838647 -0.13895598 0.063730299 0.92385131 0.38275152 2.057607e-05 0.00011487744
0.10195482 -0.13501115 0.063694619 -0.88713062 0.46150556 -0.0034476563 0.0015408222
0.17932248 -0.13550511 0.063269734 -0.92387462 0.38269532 4.4222634e-06 0
0.18080205 -0.13193312 0.068670265 -0.9238711 0.38270369 -1.7443318e-06 0
0.10721609 -0.12230931 0.062018611 -0.92051178 0.39071468 -0.00030171193 8.2224469e-05
0.18384473 -0.12458745 0.067086764 -0.92387557 0.38269296 -1.434535e-06 5.9346676e-06
-0.47749209 -0.11697295 0.064600497 0.92388397 0.38267276 -1.0526328e-05 1.540007e-05
0.10942984 -0.11696483 0.069257267 -0.92388159 0.38267845 4.3682147e-07 6.9279531e-06
0.11183883 -0.11114902 0.065074295 -0.92387968 0.38268304 -3.6719071e-06 0
0.18813582 -0.11422788 0.064720958 -0.92609388 0.37725815 -0.0051348177 6.6692097e-05
-0.48121667 -0.10798103 0.066675454 0.93032992 0.36672136 0.0013647471 0.00013022739
-0.40476403 -0.10527812 0.064850375 0.92386168 0.38272667 2.2427826e-05 5.8849291e-05
0.1143426 -0.10510438 0.064972788 -0.92387843 0.38268617 -3.9840961e-06 0
0.19165692 -0.10572723 0.062272951 -0.93189764 0.3627184 -0.0014719109 0.00059175788
-0.4860031 -0.096425697 0.062151399 0.95824248 0.28593531 0.0035197756 0.0017278455
-0.40715879 -0.099496633 0.06588082 0.92456901 0.38101414 0.00064676692 0
0.11691406 -0.09889631 0.068993136 -0.92464358 0.38083318 0.00063176948 6.8970562e-06
0.19468281 -0.098422088 0.067406483 -0.95183825 0.3065632 0.0047760406 0.0021199596
-0.41338238 -0.084471665 0.06322743 0.94230324 0.33470359 -0.0061590173 0.001048331
0.12166187 -0.087434068 0.06498456 -0.94037306 0.34014481 0.00019736936 0.00083756854
0.19819355 -0.085931897 0.068391897 -0.98040295 0.19693556 -0.005158375 0.0013991167
-0.4899891 -0.076040618 0.066646755 0.98926353 0.14614221 0.00027275231 0.00011778555
-0.41672894 -0.076392271 0.069405377 0.96074712 0.27728423 -0.0088567268 0.0028359857
0.12673885 -0.074153602 0.065935016 -0.9567613 0.29085624 0.0032304276 0.0024321396
0.19940294 -0.076745629 0.066148207 -0.98610997 0.1660382 -0.0042989152 0.00065207254
0.2000916 -0.071514882 0.065878376 -0.98980373 0.14243785 0.00016180078 0.00022735969
-0.49148005 -0.064715564 0.067723915 0.9914425 0.13054392 1.0884814e-05 0
-0.41946527 -0.062656663 0.065210462 0.98512131 0.17137761 -0.012871317 0.00087265758
0.12855795 -0.065800682 0.067669898 -0.97825736 0.20735733 0.0039475369 0.0016419766
-0.49250913 -0.056898952 0.063011944 0.99144369 0.13053504 -1.7101422e-05 0
-0.42067212 -0.053489774 0.063743502 0.98996794 0.14126177 -0.0029308978 0.00016165957
0.12946747 -0.058892254 0.062218059 -0.98451406 0.17529914 0.0015390059 0.0012972556
-0.49436826 -0.042777393 0.063235536 0.99144626 0.13051569 -5.9701601e-06 0
-0.42183828 -0.044631686 0.066232167 0.99144238 0.13054526 1.7222275e-05 9.8236538e-05
0.13122585 -0.045535907 0.068578303 -0.99069512 0.13609987 4.5835704e-06 4.8369595e-05
0.20416336 -0.040586732 0.067580834 -0.99144375 0.13053468 2.2624632e-05 4.3996944e-05
-0.49511659 -0.037093069 0.063246801 0.99144363 0.13053581 4.8630343e-05 0
-0.42360991 -0.031175297 0.064382672 0.99144441 0.13052973 -1.2463066e-05 3.8210521e-05
0.45908132 -0.036141768 0.062460601 -0.26478118 -0.96334642 0.043065052 0.049409546
0.46560663 -0.036734875 0.063715689 0.040405575 0.99784279 -0.051740024 0.030605724
0.47651243 -0.034353826 0.065772988 -0.40141141 0.91367692 0.063743792 0.029060056
0.48328882 -0.030287184 0.06160602 -0.63156885 0.77244604 0.066692114 0.035734251
-0.49636123 -0.027639184 0.065008312 0.99144083 0.13055721 2.5990286e-05 0.00018390786
-0.42391163 -0.028883055 0.062048331 0.99144375 0.13053417 -8.2110455e-07 4.6656351e-05
0.13396782 -0.024708582 0.062292077 -0.99144489 0.13052572 7.5833914e-06 1.2432135e-06
0.20638981 -0.023674814 0.067334026 -0.991494 0.13015267 4.5809422e-05 0
0.44361249 -0.028018899 0.064675942 -0.76812458 -0.63067269 0.11061983 0.066201255
0.48765379 -0.0271357 0.065379165 -0.73219377 0.67275679 0.10625719 0.038980585
0.49273348 -0.021843344 0.069611683 -0.87911344 0.45807564 0.13162929 0.028233185
-0.49798346 -0.01531717 0.06141733 0.99524313 0.097405523 0.001814666 0.0007348911
-0.42580992 -0.014464172 0.065359853 0.99607921 0.087976478 0.0092905378 0.0012669683
0.20713349 -0.018025996 0.064844288 -0.99298793 0.11801518 -0.0068796556 0.00019652005
0.44114605 -0.015511055 0.065545313 -0.93923265 -0.24780394 0.2375609 0.029092222
0.49422923 -0.018252973 0.064752959 -0.89013541 0.42902511 0.1536112 0.022579905
-0.42666018 -0.0080060018 0.061852455 0.99865621 0.04955405 -0.015173149 0.0018087011
0.13678649 -0.0032986165 0.066220067 -0.99946541 0.032262109 0.0052989987 0.0019569357
0.20899729 -0.0038686215 0.061569035 -0.99976605 0.020374877 -0.007256336 0.0021613333
0.4402757 -0.002375623 0.06075469 -0.98324871 -0.047607668 0.17594169 0.003048622
0.4948591 -0.007784876 0.068220064 -0.96541524 0.19260077 0.17572238 0.014177399
-0.4996891 0.0023614152 0.069467321 0.99990851 -0.010262229 0.008810156 0.002610174
0.4413712 0.0047981082 0.066784307 -0.98387223 0.069181107 0.16495293 0.0043715555
0.49486613 0.00098729599 0.068258867 -0.9807201 0.045777719 0.18998028 0.0081223315
-0.49832025 0.012758713 0.064761035 0.99789125 -0.064048558 0.010524295 0.0014514476
-0.42621779 0.011365954 0.065212503 0.99814397 -0.06089399 0.00070640829 0.001206778
0.13523331 0.015096173 0.064038053 -0.99480212 -0.10137013 -0.0096375458 0.00048731139
0.20748651 0.015344476 0.062783331 -0.99592382 -0.090173118 0.0021245042 0.00096390775
0.4414492 0.016219433 0.067213677 -0.92191333 0.32254627 0.2145686 0.018420126
0.49409452 0.013932514 0.064011745 -0.96664029 -0.22158764 0.12847385 0.014649226
-0.49611908 0.029478366 0.069069967 0.9914425 -0.13054392 -6.7545052e-06 5.9297068e-05
0.13433942 0.021885954 0.06426917 -0.99337399 -0.11491782 -0.0014350788 0.00020626688
0.20621257 0.025021346 0.065754339 -0.99205518 -0.12579963 0.0010177774 8.6228109e-05
-0.49539453 0.034981888 0.063346595 0.99144453 -0.13052876 5.8113374e-06 0
0.13283677 0.033299666 0.066494651 -0.99144435 -0.13053003 -2.8349209e-06 0
0.20506094 0.033768658 0.06307891 -0.99144554 -0.13052137 1.1038748e-05 0
0.4493764 0.032317173 0.068111204 -0.7170099 0.6924181 0.080336392 0.051600024
0.4548265 0.035033621 0.064437255 -0.39947447 0.91439843 0.065542482 0.058835294
0.46930259 0.036183149 0.060538433 -0.21217176 -0.97560954 0.056294765 0.017293058
0.48154801 0.032077942 0.064371772 -0.51402098 -0.85699493 0.036637161 0.028215127
-0.42196861 0.043641672 0.062622659 0.9914434 -0.13053742 7.2790385e-08 0.00010556677
0.20324649 0.047551025 0.063232124 -0.99144518 -0.13052368 -1.7371857e-06 7.1695104e-06
-0.42063865 0.053743824 0.06372948 0.98865825 -0.15018226 0.00037052535 0.00058244675
0.12981209 0.056274477 0.064013019 -0.98928744 -0.14596587 -0.0020832063 0.00023200508
0.13035175 0.052175384 0.063968524 -0.98938948 -0.14528072 -0.0014238057 0.00024788146
-0.4186565 0.068799824 0.062749088 0.97249788 -0.23258741 0.01228432 0.0018939929
0.12862301 0.065306477 0.06042289 -0.9789412 -0.20414214 -0.00026621387 0.0017508615
0.20098048 0.06476295 0.065587252 -0.99144411 -0.13053134 1.9977324e-06 1.1577657e-05
-0.49063951 0.071099944 0.061648071 0.98979127 -0.14252217 0.00079227617 0.0001838399
0.12531351 0.078618236 0.063935809 -0.95548451 -0.29469463 -0.014299763 0.0019529042
0.20000245 0.072191924 0.061895333 -0.99011749 -0.14023408 -0.0013323845 0.00013978471
-0.48817846 0.089793406 0.066170029 0.96649116 -0.2566283 0.0060657682 0.0025683846
-0.41422534 0.082436502 0.069286466 0.94353151 -0.33122161 0.0063581625 0.0017268946
0.12137155 0.088134959 0.06703274 -0.92992836 -0.36773562 0.001946173 0.000354466
-0.41038013 0.091719635 0.069527157 0.92748237 -0.37386501 0.0011805893 9.6724572e-05
-0.40780026 0.09794803 0.06450969 0.9238739 -0.38269696 -2.3292563e-05 1.4970371e-05
-0.48219335 0.10562313 0.069152296 0.93071699 -0.36573991 0.00043452778 0.0005459839
-0.40436459 0.10624249 0.064365551 0.92385954 -0.38273168 2.2100594e-06 3.0070445e-05
0.1159742 0.10116536 0.064163417 -0.92388415 -0.38267228 7.9403826e-06 0
-0.47775161 0.11634651 0.063435204 0.92497146 -0.38003615 0.00056063943 8.6179585e-05
0.10833384 0.11961083 0.065391682 -0.92387444 -0.38269573 -5.8760506e-06 0
0.11054092 0.11428247 0.062215775 -0.92387873 -0.38268536 -3.5203793e-06 0
0.1890246 0.1120822 0.064307913 -0.92386496 -0.38271856 -6.235372e-06 0
-0.47479209 0.12349141 0.067845121 0.92388189 -0.38267776 4.470754e-05 5.8533842e-05
-0.39672095 0.12469581 0.069569767 0.91549468 -0.40232992 6.2639898e-05 0.00043356349
0.10612307 0.12494811 0.067932241 -0.91508526 -0.40325779 0.0014613377 0.00048318779
0.18271673 0.12731066 0.062168568 -0.92388642 -0.38266671 -8.3388177e-06 1.1111036e-06
-0.47051078 0.13382743 0.064511918 0.92386669 -0.38271439 1.2323492e-05 3.5949103e-07
-0.39340222 0.13270797 0.06782674 0.88757634 -0.46065921 -0.001152969 0.0024796405
0.10272925 0.13314153 0.067836009 -0.88924181 -0.4574115 0.004871489 0.0015548345
0.180678 0.13223264 0.065984584 -0.92386782 -0.3827115 2.796738e-06 0
-0.46625721 0.1440964 0.063327223 0.92388546 -0.38266909 1.1138603e-06 5.0389939e-05
-0.3863419 0.14583267 0.067682698 0.84240091 -0.53860199 -0.016391579 0.0020798622
0.17589211 0.14378673 0.067791879 -0.92387789 -0.38268742 1.7115652e-05 9.6443205e-07
-0.46006972 0.15903427 0.061768755 0.92110074 -0.38932315 -0.00096662412 0.00018332206
-0.4598133 0.15965346 0.068990491 0.92106736 -0.389402 -0.00097054522 0.00020968572
-0.37822783 0.15640709 0.068565503 0.81158102 -0.58418345 -0.0081234872 0.00064955116
0.08902438 0.15472601 0.067039415 -0.81222397 -0.58331925 0.0055671167 0.00070184335
0.091271915 0.15179697 0.060604434 -0.81728047 -0.57624 -0.00018269455 0.00069801469
0.1698308 0.15842001 0.069197923 -0.91840905 -0.395632 -0.00026516174 0.00032159197
-0.45722371 0.16590524 0.063800678 0.90080303 -0.43419001 0.0057373564 0.0014013934
-0.37355185 0.16250095 0.06442152 0.79400057 -0.60791695 1.7635065e-06 7.7317163e-06
0.083944961 0.16134566 0.064605363 -0.79348266 -0.60859281 -3.7763519e-05 0
0.1660502 0.1675472 0.065213218 -0.90282226 -0.43001252 0.0010601333 0.0015170294
-0.45337623 0.17519388 0.065362819 0.86604124 -0.49929914 0.025940957 0.0018434785
-0.3674491 0.17045419 0.061346523 0.7933439 -0.60877365 1.044747e-05 3.1827105e-05
0.070939809 0.17829432 0.065370001 -0.79335624 -0.60875762 1.7281187e-05 1.3946392e-05
0.16187179 0.17730352 0.0664175 -0.86609954 -0.49987021 0.0011254151 0.0026988026
-0.44361639 0.18891761 0.067944154 0.81381953 -0.58111763 -2.3972185e-05 0.00090963341
-0.3568503 0.18426682 0.069167711 0.7877394 -0.61600804 0.0007648606 0.00015793352
0.062755451 0.18896042 0.066922195 -0.76862574 -0.63968414 -0.0043180576 0.00073487597
0.15682058 0.18409888 0.06624838 -0.8346436 -0.55078375 0.0027093729 0.0018568368
-0.44040465 0.19310324 0.062781073 0.79923242 -0.60101998 -0.0016270073 0.00025450537
-0.43820626 0.19596826 0.064739883 0.79833561 -0.60220951 -0.0020137252 0.00012436051
-0.35123789 0.19158107 0.06832242 0.758268 -0.65193123 0.003912942 0.0011544999
0.059072487 0.19376011 0.060291313 -0.74182439 -0.67046559 -0.013131622 0.0021641774
0.061039198 0.1911971 0.064563833 -0.75462288 -0.65613174 -0.005962979 0.0014508786
0.1477963 0.19585954 0.062240869 -0.79865426 -0.60178286 0.0029712683 0.0002292976
0.15122601 0.19138984 0.064309098 -0.81771368 -0.57559234 0.0061463341 0.00093830004
-0.43109685 0.20523338 0.064740449 0.79335183 -0.6087634 2.7397318e-05 8.3841958e-05
-0.33440128 0.20785309 0.064376563 0.64368612 -0.76528305 0.0031598785 0.00076611055
0.049234115 0.20376617 0.065930754 -0.66409671 -0.74762964 -0.0050499346 0.0015852789
-0.42712125 0.2104145 0.061058536 0.79331422 -0.60881239 -3.4529203e-05 0
-0.32697845 0.21354879 0.064833842 0.61336279 -0.78979945 0.001712824 9.6815544e-05
0.038248867 0.21219544 0.065900221 -0.62671399 -0.77924907 0.00062674069 0.000356198
0.040718254 0.21030062 0.064872541 -0.63706344 -0.77081114 -0.00056181249 0.0005797497
0.13192482 0.2165437 0.069421031 -0.79337019 -0.6087395 1.9398261e-05 1.6284441e-05
-0.41913503 0.22082233 0.061118752 0.79333997 -0.60877883 1.1595971e-05 3.4362132e-05
-0.30774039 0.22831069 0.06483753 0.60874718 -0.79336429 -8.1429625e-06 4.3555508e-05
0.016378442 0.22897719 0.061028354 -0.60714698 -0.79458892 -0.00098895805 3.4714914e-05
0.12539455 0.22505413 0.061420836 -0.79335314 -0.60876167 -4.9345463e-06 5.6778795e-06
-0.40769506 0.23573117 0.061731644 0.79200757 -0.61051106 -0.00054913264 0
-0.3001374 0.23414463 0.067977488 0.58429676 -0.81153888 0.001390898 0.00086401647
-0.29884636 0.23513527 0.068185195 0.57996476 -0.81462699 0.0048793848 0.00088945514
0.0031780992 0.23910615 0.068182081 -0.55238426 -0.83354282 -0.0088315113 0.0017597434
0.011079568 0.23304316 0.062265746 -0.60247612 -0.79813689 -3.7848105e-05 0.00011486524
0.1203814 0.23158741 0.060239471 -0.78986907 -0.61327547 -0.00016226282 5.1350598e-05
-0.40417978 0.24031241 0.069157265 0.77345312 -0.63384825 0.002612727 0.00057574298
-0.2887435 0.24288742 0.067963913 0.51777655 -0.85551542 0.0008371236 0.0019631188
-0.27477074 0.2494743 0.067714125 0.43853784 -0.89871275 0.00016447312 0.0014333719
-0.0025893913 0.24343474 0.064376704 -0.50798428 -0.86127561 0.012504566 0.0023718809
0.00068202207 0.24102145 0.069082014 -0.52437603 -0.85146779 0.0056974487 0.0023953251
-0.26109636 0.25513846 0.067311242 0.38265932 -0.92388946 5.8552354e-07 5.2167477e-05
-0.25590274 0.25728971 0.062916785 0.38268322 -0.92387962 -5.2227947e-06 7.7633507e-05
-0.040137623 0.25958738 0.067232154 -0.38267499 -0.92388302 -1.5481151e-05 0
-0.031869844 0.25616273 0.063493483 -0.38268897 -0.9238773 2.4753083e-06 0
-0.024519995 0.25311834 0.064557821 -0.39471883 -0.91880029 -0.001739586 0.00015225762
0.095479526 0.25861558 0.069743007 -0.65261209 -0.75759184 -0.012329808 0.0011613609
0.10365777 0.25234029 0.067427009 -0.70614028 -0.70725107 -0.034087263 0.0020177676
-0.38242906 0.26133484 0.067095667 0.62087774 -0.78390706 0.00083238824 0.00015947798
-0.3750771 0.26697621 0.067485996 0.60879886 -0.79332459 1.8833217e-06 0
-0.24598086 0.26139951 0.067707933 0.38270506 -0.92387056 2.4438939e-06 0
-0.23501579 0.26594138 0.062284101 0.37086767 -0.92868525 -0.000931332 0.00022853837
-0.064859807 0.26982766 0.066567473 -0.30694053 -0.95172852 0.00057544815 0.0025027243
0.085680574 0.26613453 0.067438088 -0.60876673 -0.79334933 -2.2100503e-06 0
-0.36199161 0.27701703 0.069056734 0.60890055 -0.79324657 -4.5659945e-05 4.7112015e-05
-0.22339562 0.27075464 0.063380055 0.32811993 -0.94463533 -0.0011488735 0.0014618372
-0.21551114 0.27299941 0.063051447 0.24990924 -0.96826917 0.00030562421 0.0018866307
-0.17649081 0.27835417 0.064619824 0.1305721 -0.99143881 1.0658868e-05 0
-0.16632426 0.27969259 0.064713016 0.11923292 -0.99283868 -0.0074092001 0.00024854988
-0.12279892 0.27951223 0.069069855 -0.12197143 -0.99253315 0.00097917777 8.5106098e-05
-0.11429755 0.278393 0.061876476 -0.13054363 -0.99144256 6.1300257e-06 2.0292497e-05
-0.1062741 0.27733666 0.068097927 -0.13051587 -0.99144626 -2.4018706e-05 0
-0.094287306 0.27575859 0.067986071 -0.14067547 -0.99005473 -0.0014118551 0.00021264382
-0.085848853 0.27464765 0.066356346 -0.15628566 -0.98766309 -0.0098181162 0.00069602608
-0.072192527 0.27277806 0.063795514 -0.26733914 -0.96358997 -0.0049134963 0.0029660314
-0.066828609 0.27064317 0.066132814 -0.29430491 -0.9557097 -0.0018777635 0.0029372529
0.07531067 0.27409166 0.064445265 -0.6087817 -0.79333776 7.5207599e-06 2.7415022e-05
-0.3524614 0.28432983 0.063843608 0.60884023 -0.79329282 4.390904e-06 4.5241004e-06
-0.16321769 0.2801016 0.06075 0.096502215 -0.99526072 -0.011975816 0.0006407277
-0.1521467 0.28155911 0.062442653 0.048376184 -0.99875128 -0.01247119 0.0020331319
-0.13371772 0.28094971 0.064241432 -0.07456883 -0.99717069 -0.0094954502 0.0011963493
0.058378726 0.28708404 0.06508258 -0.6087597 -0.79335475 8.345829e-06 0
0.063297652 0.28330964 0.063794866 -0.60876805 -0.79334825 -2.4315198e-06 1.1974512e-05
-0.33681187 0.2963382 0.066899166 0.5942533 -0.80427784 0.00051778206 0.00039361144
0.043064728 0.29883486 0.061153851 -0.57515204 -0.81803763 -0.0038103494 0.0011116733
-0.3302398 0.30138111 0.069903769 0.56954157 -0.82194477 -0.0053987806 0.0010366151
-0.32505357 0.30536065 0.063545309 0.52852321 -0.8488934 0.0065679685 0.0023634292
-0.31958675 0.30848324 0.064339541 0.48370156 -0.87514335 0.012527387 0.0021776778
0.02936795 0.30836946 0.065389022 -0.48473689 -0.87461597 0.0087809404 0.0021841701
0.035459112 0.30467087 0.064545922 -0.5336867 -0.84558612 0.012755219 0.0022187324
0.040446777 0.30084369 0.060485322 -0.55237544 -0.83359534 0.00050701253 0.0020253586
-0.31504923 0.31036276 0.061613336 0.47400555 -0.88049984 0.0062342258 0.0021134194
0.0051644398 0.31839493 0.066605166 -0.38268948 -0.92387706 -2.1207763e-05 1.105415e-05
0.014453812 0.31454712 0.060528133 -0.40988141 -0.91213429 0.0028732873 0.00065705751
0.02093938 0.31186074 0.062639348 -0.44216293 -0.89693475 -0.00026536343 0.0011164875
-0.28288472 0.32368571 0.069130719 0.38271949 -0.9238646 -4.6704426e-06 1.0001493e-05
-0.27635199 0.32639167 0.063765913 0.38264927 -0.92389369 -1.4568475e-05 0
-0.022185387 0.3297236 0.063762367 -0.38268831 -0.92387748 -2.673489e-06 3.1277928e-06
-0.01616917 0.32723159 0.068810485 -0.38268867 -0.92387742 -5.8942437e-06 4.4095636e-06
-0.2634654 0.33172947 0.065785289 0.3826687 -0.92388564 -3.7733139e-06 0
-0.2573801 0.33425006 0.064376757 0.37948316 -0.92519855 0.00013616636 3.9314127e-05
-0.033754863 0.33451581 0.06435848 -0.38268423 -0.92387921 -4.5070556e-06 0
-0.026069751 0.33133256 0.066715479 -0.38268763 -0.92387784 2.4742681e-06 0
-0.24162111 0.34077767 0.062300351 0.29206675 -0.95634097 -0.010437846 0.002063961
-0.22602591 0.34411857 0.066105172 0.18517752 -0.98270202 -0.002455761 0.00091508549
-0.21793434 0.34518385 0.062246479 0.14358087 -0.98963845 0.00059059158 0.00025094073
-0.20421857 0.34698957 0.065424263 0.13054632 -0.9914422 -1.0684606e-06 1.9400048e-05
-0.19204074 0.34859282 0.061729636 0.13056947 -0.99143916 -9.3192523e-07 3.4139106e-05
-0.18731704 0.3492147 0.065764964 0.13058177 -0.99143755 -9.7225993e-06 0
-0.10415435 0.34934342 0.066218652 -0.13056844 -0.99143928 1.5067467e-05 5.9456652e-05
-0.095275521 0.34817451 0.067549095 -0.13051011 -0.99144697 1.7927656e-05 2.1843227e-05
-0.06413357 0.34407461 0.064298898 -0.17048478 -0.98535848 0.0019028212 0.00067203632
-0.05278299 0.34239757 0.062372778 -0.25982791 -0.96564269 0.0048615951 0.0029744513
-0.048995838 0.34082887 0.06558799 -0.29946527 -0.95404637 0.010769161 0.0025436662
-0.17201281 0.35122952 0.063666694 0.1283424 -0.99172992 0.00013491271 3.361065e-05
-0.16426292 0.35224983 0.061809141 0.11149988 -0.99375838 0.003484342 0.0006133545
-0.15541416 0.3534148 0.067280844 0.09848763 -0.9951337 0.0030098413 0.00072942511
-0.14327477 0.35443425 0.065316476 -0.0080425665 -0.9999522 0.0055595958 0.0029321979
-0.12175806 0.35166106 0.069209933 -0.12059133 -0.99270219 -0.00021861302 9.6370975e-05
-0.11372158 0.35060295 0.064287595 -0.13009439 -0.99150157 -9.7760203e-05 0
-0.16236061 -0.35250026 0.072635397 0.11381529 0.99349391 -0.0040028971 0.00034275092
-0.15095368 -0.354002 0.076719031 0.049565107 0.99860662 0.018111046 0.0022755489
-0.14459114 -0.35466704 0.079392381 -0.024232505 0.9996708 -0.0084293913 0.0026648429
-0.13265073 -0.35309505 0.077818453 -0.09568423 0.99538487 0.0073116235 0.00089888251
-0.12639651 -0.35227168 0.074701212 -0.1191659 0.99287325 0.0014953788 0.00013003082
-0.11077283 -0.35021478 0.071153171 -0.13055584 0.99144101 8.0106001e-06 1.5715175e-05
-0.2434293 -0.34002867 0.073171601 0.30018327 0.95387834 -0.0024745087 0.0019882969
-0.2227567 -0.34454897 0.071834303 0.18025082 0.98362041 0.00077682442 0.00093473197
-0.21517262 -0.34554744 0.076661348 0.14071149 0.99004817 0.0021948616 0.00027172916
-0.20967235 -0.34627154 0.073545635 0.13064289 0.99142951 -6.6412549e-06 0
-0.19080579 -0.34875539 0.07020466 0.13050292 0.99144793 -4.5862998e-06 0
-0.092814676 -0.34785056 0.073478676 -0.13047804 0.99145114 -1.0054928e-05 0
-0.08435604 -0.34673697 0.071520008 -0.13053262 0.99144405 -4.1378713e-05 0
-0.073696256 -0.34533358 0.076531358 -0.14086905 0.990026 0.0021111856 0.00021308368
-0.059506107 -0.34346539 0.07281813 -0.21473938 0.97663307 -0.0086534815 0.0020666774
-0.26365334 -0.33165157 0.079515763 0.38272437 0.92386264 3.6759688e-05 3.7208934e-05
-0.25307107 -0.33603489 0.078831896 0.37107247 0.92860276 0.0014318046 0.00021484458
-0.24735263 -0.33840358 0.077304684 0.33960089 0.94056606 0.0025785593 0.0009155813
-0.031929079 -0.33375958 0.07543356 -0.3680371 0.92980617 -0.0030179888 0.00025239112
-0.28375617 -0.32332471 0.075269148 0.38262296 0.9239046 -1.8564616e-07 2.7622877e-05
-0.27569926 -0.326662 0.078584261 0.38258719 0.92391938 1.3269982e-05 8.4248131e-05
-0.015683703 -0.32703048 0.075822487 -0.38268614 0.92387837 4.2294309e-06 0
-0.0016905194 -0.32123429 0.077352151 -0.38268393 0.92387927 -2.796932e-06 0
-0.31190735 -0.31166413 0.079753205 0.42775562 0.90388608 0.0038816009 0.0016027361
-0.3081671 -0.31321338 0.071837984 0.40190288 0.9156785 -0.0026358555 0.00061973609
0.017138625 -0.31343502 0.079248428 -0.40854383 0.91268939 0.0094930315 0.00079979736
0.023020064 -0.31099886 0.076093584 -0.41843614 0.90824211 0.0027262419 0.00075241562
-0.33059829 -0.30110604 0.071657151 0.53720528 0.84344506 -0.0033166809 0.001461035
-0.32685316 -0.30393824 0.074806333 0.53671843 0.84375757 -0.0025433027 0.0016844642
0.036693171 -0.30372399 0.073308699 -0.5424189 0.84010279 0.0030074294 0.0020232885
-0.33620554 -0.29680344 0.075505853 0.57506496 0.81810766 -0.00039024194 0.00080317497
0.049882472 -0.29360348 0.073527433 -0.60004365 0.79996729 0.00011476396 0.00010700988
-0.35752985 -0.28044069 0.072307564 0.60876274 0.79335231 -7.0969204e-06 2.0053289e-05
-0.34849864 -0.28737059 0.072784141 0.60863703 0.79344881 -1.5496878e-06 0.00010539947
-0.16358125 -0.28005373 0.079517625 0.12957557 0.99156952 -0.00027053902 4.0253031e-05
-0.15459087 -0.2812373 0.073430583 0.062720656 0.99803072 -0.00090367143 0.0018136314
-0.13100471 -0.2805925 0.07065358 -0.075775579 0.99711788 0.0037431505 0.0014070841
-0.36837584 -0.27211827 0.078443483 0.60870171 0.79339916 1.9745643e-05 2.2047287e-05
-0.20022285 -0.27522975 0.075633273 0.14650501 0.98919773 0.0049169892 0.00035616246
-0.1930168 -0.27617845 0.071807981 0.13281746 0.99114025 -0.0006396051 0
-0.18023169 -0.27786165 0.070818342 0.13050771 0.99144727 1.7592181e-05 0
-0.17739013 -0.27823576 0.076691523 0.13055539 0.99144101 5.1219354e-06 0
-0.12435772 -0.27971742 0.078574896 -0.12881732 0.99166816 -0.00056325295 4.1877161e-06
-0.094605364 -0.27580047 0.075076573 -0.13310653 0.99110132 0.00095034234 1.7332199e-05
-0.082325548 -0.27418381 0.077386759 -0.20859775 0.97791767 0.012806919 0.0021777085
-0.077699348 -0.27357474 0.077571034 -0.21456048 0.97642606 0.023579933 0.0025597662
0.072329476 -0.27637923 0.074021488 -0.60873818 0.7933712 1.3604343e-05 0
-0.38359922 -0.26043698 0.074912637 0.63194394 0.77495539 0.009533938 0.00082431082
-0.37820643 -0.26457503 0.078662179 0.60952932 0.79276335 -0.00044709432 5.7376415e-05
-0.24686509 -0.26103324 0.074909769 0.38269326 0.92387545 -2.3039836e-05 0
-0.055840623 -0.26609179 0.07322789 -0.35352412 0.93542302 -0.0021429767 0.00080464163
-0.048532698 -0.26306474 0.073037431 -0.38263258 0.9239006 -7.5154814e-05 1.444484e-05
0.089117669 -0.2634972 0.074577346 -0.61801702 0.78616112 0.0023734167 0.00021471373
-0.39484262 -0.25166267 0.078510955 0.70146054 0.71264744 0.0093143927 0.0025112939
-0.3862865 -0.25837499 0.073712051 0.64089555 0.7674154 0.018069146 0.0011201847
-0.2718491 -0.25068453 0.074302182 0.41297385 0.91060382 0.015915435 0.00079487159
-0.25875434 -0.25610855 0.074621104 0.38355345 0.9235186 0.00045440593 0
-0.040025674 -0.25954103 0.07387805 -0.38268322 0.92387968 -1.0187113e-05 0
-0.022167325 -0.25214386 0.074418969 -0.40390879 0.91479892 -0.00080175768 0.0006000498
-0.017590962 -0.25024828 0.073162816 -0.41564131 0.90952438 0.0027742339 0.00080269901
0.094801463 -0.25913587 0.073347032 -0.63089341 0.77581388 0.0092905154 0.00054730807
0.10431388 -0.25183678 0.075103045 -0.69713742 0.71689147 0.0081227887 0.002244273
-0.40282753 -0.24207467 0.072754458 0.75603986 0.65436029 0.014711062 0.0011847791
-0.27903086 -0.24770975 0.079034641 0.43667921 0.8994444 0.017636966 0.0011967308
-0.0016013514 -0.24277359 0.071861841 -0.51502681 0.85717237 -0.001719401 0.0021049862
0.10884432 -0.24662289 0.071319185 -0.74030012 0.67219776 -0.010287886 0.0023068285
-0.29362971 -0.23913819 0.074443698 0.54626983 0.83759165 -0.0054251649 0.0018391303
0.0082718125 -0.23519763 0.070360586 -0.60560584 0.79576343 -0.0014765414 1.9475599e-05
0.014420688 -0.23047948 0.079187512 -0.60503924 0.79619455 -0.001334706 1.9998719e-05
-0.41816419 -0.22208755 0.073402844 0.79328227 0.608854 8.7373228e-06 2.6831711e-05
-0.31106129 -0.2257625 0.079778962 0.60882109 0.7933076 2.7271e-05 2.4105655e-05
-0.30669272 -0.22911459 0.074107498 0.60636997 0.79518169 0.0012132659 6.2826257e-06
0.02087912 -0.22552374 0.07951621 -0.6087845 0.79333562 4.3145931e-07 2.0085599e-05
0.12643388 -0.22369966 0.076323032 -0.79331762 0.60880792 -2.0283533e-05 0
-0.42731676 -0.21015975 0.076889031 0.79332221 0.60880202 1.9516594e-05 0
-0.41984153 -0.21990165 0.078166001 0.79331309 0.60881382 -1.8453315e-07 6.6547291e-05
-0.33028114 -0.21101458 0.075334631 0.62945336 0.7770347 -0.0023267679 0.0003875026
-0.32315528 -0.21648243 0.075161085 0.60877615 0.79334193 1.7230672e-05 2.5734933e-05
-0.31919432 -0.21952179 0.072471082 0.60871285 0.79339063 2.6995456e-05 4.3460277e-05
0.029249178 -0.21910116 0.070728555 -0.60877347 0.79334414 8.1816688e-06 1.069244e-05
-0.43251482 -0.20338547 0.07554929 0.79332572 0.60879749 -4.8889447e-05 0
-0.42904532 -0.20790699 0.072470568 0.79330277 0.60882729 -1.2820306e-05 0
-0.33719444 -0.20570979 0.076438546 0.66277534 0.74873728 0.011014553 0.0009297572
0.046705924 -0.20570615 0.077205904 -0.66062868 0.75049794 0.017960005 0.0014246259
0.14343756 -0.20153999 0.073388219 -0.79334766 0.60876882 -3.4753443e-06 2.6402311e-06
-0.34697881 -0.19708771 0.07796225 0.72133332 0.69233358 0.018774111 0.0019361024
0.059945866 -0.19262193 0.076425485 -0.75488997 0.6557371 0.012248803 0.0010343881
0.14786825 -0.19576579 0.076406583 -0.80051881 0.59930182 0.002649406 0.00012513591
-0.45026943 -0.18024723 0.075498156 0.8448019 0.53501183 -0.0084913699 0.0019984902
-0.44454771 -0.18770389 0.078181848 0.81795871 0.57527292 -0.0021387653 0.0008861181
-0.35742188 -0.18352194 0.07775142 0.79318041 0.60898674 -2.3129618e-05 0
0.067687005 -0.18253347 0.07808698 -0.78899997 0.61438912 -0.0022440166 6.6474939e-05
0.15635946 -0.18469977 0.072854273 -0.83842725 0.54496771 0.0070669898 0.0016611529
-0.45406997 -0.17351905 0.078694806 0.88204271 0.47112146 -0.0067163995 0.0016129001
-0.36446562 -0.17434235 0.075056218 0.79326952 0.60887069 5.1869443e-05 1.5856351e-05
0.071388498 -0.17770958 0.072552785 -0.79336363 0.60874802 5.9404448e-07 5.1123611e-06
0.16278569 -0.17539704 0.076240219 -0.87217379 0.4891572 0.0061826636 0.0022500383
-0.45790651 -0.16425678 0.073141754 0.90471786 0.42597756 -0.0053423871 0.0013536337
-0.37272584 -0.16357741 0.071576938 0.79333258 0.60878855 4.7916469e-06 3.2602344e-05
0.078749359 -0.16811672 0.075904839 -0.7933417 0.60877657 -5.0064468e-06 0
0.080245256 -0.16616721 0.073050447 -0.79335546 0.60875869 -4.3434278e-07 3.8663675e-06
0.16818328 -0.1623974 0.078520767 -0.90841466 0.41769925 -0.017612111 0.00082316488
-0.38310975 -0.15004484 0.07432729 0.82803267 0.56064802 0.0059698918 0.0018552267
-0.37880561 -0.15565404 0.079750866 0.80109608 0.59853578 -3.5353383e-05 0.00016536897
0.092189148 -0.15060161 0.074536905 -0.81913626 0.57356882 0.0058839703 0.0011880654
0.16990174 -0.15824877 0.070008457 -0.91758555 0.39753604 -0.0013181726 0.00050474249
-0.38491595 -0.14769097 0.071573377 0.82994998 0.55783576 0.0015201918 0.0015358496
0.173601 -0.14931794 0.078296736 -0.92384475 0.38276732 -2.6676888e-05 0
-0.39115795 -0.13812616 0.074639678 0.87784362 0.47834164 0.024079058 0.0026946459
0.18113157 -0.13113758 0.076324955 -0.92386246 0.3827247 -1.4655668e-05 0
-0.47463736 -0.12386493 0.074150264 0.92386168 0.38272655 -1.2801782e-05 0
-0.39697328 -0.12408671 0.079207122 0.91060054 0.413021 0.014842261 0.00074901048
0.10581037 -0.12570307 0.07206928 -0.91232204 0.4094716 0.001217011 0.00056395523
-0.47836885 -0.11485638 0.075976707 0.92386514 0.38271812 -1.6001068e-05 0
-0.40011761 -0.11649559 0.073457591 0.92387432 0.38269588 3.6675351e-06 1.1099636e-05
0.11042343 -0.11456608 0.074003041 -0.92387664 0.38269043 -7.0526376e-06 0
-0.48310801 -0.103415 0.079646222 0.9456355 0.32522681 -0.0010422687 0.001419395
-0.40662998 -0.10077327 0.070079625 0.92389923 0.38263595 -1.7176899e-05 0
0.19291285 -0.10269511 0.075625479 -0.94104159 0.33828622 -0.0017716959 0.0015467332
-0.48652968 -0.09515442 0.074170105 0.96421111 0.26510555 0.0039945473 0.0020385056
0.11762768 -0.097173497 0.074741982 -0.9247461 0.38058355 0.00091402617 1.340701e-05
-0.48877776 -0.08524131 0.077658564 0.97706401 0.21285805 0.0061201872 0.0012043262
0.12224858 -0.086017661 0.075449795 -0.93762505 0.34741744 0.012659346 0.00077104021
0.19785503 -0.088503227 0.076345325 -0.97263741 0.23190205 0.014067504 0.0024170633
-0.489925 -0.076527238 0.072165035 0.98642737 0.16416538 -0.0032845421 0.00068843481
-0.41702846 -0.07564795 0.076504052 0.95907027 0.2831032 0.0060680453 0.002941512
0.12694654 -0.074675784 0.073204175 -0.96135962 0.27519044 -0.0076106614 0.0026076382
-0.49106517 -0.067866839 0.072175004 0.99063796 0.13651453 0.00044360294 3.121487e-05
0.12889975 -0.063204356 0.075991869 -0.98006105 0.19859962 -0.0062102289 0.0018538382
0.2008549 -0.065716982 0.074924037 -0.9914453 0.13052274 1.0653504e-05 2.4420617e-05
-0.49341658 -0.050006226 0.078769639 0.99144417 0.13053145 1.0966455e-05 1.879224e-05
-0.42072845 -0.053061981 0.075954162 0.98944688 0.14488387 0.0018750341 2.9200632e-05
0.20179854 -0.058549162 0.078654706 -0.9914453 0.13052291 4.9464566e-06 2.2080441e-05
-0.49381071 -0.047012422 0.072799332 0.99144512 0.13052376 -2.7303618e-05 1.5302441e-05
-0.42200309 -0.043380357 0.073920012 0.99144495 0.13052543 1.5714514e-06 5.0012692e-05
0.20378052 -0.04349466 0.07429938 -0.99144447 0.1305293 1.4889304e-05 3.5888585e-05
-0.49507985 -0.037372317 0.073594466 0.9914428 0.13054161 3.3221284e-05 0.00015541632
0.13242416 -0.036433842 0.077467263 -0.99144578 0.13051921 1.9350848e-06 6.5367167e-06
0.20480148 -0.035739589 0.074692942 -0.99144429 0.13053028 3.7905281e-06 4.7417063e-05
0.45665622 -0.034930695 0.076354377 -0.3871769 -0.92080909 0.046952378 0.035205368
0.46636173 -0.036473647 0.074062854 -0.011286702 0.99993491 0.0016287469 0.033118255
0.4788934 -0.034372397 0.077700265 -0.4252089 0.90401709 0.044164363 0.032536857
-0.49692911 -0.023325877 0.073039055 0.99187803 0.12719266 -2.3129605e-05 9.1829243e-06
0.13382475 -0.025795225 0.074298248 -0.99144495 0.13052577 -1.9298059e-06 3.4336263e-06
0.20643941 -0.023298174 0.071074769 -0.99216759 0.12488813 -0.0025343292 7.375759e-05
0.44334167 -0.024464352 0.077629991 -0.8678298 -0.47681794 0.13970007 0.054220229
0.49381524 -0.02195568 0.076000676 -0.89058495 0.44466215 0.095572367 0.026578166
-0.49761236 -0.018135859 0.076160669 0.99438018 0.10574722 -0.0050732656 0.00059181929
-0.42570722 -0.015244405 0.077370852 0.99522513 0.097100437 -0.0099191926 0.00082395831
0.13585724 -0.010356992 0.077638894 -0.99739277 0.072163381 -0.00030564485 0.0012484555
0.20743144 -0.015762739 0.076479204 -0.99343568 0.11415283 -0.0073966123 0.00023686184
0.44223329 -0.014200647 0.071529448 -0.95808387 -0.20826086 0.19673003 0.026037801
0.49660242 -0.011564666 0.079093456 -0.95032233 0.28019708 0.13556209 0.024421364
-0.4994981 -0.0038124686 0.075654976 0.99908054 0.042624913 -0.0046034995 0.0019923258
-0.42745867 -0.0019406285 0.072458774 0.99979699 0.012551021 -0.015760748 0.0019547532
0.13691922 -0.0022904023 0.071588442 -0.99968356 0.024126228 -0.0071284338 0.0024127937
0.20861807 -0.0067492789 0.076540217 -0.99842608 0.05587488 -0.0048338599 0.0017561511
0.44341528 -0.0041229567 0.078035101 -0.98727608 -0.061669771 0.14656995 0.0062233252
0.49568003 -0.0057155886 0.072738551 -0.96678931 0.17930643 0.18212016 0.01154781
-0.4987351 0.0096079381 0.078130424 0.99830383 -0.056950018 -0.012089231 0.001909673
0.13599394 0.009318565 0.071417361 -0.99698001 -0.077651858 -0.0009867117 0.0013606624
0.2087279 0.0059148399 0.077816106 -0.99856311 -0.053578772 0.001016284 0.0018521645
0.44322079 0.0071025984 0.076964512 -0.98019958 0.12870431 0.15047869 0.010757052
0.49542865 0.002274286 0.071354724 -0.99077499 -0.040229354 0.12940839 0.010425537
-0.49805281 0.014790393 0.075109601 0.99464756 -0.10308868 -0.0070032058 0.00027061859
-0.42534009 0.018033095 0.072266079 0.99428391 -0.10676783 3.0438398e-05 0.00033779157
0.13561739 0.012178765 0.074340284 -0.99501967 -0.099650212 -0.0023982818 0.00071274664
0.20767447 0.013916652 0.07039696 -0.99552417 -0.094368741 0.0051061395 0.00086744118
0.44260335 0.014478903 0.073566251 -0.93135107 0.30921271 0.19228277 0.027253205
0.49603999 0.013621543 0.074719526 -0.95357668 -0.29451302 0.062877342 0.018280284
-0.42436337 0.025451746 0.076128833 0.99198997 -0.12631598 0.00047835978 0
0.44564193 0.028108884 0.077135682 -0.77931923 0.59973466 0.18160398 0.052943666
0.48610216 0.029545195 0.072212994 -0.60686779 -0.78674269 0.11290485 0.045611914
-0.42350653 0.031960234 0.071553081 0.9914453 -0.13052282 5.6601639e-06 0
0.13195921 0.039965484 0.070723645 -0.99144459 -0.1305283 2.0075702e-06 0
0.20500919 0.034161747 0.072608359 -0.991445 -0.13052498 3.1394061e-06 0
0.45757398 0.035303831 0.074463122 -0.35215694 0.93443465 0.053079203 0.082719736
0.46247494 0.036190189 0.079283394 -0.18927366 0.9819175 -0.0036737858 0.047571816
0.47397137 0.035885848 0.074844852 -0.049508728 -0.99778825 0.044357032 0.019264411
-0.49344575 0.049784489 0.078358471 0.99144232 -0.13054559 -1.6889084e-05 0
-0.42168766 0.045775995 0.075692713 0.99132031 -0.13146876 -8.5389933e-05 0
0.20362744 0.04465742 0.074593559 -0.99144351 -0.13053666 -8.2340994e-06 0
-0.49246418 0.057240151 0.070216343 0.99144185 -0.13054883 -8.5542177e-07 0
0.13030097 0.052561052 0.078185953 -0.99096602 -0.13411322 -0.00012234773 4.0052528e-05
0.20260926 0.052391283 0.075836487 -0.99144381 -0.1305341 -2.9296862e-06 0
0.12912661 0.061481282 0.079103515 -0.98366153 -0.17998131 -0.0040844101 0.0011904533
0.20053813 0.068123035 0.07434506 -0.99001831 -0.14093815 0.00046321668 0.0001221368
-0.48981184 0.07738664 0.077903859 0.98870391 -0.14987259 0.0016496831 0.00056637533
-0.41785407 0.073675901 0.07595212 0.96422321 -0.26377618 0.026377592 0.0021974656
0.20016855 0.070930324 0.075666249 -0.9900232 -0.14090002 0.0011778838 0.0001263436
-0.48899588 0.083584704 0.070652418 0.97928303 -0.20244847 0.0043970491 0.0016919773
0.19874883 0.081714153 0.075736068 -0.98382258 -0.17892699 0.0088440692 0.00081034622
-0.48490471 0.099077359 0.076454803 0.94784319 -0.31833044 -0.016092079 0.0015819193
-0.40925419 0.094437905 0.070619427 0.9272173 -0.37452269 0.00089017756 4.3566815e-05
0.11666131 0.099506512 0.070483133 -0.92387897 -0.38268459 1.9014983e-06 6.8604809e-06
0.19563654 0.096119583 0.073581398 -0.96148354 -0.27483487 0.0038978118 0.0018977071
-0.48103032 0.10843092 0.077831164 0.93284571 -0.3602246 0.0060976855 0.00050722767
-0.40479162 0.10521146 0.075333491 0.92387176 -0.38270223 1.2291853e-05 4.9692462e-05
0.11608993 0.10088596 0.079983577 -0.92388517 -0.38266993 1.7544478e-05 3.0405561e-06
0.19306004 0.1023398 0.073977098 -0.94551307 -0.32535568 0.012199841 0.0012207152
-0.4779577 0.11584888 0.072631955 0.92510182 -0.37971848 0.0006766913 2.8250064e-05
0.11173133 0.11140856 0.078373879 -0.92387742 -0.38268852 -5.7952238e-06 0
0.18729362 0.11626115 0.078329027 -0.92387676 -0.38269016 -4.4354962e-07 7.8893918e-06
-0.47513598 0.12266113 0.071271747 0.92385614 -0.38273984 2.3852603e-05 6.8140602e-05
-0.39676756 0.1245833 0.075165249 0.91378081 -0.40620425 -0.0016682118 0.00050278183
0.10449126 0.12888765 0.07663963 -0.90062952 -0.43456668 0.0042792745 0.0011755399
-0.46867061 0.13826998 0.074668095 0.9238652 -0.38271812 3.48986e-05 8.1818391e-05
-0.39339548 0.13272421 0.075699598 0.8959012 -0.4441894 -0.0075388653 0.0017460169
0.10346905 0.13135545 0.076958001 -0.89139944 -0.45315987 0.0072999103 0.001537424
0.18038361 0.13294333 0.078631528 -0.92386639 -0.38271514 -8.400285e-06 0
-0.46463329 0.14801693 0.072646767 0.92386001 -0.38273069 -5.4632656e-06 0
-0.38500059 0.14758067 0.072706491 0.83790183 -0.54569471 -0.011738196 0.0014598519
0.095961474 0.1456188 0.076070271 -0.84047395 -0.54185092 -0.0010883496 0.001391114
0.17587662 0.14382415 0.074390672 -0.92388284 -0.38267541 4.6254936e-06 3.3784524e-06
-0.46008992 0.15898554 0.076183185 0.91615319 -0.40082568 0.001440139 0.00055748882
-0.38006669 0.15401062 0.072434828 0.80999881 -0.58643037 -0.001199868 0.00060135423
0.086153775 0.15846705 0.075919122 -0.79486597 -0.6067847 -0.00067812996 1.9465591e-05
0.090773158 0.15244697 0.078743234 -0.82706201 -0.56209219 -0.0045629353 0.001182773
0.17259559 0.15174523 0.076215103 -0.92310894 -0.38453823 -0.00046296665 1.2094322e-06
-0.45884201 0.1619983 0.070447452 0.91553098 -0.40224206 -0.0020714728 0.00055001589
-0.37212944 0.16435468 0.073298059 0.79334706 -0.60876954 -1.5878579e-05 0
-0.36993444 0.1672152 0.073543571 0.79335588 -0.60875809 1.7541201e-05 4.1493427e-06
0.078077286 0.16899258 0.078845419 -0.79347283 -0.60860574 3.1119246e-06 8.7292528e-06
0.16710366 0.1650039 0.071616657 -0.90998662 -0.41463321 -0.0018865485 0.00084007566
-0.45366472 0.17449731 0.074401632 0.86747521 -0.49729013 0.013757016 0.0026399586
-0.3634406 0.17567825 0.074037254 0.7933585 -0.60875469 2.2900331e-06 0
0.074260339 0.17396691 0.072499201 -0.79335237 -0.6087628 -1.2582593e-05 0
0.1604646 0.1793499 0.072285824 -0.84867269 -0.52891225 -0.0025283403 0.0017023039
-0.45000216 0.18059553 0.071272552 0.85682863 -0.515558 0.0066797002 0.002224071
-0.4464215 0.18526193 0.077351548 0.83703768 -0.54712874 0.0042510442 0.0015885085
-0.35491064 0.18679465 0.075054742 0.77543241 -0.63142776 -0.0019113247 0.0005244062
0.15631697 0.18475518 0.078785636 -0.83189213 -0.55486524 0.0089376606 0.0015132761
-0.44048643 0.19299664 0.074216254 0.79836738 -0.60217071 -8.4363186e-05 0
-0.43718711 0.19729641 0.076696016 0.79796177 -0.60270804 -0.00042233503 0.00014194967
-0.34938008 0.19400218 0.07581307 0.73993188 -0.67266864 -0.0042095273 0.001615653
0.057528246 0.19577265 0.075130962 -0.73333037 -0.67981631 -0.0087356204 0.0019953412
0.061928336 0.19003832 0.079289027 -0.75929016 -0.65067476 -0.010037844 0.001115437
0.14986475 0.1931639 0.076102532 -0.79537004 -0.60612237 -0.001466598 4.0497453e-05
0.15048419 0.1923566 0.074595004 -0.79999322 -0.60000157 0.0030004231 0.00023034467
-0.43365297 0.20190218 0.071526617 0.79333282 -0.60878819 4.2349788e-05 7.2787778e-05
-0.34150839 0.20239963 0.074866444 0.69003117 -0.72376764 -0.0041682259 0.0021727958
-0.33685672 0.20596896 0.075187102 0.6594258 -0.75165546 -0.013104685 0.0014774685
0.047600843 0.20501943 0.074883632 -0.65396976 -0.75647318 -0.0084727043 0.00098539144
0.13953039 0.20663193 0.073267847 -0.79337204 -0.60873699 -6.5205109e-07 8.5122638e-06
0.14020504 0.20575267 0.075069115 -0.79337555 -0.60873246 -1.4844236e-05 1.399326e-05
-0.42234388 0.21664049 0.071724087 0.7933479 -0.60876852 -2.9316097e-05 0
-0.31945598 0.21932098 0.076676548 0.60875142 -0.79336101 1.0109618e-06 4.8253821e-07
0.13338879 0.21463583 0.071591251 -0.79335982 -0.60875309 1.04214e-05 2.2994398e-05
-0.41483396 0.22642758 0.077510394 0.79325426 -0.60889047 1.2391244e-05 0
-0.31306025 0.22422859 0.079652674 0.60874385 -0.79336685 -2.3787456e-06 3.969733e-05
-0.3074407 0.22854064 0.074018054 0.60865778 -0.79343283 -2.4043225e-05 6.1546067e-05
0.027437638 0.22049117 0.076610848 -0.60875779 -0.79335612 4.168232e-06 0
-0.30286056 0.23205507 0.075302213 0.59957248 -0.80031836 -0.001807114 0.00026102498
0.0082428316 0.23521984 0.075749412 -0.58962142 -0.80765659 -0.0061200126 0.0005233523
0.012484696 0.23196495 0.076641753 -0.60705197 -0.79466206 -6.118881e-05 2.7362436e-05
0.11590676 0.23741889 0.074003153 -0.77539611 -0.63147283 -0.0016749665 0.00075603538
-0.2919727 0.24040961 0.077903569 0.5344348 -0.84519148 0.0055574216 0.0023062113
-0.2796587 0.24744964 0.077509455 0.46464691 -0.88549399 0.0019122335 0.0020021249
-0.0040200013 0.24408056 0.074752018 -0.50831831 -0.86107022 0.013061429 0.0020719126
0.11253086 0.24181846 0.070178404 -0.74775124 -0.66392142 -0.0087488126 0.0013248032
-0.39517018 0.25155821 0.070265248 0.69766015 -0.71634752 0.010798139 0.002388753
-0.38846093 0.25670639 0.076320685 0.65668142 -0.75413036 0.0075433259 0.0017302303
-0.26613599 0.25305092 0.078252859 0.3948459 -0.91874599 0.0015899889 0.0002855756
-0.25850198 0.25621304 0.077576585 0.3826617 -0.9238885 2.4364212e-05 8.5215281e-05
-0.2495196 0.25993368 0.071920492 0.38267419 -0.92388332 5.6656813e-06 0
-0.021405442 0.25182822 0.075204961 -0.40415838 -0.91465789 0.0075511918 0.00041958477
0.094029903 0.25972795 0.070996664 -0.64099914 -0.76749831 -0.0081547964 0.00080792146
-0.37285009 0.26868504 0.076741189 0.60880941 -0.79331648 1.4780257e-05 0
-0.23573208 0.26564467 0.071900517 0.3705636 -0.92880392 -0.0024477262 0.00016320862
-0.062965244 0.26904291 0.079343461 -0.32810238 -0.9446407 -0.0016475349 0.0015333223
-0.048077159 0.26287603 0.071593113 -0.37834567 -0.92566395 -0.00091925927 6.7512396e-05
0.082859069 0.26829958 0.078687191 -0.60877985 -0.79333919 1.7074799e-06 2.1484875e-05
-0.37025616 0.27067545 0.075554587 0.6087786 -0.79334021 -1.587125e-06 0
-0.36869854 0.27187067 0.075517014 0.60881197 -0.79331458 -2.4688673e-06 0
-0.35934684 0.27904648 0.075739563 0.60885364 -0.79328263 -3.5375248e-05 0
-0.21279377 0.27357477 0.075144738 0.20868687 -0.97797078 0.0047982847 0.0018312676
-0.19383392 0.27607089 0.074899584 0.13241565 -0.99119407 0.00060129003 1.6791839e-06
-0.18571913 0.27713922 0.076010019 0.13053001 -0.99144435 -1.9651628e-05 0
-0.17329726 0.27877462 0.07501483 0.13053299 -0.99144393 -2.8716187e-05 0
-0.1666657 0.27964765 0.074076384 0.12009612 -0.99276084 -0.0016858393 0.00026358734
-0.12001877 0.27914619 0.07598494 -0.12802455 -0.99177092 0.00028478086 0
-0.1128037 0.27819631 0.075689651 -0.13053349 -0.99144387 1.1300133e-05 2.8674701e-06
-0.10720664 0.27745944 0.071645603 -0.13054249 -0.99144274 1.3694414e-05 5.1700652e-05
-0.099790186 0.27648306 0.074062772 -0.13088131 -0.99139804 9.7982687e-05 3.1342453e-05
-0.075679347 0.27330881 0.073901027 -0.23691712 -0.9715268 -0.0024318455 0.0026295586
-0.067695528 0.27100226 0.079376981 -0.28566602 -0.95827764 0.0099428492 0.0020938474
0.076768786 0.27297282 0.070862383 -0.60876364 -0.79335159 1.5114196e-05 0
0.080335826 0.27023572 0.077714577 -0.6087963 -0.79332656 1.9579122e-05 4.7538324e-05
-0.35080421 0.2856015 0.078696169 0.6089738 -0.79319036 -2.315014e-05 0
-0.15738732 0.28086919 0.076643452 0.094803251 -0.9954958 -0.00075407571 0.0008476408
-0.14651293 0.28230083 0.071732603 0.0069587012 -0.9999755 -0.0007774398 0.0020713343
-0.13837194 0.28156245 0.074814089 -0.041264065 -0.99914587 0.0021827263 0.0017413337
0.057489302 0.28776646 0.074546263 -0.60879749 -0.79332566 1.1638395e-05 3.4777826e-05
0.062566057 0.283871 0.076140158 -0.60879612 -0.79332674 1.2715888e-05 3.8828977e-05
-0.3409304 0.29317793 0.078877173 0.60539943 -0.79592174 -0.0002894986 0
-0.33709452 0.29612133 0.07335493 0.58936673 -0.80786222 -0.0023093496 0.00049411628
0.045487899 0.29697549 0.075383723 -0.59017956 -0.80726832 -0.0024646274 0.0007310462
0.052631248 0.29149419 0.072596237 -0.60608113 -0.79540277 0.00026556739 7.8461358e-05
-0.32152116 0.30768198 0.071034163 0.51250941 -0.85863084 0.0093443869 0.0021046705
