# .PCD v0.7 - Point Cloud Data file format
VERSION 0.7
FIELDS x y z normal_x normal_y normal_z curvature
SIZE 4 4 4 4 4 4 4
TYPE F F F F F F F
COUNT 1 1 1 1 1 1 1
WIDTH 588
HEIGHT 1
VIEWPOINT 0 0 0 1 0 0 0
POINTS 588
DATA ascii
-0.026264574 -0.21393579 -0.38237903 -0.032160204 0.047029708 0.99837559 0.22242039
-0.0052086902 -0.21528526 -0.382379 0.083753578 -0.26809293 0.95974559 0.18557677
0.024123123 -0.21405736 -0.38237903 -0.34243751 0.38461658 0.85720855 0.21600339
0.032070599 -0.21890488 -0.38237903 -0.66222411 -0.54386485 0.515432 0.25615481
0.077194601 -0.21630059 -0.38237903 0.43098801 0.058725644 0.90044463 0.25508499
0.088669002 -0.21703441 -0.38237903 0.76469254 -0.25472397 0.59191298 0.18964829
0.094992951 -0.21054479 -0.38237903 0.52534473 -0.083225287 0.84680969 0.16982079
0.11603388 -0.21039571 -0.38237903 -0.075903684 0.056831431 0.99549419 0.0099869268
0.12473903 -0.21636958 -0.38237903 -0.17610666 0.10529503 0.97872341 0.039930381
0.13583119 -0.21776047 -0.382379 -0.56050348 0.3382161 0.75594026 0.11350253
-0.43419483 -0.20282911 -0.38076606 0.56096458 0.34772244 0.75127089 0.10620999
-0.42965624 -0.20874393 -0.38152361 0.65533286 0.3042787 0.69134176 0.10415685
-0.40416718 -0.20804058 -0.38237903 0.12889129 0.19036449 0.97321552 0.04003014
-0.37945727 -0.20064028 -0.38237903 -0.027026603 -0.18458997 0.98244399 0.1244375
-0.36020505 -0.2025685 -0.38237903 -0.40310836 0.045113426 0.91403961 0.17522883
-0.35835698 -0.20794895 -0.38237903 -0.35970965 -0.034822416 0.93241423 0.14090621
-0.34577572 -0.20602953 -0.38237903 0.96606773 -0.15267253 -0.20833705 0.17235717
-0.30716294 -0.20619115 -0.38237903 0.46124738 0.49149579 0.73870343 0.18364614
-0.29668507 -0.20142764 -0.38237903 0.41780832 0.27779236 0.86502469 0.19890833
-0.27345932 -0.20129877 -0.38237903 -0.38843003 -0.090473868 0.91702586 0.16160367
-0.26695392 -0.20114592 -0.38237903 -0.050825305 -0.0011231072 0.99870694 0.18402705
-0.23915903 -0.20313242 -0.38237903 -0.25946304 -0.10694452 0.95981348 0.20960669
-0.21699026 -0.20046729 -0.38237906 -0.22047821 -0.20438521 0.95373797 0.18672501
-0.20509028 -0.20342116 -0.38237903 0.058953971 -0.20632486 0.97670597 0.14007214
-0.1854292 -0.20279557 -0.382379 -0.33261001 0.042749893 0.94209504 0.19873577
-0.17597003 -0.20593782 -0.38237903 -0.13754296 -0.070493288 0.98798412 0.17948118
-0.14733475 -0.20703073 -0.382379 4.8158208e-06 7.351191e-05 1 0
-0.11798552 -0.20203115 -0.382379 0.014213444 -0.071258321 0.99735665 0.11040377
-0.082267858 -0.20763253 -0.38237906 -0.81571656 -0.048017234 0.57645547 0.2363348
-0.050229378 -0.20639643 -0.382379 0.81428719 0.19869964 0.54539412 0.18836287
-0.04223039 -0.2048023 -0.382379 -0.10730563 0.049934946 0.99297118 0.21064299
-0.0058936914 -0.20598409 -0.382379 -0.48829091 -0.21377847 0.84609139 0.26801312
0.078184478 -0.20693244 -0.38237906 -0.078473054 0.18119398 0.98031157 0.16578121
0.098206408 -0.20363179 -0.382379 0.16989897 0.10162716 0.98020726 0.12824567
0.10515032 -0.20179765 -0.38237903 -2.2446891e-05 6.5950517e-05 1 0
0.13505001 -0.20662616 -0.382379 -0.3042838 0.27424848 0.91224951 0.11597161
0.14620246 -0.20872706 -0.38237903 -0.52135503 0.30875123 0.79552603 0.12239153
0.15346272 -0.20318915 -0.38099551 -0.70479792 0.33756962 0.6239444 0.090364739
-0.43224359 -0.19926232 -0.38237903 0.42360011 0.39738119 0.81403381 0.091807216
-0.42224935 -0.19639584 -0.38237903 0.35833919 0.20380582 0.91107422 0.070326269
-0.41343281 -0.19730572 -0.382379 0.094924837 0.13306239 0.9865514 0.034479085
-0.40529883 -0.19517718 -0.38237906 0.029714109 0.05397436 0.9981001 0.0055865007
-0.35469782 -0.19067171 -0.38237903 0.050348584 0.1865865 0.98114759 0.14347547
-0.33117998 -0.19341247 -0.382379 -0.26961905 0.56783849 0.77773076 0.1888424
-0.2939018 -0.19340992 -0.38237903 0.52619004 0.31233647 0.79092979 0.20803279
-0.28453225 -0.1912095 -0.382379 0.12985243 -0.029247688 0.99110192 0.16277635
-0.27318853 -0.19605403 -0.382379 -0.046036068 0.13250445 0.99011278 0.23006339
-0.26891878 -0.19438307 -0.382379 -0.11986298 0.13938329 0.9829573 0.1551798
-0.2441411 -0.19093177 -0.382379 -0.17057839 0.19154871 0.96654654 0.18848129
-0.23264363 -0.19524354 -0.38237906 0.90591741 0.18549165 0.38066587 0.25502306
-0.18291746 -0.19531409 -0.38237897 -0.39063579 0.032696661 0.91996449 0.21191348
-0.16258894 -0.19201966 -0.38237903 0.053496212 -0.085653365 0.99488777 0.11347499
-0.13661526 -0.19552231 -0.38237903 -0.13253874 -0.050910633 0.98986948 0.18338382
-0.11748944 -0.19531235 -0.382379 -0.18552187 -0.15458708 0.97040433 0.23914608
-0.10910407 -0.1903449 -0.38237903 -0.054088444 0.22898287 0.97192657 0.19788384
-0.097251192 -0.19458897 -0.382379 -0.069823161 -0.019808475 0.99736267 0.14670548
-0.041475065 -0.19115299 -0.38237903 0.24039181 -0.011642182 0.97060615 0.12547205
-0.014703843 -0.19660504 -0.38237903 -0.24598426 -0.14704873 0.95805448 0.24161498
0.0056347679 -0.1973561 -0.382379 0.29534665 0.0095803048 0.95534211 0.19770955
0.014301654 -0.19910547 -0.38237903 -0.10289258 0.068067595 0.99236077 0.081208915
0.047713861 -0.19777098 -0.38237903 -0.50755978 0.80658263 0.30299747 0.22960661
0.05321081 -0.19701372 -0.38237903 0.46476319 0.86604869 0.18426809 0.15754426
0.064218111 -0.19524018 -0.38237903 0.39273965 0.38237923 0.83638614 0.22211961
0.084921665 -0.19140178 -0.38237903 -0.056935839 -0.1066644 0.99266362 0.076065324
0.093118332 -0.19455877 -0.38237906 -0.012875396 -0.10343726 0.99455267 0.072762385
0.1070535 -0.19615386 -0.38237906 0.012495843 -0.10157238 0.99474967 0.069797434
0.11911088 -0.19744486 -0.38237903 4.1254967e-05 0.00010713799 1 0
0.13339847 -0.195862 -0.38237906 -0.074511036 0.095485739 0.99263817 0.018845271
0.15628839 -0.19509472 -0.38237906 -0.61681885 0.51261145 0.59729731 0.11268722
-0.44458789 -0.18158434 -0.38237903 0.68549639 0.47333238 0.55321896 0.088818915
-0.42421037 -0.18459831 -0.38237903 0.16988152 0.2050468 0.96389639 0.046659719
-0.41398841 -0.18125582 -0.38237906 -0.080047794 -0.0078122979 0.99676043 0.065002829
-0.40548453 -0.1899512 -0.38237903 -0.0044183629 -0.15839973 0.98736513 0.090599746
-0.38575116 -0.188512 -0.382379 -0.13498624 -0.018269321 0.99067903 0.12992245
-0.37686712 -0.18304136 -0.38237903 0.064103097 0.30762345 0.94934642 0.14375414
-0.34516594 -0.18957944 -0.38237903 -0.27054995 0.17348376 0.94694567 0.17580497
-0.33776328 -0.18213776 -0.38237903 -0.38947591 -0.19386776 0.90040201 0.21178107
-0.32566586 -0.18366273 -0.38237906 0.13890538 -0.80844182 0.57195026 0.14982742
-0.30732036 -0.18509784 -0.38237903 0.20810831 -0.022746706 0.9778412 0.22337
-0.29683471 -0.18505946 -0.38237903 0.19414555 0.10476033 0.97536284 0.17489821
-0.28401184 -0.1890008 -0.38237903 0.12968656 -0.029295694 0.99112213 0.16278251
-0.27186865 -0.18564351 -0.38237906 -0.13164346 0.15720291 0.97875285 0.19258845
-0.26269126 -0.18592733 -0.38237906 0.050124831 0.38940123 0.91970336 0.21614414
-0.24584222 -0.18715411 -0.38237906 -0.2940442 0.26603743 0.91802073 0.22688194
-0.2330422 -0.18639827 -0.38237903 0.30108345 0.44177023 0.84509629 0.27704725
-0.21591114 -0.18867217 -0.38237903 -0.060398333 -0.059039313 0.99642682 0.17331263
-0.19532341 -0.18595175 -0.38237903 0.12698469 -0.042869452 0.99097782 0.12433978
-0.18309794 -0.18725154 -0.38237903 -0.25150245 0.099593714 0.9627189 0.14499651
-0.1586746 -0.18825722 -0.38237903 0.030818248 -0.13088381 0.99091858 0.12488889
-0.14035352 -0.18786749 -0.38237903 0.01585192 -0.12504494 0.99202448 0.16871719
-0.13407536 -0.18903649 -0.38237903 -0.11413025 0.064914234 0.99134278 0.17397204
-0.1201527 -0.18599677 -0.38237906 0.040855248 0.45204008 0.89106154 0.214628
-0.11492193 -0.18006042 -0.38237903 -0.12688197 0.13934706 0.98208106 0.086319461
-0.082677685 -0.18438233 -0.38237906 -0.078718044 0.046355277 0.99581861 0.13624084
-0.060644276 -0.18397334 -0.38237903 -0.033955328 -0.017383786 0.99927211 0.12870389
-0.050504711 -0.18696329 -0.38237903 0.70650709 -0.19972794 0.67893779 0.17427184
-0.022358827 -0.18272121 -0.38237903 -0.19886139 0.098166518 0.97509867 0.23059714
-0.017519886 -0.18388888 -0.38237903 0.47773191 0.68393356 0.55136842 0.18224323
0.0099517591 -0.18904829 -0.38237903 0.28373212 -0.33494294 0.89850396 0.19119813
0.013254543 -0.18070085 -0.382379 0.79463226 -0.40769231 0.44982937 0.14614405
0.025295138 -0.18539689 -0.38237906 0.20138319 -0.10851784 0.97348273 0.24574809
0.035072453 -0.1816182 -0.38237903 0.26104179 0.67238551 0.69264346 0.19668677
0.048846729 -0.18134883 -0.382379 0.12392704 0.76958084 0.6264084 0.23454662
0.056327984 -0.18519142 -0.38237906 0.095778704 0.99514639 -0.022582598 0.21439046
0.062066376 -0.18568663 -0.38237906 0.04921373 -0.29074699 0.95553339 0.21855089
0.087509647 -0.18087009 -0.38237903 -0.061825827 -0.014000829 0.99798876 0.072970882
0.094279468 -0.18625095 -0.382379 -0.083886199 -0.15440951 0.98443931 0.16167699
0.10437092 -0.18478498 -0.38237903 0.1120128 -0.13393697 0.98463905 0.1805483
0.1304123 -0.18632118 -0.38237906 -0.0069939015 0.0045041111 0.99996543 0.00020288999
0.14411584 -0.18785982 -0.38237903 -0.1662332 0.049553338 0.98484063 0.035601277
-0.45298895 -0.1711321 -0.382379 0.65009445 0.48772407 0.58266842 0.10977954
-0.44456494 -0.17355117 -0.38237903 0.47730678 0.42682818 0.76811188 0.10498035
-0.43150669 -0.17295462 -0.382379 0.2075329 0.10665673 0.97239631 0.056645233
-0.3942259 -0.1753848 -0.38237903 -0.041176625 -0.051991083 0.99779826 0.14807908
-0.36432797 -0.17929712 -0.38237903 0.11769172 0.049350474 0.9918232 0.091987014
-0.35500139 -0.17315343 -0.38237903 -0.030928329 -0.28880584 0.95688796 0.18304926
-0.32414159 -0.17653835 -0.38237903 0.67145687 -0.37493658 0.63919336 0.22884206
-0.3032797 -0.17231625 -0.38237906 0.1557847 0.04340085 0.98683709 0.17100912
-0.29332608 -0.17109075 -0.38237903 0.44909275 0.16205427 0.8786661 0.21178199
-0.28182882 -0.1731111 -0.38237903 -0.10316574 -0.034751389 0.99405694 0.1400702
-0.27281797 -0.17195348 -0.38237906 -0.14124368 -0.034803066 0.98936296 0.10164174
-0.23045656 -0.17658389 -0.38237903 -0.14633757 0.19671752 0.96947795 0.17124595
-0.21406969 -0.17040053 -0.38237903 0.3130134 -0.43727574 0.84309697 0.28167218
-0.19295791 -0.17414276 -0.38237903 0.04457901 0.025759228 0.99867368 0.093348138
-0.1829817 -0.17687541 -0.38237903 0.27588636 0.1249558 0.95303345 0.151107
-0.15415448 -0.17525049 -0.38237903 0.086599484 -0.023475762 0.99596661 0.2274688
-0.13612984 -0.17393258 -0.38237906 0.0074457126 -0.045331232 0.99894428 0.17048666
-0.12113547 -0.17423423 -0.38237903 0.17829511 -0.22101223 0.95883501 0.087763041
-0.10380654 -0.17854592 -0.38237903 0.053118624 -0.086539797 0.99483132 0.16756621
-0.094949186 -0.17471889 -0.38237906 -0.11744422 0.094073012 0.98861372 0.1522024
-0.082980037 -0.17150751 -0.382379 -0.12857805 0.048330139 0.99052107 0.22763354
-0.031917945 -0.17729977 -0.382379 -0.18535362 -0.014111171 0.98257053 0.24095096
0.022492964 -0.17212626 -0.38237903 0.72195125 -0.14201212 0.67721415 0.20314778
0.034158234 -0.17644827 -0.38237903 0.24739692 0.46805423 0.84836316 0.16952072
0.068994455 -0.17826661 -0.382379 0.24061893 0.062946022 0.96857643 0.15127982
0.090310119 -0.17371535 -0.38237903 -0.020965472 0.076690435 0.99683452 0.08621265
0.10465235 -0.17526814 -0.38237906 -0.19997521 -0.04932157 0.97855884 0.20784853
0.12219766 -0.17692095 -0.382379 0.055064343 -0.23862806 0.96954864 0.19234665
0.16662748 -0.17597347 -0.38237903 -0.333451 0.23187016 0.91380888 0.060669728
-0.45909131 -0.16228256 -0.38077801 0.76921934 0.30957305 0.55898654 0.08951401
-0.43871748 -0.1650791 -0.38237903 0.25782448 0.23765723 0.93650711 0.063484117
-0.42694163 -0.16816682 -0.38237903 0.030040983 0.022984292 0.99928439 0.0040535755
-0.41613299 -0.16692664 -0.38237903 0.022327818 -0.17188735 0.98486352 0.093042828
-0.39138365 -0.16458477 -0.38237906 -0.13851145 0.045857981 0.98929858 0.14411436
-0.38278472 -0.16632891 -0.38237903 -0.0081844712 -0.060394388 0.99814105 0.21994507
-0.36349729 -0.16298126 -0.38237903 -0.20550279 -0.65658736 0.72571462 0.22869924
-0.35666192 -0.16420561 -0.382379 0.013856544 -0.10589013 0.99428123 0.17734565
-0.31869948 -0.16663167 -0.38237903 0.19080986 0.074819282 0.97877157 0.2515955
-0.28516275 -0.16159998 -0.38237903 0.067646064 0.0051234756 0.99769628 0.065219119
-0.27790862 -0.16576749 -0.38237903 -0.21686441 0.004295283 0.9761923 0.11200868
-0.26009744 -0.16623172 -0.38237903 -0.31929144 -0.26763111 0.90908009 0.23065041
-0.24572138 -0.16555831 -0.38237906 -0.76006418 0.049714934 0.6479435 0.22585365
-0.23010665 -0.1659165 -0.38237903 0.053169254 -0.076943964 0.99561673 0.064755343
-0.20218818 -0.16318299 -0.38237903 0.12149559 -0.38582793 0.9145357 0.25434396
-0.17702638 -0.16514513 -0.38237903 -0.018810393 -0.054548003 0.99833393 0.070101678
-0.16842465 -0.16661787 -0.38237903 -0.39284918 -0.20298871 0.89691979 0.22781619
-0.15136775 -0.16527793 -0.38237903 -0.40842825 -0.2863231 0.86672109 0.2674363
-0.1264082 -0.1650116 -0.38237903 -0.11611816 -0.11611331 0.98642498 0.16705994
-0.094153076 -0.16316879 -0.38237903 0.010620286 0.0079764649 0.99991184 0.19418128
-0.080262765 -0.16183724 -0.38237903 -0.13515094 -0.41933277 0.8977161 0.18500513
-0.075190753 -0.16559458 -0.38237903 -0.080256581 -0.65813118 0.74861354 0.2329601
-0.055683434 -0.16653734 -0.382379 0.17993486 0.42041692 0.88931036 0.17648849
-0.031229101 -0.16661796 -0.38237903 -0.25019637 0.1944253 0.94847274 0.22284244
-0.02947513 -0.16903733 -0.38237903 0.0098982593 0.22758618 0.97370756 0.20193018
-0.016179567 -0.16683149 -0.38237903 -0.77304322 -0.043228313 0.63287872 0.13145086
0.013554364 -0.16073819 -0.38237903 0.34773377 0.14280459 0.92665434 0.13264184
0.032700475 -0.16524102 -0.38237906 -0.44859776 0.021054996 0.89348578 0.15311687
0.064736545 -0.16468278 -0.38237903 0.48775753 -0.37735912 0.78720564 0.16974969
0.075681522 -0.16152811 -0.38237903 0.11778122 -0.090870224 0.98887312 0.10535438
0.11062579 -0.16016343 -0.38237903 -0.3932865 -0.19516103 0.89846426 0.20484737
0.12393668 -0.16233376 -0.38237903 -0.74712181 -0.31321397 0.58626443 0.25379843
0.1378457 -0.16945486 -0.38237903 0.10221557 -0.06229027 0.99281007 0.084760763
0.14177155 -0.16778511 -0.38237903 -4.3619126e-05 4.3035823e-05 1 0
-0.46259052 -0.15383464 -0.38144889 0.81256676 0.23813638 0.53200215 0.086401619
-0.41012433 -0.15410168 -0.38237903 0.1774736 -0.11294481 0.97762287 0.19566245
-0.4038434 -0.15352322 -0.38237903 0.3488656 -0.22657354 0.90937191 0.17479147
-0.3937026 -0.15370589 -0.382379 -0.60487175 0.014639346 0.79618835 0.22421943
-0.35475084 -0.15685268 -0.382379 0.68143463 -0.73086816 -0.038453035 0.19427304
-0.34620583 -0.15342584 -0.38237903 0.14994346 -0.61787331 0.77184808 0.16909918
-0.3220157 -0.15138857 -0.38237903 -0.008357767 0.30657387 0.95181024 0.15124272
-0.31161243 -0.15476562 -0.38237906 0.21659605 0.25590977 0.94212335 0.1304187
-0.292218 -0.15943827 -0.38237903 0.015502452 0.020300187 0.99967366 0.099622808
-0.27857047 -0.15910859 -0.38237903 -0.27924499 -0.062485859 0.95818466 0.16355203
-0.25663596 -0.15242055 -0.38237903 -0.16268222 0.40846434 0.89815992 0.21188895
-0.21544227 -0.15476762 -0.38237906 -0.30595163 -0.022464842 0.95178193 0.21724474
-0.19015867 -0.15873337 -0.38237903 0.034118801 -0.11931994 0.9922694 0.16024169
-0.1602809 -0.15339103 -0.382379 -0.45190078 0.37449944 0.80965173 0.21305704
-0.15423244 -0.15074387 -0.38237903 0.036892623 0.24145354 0.96971083 0.22977816
-0.10099044 -0.15848522 -0.38237903 0.10271937 0.01000352 0.99466002 0.12009516
-0.085817546 -0.15355694 -0.382379 -0.45290482 0.24975982 0.85586053 0.16773625
-0.050484166 -0.15821844 -0.38237903 0.045363501 0.037616625 0.99826211 0.11560547
-0.043160629 -0.15862879 -0.38237903 0.10001636 -0.010574005 0.99492961 0.20559207
-0.016278533 -0.15782906 -0.38237903 -0.42700496 -0.10351002 0.89830536 0.19371484
0.026659679 -0.15423539 -0.38237903 0.050170578 0.020013392 0.99854016 0.18323912
0.032094561 -0.15130794 -0.38237903 -0.80660391 0.11169364 0.58044344 0.26625502
0.050909586 -0.15434223 -0.382379 0.0097469483 0.049056478 0.99874836 0.16486368
0.083855949 -0.15876137 -0.38237903 0.14164658 -0.018458331 0.98974526 0.062334675
0.095008865 -0.15298906 -0.38237906 -0.16547272 -0.17618221 0.97034979 0.16565864
0.10828428 -0.15696105 -0.38237903 -0.54555607 -0.12970389 0.82797676 0.18438604
0.12453467 -0.15113123 -0.38237903 -0.054885287 0.18092339 0.98196447 0.24228428
0.15596616 -0.15753862 -0.38237906 -0.17577523 0.095339969 0.97980273 0.025715865
0.16476746 -0.15689552 -0.38237903 -0.30944088 0.19778 0.93012333 0.049561363
0.18113485 -0.15222624 -0.38237903 -0.55576873 0.2553637 0.79114503 0.096813604
-0.44425696 -0.14593445 -0.38237906 0.27802014 -0.0014513948 0.96057415 0.040021144
-0.43279976 -0.14383903 -0.38237903 7.0729613e-05 3.5958867e-05 1 0
-0.39201432 -0.14692368 -0.382379 0.84512359 0.43107256 -0.31613714 0.17630781
-0.37485763 -0.14633419 -0.38237903 0.26556814 0.93890291 -0.21894041 0.14409173
-0.33824766 -0.14448497 -0.38237906 0.36960074 -0.67189932 0.64183056 0.12995151
-0.31972218 -0.14741582 -0.38237903 0.00011435296 9.2813498e-06 1 3.7736052e-05
-0.30799842 -0.14252873 -0.38237906 -0.41838041 -0.64444524 0.64003766 0.16339706
-0.29728758 -0.1452269 -0.38237906 -0.23058754 -0.56685245 0.7908904 0.17734624
-0.28934938 -0.14718211 -0.38237903 0.15406892 -0.34804016 0.9247328 0.16283259
-0.27177721 -0.14248285 -0.382379 0.060600389 0.017899582 0.99800164 0.19071002
-0.26345319 -0.14720324 -0.38237903 -0.089271143 0.15864854 0.98329103 0.15173943
-0.2361829 -0.14189342 -0.38237903 -0.096429951 0.18129309 0.97868997 0.13384245
-0.21997949 -0.14955287 -0.38237903 -0.17774726 0.0038027104 0.98406881 0.21081752
-0.20236892 -0.14769521 -0.38237903 0.525702 0.29759303 0.79691637 0.28946316
-0.19338524 -0.14339176 -0.38237906 -0.44619271 -0.6106146 0.65426439 0.21099624
-0.1844153 -0.14218543 -0.38237903 0.25422919 -0.21417993 0.94313014 0.2510772
-0.17601365 -0.14767574 -0.382379 0.4145202 -0.74670321 0.52019936 0.26261124
-0.15254593 -0.14017829 -0.38237903 0.027893508 0.096879028 0.99490523 0.22729944
-0.14120483 -0.14950573 -0.38237903 0.96036881 0.20686564 -0.18681103 0.23844449
-0.12546885 -0.14369276 -0.382379 0.065563895 0.24227238 0.96799046 0.2204639
-0.10496713 -0.14676261 -0.38237903 0.23613669 -0.066271789 0.96945727 0.18341106
-0.098179653 -0.1469553 -0.38237903 0.38774234 -0.0068372884 0.92174244 0.14512323
-0.075855069 -0.14624989 -0.38237903 0.014735187 -0.093199506 0.99553835 0.126159
-0.05357673 -0.14648274 -0.38237906 -0.18533708 0.039495077 0.98188102 0.2001587
-0.036723733 -0.14191197 -0.382379 0.17351918 -0.16943747 0.9701454 0.15528935
-0.025249489 -0.1464068 -0.38237903 -0.23556207 0.10943426 0.96567833 0.15212485
-0.011984834 -0.14674081 -0.38237906 -0.18381278 0.3377524 0.92311221 0.21527269
0.010131273 -0.14196838 -0.382379 0.078478001 0.88737184 0.45432633 0.17622644
0.039260712 -0.14180759 -0.38237903 -0.6022138 0.64660984 0.46822464 0.23796713
0.071488619 -0.14871323 -0.38237906 0.030978352 0.060086772 0.99771231 0.096252196
0.084825099 -0.14268494 -0.38237906 -0.044959906 0.011667073 0.99892062 0.096778966
0.092580661 -0.14493342 -0.382379 -0.097517833 -0.037809085 0.9945153 0.15758894
0.10582218 -0.14435203 -0.38237903 -0.39964959 -0.72061116 0.56656837 0.23019885
0.15303093 -0.14434808 -0.382379 0.23035397 -0.13012819 0.96436697 0.12924516
0.17952938 -0.14305419 -0.382379 -0.49593735 0.40298623 0.76918674 0.0830319
0.18710086 -0.1418452 -0.38179165 -0.58643258 0.39712515 0.70596635 0.093670242
-0.45883536 -0.13513622 -0.38237903 0.49303973 0.21584035 0.84280765 0.094111219
-0.44300741 -0.13774841 -0.382379 0.22987007 0.04988442 0.97194207 0.030785266
-0.40792298 -0.13221741 -0.38237903 0.94984329 0.23778726 0.20311312 0.23403864
-0.39950037 -0.13378112 -0.38237906 0.97760946 0.093607172 0.18846074 0.2091814
-0.38591927 -0.13790098 -0.382379 -0.6731984 0.037233349 0.7385239 0.16903211
-0.3414281 -0.1375283 -0.38237906 0.66176671 -0.61089289 0.43459707 0.12193035
-0.31540817 -0.13293895 -0.38237906 -0.073763147 -0.4217945 0.90368599 0.2117601
-0.26778603 -0.13003127 -0.38237903 0.19674042 -0.58355659 0.78788006 0.18674822
-0.25322339 -0.13332316 -0.382379 -0.033147149 -0.33038816 0.94326288 0.18845221
-0.24646346 -0.13560699 -0.38237903 0.02837475 -0.21672136 0.97582108 0.14909954
-0.23873723 -0.13701749 -0.38237906 -0.035887554 -0.09904968 0.99443513 0.067064315
-0.22486427 -0.13766876 -0.382379 -0.16244273 -0.15575454 0.97434741 0.21872318
-0.21474893 -0.13506725 -0.38237903 0.052875962 0.26938063 0.96158105 0.17312531
-0.18699765 -0.13699599 -0.382379 -0.04564742 -0.17377457 0.98372692 0.23146965
-0.1370813 -0.13699017 -0.382379 -0.24650808 0.071635611 0.96648961 0.2394802
-0.11075467 -0.1320737 -0.38237903 0.14627632 0.4090727 0.90070122 0.18345208
-0.10627472 -0.13553411 -0.38237903 0.51989216 0.42483884 0.74109656 0.17010821
-0.090534568 -0.13193212 -0.38237903 -0.18618561 -0.099575736 0.97745568 0.13323867
-0.063243501 -0.13511099 -0.38237903 0.011696719 -0.18563767 0.98254865 0.17810147
-0.038532179 -0.13993719 -0.382379 0.22676446 -0.12084791 0.96642315 0.19983146
-0.015104737 -0.13970608 -0.38237903 0.072573453 -0.054947194 0.9958483 0.25396997
-0.0081790723 -0.13346297 -0.38237906 0.07491459 0.053190526 0.99577034 0.1837292
0.0078096394 -0.1343089 -0.382379 -0.36423713 -0.63266724 0.68342048 0.24363163
0.015698943 -0.13457999 -0.38237903 0.22842216 0.97137851 0.065170124 0.22413003
0.026526699 -0.13697907 -0.38237903 0.41994995 0.87742221 0.23188859 0.24377216
0.038747691 -0.13696003 -0.38237903 -0.59341949 0.60625798 0.52943784 0.24025543
0.047971714 -0.13300954 -0.38237906 0.88113344 -0.31331918 0.35416812 0.22360148
0.07812462 -0.13496153 -0.38237897 0.22202665 0.018523643 0.9748646 0.12711598
0.095368721 -0.13813367 -0.38237903 -0.082165755 0.050887801 0.99531871 0.15333322
0.1016525 -0.13486138 -0.38237903 0.041985709 0.086648896 0.99535382 0.12848207
0.11925115 -0.1357535 -0.38237903 0.018982094 -0.15834695 0.98720098 0.16176359
0.14735164 -0.13242453 -0.38237903 0.24376594 0.24780869 0.93764019 0.19239525
0.15956183 -0.13628419 -0.38237903 0.18109328 0.0025971257 0.98346245 0.097948894
0.16386065 -0.13076486 -0.38237903 -0.081176139 -0.031531557 0.99620086 0.0075401552
0.17245284 -0.13990557 -0.38237903 -0.25636908 0.14950217 0.95494711 0.052438941
0.18398286 -0.13177276 -0.382379 -0.30084363 0.24704126 0.92112088 0.069374561
-0.44193447 -0.12609982 -0.382379 -0.16482741 0.02384552 0.98603415 0.094454408
-0.41541159 -0.1254275 -0.382379 0.63034624 -0.29130197 0.71958798 0.2205603
-0.40693673 -0.12757121 -0.38237903 0.93206334 0.19351128 0.30628619 0.14789021
-0.31492487 -0.12758088 -0.38237903 -0.69486833 0.015491909 0.71897018 0.2416687
-0.28193799 -0.12395399 -0.38237906 0.67606252 0.19876634 0.70952904 0.21862417
-0.26333472 -0.1275696 -0.38237903 0.31323797 0.9161936 -0.24994227 0.19984086
-0.25554955 -0.12105031 -0.38237903 0.029605469 0.05578975 0.99800354 0.18064731
-0.24251413 -0.12635669 -0.38237906 0.10399596 -0.11590159 0.98780143 0.16079326
-0.23203257 -0.12188561 -0.38237906 0.010414915 0.026310274 0.99959958 0.10204422
-0.21363042 -0.12715738 -0.38237903 -0.067860164 -0.11334234 0.99123579 0.17966822
-0.19736855 -0.12332606 -0.38237903 0.15937518 0.086067863 0.98345912 0.27685609
-0.16045415 -0.12453064 -0.382379 0.12474486 -0.18943013 0.97393781 0.18409444
-0.15992938 -0.12673485 -0.38237903 0.10747191 -0.16970369 0.97961754 0.16948932
-0.11850926 -0.12456852 -0.38237906 0.21400347 0.35535482 0.90990412 0.15407452
-0.083651826 -0.1270594 -0.382379 0.11498245 -0.60403401 0.78862035 0.19747812
-0.075121954 -0.12824222 -0.382379 0.59015471 -0.27389294 0.75940764 0.18007663
-0.054040994 -0.12924294 -0.38237903 -0.2423815 0.19644938 0.95008367 0.22377178
-0.036462195 -0.12375144 -0.38237906 0.088302977 0.11544985 0.9893806 0.2135001
-0.020170199 -0.12274759 -0.38237903 -0.22872257 -0.3387104 0.9126671 0.26477087
0.0019672913 -0.12482052 -0.38237903 -0.18117422 -0.17640302 0.96750087 0.15327217
0.015358895 -0.12314016 -0.38237906 -0.22413616 -0.84530818 0.48499167 0.23403992
0.033283282 -0.12922922 -0.38237906 -0.5024032 0.64744306 0.57306939 0.25467631
0.040569261 -0.12980217 -0.382379 0.63091081 -0.3497946 0.69252819 0.2569873
0.058372956 -0.12687621 -0.38237903 -0.097290896 0.2795589 0.95518655 0.19118755
0.079702154 -0.12927333 -0.38237906 0.43500134 0.18038861 0.88217562 0.1780836
0.087239243 -0.12003879 -0.38237903 -0.31183162 -0.31399632 0.89675385 0.13496877
0.10802577 -0.12516306 -0.38237906 -0.060155924 -0.1717869 0.98329574 0.14945871
0.12794216 -0.12299541 -0.38237903 0.12539846 0.29791525 0.94632012 0.2016172
0.1476068 -0.12598088 -0.38237903 0.052223373 0.17726755 0.98277617 0.10382644
0.15551153 -0.12437086 -0.38237903 0.13248652 0.16270059 0.97774017 0.096708938
0.19488268 -0.12305824 -0.38031822 -0.85130626 0.36323935 0.37859598 0.052469023
-0.4683972 -0.11645049 -0.38237903 0.3944152 0.32632992 0.85903752 0.07830897
-0.45961493 -0.1177489 -0.38237903 0.37228727 0.25956166 0.89108366 0.05684169
-0.44552517 -0.1152182 -0.38237903 -0.12381932 -0.10063178 0.98718899 0.13493545
-0.40197572 -0.11414242 -0.38237906 0.49392444 -0.20135657 0.84586895 0.20261754
-0.39955851 -0.11237922 -0.38237903 0.17315078 -0.0085644824 0.9848581 0.16720626
-0.37567875 -0.11280362 -0.38237906 -0.15368454 0.26777726 0.95114481 0.085413069
-0.36347771 -0.11016531 -0.38237903 0.60795057 -0.73138976 -0.30897415 0.054727506
-0.32675076 -0.11445746 -0.38237903 0.58882797 -0.47037035 0.65729243 0.11942519
-0.29853973 -0.11107506 -0.38237906 -0.093968786 0.07813444 0.99250436 0.20951937
-0.27367058 -0.11804055 -0.38237903 0.77674901 0.57211703 0.26333067 0.22784741
-0.26883739 -0.1173961 -0.38237903 0.40763754 0.16182925 0.89868957 0.19927455
-0.22764118 -0.11209382 -0.38237903 -0.19756889 -0.058084607 0.97856671 0.090791494
-0.21669473 -0.11503723 -0.38237906 -0.22876196 -0.018167235 0.97331285 0.17759268
-0.20634396 -0.11362408 -0.38237903 0.00064337836 -0.16136464 0.98689461 0.210593
-0.19655456 -0.11311032 -0.382379 0.70278877 -0.54723316 0.454559 0.20152213
-0.18402857 -0.11469131 -0.38237903 0.083471991 -0.092891283 0.99217123 0.085665382
-0.16380043 -0.11757853 -0.38237903 0.78503287 0.58834261 0.19384612 0.20199808
-0.15755102 -0.1154964 -0.38237903 0.16053632 0.19702277 0.96716595 0.13988613
-0.14212486 -0.11150078 -0.38237906 3.0021398e-05 -3.3437202e-06 1 0
-0.13322966 -0.11776334 -0.38237906 0.039184563 0.20424575 0.97813511 0.10646542
-0.12637636 -0.11924837 -0.38237903 0.029164631 0.0091553526 0.99953276 0.22107184
-0.11634357 -0.11417472 -0.382379 -0.20740445 -0.085117489 0.97454524 0.17736858
-0.10955168 -0.11709242 -0.38237903 0.076565683 -0.26029268 0.96248919 0.15756288
-0.060641833 -0.11571883 -0.38237903 0.05579938 -0.012223758 0.99836719 0.17630833
-0.057278961 -0.11861601 -0.38237906 0.085331194 -0.06922771 0.99394476 0.13656004
-0.037381288 -0.11587652 -0.38237906 0.014578255 -0.71855426 0.6953181 0.24549639
-0.0086438656 -0.11124717 -0.38237903 0.027897611 0.065628067 0.99745411 0.21165143
0.056272518 -0.11563762 -0.38237906 -0.0060501578 -0.25736019 0.96629667 0.18873252
0.060330793 -0.11713517 -0.38237903 -0.024822813 -0.0091435872 0.99965006 0.12907153
0.074938186 -0.11617215 -0.38237903 -0.89168859 -0.36306164 0.27032912 0.22802819
0.086123303 -0.11251217 -0.38237906 -0.30964339 -0.18203959 0.93326449 0.19391687
0.12244158 -0.11453831 -0.38237903 -0.028459439 0.36737356 0.92963785 0.20792651
0.14006385 -0.11264149 -0.382379 9.9493636e-06 3.0908806e-05 1 0
0.1532346 -0.11491184 -0.38237903 -0.11442126 -0.21557879 0.96975958 0.10201021
0.17986476 -0.11979977 -0.382379 -0.27362385 0.10272901 0.95633507 0.063592188
0.19590236 -0.11850102 -0.38217008 -0.85989213 0.30662283 0.4081274 0.05448762
-0.48172355 -0.10764352 -0.38147432 0.80640638 0.30832276 0.50462443 0.10105159
-0.45786762 -0.10256438 -0.38237906 0.11750299 0.033765532 0.99249834 0.017381577
-0.44501382 -0.10622375 -0.38237903 -0.14224151 0.10954189 0.98375195 0.10541364
-0.42193958 -0.10597437 -0.38237903 0.0088318139 -0.10986244 0.99390757 0.21192323
-0.40522957 -0.10596594 -0.38237903 0.65167159 -0.23978543 0.71960211 0.18343601
-0.39325392 -0.10604365 -0.38237903 0.030740138 -0.025781192 0.99919486 0.094275936
-0.38359016 -0.10863369 -0.38237906 0.11963891 -0.01714403 0.99266946 0.089035071
-0.36332685 -0.10402022 -0.38237903 -0.3809135 0.7826193 0.49235341 0.14790183
-0.30559593 -0.10357809 -0.38237903 0.69667804 -0.71576107 -0.04822797 0.20701057
-0.2866621 -0.10179011 -0.38237903 0.30388904 0.12086237 0.94500989 0.21083941
-0.18424484 -0.10323776 -0.38237903 0.33361253 -0.21801472 0.91715449 0.16033232
-0.15960535 -0.10698684 -0.38237903 0.16786754 0.13907012 0.97595078 0.12663345
-0.12144101 -0.10334249 -0.38237903 0.050201591 0.0055232085 0.9987238 0.16029409
-0.10884009 -0.10861506 -0.38237906 -0.0043156156 -0.0058409702 0.9999736 0.12940614
-0.0807558 -0.10932674 -0.38237903 0.08087755 0.04677783 0.99562573 0.1813862
-0.060869966 -0.10561123 -0.38237906 0.087711245 -0.017234307 0.99599689 0.092089713
-0.042120427 -0.10685459 -0.38237906 -0.37453642 -0.25371504 0.8918246 0.24179861
-0.01760051 -0.10845717 -0.38237903 0.19916514 -0.59020978 0.78229517 0.2267601
-0.0053051896 -0.10592521 -0.38237903 -0.3102634 0.19660166 0.93009913 0.26679182
0.023002096 -0.10514405 -0.38237903 -0.09386234 0.10642282 0.9898808 0.15901491
0.032861643 -0.10585439 -0.38237906 0.15511146 -0.1720617 0.97279763 0.15385972
0.040107071 -0.1057948 -0.38237906 0.10398285 -0.20676577 0.97284913 0.19451894
0.05871395 -0.10755187 -0.38237903 0.16380906 -0.20095135 0.96580803 0.19851513
0.062420517 -0.10861151 -0.38237903 0.14216033 -0.11105576 0.98359388 0.18311362
0.071671516 -0.10037307 -0.38237903 -0.20173326 -0.0029594817 0.97943598 0.16138294
0.10984007 -0.10005122 -0.38237903 -0.039878789 -0.24117976 0.96966082 0.17873159
0.12674135 -0.10896746 -0.382379 0.15248738 -0.13420118 0.97915149 0.20772791
0.14603299 -0.1039893 -0.382379 -0.322889 -0.080626309 0.94299626 0.13914049
0.18458229 -0.10390409 -0.38237903 -0.22672696 0.10590947 0.96818286 0.053315528
0.19915771 -0.10013624 -0.382379 -0.74228323 0.12278797 0.65874022 0.088588476
0.20268278 -0.10422713 -0.38154614 -0.74230623 0.12280039 0.65871191 0.088556536
-0.47319075 -0.092962787 -0.38237903 0.40911308 0.015421499 0.9123534 0.089588434
-0.43429139 -0.092212975 -0.382379 -0.59213603 0.36038142 0.72076356 0.19703597
-0.39603382 -0.090703294 -0.38237906 0.29746768 -0.4201493 0.85731417 0.22365029
-0.38979855 -0.093647987 -0.38237906 -0.11448739 -0.11607099 0.98662066 0.15285887
-0.36612001 -0.093161888 -0.382379 -0.34309092 0.43475461 0.8326326 0.22212736
-0.35630289 -0.094519652 -0.38237906 -0.61065006 0.67876863 0.40789661 0.13567816
-0.31536502 -0.096209466 -0.38237903 0.33531001 0.57015872 0.74999082 0.21211816
-0.28054813 -0.09879142 -0.38237903 0.16643973 0.15685715 0.97349554 0.19212939
-0.26217121 -0.092518412 -0.38237903 -0.41505718 0.026001031 0.90942377 0.21029334
-0.25260285 -0.092389993 -0.38237903 0.10960192 -0.84213787 0.52800673 0.23910868
-0.23219818 -0.098990619 -0.382379 -0.056221265 -0.077909686 0.99537385 0.095857471
-0.22539127 -0.097612113 -0.38237903 -0.031800929 -0.072904758 0.99683177 0.14390375
-0.20257352 -0.0900722 -0.382379 -0.65061659 -0.2746191 0.70801294 0.22928432
-0.18692942 -0.093245313 -0.382379 0.32834476 -0.16446276 0.93012995 0.20917754
-0.16676497 -0.090272054 -0.38237906 0.080830306 -0.08122275 0.99341297 0.09875714
-0.14663854 -0.092371076 -0.38237903 -7.2255643e-05 -0.09260159 0.99570328 0.12144797
-0.13484472 -0.09838251 -0.38237903 -0.061524894 -0.018426757 0.99793541 0.081228241
-0.09575361 -0.099509954 -0.38237903 -0.18316267 0.35842943 0.91541231 0.13738212
-0.067286141 -0.099977165 -0.38237906 0.069654301 -0.006485051 0.99755001 0.14731309
-0.056473248 -0.090361863 -0.38237906 2.8710245e-05 4.2811709e-07 1 0
-0.037569791 -0.096311614 -0.38237903 -0.40602738 0.10371825 0.90795606 0.21934178
-0.00096491352 -0.094757155 -0.38237903 -0.13021849 0.23134837 0.96411669 0.14712504
0.025380686 -0.094246142 -0.38237906 -0.032303795 0.41753891 0.90808469 0.22091825
0.074515313 -0.094626121 -0.38237903 -0.18940215 0.12324189 0.97413462 0.1425547
0.11593329 -0.096204773 -0.382379 -0.92037737 -0.37071961 -0.12438869 0.13109206
0.15504941 -0.095809609 -0.38237903 0.36472848 -0.068030387 0.92862535 0.22218886
0.19656846 -0.093678162 -0.38237906 -0.66920352 0.18363905 0.72003001 0.078007378
-0.48150998 -0.082173184 -0.38237903 0.70361286 0.066664353 0.70744962 0.095060393
-0.44609499 -0.084287539 -0.382379 0.044086903 -0.032639168 0.99849439 0.11715152
-0.4308812 -0.083669692 -0.38237903 0.51098037 -0.83053851 -0.2215963 0.25140038
-0.42681706 -0.082525805 -0.38237903 0.54559803 -0.83723962 -0.036777411 0.22742021
-0.4182691 -0.088123344 -0.38237903 0.20262885 0.97922832 0.0073069017 0.19944096
-0.39375925 -0.084191009 -0.38237903 0.043021984 -0.36532685 0.92988461 0.24480034
-0.38325298 -0.084253579 -0.38237903 -0.33292797 -0.59632611 0.73044795 0.23433694
-0.3494651 -0.088295348 -0.38237906 0.74953914 -0.58900005 -0.30210927 0.14196919
-0.33408642 -0.080068402 -0.382379 -0.20016755 0.57208276 0.79539561 0.22659151
-0.3146418 -0.082289577 -0.38237903 0.32453412 0.76913452 0.55055404 0.2020594
-0.29369503 -0.084817387 -0.38237903 0.3279756 -0.83582807 0.44025382 0.22610992
-0.28833658 -0.082936414 -0.38237903 0.032327104 -0.0066205245 0.99945539 0.18475714
-0.27422515 -0.0852677 -0.38237903 -0.060860567 -0.3126142 0.94792843 0.26459956
-0.24854261 -0.083853245 -0.38237903 -0.3224991 0.91298878 0.24989159 0.25477064
-0.23793402 -0.085145116 -0.382379 -0.0017098841 0.52518779 0.85098463 0.26483524
-0.21070249 -0.080127507 -0.38237906 -0.38780323 0.07025864 0.91906059 0.20369473
-0.17283538 -0.086318634 -0.38237906 0.0043151141 -0.11814252 0.99298722 0.14665532
-0.1687696 -0.080563873 -0.38237906 0.099171482 -0.059689742 0.99327844 0.16253723
-0.1526055 -0.081972286 -0.38237903 -0.12851228 0.090971567 0.9875266 0.18291388
-0.13647749 -0.087720133 -0.38237903 0.57502675 0.2190084 0.78827637 0.24022913
-0.1229524 -0.087984651 -0.38237903 0.080306113 -0.048398878 0.9955945 0.18637493
-0.11169024 -0.08121486 -0.38237906 -0.10098758 -0.020257188 0.99468142 0.13421403
-0.10252659 -0.089467965 -0.38237903 -0.045331948 -0.047503415 0.99784189 0.07965038
-0.08888033 -0.084979109 -0.382379 -0.10947525 0.28158125 0.95327181 0.20092398
-0.067568325 -0.08380226 -0.38237903 0.35892957 0.12315817 0.92520356 0.18821387
-0.052058518 -0.088087842 -0.38237903 -0.31966537 -0.059230972 0.9456774 0.1520468
-0.037432194 -0.085022129 -0.38237906 -0.39286405 0.55395663 0.73402309 0.15000576
-0.0011553373 -0.088305384 -0.38237903 -0.089160867 0.06126922 0.99413103 0.10124969
0.0013030441 -0.084821366 -0.38237903 -0.3344824 -0.041818757 0.94147372 0.14354402
0.031797428 -0.081649929 -0.382379 -0.86795366 -0.010364092 0.49653697 0.17428517
0.052446771 -0.084793746 -0.382379 0.28971574 -0.16935834 0.94200987 0.23745567
0.066440873 -0.085798778 -0.38237903 0.58950216 -0.17302451 0.78901821 0.1845009
0.077512205 -0.089423954 -0.38237903 -0.10865366 -0.097781949 0.98925889 0.095322758
0.086351715 -0.084430628 -0.38237906 0.10360131 -0.14847277 0.98347479 0.12083925
0.11862832 -0.086646669 -0.38237903 0.88769954 -0.040255316 0.45866007 0.19340722
0.1628336 -0.084970556 -0.382379 0.15658718 0.043882292 0.98668879 0.1114874
0.17938864 -0.085647032 -0.38237903 -0.014472176 0.00769311 0.99986571 0.00062493153
0.18484509 -0.081955239 -0.38237903 -0.16141608 0.028505079 0.98647469 0.042829428
0.19392957 -0.083492011 -0.38237906 -0.38276213 0.08928781 0.91952211 0.0809194
0.20178573 -0.080759801 -0.38237906 -0.68653035 0.18438838 0.70333278 0.080779605
-0.46908024 -0.077146076 -0.38237903 0.32515404 -0.11115131 0.93910605 0.055264045
-0.45391455 -0.07785634 -0.38237903 -0.025728824 0.046232879 0.99859929 0.088140316
-0.43404266 -0.074214138 -0.38237903 0.90532416 -0.42285666 -0.039755717 0.28784415
-0.41497499 -0.075059429 -0.382379 -0.28565437 0.91434681 0.28700438 0.25161725
-0.40472561 -0.07204929 -0.38237903 0.05000769 0.9978568 0.042202815 0.22176825
-0.34712303 -0.070338801 -0.38237906 0.034044262 0.079589449 0.99624622 0.086391799
-0.33001757 -0.076415516 -0.38237903 0.514691 0.83605814 0.18999977 0.21651982
-0.32551336 -0.073051825 -0.38237906 0.6068548 0.6074571 -0.51256526 0.20036449
-0.29090887 -0.079604618 -0.38237906 -0.1638138 0.20824853 0.9642601 0.16550878
-0.28597915 -0.07671202 -0.38237906 -0.15213405 -0.1442607 0.97777504 0.1946222
-0.26409274 -0.079256952 -0.38237903 -0.11490684 -0.5157609 0.84899181 0.174518
-0.23067024 -0.07019034 -0.38237903 -0.11267845 -0.28067243 0.9531666 0.21838877
-0.21101934 -0.070004359 -0.38237903 0.702043 0.66816837 -0.24634668 0.17680541
-0.20339462 -0.077556059 -0.38237906 -0.22116274 0.014187832 0.97513372 0.18422565
-0.17794111 -0.071622789 -0.38237903 0.2862123 -0.42961472 0.85645413 0.16192739
-0.1673152 -0.07871592 -0.38237906 0.099154443 -0.059621226 0.99328434 0.16254359
-0.14305064 -0.076922074 -0.38237903 -0.088039085 0.26235357 0.96094728 0.25389481
-0.13230598 -0.075061917 -0.38237906 0.36288634 -0.42407975 0.82974082 0.22467059
-0.1104315 -0.07991536 -0.38237906 -0.039338455 0.048056807 0.99806964 0.12314676
-0.10833482 -0.073552221 -0.38237906 0.014082979 0.1930802 0.9810819 0.12940933
-0.086713471 -0.07210543 -0.38237903 -0.065003946 -0.09498547 0.99335402 0.19584048
-0.075968102 -0.07799948 -0.38237897 0.00010815381 0.45399562 0.89100385 0.18284917
-0.057662766 -0.079966724 -0.38237903 0.021976141 -0.066879489 0.99751902 0.17685394
-0.043050978 -0.074799769 -0.38237903 0.042346034 0.014304982 0.99900067 0.1284472
-0.020501148 -0.078459717 -0.38237906 0.081872173 0.12908129 0.98824841 0.17418167
-0.015088637 -0.073844284 -0.38237903 -0.051575795 -0.24986102 0.96690714 0.17972778
0.00031809974 -0.076200098 -0.382379 -0.10613123 0.16000514 0.98139417 0.19506767
0.011979681 -0.070434615 -0.38237903 -0.11287219 0.12109418 0.98620284 0.16666012
0.051453311 -0.071812652 -0.38237903 0.15434955 0.65033138 0.74380469 0.21164812
0.077025771 -0.077478126 -0.38237903 -0.052698549 -0.081855439 0.99524993 0.21351512
0.13003322 -0.079909362 -0.38237903 -0.048606139 -0.17685783 0.98303545 0.18610351
0.14364354 -0.075440213 -0.38237903 0.027157875 0.22103173 0.97488838 0.23098613
0.16214828 -0.077322483 -0.38237903 0.67268121 0.18658982 0.71601981 0.17149274
0.17013571 -0.071986735 -0.38237903 0.011228858 -0.023130959 0.99966943 0.092868552
0.20808527 -0.071100637 -0.38237903 -0.7475419 0.12374412 0.65258592 0.095904909
-0.42381611 -0.069363341 -0.38237903 0.99221843 -0.08990933 0.086133152 0.22460757
-0.37533271 -0.069118805 -0.38237903 -0.25112161 0.33472112 0.9082399 0.18788512
-0.35083038 -0.06476748 -0.38237906 0.3737129 0.57131422 0.7307111 0.1506722
-0.34331259 -0.064874649 -0.382379 -0.02877963 -0.17750221 0.9836995 0.10551812
-0.3226496 -0.068948239 -0.382379 0.59181225 0.66370118 -0.45744833 0.13250598
-0.23623443 -0.063200459 -0.38237903 0.018556587 -0.39768955 0.91733241 0.25187957
-0.2251015 -0.066330567 -0.38237903 -0.31570965 -0.66257393 0.67920774 0.27687818
-0.21919224 -0.069216944 -0.38237906 -0.77855378 -0.33609813 0.52999252 0.24492636
-0.14528225 -0.06274192 -0.38237906 0.062391013 -0.25144044 0.96585977 0.089684203
-0.13616855 -0.066845566 -0.38237897 0.030180108 0.12003171 0.99231124 0.15251805
-0.11411068 -0.065021724 -0.38237906 1.6926546e-05 -1.9860079e-06 1 0
-0.10212792 -0.069959797 -0.38237903 -0.097339734 0.12049475 0.98793018 0.1485409
-0.084845543 -0.064921722 -0.38237903 -0.047009431 -0.337874 0.94001669 0.21438459
-0.079436511 -0.062366143 -0.38237903 0.31718251 -0.079086952 0.94506115 0.17682198
-0.066739075 -0.067676932 -0.38237903 -0.22516698 -0.29525352 0.92850703 0.20741841
-0.047767323 -0.063794225 -0.38237903 0.79017657 -0.55410206 0.26190045 0.2113037
-0.016551869 -0.069784403 -0.38237903 -0.39983094 -0.60874099 0.68525153 0.2118821
0.026395157 -0.066052973 -0.38237903 0.20544289 0.031651679 0.9781571 0.20083663
0.036172811 -0.064939454 -0.382379 -0.030146509 0.36840943 0.92917478 0.22504005
0.041098528 -0.061575331 -0.38237903 0.25930244 0.39120439 0.88301837 0.22550879
0.058327924 -0.067309514 -0.382379 0.40417802 0.51093841 0.75867122 0.21341898
0.076613426 -0.066246361 -0.38237903 0.033056907 0.094951436 0.99493289 0.19543524
0.089831628 -0.069399953 -0.38237906 -0.85402083 0.44735679 0.26555645 0.17401716
0.10558887 -0.06918183 -0.38237903 0.026489619 0.08310125 0.996189 0.16508007
0.12250697 -0.063495837 -0.382379 -0.056106292 0.28776714 0.95605552 0.23216061
0.15369226 -0.063617125 -0.38237906 0.53713101 -0.74298316 0.39933228 0.22905217
0.16769478 -0.062445574 -0.38237903 0.16761206 0.066503055 0.98360735 0.19314034
0.17441082 -0.062463447 -0.38237903 0.14935648 0.00107375 0.98878282 0.1162289
0.19432461 -0.063435346 -0.38237903 -0.20800509 0.04182934 0.97723293 0.044393279
0.20134914 -0.066618055 -0.38237903 -0.52508759 0.086744845 0.84661591 0.088464513
0.21103573 -0.064627841 -0.38005152 -0.82663947 0.017659927 0.5624547 0.090673879
-0.49143863 -0.055111736 -0.38149568 0.96290416 0.20842989 0.1713842 0.0091846474
-0.45662591 -0.050998487 -0.38237903 0.93223345 -0.36153463 -0.015278284 0.1335188
-0.43902996 -0.05389626 -0.38237903 0.84676933 0.021847723 0.53151149 0.23346521
-0.41554701 -0.052659307 -0.38237906 0.12126762 -0.063503489 0.99058646 0.16688606
-0.39401487 -0.055254281 -0.38237903 0.48589784 -0.39817497 0.77804893 0.23925997
-0.36576453 -0.055713534 -0.38237903 0.53627223 0.84367162 0.025105089 0.19885385
-0.34961519 -0.059888139 -0.38237906 -0.018450269 -0.20583354 0.97841311 0.15402257
-0.32405284 -0.054449689 -0.38237897 -0.38454077 -0.18867023 0.90362149 0.21959035
-0.28655887 -0.05451148 -0.382379 0.37427619 -0.13361351 0.91764081 0.24961689
-0.27254522 -0.05616717 -0.38237903 0.57596666 -0.38731062 0.71989787 0.12841743
-0.25736022 -0.053983077 -0.38237903 -0.21498211 0.32010293 0.92266828 0.19617651
-0.23694378 -0.058022931 -0.382379 0.38136831 -0.36390278 0.84978408 0.17747916
-0.22483644 -0.056751274 -0.38237903 0.91713786 0.29051834 0.2728686 0.24511756
-0.17532727 -0.055710513 -0.38237906 0.84353572 0.43044648 0.32119027 0.19607271
-0.16314526 -0.053146012 -0.38237903 0.96659386 -0.25443742 0.030949235 0.15178092
-0.15364327 -0.050892618 -0.38237906 0.74061626 0.32378492 0.58877075 0.24006927
-0.12172635 -0.054094553 -0.38237906 0.054486714 -0.064925887 0.99640149 0.070305482
-0.09343002 -0.055608653 -0.38237903 -0.096902966 -0.052465621 0.99391001 0.19492188
-0.086365432 -0.055662751 -0.38237903 -0.025792444 -0.027862122 0.9992789 0.23028477
-0.06407693 -0.055949509 -0.38237903 -0.14363158 -0.036372151 0.98896265 0.1545596
-0.054890111 -0.059541225 -0.38237906 0.1194643 -0.22032253 0.96808392 0.20691822
-0.04205478 -0.051463053 -0.382379 0.28999093 -0.12466269 0.94887543 0.21257816
-0.038805075 -0.054138869 -0.38237906 0.1993427 -0.15944149 0.96687168 0.1718051
-0.027924657 -0.05877864 -0.38237903 -0.28789642 -0.068223946 0.95522839 0.22618516
-0.017635448 -0.05375028 -0.38237903 0.017588908 0.44817016 0.89377522 0.23004495
-0.0025173004 -0.056030609 -0.38237903 0.28279558 -0.27577227 0.9186818 0.22006096
0.024521027 -0.055078752 -0.38237903 0.078309178 0.06202703 0.99499768 0.21183737
0.030934144 -0.050644621 -0.382379 0.039087016 0.1681197 0.98499137 0.15506609
0.045139499 -0.051222384 -0.38237903 -0.0066235857 0.26345009 0.96465027 0.2685872
0.05686783 -0.050605714 -0.38237903 -0.10399216 -0.17963634 0.97822106 0.21524769
0.066989742 -0.058928002 -0.382379 0.0023494933 -0.012134666 0.99992365 0.16887936
0.077414386 -0.051485639 -0.38237903 0.23228675 -0.21209997 0.94923991 0.19175506
0.092495263 -0.052929349 -0.382379 -0.059628196 0.20422895 0.97710538 0.1133515
0.10348465 -0.055154372 -0.38237903 -0.18100311 0.61985135 0.76355892 0.19664778
0.12229422 -0.055124022 -0.38237903 -0.050530422 0.28545314 0.95705968 0.21169296
0.15082203 -0.055728711 -0.38237903 -0.036682241 0.16486076 0.98563451 0.19139972
0.16410276 -0.054824714 -0.38237906 -0.0077172541 0.041592725 0.99910486 0.097640023
0.17282903 -0.055535112 -0.38237903 0.10602404 -0.0072720875 0.99433696 0.14949052
0.18726137 -0.050805122 -0.38237903 -0.084107578 0.027021024 0.99609029 0.015370689
0.19489856 -0.05909127 -0.38237903 -0.2211837 0.024620524 0.97492129 0.0456075
0.20831859 -0.055034176 -0.38237903 -0.69677562 0.056153245 0.71508771 0.082370237
-0.49205124 -0.049112599 -0.38237903 0.94381571 -0.019925643 0.32987118 0.081285655
-0.48742467 -0.045178872 -0.382379 0.94369709 -0.019949028 0.33020878 0.081347525
-0.43317956 -0.048291892 -0.38237906 0.78701305 -0.24493292 -0.56623173 0.26810852
-0.42495567 -0.041891888 -0.38237906 0.94144261 0.15606637 -0.29887986 0.21018745
-0.39089262 -0.041900717 -0.38237906 0.30386311 0.74499595 0.59384191 0.17359969
-0.37018919 -0.043379754 -0.38237906 -0.048409365 0.67861748 0.7328949 0.23829107
-0.36286563 -0.048358053 -0.38237906 0.37149706 0.36957443 0.85170686 0.23199324
-0.3053979 -0.043586597 -0.38237903 -0.40688494 0.67374367 0.6168583 0.19583161
-0.24549192 -0.048626333 -0.38237906 0.66544658 0.72784555 0.16559516 0.19640604
-0.21302035 -0.042504027 -0.38237903 0.25964561 0.0062569273 0.96568364 0.13003181
-0.1968054 -0.04268489 -0.382379 -0.1111417 0.28477469 0.95212966 0.10518875
-0.12392627 -0.04126884 -0.382379 0.18272881 0.15525986 0.97082675 0.22173789
-0.10769967 -0.046178982 -0.38237906 0.080498949 -0.12403494 0.98900717 0.099795043
-0.094616309 -0.042957358 -0.38237906 -0.09993697 -0.13903402 0.98523206 0.1958787
-0.031957064 -0.047328416 -0.38237903 0.35511315 -0.18478853 0.9163776 0.18439026
-0.015283847 -0.041427527 -0.38237903 -0.024721364 0.039779771 0.99890268 0.087988473
0.006947197 -0.042270362 -0.38237903 0.027093073 0.14166491 0.9895438 0.15226421
0.010220667 -0.048548445 -0.38237903 0.068983376 -0.046132151 0.99655056 0.141964
0.022494206 -0.040992066 -0.382379 0.040602271 0.0054568918 0.99916053 0.12080613
0.033192668 -0.044104122 -0.38237903 -0.04677178 0.031548359 0.99840724 0.12266073
0.046150815 -0.04347384 -0.38237903 -0.064976059 -0.14267281 0.98763484 0.2297177
0.058375329 -0.04883372 -0.38237903 -0.026472675 -0.036083564 0.99899817 0.1899717
0.066586301 -0.049086727 -0.38237903 -0.090129666 0.06245758 0.99396962 0.17051284
0.0881337 -0.045953721 -0.38237903 0.056747664 -0.026462557 0.99803782 0.06421724
0.092087775 -0.04626137 -0.38237906 0.042671453 0.086594179 0.99532938 0.12377502
0.10443921 -0.042875271 -0.38237903 -0.46340895 -0.14424972 0.87432498 0.20326811
0.11801015 -0.045875832 -0.38237903 -0.2812283 0.56344223 0.77681619 0.23493218
0.1461032 -0.046093073 -0.382379 0.056427762 -0.075185627 0.99557173 0.159292
0.19377227 -0.041799456 -0.38237903 -0.23263144 0.0064422092 0.9725436 0.046265937
0.21182954 -0.048380911 -0.38208443 -0.69049716 -0.0076578935 0.72329468 0.084655128
-0.44595233 -0.035839584 -0.38237906 0.68027693 0.38822407 0.62169552 0.20922883
-0.43743944 -0.038641587 -0.382379 0.29620934 0.46489614 0.83434492 0.22229317
-0.3642565 -0.035646632 -0.38237903 0.028170241 0.13310947 0.9907009 0.16109434
-0.35874066 -0.035238944 -0.38237903 -0.036326773 0.17045674 0.98469537 0.18958956
-0.34132022 -0.035767168 -0.38237903 -0.38152865 -0.1058643 0.91827476 0.1499512
-0.33563158 -0.031316623 -0.382379 -0.016375257 0.14571941 0.9891904 0.16330054
-0.30913916 -0.036741912 -0.38237903 0.13042994 0.36966759 0.91996408 0.21325159
-0.27417886 -0.033496898 -0.38237906 0.56446165 0.05751716 0.82345295 0.21514904
-0.25545472 -0.032447517 -0.38237903 -0.19175351 -0.073352382 0.97869813 0.21996851
-0.22673185 -0.036102593 -0.38237903 -0.53641647 0.78261536 0.31586483 0.25004211
-0.20658101 -0.036585018 -0.38237903 4.9033704e-05 -6.5822401e-06 1 0
