# .PCD v0.7 - Point Cloud Data file format
VERSION 0.7
FIELDS x y z normal_x normal_y normal_z curvature
SIZE 4 4 4 4 4 4 4
TYPE F F F F F F F
COUNT 1 1 1 1 1 1 1
WIDTH 593
HEIGHT 1
VIEWPOINT 0 0 0 1 0 0 0
POINTS 593
DATA ascii
0.29104519 -0.17815146 0.08229997 -0.97779614 0.16618726 0.12765786 0.00061841024
0.3438445 -0.1724149 0.082896136 -0.98597533 0.12978329 0.10492358 4.6700214e-05
-0.34494177 -0.16558343 0.084756702 0.9859761 0.12981378 0.10487887 0
-0.29469115 -0.16283704 0.087830663 0.9833529 0.12948377 0.12747929 0
0.2938121 -0.16111544 0.086409196 -0.98360968 0.12953764 0.12542784 0
0.34541124 -0.1639964 0.087205634 -0.98597521 0.12980542 0.1048976 0
-0.34627378 -0.15450855 0.083571844 0.98597944 0.12976137 0.10491189 3.0996951e-05
-0.29540512 -0.15431252 0.084681198 0.9833501 0.12948292 0.12750216 0
0.29373187 -0.15772831 0.082283162 -0.98361301 0.12950899 0.12543057 0
0.3467418 -0.15567547 0.089415707 -0.98597342 0.12978891 0.1049344 6.3362138e-05
-0.29602456 -0.14747098 0.082511708 0.98335987 0.12942697 0.12748325 0
-0.34833753 -0.13804775 0.082600676 0.98787487 0.11871843 0.10004582 0.00017351231
0.29798877 -0.13199463 0.089098141 -0.98827219 0.095298707 0.11931552 0.0012205311
0.34895459 -0.13610108 0.085991718 -0.98903328 0.10830552 0.10041473 0.00062863104
-0.35081741 -0.12129333 0.085177451 0.9960835 -0.00067607505 0.088414699 0.0024066344
-0.34987992 -0.12441936 0.080233708 0.99498916 0.025374973 0.096708968 0.0023984001
-0.29933026 -0.12168989 0.081828482 0.99062777 0.024382761 0.13439569 0.0015004377
0.29790264 -0.12548861 0.081705317 -0.99107921 0.063080877 0.11740009 0.0013122731
0.34950101 -0.1287763 0.082063764 -0.9930566 0.069283605 0.095070511 0.0019994697
0.35084012 -0.12400701 0.088749081 -0.99702817 0.010684614 0.076292746 0.0024635592
-0.35050589 -0.11495779 0.08337304 0.99469358 -0.034953222 0.096762754 0.0022628945
-0.2993122 -0.11318729 0.083235227 0.99160695 -0.028115284 0.12619568 0.0015583636
0.29859233 -0.11486587 0.082590431 -0.99098831 -0.035913013 0.12904404 0.0016452265
0.35069904 -0.11420032 0.085789882 -0.9960919 -0.01547963 0.086955927 0.0023588086
-0.29834786 -0.10292047 0.085784391 0.98419136 -0.1208439 0.12947635 2.7747261e-05
0.29850769 -0.1080136 0.088987283 -0.99063081 -0.04419288 0.12921949 0.0015314221
0.34907466 -0.10301487 0.084362768 -0.98946559 -0.091869861 0.11188279 0.00091355515
0.35043043 -0.10882568 0.08991605 -0.99069154 -0.077397957 0.11198153 0.0015649177
-0.34850559 -0.095148057 0.088749394 0.98648757 -0.12590981 0.10482869 0.00015715481
-0.29753202 -0.096294776 0.086218044 0.98408985 -0.12282135 0.12838238 6.9284841e-05
0.34797889 -0.097695179 0.080645666 -0.98793197 -0.11162043 0.10738418 0.0003948732
-0.34750485 -0.087255046 0.089110218 0.98599344 -0.12964232 0.10492714 1.9939187e-05
-0.29545295 -0.08142826 0.085280389 0.98331767 -0.12947294 0.1277618 0
-0.34545833 -0.074549966 0.085595608 0.98597866 -0.12978511 0.10488999 1.5158636e-06
-0.29459751 -0.075186908 0.08502087 0.98332125 -0.12945788 0.12774943 0
0.29375327 -0.077947736 0.082757317 -0.98358619 -0.129472 0.12567912 0
0.34613451 -0.07980644 0.085445836 -0.98597997 -0.12980808 0.10484964 0
-0.34370017 -0.063558638 0.08267051 0.98597181 -0.12982222 0.10490829 7.2326657e-05
-0.29250628 -0.061761819 0.082529232 0.98211014 -0.13895769 0.1270839 6.0311464e-05
0.29339856 -0.068504967 0.089709722 -0.98357952 -0.12950331 0.12569892 1.4407887e-05
0.3437379 -0.06548252 0.080643505 -0.98597652 -0.1297887 0.10490572 0
-0.34271097 -0.051104188 0.088784285 0.98594826 -0.13021392 0.10464404 3.4334553e-05
-0.29145211 -0.051565312 0.084747806 0.97399271 -0.19657546 0.11267763 0.0014308473
-0.34150523 -0.045569777 0.084299117 0.98257864 -0.15037781 0.10920498 0.0006118493
-0.29058686 -0.044793699 0.084971689 0.96220607 -0.24131429 0.12620191 0.0022127759
0.29014745 -0.043556049 0.089971952 -0.96678799 -0.21704124 0.13495922 0.001826603
0.34142089 -0.042758241 0.086985216 -0.98284942 -0.15557082 0.099019103 0.00066484173
0.28523886 -0.031230023 0.084563524 -0.93101996 -0.34134656 0.12916782 0.00065167906
0.33981594 -0.032024287 0.085182428 -0.96233475 -0.25064334 0.10530774 0.0023521441
0.34068739 -0.03659077 0.087723121 -0.98117185 -0.16866669 0.094092123 0.00073977222
-0.33654004 -0.021195166 0.084698409 0.94926506 -0.29178974 0.11727978 0.002223439
-0.28349933 -0.023126047 0.089574724 0.92652005 -0.35538158 0.12354995 0.00075176533
0.28162709 -0.022962853 0.083200604 -0.92555922 -0.35470861 0.13237047 0.00051785371
0.33793464 -0.025805265 0.080187723 -0.95156139 -0.28457609 0.1163936 0.002509915
-0.28000975 -0.017364757 0.081673682 0.91870189 -0.37380081 0.12751377 0.00010323044
-0.33054239 -0.0078003863 0.080762096 0.92097694 -0.37548849 0.10397059 3.6761165e-05
-0.32909083 -0.0028797183 0.085901059 0.9200663 -0.37763 0.10427614 5.1596973e-05
-0.274138 -0.0036982156 0.080163702 0.91628575 -0.37953672 0.1279546 0
0.27349126 -0.0020597791 0.086999819 -0.91651183 -0.37963256 0.12603651 0
0.33028781 -0.0054558828 0.087038964 -0.92070425 -0.37560341 0.10595124 0.00010851617
-0.3256745 0.0054859663 0.08632867 0.91878474 -0.38057348 0.10487341 0
-0.27343392 0.0003215 0.087045372 0.91628462 -0.37953919 0.12795497 0
-0.26916245 0.0098807225 0.084811874 0.9161284 -0.3799583 0.12782954 0
0.26886117 0.0074940836 0.082107745 -0.9160549 -0.38071063 0.12610632 0
0.27100804 0.0046009338 0.089004897 -0.91651309 -0.37963706 0.12601376 0
0.3259573 0.0043965047 0.084852919 -0.91878521 -0.38056991 0.10488216 0
0.26618499 0.013537435 0.080849975 -0.90523183 -0.40834585 0.11751185 0.00051124947
0.32282239 0.013325924 0.08979094 -0.91878366 -0.38057327 0.10488366 0
-0.31802815 0.024421411 0.08805304 0.91876119 -0.3806217 0.10490463 6.0548937e-05
-0.26421553 0.020728502 0.081563741 0.89357471 -0.42711705 0.13818549 0.001590292
0.31773862 0.024117839 0.084415436 -0.91877478 -0.38058656 0.10491297 2.4153274e-05
-0.31372106 0.034614965 0.087309889 0.91873986 -0.38067648 0.10489248 6.4464939e-06
-0.26093271 0.031122401 0.08888597 0.85510826 -0.50048733 0.13528641 0.0024268921
0.2535727 0.039123438 0.084784724 -0.82530582 -0.54830706 0.13501729 0.0019111804
0.31350648 0.033233356 0.080417484 -0.91877764 -0.38058174 0.10490483 0
-0.24891965 0.046266541 0.084232345 0.80480444 -0.57888144 0.13109563 0.00084197795
0.25148183 0.041719548 0.084169328 -0.81722295 -0.56189626 0.12813719 0.00165599
0.30835137 0.047272623 0.086198948 -0.89580584 -0.43187681 0.10494943 0.0014176157
-0.30526072 0.053590346 0.082248725 0.87573749 -0.47465497 0.088241689 0.001780803
-0.2447761 0.051944956 0.085545547 0.78907508 -0.60107446 0.12676789 3.5210225e-05
0.24001467 0.056763552 0.084646657 -0.78697288 -0.60390055 0.12640315 1.8341932e-05
-0.29955485 0.063573822 0.087731227 0.82507133 -0.55409777 0.11060267 0.0012183009
-0.23452812 0.065012835 0.084190056 0.7868216 -0.6037479 0.12806337 0
0.23624274 0.062072631 0.086526074 -0.78698087 -0.60388947 0.12640712 0
-0.28921691 0.077202208 0.08863008 0.79409194 -0.59847856 0.10602565 0.00010758565
-0.22742891 0.075045332 0.087870814 0.78682083 -0.60375088 0.12805441 0
0.22595192 0.075187638 0.085110873 -0.78698623 -0.6038819 0.12640917 0
0.29303771 0.070807911 0.080463499 -0.81301719 -0.57082862 0.11470727 0.00073936553
-0.28211966 0.085797913 0.084857896 0.78896105 -0.60542095 0.1049088 2.0756281e-05
-0.22056939 0.084161259 0.088702753 0.75107753 -0.64736271 0.12963054 0.0010121521
0.21793585 0.084984772 0.08200743 -0.75151354 -0.64712286 0.12829402 0.0010336742
-0.21353896 0.092676781 0.085653834 0.72119462 -0.68150324 0.12422394 0.0017040942
-0.20743039 0.098289058 0.087879784 0.67209512 -0.72964567 0.12611626 0.0017570929
0.21472058 0.090217941 0.086990029 -0.72647619 -0.67544365 0.12652357 0.0016372593
-0.27041963 0.10132417 0.086465999 0.78896523 -0.60542047 0.10488114 0
-0.26665756 0.10580379 0.084023267 0.78896594 -0.605416 0.10490109 0
-0.20266056 0.10118686 0.083196476 0.64782989 -0.75106943 0.12732334 0.0015542788
0.19159578 0.10867393 0.081323944 -0.60381168 -0.78697896 0.12678966 1.1545512e-05
0.20310342 0.10012121 0.083046041 -0.64759761 -0.75185621 0.1238126 0.0011432094
-0.25679195 0.11917187 0.086973548 0.77253526 -0.62566912 0.10829257 0.00065130991
-0.17922685 0.11896005 0.081917375 0.603742 -0.78682554 0.12806699 1.7749133e-05
0.18053441 0.11850058 0.089634389 -0.60390103 -0.78691262 0.1267758 0
0.2579816 0.11752582 0.086421169 -0.77589607 -0.62218243 0.10427987 0.00047218628
0.26147076 0.11342987 0.089025304 -0.77755308 -0.6203596 0.10278638 0.00043111571
-0.2528643 0.12355819 0.082747042 0.73176086 -0.67373526 0.1029894 0.0019335647
-0.17204471 0.12542303 0.087766327 0.60376531 -0.78680813 0.12806411 0
-0.1664516 0.12945104 0.086145647 0.58683318 -0.7992565 0.12967572 0.00042557056
0.16458035 0.12958525 0.082450792 -0.58886278 -0.79947495 0.1186611 0.0002984436
0.17404279 0.12277249 0.085231856 -0.60385066 -0.78694916 0.1267885 6.7984697e-06
0.2536639 0.12315684 0.086445004 -0.74705929 -0.65766883 0.096819773 0.0018018634
-0.24392569 0.13333055 0.085651502 0.67319363 -0.73263711 0.1002652 0.00121288
-0.16229419 0.1319484 0.081889018 0.58469343 -0.80119824 0.12733777 0.00041190561
-0.15473014 0.13850535 0.086514764 0.53154492 -0.83611006 0.13557264 0.0015877496
0.15359554 0.13861144 0.086158186 -0.51353961 -0.84861636 0.12699389 0.00204856
0.23542202 0.1395251 0.083164811 -0.62110448 -0.77668083 0.1048624 0.00041294753
0.24167681 0.13559057 0.089670792 -0.65951031 -0.74422568 0.10570807 0.0023421959
-0.23238732 0.14221194 0.085860237 0.62818474 -0.77152938 0.10062992 0.0005267876
-0.22709882 0.14627297 0.085883118 0.60537887 -0.78899515 0.10489523 3.4468987e-05
-0.13708419 0.14770129 0.089184321 0.40824166 -0.90428525 0.12492783 0.00065288768
0.13726644 0.14631547 0.08251071 -0.42673105 -0.89583248 0.12403554 0.0013226044
0.14439772 0.14308943 0.08054924 -0.46731839 -0.87550545 0.12289687 0.0016249922
-0.12438341 0.15265241 0.086966313 0.37953803 -0.9162848 0.12795758 1.6024384e-05
-0.11649868 0.15530162 0.082549624 0.37953544 -0.91628599 0.12795645 2.7940138e-07
0.10762668 0.15948451 0.088938095 -0.37957674 -0.9163779 0.12717317 7.9538222e-06
0.12682396 0.15141124 0.088062301 -0.38581118 -0.91378003 0.12710562 0.00013065814
0.21121822 0.15833232 0.084932648 -0.60540146 -0.78897858 0.10488914 2.0772162e-05
-0.20723329 0.16084465 0.080831781 0.60543782 -0.78895116 0.10488593 0
-0.10187128 0.1612896 0.082042091 0.37863883 -0.91662222 0.12820472 2.4540546e-07
-0.085182577 0.16874209 0.085907765 0.29409981 -0.94614053 0.13536401 0.0023586513
0.1024823 0.16160339 0.088851593 -0.37890491 -0.9166196 0.12743463 0
0.1961925 0.16982132 0.084627837 -0.60213333 -0.79150021 0.10470335 2.547511e-05
-0.18626095 0.17749903 0.085057057 0.57561874 -0.81001222 0.11199661 0.00072174135
-0.082522139 0.17001864 0.087157935 0.27494049 -0.95215338 0.13346018 0.0023067596
-0.056512158 0.17430641 0.084229119 0.14574035 -0.98130709 0.12568289 0.00034061409
-0.049587153 0.17555492 0.086821504 0.12945926 -0.98332113 0.1277495 0
-0.034140181 0.17726064 0.084297553 0.12945332 -0.98332131 0.12775387 3.5168364e-07
-0.027238538 0.17803307 0.083249144 0.12795457 -0.98350561 0.12784496 1.3435239e-05
0.017370276 0.17986979 0.088324323 -0.12900925 -0.98341644 0.12747078 8.1231437e-06
0.047132116 0.17532738 0.083509952 -0.12946433 -0.98335469 0.12748514 0
0.052530743 0.17511824 0.087379009 -0.13744301 -0.98244202 0.12616281 0.00012997219
0.065182701 0.17301854 0.084031425 -0.17581356 -0.97607416 0.12794086 0.00082561822
0.076598853 0.17111975 0.080978401 -0.23683539 -0.96232593 0.13355838 0.002221195
-0.18170705 0.18147132 0.088652283 0.54187369 -0.83428264 0.10171271 0.0018616045
-0.17675859 0.18458629 0.084606275 0.50057226 -0.86100429 0.089995027 0.0027496035
-0.16957326 0.18772462 0.081073746 0.45932329 -0.88367575 0.090218514 0.0021651159
-0.00068335782 0.18172008 0.084749863 0.011098836 -0.99165797 0.12841816 0.0024001277
0.00038671956 0.18133925 0.082411967 0.0078821238 -0.99138796 0.13071974 0.0028111292
0.1733451 0.18638389 0.083015062 -0.49125844 -0.86359745 0.11342207 0.0023200852
-0.15327081 0.19489837 0.084761366 0.38630959 -0.91650623 0.10383292 2.7178346e-05
-0.14242645 0.19980574 0.088400304 0.38057479 -0.91878307 0.1048832 0
0.15764482 0.1930197 0.084175013 -0.39813408 -0.91128063 0.10515128 0.00041848543
0.1281566 0.20560378 0.087411575 -0.38057497 -0.91878164 0.10489442 0
0.13523605 0.20217493 0.083063141 -0.3805989 -0.9187724 0.10488909 2.1442468e-06
0.14027275 0.20043594 0.08610519 -0.3805978 -0.91877109 0.10490454 1.658407e-05
0.096599951 0.21887025 0.089120835 -0.31336772 -0.94214839 0.11898358 0.0014379661
0.10818259 0.21397597 0.088275075 -0.36911896 -0.92300802 0.10866199 0.00021808718
-0.085579254 0.22160253 0.086301811 0.20389965 -0.97364402 0.10218713 0.00082803849
-0.070728421 0.22315294 0.082497604 0.14256242 -0.98383385 0.1083833 0.00028119885
-0.054908186 0.22583081 0.088091873 0.12981191 -0.98597538 0.10488726 9.2666426e-07
-0.041705795 0.22724697 0.085065529 0.12980594 -0.98597491 0.10489916 8.0195896e-06
0.021697545 0.22992134 0.085443392 -0.11468072 -0.98758721 0.10733035 0.00031579888
0.033909187 0.2280401 0.082871765 -0.12980318 -0.98597515 0.10490017 5.1360671e-06
0.043035798 0.22689779 0.083428502 -0.12981115 -0.98597616 0.10488139 0
0.059025954 0.22478507 0.083356865 -0.12980722 -0.98597783 0.10487034 0
0.065435298 0.22362293 0.080364764 -0.13014007 -0.9859305 0.10490263 7.4214204e-06
0.076577157 0.22265771 0.085080005 -0.14649305 -0.98398405 0.10156471 0.00026742514
0.087226927 0.22168328 0.089099899 -0.20619924 -0.9717496 0.1148243 0.0018796379
-0.013095492 0.23091601 0.084148422 0.082869366 -0.99024647 0.11200272 0.00078954658
-0.0065856813 0.23165143 0.083005294 0.026932351 -0.99302137 0.11481789 0.0017148175
0.01961571 0.23043609 0.087705657 -0.11467278 -0.98759276 0.10728831 0.00026882556
-0.018746763 0.36996531 0.089897305 -0.2708599 -0.79099822 -0.54859525 0.01189052
0.0091598704 0.36742598 0.08889439 0.18233503 -0.82529515 -0.53445482 0.01690192
0.012569556 0.36882493 0.087662943 0.3006213 -0.8019411 -0.51625305 0.012979357
-0.022072971 0.37568161 0.083961479 -0.42359275 -0.73758292 -0.52587116 0.0081928354
-0.017629094 0.37271821 0.085035421 -0.27242187 -0.80516762 -0.52677453 0.01150858
0.0081376843 0.37131086 0.082949132 0.13513796 -0.83198315 -0.53809083 0.015790492
0.017312201 0.37409887 0.082948864 0.35804233 -0.78658843 -0.50307482 0.011222319
0.023901427 0.37369868 0.088891387 0.51790982 -0.72373348 -0.45604748 0.010637238
0.034416731 0.38622493 0.083084211 0.68901247 -0.6329577 -0.35302466 0.010540243
-0.04058741 0.39442617 0.082467824 -0.75873828 -0.56441611 -0.32519302 0.012823785
-0.039072812 0.39357644 0.080188259 -0.75776809 -0.58440822 -0.29026634 0.013075013
0.041505963 0.3938641 0.085842952 0.81177288 -0.49320379 -0.31268951 0.0088648153
-0.046580352 0.40510663 0.082106434 -0.91140831 -0.37792331 -0.16281521 0.014872571
0.0473103 0.40648517 0.084448785 0.91568077 -0.34286052 -0.20970291 0.013017116
-0.050764292 0.41503006 0.085103631 -0.97465849 -0.21041872 -0.075925961 0.011333465
0.049604755 0.41299403 0.082543403 0.94959015 -0.29086518 -0.11694479 0.009462758
0.051083513 0.41760418 0.086011261 0.98842382 -0.14875288 -0.029848952 0.011829101
-0.052342139 0.42733717 0.086328402 0.99934715 0.036088768 -0.0017086827 0.0073191845
0.051533904 0.42097217 0.086811721 0.98970181 -0.13908339 -0.033855848 0.012843347
-0.051953774 0.43386358 0.084612019 0.99942237 -0.033602897 -0.0050849337 0.01375807
0.052016951 0.43254435 0.088018656 -0.99780047 -0.062306203 0.022631973 0.016055766
-0.051006902 0.44117153 0.085601158 0.96817642 -0.23451485 -0.087391071 0.00856476
-0.048249356 0.44992945 0.085134894 0.91812724 -0.37578136 -0.12582043 0.0072108964
0.049786143 0.44480562 0.089637749 -0.951262 -0.27933657 -0.13065904 0.014643952
0.045162275 0.45706099 0.085179143 -0.85965049 -0.47092822 -0.19805972 0.0065042251
-0.041516967 0.46177042 0.087427646 0.80098385 -0.56692541 -0.1924073 0.010405659
-0.038440499 0.46756557 0.082751274 0.73866272 -0.63867962 -0.21555907 0.010121989
0.036878783 0.4687835 0.085854717 -0.70862371 -0.67488372 -0.20587459 0.010779355
-0.031354778 0.47430664 0.082111023 0.6058836 -0.75155717 -0.26089633 0.014252204
-0.019945411 0.47993046 0.086180374 0.39940739 -0.86913931 -0.29166856 0.013219828
0.031278215 0.47276086 0.087581612 -0.55258667 -0.79540646 -0.24895068 0.0080335867
-0.0068336581 0.48498702 0.082268476 0.10954417 -0.95049787 -0.29078183 0.013163283
0.0050972882 0.48435318 0.085050859 -0.10753217 -0.94654703 -0.30411422 0.014249154
0.019456375 0.48124599 0.08317434 -0.36947149 -0.8787722 -0.30207664 0.01365543
0.022564813 0.48021835 0.08216925 -0.38807735 -0.86501777 -0.31802547 0.013856271
-0.0004848516 -0.47069168 0.095695689 0.0196421 0.99515641 0.09632194 0.0025657834
0.0038893658 -0.47020942 0.095375761 -0.0035930441 0.99491274 0.10067634 0.0026074005
-0.075946368 -0.46075022 0.095631078 0.15832376 0.981619 0.10657226 0.00052877265
-0.066289097 -0.46205971 0.095989019 0.12978408 0.9859786 0.10489184 1.3750228e-05
-0.056798622 -0.46334988 0.096371725 0.1298081 0.98597717 0.10487501 5.9671369e-05
-0.045600913 -0.46479577 0.096105814 0.1298259 0.98596638 0.10495511 0.00015958154
-0.033191584 -0.46661776 0.097876027 0.1298122 0.98597747 0.10486768 0
-0.025262157 -0.46726772 0.094173059 0.1220875 0.98730564 0.10159823 0.00022663956
-0.017098099 -0.46844813 0.095165648 0.08786118 0.99218529 0.088593371 0.00075954327
0.0097513301 -0.46935731 0.094620675 -0.067893595 0.99275529 0.099133506 0.0019355905
0.011713704 -0.46965343 0.099832445 -0.074490674 0.99175096 0.10431282 0.0019671859
0.038099684 -0.46561593 0.094533361 -0.12981822 0.98597741 0.10485993 0
0.067197971 -0.46221128 0.098539427 -0.13410966 0.98540288 0.10486061 9.6561671e-05
0.075962216 -0.46060634 0.094298668 -0.15291992 0.98195785 0.11123981 0.00049171149
-0.09711007 -0.45596632 0.092803098 0.3111206 0.94364172 0.11289027 0.0019268137
-0.089413114 -0.45865619 0.092612624 0.24965274 0.96150726 0.11479206 0.0030017914
0.08683382 -0.45928296 0.095312379 -0.21730794 0.96770507 0.12776636 0.0022591799
0.094885498 -0.45738086 0.097121641 -0.25536412 0.95935255 0.120132 0.0029342563
-0.13363203 -0.44141456 0.097851038 0.38062248 0.91876024 0.1049109 8.0901889e-05
-0.12511443 -0.44439113 0.093019396 0.38055187 0.91878742 0.10492769 0
-0.11504455 -0.44879347 0.095044553 0.37772501 0.9197877 0.1063686 0
0.11614995 -0.44811058 0.093071923 -0.38056555 0.91878897 0.10486521 0
0.13294429 -0.44113481 0.092902899 -0.38055864 0.91878861 0.10489347 0
-0.15321729 -0.43300748 0.09527085 0.38075259 0.91870284 0.10494024 0
-0.14397049 -0.43686694 0.095527492 0.38055357 0.91879088 0.10489154 0
-0.1385645 -0.43914044 0.095827237 0.38058588 0.91877991 0.10487135 0
-0.17434043 -0.42446652 0.097467855 0.5110026 0.85422939 0.095752284 0.0021783232
-0.16329423 -0.42841786 0.091629885 0.42112559 0.90105224 0.10372139 0.0014455053
0.16960654 -0.42639983 0.096854903 -0.47176716 0.87432873 0.11395209 0.0022018787
0.17563057 -0.42322737 0.095114589 -0.52117944 0.84771991 0.098706506 0.0017214983
-0.18574885 -0.41545445 0.090134442 0.5654285 0.81927586 0.095277205 0.00086811959
-0.062323269 -0.41078293 0.094178379 0.14654991 0.9809221 0.12773018 0.00025329692
-0.056903567 -0.41171148 0.095861405 0.14070694 0.98166245 0.12860987 0.00027728468
-0.035049461 -0.41468596 0.096624777 0.12948479 0.98358411 0.12568247 0
-0.027570797 -0.41583011 0.097874232 0.12446965 0.98419446 0.12597105 0
-0.012611102 -0.41700408 0.091650456 0.07153938 0.99119925 0.11138307 0.001215655
0.0020045314 -0.4187544 0.095388591 -0.02174855 0.99166346 0.12700628 0.0019585872
0.014627626 -0.41686916 0.093635373 -0.10758796 0.98559564 0.13048409 0.00080280501
0.026352938 -0.41544226 0.094550222 -0.12949616 0.98360324 0.12552094 6.9228823e-05
0.042876426 -0.4136757 0.097754598 -0.12949516 0.98361045 0.12546526 1.0897935e-05
0.050023694 -0.41192216 0.091381602 -0.12948896 0.98361188 0.12546045 4.7850146e-05
0.065743268 -0.41040134 0.095683709 -0.15862656 0.97932976 0.12550262 0.00043856326
-0.19816172 -0.40713644 0.099210903 0.60117006 0.79206926 0.10592863 4.8498685e-05
-0.097892433 -0.40120271 0.098695919 0.36870626 0.92053294 0.12913051 7.8643025e-05
-0.084727623 -0.40638334 0.096714593 0.29959866 0.94571638 0.12594089 0.0017623751
0.08268065 -0.40692297 0.097318374 -0.30214939 0.94487482 0.12616347 0.0019885304
0.10002082 -0.40001065 0.099297836 -0.37682223 0.91789275 0.1244101 2.6405944e-05
0.19437562 -0.40954942 0.095512003 -0.58972013 0.80098438 0.10321959 0.00025584237
-0.21372825 -0.39421505 0.091862872 0.60545367 0.78894007 0.10487842 0
-0.1230009 -0.39047205 0.09629561 0.3796663 0.91650033 0.12601884 0
-0.10221456 -0.39880642 0.094289586 0.37964502 0.91650921 0.12601821 0
-0.099998929 -0.39967331 0.093919583 0.37532243 0.91794252 0.12850896 3.1826676e-05
0.10568601 -0.39714187 0.095476672 -0.37974587 0.91656601 0.12529927 6.6845954e-05
0.11453919 -0.39284924 0.090899333 -0.37964928 0.91661489 0.12523405 2.6095633e-05
0.12282442 -0.39033145 0.097589806 -0.3796677 0.9166075 0.12523168 0
-0.23253441 -0.38036573 0.096234851 0.6158514 0.78101808 0.1036239 8.8857196e-06
-0.14454728 -0.38145772 0.095646635 0.44746897 0.88603634 0.12128938 0.0019049658
-0.13010903 -0.38680518 0.091041729 0.38923556 0.91282976 0.12344024 0.00020064724
0.14052163 -0.38254511 0.094254524 -0.43880376 0.88979232 0.12538309 0.001421461
0.22779708 -0.38437802 0.099075153 -0.60631019 0.78822345 0.10531756 8.6941385e-05
0.23142359 -0.38139468 0.097566262 -0.61990523 0.77678132 0.11103237 0.00018101741
-0.15733515 -0.37323651 0.091278881 0.55202824 0.82524431 0.11931694 0.00099353713
-0.14675677 -0.37996617 0.091455646 0.4618392 0.87708902 0.13198221 0.0019716953
0.14913325 -0.37935236 0.096993707 -0.4938238 0.86278498 0.10835265 0.001794991
0.15540621 -0.37461674 0.095146701 -0.53841811 0.83467191 0.11588194 0.0011676196
-0.25093758 -0.36505279 0.094848394 0.72041786 0.68742228 0.091916181 0.0025552122
-0.17422554 -0.36145553 0.098621584 0.60390955 0.7869665 0.12640013 0
0.16702139 -0.36560822 0.094542727 -0.60255146 0.78826219 0.12479746 0
0.17158593 -0.36225468 0.09547931 -0.60242885 0.78833318 0.12494137 0
0.24759753 -0.36822245 0.093123555 -0.71011519 0.69988495 0.076795027 0.0024515458
0.25207567 -0.36349344 0.094408743 -0.7262398 0.68234521 0.083550058 0.00261112
-0.25695986 -0.35771775 0.097810924 0.77566421 0.62176704 0.10840127 0.00041987322
0.1806529 -0.35503995 0.093859814 -0.60397148 0.78711694 0.12516138 4.5093984e-05
0.25850531 -0.35457945 0.091322079 -0.7803604 0.61774975 0.097071968 0.00034862771
0.26015276 -0.35359609 0.098038219 -0.78082234 0.61723667 0.096619852 0.00034332467
-0.26788008 -0.34260508 0.092724383 0.78894895 0.60544062 0.10488658 0
0.1985368 -0.34126157 0.093508705 -0.6293804 0.76620454 0.12965703 0.00071342301
0.26563084 -0.34548044 0.092401996 -0.78773683 0.60705531 0.10466376 1.5052256e-05
-0.2091644 -0.33340082 0.090866789 0.68041813 0.72324395 0.11810696 0.0026708555
0.20190448 -0.33852828 0.092570141 -0.63072705 0.76541364 0.12777057 0.0006644103
0.27710468 -0.330199 0.090505362 -0.78901207 0.60536003 0.10487697 4.6575205e-05
-0.28303152 -0.32290897 0.093010142 0.78899872 0.60536665 0.1049395 8.5274201e-05
-0.22143108 -0.32083082 0.09742713 0.76763266 0.627891 0.12842552 0.0003076008
0.21882164 -0.32220429 0.093585983 -0.73911244 0.65789801 0.14450908 0.0015177839
-0.22469574 -0.31620303 0.095649675 0.77014631 0.62488341 0.12804435 0.00032325723
0.22442305 -0.31563997 0.097136006 -0.77486801 0.61929065 0.12672268 0.00043154653
-0.29698464 -0.30441272 0.091207623 0.81942374 0.56526285 0.094987497 0.0013703684
-0.23475811 -0.3021217 0.091040127 0.78688562 0.6039418 0.12674922 0
-0.22999139 -0.30980209 0.098033212 0.78685945 0.60396421 0.12680463 0
0.2327324 -0.3046833 0.096519649 -0.7871232 0.60397184 0.12512021 0
0.29622126 -0.30601221 0.094697341 -0.81576812 0.56853175 0.1062732 0.0013825533
-0.30460653 -0.29425946 0.092797346 0.87049311 0.48313722 0.093915306 0.0024403369
-0.23688124 -0.29946512 0.091565728 0.78692102 0.60388333 0.12680779 6.4313741e-07
0.30457091 -0.29536676 0.097261444 -0.85725105 0.50137842 0.11721946 0.0021616586
-0.30844271 -0.28663605 0.095984325 0.88846827 0.44581044 0.10898214 0.0016741445
-0.25146231 -0.28222975 0.099981219 0.81310725 0.56894791 0.12310502 0.00085405033
-0.24599887 -0.28921914 0.099359035 0.78691441 0.60389829 0.12677772 0
0.24825494 -0.28390524 0.093871325 -0.79467994 0.59304738 0.1295321 0.00020287023
0.25167644 -0.28000835 0.096584007 -0.81343096 0.56979567 0.1168892 0.00097188051
0.30901688 -0.28366759 0.090243347 -0.9054985 0.41200924 0.1015918 0.0010828517
-0.31135398 -0.27841637 0.091662571 0.90630931 0.40951148 0.10442087 0.00082486513
0.25560287 -0.27405429 0.092544138 -0.83282954 0.54038316 0.11992154 0.0021382992
-0.31477401 -0.26987788 0.090640306 0.91819596 0.3819876 0.10488819 0
0.25969437 -0.26899987 0.093884408 -0.85387784 0.50725263 0.11656537 0.0029369013
0.26185474 -0.26376599 0.092362285 -0.88723433 0.44599625 0.11790954 0.0023068434
0.31758958 -0.26435071 0.095249154 -0.91878831 0.38055959 0.10489231 0
-0.32072297 -0.25656074 0.094432287 0.91878539 0.38056329 0.10490451 5.1701991e-05
-0.2661165 -0.25661594 0.094999939 0.8881982 0.44350839 0.12001772 0.0016582495
0.26699302 -0.25359663 0.099138983 -0.90522647 0.40736565 0.12090598 0.00055169436
-0.27073389 -0.24549362 0.095073745 0.91556424 0.3813107 0.12784468 1.9490313e-05
0.26900539 -0.24718839 0.094439544 -0.91475326 0.38481626 0.12305652 6.8352136e-05
-0.33420825 -0.22480159 0.097325653 0.92965841 0.3527236 0.10640239 0.00058148743
-0.27885979 -0.22485332 0.092019923 0.91637427 0.37959126 0.12715651 0
0.27951819 -0.22339347 0.09924382 -0.91660982 0.37966424 0.12522556 0
0.33449286 -0.22422931 0.097742252 -0.93358082 0.33927649 0.11540531 0.00083010393
-0.34008867 -0.21073923 0.097812802 0.96643329 0.23569711 0.10224298 0.002789262
-0.28332904 -0.21514447 0.095245898 0.92233545 0.36441639 0.12844458 0.00034149032
-0.3412472 -0.20286015 0.096158162 0.97412395 0.20334226 0.0986633 0.0019173782
-0.2894206 -0.20121235 0.097557895 0.94146508 0.30862796 0.13561849 0.0021161074
0.28708768 -0.2036072 0.094661161 -0.94841874 0.28917497 0.12992252 0.0020172046
-0.34260774 -0.19336136 0.097192101 0.98463899 0.14127189 0.10260765 0.00028006843
-0.29155701 -0.19401494 0.095317528 0.95654356 0.25613248 0.13935769 0.0027411929
0.34245348 -0.19338086 0.095766455 -0.98233563 0.15166837 0.10960531 0.00044016948
-0.34413236 -0.18163911 0.097017258 0.98583001 0.13085908 0.10495306 5.7925718e-05
-0.29238871 -0.18687189 0.094478905 0.97465193 0.18831019 0.12080079 0.0021422093
0.29231992 -0.18130986 0.095557265 -0.9784317 0.1621858 0.12793392 0.00083840563
-0.34563643 -0.17121091 0.098250359 0.98597997 0.12973978 0.10493368 2.9718485e-05
-0.29383048 -0.17619129 0.094753556 0.98174304 0.14540432 0.12263001 0.00041796878
0.29318082 -0.1754605 0.096269146 -0.98122895 0.14438042 0.12784384 0.0004019755
0.34510511 -0.17306584 0.095551804 -0.98597813 0.12979591 0.10488134 0
-0.34644854 -0.16515553 0.098390698 0.9859758 0.12978871 0.10491244 4.4482931e-05
-0.29452783 -0.16722612 0.091028295 0.98330843 0.12978382 0.12751728 3.2394553e-05
0.29445878 -0.16583115 0.096349075 -0.98361677 0.12946942 0.12544207 0
0.3465023 -0.16491261 0.098595545 -0.98597747 0.12976803 0.1049226 4.9547009e-05
-0.34657887 -0.1577584 0.090461835 0.98597652 0.12983109 0.10485318 0
-0.29716781 -0.15192625 0.095854104 0.98335356 0.12946653 0.12749179 2.5408042e-05
0.29560578 -0.15757018 0.09681493 -0.98361361 0.12946682 0.12546962 1.7811139e-05
-0.34916103 -0.14405379 0.097774416 0.9859727 0.12981193 0.10491239 4.918388e-05
-0.29859605 -0.14028651 0.095050238 0.98530012 0.11343866 0.12773162 0.00026895301
0.29729211 -0.14716677 0.099298477 -0.98361635 0.12949924 0.12541446 0
0.34869355 -0.14272313 0.091733105 -0.9873957 0.11936772 0.10392783 8.9313944e-05
-0.35073292 -0.13094811 0.096331485 0.98960412 0.10096724 0.10241808 0.00055913045
-0.3002134 -0.1312716 0.098370746 0.98750567 0.082266875 0.1344049 0.0012475869
0.29847047 -0.13118234 0.092036843 -0.99016142 0.083353676 0.11239459 0.0014413309
-0.35109252 -0.12980342 0.098295145 0.98960358 0.10098546 0.10240468 0.00055904244
0.29985151 -0.12696892 0.098516501 -0.99176973 0.044379056 0.12009721 0.0024928488
-0.35207197 -0.11416593 0.098738059 0.99426359 -0.052339297 0.093276709 0.0021817938
-0.3011902 -0.11623102 0.09498021 0.99213552 -0.018742885 0.12375744 0.0019411511
0.30018628 -0.11697574 0.09288916 -0.99302155 -0.01402518 0.11709613 0.0017434451
0.35173309 -0.11720913 0.091786727 -0.99548107 -0.0040001106 0.094876714 0.0023710637
-0.30039951 -0.10708492 0.097355574 0.9893803 -0.072694033 0.12586549 0.0015921976
0.29858205 -0.10315424 0.094574906 -0.98987621 -0.078982294 0.11792708 0.0015990037
0.35030973 -0.10642371 0.091754168 -0.98891866 -0.09701658 0.11237296 0.00080925424
-0.34912369 -0.098168105 0.09082213 0.98751897 -0.11408035 0.10859034 0.00035588373
0.29776543 -0.097465694 0.094045147 -0.98601753 -0.11502161 0.12057943 0.00050164963
0.3495307 -0.099582464 0.092897147 -0.9868474 -0.12178598 0.10630322 0.00023973001
-0.34803072 -0.08469785 0.097217873 0.9859733 -0.12981761 0.10489964 0
-0.29717264 -0.085029721 0.094866551 0.9833203 -0.12948109 0.12773323 3.1068161e-05
-0.34662545 -0.075063661 0.095930815 0.98597604 -0.12979865 0.10489786 0
-0.29578435 -0.074874371 0.094472207 0.98331743 -0.12947246 0.12776443 0
0.2953698 -0.073850885 0.09962666 -0.98357886 -0.12950371 0.12570381 1.2195231e-05
0.34627122 -0.074117124 0.0937718 -0.98597914 -0.12978491 0.10488578 0
-0.34559023 -0.06728892 0.095821135 0.98597062 -0.12981176 0.10493257 3.1156193e-05
-0.29403669 -0.065283403 0.090739526 0.98293602 -0.13256273 0.12752955 0
0.29364231 -0.063828506 0.096434377 -0.98185968 -0.14080957 0.12698136 0.00022322367
0.34526435 -0.065665215 0.0947662 -0.98597175 -0.12982781 0.10490205 4.4461129e-05
-0.34444281 -0.057974469 0.096561939 0.98598129 -0.1297784 0.10487378 0
0.34370551 -0.053112488 0.095647231 -0.9854371 -0.13445884 0.10408916 4.6718535e-05
-0.34271082 -0.047000065 0.093861789 0.98449957 -0.14181896 0.10318916 0.00018768535
0.29063198 -0.045087662 0.092185378 -0.96558219 -0.22294523 0.13396445 0.0017967512
0.34232995 -0.040867008 0.097870916 -0.98204982 -0.16395396 0.093259014 0.00061523216
-0.29078987 -0.0385281 0.096097767 0.95538747 -0.26543671 0.12953064 0.0022972713
-0.28747475 -0.031714961 0.092567012 0.93992853 -0.31921405 0.12098245 0.0016164423
0.28856486 -0.03478539 0.098041154 -0.95089769 -0.27952561 0.13288708 0.0021169404
-0.3402113 -0.029114103 0.092500158 0.96453714 -0.24394356 0.10079519 0.0027600478
-0.28551257 -0.025626641 0.096574627 0.92950863 -0.34582892 0.12812527 0.00089747726
0.33805558 -0.022633303 0.092755631 -0.94794112 -0.29783207 0.11271077 0.0021847864
0.34010527 -0.026102703 0.098121777 -0.96109676 -0.25807923 0.098428845 0.0026521946
-0.27958477 -0.011437804 0.096211053 0.91629106 -0.3795307 0.12793417 0
0.33574712 -0.016545348 0.094623923 -0.93642294 -0.33426487 0.10667218 0.0015846121
-0.33016348 -0.0035348688 0.092919737 0.91967601 -0.37819538 0.10566153 4.6246601e-05
-0.27678829 -0.0055641127 0.093608186 0.91627944 -0.37954977 0.12796095 1.3939049e-05
0.27578998 -0.0040787286 0.097634412 -0.91651225 -0.37963042 0.12603983 0
0.33319527 -0.0092094829 0.098887175 -0.92126548 -0.37390727 0.10706709 4.9241939e-05
-0.32491601 0.0096089821 0.094643652 0.91878462 -0.38056943 0.1048895 0
0.269759 0.0093062334 0.094095074 -0.91651106 -0.37963563 0.12603301 0
0.27024645 0.0085772322 0.095443904 -0.91651314 -0.37963325 0.1260246 0
0.32800969 0.001119977 0.09094312 -0.91878414 -0.3805711 0.10488764 0
-0.32245088 0.015712192 0.09519437 0.91878438 -0.38056707 0.10489951 0
-0.26867318 0.014606807 0.095327124 0.9147706 -0.38366184 0.12648432 3.7523692e-05
0.26627618 0.01640185 0.090141229 -0.90164036 -0.41419294 0.12445457 0.00081248139
0.32317629 0.013863945 0.094843149 -0.91878206 -0.38057539 0.10488936 2.1287144e-06
-0.26425105 0.025388667 0.095641397 0.87383717 -0.4660506 0.1385837 0.0025581948
0.26344043 0.02456791 0.094117254 -0.88921553 -0.4408707 0.12218396 0.001224755
0.31827724 0.025566079 0.094387963 -0.91876864 -0.38059735 0.10492811 3.0102166e-05
-0.31376454 0.037565634 0.098396271 0.91872555 -0.38069081 0.10496651 3.0802668e-05
-0.26163304 0.031627417 0.096289322 0.85630721 -0.49802986 0.13676365 0.0027617631
0.25626189 0.037281558 0.092728436 -0.83413088 -0.53660744 0.12758559 0.0019348115
0.31501129 0.034202106 0.097113453 -0.91708809 -0.38461789 0.1049694 6.5852168e-05
-0.2509802 0.04578957 0.094644815 0.80325788 -0.58058399 0.13303731 0.00068921124
-0.24786589 0.048873451 0.090049073 0.79436362 -0.59400612 0.12705559 0.00027651546
0.24963863 0.046499912 0.095531411 -0.79979599 -0.58717406 0.12471178 0.00052958011
-0.24677166 0.050417226 0.090604305 0.78886104 -0.60108256 0.12805475 3.2030381e-05
0.24275728 0.055479348 0.095586933 -0.786982 -0.60389447 0.12637556 0
0.30586565 0.056304969 0.097196802 -0.86980271 -0.4821367 0.10482147 0.0017246016
-0.29756668 0.067540087 0.095668636 0.81812018 -0.56463873 0.10891522 0.0010265372
0.23455191 0.066074841 0.095119081 -0.78699052 -0.60388023 0.12639084 0
0.30222473 0.061266255 0.094494782 -0.86011893 -0.5021354 0.089752182 0.0016026743
-0.28847042 0.079054914 0.093708672 0.7889716 -0.60540992 0.10489382 8.0251575e-06
-0.22855204 0.075260907 0.095788546 0.78682339 -0.60374516 0.12806517 0
0.22738665 0.075225495 0.094224274 -0.78699195 -0.60388017 0.12638237 0
0.2923857 0.073616505 0.091769651 -0.7906251 -0.60328209 0.10470241 0
-0.28734642 0.080704048 0.094772421 0.78897756 -0.60540164 0.10489658 0
-0.22274628 0.082618833 0.094806597 0.75453073 -0.64290249 0.13175648 0.00094786473
0.21916369 0.085114978 0.09027411 -0.75811708 -0.638044 0.1347525 0.001004012
0.2833873 0.085540146 0.092905343 -0.78898346 -0.60539782 0.10487429 9.2943055e-06
-0.21575421 0.092303187 0.097504184 0.71599555 -0.68700618 0.12398752 0.0018988035
-0.20938152 0.098319434 0.09726578 0.68626481 -0.71779233 0.11753657 0.0018738863
0.27643952 0.095436729 0.097765505 -0.78894162 -0.60544568 0.10491212 3.7756268e-05
-0.27175593 0.10058797 0.092268482 0.78896195 -0.6054244 0.10488259 2.3571456e-06
-0.26775882 0.10593957 0.093090929 0.78899026 -0.60538757 0.10488182 8.3687058e-07
-0.20327491 0.10252522 0.094316781 0.65034813 -0.74936622 0.12448915 0.0017690944
-0.19393656 0.10922959 0.091482908 0.60756314 -0.78382331 0.12840626 6.3859021e-05
0.1958739 0.10725217 0.092874795 -0.61088389 -0.78141904 0.12729976 0.00012799329
0.26726973 0.10740391 0.097863629 -0.78896117 -0.60541928 0.1049181 0
0.27083915 0.10256787 0.096799821 -0.788966 -0.60541695 0.10489504 0
-0.25994796 0.11667702 0.096312836 0.78243369 -0.61383843 0.1048799 0.00023199165
-0.18418396 0.11726604 0.094880588 0.60374379 -0.78682727 0.12804812 7.311849e-06
0.18544996 0.11602325 0.097669341 -0.60384405 -0.78695315 0.12679525 6.3908114e-06
0.25831085 0.11838754 0.093871363 -0.7659089 -0.63608003 0.093732245 0.0010693362
-0.25348094 0.12482122 0.09467528 0.72914207 -0.67674387 0.10183115 0.0023762111
-0.1683607 0.12888369 0.091660805 0.59294719 -0.79515457 0.1270542 0.0002746697
0.16860659 0.12840153 0.094279438 -0.5983426 -0.79141498 0.12509359 0.00010417651
0.17399995 0.12371437 0.090873897 -0.60387033 -0.78693223 0.12680016 0
0.2513842 0.12680359 0.09034574 -0.74191332 -0.66293138 0.10043187 0.0016913787
-0.16323836 0.13366514 0.09688928 0.57269621 -0.81041032 0.12350745 0.00082874327
0.15708104 0.13734365 0.094889365 -0.54201418 -0.83242488 0.11528014 0.0013701194
0.16161339 0.13339207 0.091948323 -0.57236111 -0.80941522 0.1313381 0.0007811056
0.23798442 0.13955808 0.098202258 -0.63933468 -0.76015538 0.11582254 0.0011212438
0.24871562 0.1315396 0.099826306 -0.6839788 -0.72120231 0.10972803 0.0022282302
-0.23544368 0.14130239 0.09665899 0.63323283 -0.76632011 0.10848816 0.00044206347
-0.154385 0.14008066 0.094567098 0.54077297 -0.83035451 0.13444671 0.0010794856
-0.1442336 0.14547117 0.094421633 0.47699764 -0.86704421 0.1439013 0.0021578784
0.13491394 0.14888868 0.094032295 -0.39710027 -0.90899765 0.12662788 0.00045251229
0.14332479 0.14567816 0.09600234 -0.4678863 -0.87486458 0.12527686 0.0011535847
0.22629359 0.148294 0.096436381 -0.60540444 -0.78897488 0.10490018 8.4076401e-06
-0.21684439 0.15534422 0.094930634 0.60541564 -0.78896832 0.10488472 0
0.11426252 0.1572324 0.092516407 -0.37957573 -0.91637999 0.12716115 8.2399765e-06
0.21965021 0.15264367 0.09081012 -0.60541809 -0.78896505 0.10489561 8.4573385e-06
0.22274089 0.15127222 0.098332867 -0.60542786 -0.7889604 0.10487458 0
-0.10582506 0.16100228 0.091712318 0.37953633 -0.91628593 0.12795392 2.1137625e-06
-0.094925039 0.16594675 0.094788514 0.37056369 -0.92029876 0.12543084 0.00011353892
0.085569926 0.16997741 0.098714665 -0.31757095 -0.93699485 0.14556578 0.0016992812
0.092740297 0.16667408 0.096313536 -0.36516899 -0.92266726 0.12384206 0.00024708142
0.10404013 0.16164038 0.09376841 -0.37958223 -0.91637552 0.1271742 6.3457428e-06
0.20133725 0.16662754 0.09029831 -0.60542476 -0.78896075 0.10488936 1.1008216e-05
-0.19408835 0.17283003 0.095115297 0.59497839 -0.79678428 0.10552501 0.0002702905
-0.055637836 0.17612833 0.097365826 0.14302589 -0.9812029 0.12955499 0.00019717822
-0.044916362 0.17721932 0.09489876 0.12945764 -0.98331994 0.12776029 0
-0.038227953 0.1784445 0.097551338 0.12946248 -0.98331898 0.12776253 0
-0.027079944 0.17919604 0.092039473 0.12810081 -0.98344129 0.1281931 2.743232e-06
0.026030701 0.17905024 0.090797365 -0.12915935 -0.98338562 0.1275561 0
0.04343139 0.17696641 0.092394263 -0.12947048 -0.98335367 0.12748699 1.1686311e-05
0.060719136 0.17484909 0.093618043 -0.15642551 -0.97976613 0.12485772 0.00055392296
0.072578259 0.17401232 0.099206559 -0.19641544 -0.97086102 0.13729447 0.001593022
0.081656031 0.17043954 0.090361401 -0.27951056 -0.94914514 0.1449047 0.0025032656
0.18835598 0.17735639 0.09607549 -0.57855648 -0.8093828 0.10085575 0.00071166898
0.19410908 0.17310777 0.097323015 -0.59770405 -0.79447752 0.10749628 9.6805095e-05
-0.17737381 0.18532093 0.093049027 0.5044238 -0.85845935 0.092758723 0.002531138
-0.16957432 0.18931028 0.094967097 0.44581789 -0.89025998 0.093184933 0.0019309465
-0.023225432 0.18071012 0.099787086 0.12813635 -0.98336875 0.12871243 0
0.0092501519 0.18158944 0.093342476 -0.074148998 -0.99164379 0.10556806 0.0011685896
0.020971371 0.18061706 0.097745046 -0.1165567 -0.98566842 0.12195191 0.00028560142
0.17437886 0.18701147 0.096277393 -0.49718955 -0.86243665 0.094897613 0.0023018348
0.18239489 0.1815663 0.09333647 -0.5330233 -0.83961833 0.10453367 0.0023262047
-0.15789911 0.19442339 0.097393453 0.40298235 -0.90938765 0.10305048 0.00043450473
-0.14807604 0.19851661 0.097606637 0.3805463 -0.91879421 0.104889 0
0.14623666 0.19883263 0.093700178 -0.38059592 -0.91877174 0.10490538 1.7606659e-05
0.15732546 0.19430016 0.094232179 -0.39674941 -0.91163993 0.10725017 0.00035277163
0.16235453 0.19217189 0.093837045 -0.40026569 -0.9096275 0.11119893 0.00034607609
-0.1434207 0.20039205 0.097143367 0.38058499 -0.91877878 0.10488313 0
0.12140681 0.20895587 0.092283353 -0.38058224 -0.91877645 0.10491416 1.6289656e-05
0.13770767 0.20267205 0.096385419 -0.38057452 -0.91877943 0.10491657 4.6634639e-05
0.14103353 0.20138374 0.097167566 -0.38057956 -0.91877842 0.10490651 1.3707239e-05
-0.10057224 0.21749386 0.091477498 0.31324625 -0.94452208 0.098766848 0.00085348613
0.10636515 0.21557479 0.095685557 -0.35751534 -0.9276666 0.10778464 0.00042416534
-0.084974751 0.22257987 0.094740711 0.20585233 -0.9730655 0.10377088 0.0009636383
-0.07647758 0.22374022 0.095132865 0.17982645 -0.97789985 0.10665037 0.00090094551
-0.065584019 0.22519268 0.095304921 0.12983139 -0.98597008 0.10491317 0
-0.055037752 0.22695591 0.09882804 0.12979834 -0.98597622 0.10489625 4.5498413e-07
0.035166413 0.22965981 0.099652976 -0.12980871 -0.98597354 0.10490911 8.8227362e-06
0.044019129 0.22793125 0.094359778 -0.12980855 -0.9859727 0.10491657 3.2000647e-05
0.055553973 0.22654068 0.095562913 -0.129816 -0.98597223 0.10491205 2.0234496e-05
0.060960408 0.22615048 0.098585583 -0.12980524 -0.98597664 0.10488456 0
0.095023721 0.22027403 0.095698088 -0.29189968 -0.95041645 0.10725314 0.0020341675
-0.024124051 0.23114973 0.099993885 0.11930088 -0.98726493 0.10523959 0.0001684439
-0.014139626 0.23215076 0.097047448 0.063851103 -0.9929955 0.099412449 0.00076959102
0.0049156286 0.23315454 0.095067449 -0.015938792 -0.99448657 0.10364529 0.0017389612
0.024880748 0.23054937 0.095286131 -0.12980829 -0.9859761 0.10488545 1.4237872e-06
-0.010275577 0.36501524 0.092597239 -0.20544305 -0.81283599 -0.5450604 0.016108226
-0.0093112998 0.3641777 0.093603402 -0.17952414 -0.79409242 -0.58067918 0.013746412
0.0075838016 0.36623076 0.090268366 0.12098319 -0.84222353 -0.52537847 0.015240379
0.016962552 0.36597905 0.094600022 0.32449499 -0.77435648 -0.543208 0.015897876
-0.035557114 0.37618083 0.099038117 -0.62359226 -0.64965558 -0.43483353 0.011235875
-0.022750415 0.37089342 0.091484621 -0.46513233 -0.74468309 -0.47864291 0.0033973036
0.02736743 0.37428367 0.091306321 0.54864466 -0.70641869 -0.44717094 0.011303953
0.031842172 0.37868738 0.090592653 0.5932582 -0.68259507 -0.42674193 0.014746012
0.037793189 0.38256833 0.093733698 0.68990892 -0.6052708 -0.39708045 0.011467397
-0.045802385 0.39431214 0.096468389 -0.86860198 -0.42271119 -0.25854564 0.0046307482
0.044223808 0.39188471 0.09529914 0.83338124 -0.46826857 -0.29359868 0.012125669
-0.050391231 0.40849119 0.094423719 -0.97444701 -0.18845303 -0.12222316 0.009850638
-0.05215871 0.42443296 0.09068352 0.99990034 0.0098360879 -0.010124471 0.0082592601
-0.05143458 0.43368801 0.097510517 0.99058992 -0.092771366 -0.10062367 0.01211267
0.051896974 0.4317323 0.09344697 -0.99291825 -0.11812794 -0.012613932 0.010203432
-0.05050689 0.4408915 0.095048562 0.95618838 -0.26727623 -0.11944481 0.0092683136
-0.048668977 0.44597912 0.093907505 0.92548627 -0.35280663 -0.13784958 0.0060775192
0.048818085 0.44478494 0.09726242 -0.93097579 -0.33026564 -0.15559161 0.013205118
0.042168822 0.4590224 0.093814984 -0.84270865 -0.49946591 -0.20093752 0.011589274
-0.035183869 0.46678656 0.093609832 0.71707153 -0.66037863 -0.2229539 0.0068855709
0.034103315 0.46880898 0.092648856 -0.68142408 -0.6932044 -0.23479545 0.013208985
0.040890168 0.46128127 0.092305072 -0.74441046 -0.63787639 -0.19740011 0.008942388
-0.022219811 0.47496837 0.098254696 0.42792842 -0.84476578 -0.3213225 0.0085139386
-0.016916174 0.4770315 0.099120319 0.32566476 -0.88840884 -0.32353073 0.009365892
0.018757574 0.47844458 0.092656933 -0.34898847 -0.88329244 -0.31305197 0.0098099317
-0.0025749172 0.48129773 0.095384151 0.063307941 -0.95785534 -0.28018779 0.0095442953
0.0088153267 -0.47070509 0.1061314 -0.065057077 0.99191928 0.10892103 0.0019344408
-0.088200696 -0.46064535 0.10981041 0.21878161 0.96973592 0.10838273 0.0026191128
-0.071879193 -0.46278015 0.10967922 0.14694639 0.98292267 0.11076957 0.0004238236
-0.067160815 -0.46251637 0.10136028 0.13628337 0.98520136 0.10394764 0.00015815027
-0.042572528 -0.46638307 0.1072788 0.12982261 0.98596078 0.10501131 9.2162154e-05
-0.033270892 -0.46762839 0.10747413 0.12982257 0.98596913 0.1049337 0.00011449467
-0.027898602 -0.46810955 0.10534878 0.12979667 0.98598164 0.10484753 0
-0.017648736 -0.46925822 0.10346173 0.092711806 0.99050879 0.10147343 0.00075246929
0.013785622 -0.46978694 0.10365158 -0.11660632 0.98751426 0.10591755 0.00023385647
0.026079508 -0.46856636 0.10739248 -0.12914352 0.98603046 0.10519467 0.00010260631
0.035088889 -0.46710464 0.10480143 -0.12981643 0.98597699 0.10486706 0
0.055071998 -0.46430039 0.10317101 -0.12981793 0.98597258 0.10490619 6.6613946e-05
0.066448487 -0.46267045 0.10192791 -0.13453145 0.98526579 0.10560599 1.0434769e-05
0.074612573 -0.46177942 0.10365512 -0.15368345 0.98273176 0.10305155 0.0008407617
0.087883577 -0.46033257 0.10647804 -0.18847992 0.97741663 0.095562086 0.0014784092
0.090990454 -0.46025598 0.10960267 -0.22184013 0.970478 0.094654731 0.0029590342
-0.11163919 -0.4517014 0.10816079 0.37284163 0.92198193 0.10458748 5.6648627e-05
-0.10109004 -0.45627695 0.10996429 0.32703719 0.93807423 0.11429492 0.0020111506
-0.095863983 -0.45814344 0.10735193 0.29883114 0.94765419 0.11247879 0.002836301
0.09692008 -0.45747131 0.1052959 -0.32354209 0.94026417 0.10594285 0.0016759092
-0.13366081 -0.44213265 0.10424548 0.38060185 0.91877812 0.10482877 0
-0.12624772 -0.44549477 0.10679834 0.38059428 0.91877133 0.10491548 7.7801087e-06
0.12626016 -0.4455542 0.10736172 -0.38058692 0.91877681 0.10489407 0
0.13510096 -0.441901 0.10743946 -0.38058174 0.91877985 0.10488585 0
-0.16210496 -0.43069202 0.10723522 0.40360531 0.90818852 0.11088898 0.00080899481
-0.14401487 -0.43772995 0.10324827 0.38059908 0.91877168 0.10489483 5.4117318e-05
0.13943991 -0.43941382 0.10139607 -0.38063121 0.91875947 0.10488483 0
0.15582298 -0.43277633 0.10269825 -0.38967672 0.91520506 0.10272163 0.00020138131
-0.16626644 -0.4285979 0.10399063 0.41732413 0.90165591 0.11338957 0.001231587
-0.19434795 -0.4110119 0.1063498 0.59311825 0.79837853 0.10393424 0.00014847069
-0.18580288 -0.41746768 0.10558986 0.54945141 0.82748598 0.11562904 0.0012304042
-0.07294184 -0.41038853 0.10203003 0.21539143 0.96914905 0.11981879 0.0018157914
-0.065217361 -0.41141611 0.10211381 0.17809771 0.97647566 0.12155859 0.0012702155
-0.044336464 -0.41442901 0.10418024 0.12948497 0.98357904 0.12572148 0
-0.03627184 -0.41568276 0.10568354 0.12948313 0.98357642 0.12574415 1.5066913e-05
-0.028110955 -0.41609606 0.10051153 0.12947296 0.98358494 0.125688 0
0.0073893717 -0.41937578 0.10582006 -0.076718509 0.98830646 0.13177469 0.00099994731
0.013936653 -0.41848999 0.10563248 -0.10453617 0.98695004 0.12248192 0.00059388112
0.028779443 -0.4166671 0.1066602 -0.12948556 0.9836129 0.12545568 2.9013554e-05
0.034908898 -0.41535905 0.10273016 -0.12949164 0.98360938 0.12547691 6.746209e-05
0.042847026 -0.41490102 0.10733337 -0.12950766 0.98362058 0.12537287 0
0.060528297 -0.41253915 0.1070645 -0.1605116 0.97872597 0.12779488 0.00071061525
-0.20400104 -0.40340513 0.10484721 0.60544556 0.78894359 0.10489798 0
-0.090355575 -0.40574592 0.1090315 0.32197347 0.9358902 0.1429777 0.0014105316
-0.081449091 -0.40873322 0.10392747 0.27655539 0.95191544 0.13181098 0.0022201762
0.075487047 -0.40996093 0.10228953 -0.22508791 0.96713996 0.11821897 0.0017794688
0.085964024 -0.4063535 0.10310481 -0.31986052 0.93954659 0.12223499 0.0016913232
-0.20892085 -0.39982176 0.10628919 0.60545897 0.78892922 0.10492905 1.8395e-05
-0.11508598 -0.39452541 0.10192992 0.37965423 0.91650313 0.12603478 1.0993403e-05
-0.10748019 -0.39824429 0.10606307 0.37969294 0.91648954 0.12601659 0
0.10786259 -0.39719325 0.10245121 -0.37972587 0.91657281 0.12530957 7.2919378e-05
0.11103199 -0.39600095 0.10333352 -0.37966618 0.9166075 0.12523764 2.4807227e-06
0.12275317 -0.39136782 0.10495891 -0.37973857 0.91657245 0.12527421 3.9708848e-05
0.21850964 -0.39222956 0.10452923 -0.60544014 0.78894782 0.10489823 6.2936983e-06
-0.1354406 -0.38624766 0.1030475 0.40598106 0.90481842 0.1283862 0.00054119492
0.12978257 -0.38897344 0.10874559 -0.37969741 0.91659802 0.12521146 0
0.13717233 -0.38588825 0.10856875 -0.40047717 0.90732718 0.1279667 0.00036367885
0.22274008 -0.38920677 0.10620907 -0.60545766 0.78893858 0.1048668 9.6763997e-06
-0.23755062 -0.37810937 0.10821556 0.63316739 0.76795304 0.096680917 0.00041597968
-0.15504587 -0.37710154 0.10440574 0.51578218 0.84845126 0.11874007 0.0024226338
0.23655787 -0.37782839 0.10037439 -0.61921579 0.77755159 0.10947832 0.00022404964
0.24392098 -0.3728413 0.10535965 -0.67389071 0.73143232 0.10429818 0.0023280159
-0.251719 -0.36506015 0.10076851 0.7207222 0.68854183 0.080434121 0.0021162129
