# .PCD v0.7 - Point Cloud Data file format
VERSION 0.7
FIELDS x y z normal_x normal_y normal_z curvature
SIZE 4 4 4 4 4 4 4
TYPE F F F F F F F
COUNT 1 1 1 1 1 1 1
WIDTH 583
HEIGHT 1
VIEWPOINT 0 0 0 1 0 0 0
POINTS 583
DATA ascii
-0.3847627 -0.14789055 0.26188433 0.84904116 0.52809036 0.015801689 0.0013568691
0.097692244 -0.14343002 0.26424712 -0.86267698 0.5052982 0.021499641 0.0021008234
-0.47076431 -0.13321513 0.26527172 0.92384183 0.38277435 -0.00012099037 0
-0.46911341 -0.13720074 0.26274195 0.92385876 0.38273346 -0.00019669514 0
0.099983476 -0.13977081 0.2657502 -0.87554312 0.48279718 0.018193161 0.0021252742
0.10381112 -0.13053006 0.26217657 -0.89256442 0.45082855 0.0090853442 0.0014228203
0.17871794 -0.13696486 0.26687026 -0.92387617 0.38269156 -7.4385622e-05 0
0.18043795 -0.13281238 0.26327682 -0.92387611 0.38269168 4.8143361e-06 9.5950527e-06
-0.47210899 -0.12996869 0.26402706 0.92386264 0.38272417 0.00018104482 1.641985e-05
-0.3980554 -0.12147409 0.2635448 0.91483027 0.40380737 0.0050212587 0.00040410468
0.1077636 -0.12098795 0.2620106 -0.9198904 0.39217126 0.0018035917 0.00012130471
0.18347235 -0.12548667 0.26243132 -0.92387074 0.38270473 -5.2376414e-05 0
0.11057186 -0.11420821 0.26423782 -0.92387062 0.38270503 -5.5409877e-05 0
0.1874845 -0.11580049 0.2699061 -0.92387384 0.38269711 -1.0325345e-05 4.1303124e-06
-0.48327583 -0.10300948 0.26498765 0.93845224 0.34529534 -0.008858853 0.00085061701
-0.40424454 -0.10653217 0.26140994 0.92388302 0.38267502 7.6373261e-05 3.6446472e-05
0.11323349 -0.10778248 0.26075745 -0.92387646 0.38269088 7.5734715e-06 3.2371513e-06
0.19233245 -0.10409646 0.26922652 -0.94076115 0.33905545 0.0031511581 0.0012297049
-0.48501801 -0.098803543 0.26439282 0.94933289 0.31416842 -0.0080793453 0.0012479842
-0.4073354 -0.099070251 0.26601428 0.92459428 0.38095289 0.0004348112 6.3122454e-05
0.11827476 -0.095611781 0.26277703 -0.92387545 0.38269323 1.2367968e-05 0
0.12001321 -0.091414794 0.26641586 -0.92387742 0.38268849 1.3551415e-06 0
0.19472137 -0.098329119 0.26426408 -0.95147443 0.30772299 0.0016969304 0.0018651388
-0.48816314 -0.089909397 0.26935148 0.96748489 0.25259039 -0.013079661 0.0024393098
-0.41457564 -0.081590794 0.26838157 0.94660407 0.32239825 0.00034787366 0.00123356
0.12376788 -0.082350247 0.26260632 -0.94336456 0.33148393 0.01348226 0.0012623299
0.1987198 -0.081934854 0.26708898 -0.98176593 0.18995203 0.0073454021 0.0012437685
-0.41721457 -0.074694969 0.26385805 0.95516253 0.2960715 -0.0025025795 0.0016101531
-0.41953152 -0.062153235 0.26643413 0.98469365 0.17424555 0.0041150828 0.00097906799
0.20117143 -0.063312851 0.26089334 -0.99144524 0.13052368 -3.9964889e-05 9.9244453e-06
-0.42087978 -0.051912554 0.26812711 0.99054307 0.137171 0.0029169209 0.0001044578
-0.41996041 -0.058895674 0.26914006 0.98491436 0.17300493 0.003611149 0.00064999668
-0.49359217 -0.048671879 0.26608038 0.99144191 0.13054873 5.3694541e-05 0
0.13161853 -0.042554803 0.26721317 -0.99144578 0.13051912 8.2895713e-06 2.5621564e-06
0.20403829 -0.041536905 0.26797289 -0.88089079 0.46624973 0.081502579 0.13448563
-0.49539679 -0.034964733 0.26365861 0.99144065 0.13055794 -8.6189706e-05 0
0.13234314 -0.037050787 0.26233006 -0.9914459 0.13051859 2.6846086e-05 6.2714262e-06
0.21892679 -0.0308515 0.26881078 0.20775929 -0.75644207 -0.62018657 0.18361886
0.22778958 -0.031015085 0.26745543 0.086492233 -0.83129054 -0.5490675 0.10280453
0.23758247 -0.031728633 0.26760602 -0.0091615291 -0.63666266 -0.771088 0.064886317
0.38212335 -0.030330857 0.26976588 -0.26977667 -0.73858809 -0.61782533 0.060419016
0.39901316 -0.032463107 0.26323679 -0.2617026 -0.78072685 -0.56743062 0.061605509
0.40133536 -0.034251906 0.26647687 -0.24647918 -0.85513812 -0.45605582 0.057241455
0.42243433 -0.036637302 0.26194882 -0.16889663 -0.9830355 -0.071519285 0.038211059
0.4353317 -0.035947639 0.26132184 -0.24754894 0.95512599 -0.16264656 0.025189629
0.44608718 -0.032712311 0.26245975 -0.34937266 0.88608128 -0.30462879 0.017872004
-0.4968082 -0.024243793 0.26449633 0.99204808 0.12585826 0.00053357193 1.8926226e-05
-0.42403948 -0.027911916 0.26652589 0.99176913 0.12803864 -0.00012876395 0
0.22411585 -0.027591592 0.26407081 0.24343659 -0.60138649 -0.76096845 0.14084838
0.23081288 -0.029332027 0.2651628 0.0833055 -0.62794274 -0.77378809 0.10896841
0.24941245 -0.020898554 0.26148814 0.1098396 -0.32241553 -0.94020396 0.035946649
0.25577095 -0.023222692 0.26249725 0.12694229 -0.416531 -0.90021527 0.033030953
0.28013584 -0.023335913 0.26936272 0.21236628 -0.5768739 -0.78874403 0.034123659
0.37487632 -0.022859674 0.26784569 -0.43792367 -0.38708743 -0.81141001 0.028476043
0.38561162 -0.027489705 0.26433036 -0.31312937 -0.71444696 -0.62571198 0.062813379
0.45546734 -0.023784121 0.26694351 -0.61004806 0.56957376 -0.55084217 0.041620374
0.46089453 -0.021851791 0.26181677 -0.71544117 0.45068553 -0.53387868 0.038238067
-0.42537099 -0.017797889 0.26243389 0.99277472 0.11999325 7.9241927e-06 5.2801475e-05
0.1353642 -0.014103403 0.26252395 -0.99382246 0.11089946 0.0042661582 0.00031217642
0.22862779 -0.012645027 0.26157516 0.088356234 -0.20322897 -0.97513646 0.087429732
0.23701264 -0.013532409 0.26101652 -0.019242859 -0.18743908 -0.98208773 0.012894737
0.25168601 -0.014458284 0.26171747 0.07430011 -0.16878346 -0.9828487 0.010292862
0.26649675 -0.015150853 0.26469171 0.21304609 -0.18488334 -0.95939016 0.016104333
0.27518722 -0.014990185 0.26756316 0.2391434 -0.28214923 -0.92908686 0.033074073
0.28102827 -0.014737647 0.26966172 0.19188732 -0.2980876 -0.93505245 0.038276155
0.3873952 -0.018246882 0.26152924 -0.47726372 -0.32415742 -0.81678718 0.031276036
0.45865843 -0.016494043 0.26882055 -0.72996193 0.2894724 -0.61916178 0.021181583
-0.49970844 -0.0022144599 0.26529229 0.99962783 0.018330699 0.020203322 0.0031366663
-0.42702973 -0.0051986687 0.26363534 0.99973601 0.021637049 -0.0077389469 0.0026239546
0.20878665 -0.0054702689 0.26350912 -0.99909687 0.03009489 -0.029996788 0.1713441
0.2182681 -0.0048228833 0.263237 0.092370026 -0.12411547 -0.98795909 0.23136905
0.22844204 -0.0071671493 0.26159391 0.075779676 -0.1033093 -0.99175835 0.11342964
0.23493236 -0.0014662689 0.26108626 -0.049803972 -0.027817011 -0.99837154 0.021968456
0.24170411 -0.0047807214 0.26101029 0.022262167 -0.052277412 -0.99838436 0.0043686302
0.26466858 -0.0057084523 0.26420084 0.23273271 -0.011744579 -0.97246981 0.0017790346
0.38580573 -0.0068142056 0.26237112 -0.52920026 -0.10064219 -0.84250712 0.010559122
0.45983222 -0.0010487027 0.26722348 -0.76717305 0.0018111293 -0.64143759 0.0060643023
0.46188849 -0.0021838918 0.26442581 -0.77504241 0.085307449 -0.62612462 0.0058854548
-0.49958134 0.003180186 0.26800883 0.99959469 -0.028440561 -0.0012139637 0.0027463101
-0.42750779 0.0015674081 0.26886317 0.999991 -0.0028279885 -0.0031717881 0.0024945708
0.13651019 0.0053988635 0.26213109 -0.99899369 -0.044172764 0.0077649676 0.002449512
0.20852631 0.0074477619 0.26353043 -0.9534691 -0.072357513 -0.29267919 0.21697232
0.21580742 0.0032310213 0.26382497 -0.13880613 0.1651703 -0.97644848 0.22347306
0.22819409 0.0026779906 0.26161891 0.047750209 0.072789513 -0.99620366 0.12789543
0.23660217 0.0061205858 0.26103029 0.061382107 0.085607775 -0.99443632 0.01236765
0.24015754 0.0055022268 0.2609584 0.022268031 0.038980294 -0.99899185 0.0047322591
0.25401604 0.0055281948 0.2620399 0.13958782 0.045711916 -0.98915398 0.0035250238
0.26487097 0.0056053237 0.26432586 0.22987233 0.059021659 -0.97142941 0.0071093845
0.38291416 0.0039690556 0.26381952 -0.49664712 0.040217906 -0.86702025 0.0046065697
0.46382982 0.004825335 0.26178443 -0.80267888 -0.091701619 -0.58931947 0.0079897791
-0.42568409 0.015419882 0.26559043 0.99616963 -0.087423123 0.0018174667 0.0011086297
0.13487428 0.017824845 0.26709521 -0.99382859 -0.11084454 -0.0042623291 0.00036649898
0.20809785 0.015078206 0.26404285 -0.95050931 0.14681083 -0.27382228 0.21241845
0.22696227 0.017540274 0.26174316 0.060595743 0.33729541 -0.93944663 0.096962243
0.23414105 0.015570756 0.26111275 0.093835182 0.20232303 -0.97481304 0.050353974
0.24608046 0.010604588 0.26115698 0.07067173 0.1321588 -0.98870605 0.014009709
0.25420499 0.017368879 0.26209706 0.10261901 0.26229244 -0.95951658 0.018649962
0.26462737 0.012978059 0.26420265 0.16245192 0.17459604 -0.97114652 0.014234161
0.27838236 0.018615415 0.26877519 0.30567005 0.25572982 -0.91715211 0.031558972
0.37490433 0.015874648 0.26783168 -0.45040432 0.29857561 -0.84142053 0.044712111
0.38630882 0.019754963 0.26211911 -0.46718633 0.32492027 -0.82229173 0.046261057
-0.49670058 0.025061401 0.26219368 0.99199474 -0.1262788 -0.0001390524 0
-0.42448333 0.024540482 0.26619259 0.99274898 -0.12019919 -0.0012568237 0.00011574142
0.13355283 0.027862266 0.26953053 -0.99144429 -0.1305307 1.531258e-05 0
0.20728821 0.023747692 0.26274943 -0.96674228 -0.25369051 0.032410964 0.16953504
0.21753016 0.020228513 0.26341331 0.046412081 0.22333631 -0.97363585 0.21263246
0.22740535 0.024612725 0.26323497 0.055676628 0.45731983 -0.88755769 0.087902874
0.23442638 0.023143375 0.26110891 0.12271413 0.43086138 -0.89403558 0.055480756
0.24207483 0.024712276 0.26154035 0.045760144 0.47330141 -0.87971115 0.046146065
0.26837263 0.025243595 0.26669702 0.20680515 0.52611232 -0.82488632 0.031168519
0.27565697 0.023161046 0.26774606 0.1311222 0.55325395 -0.82262814 0.034751549
0.37525192 0.024279265 0.26775816 -0.46959877 0.50039965 -0.727377 0.057116948
0.38619933 0.023427391 0.26217395 -0.35937506 0.54560751 -0.75707477 0.051317301
0.45440978 0.026986666 0.2636846 -0.58846235 -0.60249543 -0.5391764 0.039626889
-0.49552295 0.034006283 0.2636084 0.99144512 -0.13052373 3.0591091e-05 0
0.13279799 0.033595975 0.26788968 -0.991445 -0.13052513 4.0329101e-06 8.8289444e-06
0.20453593 0.037756868 0.26704884 -0.95729363 -0.28246003 0.061686929 0.10788437
0.21824566 0.030598544 0.26866794 0.21642432 0.71825272 -0.66126657 0.21228449
0.22918689 0.032656297 0.2699385 0.08853595 0.71781003 -0.69058686 0.10961473
0.2432138 0.031141629 0.26697934 0.091084421 0.6280486 -0.77282506 0.041199967
0.38304028 0.030408578 0.26940876 -0.3290171 0.74899459 -0.57511282 0.06477055
0.40341842 0.033842631 0.2637738 -0.2555609 0.88842976 -0.38128889 0.048822679
0.43795729 0.034684751 0.26367468 -0.28083339 -0.93336016 -0.22354303 0.048234023
0.44283977 0.033447862 0.26341778 -0.39409855 -0.83240664 -0.38959667 0.013644821
-0.49430349 0.043268841 0.2608152 0.9914391 -0.13057007 1.720016e-05 0
-0.42198128 0.04354576 0.26033294 0.99144042 -0.13055979 2.8017257e-05 4.252476e-05
0.1315712 0.04291435 0.26471525 -0.99144554 -0.13052069 1.8980547e-05 0
0.2030002 0.049421944 0.26644835 -0.98335749 -0.18082266 0.01763881 0.013789818
-0.49257299 0.056413312 0.26606154 0.99144334 -0.13053808 8.4645399e-05 4.0144969e-05
-0.42048103 0.054941263 0.26799405 0.98892665 -0.14837635 0.0029040149 0.00036677837
0.1296743 0.057322837 0.2629962 -0.98861724 -0.15045205 -0.000274563 0.00029054409
0.20286149 0.050475694 0.26713973 -0.98205465 -0.18809576 0.013735063 0.014625893
-0.49163535 0.063535251 0.26647016 0.99144316 -0.13053887 7.6030519e-05 0.00015640649
-0.41945744 0.062716253 0.26828367 0.98142713 -0.19174123 -0.0060088998 0.0011549989
0.12881672 0.063836768 0.26945496 -0.97426176 -0.22538413 0.004013719 0.0020290106
-0.41585848 0.078493707 0.26563251 0.96440405 -0.26431921 0.0077601154 0.0019390985
0.12642677 0.075931124 0.26354074 -0.95742214 -0.28861612 0.0066078026 0.0019992804
-0.48583293 0.096836202 0.26397896 0.95554155 -0.29475462 -0.0077440762 0.0018868333
0.11955585 0.092518993 0.26777479 -0.929097 -0.36982915 -0.0022684915 0.00027170958
0.12013471 0.091121517 0.26335397 -0.93519598 -0.35410979 -0.0038366932 0.00074432133
0.19675168 0.093427479 0.2643517 -0.96183395 -0.27307114 0.017537536 0.0019534105
0.11529891 0.10279614 0.26476488 -0.92388213 -0.38267711 -3.9707098e-05 0
0.19185455 0.10525022 0.2653144 -0.93714345 -0.34893212 -0.0029309331 0.0012520443
-0.47938165 0.11241102 0.26533943 0.92619532 -0.37703648 0.0024065098 0.00013327789
-0.40005994 0.1166347 0.2696147 0.9238528 -0.38274816 -5.2906416e-05 0
-0.3996906 0.11752639 0.2621091 0.92384309 -0.38277143 8.099604e-05 0.00013882732
0.11178653 0.11127578 0.26458159 -0.92386991 -0.38270676 -3.6257574e-05 0
0.18757494 0.11558214 0.26864433 -0.92387509 -0.38269436 5.2656454e-05 5.9709064e-06
-0.47486955 0.12330412 0.26411539 0.9238987 -0.38263711 -6.6281907e-05 0
-0.39730972 0.12327431 0.26229534 0.91660929 -0.39978343 -0.00074711355 0.0004129092
0.18210533 0.12878695 0.26486397 -0.92387897 -0.38268477 -9.5181249e-06 0
-0.46845129 0.13879919 0.26166636 0.92386478 -0.38271892 0.00017263675 6.1564177e-05
0.10254309 0.13359143 0.2627978 -0.89144599 -0.45312631 -0.00078304508 0.0014025382
0.18060212 0.13241601 0.26544154 -0.92387843 -0.38268602 -4.5523499e-05 0
-0.4651072 0.14687264 0.26574746 0.92383486 -0.38279119 -3.2177344e-05 0
-0.39036423 0.14004222 0.26552975 0.87025505 -0.49251941 -0.0089856926 0.0027781196
-0.38644344 0.14570028 0.26072162 0.84585059 -0.53341991 8.1939324e-05 0.0021000917
0.095390916 0.14642921 0.26694363 -0.83893412 -0.54422534 -0.0028699373 0.001715089
0.17562157 0.14444014 0.26557985 -0.92387265 -0.3827 -2.5781166e-05 3.1636569e-06
-0.46371037 0.15024486 0.26631191 0.92388928 -0.38265991 -4.4571898e-06 0
-0.38044918 0.15351211 0.26748499 0.809457 -0.58717889 -0.00047512658 0.00067759975
0.088452913 0.155471 0.26503223 -0.80182838 -0.59755194 0.0017290998 0.0003406154
0.17264195 0.15163359 0.26181415 -0.92388368 -0.38267332 1.6999977e-05 0
-0.45695722 0.1665484 0.26375416 0.8998338 -0.43621269 -0.0042108451 0.0015619351
0.07878758 0.16806707 0.26280233 -0.79334432 -0.60877311 -5.1207891e-05 0
0.082062334 0.16379935 0.26817399 -0.79335552 -0.60875851 2.9118775e-05 7.8910416e-06
0.16746846 0.16412351 0.26310915 -0.9119963 -0.41000962 -0.012446958 0.00066663191
-0.45326436 0.17546371 0.26085567 0.86933964 -0.49421501 0.00035460462 0.0020307554
-0.36250383 0.17689893 0.26467395 0.79334801 -0.60876828 -5.1695231e-05 7.4403431e-07
0.073279642 0.17524515 0.2651889 -0.79326952 -0.60887057 -2.5206711e-05 0
0.16222329 0.17678648 0.26677194 -0.86418051 -0.50309157 0.0095359972 0.0025231868
-0.44722825 0.18421043 0.26237175 0.82206887 -0.56938529 0.0017960493 0.00087092607
-0.35487667 0.18683882 0.26472831 0.78011101 -0.62563866 -0.0017521729 0.0005333075
0.066325642 0.18430777 0.26366052 -0.78436714 -0.62028867 -0.003185641 0.00024509747
0.15942396 0.18070625 0.26830518 -0.84679919 -0.53189921 0.0037963279 0.0022114294
-0.44229007 0.19064605 0.26737696 0.81139165 -0.58449882 -0.0021608516 0.00055660022
-0.34629327 0.19802494 0.26887351 0.71797061 -0.69586438 0.017061034 0.0027792882
0.057215195 0.19613819 0.26445153 -0.73500639 -0.67800999 0.0082490528 0.0019683172
0.14509891 0.19937506 0.26606038 -0.79410928 -0.60777497 1.9353034e-05 7.3201427e-06
-0.43477592 0.20043865 0.26749322 0.79334128 -0.60877711 -1.1185264e-05 0
-0.3415083 0.20239963 0.26408905 0.67100197 -0.74120212 -0.019388074 0.0021659171
0.045712668 0.20646834 0.26131397 -0.65123951 -0.75885564 -0.005026672 0.0012124998
0.14208788 0.20329913 0.26408279 -0.7933411 -0.60877734 -6.4287509e-05 0
-0.42423975 0.21416965 0.2654922 0.79329127 -0.60884231 -3.6673391e-05 0
-0.32491887 0.21512914 0.26397681 0.61084968 -0.7917462 -0.00072687888 5.718791e-05
0.03461409 0.21498461 0.26449615 -0.6152122 -0.7883507 -0.0041410169 0.00011008311
0.13585129 0.21142682 0.26832628 -0.79333025 -0.60879159 -1.0778567e-05 0
-0.41519016 0.22596332 0.26116371 0.79332989 -0.60879189 4.6562973e-06 0
-0.31628299 0.22175568 0.2683464 0.60886562 -0.79327333 -2.8621353e-05 0
-0.30697903 0.22889483 0.26961929 0.60866445 -0.79342782 7.82797e-05 3.7444686e-05
0.018632296 0.22724789 0.26788488 -0.60878843 -0.79333264 4.1282128e-05 1.9601292e-05
0.026519071 0.22119614 0.26355648 -0.60876268 -0.79335237 1.7542773e-06 0
0.12518542 0.22532694 0.26519415 -0.79333901 -0.60878009 -5.1718063e-05 0
0.0026419808 0.2395177 0.26170674 -0.56525838 -0.82489252 0.0059334976 0.0012080481
0.11743797 0.23542359 0.26442158 -0.78270614 -0.62238157 -0.0035068349 0.00032370008
-0.40137106 0.24397272 0.26221764 0.74875385 -0.66284585 0.0017706946 0.0017032543
-0.39864993 0.24751899 0.26748505 0.71028209 -0.70391583 -0.0013591162 0.0023961628
-0.29194108 0.24043387 0.26084015 0.55459064 -0.83210641 -0.0053021819 0.001243255
-0.2810612 0.24686873 0.26439461 0.43590477 -0.89998114 0.0045895735 0.0014234176
-0.27718115 0.24847591 0.26127028 0.43517318 -0.9003464 0.0008604005 0.0011512304
-0.014587242 0.24900419 0.26202965 -0.41358194 -0.91046321 0.0026134013 0.00047934233
0.10831783 0.24730924 0.2647976 -0.73279244 -0.68030411 -0.014196526 0.002315789
0.11155628 0.24308881 0.2642884 -0.75153178 -0.65959859 -0.011383783 0.0015729549
-0.39168429 0.25423303 0.26416022 0.67247725 -0.74011642 -0.0014552349 0.0016706078
-0.38973221 0.2557309 0.2685087 0.66133392 -0.750085 0.0031686232 0.0020520189
-0.25356549 0.25825784 0.26736224 0.38270554 -0.92387033 0.00010151952 4.9089763e-06
-0.036260307 0.25798142 0.26136994 -0.38268995 -0.92387682 -1.4203792e-05 5.779335e-06
-0.029991757 0.25538492 0.26164657 -0.38271356 -0.92386705 3.1322958e-05 1.5983504e-05
-0.38349602 0.26051617 0.26919183 0.63171673 -0.77519232 0.0032956954 0.00074590609
-0.37574178 0.26646614 0.26489711 0.61216497 -0.79073006 -2.5649217e-06 8.653829e-05
-0.23635717 0.26538578 0.2609199 0.37627614 -0.92650592 0.0017467311 6.3995729e-05
-0.22766264 0.26898718 0.26365456 0.31675994 -0.94850546 -0.00073118421 0.0017048445
-0.063540943 0.26928145 0.26718187 -0.30290401 -0.95293945 -0.012467831 0.0019446785
-0.047964215 0.26282936 0.26315716 -0.3757067 -0.92673796 -0.0010557035 6.1110019e-05
0.087170415 0.26499158 0.26815107 -0.61757678 -0.78651029 0.00066960166 0.00015064675
-0.3705847 0.27042332 0.26038492 0.6087867 -0.79333395 2.5862331e-05 4.0209346e-05
-0.36473364 0.27491301 0.26724133 0.60875499 -0.79335827 6.9896691e-05 8.4937412e-05
-0.35923401 0.27913302 0.26158538 0.60884142 -0.79329193 8.3131663e-06 3.8645227e-05
-0.21634127 0.27310777 0.26277721 0.24019879 -0.97072369 -0.00027736783 0.0023077556
-0.20613509 0.27445143 0.26366013 0.18174219 -0.98334229 -0.002777522 0.0012605495
-0.19281739 0.27620476 0.26203817 0.13060184 -0.99143493 1.3424612e-05 1.5849977e-05
-0.18623659 0.27707112 0.26083013 0.13053225 -0.99144411 1.5949916e-05 2.8646207e-05
-0.16975012 0.27924162 0.26032603 0.13013522 -0.99149621 -0.00033087944 0
-0.12354588 0.2796106 0.26476035 -0.12466368 -0.992199 0.00024883199 0
-0.11390314 0.27834111 0.26255086 -0.1305148 -0.99144638 -0.00013882038 0
-0.10461381 0.27711815 0.26475757 -0.13123758 -0.99135089 -0.00022455052 0
-0.090037234 0.27519912 0.26879656 -0.15674308 -0.98763937 -0.00032477608 0.00063817552
-0.08522439 0.27456546 0.26755226 -0.17601502 -0.9843145 -0.011990418 0.0013919753
-0.075351745 0.27313793 0.26533943 -0.23994637 -0.9707821 0.0027960427 0.0028553354
-0.066768609 0.27061838 0.26421723 -0.29192963 -0.95643193 -0.0038861239 0.0021772073
0.067962289 0.27973044 0.26501372 -0.60879022 -0.79333121 -1.3533849e-05 2.2520058e-05
0.075300038 0.27410004 0.26240507 -0.60877341 -0.79334414 -1.7901017e-05 0
-0.35242519 0.28435764 0.26242718 0.60880136 -0.79332262 -2.5814888e-05 0
-0.34669304 0.28875604 0.26150775 0.60722017 -0.79453361 0.00039417594 4.9414666e-05
-0.14767615 0.28214774 0.26972917 0.0060040569 -0.99995053 0.0079293251 0.0019606366
0.056038015 0.28888026 0.26897871 -0.60879087 -0.79333073 6.3616603e-06 1.8406416e-05
-0.34234789 0.29209018 0.26415336 0.60408485 -0.79692 0.00012078939 0.00011172324
0.044647682 0.29762039 0.26058507 -0.58033627 -0.81435955 0.0053312816 0.0006595162
0.050125878 0.2934168 0.26304227 -0.59808874 -0.80141616 0.0046854145 0.00023558365
-0.31932428 0.30859193 0.26301661 0.47754148 -0.87840635 0.018879393 0.0019898796
0.025468551 0.30998477 0.26220518 -0.46956661 -0.88289702 -0.00017462675 0.0019210271
-0.30301374 0.315348 0.26526144 0.3944006 -0.91893768 -0.0013088625 0.00029302938
-0.2945241 0.31886449 0.26240855 0.38273868 -0.92385668 3.768985e-05 7.9617157e-06
0.0063904696 0.31788716 0.26435325 -0.38268125 -0.92388046 -4.6374695e-05 0
0.018851718 0.31272557 0.26822382 -0.41727135 -0.90876967 -0.0047339071 0.00089970813
-0.28869027 0.32128096 0.26073915 0.38269103 -0.92387635 -3.7789639e-05 0
-0.27721301 0.32603499 0.26382434 0.38266742 -0.92388612 -0.00013191225 0
-0.2682595 0.32974368 0.26435816 0.38271874 -0.9238649 -0.00016250074 0
-0.0044603674 0.32238173 0.26921555 -0.38269064 -0.92387652 -0.00011512836 0
-0.2627278 0.33203498 0.26831162 0.37971294 -0.92510426 -0.00034042366 8.1739236e-05
-0.24740636 0.33838129 0.26631272 0.32036176 -0.94726861 0.0071101352 0.0015273094
-0.043601524 0.3385945 0.2631343 -0.35396463 -0.93523854 -0.0061582769 0.00076002418
-0.035361841 0.33518153 0.26669794 -0.35962528 -0.93305552 -0.0087807644 0.00050262158
-0.023092151 0.33009925 0.26263851 -0.38268384 -0.92387938 -4.7831595e-06 0
-0.24057804 0.34120968 0.26889771 0.28004616 -0.95994437 0.0089993887 0.0023364804
-0.23356846 0.34312558 0.26638427 0.21156335 -0.97732419 0.0088602807 0.0017066078
-0.2295557 0.34365389 0.26773581 0.20243753 -0.97917372 0.015418983 0.0013478374
-0.21922065 0.34501448 0.26197559 0.16855314 -0.98561621 0.012272086 0.00076309976
-0.20530897 0.34684604 0.26083523 0.13048178 -0.99145067 2.3701239e-05 2.4405383e-05
-0.19470435 0.34824216 0.26405376 0.13054152 -0.99144286 -0.00013667814 0
-0.18301249 0.34978145 0.26485184 0.13054015 -0.99144304 2.5394291e-05 9.1295124e-06
-0.10675617 0.34968603 0.26088554 -0.13050067 -0.99144822 -4.5867058e-05 0
-0.093574405 0.34795061 0.26276615 -0.13058117 -0.99143761 -4.9957456e-05 5.7457171e-05
-0.089934066 0.34747136 0.26944602 -0.13050939 -0.99144709 -9.3822666e-05 0
-0.060866248 0.3436445 0.26473176 -0.21776564 -0.97594875 -0.010108464 0.0023446174
-0.054137427 0.34247279 0.26544937 -0.27419901 -0.96165097 0.0065026097 0.0022258307
-0.048587721 0.34065983 0.26424888 -0.29936022 -0.95411426 0.007026176 0.0024149101
-0.17748451 0.35050926 0.26656824 0.13059284 -0.99143606 -6.8037611e-05 0
-0.15800238 0.35307407 0.26256427 0.07791137 -0.99695677 0.0026690473 0.00081725436
-0.13603038 0.35354006 0.26323336 -0.061956104 -0.99800944 0.011773806 0.0015365807
-0.12846196 0.35254368 0.26962072 -0.12202577 -0.99252373 -0.0025303289 0.00018154975
-0.17004696 -0.35148832 0.27098182 0.12502985 0.99215299 -0.00013054826 2.73411e-06
-0.16074391 -0.35271311 0.27305388 0.10760514 0.9941923 -0.0016931021 0.00042323829
-0.1576882 -0.35311538 0.27112621 0.099349692 0.99504483 0.0039353929 0.00043594447
-0.1427052 -0.35441881 0.27970201 -0.013762739 0.99989957 0.0033855797 0.0025187712
-0.12397008 -0.35195225 0.27291268 -0.12779267 0.99180061 0.00075293268 2.911704e-05
-0.11637839 -0.3509528 0.2734431 -0.13056871 0.99143922 5.0914437e-05 7.6302065e-05
-0.23537299 -0.342888 0.27875078 0.26093063 0.96531802 -0.0087435115 0.0020610669
-0.22041823 -0.3448568 0.27337775 0.14728945 0.98907894 -0.0053543942 0.00039250485
-0.20315754 -0.34712923 0.27159211 0.13053893 0.99144316 5.8572805e-05 3.3280448e-05
-0.19532308 -0.34816065 0.27569747 0.13055696 0.99144089 7.107306e-05 4.6051778e-06
-0.10500519 -0.34945548 0.27319604 -0.13054118 0.99144292 6.9219044e-05 0
-0.092404254 -0.34779656 0.27541658 -0.13054572 0.99144226 0.00011127006 5.6400339e-05
-0.087367728 -0.34713346 0.27567625 -0.13052708 0.99144471 -1.6715958e-05 3.0077599e-05
-0.074194856 -0.34539923 0.27111265 -0.1539247 0.98808134 0.0015652563 0.00035606854
-0.042889178 -0.33829942 0.27341273 -0.32884306 0.94435573 -0.0073885028 0.0010431717
-0.03381652 -0.33454144 0.27671182 -0.37172171 0.92829984 -0.0090770405 0.00017570745
-0.28582868 -0.32246628 0.27595344 0.382644 0.92389584 0.00016455119 0.00010771601
-0.013016916 -0.32592592 0.27799284 -0.38268587 0.92387855 -9.4364659e-05 0
-0.00051510055 -0.32074749 0.27091166 -0.38273248 0.92385924 -0.00012447764 0
-0.31236392 -0.31147498 0.27245444 0.43393147 0.90094548 0.00085006165 0.0012680741
-0.3043555 -0.31479222 0.27071097 0.39228234 0.91984451 0.00083130872 0.00020165023
-0.29280019 -0.31957853 0.2724402 0.3827126 0.92386752 -4.1374093e-05 0
0.0043960344 -0.31871325 0.27671608 -0.38269609 0.92387432 -3.4999117e-05 0
0.013117861 -0.31510055 0.27677739 -0.39489368 0.91872638 0.00086717407 0.00020727067
-0.33100024 -0.30079755 0.27612939 0.57096392 0.82097489 0.00066459185 0.00082273176
-0.32269877 -0.30679196 0.27803159 0.50700337 0.86194408 -2.8581788e-05 0.0018765569
-0.31827652 -0.30902588 0.27507535 0.46484783 0.8853904 -0.00050854852 0.0019970173
0.025468636 -0.30998462 0.27067745 -0.45272705 0.89162731 0.0062369867 0.0021120061
0.035690542 -0.30449337 0.27511922 -0.54920238 0.83565962 -0.0070551164 0.0019613237
-0.33515239 -0.29761147 0.27372798 0.57885861 0.81542701 -0.0011954188 0.00062716968
0.044171032 -0.29798606 0.27718693 -0.58504111 0.81097895 0.0063334582 0.00058395165
0.053873837 -0.29054087 0.27531236 -0.60751039 0.79431134 -0.00073215435 2.5002661e-05
-0.15489708 -0.28119698 0.27048856 0.082351096 0.99660045 -0.0024393259 0.0010566614
-0.13844468 -0.28157204 0.27560979 -0.04232654 0.99910372 -0.00040940582 0.002267533
0.055747431 -0.28910324 0.27411404 -0.60781306 0.79408002 -0.00054559374 9.1696393e-06
0.061547801 -0.28465241 0.27856714 -0.60877514 0.79334283 -2.0305542e-05 9.1166239e-06
-0.20101251 -0.27512577 0.27927199 0.14219311 0.98983884 0.00035128463 8.7575318e-05
-0.19349177 -0.27611592 0.27510217 0.13059191 0.99143618 -7.634826e-05 0
-0.18324512 -0.27746493 0.27366674 0.13055003 0.99144167 -2.0604184e-05 3.8364664e-07
-0.17109531 -0.27906448 0.27541041 0.12852353 0.99170649 -5.8264879e-05 2.1362168e-05
-0.1665355 -0.27966478 0.27336362 0.11819495 0.99299043 0.00013104868 0.00023457702
-0.08819259 -0.27495623 0.27048674 -0.16690466 0.98597294 0.00045081557 0.00082813023
-0.074476108 -0.27315041 0.27664366 -0.23820952 0.97118974 -0.0068395743 0.0025020572
0.069426745 -0.27860668 0.27758527 -0.60875511 0.79335827 1.9611869e-05 2.5952281e-07
-0.38341421 -0.26057893 0.2735365 0.61606544 0.78769076 0.00255251 0.00010022461
-0.37588519 -0.26635617 0.27145129 0.6129548 0.7901178 0.00044577016 0.00016580775
-0.2477892 -0.26065046 0.27801371 0.38269606 0.92387438 -1.1418389e-05 0
-0.23633063 -0.26539677 0.27344009 0.3718684 0.928267 -0.0058550704 0.00022964308
-0.06205745 -0.26866692 0.2743575 -0.347417 0.93770736 -0.0025136969 0.0012775901
-0.053960972 -0.2653133 0.27626011 -0.37803984 0.9257887 0.0010533683 3.2871085e-05
-0.047064934 -0.26245683 0.27830175 -0.37973875 0.92509359 0.00062273571 1.5934693e-05
0.087384872 -0.26482698 0.27519992 -0.61337477 0.78979045 0.0015718926 5.6746285e-05
0.092533037 -0.26087666 0.27540123 -0.62516993 0.78045517 0.0072369119 0.00038986135
-0.38440239 -0.25982064 0.27637559 0.64160323 0.76702756 -0.0037389216 0.0011242984
-0.27102724 -0.25102493 0.27883044 0.41601112 0.90933383 -0.0068363314 0.00074739713
-0.26640218 -0.25294071 0.27475828 0.40092888 0.91610813 0.0014001203 0.00020653293
-0.2552253 -0.25757033 0.27364954 0.3828637 0.92380488 -1.1568439e-05 0
-0.031215565 -0.2558918 0.27552676 -0.38268772 0.92387772 -1.0493451e-05 0
-0.024512827 -0.25311548 0.27761671 -0.39143214 0.9202069 0.00043085212 0.00018547235
-0.019392349 -0.2509945 0.27531791 -0.40718177 0.91334623 0.0013208123 0.0005080452
-0.39814505 -0.24817684 0.27256534 0.72201717 0.69183415 0.0075384714 0.0022222188
-0.29028958 -0.2417011 0.27861944 0.53224111 0.84658039 -0.004597689 0.0027426681
-0.28249958 -0.24627292 0.27599737 0.4568949 0.88947755 0.0087670004 0.0022103351
-0.011152627 -0.2475815 0.27575979 -0.47682142 0.87897658 0.0064362856 0.0020887142
0.11061981 -0.24430917 0.27236745 -0.75413829 0.65671527 0.00065641006 0.0011466088
-0.4053916 -0.23873296 0.27347824 0.76323825 0.64611644 -0.00095658563 0.0010913452
-0.30163002 -0.23299929 0.27836102 0.59455156 0.80404496 -0.0044891415 0.00039800207
0.0035684938 -0.23880677 0.27472451 -0.53451031 0.84507179 0.012343281 0.0012528116
0.012748966 -0.23176232 0.2777749 -0.59535521 0.80345619 -0.0032140249 0.00029543068
0.11666845 -0.23642641 0.27771312 -0.77940118 0.62651753 -0.0031137948 0.00045830794
0.12119834 -0.23052295 0.27616578 -0.79223555 0.61021519 -0.00050508737 0
-0.41574726 -0.22523725 0.2742644 0.79334015 0.60877854 4.5633235e-05 4.0218078e-05
-0.31629819 -0.221744 0.27034408 0.60881603 0.79331142 -9.7807315e-06 0
-0.3084352 -0.22777748 0.27639928 0.60869044 0.7934078 -9.0076437e-06 5.1672261e-05
0.02116609 -0.22530365 0.27214509 -0.60876811 0.79334825 1.3706172e-05 0
0.12653407 -0.22356926 0.27391118 -0.79336256 0.60874945 4.484957e-05 1.969298e-05
-0.42688364 -0.21072406 0.27032506 0.79328334 0.60885268 -1.0160495e-05 5.928969e-05
-0.32131803 -0.21789211 0.27601478 0.6087153 0.79338872 -4.1612035e-05 1.0332463e-05
-0.31925082 -0.21947834 0.27579707 0.60876262 0.79335243 4.3016112e-06 6.9966161e-05
0.028538641 -0.21964648 0.27733806 -0.60878187 0.79333764 1.9720001e-05 1.5728054e-05
0.033032093 -0.2161985 0.27189261 -0.61262077 0.7903766 0.00076114491 5.1694289e-05
0.13415268 -0.2136405 0.2759279 -0.79336697 0.60874373 9.6568547e-06 8.298156e-06
-0.42794982 -0.20933461 0.27804583 0.79339713 0.60870439 -6.4338587e-05 0
-0.34095737 -0.20282237 0.27310604 0.66969383 0.74263096 -0.0030652322 0.001951389
-0.33291566 -0.20899297 0.27467847 0.63326299 0.77393234 -0.0025977357 0.000778577
0.045427218 -0.20668739 0.27473193 -0.64629424 0.76308477 0.0023306869 0.0014956942
0.13952956 -0.20663318 0.2719557 -0.79336447 0.60874695 2.1372132e-06 1.9948988e-05
-0.44230431 -0.19062743 0.27938971 0.81163973 0.58415818 0.00018934489 0.00027539537
-0.43801594 -0.1962162 0.27221763 0.79751283 0.60330194 -0.00034073935 0.00024831953
-0.35209045 -0.19046988 0.27935219 0.75553799 0.6550917 0.0041421927 0.0011156319
-0.34759736 -0.19632538 0.27472791 0.74098343 0.67152297 0.00062739063 0.0017782077
0.056128621 -0.19759674 0.27455619 -0.71449471 0.69958961 -0.0084646801 0.0028508133
0.14623326 -0.19789672 0.2792851 -0.79336095 0.60875148 -1.3183389e-05 0
-0.44585741 -0.18599699 0.27649432 0.8219918 0.5694986 0.00089526491 0.00084378611
-0.35566688 -0.18580897 0.275951 0.77608633 0.63060057 0.0057307887 0.00053405965
0.067015007 -0.18340936 0.27283603 -0.7922914 0.61014253 0.00058760756 0
0.15914118 -0.18107478 0.27839473 -0.86208355 0.5067662 0.00014105071 0.0021834418
-0.45416975 -0.17327787 0.27376208 0.87342304 0.48687568 0.0091830641 0.0020502228
-0.36274132 -0.17658938 0.2764577 0.79338139 0.60872483 -3.5220182e-05 0
0.073928863 -0.17439903 0.27603826 -0.79335326 0.60876161 1.409412e-05 1.5151794e-06
0.16386868 -0.17281416 0.27034935 -0.88129818 0.47238106 0.013024647 0.0017316965
0.16873956 -0.16105479 0.2766242 -0.92083931 0.38994172 -0.00066490559 0.00013553174
-0.46315449 -0.15158676 0.27609432 0.92386526 0.38271779 0.00012982578 4.7237721e-05
-0.38284844 -0.15038532 0.27278304 0.826509 0.5629214 -0.0015548547 0.00054476387
0.086914726 -0.15747556 0.27094632 -0.79496545 0.60665476 -9.1252179e-05 2.7521228e-05
0.090103753 -0.15331952 0.27570906 -0.81730783 0.57619113 0.0034064213 0.0010214947
0.17121565 -0.15507698 0.27767634 -0.92170751 0.38788542 -0.00045733625 7.1340903e-05
-0.46568593 -0.14547546 0.27218381 0.9238658 0.38271663 -5.9832105e-06 0
0.094846182 -0.14713907 0.27677661 -0.83269358 0.553734 -0.00015342182 0.001556796
-0.47135609 -0.13178648 0.27241558 0.9238466 0.38276288 -6.0821917e-06 3.4955869e-05
-0.46949998 -0.13626754 0.27124456 0.92384583 0.38276485 0.00011177023 0.00013058202
-0.39247155 -0.13495471 0.27594054 0.87399161 0.48589072 0.0069865608 0.0011636959
0.17940134 -0.135315 0.27568573 -0.92386645 0.38271493 8.0745427e-05 0
-0.47582865 -0.1209887 0.27477762 0.92387962 0.38268325 3.4655433e-05 0
0.10501646 -0.12762012 0.2725099 -0.90367705 0.42818722 0.0048540812 0.0010643223
0.18385908 -0.124553 0.27026883 -0.92388952 0.38265929 -1.152331e-05 0
0.10907038 -0.1178331 0.27042103 -0.92245162 0.3861123 0.00056269014 3.8441824e-05
0.11104663 -0.11306202 0.27310032 -0.92388731 0.38266456 -2.1707231e-06 0
0.18843494 -0.11350594 0.27739608 -0.92588937 0.37779474 0.00012202605 4.6413999e-05
-0.48298937 -0.10370107 0.27839917 0.93999106 0.3411288 -0.0069326716 0.00099254784
-0.40417361 -0.10670345 0.27897754 0.92386758 0.38271227 -2.4619781e-05 0
0.11473909 -0.10414765 0.2788319 -0.92387277 0.38269976 1.1202973e-05 0
0.19189976 -0.10514106 0.27450114 -0.93607241 0.35175508 0.0060605826 0.00065978477
-0.48541176 -0.097852953 0.27253932 0.95003647 0.31201601 -0.0087673934 0.0014963177
-0.40774024 -0.098092884 0.27676091 0.92432517 0.38160571 0.00019213259 0
-0.48882374 -0.084891185 0.27458769 0.97473156 0.22203779 -0.024445148 0.0020750843
-0.41405934 -0.082837164 0.27321666 0.94495195 0.32718599 -0.0038844559 0.0010926663
0.12433586 -0.080979042 0.27836901 -0.94109321 0.33813965 -0.0022597031 0.0014118371
0.19792739 -0.087953977 0.27567077 -0.97648817 0.21522088 0.012280866 0.0018985958
-0.49026075 -0.073976412 0.27133864 0.98885578 0.14887439 -0.00076288753 0.00047325692
-0.48961869 -0.078853145 0.27009714 0.98268986 0.18506643 -0.0084260982 0.0015670895
0.19948438 -0.07612744 0.27335799 -0.98478591 0.17342556 0.010966004 0.00087480468
-0.49102688 -0.068156913 0.27676105 0.99144149 0.13055165 -6.8060239e-05 0
-0.41903105 -0.065954879 0.27583176 0.97973955 0.20002717 -0.0099776443 0.0011089803
0.20144121 -0.06126368 0.27413541 -0.98841548 0.15160464 0.0071337558 0.0016603232
-0.49280006 -0.054688584 0.27507895 0.99144286 0.13054118 2.4969817e-05 0
0.20164783 -0.059694309 0.27549708 -0.98001534 0.19881086 0.0066533899 0.0089083249
-0.42210668 -0.042593129 0.27090502 0.99144566 0.13052078 0.00013079932 0
0.13187513 -0.04060575 0.27200863 -0.99144459 0.13052832 3.3983059e-05 8.7632825e-06
0.20376119 -0.043641694 0.2714088 -0.90801913 0.40846583 0.093042515 0.11185673
-0.42278525 -0.037438642 0.27411169 0.9914431 0.13053928 -0.00017340668 0
0.13236356 -0.036895789 0.27381387 -0.99144536 0.13052236 7.579766e-05 1.2718666e-05
0.20542268 -0.033160083 0.27336517 -0.96232915 0.26415998 0.064359672 0.14862639
0.21637639 -0.034562636 0.27656853 -0.46905142 0.84843564 0.24525011 0.16770841
0.22441544 -0.034582444 0.27523029 0.10666393 -0.9407596 -0.3218604 0.11728837
0.24798915 -0.033013433 0.27054566 0.11181025 -0.83255053 -0.54254788 0.046138663
0.25443485 -0.033429101 0.27230698 0.11250459 -0.83764571 -0.53450197 0.038262021
0.26856816 -0.03466567 0.27870518 0.15270662 -0.89883131 -0.41083205 0.043343611
0.3724772 -0.031938773 0.27644679 -0.21989746 -0.87063682 -0.44004181 0.03378392
0.38279608 -0.032178048 0.27319589 -0.23428483 -0.76943719 -0.59420288 0.056072403
0.39347622 -0.035367839 0.27517322 -0.067022473 -0.95826226 -0.27792326 0.043117985
0.41610128 -0.036293209 0.27545708 -0.023362296 0.99315912 -0.11440723 0.023034075
0.42160362 -0.035486639 0.27729183 -0.16998751 0.95081693 -0.25894284 0.029186757
0.43692601 -0.031303324 0.27469251 -0.40209511 0.8167212 -0.41386718 0.018292513
-0.49641323 -0.027244046 0.27421898 0.99145514 0.13044803 9.3489332e-05 2.2224054e-05
-0.42427087 -0.026154321 0.2785455 0.99227792 0.12400985 0.002471982 9.1343907e-05
0.13351686 -0.028135486 0.27738196 -0.99144435 0.13052997 -1.8747282e-05 0
0.20617554 -0.025303384 0.27779686 -0.99979442 -0.020140806 0.0023465096 0.15777512
0.28576452 -0.023388397 0.2712487 0.074340545 -0.6502344 -0.75608778 0.034003198
0.29337054 -0.025876185 0.27522159 0.11420648 -0.57412714 -0.81076193 0.04579689
0.30356577 -0.024951223 0.27674854 0.15362321 -0.40760404 -0.9001438 0.046126109
0.3142148 -0.026861819 0.27873474 0.14924137 -0.49601996 -0.85538948 0.077806756
0.32483819 -0.024628768 0.27818903 0.076062001 -0.5577482 -0.8265177 0.083918497
0.33226877 -0.020401213 0.27817431 0.14815468 -0.30248651 -0.94156891 0.059008084
0.34502974 -0.022978991 0.27659479 -0.078679673 -0.40702721 -0.91002113 0.042280246
0.36398774 -0.025592092 0.27205414 -0.41680163 -0.53727674 -0.73321897 0.056444582
0.45211607 -0.024016552 0.2704826 -0.61123168 0.49504694 -0.61751473 0.035344563
-0.49816591 -0.013931113 0.27499914 0.99342114 0.11445759 -0.0037393421 0.00018799778
-0.42597669 -0.013197072 0.27422178 0.99551064 0.094648302 -0.00040694597 0.0011104242
0.13562213 -0.012144248 0.27829897 -0.99572134 0.0923912 0.001701583 0.0012031712
0.20717485 -0.01771299 0.27676532 -0.99074501 -0.056572054 -0.12338538 0.13123767
0.28489804 -0.017009484 0.27095836 0.15365916 -0.4198001 -0.8945148 0.044510938
0.29922551 -0.019517308 0.2753284 0.22179304 -0.21762583 -0.95049822 0.034982298
0.3070944 -0.019200161 0.27664489 0.18126762 -0.31065345 -0.933079 0.046663769
0.31251025 -0.018758604 0.27755103 0.13311717 -0.27107579 -0.95330882 0.047034219
0.33192691 -0.016358577 0.27817148 0.089106947 -0.1969576 -0.97635424 0.034834962
0.36806762 -0.011506004 0.27065635 -0.38278562 -0.19341157 -0.90336436 0.023162546
0.44740435 -0.019699918 0.27933925 -0.65722036 0.37379768 -0.65447438 0.025007229
0.13629963 -0.0069981921 0.27504468 -0.99942774 0.033774357 -0.0018646627 0.0019601916
0.20893903 -0.0043126359 0.27548689 -0.96052897 -0.041341111 -0.27509099 0.10548732
0.28655696 -0.0087294765 0.27151424 0.2723788 -0.012343613 -0.96211088 0.0011478475
0.29092857 -0.0058142231 0.27297902 0.26739964 -0.011885399 -0.96351242 0.00098917249
0.30975342 -0.0040840628 0.27708977 0.13233224 -0.01894534 -0.99102432 0.0036227503
0.31448799 -0.0071339747 0.27788192 0.12543641 -0.077521794 -0.98906827 0.010962398
0.32765245 -0.0020097159 0.27813625 -0.0040119067 -0.017511142 -0.99983871 0.0035392661
0.35064548 -0.0093234768 0.27575007 -0.19824065 -0.13097389 -0.97136325 0.021496687
0.3663384 -0.0029362969 0.27120426 -0.33181038 0.010354061 -0.94328922 0.0015174468
0.45552874 -0.0041558533 0.27248612 -0.74586809 0.042284053 -0.66475022 0.0033096278
-0.49999243 5.7604339e-05 0.2773807 0.99971479 0.0088435458 -0.022181796 0.0036435747
-0.42723465 0.0036423584 0.27687868 0.99989551 -0.014326311 -0.001942819 0.0022489724
0.13659987 0.0047176201 0.27073011 -0.99906856 -0.042357679 -0.0082322275 0.0018308692
0.28214395 0.0071711414 0.27003559 0.29980573 0.051694948 -0.95259863 0.0048182942
0.30953732 0.0084404582 0.27705365 0.11247431 0.074437685 -0.99086249 0.0063346433
0.31441158 0.00077354349 0.27786914 0.088678628 0.0074507794 -0.99603248 0.0039142189
0.3246567 0.0073232413 0.27811158 -0.016489953 0.062000897 -0.99793988 0.0054694968
0.33709073 0.0071490118 0.27778882 -0.016820049 0.10282981 -0.99455673 0.009849444
0.34458691 0.0030800486 0.2766614 -0.17783779 0.034327928 -0.9834609 0.0027449573
0.35888684 0.00063049654 0.27356523 -0.26912656 0.016539413 -0.96296281 0.0029662412
0.36810407 0.0074069407 0.27064478 -0.35094088 0.05770953 -0.93461764 0.0047423621
0.44920152 0.0035774375 0.27876857 -0.72916067 -0.0213404 -0.68400973 0.0062535927
0.45720008 0.0079918299 0.2708047 -0.76627994 -0.17326529 -0.61870366 0.0093049342
0.13511333 0.016009118 0.27496672 -0.99522352 -0.097620711 0.00046818025 0.00076661503
0.20757444 0.014677973 0.27410606 -0.95099789 0.018577853 -0.30863887 0.16873346
0.29575205 0.017530348 0.27455387 0.20282531 0.35352853 -0.9131701 0.052005704
0.30926317 0.013157319 0.27700776 0.12485579 0.20753816 -0.97022623 0.030036682
0.31610334 0.012968153 0.27804112 0.059247296 0.099540472 -0.99326807 0.0057445816
0.32640791 0.013696688 0.27812603 -0.0093865581 0.21839829 -0.97581458 0.024518752
0.33415425 0.015601126 0.27801031 -0.038160112 0.22180866 -0.97434324 0.022504352
0.35135138 0.018209172 0.27564391 -0.12231009 0.33851939 -0.93297637 0.042504176
0.44978678 0.018418737 0.27819023 -0.68108118 -0.43077627 -0.59208125 0.020065777
0.45373243 0.016055342 0.27379543 -0.65870029 -0.41210562 -0.6295101 0.020909777
-0.42411745 0.027319733 0.27413258 0.99144435 -0.13053067 -5.4885466e-05 0
0.2064783 0.023003796 0.27277786 -0.99023497 -0.083133444 -0.11190892 0.12717192
0.28234005 0.0225509 0.27010128 0.29149726 0.52925748 -0.79681599 0.056222573
0.29747087 0.028480537 0.27786186 0.10510989 0.75086039 -0.65204346 0.049895231
0.31819078 0.02159084 0.27805832 0.066732824 0.25064561 -0.96577609 0.034591071
0.32380897 0.027211735 0.27940205 -0.0091761146 0.45861489 -0.88858777 0.070648409
0.35978153 0.027478889 0.27497199 -0.28650048 0.5520649 -0.78303373 0.052275181
0.36239788 0.028157644 0.27497965 -0.25576097 0.64583755 -0.71936095 0.056802027
0.4477827 0.023340013 0.27534091 -0.63492805 -0.48776901 -0.59912252 0.028454438
-0.49551469 0.03406892 0.276023 0.99144483 -0.13052632 0.00016701072 6.6529283e-05
0.20498881 0.034317464 0.27049214 -0.95895529 -0.28269294 -0.022124231 0.13859963
0.23847705 0.03593896 0.27778581 -0.064437799 0.96591502 -0.25071108 0.056787539
0.25310367 0.03438345 0.27418876 0.075943552 0.88912529 -0.45131901 0.0490066
0.26427713 0.033385064 0.27446482 0.089540683 0.86520982 -0.49335021 0.057171598
0.39124072 0.034660183 0.27389678 -0.14651106 0.91692781 -0.37118435 0.041699477
0.40304467 0.036293086 0.27422246 -0.12216311 0.9723466 -0.19904308 0.04939907
0.41773108 0.036231417 0.27480948 -0.016254703 -0.99828732 -0.056198839 0.027567508
0.42874655 0.034673825 0.27359232 -0.17451391 -0.96577346 -0.1919025 0.027877774
0.43191084 0.032398857 0.27694333 -0.38096607 -0.80110526 -0.46162242 0.016779678
-0.49360442 0.048578661 0.27486321 0.99144322 -0.13053866 0.00011492096 8.7373803e-05
0.13133369 0.044718459 0.27268133 -0.99118668 -0.13247247 9.6457416e-06 1.9318783e-05
0.20360178 0.044852428 0.27545691 -0.95348525 -0.29384908 0.067219973 0.08994747
-0.49274784 0.055085331 0.27391034 0.99144036 -0.13056044 5.0559418e-05 0.00014784779
-0.42063868 0.053743597 0.27306157 0.98815471 -0.15343991 -0.0025601867 0.00019347017
0.1298825 0.055741355 0.27908185 -0.99011272 -0.14025865 0.0020945179 9.5029529e-05
-0.41883677 0.067430429 0.27109364 0.97844005 -0.20646256 0.0053261332 0.0010672461
0.12856011 0.065785937 0.27508032 -0.97154075 -0.23687246 -0.00023239064 0.0020445192
0.20090522 0.065335073 0.27938142 -0.9912349 -0.13211103 1.2363056e-05 0
-0.49050638 0.072110564 0.27568948 0.98960114 -0.14382575 0.0019229858 0.00015124063
-0.41756487 0.074374162 0.27623433 0.9722755 -0.23382048 -0.002902725 0.0015798764
0.12705238 0.074120887 0.27137664 -0.96364141 -0.26718783 -0.0024085625 0.002113085
0.19920698 0.078234315 0.27337676 -0.98324955 -0.18217431 0.0057325205 0.0014689153
-0.48885512 0.084652923 0.27686605 0.97717041 -0.2122955 0.0082834372 0.0023173308
-0.41380757 0.083444998 0.27636158 0.94355714 -0.33118555 0.0040075788 0.0013840368
0.12093039 0.089200586 0.27173513 -0.93458843 -0.35573086 0.00012763852 0.0006501936
0.19791791 0.088025913 0.27842963 -0.97215468 -0.23430957 0.003783054 0.0025049921
0.11778203 0.096801363 0.2753461 -0.92408699 -0.38218218 2.7060501e-05 1.5591067e-05
0.12018333 0.091004089 0.27592385 -0.93288374 -0.36017606 0.0010720367 0.00054586714
0.19528158 0.096976645 0.27704599 -0.95063311 -0.31030425 0.0028255889 0.0025890365
-0.48132449 0.10772046 0.27483922 0.93306774 -0.35969618 -0.0017989943 0.00060938991
-0.40352279 0.10827468 0.27704698 0.92387891 -0.38268492 3.0927753e-05 0
0.19157124 0.10593422 0.2756384 -0.93534052 -0.35371718 0.0047219647 0.0012318221
-0.47938633 0.1123997 0.27126917 0.92839932 -0.37158012 -0.0017061273 0.00033068561
-0.40189087 0.11221448 0.27656168 0.92385852 -0.38273427 6.4449538e-05 2.5127078e-05
0.1103536 0.1147352 0.27755427 -0.92388111 -0.38267979 3.5000216e-05 0
0.18875036 0.11274444 0.27190605 -0.92578381 -0.37805152 -0.00115374 6.9020854e-05
-0.47517651 0.12256314 0.27753937 0.92381716 -0.38283402 -1.783988e-05 0.00015272091
-0.39644289 0.12536712 0.27703685 0.91548842 -0.4023428 0.0011392381 0.0004154543
0.10480856 0.12812209 0.27314982 -0.90338182 -0.42879173 -0.006243227 0.00096038589
-0.47016227 0.13466857 0.27761185 0.92385864 -0.38273409 3.1308788e-05 0.00012310709
-0.46949667 0.1362754 0.27594823 0.92385125 -0.38275167 6.5609063e-05 0.00014525339
-0.39334527 0.13284533 0.27404818 0.8998915 -0.43610168 -0.0032567855 0.0016442988
0.10028344 0.13904665 0.27430737 -0.86705816 -0.49819818 -0.0029360016 0.0023189923
-0.46528131 0.14645225 0.27446702 0.92385918 -0.38273245 -4.7043518e-06 0
-0.39006025 0.1407761 0.27717462 0.86464119 -0.50238973 -0.00032469814 0.002816136
-0.38599485 0.14628488 0.27105379 0.83860821 -0.54464102 -0.010120908 0.0022788141
0.094803996 0.1471941 0.27225119 -0.830477 -0.5570153 -0.0064743026 0.0013641599
0.17605785 0.14338687 0.27367449 -0.92385775 -0.38273609 -5.6377598e-05 0
-0.46072817 0.15744446 0.27436039 0.92000055 -0.39188951 -0.004639667 0.00010750873
-0.37862206 0.15589325 0.27432433 0.80652499 -0.59119457 -0.00254398 0.00049107865
0.086825892 0.15759136 0.27513307 -0.79537123 -0.60612243 0.00024909616 4.4641554e-05
0.091337539 0.15171167 0.2784231 -0.82284999 -0.5681591 0.010640164 0.0015921579
0.17084166 0.15597984 0.27772424 -0.92172247 -0.38784641 0.0016712052 7.2004303e-05
-0.37388718 0.16206391 0.27676165 0.79434496 -0.60746676 0.00054178567 0
-0.36910725 0.16829318 0.27913564 0.79337621 -0.60873169 -1.7094013e-05 0
0.078576438 0.16834223 0.27484763 -0.79334307 -0.60877478 -6.4945034e-06 0
0.083083227 0.16246888 0.27491397 -0.79516834 -0.60638851 0.00057611306 2.4491244e-05
0.16579834 0.16815552 0.2733525 -0.90927261 -0.4161225 -0.0080828918 0.00095039135
-0.45467213 0.17206512 0.27103525 0.88387376 -0.46772555 -0.00028439541 0.0024770484
0.073546022 0.174898 0.27765828 -0.79328191 -0.60885453 4.6044453e-05 0
-0.44448411 0.18778668 0.27671793 0.81251997 -0.58292389 0.0033295425 0.00053263566
-0.36002421 0.18013039 0.27770609 0.7913174 -0.61140424 0.0012141007 0
-0.35555267 0.18595782 0.27706259 0.77946842 -0.62643749 0.0022448925 0.0004956167
0.15524237 0.18615584 0.27477637 -0.81975955 -0.57253337 0.014135523 0.00092118577
-0.44136366 0.19185337 0.27487028 0.80139661 -0.59813297 -0.00067897828 0.00020081432
-0.43770874 0.19661652 0.27389777 0.80050552 -0.59932536 -0.00037910513 0.00017317865
-0.34753352 0.19640858 0.27501616 0.76737452 -0.64118832 0.0037178216 0.00068675575
0.14547825 0.1988807 0.27470165 -0.79400969 -0.60790491 0.00021083676 0
-0.43268102 0.20316878 0.27566469 0.79328072 -0.60885602 0.00013461414 0.00021800099
-0.42987746 0.20682243 0.27718335 0.79340851 -0.60868949 -3.0092566e-05 3.2925367e-05
-0.3426201 0.20154649 0.27316892 0.68916714 -0.72459811 0.0024926362 0.003207562
-0.33733308 0.20560339 0.27118978 0.66193461 -0.74949819 0.0097534368 0.0022734632
0.048564378 0.20428015 0.2705307 -0.67238271 -0.74019516 -0.0035478743 0.0018066113
0.13946083 0.20672277 0.27745938 -0.79332846 -0.6087938 -4.1035677e-05 0
0.1424993 0.20276295 0.27182621 -0.79334134 -0.60877711 2.7335776e-05 0
-0.42333218 0.21535242 0.27206302 0.7933234 -0.60880041 7.05805e-06 1.2376615e-05
-0.32402566 0.21581452 0.27372122 0.6121127 -0.79077041 -0.00021185561 3.1642128e-05
0.02858026 0.21961452 0.27718163 -0.60876948 -0.79334718 -3.5522429e-05 0
0.13508281 0.21242833 0.2765168 -0.79335469 -0.6087597 7.5509306e-05 1.6952019e-05
-0.4177615 0.22261226 0.27612376 0.79336447 -0.60874689 1.5456109e-05 6.607288e-06
-0.31124824 0.22561896 0.27062804 0.60871339 -0.79339021 8.6736167e-05 3.7095149e-05
0.015452413 0.2296879 0.27516109 -0.60829365 -0.79371202 -0.00029385867 0
0.12271571 0.2285455 0.27420616 -0.7933625 -0.60874951 7.530718e-05 0
-0.40743178 0.23607424 0.27162966 0.77759832 -0.62875181 0.0034589008 0.00072650833
-0.29725197 0.23635867 0.27273014 0.56676716 -0.8238678 -0.0041262116 0.0010967818
0.0092810187 0.2344234 0.27865833 -0.59264457 -0.80536342 -0.012737357 0.00054568547
0.11633295 0.2368637 0.27236745 -0.77018666 -0.63780159 -0.0046530189 0.00088261883
-0.40036151 0.24528836 0.27159283 0.7407223 -0.67178071 -0.0064169485 0.0018254097
-0.29167935 0.24063466 0.27753276 0.5364238 -0.84394175 -0.0034432972 0.0014309216
-0.28027457 0.24719456 0.27033353 0.45606607 -0.8899191 -0.0069111846 0.0015594835
-0.27689752 0.24859338 0.27755466 0.44444013 -0.89580858 -0.00020866751 0.0014776321
