# .PCD v0.7 - Point Cloud Data file format
VERSION 0.7
FIELDS x y z normal_x normal_y normal_z curvature
SIZE 4 4 4 4 4 4 4
TYPE F F F F F F F
COUNT 1 1 1 1 1 1 1
WIDTH 583
HEIGHT 1
VIEWPOINT 0 0 0 1 0 0 0
POINTS 583
DATA ascii
0.24037249 -0.19379097 -0.2533884 0.48420498 0.58049762 0.65465111 0.20079824
-0.24959292 -0.18569334 -0.2584582 0.60243821 0.74659938 0.28223658 0.0001341024
0.1128113 -0.18866688 -0.25369492 -0.5958029 0.7562117 0.27048609 0.00013842076
0.23014495 -0.18788207 -0.25867057 -0.6822772 0.71436602 0.15549588 0.083728082
-0.37284973 -0.17912328 -0.25025362 0.75431645 0.64947927 0.095830239 0.00021584523
-0.26171821 -0.17554432 -0.25740373 0.63050896 0.72324753 0.28172928 0.0001576581
0.2376159 -0.17985111 -0.2576071 -0.81081641 0.57031429 0.13159935 0.088454142
-0.38346279 -0.16511525 -0.25642881 0.78920329 0.60401571 0.11100976 8.0781349e-05
-0.27328572 -0.16514081 -0.25704172 0.64956045 0.7076655 0.27799407 7.4433003e-05
0.13899159 -0.16517456 -0.2566812 -0.64116716 0.71526331 0.27803433 5.1980442e-05
0.14277619 -0.16202973 -0.25599444 -0.66488451 0.69541645 0.27262548 0.00025325062
0.24764189 -0.16851585 -0.25685686 -0.84248161 0.52932537 0.10019685 0.050450347
-0.28700495 -0.15405427 -0.25297555 0.68438196 0.67558038 0.27424893 0.00034499459
-0.39566517 -0.14881924 -0.25332826 0.8074885 0.58173633 0.097699322 5.8461414e-05
0.26862711 -0.14055482 -0.25468898 -0.809313 0.57871991 0.10047802 0.00020110434
-0.40708736 -0.13315892 -0.25275022 0.82384098 0.55887341 0.094586603 0.0002097028
-0.30841947 -0.13108172 -0.25060731 0.72743207 0.62938488 0.27334478 0.00021422363
-0.29980409 -0.13992552 -0.25252086 0.71383691 0.6436227 0.27601925 5.709273e-05
0.16907328 -0.13650425 -0.25264227 -0.71516824 0.64273828 0.27463046 5.5734276e-05
0.27367157 -0.13355945 -0.25532657 -0.82025105 0.56266147 0.1029583 0.0003112267
-0.41162783 -0.12649342 -0.25186011 0.84147263 0.53113467 0.099094696 0.00053830119
-0.31336743 -0.12300356 -0.25671643 0.74627006 0.60377276 0.28024885 0.00032036053
0.1807075 -0.12324566 -0.2537553 -0.73257631 0.62335211 0.27343026 0.00018999791
0.27771926 -0.12797013 -0.25602475 -0.82820618 0.55154115 0.099382423 0.00031605584
-0.41552645 -0.11866872 -0.25715214 0.85445642 0.5092563 0.10277283 0.00014903741
-0.31698078 -0.11909705 -0.25559673 0.75151908 0.59862751 0.2772437 0.0002930341
0.18490736 -0.11611194 -0.25854185 -0.74553829 0.6055494 0.27835694 0.00034946622
0.28460342 -0.1161325 -0.25711095 -0.84588993 0.5228079 0.10555673 0.00025149071
-0.42264503 -0.10694841 -0.25465137 0.86204201 0.49620911 0.10324805 2.8375014e-06
-0.32456839 -0.10695989 -0.25913247 0.77449775 0.56472009 0.28503427 0.00010041365
0.19445252 -0.10448343 -0.25576863 -0.76879579 0.57244676 0.28505754 0.00018576576
-0.43053928 -0.092753202 -0.25702482 0.87149715 0.48034933 0.098778933 0.00021191884
-0.33522934 -0.09556713 -0.25207892 0.78572941 0.55239254 0.27837351 3.9767263e-05
0.20370904 -0.091904156 -0.25588083 -0.78712207 0.55021107 0.27875903 0.00016705337
-0.34446436 -0.081108235 -0.25403884 0.80812007 0.51862729 0.27922708 0.00034750151
0.30363673 -0.084195539 -0.25587168 -0.87100172 0.47996992 0.10480949 0.00019890426
-0.34627429 -0.075920492 -0.25777277 0.81856984 0.4990809 0.28436196 0.00023810506
0.30973792 -0.070808753 -0.25943634 -0.89910829 0.42418629 0.10802972 0
0.21828485 -0.068829566 -0.25710249 -0.82020783 0.50155485 0.27513978 0.00012327479
-0.44999307 -0.052477293 -0.25616527 0.91107273 0.39957321 0.10142808 0.00013494841
-0.36178893 -0.050940901 -0.2544502 0.84726244 0.44795477 0.28545204 0.00029023463
-0.35896337 -0.052865941 -0.25981271 0.83869225 0.45987836 0.29173139 0.00030900844
0.22723913 -0.055312008 -0.25417611 -0.8296029 0.4862577 0.27443138 5.2100007e-05
0.31681392 -0.055789445 -0.25855359 -0.90075433 0.41980192 0.1113909 0
0.23180756 -0.045766938 -0.25757226 -0.84092212 0.46232241 0.28126124 0.00036268024
0.32237023 -0.044261638 -0.25692895 -0.9129976 0.39182788 0.11360648 0.00027097066
0.32611376 -0.037372489 -0.25206164 -0.91779941 0.38003469 0.11496945 0.00014327849
-0.46132773 -0.025569215 -0.25293028 0.93517178 0.3395867 0.10067055 0.00041975806
-0.37581536 -0.023363436 -0.25098884 0.88084656 0.38544542 0.27484772 0.00011854849
0.24281554 -0.025547763 -0.25297222 -0.87207288 0.40517384 0.27445042 8.341435e-05
0.3307012 -0.024361109 -0.25521943 -0.93057936 0.34918877 0.10995053 0.00029936075
-0.466337 -0.01069022 -0.2519922 0.94445288 0.31305405 0.10002952 4.7572477e-05
-0.38161567 -0.010902168 -0.25031409 0.88995785 0.3666465 0.27119231 0.00018337744
0.24762842 -0.012943657 -0.25634551 -0.8833496 0.38005134 0.27432537 0.00020977145
0.25050497 -0.01019286 -0.251084 -0.8831864 0.37987989 0.27508748 0.00018907388
0.33269796 -0.019706126 -0.25176755 -0.93653792 0.33634844 0.098825119 0.00018458294
-0.46712095 -0.0075430078 -0.25474876 0.94571149 0.30786687 0.1041526 1.5629106e-05
0.25072044 -0.0050913743 -0.25813961 -0.89015418 0.35774463 0.28221327 0.00032219072
0.33675015 -0.0073717479 -0.25381798 -0.94106239 0.32349768 0.098746307 0
-0.47233009 0.008287441 -0.25499091 0.95450228 0.27887863 0.10560347 0.00027453928
-0.38501236 0.0032859202 -0.2567344 0.90117782 0.32565609 0.2860536 0.00033170127
0.25582895 0.0067703361 -0.25559685 -0.90038776 0.33109 0.28227878 0.00028442446
-0.47582999 0.019836707 -0.25309435 0.96325916 0.24772546 0.10374921 0.00015817654
0.25979134 0.01988795 -0.25754517 -0.90760523 0.30653629 0.28685939 0.00012663695
0.34445128 0.01538001 -0.25422287 -0.95575911 0.27888599 0.093526199 0.00031886532
-0.39149734 0.022723379 -0.25655854 0.91410363 0.29139265 0.28196618 0.00010359537
0.2598646 0.020192735 -0.25765479 -0.90760523 0.30653629 0.28685939 0.00012663695
0.2630288 0.028354768 -0.25647652 -0.91451925 0.29590541 0.27585241 0.0001830486
-0.47873694 0.035548158 -0.25802875 0.9699747 0.21954137 0.10464478 9.2108412e-06
-0.48147768 0.046915554 -0.25611991 0.97304392 0.10642777 0.20459372 0.035458244
0.26877564 0.046907734 -0.25613263 -0.89237386 0.31471711 0.32345343 0.014318344
0.35152581 0.044226736 -0.25458157 -0.99797666 0.039834332 0.049556848 0.046473943
-0.48321891 0.055687495 -0.25768945 0.94654232 -0.074185222 0.31393331 0.14891507
-0.40028951 0.057006821 -0.25752041 0.85139245 0.46443337 0.24378818 0.10544626
0.27226871 0.057322353 -0.2525 -0.86544538 0.43314633 0.25177082 0.10603896
0.35341394 0.050555557 -0.25056505 -0.99344987 0.074835442 0.086354092 0.048263006
-0.48503655 0.06617716 -0.25375491 0.97592634 -0.034983248 0.21527673 0.14859951
-0.45666188 0.065146737 -0.25161803 0.027637634 -0.99961716 -0.0012919318 0.014707809
-0.43280146 0.065146737 -0.25343919 0.0086323377 -0.99996269 0.00038004527 7.6273413e-05
-0.42372563 0.065146737 -0.25813156 -0.071220078 -0.99709278 -0.027089126 0.011401816
-0.40496019 0.066035055 -0.25262174 0.38436005 0.88206792 0.27244011 0.28030011
0.27343023 0.063164063 -0.25325036 -0.89643675 0.081390813 0.43563372 0.13358355
0.28786671 0.067316383 -0.25212312 0.086195581 -0.96592289 0.24405609 0.14779234
0.30658168 0.067316383 -0.25924057 -3.6735848e-05 -1 2.9306368e-05 0
0.31477183 0.067316383 -0.25477728 -2.2358381e-06 -1 3.3281398e-05 0
0.32112294 0.067316383 -0.25825059 -1.9018738e-05 -1 8.0240698e-06 0
0.35475811 0.068208419 -0.2566013 -0.98962772 -0.014023609 0.14296955 0.10732961
-0.48439419 0.070934772 -0.25473276 0.98906654 0.019520223 0.14617267 0.12957747
-0.4815973 0.084063083 -0.25337532 0.99671757 -0.044355471 0.067725778 0.064714864
0.27074191 0.085657261 -0.25083652 -0.91298127 -0.28645793 0.29052874 0.019841552
-0.47910812 0.095555909 -0.25333506 0.97108412 -0.21690959 0.099729396 0
0.26692674 0.09876284 -0.25173604 -0.918634 -0.28140718 0.27734733 0.00034642444
-0.47658724 0.10589629 -0.25542408 0.96468455 -0.24155702 0.1050427 0.00024037747
0.26227617 0.10754062 -0.25722569 -0.90887946 -0.30160651 0.28804782 0.00016677953
0.34760198 0.10682954 -0.25432858 -0.96103066 -0.25543082 0.10571267 0.00034866744
-0.47414237 0.117374 -0.25226653 0.95687592 -0.27308923 0.099049382 0.00041524536
0.34558424 0.11467825 -0.25619331 -0.95756608 -0.26873976 0.10414454 0.00029001725
-0.47225785 0.12186927 -0.25624248 0.95526475 -0.27739868 0.10256266 0.000392897
-0.38616309 0.121952 -0.25873095 0.90758663 -0.31172714 0.28127 0.00027808279
0.34269297 0.12500131 -0.25239712 -0.95010501 -0.29358232 0.10540368 0.00032085981
-0.46725497 0.13843586 -0.25174227 0.94450849 -0.31178012 0.10342576 0
0.25439361 0.13233198 -0.25476977 -0.89618683 -0.34347859 0.28084108 0.00030089534
0.33809263 0.13734001 -0.25551838 -0.94179082 -0.320721 0.10083694 0.00012080954
-0.3777194 0.14674614 -0.25532234 0.88341951 -0.37415898 0.28209049 0.00014596625
0.24823408 0.14473268 -0.25799447 -0.87947494 -0.38106796 0.28515089 0.00023396338
0.33687314 0.14208749 -0.2512112 -0.94039959 -0.32589361 0.097169168 0
-0.46126768 0.15548775 -0.2553426 0.93505406 -0.34162512 0.094689608 0.00033764323
0.24403667 0.15396295 -0.25767598 -0.87154651 -0.4011192 0.28197527 0.0001694583
0.3320471 0.15487579 -0.25522268 -0.93235636 -0.34617871 0.10426819 0.00020801865
0.23890513 0.16667089 -0.25511324 -0.86019689 -0.42277938 0.28516465 0.00019167135
0.2416862 0.16118672 -0.25436011 -0.86380535 -0.41741407 0.28214502 0.00016810351
0.32841152 0.16465127 -0.257148 -0.92517847 -0.36498743 0.10406213 0.00025074708
-0.3646743 0.17287971 -0.25973439 0.85977775 -0.42282 0.28636605 0.00036836814
0.23223385 0.17942117 -0.25691819 -0.84962344 -0.44680768 0.28018385 0.00022392752
0.32561541 0.17197956 -0.2551451 -0.91300446 -0.39433032 0.10452992 0.00022961963
-0.44770637 0.18805195 -0.25644889 0.90972686 -0.40151775 0.10573798 0
0.22706701 0.18804997 -0.25700879 -0.83795989 -0.46619231 0.28370389 0.00031412338
0.230452 0.18279658 -0.25620937 -0.84513891 -0.45607904 0.27880469 0.00022435111
0.31928128 0.18562086 -0.25504526 -0.90439999 -0.4132157 0.10636453 4.890323e-06
0.32139218 0.18185928 -0.25144571 -0.9078486 -0.40623868 0.10383198 0.00018930608
-0.44523132 0.19454947 -0.25258291 0.90635049 -0.41082773 0.098738052 0.00010462091
-0.35205525 0.19675623 -0.25752401 0.82835281 -0.48156491 0.28622869 0.00014383812
0.31715471 0.19056022 -0.25344929 -0.90182596 -0.41915971 0.10495273 5.0951116e-05
-0.43850061 0.20820862 -0.25777459 0.89688754 -0.43078777 0.10007264 0.00012681639
0.30963212 0.20523611 -0.25899142 -0.89370382 -0.43529186 0.10869435 0.00022924331
-0.43559021 0.21456638 -0.25740245 0.88770056 -0.44811037 0.10575768 0.00034996041
-0.34181079 0.21529907 -0.25590301 0.8030588 -0.52903289 0.27426416 0.00027777121
0.20844768 0.2197299 -0.2549957 -0.79179335 -0.53990161 0.28560379 0.00017966631
0.21308731 0.21522833 -0.25015855 -0.80569792 -0.5228337 0.27838054 0.00028891492
0.30502713 0.21660654 -0.25289178 -0.88258684 -0.45891085 0.1021826 0.00039076118
-0.33746931 0.22053504 -0.25784615 0.79402012 -0.53685564 0.28516307 0.00040852951
0.20328438 0.22485071 -0.25895283 -0.78406852 -0.55055839 0.2865693 0.00024566372
0.29704681 0.22986865 -0.25373545 -0.86010957 -0.50010985 0.10050628 0.00010083907
0.30191717 0.22203965 -0.25163618 -0.87444001 -0.47571245 0.095143914 0.00040542442
-0.42390239 0.2350405 -0.25646764 0.86179501 -0.496418 0.10430025 0
-0.32617128 0.23808978 -0.25377786 0.77296335 -0.57123059 0.27608576 0.00021559722
-0.41752106 0.24621272 -0.25576317 0.85005498 -0.51722914 0.099401265 0.00019901468
-0.31994048 0.24382815 -0.25989315 0.76885581 -0.57306421 0.28365144 0.00032807555
0.19071013 0.2448785 -0.25228477 -0.75848281 -0.58875489 0.27941281 0.00017227863
0.28623453 0.24831158 -0.25203913 -0.85328478 -0.51184916 0.099576741 6.1324354e-05
-0.41044173 0.25879678 -0.25465551 0.83776832 -0.53654939 0.10128649 0.00033590128
-0.31073439 0.25595436 -0.25890315 0.73222995 -0.61867976 0.28473619 0.00031646434
0.27914751 0.25926659 -0.25678447 -0.82897031 -0.54925686 0.10547579 0.00024443687
-0.41016021 0.26000747 -0.2504288 0.83458722 -0.54194963 0.098766059 0.00030536426
-0.40496957 0.26669204 -0.25369397 0.81775618 -0.56656623 0.10137804 0.00019067565
0.17507602 0.26117051 -0.25831777 -0.72294486 -0.62811923 0.28777933 0.00021806652
0.27513018 0.26550442 -0.25470558 -0.8180756 -0.56613415 0.10121439 0.00018894026
-0.40219665 0.27092779 -0.25112295 0.81566399 -0.56963551 0.10103209 0.00012526507
-0.39668721 0.27707615 -0.25929895 0.80547017 -0.58287543 0.10711703 0.00012825585
-0.29259995 0.27634722 -0.25879776 0.70739722 -0.64809847 0.28205949 0.00034352773
0.16265497 0.27635008 -0.25445569 -0.69590759 -0.66174811 0.27893031 0.00021162079
0.26885939 0.27400169 -0.25486887 -0.81057346 -0.57693779 0.10056531 0.000110964
-0.3893359 0.28788772 -0.2561878 0.80280203 -0.58685255 0.10541783 0.00016136127
-0.28591743 0.28352621 -0.25956693 0.68116301 -0.67243856 0.28955722 0.00049391232
0.15486932 0.28347045 -0.25788015 -0.67807394 -0.67871135 0.28207546 0.00022517912
0.25740322 0.28941184 -0.25497156 -0.79738539 -0.59451914 0.10355487 6.0794711e-05
0.2608254 0.28529933 -0.251701 -0.79725689 -0.59534866 0.099706709 2.0774622e-05
-0.38230813 0.29811805 -0.25342217 0.78691107 -0.60865104 0.10156213 0.00023982655
0.14565997 0.29488388 -0.25050336 -0.65515023 -0.70442265 0.27306932 0.00014231566
-0.37291425 0.30902225 -0.25661537 0.76386619 -0.63669163 0.10550933 0.00016988657
-0.26027024 0.30943042 -0.25348461 0.62826008 -0.7252658 0.28156489 0.00023244743
0.12769981 0.30937439 -0.25468993 -0.61989611 -0.73435646 0.27649471 0.0003089885
0.13282865 0.30431956 -0.25596941 -0.63330823 -0.72188246 0.27893779 0.00023110298
0.24596494 0.30513752 -0.25165257 -0.7622599 -0.63798261 0.10926165 0.00042816091
-0.36631018 0.31681851 -0.2539643 0.74448413 -0.65967155 0.10284397 0
0.12059478 0.3159028 -0.25419721 -0.60635579 -0.74782896 0.27034158 0.00035310711
0.23745105 0.31395125 -0.25589529 -0.74571431 -0.65608436 0.11603209 0.00015455374
-0.24268296 0.32348794 -0.25409067 0.59212857 -0.76013839 0.26753208 0.00015804818
-0.23879766 0.32435077 -0.25996318 0.57695127 -0.76367593 0.28970045 0.00021478985
0.10643272 0.32531738 -0.25716457 -0.571908 -0.77077991 0.28074828 0.00016365893
0.11151702 0.32275867 -0.25385755 -0.58938932 -0.75913006 0.27630037 0.00037725351
0.2243282 0.32882419 -0.25246772 -0.73178911 -0.67350543 0.10428387 2.5840694e-05
0.23109129 0.32120335 -0.25417858 -0.73411798 -0.67067337 0.10615089 0.0001333017
-0.21869771 0.33954641 -0.25914884 0.53967988 -0.79390436 0.28010985 0.00040131883
-0.21786889 0.34063035 -0.25778598 0.53751498 -0.79664105 0.27647898 0.0004624484
0.076300859 0.34737191 -0.25364125 -0.50809288 -0.8146944 0.27948979 0.00028135293
0.08244846 0.34303415 -0.25562584 -0.53131962 -0.80079138 0.2764647 0.0003727072
0.20877427 0.34491813 -0.25700167 -0.69793248 -0.70955127 0.097093783 0.0003996357
-0.20111324 0.35027465 -0.25933993 0.49179539 -0.82042414 0.29161882 0.00011226848
0.19506669 0.35700446 -0.25797725 -0.66922301 -0.73589617 0.10294329 7.9156234e-05
-0.32224792 0.3619608 -0.25326726 0.67163509 -0.73406589 0.10026742 3.6427697e-05
-0.18082944 0.36298695 -0.25728992 0.45398143 -0.84303236 0.28843966 0.0003612013
-0.17613749 0.36635861 -0.2544488 0.43539882 -0.85663444 0.27677667 0.000379203
0.047591589 0.36267161 -0.25790817 -0.44052237 -0.85089874 0.28620151 0.00026756673
0.18566832 0.36585158 -0.25500977 -0.65904772 -0.74527127 0.10112787 3.1718246e-05
-0.1635858 0.3717204 -0.25594145 0.41195592 -0.86742026 0.27905974 0.00014589936
-0.15684846 0.37542608 -0.25402415 0.40304849 -0.87172747 0.27864528 0.00013638493
0.013956904 0.37987876 -0.25295791 -0.37349159 -0.8832252 0.28357938 0.00020729793
0.17829543 0.37229621 -0.25603801 -0.64639306 -0.75648999 0.099492662 0.00014329088
-0.29191804 0.38766882 -0.25182199 0.60742861 -0.78816116 0.099159569 0.00014210469
-0.14432833 0.38047823 -0.25648484 0.37421766 -0.8814553 0.28809339 0.0003287505
-0.13625324 0.38471133 -0.25382131 0.35068661 -0.89285713 0.28253323 0.00026180036
-0.12671976 0.38721913 -0.25680715 0.32862201 -0.89983934 0.28687406 0.00010797655
-0.013719792 0.38932097 -0.25669974 -0.31405419 -0.90743309 0.27916873 0.0002205507
-0.0018431209 0.38647947 -0.25281942 -0.33936527 -0.8984977 0.2784479 0.00027181831
0.16215932 0.38597471 -0.25077021 -0.60251409 -0.79165053 0.10132243 0.00010283681
-0.28428513 0.39297992 -0.25495005 0.59326792 -0.79832792 0.10346865 9.890084e-05
-0.27877131 0.39701274 -0.25534064 0.58685452 -0.8028084 0.10535843 0.00011360789
-0.11666586 0.39125547 -0.25484458 0.31827784 -0.9051792 0.28169093 0.00016063068
-0.10709839 0.39341566 -0.25872925 0.29594579 -0.91137516 0.28602692 0.00011990009
-0.035425641 0.39679545 -0.25596046 -0.27994034 -0.91673368 0.28501341 0.00019324996
-0.023632731 0.39245126 -0.25733453 -0.29369995 -0.91431576 0.27886748 0.00013328316
-0.018288272 0.39168957 -0.25381386 -0.30559835 -0.91021526 0.27949548 0
0.14708118 0.39693636 -0.25051424 -0.58306026 -0.80657643 0.09734109 0.00011788979
0.15144815 0.39282095 -0.25805601 -0.58285356 -0.80533081 0.10827749 8.5278443e-05
-0.26672512 0.40621907 -0.25317544 0.56388217 -0.81887484 0.10714883 0.00027442636
-0.085186869 0.40117151 -0.25398815 0.24934188 -0.91353846 0.3213658 0.014748738
-0.073854148 0.40321928 -0.25610068 -0.069543712 -0.93870664 0.33762935 0.011114456
-0.066871881 0.40520057 -0.25199461 -0.12512349 -0.94026637 0.31661224 0.0089659523
-0.049776226 0.40096173 -0.25440472 -0.19760229 -0.93453223 0.29597795 0.0012553767
0.13460635 0.40553108 -0.25433823 -0.56009924 -0.82202679 0.10276613 0.00024271723
-0.25497922 0.41401637 -0.25200728 0.53629571 -0.83852023 0.09628506 0.00021074322
0.11943361 0.41555256 -0.25341305 -0.5199399 -0.84863937 0.097332984 0.00019377509
0.12336327 0.41354296 -0.25066921 -0.54094779 -0.83539873 0.097388171 0.00027397872
-0.24084786 0.4214209 -0.25983417 0.50647861 -0.85545164 0.10808237 0.00014158653
-0.23657259 0.42507529 -0.25079 0.50699717 -0.85594016 0.10158852 9.108413e-06
0.10738695 0.42178375 -0.25920644 -0.4988538 -0.86026686 0.10528924 7.0047063e-05
-0.22438695 0.43192816 -0.25436437 0.48816523 -0.86640036 0.10509525 8.9984067e-05
-0.21616003 0.43660802 -0.2544046 0.46174151 -0.88172895 0.096689619 0.0004000277
0.081341773 0.43736172 -0.25494677 -0.4521786 -0.88617933 0.10109741 0.00038488218
0.092096314 0.43101835 -0.25646603 -0.48473006 -0.86796236 0.1080652 0.0002430028
-0.20203294 0.44342893 -0.253737 0.42902359 -0.89740789 0.10294598 0
-0.19202769 0.4483217 -0.2510156 0.41835883 -0.90302736 0.097557731 0.00011116728
0.059282973 0.44775629 -0.25239173 -0.41265789 -0.90570968 0.096971065 0.00022567765
0.06513688 0.44487214 -0.25439909 -0.41993818 -0.90249234 0.095704816 0.00011001474
0.07236287 0.44153965 -0.25490853 -0.43431896 -0.89545774 0.09758313 0.00020341814
-0.17396653 0.45625228 -0.25533205 0.37983325 -0.91933995 0.10266781 0.00019723445
0.031069454 0.4595696 -0.2590434 -0.34543186 -0.93250602 0.10540047 0.00017577322
0.041153505 0.45539141 -0.25721455 -0.39678046 -0.91119146 0.11088419 0.00026023845
-0.16514152 0.46042567 -0.25068206 0.36387089 -0.92604661 0.10017846 0.00037322182
-0.1581991 0.46208885 -0.25751221 0.34752914 -0.93194789 0.10342439 0.00021714997
-0.14510322 0.46635389 -0.25944746 0.32379505 -0.93997252 0.10774219 9.2197784e-05
0.0026329204 0.46939945 -0.25641501 -0.31717783 -0.94270331 0.10348263 7.0607763e-05
-0.13270889 0.47058755 -0.25972527 0.31321067 -0.94338882 0.10916334 0.00011140183
-0.12527172 0.47372577 -0.25465345 0.2952534 -0.94994622 0.10211562 0.00021019125
-0.11419813 0.47651571 -0.25995496 0.26140371 -0.96004426 0.099915683 0.00018693044
-0.094040595 0.48175883 -0.25561628 0.22631818 -0.96895844 0.099497318 4.3892636e-05
-0.083219975 0.48402625 -0.25772858 0.1581576 -0.98175043 0.10560432 0.0034676685
-0.06851428 0.48729196 -0.25709981 0.017794326 -0.99195009 0.12537283 0.007897852
-0.054983843 0.4848415 -0.25486687 -0.13258548 -0.98709989 0.089749716 0.0045618475
-0.045187455 0.48225775 -0.25796574 -0.19514942 -0.97433376 0.11220752 0.00068179477
0.37623611 -0.43225271 -0.24403051 0.1592513 0.86273336 0.47992727 0.010796992
0.39833957 -0.43339726 -0.24227363 -0.14451827 0.78232253 0.60587609 0.0068522836
0.35189599 -0.42354512 -0.24156509 0.49011916 0.83422673 0.25268358 0.010219673
0.36529601 -0.42985207 -0.2423494 0.36112377 0.85241878 0.37811598 0.0070467475
0.37452728 -0.42960346 -0.24861579 0.15671191 0.86296427 0.48034784 0.013708976
0.40449423 -0.42773369 -0.24713565 -0.29238692 0.67931676 0.67308146 0.012174726
0.41203025 -0.4282701 -0.24245615 -0.40416464 0.62196136 0.67068249 0.013519866
0.33921269 -0.41409919 -0.24422729 0.63676918 0.76335895 0.10866547 0.0060350853
0.34533697 -0.41795498 -0.24758315 0.58022052 0.78948933 0.20012702 0.011232643
0.41813752 -0.4198001 -0.24616577 -0.46548817 0.52076858 0.71562612 0.0077978573
0.42687494 -0.41402614 -0.24176958 -0.58230561 0.45942947 0.67070472 0.0036514166
0.42576963 -0.40650657 -0.24695297 -0.79110795 0.25459686 0.55617321 0.011807365
0.3178255 -0.39288032 -0.24650902 -0.75733715 -0.64996433 0.063142061 0.010724267
0.32117382 -0.39685327 -0.24705605 0.7146461 0.69849867 -0.037155695 0.012259092
0.30907565 -0.38277724 -0.24661341 -0.79165339 -0.57416445 0.20885418 0.009796638
0.43081063 -0.38189119 -0.24453354 -0.84077549 -0.031523891 0.54046535 0.011079172
0.30342996 -0.3724063 -0.24299619 -0.76897401 -0.50266188 0.39498106 0.015667442
0.42826325 -0.3766892 -0.24772629 -0.84204841 -0.12031703 0.52581191 0.012374863
0.29791796 -0.36781782 -0.24896705 -0.79608858 -0.48364833 0.36376804 0.0094646579
0.30255684 -0.36959684 -0.24077991 -0.76604015 -0.43253067 0.47549945 0.010518765
0.42566785 -0.3618784 -0.24322686 -0.87430125 -0.37793368 0.30457118 0.0075415177
-0.091165602 -0.3512933 -0.24787425 0.14978279 0.98586226 0.075104661 0.012877644
-0.088476129 -0.35247818 -0.24143794 0.069587782 0.99691582 0.03628248 0.04749218
-0.072730727 -0.35549945 -0.24843936 -0.01365165 0.99833286 0.056081221 0.090041615
-0.06869486 -0.35327184 -0.24539667 -0.062694669 0.99802017 -0.0050108447 0.16014485
-0.05892488 -0.35470861 -0.24249126 0.083162375 0.99588823 0.03592461 0.15580617
0.29333153 -0.35546818 -0.24413347 -0.78757334 -0.33478802 0.51734436 0.0077592009
0.41947782 -0.35009176 -0.2433078 -0.86376572 -0.46250054 0.20000499 0.01207641
0.42376974 -0.35856462 -0.24375889 -0.87365407 -0.42813748 0.23114234 0.01032333
-0.13224496 -0.3401694 -0.24928525 0.30428538 0.94712687 0.1017899 0.00023080542
-0.12747833 -0.34236366 -0.24301207 0.29462776 0.95083284 0.095453732 0.00026723594
-0.11613999 -0.34543297 -0.2489623 0.26518929 0.95877028 0.10214775 0.00030992922
-0.1034884 -0.34903952 -0.24113122 0.24209499 0.96631849 0.087284379 0.00017567824
-0.02050145 -0.34567249 -0.24486388 -0.24454166 0.96574038 0.086861685 0.00017346028
-0.014604635 -0.34406722 -0.24334134 -0.27740186 0.95595676 0.09589 0.00052541628
0.29232219 -0.34914607 -0.24158558 -0.78758711 -0.33471411 0.5173713 0.0077691288
0.41385737 -0.34293985 -0.24514046 -0.82017571 -0.54258454 0.18142153 0.0086686667
-0.16070695 -0.33097702 -0.24346645 0.35239682 0.93100667 0.095095344 0.0003195272
-0.1545046 -0.33298096 -0.24472615 0.32285547 0.94208992 0.090723984 0
0.015145689 -0.33369225 -0.24653429 -0.33173376 0.93815625 0.099073112 0.00016654027
0.28253138 -0.33358783 -0.24547431 -0.68763983 -0.29754794 0.66228139 0.0143418
-0.18514249 -0.32027325 -0.24787705 0.40719405 0.90815657 0.097184055 3.6670735e-05
-0.16551912 -0.32921466 -0.24478622 0.36566782 0.9257555 0.096248858 0.00030919354
-0.06869486 -0.32429993 -0.24149904 1 -2.5541822e-05 -2.4303788e-05 2.5296888e-06
0.042518571 -0.32323825 -0.24656352 -0.39279541 0.91403365 0.10126305 0.00023708964
-0.19884369 -0.31423914 -0.24495791 0.41841686 0.90379858 0.089862987 0
-0.18984352 -0.31853929 -0.24330099 0.41431129 0.90568984 0.089845136 1.405291e-05
-0.06869486 -0.31839865 -0.24983023 1 -2.7002548e-05 -9.1603233e-06 1.9166257e-06
0.056138515 -0.31748089 -0.24168438 -0.41267228 0.90620732 0.092141308 6.2702646e-05
0.066110663 -0.31237379 -0.24760243 -0.41941884 0.90253377 0.097573832 8.734069e-05
0.26621324 -0.31334192 -0.24907623 -0.55430114 -0.30070147 0.77609843 0.0033206881
0.38265502 -0.31383228 -0.24078491 0.5455904 0.79432762 0.26716039 0.011708153
0.083939426 -0.30390576 -0.24743393 -0.47077793 0.8776024 0.09045551 0.0002323558
0.27225399 -0.30428445 -0.24281055 -0.44253817 -0.13236997 0.88692623 0.016640907
0.36039758 -0.30010396 -0.24085799 0.35984603 0.78442591 0.50516015 0.011732881
0.37815657 -0.3091034 -0.24492939 0.55652088 0.78126484 0.28268328 0.011530395
0.38087428 -0.30991143 -0.24909565 0.57726127 0.77709216 0.25079313 0.011100079
-0.23808962 -0.29289791 -0.24992998 0.50524229 0.85725152 0.099247724 2.7714075e-05
0.09316133 -0.29923573 -0.24010664 -0.49031949 0.86692709 0.089577824 0.00018865196
0.25660509 -0.297786 -0.24990082 -0.52743882 -0.25478202 0.81049019 0.012701917
0.25175494 -0.28740034 -0.24989282 -0.40661004 -0.25842783 0.87628961 0.013982618
0.27644262 -0.28414154 -0.24073856 -0.2167061 0.061142858 0.97432029 0.0091753369
0.32271209 -0.28453967 -0.24109995 0.25645828 0.51611471 0.81722385 0.011167635
0.34997496 -0.28921658 -0.24994025 0.44446468 0.77709442 0.445618 0.0087233791
-0.27343333 -0.2704868 -0.24859712 0.57995063 0.80870843 0.098224014 0.00010613856
-0.26891243 -0.27406463 -0.24636762 0.57658345 0.811167 0.097773239 3.8864159e-06
-0.082745194 -0.27287886 -0.24373613 0.58923006 0.78946722 0.17189935 0.062155552
-0.073836148 -0.27508026 -0.24333289 0.18946797 0.96903497 0.15834489 0.15086119
-0.047316097 -0.27145875 -0.24277222 -0.28112978 0.92927229 0.23962238 0.018249279
0.13589445 -0.27209821 -0.24920335 -0.56472802 0.81934816 0.098746113 0.0001548353
0.24178745 -0.27069402 -0.24949422 -0.28871918 -0.28758502 0.91320091 0.011280426
0.25534302 -0.27464163 -0.24689022 -0.2297357 -0.12326064 0.96541613 0.0044560833
0.26743516 -0.27169681 -0.24387264 -0.18213055 0.0013172621 0.98327339 0.012756027
0.28481612 -0.27245292 -0.24195583 0.0016812999 0.37681994 0.92628503 0.0053180954
0.30201194 -0.27302602 -0.24294421 0.077702761 0.42698076 0.90091604 0.0074174847
-0.28628433 -0.26150614 -0.24374492 0.59230113 0.80015701 0.094488434 1.302712e-05
-0.27721217 -0.26771176 -0.24843369 0.58528113 0.80488974 0.097972237 0
-0.1142864 -0.26342729 -0.24442776 0.30810887 0.91169178 0.27182186 0
-0.030225072 -0.26683956 -0.2415958 -0.27785066 0.92133272 0.27192852 4.23036e-05
-0.025339046 -0.26276916 -0.24986988 -0.28214478 0.91573387 0.28605214 5.1287254e-05
0.13933888 -0.26952982 -0.24971083 -0.56878132 0.81630784 0.10064451 0.00011098546
0.14451925 -0.26609159 -0.24646227 -0.58552635 0.80498612 0.095689014 4.5380184e-05
0.23681389 -0.26721016 -0.24946977 -0.29210451 -0.32518849 0.89940393 0.013040787
0.2437492 -0.2654081 -0.24755794 -0.22449259 -0.20943275 0.9517042 0.017775318
0.25934219 -0.2652415 -0.24629258 -0.18610577 -0.016222393 0.98239583 0.01122074
0.26215917 -0.26832056 -0.2454284 -0.14502104 -0.041054748 0.98857647 0.014180663
0.30360189 -0.2659235 -0.24677233 0.20911369 0.51821321 0.82929277 0.016474884
-0.28950506 -0.25947502 -0.24046248 0.59363979 0.79932368 0.093131036 1.9306417e-05
-0.14752974 -0.2514866 -0.24321105 0.38645682 0.88119596 0.2722955 0.00011253563
-0.13912253 -0.25345981 -0.24945039 0.36162874 0.89237958 0.2699689 0.00024706009
-0.12953626 -0.25780404 -0.24585307 0.33591422 0.90340227 0.26650709 0.00023624794
-0.016038585 -0.25996053 -0.24868789 -0.3186748 0.90776139 0.27279264 0.00011067557
0.0072256532 -0.25294662 -0.24420732 -0.36607778 0.89136893 0.26729837 0.0002939672
0.01125777 -0.25229588 -0.24029097 -0.3662875 0.89065433 0.26938519 0.00025743665
0.16423956 -0.25153622 -0.24795619 -0.59413725 0.80102348 0.073227778 0.0040852404
0.23293501 -0.25086617 -0.24513257 -0.11714499 -0.20439442 0.97185391 0.012079447
0.24277237 -0.25239018 -0.24502075 -0.014551569 -0.11623006 0.99311566 0.010910612
0.25542909 -0.25279111 -0.24521625 0.028818425 -0.046791773 0.99848896 0.015318597
0.29027978 -0.25848138 -0.24798191 0.16861603 0.44558549 0.87921679 0.016503993
-0.30306458 -0.2485715 -0.24877313 0.62309974 0.77640885 0.094531178 0.00025041582
-0.16785559 -0.24155673 -0.24508911 0.41020578 0.87081975 0.27093202 0.00013733162
-0.15575624 -0.24634737 -0.24765441 0.39467493 0.87836337 0.26964718 9.5932599e-05
0.022770561 -0.24685885 -0.24089317 -0.39876321 0.87801284 0.26472887 0
0.1748756 -0.24320912 -0.24673855 -0.59887004 0.79754555 0.07263355 0.0083230706
0.24346866 -0.24517372 -0.24433219 -0.001910417 -0.10011242 0.99497426 0.0086352685
0.26056561 -0.2433425 -0.24642479 0.23424478 0.11230757 0.96566886 0.015049484
-0.3205964 -0.23378673 -0.24117364 0.66655898 0.74008912 0.08925917 5.1108858e-05
-0.18436456 -0.23418796 -0.24264894 0.46326327 0.84705734 0.26053989 0.00048747123
-0.17832646 -0.23643968 -0.2460621 0.42563546 0.85993075 0.28169754 0.00023920019
0.05166354 -0.23209561 -0.24331808 -0.47704899 0.83715039 0.26758829 9.6407726e-05
0.18522835 -0.23446262 -0.24191916 -0.5923776 0.80412728 0.049681127 0.032416128
0.19599287 -0.23140471 -0.2468103 -0.63068622 0.77141881 0.084545419 0.12097448
0.2017303 -0.23001507 -0.24499416 -0.6698696 0.72538549 -0.15840025 0.22256789
0.2120164 -0.2339595 -0.2439328 0.162931 -0.15128857 0.97496927 0.15795103
0.22735989 -0.23428416 -0.24296431 -0.01928905 -0.17213598 0.98488438 0.0096091656
0.23508066 -0.23510394 -0.24285895 0.067491308 -0.03815712 0.99698991 0.012418352
0.24263468 -0.23556779 -0.24400312 0.19417061 0.08576525 0.97721142 0.0067651425
0.25255069 -0.23297662 -0.24586225 0.22841556 0.14805742 0.96223974 0.010844148
0.26535031 -0.23663658 -0.2494249 0.33302617 0.20740412 0.91982454 0.013867993
-0.33189526 -0.22297069 -0.2456912 0.67717707 0.72949392 0.096279815 0.00010913172
-0.20660821 -0.22049105 -0.24434783 0.5053193 0.81932312 0.27085418 0.00020423284
0.05380892 -0.22924456 -0.24830374 -0.47620907 0.83638638 0.27144575 5.1895404e-05
0.19516778 -0.22567357 -0.24299338 -0.62434119 0.77754176 0.075012751 0.053785853
0.20533755 -0.22906449 -0.24382612 -0.62279457 0.75067776 -0.22047618 0.23799521
0.22254337 -0.22011296 -0.24158703 0.17904009 -0.096206978 0.97912657 0.18410374
0.24746138 -0.22761011 -0.24526095 0.24974708 0.14484546 0.95741636 0.0083788447
-0.21592589 -0.21621698 -0.24049979 0.5319308 0.80153787 0.2731055 0.00031980558
-0.20986441 -0.21970442 -0.24080028 0.50616437 0.81949538 0.26874718 0.00022119036
0.076195717 -0.21649387 -0.24721919 -0.50663763 0.81696469 0.27547601 0.00027564171
0.20600732 -0.21502173 -0.24546808 -0.63659066 0.7544508 0.15986359 0.12908129
0.21195062 -0.21532995 -0.24078733 -0.66919941 0.74251604 -0.029021338 0.15782782
0.2245234 -0.21806659 -0.2419825 0.23904161 -0.045073222 0.9699626 0.19384247
0.23169032 -0.21798715 -0.24309096 0.15688661 0.038687736 0.98685855 0.10594331
0.2409656 -0.21975829 -0.24486718 0.31585702 0.16208558 0.93485969 0.011108578
-0.22583291 -0.20804536 -0.2445046 0.55239254 0.78991991 0.26624963 0.00020119689
0.20951685 -0.20944744 -0.24996173 -0.66449344 0.71987092 0.20058525 0.075789221
0.21531703 -0.20577109 -0.24288739 -0.69440389 0.7172603 0.057801057 0.12575118
0.22910154 -0.20260724 -0.24483502 -0.58914661 0.79297864 0.15521348 0.19633527
0.23472993 -0.20450798 -0.24637482 0.37055105 0.46405312 0.80457854 0.19311792
-0.36290377 -0.19127154 -0.24227941 0.74180043 0.6646229 0.089490257 5.5544479e-05
-0.24766214 -0.19186509 -0.24464589 0.58850634 0.76205671 0.27005529 0.00016914122
-0.23906228 -0.19799884 -0.24529074 0.57138389 0.77557182 0.26834452 1.2598171e-05
0.10050367 -0.19893977 -0.24993217 -0.56884646 0.77660376 0.27074027 3.1244726e-05
0.22339492 -0.19627881 -0.24704884 -0.63332409 0.73932761 0.22868131 0.16894659
0.23362593 -0.19520052 -0.24857822 -0.70924902 0.65801853 0.25293782 0.19384032
-0.37219274 -0.18038349 -0.24615821 0.7554962 0.64902294 0.089413382 0.00015117716
-0.36531287 -0.18797672 -0.2469577 0.74482024 0.66060895 0.094014093 1.9992312e-05
-0.25639668 -0.18485886 -0.24536829 0.61627156 0.73930317 0.27136701 0.00027581383
-0.37713593 -0.17460826 -0.24760044 0.76949459 0.63180286 0.093290798 0.00024909229
-0.27413711 -0.17023467 -0.24133679 0.65170896 0.70990354 0.26704377 3.4384593e-05
-0.2636587 -0.17798993 -0.24612972 0.63310051 0.72519773 0.27068788 0.00012244818
0.13800773 -0.17122146 -0.24277931 -0.64079279 0.71997213 0.26650468 2.3604376e-05
-0.38213909 -0.16833398 -0.24766117 0.78595978 0.61082339 0.095718428 0.00027854339
-0.28430378 -0.16074198 -0.24195322 0.67298454 0.68952328 0.26767382 0.00036428552
0.14466596 -0.16350125 -0.24746111 -0.66025847 0.70543331 0.25772589 0.00017559573
-0.39269686 -0.15408185 -0.24546668 0.80486536 0.58607674 0.093304619 4.7361587e-05
-0.29078826 -0.15279961 -0.24579291 0.69355965 0.6681205 0.26942533 0.00033723298
-0.28443557 -0.15799581 -0.24897969 0.67057967 0.69058424 0.27095461 0.00032214689
0.1531443 -0.15542734 -0.24841568 -0.67610061 0.68804383 0.26359755 0.00022826916
0.26207834 -0.15135658 -0.24128897 -0.79918015 0.5941999 0.090761378 2.8369212e-05
0.16395058 -0.14577842 -0.24378698 -0.69677681 0.66398484 0.27134144 0.00014935981
0.26350832 -0.14924832 -0.24249233 -0.80047685 0.59250623 0.090405501 5.9760026e-05
-0.40681273 -0.13453427 -0.24591203 0.8216241 0.56250185 0.09233325 0.00027488399
-0.30623814 -0.13612552 -0.24432549 0.72812641 0.63239557 0.26440087 0.00013875743
0.2703571 -0.13986976 -0.2432588 -0.81354904 0.57459038 0.089351892 0.00022612129
-0.41215944 -0.12677833 -0.24480799 0.84143841 0.53306466 0.088450491 0.00042294807
-0.31527385 -0.12573515 -0.24500889 0.74553353 0.61104822 0.26608229 0.00033431844
-0.41741517 -0.11731146 -0.24705644 0.85621566 0.50756413 0.096298166 0.00012345656
-0.32466811 -0.11491844 -0.2419387 0.76544142 0.58905256 0.25906852 0.00025635405
0.18852198 -0.11752889 -0.24497136 -0.74797899 0.60694462 0.26859921 0.00033556658
0.19268921 -0.11182027 -0.24511987 -0.77167541 0.57655889 0.26850873 2.8685305e-05
0.28643024 -0.11526559 -0.24495992 -0.84866893 0.52070063 0.092907794 0.00015857202
-0.42291901 -0.10754714 -0.24853458 0.86210233 0.49786004 0.094418958 0
-0.330311 -0.10515669 -0.24613011 0.77861023 0.56652158 0.26985094 4.445458e-05
-0.32924181 -0.10890164 -0.24131113 0.77693671 0.56982791 0.26770431 2.8260527e-05
0.29222438 -0.10592028 -0.2424065 -0.85638201 0.50810742 0.091852009 9.8128812e-06
-0.43168253 -0.093044505 -0.24476804 0.8750118 0.47577232 0.089415126 0.00022737079
-0.33846378 -0.094927371 -0.24395731 0.78667748 0.55301458 0.27443308 4.8353333e-05
0.20326917 -0.097253412 -0.2456549 -0.78088009 0.56400079 0.26856911 3.856968e-05
0.29754576 -0.096554302 -0.24473321 -0.86461842 0.49413317 0.090925708 0.0001124968
-0.43842149 -0.080397964 -0.24651904 0.88847226 0.44840831 0.097708791 0.00040894424
0.30651572 -0.081733435 -0.24190721 -0.87641239 0.47417703 0.084007949 0.00037548551
-0.44249111 -0.072315015 -0.24182695 0.90077597 0.4235239 0.096073739 0.00022095907
-0.34674063 -0.079624981 -0.24959637 0.81218892 0.51319754 0.27744794 0.00023173282
0.22121419 -0.073056072 -0.24017964 -0.82580143 0.49799359 0.26467764 0
0.30845553 -0.076129526 -0.24887647 -0.88911408 0.44642386 0.10090546 0.00032528193
0.31179729 -0.070611805 -0.24054292 -0.89579809 0.43453705 0.093398638 0.0002478504
-0.44352126 -0.068412222 -0.249538 0.90085346 0.42244652 0.10000987 0.00011650057
0.22724006 -0.058541276 -0.24821198 -0.82860273 0.49067777 0.26954189 2.6626025e-05
0.2313132 -0.05315876 -0.24546607 -0.83856905 0.47649002 0.26411974 0.0001943846
-0.45534366 -0.043759096 -0.24152613 0.91515625 0.39195684 0.094121568 0.00017233213
0.23465416 -0.04679326 -0.2468145 -0.8519159 0.4545981 0.25996119 0.00042635814
-0.45951366 -0.032097537 -0.24907988 0.93286461 0.34771001 0.094134688 0.00024754336
-0.37419882 -0.033603583 -0.24114305 0.87468576 0.40330982 0.26882333 4.5657176e-05
-0.46319351 -0.0212052 -0.24825159 0.94063789 0.32683632 0.091533087 0.0001955987
-0.37660316 -0.027604813 -0.24209906 0.88121295 0.3920837 0.26407215 9.2334421e-06
0.33014956 -0.028181193 -0.24757046 -0.93069822 0.3526423 0.097182035 0.00025020886
-0.46617618 -0.012766587 -0.2461459 0.9450503 0.31272551 0.095303357 5.1995848e-05
-0.46838525 -0.0073358323 -0.24157581 0.946325 0.31015342 0.090961039 9.2482071e-05
-0.47237909 0.0059644482 -0.24611092 0.95154721 0.29128417 0.098546922 0.0002300019
-0.38822472 0.0042781867 -0.24682468 0.91116083 0.31034079 0.2710619 0.00010954471
0.25808862 0.0017811377 -0.24196857 -0.89733839 0.3491942 0.26990214 0.00024876025
0.26059559 0.008261567 -0.24105132 -0.90346658 0.3351213 0.26728588 9.8206743e-05
0.3455449 0.016099347 -0.24528098 -0.95458996 0.28344771 0.091735274 0.000190534
-0.47802898 0.027851 -0.24816416 0.96911508 0.22774449 0.094596021 3.4132587e-05
0.26358467 0.02238193 -0.24751484 -0.91592252 0.30345932 0.2626754 6.2022547e-05
0.34919095 0.029778186 -0.24276929 -0.96498865 0.24568833 0.091837533 0.00011451393
-0.40047002 0.0399772 -0.24377561 0.9292748 0.25111368 0.27090648 0.00032407013
-0.39830586 0.032238886 -0.24398583 0.92458481 0.26587045 0.27286604 0.00031071034
-0.48241746 0.046954654 -0.24614966 0.99081421 0.11470275 0.071627297 0.063018918
0.35283917 0.047071964 -0.24773701 -0.9966861 0.024025019 0.077714697 0.058924727
-0.40460959 0.057019252 -0.24227342 0.96373314 0.24429956 0.10740645 0.093728118
0.27293766 0.052957065 -0.24656895 -0.85812539 0.47218505 0.20164856 0.063392393
-0.48556876 0.061700106 -0.2472885 0.98101622 -0.01085311 0.19362204 0.09632723
-0.4336583 0.065146729 -0.24546614 0.015410541 -0.99985552 0.0071733701 0.00014098328
-0.40632403 0.065449268 -0.24586718 0.80585021 0.55004877 0.21920699 0.23324302
0.27717176 0.067587174 -0.24583741 -0.85513145 -0.40042129 0.3292613 0.18438207
0.28409949 0.067316383 -0.24205235 -0.073769689 -0.98632556 0.14737681 0.19510469
0.29771274 0.067316383 -0.24752793 0.095394209 -0.99102843 0.093609236 0.043330841
0.3016986 0.067316383 -0.2430743 -0.043323386 -0.99905568 -0.0032748836 0.023609394
0.31742352 0.067316383 -0.24296048 -3.5967259e-05 -1 2.2163566e-05 0
0.32523876 0.067316383 -0.24374174 -3.7756785e-05 -1 1.6532311e-05 0
0.3346532 0.067316383 -0.24690634 -0.019788811 -0.95487666 0.2963427 0.1813145
0.35682261 0.062249243 -0.24317378 -0.99854976 0.05273829 -0.010810768 0.17691621
0.35504016 0.079286739 -0.24476886 -0.99429631 0.013183381 0.10583539 0.10246152
-0.48306334 0.081598245 -0.24323165 0.98982501 -0.11363091 0.085641161 0.035349451
-0.40071428 0.0862986 -0.24607083 0.91639453 -0.25794214 0.30608299 0.012683443
0.35239804 0.088913128 -0.24886611 -0.98834562 -0.083499834 0.1272821 0.045747899
-0.47888923 0.098249495 -0.24906477 0.96885943 -0.22715731 0.098543994 0.00010690218
-0.39700672 0.098557696 -0.24801967 0.92188096 -0.2713255 0.27661914 0.00012462052
0.26962838 0.092878126 -0.24865606 -0.92524165 -0.26354429 0.27289617 0.00027458285
0.35162079 0.094796829 -0.24180885 -0.98572266 -0.14927785 0.077889986 0.016073894
-0.47804049 0.10338638 -0.24584852 0.96777105 -0.23277916 0.096088566 0
-0.39609832 0.10413218 -0.24481355 0.92193925 -0.27557993 0.27218318 0.00014634234
0.26917461 0.10088797 -0.2415279 -0.92019367 -0.28809214 0.26504049 0.0002829686
0.34943143 0.10338189 -0.24355663 -0.96663105 -0.23821989 0.094210275 7.5263626e-05
0.35025388 0.10093392 -0.24079636 -0.96724313 -0.23730887 0.090140149 2.5257688e-05
-0.39374587 0.11017959 -0.24603364 0.91623586 -0.29431579 0.27182701 3.9590181e-05
0.26450711 0.11218808 -0.24408305 -0.91182381 -0.30999231 0.26922515 0.00013071964
0.34713995 0.11295775 -0.24379915 -0.95912367 -0.26418012 0.10144246 0.00029802215
-0.47158045 0.12652914 -0.24737908 0.95294255 -0.28802699 0.094556466 0.00028729383
0.25912136 0.12367931 -0.2488676 -0.90604377 -0.32365173 0.27264303 0.00010817574
-0.46935213 0.13346338 -0.24669012 0.947846 -0.30450687 0.094146013 5.4623441e-05
-0.38497788 0.13786665 -0.24428031 0.89610595 -0.3538146 0.26797259 0.00039572772
0.25675267 0.13565543 -0.2425563 -0.89745861 -0.34826297 0.27070445 0.00035395939
0.34024489 0.13270448 -0.24992019 -0.94435573 -0.31489161 0.095055394 0.00012286947
-0.46629483 0.14326711 -0.2446817 0.94462669 -0.3143332 0.094207861 2.9338416e-05
0.25423217 0.14245695 -0.24178571 -0.88811332 -0.37450591 0.26645848 0.00038904071
0.3365598 0.14369991 -0.24849243 -0.94041312 -0.32693422 0.093473062 0.00011114817
-0.4636727 0.15188038 -0.24220711 0.94233465 -0.32188001 0.091644965 4.8465448e-05
-0.37642294 0.15680997 -0.24471025 0.87914211 -0.39344233 0.26890957 9.7808406e-05
0.24662963 0.15623771 -0.24569382 -0.87706882 -0.39914361 0.2672725 3.1037638e-05
-0.37353018 0.16487062 -0.24233553 0.87289816 -0.40569988 0.2710281 0.00011567482
0.24256055 0.16647147 -0.24342197 -0.86627024 -0.41976428 0.27087611 0.00011018865
0.33009148 0.1633354 -0.2446997 -0.92658329 -0.36422569 0.093717709 0.0003481064
-0.4564817 0.17204538 -0.24012284 0.92102081 -0.37849078 0.092007905 6.9268273e-05
0.32361171 0.17839223 -0.24501462 -0.91274887 -0.39704323 0.096157283 0.00032874109
-0.45175934 0.18152887 -0.24517445 0.91602767 -0.3896029 0.095409147 4.3850705e-05
-0.4498539 0.18496981 -0.24905708 0.91178703 -0.39876249 0.098147243 9.6660788e-06
0.22980142 0.18728004 -0.24993022 -0.84233963 -0.46641031 0.27004686 0.00028000958
0.23239511 0.18610275 -0.24404363 -0.85105914 -0.45392203 0.26391879 0.00018624119
-0.3591989 0.19037363 -0.24667859 0.84193629 -0.46712112 0.27007613 7.38952e-05
0.22746092 0.19489899 -0.24310067 -0.83159363 -0.4882628 0.26467255 0.00011432893
0.31531358 0.19565541 -0.24783148 -0.90038979 -0.42390454 0.097995631 5.7269528e-05
0.31291625 0.20082794 -0.24773099 -0.89956629 -0.42513996 0.10018244 2.7472841e-05
-0.43410736 0.21944354 -0.24508116 0.87390125 -0.47676054 0.094846725 0.00023809857
-0.34804946 0.21217382 -0.24218585 0.8207227 -0.50652981 0.26427582 0.00024732851
0.21474491 0.21627626 -0.24306276 -0.81399012 -0.51722932 0.26437473 0.0002920944
0.3069317 0.21396539 -0.24637054 -0.88707185 -0.45360193 0.085724942 0.00029375032
0.20715503 0.22578135 -0.24569575 -0.78102285 -0.56485474 0.26635027 0.00011242874
-0.42223945 0.23976615 -0.24648024 0.86267686 -0.49727404 0.092234664 4.6310437e-05
-0.42089087 0.24280691 -0.24236199 0.86243194 -0.4980076 0.090551846 9.9721137e-06
0.19206257 0.24537805 -0.24727643 -0.76015449 -0.58944601 0.27334687 0.00015139795
0.28746128 0.2468092 -0.2487002 -0.85324997 -0.51232874 0.097384132 5.4789754e-05
0.18675631 0.25424337 -0.24356966 -0.74007809 -0.61730427 0.26687062 0.00020480056
0.28256518 0.25529543 -0.24712582 -0.84030545 -0.53342128 0.096687399 0.00022589009
-0.40473771 0.26884383 -0.24130659 0.81678754 -0.5696972 0.091121614 0.00018080755
-0.31115824 0.26042202 -0.24699983 0.73518491 -0.62225568 0.26888859 0.00019493494
0.17623529 0.26578659 -0.24395065 -0.7243576 -0.63493407 0.26863524 0.0002567482
-0.40013945 0.27438781 -0.24692495 0.81005865 -0.57908285 0.092021748 9.2539762e-05
-0.30234504 0.27205852 -0.24279311 0.71540958 -0.64534497 0.26780397 3.8430113e-05
-0.29695761 0.27776313 -0.24361339 0.71322805 -0.64799702 0.26721841 8.9008194e-05
0.17042381 0.27122089 -0.24621534 -0.71242028 -0.64924836 0.26633409 0
-0.39418218 0.28340715 -0.24161911 0.80706924 -0.58343029 0.090820938 3.1280535e-05
-0.38950288 0.28911117 -0.24690881 0.79940623 -0.59391624 0.090626843 0
0.26415533 0.28225991 -0.24161854 -0.79962713 -0.59379363 0.08947362 5.5263255e-05
-0.38594541 0.29455236 -0.24336326 0.7975921 -0.59576094 0.094423458 0.00016601126
-0.2828927 0.29105702 -0.24731565 0.67154104 -0.68795419 0.27523008 0.00023126356
0.14483039 0.29847339 -0.24281326 -0.65100151 -0.71000028 0.26850814 0.00014245298
-0.26419798 0.30727601 -0.24964707 0.63843203 -0.71829498 0.27650836 0.00025624436
0.13429064 0.30690318 -0.24546939 -0.63048631 -0.72739232 0.27090111 0.00010736678
0.1419037 0.30113754 -0.24267799 -0.65010369 -0.71063322 0.2690087 0.00015461163
0.24746238 0.3043288 -0.24431901 -0.77047592 -0.62979442 0.098619923 0.00036898267
-0.26179373 0.31257188 -0.24137166 0.62704819 -0.73412591 0.26051804 0.00017573212
0.12652455 0.31408137 -0.24481663 -0.61613035 -0.740888 0.26733565 0.00025751759
0.23551233 0.31719664 -0.24760421 -0.73651344 -0.66997141 0.093199492 3.3346962e-05
0.10626125 0.32850695 -0.24818292 -0.57425672 -0.77244914 0.27120364 9.4294599e-05
0.11119731 0.32689637 -0.24241292 -0.57897902 -0.77111983 0.26487261 7.7158533e-05
0.22775193 0.32612163 -0.2442179 -0.73428863 -0.67215949 0.094983511 0
0.2315387 0.32141423 -0.24865013 -0.7350831 -0.67104292 0.096717313 4.5928649e-05
-0.35358301 0.33237225 -0.24455871 0.72317255 -0.68312174 0.1018149 0.00022314637
-0.34839439 0.33831659 -0.24360526 0.71973312 -0.68747544 0.096755102 0.00018730643
-0.2369058 0.33124411 -0.24400672 0.57423514 -0.77389401 0.2670992 2.780419e-05
-0.22979662 0.33710468 -0.24230601 0.56643289 -0.77982563 0.2665064 0
0.093704134 0.33831441 -0.24612984 -0.55264252 -0.78904277 0.26832375 0.00016465718
0.2152973 0.33958614 -0.24556245 -0.71112323 -0.69644326 0.09628319 0.0002777621
-0.33727604 0.34903255 -0.2462641 0.69394499 -0.71415168 0.091803238 0.00016763878
-0.21343669 0.34812623 -0.24323769 0.52420086 -0.80865425 0.26700497 0.00033737347
0.087470949 0.34315965 -0.2451787 -0.54219806 -0.79546708 0.27065361 0.00030543585
0.20952737 0.3454982 -0.24708691 -0.69638842 -0.71134681 0.095021017 0.00035001995
0.21357064 0.34129548 -0.24698997 -0.70757174 -0.69995064 0.097011954 0.00031158989
-0.33284795 0.35367966 -0.24109456 0.68636459 -0.721214 0.093562864 0.00010789021
-0.19849566 0.35645741 -0.24494062 0.4933781 -0.82752794 0.26790959 6.8167687e-06
0.066951297 0.35491517 -0.24701473 -0.48552272 -0.83178097 0.26908785 3.7378206e-05
0.19558646 0.35864264 -0.24104308 -0.6665132 -0.73976141 0.092266597 0
-0.31429434 0.36975461 -0.24875726 0.65852159 -0.74667931 0.093910716 0.00019585274
-0.19043046 0.3607108 -0.2466187 0.4800947 -0.83602595 0.26564953 0.00017094737
-0.18641013 0.36390033 -0.24412762 0.46656352 -0.84277773 0.26841047 0.00028508023
0.056365207 0.36198184 -0.24412662 -0.46770594 -0.84140891 0.27070689 0.00016429852
0.18930644 0.3637107 -0.24576393 -0.66178048 -0.74369651 0.094669193 4.5741937e-05
0.19258124 0.36054301 -0.24788146 -0.66389304 -0.7417497 0.095149152 0
-0.30986625 0.37402365 -0.24685238 0.65457785 -0.75003636 0.094727449 0.00028324305
-0.16872138 0.3729597 -0.2440564 0.41669267 -0.86845511 0.26861304 8.6688808e-05
-0.15709367 0.3784191 -0.24382168 0.39752823 -0.87753326 0.26815429 7.7459728e-05
0.024281763 0.37750947 -0.2453869 -0.39541161 -0.87778032 0.27046505 6.8772482e-05
0.033087272 0.37302291 -0.24706407 -0.41251874 -0.86935723 0.27211472 8.448922e-05
-0.30013564 0.38282424 -0.24004923 0.61251312 -0.78488392 0.093728229 9.3752788e-05
-0.14218037 0.38419256 -0.24755557 0.37409019 -0.88622415 0.27324572 0.00046588742
-0.13204665 0.38936424 -0.24318743 0.34033412 -0.90042311 0.27094474 0.00039979411
0.0054944791 0.38661897 -0.24321371 -0.34423485 -0.89906877 0.27051368 0.0002322626
0.16253576 0.38674217 -0.24091789 -0.59754795 -0.79641372 0.093068831 7.9358069e-05
-0.27745473 0.39908677 -0.24538279 0.58733958 -0.80417615 0.091284998 0.00020032709
-0.11338133 0.3957918 -0.24319205 0.31355226 -0.91120678 0.26718405 0
-0.022905869 0.39692211 -0.24115314 -0.30268076 -0.91522193 0.26599467 1.2119212e-05
0.1439427 0.39972138 -0.24569467 -0.58177739 -0.80798721 0.093229741 9.3586161e-05
-0.27550909 0.40026119 -0.24791309 0.5840984 -0.80566049 0.09869232 0.000170874
-0.26498315 0.4085587 -0.24334076 0.55223006 -0.82755446 0.10097288 0.00032961633
-0.10035504 0.4006567 -0.24189763 0.33367172 -0.90286064 0.27111951 0.005137295
-0.078681573 0.40627632 -0.24135077 0.1882063 -0.94462764 0.26880676 0.012889959
-0.068261884 0.40761939 -0.24486537 -0.1201983 -0.93174064 0.34265414 0.0082664909
-0.040088516 0.40083012 -0.24717747 -0.2501314 -0.92972815 0.27025902 0.00052660023
-0.034743283 0.40053159 -0.24235192 -0.27373517 -0.92306936 0.27020755 0.00050616596
