# .PCD v0.7 - Point Cloud Data file format
VERSION 0.7
FIELDS x y z normal_x normal_y normal_z curvature
SIZE 4 4 4 4 4 4 4
TYPE F F F F F F F
COUNT 1 1 1 1 1 1 1
WIDTH 585
HEIGHT 1
VIEWPOINT 0 0 0 1 0 0 0
POINTS 585
DATA ascii
-0.29163212 -0.27278489 -0.081040077 0.88086778 0.47074908 0.049671438 0.13315716
0.28936866 -0.27821052 -0.081145301 -0.88199431 0.46861824 0.04982939 0.19845659
0.29146126 -0.273359 -0.080600545 -0.46473226 0.86913514 0.16919832 0.23251513
-0.32427585 -0.264476 -0.083469257 0.93448615 0.33961466 0.10675981 0.19242272
-0.29372761 -0.26457033 -0.08961527 0.77260143 0.47203761 -0.42457923 0.17691745
0.2928777 -0.26659417 -0.089691356 -0.87903464 0.45624113 0.13835496 0.14625646
0.32491165 -0.26171303 -0.08744587 -0.98305923 0.18147057 0.025750292 0.14879584
-0.33007747 -0.25058931 -0.083081841 0.82383227 0.5667237 0.011165333 0.18072113
-0.32874158 -0.25410071 -0.082154773 0.89536667 0.44521129 0.010261402 0.2163396
-0.29863402 -0.25551906 -0.082023114 0.91669184 0.39255577 0.074672617 0.18389675
0.29917321 -0.25172037 -0.088808469 -0.89894319 0.37729713 0.22259389 0.11288215
-0.3333886 -0.24202046 -0.084943995 0.92717457 0.36663687 0.076972164 0.16263005
-0.30170694 -0.24766016 -0.083219439 0.89489579 0.44190675 0.06229024 0.22133911
0.30331579 -0.24432005 -0.081740864 -0.94386208 0.28869602 0.16055833 0.086085431
0.33400965 -0.24196643 -0.080263712 -0.92894727 0.37018475 0.0044906195 0.23425876
-0.33712479 -0.23413834 -0.08125934 0.88898385 0.44134638 0.12215187 0.13524695
-0.30646014 -0.23521098 -0.085866079 0.99602872 -0.078807093 -0.04142648 0.23784141
0.30482167 -0.23867261 -0.087208241 -0.88304007 0.46388113 -0.071095742 0.121492
0.33712423 -0.2318726 -0.088600591 -0.53548664 0.84303284 0.050493702 0.23217589
-0.33916992 -0.22796762 -0.085253336 0.90406704 0.39615002 0.16039968 0.086654432
-0.30964366 -0.22745836 -0.086047858 0.82884163 0.49765688 0.25565439 0.16945344
0.30967039 -0.22773108 -0.085131437 -0.94414461 0.31824353 0.085509896 0.15907529
0.3405022 -0.22386612 -0.088119321 -0.95486605 0.2728945 0.11730064 0.21578737
-0.34492534 -0.21355174 -0.08666604 0.96403611 0.24062805 0.1128386 0.0019678662
-0.31271461 -0.2192556 -0.088191703 0.9079147 0.36759919 0.20139949 0.1781756
0.31340176 -0.2198761 -0.081997216 -0.88937676 0.42626363 0.16525249 0.18964736
-0.34648874 -0.20429608 -0.085589781 0.98728836 0.14829676 0.057183076 0.12405577
0.31782678 -0.20470217 -0.089251712 -0.9631381 0.15906344 0.21694155 0.17919746
0.34638435 -0.20405403 -0.086733155 -0.9639864 0.2274586 0.13781425 0.18765634
-0.34739807 -0.19682336 -0.086214088 0.99023753 0.096339315 0.10073902 0.15032464
-0.32037678 -0.19122043 -0.087194718 0.96161705 0.16751446 0.21732825 0.20825034
0.31942469 -0.19992113 -0.085833021 -0.77781802 0.4784548 0.40752932 0.21100426
0.32023025 -0.19653289 -0.08330217 -0.94495368 0.29101181 0.14958173 0.2541135
0.34746057 -0.19387206 -0.088950075 -0.92946953 0.29607025 0.22006506 0.2184975
-0.34912077 -0.1842663 -0.085631281 0.94659519 0.21895416 0.23667836 0.20070258
-0.32157075 -0.18762758 -0.08211875 0.9596926 0.25184441 0.12475748 0.21548153
0.32183999 -0.18180251 -0.085622601 -0.97621679 0.099447384 0.19264203 0.14028303
0.34946242 -0.18539126 -0.081522495 -0.96948326 0.1421309 0.19975241 0.14028937
-0.35021773 -0.17721108 -0.084220648 0.97974932 -0.052764047 0.19315039 0.20585002
-0.32259235 -0.17500262 -0.08662837 0.99021459 0.046411585 0.1316094 0.22754642
0.32230937 -0.17618027 -0.08752881 -0.87615198 0.4540529 0.16184442 0.22490118
-0.35092574 -0.16824362 -0.088185474 0.98681188 0.081679963 0.1397523 0.20342377
-0.32468608 -0.16302712 -0.082987644 0.99092501 0.13370293 -0.013826816 0.1867348
0.32379842 -0.16561729 -0.086836219 -0.98255128 0.13830045 0.12436214 0.22607693
0.35056543 -0.1696316 -0.089675218 -0.96480155 0.2626667 -0.012811682 0.22182152
-0.32476109 -0.15706889 -0.087982014 0.99708837 0.016890751 0.074360959 0.19822052
0.32416782 -0.15979674 -0.089630298 -0.93259913 0.22792739 -0.27983588 0.25808781
0.35335293 -0.15690219 -0.080349162 -0.99920416 -0.036592383 0.015874149 0.15525348
-0.35436678 -0.14420462 -0.085867971 0.98325086 0.13538982 0.12201393 0.13032342
-0.32609752 -0.14597188 -0.088858582 0.99831885 0.0020815884 0.057923615 0.17688821
0.32744837 -0.14305578 -0.082050852 -0.95633608 0.074002899 0.28274527 0.22396828
0.35422245 -0.14642558 -0.084625885 -0.96813589 0.20107383 -0.14927246 0.19976445
-0.35581297 -0.13416727 -0.084821105 0.98751724 -0.081073388 0.1350441 0.16600354
0.32787657 -0.13630967 -0.085289255 -0.95592654 -0.037083279 0.29125464 0.20913646
0.35590857 -0.13462141 -0.083517656 -0.9637785 0.18401757 0.19305062 0.18752536
-0.35692275 -0.12414393 -0.086581513 0.98172593 -0.1034984 0.15969397 0.20714645
-0.33003077 -0.12085898 -0.084443882 0.91203696 0.0093020173 0.41000253 0.28213173
-0.32999301 -0.12075239 -0.084808379 0.91203141 0.0092976475 0.41001496 0.28213328
0.32955068 -0.12398917 -0.084922433 -0.55688316 0.22641106 0.79913652 0.27896896
0.35689598 -0.12252286 -0.088596739 -0.9894737 -0.018253295 0.14355713 0.10825229
-0.35709447 -0.1155896 -0.083949029 0.9908731 0.013012913 0.13416834 0.18643442
-0.32892281 -0.11454527 -0.087231077 0.9049716 -0.42152718 0.057804074 0.21932364
0.32909569 -0.11498204 -0.086418904 -0.58496046 0.058329824 -0.80896163 0.24360052
0.35739595 -0.11872334 -0.084880903 -0.99879616 -0.021972718 0.043857772 0.16660389
-0.32759136 -0.10241643 -0.085363045 0.96050507 -0.15856592 0.22866307 0.11950281
0.32813674 -0.10818361 -0.086868703 -0.98214477 -0.1311737 0.13485233 0.17951563
0.35613221 -0.10937284 -0.085155502 -0.99190289 -0.12281918 0.032313749 0.19776902
-0.35436857 -0.095432371 -0.084554315 0.99016172 -0.1376445 -0.025172645 0.15207218
0.32644656 -0.095419355 -0.086937353 -0.98698997 -0.12406204 0.10227083 0.18747549
-0.35270905 -0.085934982 -0.087986916 0.98516035 -0.15699191 -0.069372825 0.21589977
0.32539177 -0.083937511 -0.08372134 -0.97608793 -0.21182719 0.048802145 0.23553202
0.35363346 -0.087982289 -0.082493119 -0.97092032 -0.21917525 0.096311241 0.2254651
-0.35136771 -0.073718183 -0.08574675 0.95744497 -0.28523788 0.044027153 0.23232667
-0.3241607 -0.073958725 -0.083139315 0.97889382 -0.18816206 0.079761863 0.093505785
0.32439044 -0.0773945 -0.084706374 -0.99342835 0.049963329 0.10297471 0.21429278
0.35134634 -0.073712945 -0.085920297 -0.87186557 -0.077455513 -0.48358163 0.2395059
-0.32294646 -0.067775883 -0.085957281 0.9700405 -0.19527902 0.14452557 0.14133041
0.32359225 -0.069347315 -0.082867086 -0.98915064 -0.14223075 -0.036762126 0.21048529
0.34944943 -0.061768968 -0.088642433 -0.98680031 -0.00019042203 0.16194162 0.20155357
0.35059428 -0.068689205 -0.086681098 -0.87696189 0.31405854 -0.36373755 0.23360775
-0.34894657 -0.05432114 -0.084635168 0.99261242 0.027398132 0.1181949 0.28113094
-0.32139048 -0.051690366 -0.082002521 0.97228062 0.17439371 0.15574694 0.2392111
-0.32021409 -0.042885393 -0.082123764 0.98177373 -0.19005339 -0.00020008965 0.16299286
-0.3196657 -0.044643138 -0.087613553 0.99679804 -0.079081737 -0.01182667 0.23031993
0.32075396 -0.046614215 -0.081778899 -0.98337573 -0.10358402 0.14913887 0.23538627
0.34716451 -0.045414552 -0.089748368 -0.945436 -0.26285374 0.19250634 0.21132793
-0.34677756 -0.038324963 -0.08516404 0.89405179 -0.44311547 -0.065727241 0.26929808
0.31940401 -0.039851218 -0.085014477 -0.96357203 -0.26722118 0.011033271 0.20809364
0.3453128 -0.031599164 -0.089992419 -0.99753428 -0.063196555 -0.030522784 0.21626422
-0.3130179 -0.020071665 -0.082165368 0.94706345 -0.2910549 0.13549064 0.059539769
0.31420013 -0.023465309 -0.083631516 -0.35951737 -0.61061502 0.7056179 0.25102204
0.34386158 -0.023708528 -0.083753631 -0.96101475 -0.25507304 0.10671631 0.16620907
0.31254086 -0.01975451 -0.084433086 -0.78443545 -0.37529504 0.49377593 0.239456
0.34048736 -0.016407421 -0.086489685 -0.91386563 -0.34795362 0.20923162 0.15692879
-0.33518589 -0.0030871597 -0.084801301 0.93297714 -0.3001866 0.19859935 0.26484746
-0.30659407 -0.004783723 -0.082765028 0.92520297 -0.35560232 0.13246274 0.24838234
0.30492726 -0.0012755739 -0.084166616 -0.94310349 -0.2884216 -0.16543508 0.17143558
0.33667856 -0.0071759908 -0.086372644 -0.94021302 -0.27729863 0.19775 0.23710082
-0.3043938 0.00048084743 -0.08289355 0.91114044 -0.41169018 0.018282544 0.24595393
0.30152497 0.0072978069 -0.083189711 -0.93295288 -0.32338101 -0.15818897 0.15844956
-0.32917154 0.011752717 -0.083765097 0.96214098 -0.13499247 0.2367733 0.17095266
-0.2982671 0.015767328 -0.081547454 0.88907051 -0.15549488 0.43055195 0.24744166
0.32836679 0.013624963 -0.083993793 -0.93412727 -0.34787917 0.079913765 0.20603223
-0.32288381 0.026538899 -0.085039847 0.82459033 -0.43431947 0.36251551 0.24464434
-0.29435852 0.024124946 -0.084478594 0.6712274 -0.57645392 0.46599862 0.22885852
0.29452237 0.024804303 -0.081557155 -0.91462463 -0.38162586 -0.13350426 0.24715903
0.3230598 0.025322286 -0.087604098 -0.86833227 -0.45720714 0.19225134 0.18798219
-0.32010666 0.032989562 -0.085862294 0.8876003 -0.45500371 0.071675368 0.22788402
-0.31965151 0.034958594 -0.083044469 0.91789573 -0.34556073 0.1950776 0.21777542
-0.28801706 0.037858699 -0.088760838 0.79177511 -0.57819015 0.19694749 0.19158565
0.28914198 0.035120554 -0.088821366 -0.73539835 -0.65149677 -0.18639037 0.23142387
0.31859165 0.037227824 -0.083982222 -0.49703369 -0.75705212 -0.42406335 0.26403335
-0.31612188 0.042282172 -0.086922705 0.90852928 -0.39362085 0.14013246 0.17907153
-0.28288209 0.048117809 -0.086219013 0.81636232 -0.52684468 0.23661636 0.20741604
0.28622609 0.042925082 -0.08567021 -0.47745225 -0.71083879 -0.51647621 0.25969052
0.31698298 0.041926026 -0.0813445 -0.921601 -0.36338988 0.13637961 0.21983658
-0.31036422 0.0563053 -0.086524568 0.79566741 -0.57786572 0.18161677 0.16566886
-0.27653039 0.05725047 -0.082523026 0.90782285 -0.41806224 0.032887664 0.18105179
0.27449238 0.059795883 -0.083000764 -0.98908019 -0.11799592 -0.088302098 0.23268692
0.31046024 0.057081386 -0.083261423 -0.85671705 -0.50751501 0.092002712 0.16198756
-0.30279911 0.067013994 -0.086887017 0.85866648 -0.5047968 0.0887243 0.21247482
-0.27206659 0.062507793 -0.08494404 0.80897552 -0.56681597 0.15581462 0.17550457
0.27291003 0.060978305 -0.086803831 -0.88871086 -0.33575994 0.31218308 0.23790573
0.30384499 0.065440744 -0.087970212 -0.86416793 -0.49499866 0.090499654 0.14954612
-0.29847646 0.072821617 -0.085989602 0.8507095 -0.51581639 0.10112791 0.23631589
-0.26372278 0.073359802 -0.085038356 0.75862586 -0.61796361 0.20641646 0.21680988
-0.25933489 0.078159124 -0.089011595 0.76927733 -0.63043946 0.10372343 0.20419692
0.26521146 0.071695313 -0.083846882 -0.69655198 -0.68540412 -0.21221796 0.24865784
0.29784146 0.074502327 -0.081594855 -0.66900712 -0.74323672 0.0053494722 0.2074492
0.30019224 0.07146889 -0.081439614 -0.83234131 -0.55069399 0.062801182 0.21283548
-0.29123873 0.083267495 -0.080768913 0.85605145 -0.50535929 0.10857205 0.20790473
-0.25761387 0.080526881 -0.088471606 0.76555347 -0.62060648 0.16963346 0.16711627
0.25552627 0.083989948 -0.085262075 -0.88055992 -0.40855804 0.24019681 0.21437146
0.2881175 0.085810766 -0.088621654 -0.92591852 -0.37436208 -0.050279658 0.23838508
-0.28353995 0.09155748 -0.089748859 0.74281174 -0.66248339 0.096677445 0.15065572
-0.27788332 0.099822626 -0.085147522 0.75672585 -0.65373212 0.00048560754 0.22185996
-0.25169706 0.090066165 -0.080567896 0.77899921 -0.62668538 0.020631017 0.23362678
-0.2452658 0.098034702 -0.082352452 0.83654898 -0.52056217 0.1708823 0.16678801
0.24561112 0.097236417 -0.083857931 -0.65134764 -0.75074917 0.1100997 0.18459676
0.28290552 0.09350872 -0.083956935 -0.7465291 -0.66531199 0.00736944 0.15372425
-0.24314263 0.10077024 -0.082488477 0.77919042 -0.60872108 0.14940187 0.19371605
-0.2374576 0.10779723 -0.084139183 0.73480314 -0.58749795 0.33898452 0.17497593
0.23964229 0.10547829 -0.081855729 -0.58432025 -0.79811764 0.14689474 0.19689015
0.27455962 0.10335541 -0.089262187 -0.77843422 -0.62761635 -0.011743912 0.14559399
-0.26699182 0.11394387 -0.085522726 0.74366987 -0.48865309 -0.45626014 0.18815571
-0.2309905 0.11442758 -0.086872675 0.45602682 -0.77356529 0.44004121 0.24157947
-0.22704715 0.11804526 -0.083538473 0.62148535 -0.77489221 0.11531655 0.25522739
0.22811919 0.1171495 -0.083950453 -0.68499446 -0.72755891 0.037956275 0.20840268
0.2341139 0.11250672 -0.081860766 -0.77154577 -0.59545672 0.22393827 0.1606371
0.26772243 0.11270877 -0.086980261 -0.70170528 -0.71170092 0.033039484 0.16917628
-0.26061475 0.12186637 -0.087522984 0.81130791 -0.56826162 0.13732515 0.19518416
-0.25699276 0.12666322 -0.08712852 0.7948305 -0.59592032 0.11455771 0.1797743
-0.21567695 0.12667672 -0.084063441 0.57442391 -0.80764705 0.13320459 0.13689756
0.21779865 0.12525739 -0.082887642 -0.64022076 -0.7678386 0.02326428 0.15774159
0.22049232 0.1227437 -0.085404582 -0.51741588 -0.85539079 -0.024235463 0.209106
-0.25364667 0.13124201 -0.086005136 0.68197697 -0.7225709 0.11313136 0.1775251
-0.24414769 0.13891731 -0.086531997 0.65181047 -0.74898851 -0.11899255 0.19097087
-0.20119475 0.13746746 -0.085876599 0.72146606 -0.67458576 0.15627146 0.19438165
0.24439138 0.13868979 -0.086802706 -0.66217113 -0.74069858 0.11355659 0.20491107
-0.24273182 0.14018503 -0.085314944 0.64470601 -0.75160944 -0.13941798 0.20287788
-0.23701179 0.14466909 -0.084677666 0.58139783 -0.7762081 -0.24388018 0.18672858
-0.19404072 0.14301085 -0.085572794 0.78043538 -0.16747752 0.60238844 0.25101924
0.18897656 0.14728981 -0.083358265 -0.60633427 -0.77947319 0.15741764 0.16828953
0.19565703 0.14125994 -0.08844991 -0.61634815 -0.77702153 0.12787683 0.12813608
0.23175168 0.14911304 -0.081940457 -0.6767745 -0.72078109 0.14983644 0.1943782
-0.22069685 0.1565365 -0.089051366 0.57792383 -0.78155255 0.23490331 0.13123028
0.17395353 0.15888223 -0.082992867 -0.51448792 -0.85624671 0.046301294 0.16581832
0.22594047 0.15302241 -0.085631035 -0.60402066 -0.78888929 0.11319286 0.096308939
-0.21702334 0.16032185 -0.08256226 0.70570469 -0.61160153 -0.35766533 0.26099467
-0.20727468 0.1677095 -0.083185062 0.75607777 -0.65346152 -0.036529798 0.17171378
-0.16471919 0.16467142 -0.088593602 -0.18107614 -0.84913051 0.49617419 0.21708079
-0.15420955 0.16919824 -0.089366376 0.33573776 -0.906326 0.25661892 0.19163842
0.15727413 0.16830641 -0.08688961 -0.6118558 -0.77085727 0.17723285 0.19256683
0.16393498 0.16526023 -0.088296883 -0.41490695 -0.88838071 0.19655038 0.22048974
-0.20272259 0.17120495 -0.083168335 0.72072256 -0.68978947 0.068916887 0.13690457
-0.194462 0.17727113 -0.084996916 0.58965886 -0.79783082 0.12557259 0.00031996105
-0.15250644 0.17072488 -0.083978921 0.22455864 -0.94896883 0.22143115 0.21816228
-0.1435056 0.17453453 -0.083445042 0.58908397 -0.77845073 0.21678224 0.20439206
0.12923616 0.17997313 -0.086541831 -0.49089992 -0.86386645 0.11292504 0.1436184
0.1384656 0.17655481 -0.083887063 -0.3694239 -0.90071875 0.22854255 0.12491733
0.14250666 0.17482468 -0.084256269 -0.35972494 -0.92411071 0.12890798 0.15093911
0.19448039 0.17776287 -0.081601039 -0.37567243 -0.92623109 0.031081652 0.22900403
0.20181426 0.17218369 -0.081276774 -0.60706431 -0.76267719 0.22315103 0.18245061
-0.19100368 0.18021969 -0.083017185 0.57154149 -0.81030476 0.12940829 0.00099595636
-0.18718413 0.18280062 -0.085366212 0.4769803 -0.83695191 0.26833072 0.086251818
-0.17921674 0.18872592 -0.0866303 0.50815237 -0.83356202 0.21669246 0.09197133
-0.13131383 0.18002555 -0.080551632 0.41662636 -0.8963936 0.1513305 0.17755343
-0.11328505 0.18679148 -0.085156024 0.45824867 -0.87413859 0.16090362 0.10977055
0.10730138 0.18991107 -0.080950357 -0.43853611 -0.89643943 0.06389384 0.11017987
0.1187118 0.18407851 -0.088207752 -0.32361051 -0.93186963 0.1639975 0.091367237
0.12158429 0.18305381 -0.087124705 -0.34690765 -0.92764771 0.13829274 0.10498573
0.17985734 0.18864913 -0.083845749 -0.56975162 -0.82035327 -0.049026798 0.19808619
0.18785122 0.1822134 -0.085872076 -0.54326457 -0.83933955 -0.019304356 0.17195168
-0.17205268 0.19240443 -0.082485393 0.37304595 -0.82888114 0.41688463 0.15765697
-0.16781396 0.19387108 -0.084745452 0.42776987 -0.86520094 0.26161095 0.17139892
-0.087448969 0.19736771 -0.085979015 0.31126189 -0.9268443 0.20994218 0.19902188
0.079547979 0.19892299 -0.086474121 -0.32925311 -0.90915257 0.25501755 0.15076725
0.082905911 0.1992536 -0.08103393 -0.058146175 -0.8393591 0.5404585 0.19720683
0.094655737 0.19412482 -0.087670222 -0.12201768 -0.97770041 0.17091963 0.25997862
0.10148755 0.1914441 -0.086691827 -0.71201169 -0.041624993 0.70093274 0.26130605
0.15978777 0.19738403 -0.083272539 -0.35816756 -0.93214256 0.053161539 0.22683851
0.16720337 0.19363992 -0.088529781 -0.7908985 -0.60104489 -0.1149985 0.20517617
0.17197517 0.19243704 -0.082481563 -0.49558601 -0.86183065 0.10790054 0.21903586
-0.14460635 0.20370108 -0.083048284 0.33619529 -0.93387389 0.12187019 0.16910878
-0.071937814 0.20020786 -0.084481686 0.24545734 -0.95713216 0.15378138 0.16178921
-0.066412479 0.20072423 -0.085967593 0.1152389 -0.91258419 0.39231363 0.2179582
-0.042459399 0.20379782 -0.086530149 0.11605275 -0.99099004 0.066860825 0.16878676
-0.035074376 0.20491445 -0.085513569 -0.0028545575 -0.99896193 -0.045464363 0.25179216
-0.027204355 0.20582548 -0.086394124 0.0090009226 -0.99958867 -0.027228881 0.13878231
-0.016319428 0.20798542 -0.08127632 0.11374577 -0.97439361 0.19395597 0.095686398
-0.0035974048 0.20942605 -0.082925454 -0.080560997 -0.99347109 -0.080778286 0.20298068
0.0067065815 0.20876518 -0.08469633 -0.092129603 -0.99443358 -0.051126488 0.17013524
0.013044088 0.20774844 -0.085980475 0.13205177 -0.98697913 0.091839999 0.22263457
0.026504152 0.20600666 -0.085767381 0.092514984 -0.99425566 0.053820312 0.25839335
0.046585154 0.2033117 -0.086128339 -0.31247079 -0.94974834 0.018443745 0.1966559
0.059832588 0.20208144 -0.082510896 -0.16082768 -0.91213584 0.37701809 0.20267375
0.069662645 0.20068739 -0.083214387 -0.23668011 -0.96491665 0.11365938 0.1792683
0.073322013 0.20044224 -0.081548594 -0.13049549 -0.9716711 0.19704354 0.24877171
0.13367562 0.20793737 -0.085326143 -0.18902333 -0.97112161 0.14557765 0.20906584
-0.12087201 0.21319519 -0.08568275 0.38148797 -0.92236972 0.060836732 0.12642634
-0.11680395 0.21497452 -0.084945619 0.46374962 -0.87922817 0.10905974 0.1611193
-0.10963552 0.2178691 -0.085529484 0.3291094 -0.93368345 0.14114626 0.11756238
0.0015885124 0.21003479 -0.080501616 0.035813477 -0.99935806 -0.00091191154 0.1351157
0.10629133 0.21894422 -0.087953754 -0.64809155 -0.75284392 0.11490583 0.23850919
-0.095432758 0.22350475 -0.086836725 0.29057646 -0.95160449 0.10007148 0.087921076
-0.088807039 0.225723 -0.083174139 0.28550249 -0.95537847 0.075765155 0.13033551
-0.071011364 0.22781664 -0.085264944 0.21238117 -0.96121067 0.1759783 0.11055424
-0.065278925 0.22876863 -0.08360979 0.24118941 -0.94735026 0.21060672 0.16540225
0.057050578 0.22981991 -0.083877996 -0.22633116 -0.96648562 0.12116016 0.17446984
0.069099121 0.22758524 -0.089318216 -0.20803417 -0.9740898 -0.08871758 0.2324805
0.07522133 0.22755413 -0.082817197 -0.32198885 -0.27245867 -0.90669149 0.27177864
0.087039113 0.22590221 -0.083623335 0.10013187 -0.97318691 0.20707695 0.19618404
0.10266194 0.22101764 -0.083496951 -0.69622719 -0.66981494 0.25809997 0.21338487
-0.045060735 0.23126608 -0.084988236 -0.086409107 -0.99595374 -0.024690861 0.19571452
-0.017677313 0.23537566 -0.080755778 -0.18526165 -0.94765484 0.26005456 0.17184676
0.011071501 0.23521043 -0.08943826 0.19853352 -0.97980744 -0.023703447 0.21035965
0.024348699 0.23407049 -0.084336944 0.034397539 -0.99268931 0.1156928 0.19217907
0.03540957 0.23247641 -0.085493848 -0.068229541 -0.98729581 0.14349787 0.16818705
0.045513168 0.23121667 -0.084902868 -0.14386752 -0.9851591 0.093614042 0.11644839
-0.0095583443 0.37897366 -0.089361057 -0.1071004 -0.60154146 0.79162961 0.0067212703
-0.028103139 0.38843054 -0.087548859 -0.69703096 -0.39752758 0.59675753 0.093124948
-0.016965136 0.38515943 -0.086182371 -0.29997361 -0.57436675 0.76165515 0.022723513
-0.0051610032 0.38101834 -0.087448433 -0.065830708 -0.61348271 0.78695953 0.0065950155
0.005846648 0.38550702 -0.083923854 0.072089024 -0.6132009 0.78663069 0.0049191527
0.016644642 0.38680205 -0.084813982 0.1912656 -0.63727635 0.74652284 0.0079084421
0.021239329 0.38227829 -0.089510456 0.49292877 -0.566706 0.66020107 0.076238126
-0.034499466 0.39395782 -0.086225457 -0.81841713 -0.39400917 0.41827035 0.11394593
-0.02310952 0.39344084 -0.080869488 -0.59402603 -0.52592862 0.60871357 0.10789102
0.033246331 0.39583799 -0.084843062 0.88418752 -0.33527914 0.32526973 0.10455378
-0.037959371 0.40440041 -0.08703731 -0.98244864 -0.18423678 0.029179953 0.1229113
0.037959371 0.40477753 -0.08339604 0.89998466 -0.40348929 0.16499665 0.090058357
0.037959371 0.41563761 -0.082560003 0.96774685 -0.2289864 0.10503016 0.11642907
-0.033158973 0.42686489 -0.085239723 0.72237587 -0.49498272 0.48287177 0.083231881
0.037959374 0.42142171 -0.085698456 -0.97715807 -0.086223036 0.1942367 0.12103644
-0.026227627 0.43282929 -0.082687244 0.55322415 -0.61228704 0.56484294 0.056796998
-0.012815255 0.43572831 -0.084048599 0.17525564 -0.7318114 0.65858752 0.0084826183
-0.0044463407 0.43628281 -0.084731609 0.06363637 -0.73562461 0.67439371 0.0026365663
0.0051038451 0.43554816 -0.085400663 -0.087268107 -0.75422651 0.65078926 0.0018617465
0.013997058 0.43349007 -0.086283065 -0.19520178 -0.73067826 0.65422124 0.0061836629
-0.063155442 -0.47065336 -0.076960735 -0.11653692 0.94689029 -0.29969624 0.26132953
-0.054912616 -0.47189006 -0.075689606 0.20939988 0.96897268 0.13131519 0.18617609
-0.049664043 -0.47251439 -0.076248631 0.056338549 0.99238116 0.10957015 0.14253391
-0.037851278 -0.47405919 -0.076335907 0.043911953 0.99411619 0.099018827 0.17062196
-0.020848466 -0.47657531 -0.074006319 0.14227991 0.9823916 0.12109193 0.19709004
-0.014362525 -0.47708508 -0.076893181 0.17114873 0.98516166 -0.012828289 0.19579305
-0.0015166315 -0.47915369 -0.073726594 -0.054129295 0.97408426 0.21961328 0.17592236
0.0063194088 -0.47825485 -0.075962991 0.037184451 0.99429512 0.099972151 0.18789051
0.014809318 -0.47727296 -0.074823529 -0.18759851 0.97422719 0.1252526 0.20086312
0.024705656 -0.47564051 -0.077588394 -0.12695527 0.98920089 0.07323961 0.17779893
0.034723815 -0.47454596 -0.075706035 -0.17922764 0.97404945 0.1382208 0.17605339
0.043581452 -0.4732601 -0.076710567 -0.22061932 0.95086312 0.21722442 0.17837553
0.069105774 -0.47001308 -0.075759806 -0.080739945 0.93713713 0.33949244 0.21009219
-0.10134293 -0.46346551 -0.074984081 0.18523112 0.98181438 -0.041591112 0.20143735
-0.094769627 -0.4659248 -0.077043712 0.27499536 0.94626659 0.17016773 0.19647026
-0.084350698 -0.46799845 -0.075823769 0.49673593 0.83635348 -0.23187517 0.22130378
-0.076792315 -0.46875578 -0.07781817 0.30958444 0.95085877 -0.0049978099 0.18591385
0.088923156 -0.46739575 -0.075829804 -0.26720348 0.95933503 0.090987422 0.0952719
0.097032309 -0.46538821 -0.073911697 -0.28319472 0.95632535 -0.072406657 0.1922843
0.10430586 -0.46187428 -0.077829577 -0.30241844 0.9526906 0.030392369 0.26715577
0.1105456 -0.46025851 -0.070255339 -0.28356436 0.95413512 0.096007191 0.20776957
-0.13248572 -0.45038274 -0.076414786 0.32383621 0.93853736 0.11948971 0.18351361
-0.12076829 -0.45526257 -0.076208979 0.36562192 0.91456312 0.17290185 0.23204415
-0.11433739 -0.45755535 -0.079109058 0.12265977 0.95868903 0.25665125 0.2455017
-0.012343866 -0.45040831 -0.073624752 0.37128973 0.89793789 -0.23632912 0.27713516
-0.002109258 -0.45134249 -0.076515563 -0.37472874 -0.14774296 0.91528702 0.23474528
0.11562301 -0.45791379 -0.072143719 -0.26653916 0.92091459 0.28438208 0.17176819
0.1263354 -0.45348218 -0.072100103 -0.4693056 0.85851699 0.2066417 0.17905709
-0.14361843 -0.44589868 -0.075419657 0.52355719 0.81915122 0.23426302 0.16910309
-0.084195882 -0.44066674 -0.075570881 -0.018237663 0.65827924 0.75255293 0.2286344
-0.075959347 -0.44227323 -0.071798325 0.33705339 0.93972737 0.057511412 0.20751645
-0.055801738 -0.4442775 -0.07650739 0.3110216 0.95037389 0.0074096154 0.20116393
-0.03449503 -0.447216 -0.075488247 0.037692569 0.99495286 0.092994928 0.14659765
-0.023672655 -0.44864908 -0.075509816 0.17732385 0.97476989 0.13557248 0.2472997
-0.016208317 -0.44926238 -0.078110322 0.47495845 0.8345331 -0.27922922 0.26316881
0.015770914 -0.44966543 -0.075678386 0.086650573 0.91505498 0.3939113 0.23353392
0.022500301 -0.44931874 -0.071738653 0.52790201 -0.028509872 0.84882659 0.27160472
0.039013471 -0.44609731 -0.079255924 -0.019004775 0.76650894 0.64195234 0.24336305
0.056649376 -0.44383296 -0.07885167 -0.10449904 0.96766281 0.22958335 0.1514544
0.065040693 -0.44331998 -0.074634463 -0.034076292 0.97315353 0.22762056 0.17181009
0.070504233 -0.44211632 -0.078095466 -0.19266538 0.96824306 0.15932816 0.16103552
0.13996978 -0.44739845 -0.07551007 -0.37947929 0.90357709 0.19885631 0.16726461
0.14726432 -0.44469175 -0.07304921 -0.18007755 0.96921259 0.16792546 0.18872963
0.15584995 -0.44085997 -0.075202994 -0.35980025 0.9223457 0.14079165 0.055973336
-0.17574587 -0.43210948 -0.079184793 0.40057713 0.90687621 0.13081902 0.15417726
-0.16446742 -0.43715012 -0.076300427 0.39147145 0.911403 0.12686516 0.20624915
-0.10764203 -0.43139848 -0.075597346 0.32990602 0.93807304 0.10574105 0.14115398
-0.090201624 -0.43924761 -0.071301758 0.53231514 0.8341065 0.14459239 0.2033767
-0.086534686 -0.43967807 -0.078637339 0.34376943 0.75973886 0.55192327 0.25318331
0.08851824 -0.43910274 -0.077021614 -0.28090617 0.86735755 0.41083166 0.25247467
0.097316176 -0.43534786 -0.077747606 -0.3511498 0.89731365 0.26743606 0.19422403
0.10401748 -0.43344367 -0.071897827 -0.34569764 0.92089128 0.1801451 0.22418702
0.16503531 -0.43708676 -0.074956298 -0.52880687 0.84811991 0.032495603 0.14927037
0.17559922 -0.43327135 -0.07057637 -0.45579824 0.8808943 0.12756656 0.16570282
-0.18824682 -0.42453796 -0.073683932 0.7017228 0.70956755 -0.064023331 0.16776717
-0.12419307 -0.42498347 -0.072595239 0.1469418 0.98848337 -0.03617749 0.21168035
-0.11660656 -0.42814741 -0.072514266 0.25437942 0.96703118 0.011904299 0.16237837
0.11683552 -0.42733964 -0.077242836 -0.41307548 0.90204597 0.1252269 0.1832993
0.12531388 -0.42442849 -0.073250949 -0.1668624 0.94315326 0.28743494 0.25123358
0.1319385 -0.42128912 -0.075895607 -0.33050412 0.90687943 0.26141283 0.097341374
0.18506363 -0.42704836 -0.073228478 -0.47039765 0.88244677 -0.0037125358 0.13747603
0.19186147 -0.42139998 -0.076130003 -0.63427764 0.76067889 -0.13805614 0.16544969
-0.19353883 -0.4197256 -0.078729965 0.43593562 0.89847738 0.051947996 0.19275294
-0.15672757 -0.41102585 -0.075864762 0.52840078 0.84355593 0.095947005 0.19677764
-0.14490065 -0.41613609 -0.074477956 0.56020141 0.82833171 -0.0063990885 0.24314633
-0.13650814 -0.41885757 -0.079430036 0.32280391 0.94582617 0.034790307 0.19596715
0.14280373 -0.41675442 -0.07611984 -0.42994177 0.88581014 0.1746154 0.23072143
0.15701626 -0.41079554 -0.076591104 -0.63322461 0.1917714 0.74983352 0.23267078
-0.21428615 -0.40456378 -0.073639974 0.68848515 0.71378648 0.12844118 0.13869774
-0.20775458 -0.40999776 -0.070806324 0.63305122 0.77007145 -0.078968979 0.11213861
-0.16254249 -0.4086819 -0.075440444 0.30506051 0.90353507 0.30093601 0.22741975
0.16087453 -0.40982831 -0.072385892 -0.81082445 0.38705701 0.43903381 0.26194629
0.20865664 -0.40892178 -0.073383093 -0.71885747 0.69515741 0.00049645506 0.20647685
0.21371093 -0.40457866 -0.076503538 -0.73002774 0.6825465 -0.034494378 0.16970257
-0.23136333 -0.39196754 -0.07023257 0.62414354 0.77559829 0.094297722 0.13917628
-0.22820467 -0.39374906 -0.074543931 0.63830614 0.75670063 0.1413134 0.23357849
-0.21956772 -0.39958015 -0.0798897 0.6876058 0.70347011 0.17980012 0.16885579
-0.17583565 -0.39899582 -0.078794703 0.28004736 0.9543761 0.10363246 0.21935925
0.17901823 -0.39727187 -0.074748993 -0.56222397 0.74270236 -0.36372709 0.16706601
0.18525098 -0.39259166 -0.074172698 -0.46659642 0.73810685 0.4873254 0.17189577
0.23326835 -0.39009672 -0.072978921 -0.65112484 0.74416018 0.14920491 0.11778264
-0.24126962 -0.38355964 -0.075647064 0.62107873 0.65857065 0.42490697 0.17558695
0.19160676 -0.38780299 -0.073576786 -0.34372482 0.90761781 0.24100426 0.24832217
0.20047793 -0.38079542 -0.0748045 -0.71046251 0.68063307 0.1788345 0.17545959
0.23991825 -0.3846972 -0.074971959 -0.68499613 0.69503105 0.21843103 0.26479068
0.24267463 -0.38297462 -0.072337031 -0.44160521 0.77059919 0.45952344 0.22620875
-0.25253338 -0.37460434 -0.076330155 0.65712762 0.73449755 0.1694006 0.10102156
-0.24815361 -0.378741 -0.07253477 0.66633761 0.73229498 0.14049327 0.15196501
-0.20566313 -0.37680811 -0.074757621 0.75241798 0.058907993 -0.65604651 0.22343053
0.20626524 -0.37613875 -0.076021105 -0.65713739 0.73903137 0.14833441 0.12065614
0.25628191 -0.37045324 -0.076562516 -0.57012206 0.79347622 0.21297015 0.2216665
-0.26276273 -0.36258987 -0.073561847 0.71852493 0.65534437 0.23290697 0.17233562
-0.21724385 -0.36760786 -0.07662221 -0.10127451 0.36447823 0.92568845 0.22561353
0.22457482 -0.3624126 -0.074199528 -0.75156987 0.59209704 0.29079849 0.20361438
0.25967085 -0.36711717 -0.070996687 -0.80322158 0.55944324 0.20459323 0.2307857
0.26212406 -0.36336845 -0.073838376 -0.81338435 0.57160664 -0.10803585 0.23135555
-0.27205628 -0.35104489 -0.070643142 0.79043853 0.61128443 0.039219882 0.15478197
-0.234556 -0.35466963 -0.074289963 0.47714972 -0.21010329 0.85333747 0.24641077
-0.22763404 -0.35951269 -0.077312261 0.20697309 0.58045059 0.78755265 0.24009758
0.22864679 -0.35913327 -0.07497219 -0.79853928 0.3529883 0.48757994 0.24454784
0.23342472 -0.35527757 -0.075284012 -0.42252541 -0.16998392 0.89026833 0.23988232
0.27142632 -0.3508935 -0.075651482 -0.64187366 0.76420271 -0.063185766 0.23110543
-0.27508423 -0.34597668 -0.07642325 0.77095968 0.60648322 0.19442062 0.097246349
-0.24108575 -0.3455857 -0.076772213 0.77280796 0.62644291 0.10167199 0.17714837
0.23786625 -0.34918699 -0.079341948 -0.76562303 0.47498831 0.43382892 0.2226465
0.24283989 -0.3431842 -0.077271432 -0.74514782 0.60504466 0.28049171 0.18913719
0.27908283 -0.34011763 -0.079761446 -0.73050356 0.616916 0.29288107 0.25351861
-0.28373408 -0.33486271 -0.075605586 0.83579379 0.54247022 0.084704459 0.11434325
-0.25116435 -0.33273554 -0.075542197 0.71127164 0.67167795 0.20722286 0.24555454
0.2466225 -0.33864439 -0.075488374 -0.80865645 0.57332253 0.1318177 0.17481138
0.25137216 -0.3325671 -0.075046197 -0.61375302 0.72914881 0.30273625 0.17578124
0.2856811 -0.33256376 -0.074377455 -0.53635335 0.82646698 0.17110683 0.22603282
-0.29188773 -0.3245106 -0.074194707 0.76256418 0.64684963 0.0090242978 0.1717324
-0.28755474 -0.32939893 -0.078101993 0.83376712 0.55202848 -0.0098508382 0.13940811
0.25733629 -0.325077 -0.073719315 0.070178993 0.76869726 0.63575113 0.20987993
0.2607289 -0.32093254 -0.072646335 -0.48784515 0.7286675 0.48067746 0.23960893
0.28821051 -0.32978362 -0.071717858 -0.71152878 0.68816358 0.1419778 0.14521499
0.2928369 -0.32310563 -0.075060137 -0.83894473 0.51612252 0.17259534 0.14873648
-0.26477826 -0.31533149 -0.073956959 0.9103713 0.41303495 -0.025024928 0.24780472
0.26223633 -0.31764662 -0.078393497 -0.53845316 0.52126467 0.66208112 0.21296774
0.29592144 -0.31822348 -0.079502016 -0.81098068 0.57884908 0.085111745 0.1176174
-0.30742544 -0.30385512 -0.076288022 0.78949738 0.60893285 0.076777183 0.21297333
-0.27294496 -0.30481946 -0.073514953 0.88577628 0.37212917 0.27734473 0.18221006
0.27546304 -0.300901 -0.076267622 -0.8511613 0.38622534 0.35546353 0.20432952
0.30633181 -0.30522305 -0.07658349 -0.86896229 0.49341819 0.037988238 0.12889774
0.31070501 -0.30051619 -0.071471341 -0.83059877 0.53979421 0.13684985 0.13933021
-0.31337306 -0.29380774 -0.073721729 0.96370381 0.23859967 0.11977095 0.18743151
-0.28100362 -0.29456016 -0.072399862 0.78940845 0.61329734 0.026470765 0.19189315
-0.27860418 -0.29688111 -0.07594882 0.74351907 0.65196157 -0.14874581 0.22648755
0.28368104 -0.29026425 -0.075951554 -0.91654068 0.13242136 0.37738276 0.24366277
0.31286505 -0.29572853 -0.071473561 -0.87249434 0.48378095 0.068626627 0.17626135
-0.28723261 -0.2861608 -0.073554397 0.93593776 0.34317368 0.079071328 0.25048935
0.28729707 -0.28491753 -0.074475162 -0.75920945 0.58653933 0.2820864 0.31264028
0.31642407 -0.28661844 -0.073150724 -0.82833666 0.43304306 0.35543218 0.24727198
-0.31855285 -0.27965641 -0.079052813 0.89491522 0.44446486 -0.03972115 0.15864676
-0.29270995 -0.27358934 -0.071626179 0.88410169 0.43831983 0.16198766 0.16685906
0.29167813 -0.27659896 -0.070027068 -0.62237734 0.69098574 0.36767539 0.20593512
0.31963718 -0.27813795 -0.075492911 -0.88460797 0.4611744 0.069187365 0.24163167
-0.32584998 -0.2632342 -0.07518433 0.90643483 0.407693 0.11028302 0.25171104
0.29412043 -0.26940328 -0.073904708 -0.83307445 0.46000648 0.30721492 0.15049788
0.32624763 -0.26192898 -0.07630229 -0.96255887 0.19481605 0.18848625 0.11036924
-0.30136657 -0.25139347 -0.075296916 0.8939355 0.41065705 0.17955542 0.2328036
-0.30498227 -0.24366261 -0.072547607 0.94338626 0.31930363 0.089820243 0.20118704
0.30473191 -0.24261141 -0.077093638 -0.93864048 0.28854883 0.18892774 0.1648498
-0.33776978 -0.23419482 -0.076034062 0.88129228 0.46635112 -0.076422893 0.19636084
0.30926114 -0.23199007 -0.076242641 -0.88613832 0.42913342 0.17493795 0.11900996
0.33830485 -0.23347767 -0.074173383 -0.54613954 0.75956321 0.35326374 0.23987527
-0.34121153 -0.22607154 -0.075432301 0.93728054 0.34356236 0.05890752 0.13696557
-0.3110044 -0.22889899 -0.073119208 0.86420661 0.50293911 0.014111407 0.15099046
0.31303599 -0.22149977 -0.079984665 -0.89968747 0.36039454 0.2463295 0.20602264
0.34084374 -0.22791831 -0.072327234 -0.78562772 0.47851932 0.39218402 0.20881094
-0.34556723 -0.21590917 -0.074288577 0.95928317 0.25476202 0.1219512 0.13496533
0.31670609 -0.21450144 -0.074899323 -0.87300545 0.27027276 0.40597305 0.21874017
0.34644234 -0.21287239 -0.075571835 -0.94409019 0.2786001 0.17628296 0.16743727
-0.34768683 -0.20782314 -0.071642444 0.96013457 0.15808794 0.23054226 0.14683442
-0.32140055 -0.20021978 -0.071470514 0.99086905 0.11170232 0.075505815 0.26800185
-0.31975475 -0.20853168 -0.070904136 0.96189803 0.15630059 0.22432649 0.22733851
0.32057121 -0.20223722 -0.075614288 -0.91198903 0.28470141 0.29533216 0.19608113
0.34707057 -0.20635921 -0.078429803 -0.93206441 0.20669328 0.29754645 0.19465756
-0.32149225 -0.19615112 -0.07474456 0.97667921 0.20550221 -0.062181786 0.19770885
0.32125694 -0.19763255 -0.07505472 -0.90262932 0.26933518 0.33573636 0.25267524
0.34889999 -0.19666088 -0.073793434 -0.93834013 0.2327996 0.25558177 0.21357699
-0.35057664 -0.18408468 -0.073618069 0.9541418 0.24109094 0.17745022 0.17675053
-0.34994015 -0.18827024 -0.074334331 0.95880407 0.21949019 0.18032964 0.21756661
-0.3227464 -0.18665731 -0.074625723 0.76245463 -0.45370126 -0.46132198 0.21819255
0.3233152 -0.18632409 -0.070789479 -0.94502968 0.26898041 0.1859255 0.18791994
0.35024619 -0.18615933 -0.074098743 -0.99552941 0.091975525 0.021486834 0.12039637
-0.35161418 -0.17448135 -0.075520165 0.97708535 0.14698376 0.15394774 0.1245909
-0.32401946 -0.1797085 -0.072121486 0.99195927 0.1016684 -0.075367883 0.23807859
0.35138726 -0.17857338 -0.072904013 -0.99657696 0.0058798883 -0.082460001 0.16888586
-0.3537612 -0.16222477 -0.071045168 0.96847916 -0.12315452 0.21652032 0.20269381
-0.32548702 -0.16682641 -0.073667988 0.98480594 0.15636645 0.075543471 0.18869732
0.32532388 -0.1678841 -0.073908783 -0.9936797 0.067939535 0.089357585 0.17431362
0.35201889 -0.16756628 -0.079762504 -0.98571825 0.16798793 0.011811745 0.13852261
-0.3272559 -0.15494746 -0.07230854 0.97343445 0.11313818 0.19906069 0.16453831
0.32798636 -0.15031096 -0.071349129 -0.96390116 0.22586647 0.14099251 0.19585966
0.35446227 -0.15067051 -0.077925101 -0.99419796 0.07109645 0.080719501 0.16449213
-0.35446018 -0.14992401 -0.078767218 0.98172122 0.089303941 -0.16807231 0.2132525
-0.32839927 -0.14759436 -0.07090769 0.97570181 -0.040002499 0.21541993 0.16009018
0.32772326 -0.1439316 -0.079303697 -0.96004754 0.08118505 0.26780155 0.23724598
0.35639405 -0.14301887 -0.070169501 -0.98300409 0.18010919 0.035548408 0.17500398
-0.35750371 -0.13409078 -0.07072106 0.93451738 0.27999398 0.21972845 0.24048541
-0.32869807 -0.13761666 -0.078294136 0.96655762 0.16039909 0.20009613 0.15554878
0.35623464 -0.13582453 -0.07945326 -0.94557184 0.31671327 0.074742764 0.21469693
-0.33093506 -0.12281977 -0.076259755 0.96333867 0.10721387 0.24593455 0.25565457
0.33120799 -0.12484724 -0.072380692 -0.26362768 0.46992758 0.84241825 0.23617958
0.35711986 -0.129612 -0.078888565 -0.99359328 -0.11170028 -0.017187022 0.1755922
-0.35859954 -0.11607139 -0.071854204 0.98514199 0.036604732 0.16779585 0.14747411
0.33141875 -0.11775747 -0.072475404 -0.74192643 0.32273 0.58769929 0.25338668
0.35786304 -0.1149174 -0.076759033 -0.99618149 -0.080892354 0.032844517 0.1844507
-0.32917279 -0.10185386 -0.073707916 0.98342359 -0.0464864 0.17526293 0.18849292
0.32910374 -0.10685311 -0.078827612 -0.47239488 0.13309117 0.87128061 0.23614348
0.35729212 -0.10857629 -0.074544601 -0.98143041 -0.094588213 0.16687563 0.12247201
-0.35530576 -0.093669333 -0.074744835 0.9806782 -0.13131058 0.14501014 0.13566372
-0.32817021 -0.095126279 -0.074530825 0.88918316 -0.2131654 0.40486276 0.21984771
0.32786378 -0.095393509 -0.076935664 -0.95674616 -0.16240707 0.24137226 0.11592382
0.35556453 -0.098239005 -0.077620797 -0.9550522 -0.26270714 0.13733247 0.15074275
-0.3543694 -0.087337986 -0.075607046 0.95355463 -0.15377951 0.25900832 0.19878167
-0.32683021 -0.083778925 -0.073410042 0.97213894 -0.23121674 0.038532227 0.28299531
0.32679597 -0.087324433 -0.076974452 -0.98513538 -0.13143207 0.11060661 0.13284867
-0.3529174 -0.074274652 -0.07336016 0.99413776 -0.058976647 0.090619788 0.18697841
-0.32498246 -0.073705696 -0.077119395 0.9768343 -0.15948002 0.1426917 0.11022755
0.32551718 -0.073197909 -0.072853118 -0.99984872 -0.015075874 0.0086814556 0.17949617
-0.32398385 -0.065904796 -0.076919243 0.98622781 -0.087998621 0.14003885 0.1602464
0.32390261 -0.066186652 -0.077752553 -0.93902397 -0.32426348 0.11439925 0.2295216
0.35092595 -0.062438767 -0.076994739 -0.99172372 0.099853136 0.08070574 0.25694856
-0.35050225 -0.055228651 -0.072585732 0.91256446 -0.34317327 0.22239192 0.25648507
-0.34993687 -0.054638304 -0.076676942 0.97646058 -0.21568663 -0.0019848961 0.26972035
-0.3221395 -0.054684997 -0.079504982 0.90964836 -0.22515601 0.3490625 0.17737754
0.32258478 -0.054002058 -0.075736806 -0.96907657 -0.22002214 0.11171816 0.2066658
0.3508645 -0.057332769 -0.071870744 -0.55324137 -0.6498661 -0.52115071 0.2588459
-0.34915462 -0.046558082 -0.074315362 0.8667869 -0.45088112 0.21304177 0.22260652
-0.32081965 -0.043648861 -0.078567967 0.96075499 -0.27225247 0.053183123 0.15164235
0.34903091 -0.045547947 -0.074237183 -0.97975183 0.089000292 -0.17934683 0.24458641
-0.32051009 -0.038392991 -0.075875834 0.97427863 -0.14771773 0.17017831 0.21057305
0.32078582 -0.039728835 -0.075172596 -0.81042761 -0.15503046 0.56495374 0.24123126
0.34788567 -0.037070155 -0.074481539 -0.98556101 -0.14766325 0.082855307 0.14318827
-0.34368768 -0.020393301 -0.074377209 0.94261587 -0.29387715 0.15846582 0.17359614
-0.3168118 -0.026998721 -0.076099388 0.93946594 -0.30351397 0.15900621 0.06075754
0.31683904 -0.026404925 -0.074264579 -0.96529019 -0.25600192 0.051747739 0.20129561
0.34679317 -0.026582377 -0.070140779 -0.95879459 -0.25354031 0.12818021 0.090931512
-0.31242999 -0.015567396 -0.073745102 0.95872271 -0.27365062 0.077240698 0.11954208
0.30975533 -0.011294687 -0.079718307 -0.90461779 -0.42047173 0.069786645 0.23580252
0.31218967 -0.015849691 -0.07612583 -0.87899131 -0.41464937 0.23545744 0.21422678
0.34013185 -0.012817082 -0.077642769 -0.89477003 -0.3835218 0.22868691 0.20275661
-0.33695951 -0.0035813313 -0.072535329 0.96174431 -0.20469318 0.18206763 0.17975658
-0.30683988 -0.00328747 -0.077086136 0.87891018 0.14882904 0.45317414 0.24475688
0.3080616 -0.0056017935 -0.07535997 -0.89045405 -0.41773847 0.18051629 0.17495391
0.33797598 -0.0074177668 -0.077012315 -0.88073397 -0.18449156 0.43620011 0.24046661
-0.33172381 0.0075646057 -0.077373937 0.93788272 -0.036922339 0.34498215 0.19454277
0.3038339 0.0040415726 -0.076890394 -0.96945393 -0.24518685 0.0065209949 0.19110763
0.33416626 0.0024558196 -0.074823029 -0.93457085 -0.34472415 0.087992527 0.211116
-0.33121154 0.010746827 -0.071074039 0.97584486 -0.13366063 0.17280509 0.13702427
-0.32898334 0.014308992 -0.07695841 0.95594978 -0.062585443 0.28678045 0.18880969
-0.29817092 0.017036639 -0.078729108 0.54977089 0.028536076 0.83482802 0.24476589
0.29839426 0.018329294 -0.07375104 -0.81089711 -0.4806557 -0.3337903 0.22935742
0.30040661 0.014458634 -0.070814379 -0.92280829 -0.38173968 0.051959436 0.17037545
0.32742265 0.019680627 -0.071765222 -0.96915275 -0.23879057 0.061009094 0.25129253
-0.32450333 0.027200796 -0.070235357 0.89216107 -0.39146537 0.22539605 0.15048438
-0.29563534 0.024833478 -0.074089043 0.63056713 -0.66715086 0.39660418 0.25555235
0.29502171 0.027180225 -0.071663022 -0.91467005 -0.40410641 -0.0087502403 0.21166383
0.32507157 0.024532771 -0.074432917 -0.95832908 -0.28403059 0.030527728 0.24555938
-0.32073104 0.034440529 -0.076282546 0.80980128 -0.34143141 0.47712317 0.17270674
-0.29131323 0.033452693 -0.079109363 0.70949966 -0.67466748 0.2035535 0.19827911
0.28964144 0.037526656 -0.079006255 -0.76353133 -0.64057261 0.081771523 0.21774077
0.29189575 0.034041431 -0.073613144 -0.88908565 -0.38194704 0.25227568 0.22140355
0.32119602 0.032176692 -0.079978377 -0.95370054 -0.30072042 -0.0047422238 0.23916864
-0.31684357 0.043658845 -0.076822773 0.90568405 -0.37347266 0.2006356 0.15453619
-0.28577545 0.047058061 -0.07441324 0.81286597 -0.56743962 0.13138224 0.18127525
0.2861008 0.045465872 -0.078669749 -0.87903529 -0.44265839 0.17706077 0.22002271
0.31652218 0.045712363 -0.072685637 -0.89450508 -0.42571491 0.13648239 0.17941302
-0.31290856 0.054090053 -0.073807307 0.81245697 -0.56483865 0.14446816 0.17406309
-0.28348082 0.050973244 -0.070173167 0.75058693 -0.60390437 0.26817682 0.16702861
-0.27873105 0.056673333 -0.072576694 0.76557034 -0.63575852 0.098555207 0.12892191
0.28168753 0.051913932 -0.076538265 -0.76361042 -0.59588104 0.24864621 0.23837329
0.31230316 0.055258222 -0.074757472 -0.86882579 -0.4032394 -0.28729728 0.23495086
-0.3063356 0.065105483 -0.072976895 0.7919054 -0.57676262 0.20057593 0.17289986
-0.27282056 0.06365025 -0.075757481 0.80266666 -0.58736569 0.1035747 0.16476142
0.2698023 0.067651965 -0.075462475 -0.79118639 -0.61115539 0.022653108 0.14816701
0.27057314 0.067283444 -0.072681874 -0.59782016 -0.76332396 0.24484192 0.17134184
0.30742723 0.063472062 -0.074062854 -0.82746446 -0.56131327 0.015163099 0.19505011
-0.2613709 0.079553932 -0.071318731 0.82399952 -0.55536658 0.11221737 0.14297214
0.26133403 0.078914449 -0.074454956 -0.83490908 -0.54583395 0.070654444 0.13985685
0.29900596 0.074422449 -0.074188821 -0.84860587 -0.51534772 0.11951903 0.23878261
-0.29248011 0.083391786 -0.071794964 0.82429993 -0.56463742 0.041402511 0.17048386
-0.25696382 0.084313437 -0.075764902 0.76463258 -0.6315434 0.12841326 0.12587522
0.25724721 0.084067434 -0.075210989 -0.74650598 -0.66482788 -0.027068364 0.16619578
0.29215658 0.082466021 -0.078735858 -0.89153308 -0.41591474 0.17939819 0.25851628
-0.2847448 0.092467844 -0.076971017 0.64803231 -0.7583347 0.070588753 0.20571491
0.24921326 0.094151922 -0.076884441 -0.76072079 -0.64680523 -0.05428512 0.20766295
0.28294232 0.095250763 -0.074736089 -0.7806465 -0.61698514 -0.099600919 0.15195286
-0.27583602 0.10420362 -0.076323919 0.84009945 -0.54102391 -0.039063793 0.22939865
-0.2446388 0.1013274 -0.071476616 0.75810176 -0.64218217 0.11350695 0.097529419
0.2764293 0.10303898 -0.078340352 -0.85767812 -0.50356036 0.10399591 0.20820452
-0.26572242 0.11783306 -0.074010298 0.9753713 -0.11967418 0.18528062 0.23598692
-0.22777437 0.11937898 -0.0728724 0.72763699 -0.68314618 -0.062094659 0.1938311
0.23589543 0.11206838 -0.074476264 -0.59528267 -0.79300326 0.1295543 0.17514724
0.26751325 0.11517882 -0.075660713 -0.6661216 -0.70786762 0.23495802 0.1612868
-0.25684419 0.12891454 -0.076528624 0.7528072 -0.62835008 0.19610587 0.095715031
-0.22542594 0.12109776 -0.073349819 0.45338973 -0.88000703 0.14151089 0.20533387
-0.21361817 0.12987468 -0.074807435 0.52672243 -0.84220868 0.11509964 0.15071961
0.22210561 0.12253863 -0.079585798 -0.40949345 -0.89925408 0.15380909 0.24181499
0.25739706 0.1280019 -0.077518493 -0.65949559 -0.7362591 0.15161853 0.20444754
0.26236063 0.12200936 -0.075065814 -0.71649247 -0.68835276 0.11317685 0.14434069
-0.25221273 0.1339774 -0.076078959 0.55245918 -0.83353806 -0.0017633451 0.15202573
-0.21079844 0.13248515 -0.072360478 0.58509475 -0.78450114 0.20548013 0.14136587
-0.20233181 0.13883278 -0.073148429 0.77292985 -0.62852865 0.086782314 0.21336089
0.20660827 0.13476811 -0.077681817 -0.54023665 -0.82726908 0.1541758 0.13690457
0.24475342 0.13965425 -0.078464463 -0.7697314 -0.60398084 0.20669007 0.20888174
-0.2000095 0.14061913 -0.073244631 0.78559393 -0.21415125 -0.58050108 0.23707458
-0.1964778 0.14291193 -0.075562611 0.80432928 -0.51653355 -0.29367921 0.22274917
-0.18827938 0.14963786 -0.073143929 0.77995169 -0.53038931 -0.33220869 0.23978876
0.24156766 0.14325586 -0.070696451 -0.69627893 -0.69801503 0.16724455 0.21103144
-0.22897941 0.1515801 -0.079659179 0.62998807 -0.77561677 -0.039162006 0.20767289
0.17907216 0.15551956 -0.079809964 -0.50365061 -0.84859568 0.16193031 0.1787243
0.18567553 0.15051967 -0.079432286 -0.515351 -0.78802955 0.33678299 0.17862867
0.22383046 0.15610813 -0.075784907 -0.60048258 -0.79940361 -0.019352712 0.15409625
-0.213796 0.16398135 -0.074619897 0.67041594 -0.74163526 0.022794245 0.23535213
-0.20749483 0.16843672 -0.077168927 0.8108533 -0.54361278 -0.21679969 0.19299617
0.15818396 0.16944996 -0.07691469 -0.57501876 -0.79250723 0.2031891 0.25011611
0.16320398 0.16735131 -0.076751068 -0.56402266 -0.8243891 0.047551569 0.18378799
0.1713587 0.16278407 -0.072131813 -0.53531444 -0.84031069 -0.085536569 0.21860181
0.21254006 0.16551968 -0.070762277 -0.5739091 -0.81512529 0.0787341 0.11761036
-0.20176972 0.17332259 -0.073860437 0.67284715 -0.73712564 -0.062630266 0.15854952
-0.19846241 0.17546646 -0.076504909 0.61830968 -0.78581381 -0.01377854 0.14490329
-0.15359789 0.1718927 -0.073228091 0.10858909 -0.9926095 -0.054174129 0.23255776
-0.1452547 0.17557223 -0.071741298 0.44732678 -0.87167931 0.20018452 0.13239813
0.13657111 0.17875841 -0.0745783 -0.31738082 -0.85365987 0.41295785 0.16711774
0.14369643 0.1760886 -0.072592616 -0.3091816 -0.94993281 0.045103736 0.18563882
0.1539138 0.17154051 -0.074788027 -0.54915446 -0.81388646 0.18978444 0.24238445
0.19650914 0.17718406 -0.075035959 -0.47340041 -0.86968088 0.13981099 0.27066976
0.20472956 0.17095116 -0.074533351 -0.45861313 -0.84570646 0.27286384 0.20638129
-0.18725371 0.18462992 -0.072727174 0.53682989 -0.84263533 -0.042181421 0.15499008
-0.12727372 0.18222995 -0.077068433 0.3459039 -0.91528481 0.20640771 0.15882929
-0.11408303 0.18822798 -0.073555842 0.57038814 -0.81989276 0.049327672 0.27852023
0.11671899 0.18629816 -0.079061002 -0.34295675 -0.91263127 0.22245172 0.14372821
0.12299402 0.18445909 -0.074036449 -0.35072902 -0.9054327 0.239125 0.17561017
-0.17479922 0.19220464 -0.075153477 0.40913218 -0.91218865 0.022863016 0.14360626
-0.16895714 0.19498423 -0.072341174 0.44901749 -0.89285183 0.034624163 0.15462884
-0.15660091 0.19948566 -0.077162415 0.47381029 -0.87012613 0.13558872 0.21490186
-0.10339834 0.19198796 -0.077931061 0.57823831 -0.80879629 0.10718709 0.22999418
-0.090381645 0.19809082 -0.073265381 0.50942594 -0.84905893 0.13994327 0.24304308
0.096904106 0.19480217 -0.077116303 -0.38356495 -0.92327172 0.021147406 0.1560054
0.10245459 0.19230504 -0.078415617 -0.54387903 -0.81766969 0.18871105 0.12045296
0.15897645 0.19856152 -0.076694407 -0.28652099 -0.91789091 0.27455786 0.21748067
0.16297406 0.1971799 -0.074550562 -0.58239156 -0.79624629 0.16374344 0.20337945
