# .PCD v0.7 - Point Cloud Data file format
VERSION 0.7
FIELDS x y z normal_x normal_y normal_z curvature
SIZE 4 4 4 4 4 4 4
TYPE F F F F F F F
COUNT 1 1 1 1 1 1 1
WIDTH 591
HEIGHT 1
VIEWPOINT 0 0 0 1 0 0 0
POINTS 591
DATA ascii
-0.13089406 -0.18041594 -0.21368487 0.38995782 0.9200924 0.036917701 0.17849606
-0.1237384 -0.1833799 -0.2191148 0.43585545 0.89949983 -0.030496081 0.23766413
-0.114843 -0.1870645 -0.21197321 0.26518303 0.93394113 0.23964959 0.20044141
-0.0015557534 -0.18125571 -0.21930109 0.02517554 0.97130734 -0.2364914 0.19903684
0.0088435821 -0.18029626 -0.21849117 0.25306326 0.94694138 -0.19814433 0.21338123
0.010229335 -0.18011382 -0.21693107 -0.015378634 0.99818343 -0.05825229 0.21079695
0.11259095 -0.18799733 -0.21689591 -0.39546412 0.91661966 -0.058450393 0.15466321
0.12631416 -0.18231301 -0.21347195 -0.41013011 0.9064458 0.10074313 0.18363233
-0.15283653 -0.17132708 -0.21502629 0.56436682 0.14973067 0.81183183 0.25491631
-0.14200008 -0.17581567 -0.21720344 0.357483 0.9317444 0.063703619 0.22073576
-0.13457654 -0.17889062 -0.21340463 0.435 0.89655268 0.083476327 0.19349441
-0.064163074 -0.17301331 -0.21375956 -0.66377211 0.7478084 0.013753798 0.22656664
-0.05288367 -0.17449827 -0.21223515 -0.034001183 0.97476381 0.22063397 0.18331926
-0.044052429 -0.17566094 -0.21568444 0.24613497 0.96283746 -0.11118212 0.12454244
-0.039686948 -0.17623565 -0.21271306 0.11644942 0.97853506 -0.17002547 0.13565864
0.012150272 -0.17986092 -0.21150456 -0.082921945 0.97547603 -0.20388798 0.18560272
0.04726851 -0.17523751 -0.21440063 -0.19497338 0.98077887 -0.0076221889 0.093202308
0.081250988 -0.17076367 -0.21164659 -0.30606744 0.95071417 0.049650732 0.21959002
0.13602248 -0.17829168 -0.21698679 -0.34596306 0.93719804 -0.04437843 0.18999515
0.14845398 -0.17314239 -0.21471334 -0.26643461 0.94995612 -0.16308241 0.20033133
-0.17042893 -0.16404006 -0.2104241 0.62435287 0.78081411 0.022645012 0.19497113
-0.15909572 -0.16873445 -0.211952 0.66976297 0.72914046 0.14061169 0.24167323
-0.10854128 -0.16042288 -0.21537358 0.7105366 0.54512894 0.44494057 0.25425786
-0.095487945 -0.16582975 -0.21744826 0.34458548 0.90149242 0.26186308 0.21696113
0.086669043 -0.16948266 -0.214819 -0.51026833 0.851928 -0.11766438 0.24246813
0.10687616 -0.16111261 -0.21607661 -0.26014137 0.96553344 0.0084670531 0.2132677
0.15826878 -0.16907698 -0.21543327 -0.59588546 0.80104172 -0.057032462 0.15096197
0.16119999 -0.16786283 -0.21639928 -0.43140763 0.89563364 -0.10829549 0.10508651
0.17384174 -0.16262645 -0.21531966 -0.54857802 0.8327418 -0.074854672 0.17139426
-0.18000688 -0.15907446 -0.21528076 0.53472972 0.84096003 0.082766704 0.13416953
-0.12140287 -0.15509543 -0.21432957 0.51589209 0.74062401 0.43050137 0.263024
-0.11512452 -0.15769601 -0.21582571 0.64058727 0.75108516 0.159747 0.25598755
0.12322658 -0.15434003 -0.21475315 -0.71898001 0.69149083 -0.070057347 0.21058364
0.1873308 -0.15345462 -0.21855742 -0.43147883 0.87779444 -0.20809397 0.16553116
0.19057879 -0.15096235 -0.21756932 -0.36735803 0.91049141 -0.1898776 0.17574757
-0.20151983 -0.14256698 -0.21575309 0.67618573 0.68976498 0.25883803 0.24889269
-0.19574046 -0.14700164 -0.21541421 -0.24225193 0.96470124 -0.10327448 0.2274192
-0.15389501 -0.14163674 -0.2148982 0.63917953 0.74961543 0.17183217 0.20807436
-0.1440264 -0.14572446 -0.21242918 0.39909628 0.9169004 0.0039683506 0.22074537
-0.13444485 -0.14969325 -0.21889514 0.34619835 0.90285236 0.25495961 0.21176468
0.14538109 -0.14516333 -0.21419735 -0.41984966 0.85383642 -0.30771688 0.20214424
0.20331746 -0.14118762 -0.21362597 -0.6309858 0.77530324 0.027599679 0.14283527
-0.21642624 -0.13112889 -0.21099408 0.73934823 0.6616267 -0.12495694 0.18393666
-0.20871243 -0.13704789 -0.2114028 0.44510391 0.8934232 0.060642961 0.18799877
-0.16684115 -0.1351123 -0.21435262 0.59006822 0.80449617 -0.06786371 0.16644624
0.16365542 -0.13755681 -0.21507798 -0.41568393 0.8989287 0.13832603 0.20580524
0.17282516 -0.13052061 -0.21601409 -0.60377389 0.79138392 0.095752306 0.19780016
0.20705837 -0.13831711 -0.21257564 -0.62971371 0.77680874 0.0053664986 0.089681856
0.21317406 -0.13362437 -0.21493118 -0.5837732 0.81182086 0.012475736 0.12895609
-0.22637627 -0.12349395 -0.21757379 0.47030783 0.84173667 -0.26512238 0.22601338
-0.18297961 -0.12272882 -0.21638671 0.65251863 0.75506854 -0.063960806 0.22642235
0.17929003 -0.12555993 -0.21190345 -0.59816611 0.80034417 -0.040576313 0.2344185
-0.24036115 -0.11276298 -0.21856193 0.4175745 0.87818694 -0.23327911 0.21667288
-0.23705544 -0.11529953 -0.21127605 0.25149265 0.91340095 0.32007816 0.2479911
-0.18786238 -0.11898214 -0.21487769 0.76939893 0.63115078 -0.098356567 0.20952435
0.18753952 -0.11922989 -0.21008867 0.21119373 0.97232109 -0.099944204 0.20298649
0.19560573 -0.11304048 -0.21622738 -0.72251445 0.67454171 0.15154669 0.23104332
0.23101483 -0.11993466 -0.21997887 -0.82795554 0.56033444 -0.022692487 0.19824009
-0.21180891 -0.10060735 -0.21559338 0.38945642 0.90158963 0.18830752 0.20340371
-0.20422158 -0.10642931 -0.21586597 0.53069484 0.8430838 0.087021083 0.14516659
0.20181093 -0.10827906 -0.21389714 -0.63505161 0.74709994 -0.19634432 0.18226968
0.24817446 -0.10676762 -0.21171871 -0.69021672 0.71885115 -0.082788423 0.18913202
0.25324059 -0.10144909 -0.21075587 -0.73874176 0.66568863 -0.10544777 0.17827341
-0.25481498 -0.099397302 -0.21306622 0.9311645 0.22955589 0.28326109 0.17814681
-0.22535728 -0.090211324 -0.21486872 0.44072542 0.65137959 0.61762911 0.22584262
-0.21866097 -0.095349595 -0.21380238 0.43276119 0.83237225 0.34622839 0.22424731
0.21469054 -0.09839619 -0.21390094 -0.83498698 0.45464462 0.30999193 0.23838082
0.22270922 -0.092243239 -0.21533509 -0.8555342 0.49297553 -0.15822911 0.24476163
0.25844568 -0.094665632 -0.21978512 -0.71411884 0.69735074 -0.061125111 0.17116262
-0.26703733 -0.083468787 -0.21089226 0.52807236 0.56854242 0.63079238 0.15914111
-0.22886905 -0.087516643 -0.21155632 0.79977077 0.54400831 0.25381416 0.23761624
0.23222114 -0.084448382 -0.21490709 -0.27450046 0.83357239 -0.47938147 0.25627199
-0.27412468 -0.074232399 -0.21224433 0.81394309 0.56199086 -0.14718361 0.092677683
0.23936872 -0.075133435 -0.21063279 -0.7949096 0.46684802 0.38751984 0.29142863
0.27417469 -0.074167207 -0.21463266 -0.88506532 0.4328627 0.17114116 0.24123642
-0.28371 -0.061740585 -0.21152693 0.8527531 0.5164119 -0.078300461 0.21568546
-0.2444306 -0.068536706 -0.21189006 0.79055357 0.61174047 0.028262187 0.11467227
0.24485984 -0.067977324 -0.21174936 -0.65418649 0.64219922 0.39952487 0.15998043
0.25093725 -0.060057081 -0.2193419 -0.40091535 0.79453504 0.4560492 0.19890435
0.28338602 -0.062162764 -0.21219733 -0.69221818 0.69368637 0.19908062 0.12640187
0.25537956 -0.054267749 -0.21677856 -0.52902859 0.62474835 0.57429808 0.19455461
-0.26512146 -0.041571833 -0.2148169 0.88210738 0.46812001 0.052441739 0.17398526
0.26156008 -0.046213098 -0.21997902 -0.70350045 0.69007289 0.16996066 0.1420677
0.29792586 -0.043214079 -0.21289493 -0.76652247 0.59744519 0.23558995 0.18192536
-0.30325547 -0.036268398 -0.21901236 0.81248868 0.56186789 0.15545641 0.18069685
0.27028811 -0.034838527 -0.21433443 -0.60630739 0.46183902 0.6473763 0.19790757
0.30507126 -0.033902012 -0.21580803 -0.86172032 0.50515199 0.04753584 0.11396974
-0.30789757 -0.029092975 -0.21043599 0.87739921 0.47965267 0.010197835 0.0020234643
-0.27912274 -0.023324991 -0.21757568 0.79849392 0.60027862 0.045529839 0.17716993
0.28205013 -0.01950998 -0.21446484 -0.81195688 -0.083000988 0.57778615 0.15846108
0.31451494 -0.013117203 -0.21819554 -0.93411875 0.35685518 0.0087502701 0.21086073
0.28769174 -0.0072539207 -0.21487197 -0.74979186 0.28757763 0.5959121 0.24590532
0.31949323 -0.0010985285 -0.21292371 -0.92489964 0.37990543 -0.015245652 0.069984227
-0.32385284 0.0094264131 -0.21797685 0.95914078 0.27128199 -0.08034385 0.17004119
-0.32605642 0.014746341 -0.21575969 0.91558176 0.39258176 -0.087118447 0.24535829
0.29610226 0.013050872 -0.21256354 -0.89518934 0.42320168 0.13977247 0.17925492
0.32409233 0.010004609 -0.21147397 -0.86798495 0.4937588 -0.052956685 0.19286586
-0.33090466 0.026451034 -0.21657218 0.89456391 0.42946106 -0.12376858 0.15098022
-0.30030394 0.02319457 -0.2161708 0.93284047 0.35936573 -0.025788348 0.15476108
0.30003503 0.022545421 -0.21576416 -0.89550585 0.43495008 -0.094274744 0.22165765
0.33146554 0.027805163 -0.21677977 -0.93811518 0.31872001 0.13548945 0.14880823
-0.33517379 0.036757611 -0.21514495 0.96279013 0.26445308 -0.055674627 0.14199756
-0.30468735 0.033777155 -0.21208064 0.99106318 0.12899527 0.033969775 0.2043284
0.30454794 0.033440568 -0.21211207 -0.85221374 0.52050436 -0.052980393 0.22907571
-0.33868334 0.0452304 -0.21528816 0.96336037 0.26690793 -0.026400462 0.19963399
-0.31038657 0.047536265 -0.21515225 0.90648264 0.25595111 0.33582473 0.19507521
0.33846319 0.044698991 -0.21200395 -0.93670511 0.33357307 -0.10636054 0.14947873
-0.34222731 0.053786308 -0.21789175 0.97115356 0.23755465 -0.020702088 0.15280391
-0.314284 0.056945562 -0.21353878 0.99474895 0.10203932 0.0079030013 0.2263139
0.31379938 0.055775564 -0.21121016 -0.96564209 0.19132617 0.17586841 0.1999816
-0.34371412 0.064780906 -0.21472323 0.99161172 0.11032244 0.067343339 0.19048901
-0.31635687 0.064030252 -0.21888778 0.87727767 0.21204935 -0.430603 0.25174692
0.34384713 0.065791436 -0.2153625 -0.99454135 0.029825758 -0.099989437 0.18128115
-0.31777045 0.074767448 -0.21879484 0.9482463 0.31485856 -0.041147988 0.19089226
0.31775206 0.07462801 -0.21183404 -0.97526795 0.19171931 -0.10998299 0.14410301
0.3451708 0.075845577 -0.21534643 -0.86247534 -0.43891764 0.25196734 0.24577902
-0.34589809 0.08136978 -0.21326613 0.54223996 -0.032671642 -0.83958822 0.24986944
-0.31942827 0.08735998 -0.21900569 0.99686056 0.067396328 -0.041554704 0.18540187
0.31848663 0.080207169 -0.21469158 -0.98369849 -0.1445671 0.10694709 0.18492559
-0.34814879 0.098465592 -0.21128134 0.98195183 0.050704282 -0.18220769 0.19024576
0.32050428 0.095533021 -0.21193089 -0.99678952 0.073174074 -0.032499049 0.16870195
-0.34887087 0.10395031 -0.21488497 0.92036289 0.13825019 -0.36581296 0.23407058
-0.32214981 0.10803218 -0.21885058 0.98065609 0.16024016 0.11241321 0.21720017
0.3217034 0.1046413 -0.21550119 -0.98414069 0.12651037 -0.12434759 0.15040234
-0.35044315 0.11589308 -0.21751761 0.85020119 0.46545699 -0.2459829 0.25727025
-0.32336366 0.11725207 -0.21347678 0.99878407 0.029858183 0.039227143 0.15439706
0.35029942 0.11480138 -0.21733783 -0.75813133 0.59668106 -0.26307529 0.21427912
0.32438219 0.12498846 -0.21509948 -0.99276811 0.11694493 0.027117169 0.20007849
-0.35336503 0.1380869 -0.21707673 0.98281872 -0.034524072 0.18131603 0.22507124
-0.32563043 0.13447013 -0.2198687 0.98563063 0.13250598 -0.10475937 0.16862959
-0.32683623 0.14765199 -0.21313693 0.97197169 -0.043952029 -0.23095286 0.18905033
0.32683775 0.14764062 -0.21669635 -0.99955314 -0.010451033 0.028006027 0.093701355
-0.35288882 0.1568111 -0.21334162 0.98895115 -0.055053901 0.13764001 0.21107702
-0.32553887 0.15750653 -0.2120609 0.98738682 0.019273872 0.15714869 0.19147478
0.32583693 0.15524261 -0.215992 -0.99748874 -0.053643424 0.046245646 0.19820186
0.35372013 0.15049681 -0.21731484 -0.96823996 -0.12265284 -0.21787065 0.23751707
-0.35147539 0.16754727 -0.21361251 0.97121882 -0.23759688 -0.016785033 0.17958182
0.35141236 0.16802628 -0.21148586 -0.93931019 0.3404538 -0.042280037 0.22037306
-0.32324624 0.1749208 -0.2124573 0.96689594 -0.25176752 0.041536883 0.11925212
0.32358408 0.17235473 -0.21994945 -0.99902689 -0.0032958458 0.043981839 0.2462332
0.35045677 0.17528445 -0.21830875 -0.97000462 -0.21066403 0.12129221 0.18744478
-0.32232341 0.18193059 -0.21373777 0.99143803 -0.13057828 4.9704857e-05 0
0.32197696 0.1845621 -0.21282132 -0.97146004 0.032331116 0.23498945 0.20027897
0.32105982 0.19152829 -0.2188504 -0.98482853 -0.15019815 0.086910211 0.16678309
0.34736025 0.1988049 -0.21997008 -0.98399305 0.012746206 -0.1777505 0.20319763
-0.31893024 0.2077042 -0.21053977 0.8499552 0.022952661 0.52635467 0.19525972
0.31927302 0.20510033 -0.2117779 -0.74229956 -0.66608894 0.072916903 0.23404309
0.34652445 0.20515357 -0.21459655 -0.98409975 0.061329044 0.16669273 0.1677331
-0.34488294 0.21762215 -0.21474802 0.99781799 0.012033504 0.064919956 0.17778462
-0.31783217 0.21604472 -0.21875297 0.71522975 -0.68735337 -0.1264585 0.23138817
0.31788969 0.21560781 -0.21421504 -0.8835358 -0.076472841 -0.46207836 0.24228939
-0.34383774 0.22556114 -0.21274048 0.99602234 -0.011750629 0.088325687 0.12256446
0.31691706 0.22299591 -0.21936688 -0.84939396 -0.5205369 -0.087012723 0.1795402
-0.33940345 0.24431208 -0.21914363 0.87777537 -0.38098991 0.29044294 0.17351049
0.34012613 0.24256743 -0.21633805 -0.94375068 -0.3298125 -0.023631027 0.12884331
-0.30500633 0.2567338 -0.21841285 0.96486562 -0.20870312 -0.15961623 0.18573204
0.30670762 0.25262657 -0.21461886 -0.80617857 -0.51703107 0.28767163 0.21345489
0.33410645 0.25710016 -0.21368663 -0.86324996 -0.44289243 0.24216916 0.1546652
-0.32974255 0.26763558 -0.21983899 0.90768051 -0.40571275 0.10729963 0.17500059
-0.30147988 0.26524743 -0.21625505 0.77907461 -0.56440991 -0.27291784 0.22717199
0.2997475 0.26942977 -0.21347806 -0.84544569 -0.52777392 0.081707545 0.16579673
0.33198202 0.26222903 -0.21201658 -0.88481992 -0.46446845 -0.036914654 0.13278961
-0.32774433 0.27245969 -0.21728346 0.96372956 -0.22837062 0.13810208 0.21672125
-0.29792911 0.27381971 -0.21187168 0.91209954 -0.40946794 -0.02025911 0.19322599
0.29567102 0.27927125 -0.21894458 -0.97472441 -0.15426444 -0.16160093 0.17298597
-0.32111481 0.28846481 -0.21690097 0.81663615 -0.55115861 0.17125867 0.19095306
-0.2931698 0.28530979 -0.215846 0.92293936 -0.3639448 -0.12540808 0.20292139
0.29340413 0.28474402 -0.21796921 -0.90118819 -0.4328495 0.022386458 0.17002374
-0.28748465 0.29903486 -0.21686454 0.87702036 -0.47670656 0.059884619 0.10405678
0.28760844 0.29873601 -0.21285899 -0.91723478 -0.39822975 0.0096628089 0.1719467
0.31890306 0.29380444 -0.21105148 -0.93890512 -0.27766594 0.20336866 0.20207228
-0.28592625 0.3027972 -0.21555091 0.80321819 -0.54559869 0.23908706 0.11826718
0.27581137 0.31892154 -0.21579167 -0.87302995 -0.48132741 -0.078375198 0.18370144
0.28057832 0.31270912 -0.21261866 -0.89430696 -0.44119933 0.074553631 0.23050036
0.3111189 0.31259698 -0.21206719 -0.88939601 -0.45428988 -0.050944649 0.15424071
-0.27326953 0.32223415 -0.21685645 0.85574919 -0.51701021 -0.019842675 0.20855416
0.30203068 0.32914561 -0.2175844 -0.90640122 -0.42054856 0.039696861 0.21554193
-0.30009007 0.3316747 -0.2116413 0.55976415 -0.80560064 0.19409193 0.22176777
-0.26724443 0.33008617 -0.21994774 0.75771242 -0.65053916 0.051678341 0.1693756
0.26518813 0.332766 -0.21129259 -0.89497077 -0.44314075 -0.051513337 0.1559085
0.29733482 0.33526531 -0.21075936 -0.89373255 -0.44859523 0.0020897822 0.16287372
-0.28987008 0.34499365 -0.21439974 0.94326872 -0.32838178 0.049087156 0.17984405
0.25626096 0.34440011 -0.21866889 -0.602063 -0.79837543 -0.010803543 0.20314765
0.28940213 0.34560347 -0.21003667 -0.73340988 -0.67934155 0.024594504 0.11630163
-0.28320816 0.35367566 -0.21318582 0.7687583 -0.63549882 -0.071776703 0.1854248
-0.25085917 0.35143986 -0.21120176 0.85903376 -0.50930339 -0.051683675 0.12731926
0.28228679 0.35487637 -0.21353097 -0.69531077 -0.70307648 0.14908521 0.20031948
-0.27357888 0.36622477 -0.21270642 0.77382678 -0.63096869 0.055413656 0.1823827
-0.2670868 0.37468538 -0.21367627 0.85367107 -0.50676984 -0.12012499 0.22288901
0.22898591 0.37870798 -0.21361856 0.11677455 -0.91924381 -0.37597138 0.26281452
0.26781297 0.37373903 -0.21636564 -0.8076784 -0.5862453 0.063023575 0.055761635
-0.25659564 0.38835776 -0.21076943 0.66512805 -0.73718631 -0.11899991 0.18755707
-0.22475091 0.38195765 -0.21558951 0.14163251 -0.72053003 -0.67880529 0.25519928
0.22516677 0.38163853 -0.21310943 -0.20298715 -0.96797568 -0.14771347 0.20717399
0.25591466 0.38924521 -0.21997869 -0.73410785 -0.67888349 -0.01424552 0.12756358
-0.25421855 0.39145565 -0.21477053 0.71453047 -0.68259704 -0.15332125 0.21540488
-0.2015906 0.39972919 -0.21038815 0.65011048 -0.75972277 -0.013331646 0.11463533
0.25101304 0.3956331 -0.21114287 -0.69289625 -0.71886694 -0.055902209 0.1377026
-0.24257001 0.40234917 -0.21099527 0.78417534 -0.60690731 0.12935431 0.28376573
-0.23425269 0.40873122 -0.21060358 0.73246741 -0.67929798 -0.045231372 0.17097458
-0.19569479 0.40425321 -0.21689464 0.61713141 -0.76381218 -0.18904968 0.22234109
0.19563547 0.40429872 -0.21608743 -0.4431757 -0.69231951 0.56946373 0.24835971
0.24050841 0.40393108 -0.21317956 -0.60706204 -0.79319268 -0.048176192 0.14487827
-0.18455595 0.41280034 -0.21109074 0.58161467 -0.81341225 0.0092117637 0.16709405
-0.17789039 0.41791499 -0.21505454 0.59575331 -0.80267406 -0.028148154 0.080139972
0.22399589 0.41660154 -0.21136752 -0.59013796 -0.78618652 0.18343402 0.19848162
-0.21344303 0.42469907 -0.21189654 0.59598523 -0.78128886 0.1854434 0.23112302
-0.16850896 0.42511362 -0.21017545 0.49691999 -0.86685961 -0.040309746 0.057240926
0.16572976 0.42724618 -0.21544389 -0.30926579 -0.82315719 0.47620055 0.25222978
0.20888525 0.42819631 -0.214775 -0.61272454 -0.76682204 0.19118743 0.15256841
0.21627377 0.42252696 -0.21943772 -0.51578456 -0.85154456 0.094011024 0.18145993
-0.20563619 0.43068945 -0.21364364 -0.70065016 -0.66926593 -0.24733077 0.24175359
-0.15283307 0.43335766 -0.21463749 0.56084353 -0.82602614 -0.055993743 0.16987973
-0.13855946 0.43927002 -0.21922727 0.47916117 -0.87249798 0.095664948 0.21027698
0.14361101 0.4371776 -0.2132363 -0.46078706 -0.8786 -0.12544905 0.18471622
0.15645254 0.43185845 -0.21365325 -0.23219053 -0.97188878 0.038984999 0.1934603
0.20028651 0.43479437 -0.2165418 -0.64298213 -0.76587951 -0.0016108273 0.13256209
-0.19002415 0.44266897 -0.2178847 0.4089151 -0.80772597 -0.42469648 0.22698927
-0.12646027 0.4442817 -0.2185389 0.32369292 -0.93833458 -0.12145372 0.17150195
-0.11608344 0.44857985 -0.21393271 0.57157218 -0.82048684 0.010324232 0.22137862
0.11547468 0.44883204 -0.21440035 -0.55550158 -0.82634062 0.092623837 0.129979
0.12288903 0.44576091 -0.21723559 -0.39958143 -0.91619861 0.030244822 0.18400024
-0.16568989 0.45728406 -0.21393028 0.54173082 -0.80796081 -0.23179056 0.22626586
-0.11209632 0.45023137 -0.21913482 0.51940131 -0.85417712 -0.02457135 0.20361477
-0.1074852 0.45214137 -0.21885428 0.2638759 -0.96452159 -0.008225251 0.1964128
-0.092093207 0.45851696 -0.21780688 0.28062174 -0.95981365 -0.0030412404 0.20849591
0.16893603 0.45593947 -0.21184465 -0.52054703 -0.85153192 0.062643252 0.23004061
0.17808026 0.45183384 -0.21083924 -0.50591236 -0.849388 0.15030888 0.15239288
-0.15141819 0.46319562 -0.21153605 0.42327726 -0.90582925 -0.017599331 0.1304291
-0.1383242 0.46861932 -0.21518785 0.40488064 -0.91356522 -0.038344666 0.13386407
-0.084893815 0.46138176 -0.21452133 0.27354094 -0.95797533 -0.086363241 0.16011885
-0.069160476 0.46363643 -0.21665244 0.65123975 -0.59018111 -0.47704619 0.22407952
-0.056708973 0.46527568 -0.21659513 0.21685642 -0.84684002 0.48562878 0.25632071
-0.033681169 0.46830735 -0.21928725 -0.076922469 -0.9966014 -0.029471779 0.19870935
-0.02621047 0.46929088 -0.21388744 0.24401902 -0.92824012 0.2807579 0.24660359
0.029183934 0.46889943 -0.2158263 -0.31066245 -0.94179946 -0.1284629 0.16052927
0.056697492 0.46527722 -0.21659164 -0.21161994 -0.97150463 -0.10675087 0.13715908
0.075529642 0.46279794 -0.2123819 -0.30076802 -0.9498291 -0.085809618 0.13665673
0.085769624 0.46113625 -0.21091898 0.36377338 -0.92752838 0.085790537 0.22248963
0.13999608 0.46792683 -0.21172966 -0.29893756 -0.95392281 0.025838649 0.1391312
0.14982104 0.46385717 -0.21248478 -0.50006807 -0.82693315 -0.25712547 0.24039641
-0.12446113 0.4743616 -0.21634692 0.22008526 -0.97541392 -0.011412196 0.15982227
-0.11770438 0.47716033 -0.21344306 0.28855497 -0.95515645 -0.066424929 0.27294397
-0.0032851221 0.47230905 -0.21432643 -0.12481855 -0.9918322 -0.026255226 0.16751917
-0.10388996 0.48288247 -0.21497694 0.17535938 -0.98386216 0.035559628 0.16563512
-0.083676994 0.48898369 -0.21827534 -0.27053779 -0.89987284 0.34210846 0.24748507
0.078162514 0.48970971 -0.21684283 -0.16070701 -0.96507877 0.2068727 0.18773995
0.092835031 0.48746157 -0.21919015 -0.22534543 -0.97363389 0.035446141 0.22639041
0.10342014 0.48307705 -0.21599531 -0.19060045 -0.98148 0.019196358 0.25053352
-0.071092457 0.49064049 -0.21803984 0.21621639 -0.89519894 0.38970411 0.23861592
-0.069119155 0.49090028 -0.21728398 0.31374967 -0.88745695 0.33761111 0.22151566
-0.053905636 0.4929032 -0.21547037 0.28220943 -0.94721812 0.15210411 0.20651728
-0.047393851 0.49376047 -0.21572658 0.16912769 -0.88940817 0.42467505 0.17864522
-0.027823869 0.49633694 -0.21877331 0.098986603 -0.96893138 0.22665782 0.20450425
-0.017988369 0.49763179 -0.21462603 -0.36741495 -0.92720169 0.072823428 0.20603491
0.021328714 0.49719203 -0.21455294 -0.11655024 -0.92836487 -0.35292295 0.16442017
0.045871407 0.49396092 -0.2174671 -0.15299784 -0.98494041 -0.080523714 0.070359901
0.05356475 0.49294809 -0.21670607 -0.24296919 -0.96782392 -0.065443628 0.213478
0.067338862 0.49113467 -0.21926293 -0.019861419 -0.99837542 -0.053404313 0.16832031
0.074268281 0.49022242 -0.21507601 -0.15360649 -0.9873479 0.039360113 0.13416477
-0.061767176 -0.38025603 -0.20329542 0.6966151 0.16982755 0.69705516 0.17573787
-0.014691666 -0.38412455 -0.20032698 0.42949885 0.27431422 0.86039674 0.2588042
-0.00015295856 -0.38428682 -0.20020244 0.012750819 0.59973466 0.80009729 0.14523579
0.037008919 -0.3819055 -0.20202973 0.35142031 0.079808675 0.93280989 0.28399986
0.041654218 -0.38120615 -0.20256633 -0.12447225 0.52923357 0.83929646 0.24038339
0.055800449 -0.38277602 -0.20130579 -0.54014134 0.314455 0.78061861 0.19169603
0.061624352 -0.38315797 -0.20050803 -0.6364246 0.47771722 0.60559887 0.18380377
-0.07640931 -0.37093738 -0.20144612 0.94090086 0.13164742 0.31204882 0.15712947
-0.048668578 -0.37269336 -0.20909844 0.044811536 0.50571239 0.8615374 0.17568533
-0.023753867 -0.37955713 -0.20383167 -0.070655487 0.55041748 0.83189452 0.19692528
-2.0874664e-05 -0.37807381 -0.20496988 -0.021148156 0.73565215 0.67702925 0.19588073
0.0039539435 -0.37563029 -0.20684485 -0.066318937 0.75539231 0.65190822 0.21788546
0.018889358 -0.37746465 -0.2054373 0.060708493 0.30308077 0.95102918 0.20540941
0.027698359 -0.37783223 -0.20515522 -0.093729489 0.5284307 0.84378648 0.14730097
0.067350522 -0.37379089 -0.20375082 -0.82384306 0.40463814 0.39692652 0.10937862
0.068971038 -0.36812207 -0.20579891 -0.87344241 0.40771359 0.26621056 0.11485936
-0.076873884 -0.35338145 -0.20025378 -0.90982765 0.10468344 0.40156555 0.11042915
0.071311176 -0.35426506 -0.20186734 -0.9972468 0.05439635 -0.050397005 0.063048609
0.069872171 -0.34609163 -0.20372091 -0.98602122 0.033143215 -0.16329022 0.048711296
-0.072503366 -0.33467838 -0.20678096 -0.62197351 0.52630752 0.5797838 0.092630401
-0.062695742 -0.33614779 -0.20302382 -0.37800127 0.7309472 0.56818247 0.1448296
-0.0558616 -0.33276588 -0.20437057 -0.3958053 0.51564598 0.75989962 0.18229169
-0.045000035 -0.335071 -0.2031593 -0.16740029 0.62912035 0.75906837 0.17948626
-0.036173731 -0.33064613 -0.20524859 0.011647458 0.46164143 0.88699019 0.22498061
-0.027524278 -0.33291173 -0.20431018 0.12557605 0.60747832 0.78434736 0.14052725
-0.016597381 -0.3360188 -0.20274563 0.66446269 0.38091946 0.64295381 0.23174442
-0.0068025235 -0.335985 -0.20253727 0.10495734 0.56071603 0.82132912 0.13502304
0.014708416 -0.33440766 -0.20342332 0.091546565 0.70571417 0.70255727 0.14262295
0.026643943 -0.33810318 -0.20157585 -0.91217309 0.40228206 0.078162991 0.21551695
0.04114766 -0.33430201 -0.20373429 -0.70134336 0.60837162 -0.3714855 0.16356407
0.066395231 -0.3347075 -0.20672093 0.72857797 0.31641933 0.60749727 0.13141684
-0.070608109 -0.32873988 -0.20770779 -0.64734536 0.40489933 0.64575583 0.10309482
-0.047964994 -0.32507849 -0.2075548 0.011156923 0.40526223 0.91413236 0.20266093
-0.036643557 -0.32387918 -0.20805156 0.43624026 0.55368757 0.70931268 0.2298452
-0.018455844 -0.32608277 -0.20713881 0.27170527 0.65341276 0.70656067 0.17171633
-0.0043939925 -0.32346228 -0.20822425 -0.2792125 0.50290501 0.81800175 0.23449792
0.011995666 -0.32263631 -0.2085664 -0.22414871 0.84468275 0.48607451 0.24984713
0.032680172 -0.32896248 -0.20594598 -0.0048538418 0.47445986 0.88026375 0.097039573
0.040490679 -0.32489479 -0.2076309 0.14911471 0.055314217 0.98727155 0.16680858
0.061567634 -0.3246294 -0.20821598 0.4554452 0.18843049 0.870094 0.097262144
-0.063667193 -0.20033699 -0.20267688 0.87856007 -0.2603316 0.40044934 0.23705013
-0.054865107 -0.20149583 -0.20277207 0.16466673 0.98289847 0.082434691 0.22036563
-0.033668134 -0.20428646 -0.20043907 0.054529697 0.95336616 -0.29684925 0.20439081
-0.022170369 -0.20580018 -0.20585008 0.33010066 0.84998775 -0.41055387 0.23244624
-0.0048938566 -0.20807466 -0.20548022 0.069569379 0.99753207 -0.0094795441 0.082352594
0.057656415 -0.20112833 -0.20238897 0.048044939 0.98283684 -0.17811061 0.24537511
0.060983747 -0.2006903 -0.20556226 -0.15195277 0.9758088 -0.1571863 0.13805954
-0.095871635 -0.1949227 -0.20629188 0.29087949 0.95537889 -0.05138338 0.063993044
-0.076479837 -0.19865018 -0.20673651 -0.044717245 0.99853683 0.03040633 0.16889697
-0.067355074 -0.19985148 -0.20998265 -0.24122252 0.94124031 -0.23638619 0.20982791
0.079433113 -0.19826138 -0.20168519 -0.20323423 0.97279799 -0.11117478 0.14868927
0.097349852 -0.1943104 -0.20384057 0.68802613 0.72448671 0.041701447 0.22557071
0.1039997 -0.19155595 -0.2011677 -0.55750167 0.81726366 -0.14584906 0.22475879
-0.12153643 -0.184292 -0.20807919 0.53921038 0.84201932 -0.015987214 0.24954239
-0.11510653 -0.18695535 -0.20637552 0.65711278 0.72445124 -0.2082624 0.22713524
-0.10794417 -0.18992209 -0.20715559 0.30400255 0.95220399 0.029832434 0.15778233
-0.010066785 -0.18013522 -0.20652482 -0.17587124 0.98089063 0.083203778 0.20846432
0.0066853184 -0.18058039 -0.20100784 -0.075994894 0.9960568 0.045778189 0.08585117
0.010012504 -0.18014236 -0.20059881 -0.098135233 0.99471569 0.030168198 0.07323882
0.11690563 -0.18621014 -0.20424534 -0.40536991 0.89399838 -0.19089849 0.28394818
0.12728915 -0.18190914 -0.20473531 -0.39741406 0.91695857 -0.035342529 0.18397661
-0.14604296 -0.17414108 -0.20342833 0.44728515 0.89100665 0.077738076 0.2290327
-0.13406409 -0.17910287 -0.20354214 0.42987093 0.90173936 -0.045574766 0.13530086
-0.071097106 -0.17210042 -0.20225245 0.37007287 0.90991956 0.18732984 0.26380342
-0.06400279 -0.17303441 -0.20507853 0.77880818 -0.24472775 0.57755178 0.23739189
-0.056016944 -0.17408577 -0.20415485 -0.31553328 0.61399502 0.72349769 0.25497299
-0.048607443 -0.17506124 -0.20374316 -0.053647395 0.9599936 0.27483499 0.2104757
-0.034305338 -0.17694415 -0.20456833 0.17650647 0.98409313 0.020154392 0.063100539
-0.025085274 -0.178158 -0.20725957 0.39278689 0.88851243 0.23720066 0.17928138
0.016165195 -0.17933235 -0.20199618 -0.067350186 0.99748152 -0.022238676 0.18658991
0.025881853 -0.17805311 -0.20893022 -0.10184574 0.98294157 -0.15314451 0.11679345
0.044250373 -0.17563486 -0.2018877 -0.088988245 0.99568963 0.026140086 0.13529904
0.053347133 -0.17443725 -0.20683509 0.0307272 0.99693239 -0.071984075 0.18251853
0.14934215 -0.17277449 -0.20281139 -0.1530468 0.98499185 0.079797864 0.20003405
-0.16349444 -0.16691244 -0.20682086 0.55825275 0.77981991 0.28325751 0.21665478
-0.10830852 -0.1605193 -0.20421824 0.91891491 0.32959872 0.21670313 0.18692382
0.097675458 -0.16492367 -0.20294595 -0.21241322 0.95584983 -0.20305584 0.24721137
0.10478711 -0.16197793 -0.20538765 -0.44967961 0.83628601 -0.31371006 0.16950373
0.16751023 -0.16524903 -0.20330159 -0.54649532 0.81801736 -0.17941722 0.16029587
-0.13198832 -0.15071081 -0.20037821 0.30515638 0.95097572 0.05024682 0.17015885
-0.12791932 -0.15239623 -0.20364755 0.20856631 0.97134286 -0.11398724 0.23678112
-0.1096898 -0.15994716 -0.20018764 0.67895508 0.72996086 0.078595422 0.17940114
0.11706197 -0.15689349 -0.20698099 -0.49544132 0.81812572 -0.29190442 0.21808413
0.12883085 -0.15201867 -0.20778692 -0.17794758 0.91972542 -0.34991422 0.22151583
0.13294047 -0.15031639 -0.20570672 -0.30246475 0.94827563 -0.096376017 0.25760773
0.1856207 -0.15476683 -0.20498005 -0.39660361 0.91037828 -0.11796977 0.21168756
-0.19895703 -0.14453351 -0.20988189 0.65049416 0.73467672 0.19263306 0.21372509
-0.14482161 -0.14539507 -0.20600381 0.48996982 0.81851685 0.29993284 0.23897976
-0.13626611 -0.14893886 -0.20716278 0.29708767 0.95103347 0.085289098 0.21623942
0.13738248 -0.14847645 -0.20546168 -0.14597251 0.97224355 -0.18285054 0.22683041
0.15565135 -0.14090924 -0.2068896 -0.51848572 0.81939512 -0.24446735 0.2173858
0.1984385 -0.14493136 -0.20502543 -0.47432193 0.87994891 0.026621291 0.15612677
-0.17094523 -0.13196315 -0.20831552 0.57535547 0.81786585 0.0078455713 0.16075292
-0.15788914 -0.13998231 -0.2040485 0.57088941 0.81973362 0.046064917 0.18874291
0.17082173 -0.13205791 -0.20962746 -0.31784686 0.94302386 0.098384418 0.23643008
0.20592238 -0.13918878 -0.20633507 -0.65037912 0.75720483 0.060397577 0.094576731
0.21275879 -0.13394302 -0.20059681 -0.6320104 0.77318442 -0.052428998 0.10497838
-0.22790413 -0.12232159 -0.20991933 0.52777666 0.849078 0.022766875 0.25197288
-0.180675 -0.12449725 -0.20645076 0.54142731 0.83073252 -0.12938246 0.12749983
0.17851916 -0.12615147 -0.20217857 -0.60925496 0.78630632 0.10261888 0.27037328
0.22526325 -0.12434801 -0.20374826 -0.7176975 0.69583744 -0.026843067 0.15847109
0.23047887 -0.12034594 -0.20881854 -0.67111713 0.74070024 -0.031063857 0.13289627
-0.24012837 -0.11294161 -0.20822898 0.29641116 0.94594938 0.1316064 0.21836476
-0.19778304 -0.11136977 -0.20885943 0.6131767 0.78992236 -0.0060844417 0.11453665
0.23216999 -0.11904828 -0.20486431 -0.5938859 0.80454457 -0.0027627377 0.089631222
0.24103761 -0.11224392 -0.20495123 -0.6645456 0.74636054 0.036403105 0.08160048
-0.25321218 -0.10148608 -0.20535824 0.79079098 0.57554501 0.20832103 0.18279707
-0.24757598 -0.10722685 -0.20523596 0.66240603 0.73740864 0.13208638 0.12383269
-0.21051383 -0.10160109 -0.20831722 0.5407002 0.83769494 -0.076879397 0.15950823
-0.20243308 -0.10780168 -0.2046084 0.53319246 0.84539551 0.031815812 0.17657848
0.2535581 -0.10103527 -0.20060673 -0.71981621 0.69340581 0.032450125 0.15269227
-0.26140183 -0.09081316 -0.20664951 0.67288846 0.55584031 0.48812154 0.16841908
-0.25719297 -0.09629824 -0.20642805 0.79514056 0.5983358 0.098720402 0.10259403
-0.21503258 -0.098133743 -0.20399591 0.1104938 0.93536049 -0.33599392 0.241888
0.21413246 -0.098824434 -0.20121299 -0.76546842 0.64058673 -0.060882248 0.20070255
0.25776514 -0.095552564 -0.20665777 -0.74455291 0.66728622 0.019238634 0.21581788
0.26031131 -0.092234336 -0.20460558 -0.80203003 0.59728348 0.00058444677 0.23912792
0.22832985 -0.087930389 -0.20579948 -0.75189739 0.65916687 -0.0122204 0.21329531
0.23548436 -0.08019565 -0.20631287 -0.75981289 0.60772085 0.23099738 0.23434685
0.26739684 -0.083000273 -0.20838152 -0.82436049 0.56354529 0.053352877 0.24398687
-0.27553093 -0.072399721 -0.20248409 0.74542499 0.66541851 -0.03949349 0.23000057
-0.2393084 -0.075212084 -0.20838146 0.96879679 0.14424458 0.20155945 0.23238446
0.24081895 -0.073243499 -0.20724173 -0.55551124 0.71611911 0.42258823 0.20737013
0.27511463 -0.072942272 -0.20839208 -0.76813912 0.61742562 0.16955179 0.17434755
-0.28113538 -0.065095887 -0.20284995 0.616593 0.78682923 -0.026700828 0.14852804
0.24898106 -0.062606432 -0.20441286 -0.3166149 0.72520781 0.61141533 0.21010174
0.25038072 -0.060782366 -0.2074523 -0.27091008 0.8001073 0.5351972 0.21518347
0.27817717 -0.068951078 -0.20743117 -0.73136991 0.67802519 0.073348612 0.10750093
-0.29009324 -0.05342178 -0.20602474 0.81440747 0.57254964 0.094485156 0.1445577
-0.25688776 -0.052302219 -0.20255077 0.6928131 0.70587426 0.14748403 0.24926433
0.29173046 -0.051288091 -0.20367356 -0.77313054 0.63308483 0.038376074 0.12827659
-0.29684609 -0.044621281 -0.20746192 0.76938224 0.63639826 -0.055210877 0.19290435
0.29885748 -0.041999958 -0.20429888 -0.84061265 0.53795654 0.063032582 0.063467905
-0.30571359 -0.033064906 -0.20363268 0.80873299 0.58517087 0.059380084 0.076812685
-0.27233338 -0.032173105 -0.20281091 0.042377576 0.97829622 0.20283176 0.19363844
-0.26933366 -0.036082387 -0.20773816 0.78967869 0.61299866 0.025302107 0.18941674
-0.31025675 -0.023397364 -0.20667951 0.91747302 0.39555919 0.042144813 0.086639702
-0.30768573 -0.029604474 -0.20839241 0.79224408 0.60819781 -0.049445484 0.088195652
-0.27826613 -0.024441393 -0.20589131 0.71645451 0.58020556 0.38736856 0.23131119
0.30912951 -0.026118843 -0.20933799 -0.81929266 0.55127543 0.15765408 0.20674878
0.31076714 -0.022165148 -0.20299484 -0.9801988 0.19541806 0.031971034 0.17969535
-0.31401843 -0.01431592 -0.20650668 0.95186728 0.29612595 -0.079108596 0.16399674
0.28508243 -0.013553335 -0.20545857 -0.91826969 0.31523666 0.23959675 0.17416887
-0.31947279 -0.001147924 -0.2037307 0.85194123 0.52245539 -0.035164278 0.17357264
-0.29017025 -0.0012702802 -0.20367002 0.81753004 0.57156742 0.070394203 0.17876014
-0.2879779 -0.0065630646 -0.20672783 0.85476196 0.5110957 -0.09035074 0.16763708
0.28989995 -0.001922803 -0.20803314 -0.97920138 0.20289029 0.00053122686 0.14459084
-0.29222378 0.0036874148 -0.20747057 0.95627153 0.29174215 0.0207686 0.13181213
0.29106838 0.00089800335 -0.20157161 -0.92239469 0.38624766 0.00087219576 4.5551926e-05
0.32242674 0.0059835631 -0.20096777 -0.90727812 0.41604626 0.061253395 0.11946175
-0.32589498 0.014356644 -0.20226087 0.88653696 0.4466331 0.12071081 0.17346261
0.32650331 0.015825259 -0.20857666 -0.94959193 0.31336492 0.008816517 0.21513876
-0.33044949 0.025352165 -0.20416087 0.92497724 0.36577249 0.10308981 0.17792207
-0.32903409 0.021935005 -0.20696992 0.91891003 0.39106902 0.051666215 0.2108565
-0.30005428 0.022591887 -0.20764124 0.84370035 0.52011496 -0.1328539 0.2117904
0.2994329 0.021091778 -0.20710878 -0.93632621 0.33828816 0.094097041 0.14675558
0.33050126 0.025477137 -0.20745154 -0.90050745 0.37988931 -0.21159029 0.16301665
-0.33463636 0.035460167 -0.20449264 0.85792458 0.51248229 -0.036432534 0.1977502
-0.30488068 0.034243852 -0.2060325 0.89552468 0.4443863 -0.023591299 0.24831089
0.30459851 0.033562683 -0.20009063 -0.9986251 0.014212447 0.05045699 0.23738785
0.3358936 0.038495429 -0.20932758 -0.95295691 0.26993486 -0.1378704 0.20794128
-0.33910346 0.046244711 -0.20439374 0.9544518 0.29821244 -0.0095389336 0.12786287
-0.30834639 0.042610876 -0.20049506 0.95062345 0.29981208 -0.080173805 0.16356134
0.30911434 0.044464808 -0.20381771 -0.50706017 0.80729634 -0.30193144 0.25917783
0.3106859 0.048258938 -0.20344993 -0.78461093 0.58900177 -0.19355254 0.25168744
0.33875373 0.045400277 -0.20063908 -0.94975656 0.2853311 -0.12864183 0.24149434
0.34015837 0.048791487 -0.20850489 -0.95308614 0.28059855 -0.11353958 0.18743108
-0.31529897 0.059395812 -0.20156594 0.92767841 0.16057625 0.3370876 0.2209494
-0.31697235 0.068705119 -0.20722556 0.95041412 0.31011832 0.023229647 0.16926071
0.31651521 0.065232858 -0.2075121 -0.99157906 0.12153769 -0.044716194 0.12743033
-0.34509271 0.075252444 -0.20370251 0.83019114 -0.21919452 -0.51257819 0.22223294
-0.31794491 0.07609266 -0.20335659 0.87129664 0.41309628 0.26494092 0.22301309
-0.31920826 0.085688576 -0.20162886 0.99984735 -0.0028241423 -0.017245136 0.20488568
0.31905556 0.084528826 -0.20604849 -0.99591768 0.067799069 0.059592936 0.18457271
0.34600368 0.082171887 -0.20366049 -0.67158896 -0.67244887 0.31109616 0.2293767
-0.34821475 0.098966606 -0.20269001 0.94478446 0.08279299 -0.31706068 0.23129746
-0.31992364 0.091122642 -0.20231465 0.97635901 0.015663849 -0.21558696 0.20004769
0.31988785 0.090850726 -0.205577 -0.96635723 0.11340825 0.23085113 0.21275827
0.32063487 0.096524909 -0.20635138 -0.92713827 -0.15004109 0.34336895 0.20986082
0.34803694 0.097616009 -0.20708056 -0.16955662 -0.10918129 0.97945398 0.24068525
-0.32214394 0.10798737 -0.20455094 0.97614187 0.15518138 -0.15187435 0.19122203
-0.35068163 0.11770443 -0.20147724 0.96257222 0.17601272 0.2060927 0.17425804
-0.32276666 0.11271732 -0.2081221 0.95817846 0.2738629 -0.083025016 0.24012053
0.32282436 0.11315578 -0.20556714 -0.96801007 0.23907337 -0.076160684 0.19436847
0.35057616 0.11690348 -0.20673209 -0.99935514 0.028159665 0.02227697 0.20066223
-0.35193893 0.12725441 -0.2068367 0.99827278 0.031391263 -0.049659748 0.15976612
-0.32423106 0.12384087 -0.20948547 0.99792409 -0.028090585 0.057951801 0.18108463
0.32441849 0.12526441 -0.20728922 -0.99754077 0.066125825 -0.023236739 0.15195452
0.35187998 0.1268068 -0.2069668 -0.81590015 0.18131422 0.54902834 0.25024256
-0.35294634 0.13490659 -0.20473306 0.99216098 0.10826387 -0.062414631 0.15597817
-0.32570076 0.13500413 -0.2081652 0.99540424 0.095761739 0.0004025005 0.13893868
0.32598469 0.13716084 -0.20658588 -0.99281418 -0.088869862 0.080139108 0.18666676
0.35298973 0.13523641 -0.20842624 -0.93323171 -0.28900254 -0.21343865 0.16984862
-0.35418898 0.14434554 -0.200855 0.9983297 -0.025493493 0.051843807 0.12317353
-0.32678968 0.14327523 -0.20589678 0.85479736 -0.5157423 0.057718843 0.18650778
0.32684615 0.14757654 -0.2099323 -0.99130547 -0.13075592 0.014711233 0.1300568
-0.32630423 0.15169285 -0.20881 0.99891812 -0.03679369 0.028438132 0.16223657
0.32594573 0.15441608 -0.20393889 -0.99567729 0.092879616 -0.0003860014 0.078162
-0.35204875 0.16319224 -0.2040132 0.98097593 -0.15943664 0.11075261 0.19573617
-0.35102329 0.17098136 -0.20652419 0.9000448 -0.43101832 0.064363748 0.17953193
-0.32306087 0.17632867 -0.20935658 0.99266618 -0.071608871 0.097396433 0.14074562
0.32368585 0.17158154 -0.20502771 -0.98924911 0.0034356867 0.14619982 0.18283981
0.35060796 0.17413625 -0.20222294 -0.98510587 0.082851931 -0.15067224 0.17426963
-0.32224709 0.18251006 -0.20205447 0.98697597 0.12690973 0.098854795 0.15754603
0.34905529 0.18592975 -0.20224853 -0.95821822 0.20696901 0.19743745 0.18790774
-0.34789613 0.19473448 -0.20188439 0.97073627 -0.15178208 0.18610023 0.13268068
-0.32042289 0.19636646 -0.20962739 0.9754687 -0.14496422 0.16566934 0.094400525
0.34675795 0.20337996 -0.2074126 -0.93947136 -0.32866463 -0.096814074 0.15824591
-0.3454262 0.21349536 -0.20286773 0.61049187 0.54048944 0.57893938 0.22720252
-0.31783408 0.21603031 -0.20057338 0.71819305 -0.64926702 0.25030208 0.1882572
0.31803322 0.2145175 -0.20538524 -0.94808888 -0.26284465 0.17899759 0.13767473
0.34498563 0.21684158 -0.20216413 -0.50960618 0.11955397 0.85206127 0.23177649
-0.34369659 0.22663304 -0.20023322 0.99893808 -0.035152502 0.02978085 0.14735851
0.31660476 0.22536808 -0.20456837 -0.059202533 -0.53150237 0.84498537 0.22358184
-0.31368187 0.23578927 -0.2077693 0.94907063 -0.021189498 -0.31435004 0.16206591
0.31357589 0.23604512 -0.20558816 -0.78961807 -0.38915038 0.4744105 0.26789102
0.34239125 0.23607442 -0.2052362 -0.9668417 -0.24658558 -0.066427857 0.12866002
-0.33826363 0.24706383 -0.20771866 0.92916089 -0.35893762 -0.088452734 0.17240433
-0.3106792 0.24303828 -0.20345202 0.57813925 -0.2540192 -0.77538973 0.22224401
0.3111825 0.24182327 -0.20156136 -0.97633445 -0.2096456 0.053101521 0.21864659
0.33932954 0.24449056 -0.2028859 -0.97857368 -0.19306491 -0.071549721 0.16507946
0.34059367 0.24143864 -0.20290643 -0.95537275 -0.281288 -0.090221196 0.17157538
-0.33425236 0.25674793 -0.2085513 0.95243663 -0.25644416 -0.16462332 0.24196398
-0.3047559 0.25733846 -0.20665523 0.88907498 -0.43200013 -0.15139849 0.22138545
0.30530155 0.25602114 -0.20493372 -0.72515196 -0.64315933 0.2459693 0.22066101
-0.33086246 0.26493189 -0.20309462 0.9292056 -0.25600812 -0.26652756 0.23499353
0.30136585 0.26552275 -0.20441535 -0.89576739 -0.37167376 0.24384283 0.19861764
0.33236676 0.26130012 -0.20917347 -0.90605295 -0.42313096 0.0053227204 0.15885763
-0.32561472 0.27760103 -0.20793965 0.86309052 -0.48566785 0.13856933 0.20483181
-0.2969327 0.27622533 -0.20140857 0.90439808 -0.42513192 0.036426898 0.22339486
0.29755986 0.27471119 -0.20160437 -0.90644538 -0.40855575 0.10695294 0.18423294
0.32869634 0.2701613 -0.20738283 -0.93751848 -0.31117466 0.15565775 0.21905716
-0.32242098 0.28531134 -0.20589833 0.89481497 -0.39710411 -0.20399642 0.23560239
-0.29470849 0.28159505 -0.20313226 0.95063573 -0.29857084 0.084540389 0.1879223
0.29308426 0.28551626 -0.20632029 -0.1979363 -0.69239658 0.69383591 0.21778318
0.322824 0.28433847 -0.20651472 -0.90270191 -0.42992371 -0.017171254 0.19069436
0.28748626 0.29903102 -0.20415121 -0.89918911 -0.4260681 0.099623911 0.22925414
0.31761134 0.29692292 -0.20785177 -0.93190533 -0.36122736 0.032669935 0.110466
0.32036525 0.29027432 -0.20112345 -0.94735837 -0.30002794 -0.11178222 0.18740152
-0.3149063 0.30345348 -0.2051266 0.95114547 -0.3087385 0.001713997 0.073559381
0.28581357 0.30306929 -0.205192 -0.83331674 -0.49868616 0.23852701 0.22126153
0.31423083 0.30508414 -0.20304215 -0.71027988 -0.69978666 0.076164514 0.24190296
-0.31188154 0.31075591 -0.20648253 0.88451141 -0.46603641 0.021204397 0.12885553
-0.308478 0.31897274 -0.20506898 0.75812536 -0.64079088 -0.12096671 0.17724739
-0.28031379 0.31305385 -0.20044413 0.33295864 -0.92827076 -0.16568638 0.24789308
-0.27741373 0.31683332 -0.20485699 0.85007465 -0.51315939 0.1184928 0.24702804
0.27964321 0.3139278 -0.20260522 -0.70889521 -0.70441633 -0.035570487 0.2201509
0.28028023 0.31309763 -0.20679507 -0.55883807 -0.82925898 0.005433959 0.2559028
0.30872533 0.31837556 -0.20714344 -0.45673209 -0.74087727 0.49243951 0.28450367
-0.30755979 0.32118949 -0.20237052 0.81336331 -0.56373906 -0.14366066 0.16137026
-0.27162954 0.3243714 -0.20270133 0.81763327 -0.56866348 -0.089987591 0.17236491
0.30399662 0.32658353 -0.20515965 -0.91931546 -0.35071608 0.17848605 0.23217605
-0.29762924 0.33488169 -0.20229861 0.91456044 -0.39933687 -0.064102702 0.18321274
-0.26235393 0.33645958 -0.20410302 0.83795857 -0.54122102 -0.070037141 0.11467496
0.26119375 0.3379716 -0.20414442 -0.90844023 -0.093121737 -0.40751046 0.26451662
-0.29303756 0.34086567 -0.20879233 0.87081623 -0.4883855 0.056201398 0.1674457
-0.25904259 0.34077501 -0.20206015 0.794824 -0.60589564 -0.033840008 0.17021994
0.28874049 0.34646571 -0.2093768 -0.73354447 -0.67920071 0.024469987 0.11636983
-0.28015015 0.35766092 -0.20782512 0.6906743 -0.71889973 -0.078435868 0.15880343
-0.25082451 0.35148501 -0.20835161 0.81367713 -0.5748179 -0.086682916 0.17297864
0.24744116 0.35589427 -0.20037225 -0.86529261 -0.45616451 -0.20780432 0.10571953
0.27954563 0.35844868 -0.20991689 -0.82730961 -0.56012636 0.042629939 0.1592263
-0.23905739 0.36682022 -0.2069861 0.47153619 -0.63802946 -0.60874623 0.23881765
0.23992521 0.36568925 -0.20041057 -0.63227749 -0.69230258 -0.34776771 0.21856277
0.27814722 0.3602711 -0.20304206 -0.72031039 -0.63416934 -0.28103766 0.2272722
-0.23233618 0.37557948 -0.20749871 -0.19096643 -0.65615058 -0.73006725 0.21470751
-0.22873424 0.37890115 -0.20606509 0.15956421 -0.80872923 -0.56612402 0.22729035
0.23313601 0.37453711 -0.20299582 0.22682099 -0.57777011 -0.78404969 0.20951736
0.26659966 0.3753202 -0.20669597 -0.75770479 -0.63813156 -0.13664383 0.1117934
-0.26083207 0.3828367 -0.20477244 0.72327375 -0.68190223 -0.10901577 0.20334469
-0.25685146 0.38802439 -0.20305614 0.74195099 -0.66279966 0.1010218 0.22503878
-0.2233066 0.38306594 -0.20636824 0.53968835 -0.82343692 -0.1751806 0.21606539
0.21793854 0.38718498 -0.20473303 -0.33982074 -0.93810278 -0.066970974 0.25766778
0.25734448 0.38738179 -0.2042349 -0.83186257 -0.36331108 -0.41953519 0.16009918
0.26273918 0.38035136 -0.20859466 -0.78309 -0.59216785 -0.1900191 0.10253962
-0.24753352 0.39854047 -0.20290554 0.70646352 -0.69995075 0.10477713 0.16595472
-0.20642245 0.39602154 -0.20096514 0.53321517 -0.8449676 0.041368823 0.095637739
0.20380652 0.39802885 -0.2052196 -0.8388108 -0.54442304 -0.0002499831 0.18770097
0.21069151 0.39274576 -0.20668019 -0.77667832 -0.58014733 0.24535654 0.23498787
0.24987227 0.39674589 -0.2081082 -0.69515115 -0.71744114 -0.045199636 0.18314527
0.25287175 0.39321083 -0.20442645 -0.74976414 -0.65555489 -0.090008833 0.1639827
-0.2427749 0.40219191 -0.20546539 0.7529096 -0.61685926 0.22937283 0.25125149
-0.19905558 0.40167439 -0.20689607 0.59660369 -0.80104405 -0.048913777 0.1233272
0.23351564 0.40929678 -0.20283824 -0.59092474 -0.80152249 0.091485858 0.19038521
0.24549897 0.40010166 -0.20870872 -0.71073216 -0.67534029 -0.19691421 0.2002767
-0.22596586 0.41508994 -0.20182416 0.62222314 -0.7646727 -0.16767228 0.16134207
-0.18300986 0.41398668 -0.2092717 0.50828516 -0.86118829 0.0009532008 0.16338912
-0.17641415 0.41904774 -0.20678943 0.61006081 -0.79121459 0.042487722 0.1327651
0.18500276 0.41245747 -0.20504718 -0.51109105 -0.84504056 -0.15713781 0.13420129
0.22330441 0.41713214 -0.20489515 -0.48674735 -0.87332648 -0.019439228 0.18351041
0.23151019 0.41083562 -0.20358966 -0.59126574 -0.80131322 0.09111432 0.19051772
-0.21467856 0.42375097 -0.20934027 0.70767909 -0.68634409 0.16769694 0.17896777
0.17453958 0.42048615 -0.20493698 -0.23190029 -0.89201516 0.38798359 0.20946746
0.20743774 0.42930704 -0.20631756 -0.60989904 -0.77691108 0.15630837 0.23251151
0.21422021 0.42410266 -0.20984791 -0.62281132 -0.78004438 0.060305782 0.19149418
-0.20492679 0.43123376 -0.20388362 0.058634181 -0.99182349 -0.11334997 0.17311771
-0.19486493 0.4389545 -0.20064618 0.19258298 -0.86099035 0.47075191 0.1870628
-0.15395451 0.43289319 -0.20975897 0.57536185 -0.81789505 -0.0025255773 0.12863454
-0.14723656 0.4356758 -0.20638198 0.32454279 -0.93519187 -0.1417325 0.18134549
-0.13879335 0.4391731 -0.20566328 0.41268238 -0.90978849 -0.044476587 0.1270584
0.14735852 0.43562531 -0.2054579 -0.52128917 -0.8525874 -0.03677465 0.21874356
0.1537959 0.43295884 -0.20074996 -0.66563886 -0.64914823 -0.368146 0.22454447
-0.12591214 0.44450864 -0.20167087 0.30084157 -0.92919934 0.21466912 0.21348512
0.11926732 0.44726107 -0.2003632 -0.58847326 -0.8083539 -0.016222445 0.18581921
0.13507943 0.4407115 -0.208922 -0.34749088 -0.93489844 -0.072214685 0.23925236
0.18177438 0.44899923 -0.20652819 -0.53824538 -0.84158623 -0.044994891 0.17533992
-0.16305912 0.45837379 -0.20855594 0.45913035 -0.88825357 -0.014317495 0.17214651
-0.10750544 0.45213303 -0.20170863 0.23180695 -0.96742082 -0.10179627 0.19866176
0.089096874 0.45975807 -0.2050893 0.30096588 -0.94479859 -0.12951908 0.21984106
0.15992826 0.4596706 -0.20191255 -0.32874927 -0.87445438 -0.35672599 0.2203408
0.1634344 0.45821831 -0.2033949 -0.68806338 -0.72038621 -0.087249495 0.22572821
0.17786004 0.45200282 -0.20445409 -0.55210179 -0.83340961 0.024741344 0.14102159
-0.14378674 0.46635664 -0.2048724 0.39020076 -0.92014676 -0.03276268 0.12586924
-0.078489795 0.46240819 -0.20582771 0.26853999 -0.96280599 -0.029847743 0.14091952
-0.05138785 0.46597624 -0.20414254 0.11892149 -0.96293277 -0.24211173 0.2189375
-0.034027845 0.46826172 -0.20471178 0.41937703 -0.86089778 0.28805879 0.2468223
-0.026650118 0.46923304 -0.20307285 0.27575898 -0.90758765 0.31660956 0.21118303
0.021964915 0.46984982 -0.20785999 -0.058051981 -0.99831265 -0.0013371164 0.18459991
0.03535752 0.46808666 -0.20104671 -0.17833994 -0.98396111 -0.0039144508 0.16255045
0.048151385 0.46640232 -0.20606384 0.20860583 -0.97798777 0.0048425081 0.21667208
0.060729906 0.46474633 -0.20030265 -0.21840735 -0.97536403 -0.031038214 0.12328529
0.079280287 0.46230417 -0.20236942 0.06288854 -0.99643475 -0.056239791 0.20341247
0.081508301 0.46201083 -0.20445725 -0.071606323 -0.99103957 0.11275208 0.19578905
0.13551773 0.46978176 -0.20652825 -0.18283322 -0.97241127 0.14487402 0.23739953
0.14756973 0.46478963 -0.20205691 -0.043460507 -0.98799026 -0.14827827 0.24893703
0.15390033 0.46216747 -0.20276693 0.1007607 -0.99243897 -0.070087641 0.28215116
-0.13119194 0.47157359 -0.20047997 0.54960245 -0.82035285 -0.15798236 0.16302022
-0.12307598 0.47493535 -0.20472483 0.37375495 -0.925659 -0.058843561 0.14363614
-0.11653799 0.47764346 -0.20551109 0.37828666 -0.92463499 -0.044149917 0.063506998
-0.01278484 0.47105843 -0.20746692 -0.2944811 -0.75908804 0.58057398 0.16335872
-0.00071843213 0.47264698 -0.20547923 -0.21552227 -0.65607661 0.72326595 0.12992242
