# .PCD v0.7 - Point Cloud Data file format
VERSION 0.7
FIELDS x y z normal_x normal_y normal_z curvature
SIZE 4 4 4 4 4 4 4
TYPE F F F F F F F
COUNT 1 1 1 1 1 1 1
WIDTH 589
HEIGHT 1
VIEWPOINT 0 0 0 1 0 0 0
POINTS 589
DATA ascii
-0.12294331 0.41698492 0.14661302 0.41700107 -0.90630543 -0.068706609 0.095808238
-0.11571253 0.41997993 0.14760846 0.34271687 -0.93761599 -0.058491774 0.082966767
0.11932878 0.41848212 0.1474513 -0.35519925 -0.93468714 0.013908437 0.10957862
0.12404478 0.41652864 0.14112905 -0.35842687 -0.93346512 0.01315737 0.11372676
0.15720774 0.41555512 0.14428025 -0.57002217 -0.81323516 0.11714686 0.081347883
0.16175565 0.41206539 0.14178957 -0.54648322 -0.83710653 0.024672875 0.091442622
-0.11422314 0.4205969 0.14693493 0.37149942 -0.92810893 -0.024536403 0.086290024
-0.10939634 0.42259622 0.14071038 0.38414955 -0.92259502 0.035319999 0.088074818
0.099959187 0.42650527 0.14203154 -0.41713506 -0.90884304 -0.0016658864 0.093140669
0.10615622 0.42393833 0.14515963 -0.31394961 -0.94901556 0.028374132 0.09223748
0.1143705 0.42053586 0.14217 -0.25428483 -0.96712929 0.00023752995 0.090974815
0.12953793 0.42828125 0.14680521 -0.37000987 -0.92879516 -0.020792682 0.10908717
0.1336965 0.42655873 0.14506069 -0.32293403 -0.94579256 -0.034496751 0.092276923
-0.12410052 0.43053353 0.14945766 0.37879074 -0.92336136 -0.062620468 0.092691451
-0.11483669 0.43437076 0.1444466 0.42931625 -0.90304542 -0.014021988 0.093764938
-0.1045487 0.43863216 0.14381123 0.4897621 -0.87077343 0.043436673 0.10026145
-0.090892106 0.43026096 0.14690952 0.42513189 -0.90471971 0.027296806 0.08452031
-0.088505246 0.43124959 0.14684522 0.39951015 -0.91562754 0.044921435 0.09139806
-0.075001277 0.43652159 0.14179032 0.18137704 -0.95804739 0.22191803 0.080955461
-0.067868844 0.4374606 0.14604977 0.22373213 -0.95309448 0.20385005 0.094751418
0.054912854 0.43916634 0.14832403 -0.17523821 -0.98344362 -0.046153802 0.087005965
0.064012073 0.43796837 0.1456795 -0.12850119 -0.99059433 -0.047013011 0.099320829
0.088291481 0.43133813 0.14441812 -0.38999662 -0.91968721 -0.045585983 0.094891429
0.11235467 0.43539882 0.14419281 -0.35330948 -0.93550599 0.00093139458 0.098080687
0.1228481 0.4310523 0.14560181 -0.31600651 -0.94853675 -0.02044457 0.10487062
-0.092666633 0.44355386 0.14140236 0.30910298 -0.93276608 0.18548 0.089264184
-0.042735294 0.44076949 0.14857097 0.17055213 -0.98534632 0.0021606532 0.10156531
-0.033196494 0.44202536 0.14732507 0.085820816 -0.9866609 -0.13832934 0.10101176
-0.024709065 0.44314274 0.14584585 0.010378796 -0.99130416 -0.13118052 0.083631597
-0.0017864672 0.44616058 0.14075089 0.014037884 -0.99959123 -0.024906661 0.11369147
0.004607772 0.44578916 0.14069387 -0.027655531 -0.99782866 0.059776027 0.10439323
0.027548838 0.44276887 0.1433735 -0.10864968 -0.98723048 0.11649567 0.090469792
0.039327558 0.4412182 0.14310515 -0.18170698 -0.98115551 0.065699279 0.090680145
0.047137044 0.44019002 0.1420024 -0.16905499 -0.98417878 0.053032391 0.10329126
0.075257346 0.44955987 0.14396715 -0.16742598 -0.98516852 -0.037568897 0.087794118
0.085798688 0.44639868 0.14184421 -0.29862878 -0.95285791 -0.053688809 0.088899709
0.0928334 0.44348478 0.14070065 -0.34316719 -0.93619204 -0.076031551 0.086052813
-0.070817761 0.45014441 0.14747199 0.14336877 -0.97448909 0.1726746 0.10008533
-0.055081476 0.45221609 0.14527862 0.2148068 -0.97392905 0.07294061 0.081549451
-0.041004755 0.45406932 0.14570305 0.19379762 -0.97474867 -0.11093897 0.089357898
-0.01348654 0.45769215 0.14157379 0.10261659 -0.98956823 -0.10111616 0.088861927
0.0026223024 0.45912242 0.14826864 0.066129804 -0.99774373 0.011595924 0.089447498
0.01424188 0.4575927 0.14204343 -0.083122388 -0.9929589 0.08439973 0.091945775
0.029361859 0.45560214 0.14448215 -0.10048879 -0.98871231 0.11113029 0.093720689
0.037794195 0.454492 0.14538363 -0.12327348 -0.99186105 0.031863812 0.091768242
0.054732427 0.45226204 0.14665744 -0.22133997 -0.97068495 0.093697853 0.093244866
0.0037971339 -0.41133228 0.1507946 -0.043145336 0.94235927 -0.33180946 0.0034450083
0.011914603 -0.41019934 0.15151198 -0.23128325 0.91209012 -0.33852562 0.0017872748
-0.02927587 -0.40328166 0.15562174 0.36645454 0.86727548 -0.3369633 0.0038756642
-0.017715234 -0.40695074 0.15688039 0.21752979 0.92061406 -0.32426912 0.0032146447
0.0051388238 -0.40794027 0.15979221 -0.052483067 0.93276596 -0.35664153 0.0058159921
0.02495406 -0.4053953 0.15462567 -0.31293502 0.89174455 -0.32689986 0.001904736
0.033509836 -0.40053758 0.15828463 -0.36818457 0.87090838 -0.32551306 0.0057886774
-0.042313106 -0.39895058 0.1517625 0.5989446 0.74935579 -0.28236744 0.019624067
0.037623867 -0.39918521 0.15730543 -0.43682423 0.84881723 -0.29781529 0.0064062891
0.04058646 -0.3985548 0.15566921 -0.63282537 0.71421289 -0.29905182 0.023494976
-0.054549474 -0.3840273 0.15323152 0.89626235 0.43484163 -0.087330095 0.039073016
0.053257741 -0.38574278 0.154466 -0.88770425 0.43751657 -0.14338872 0.029202946
-0.056208946 -0.37636378 0.1561227 0.98834163 0.1387663 -0.062648594 0.031297598
0.056371853 -0.37425381 0.15776995 -0.9801172 0.17653522 -0.090584725 0.033684921
-0.055190723 -0.36483037 0.15366587 -0.96073931 0.26940033 -0.066358581 0.031997576
0.054500062 -0.36211857 0.15474989 0.87412125 0.47716004 -0.090720877 0.03908683
-0.050373517 -0.35405445 0.15606236 -0.81750888 0.55638522 -0.14870992 0.034194741
0.048043273 -0.35359916 0.15109903 0.70602375 0.68073976 -0.19525327 0.028559886
-0.045165457 -0.34817171 0.15842362 -0.65183228 0.74162376 -0.15845795 0.022260569
-0.028230976 -0.34169737 0.15446071 -0.34713984 0.88688308 -0.30484799 0.0071919938
0.027854979 -0.34172994 0.15397643 0.36034614 0.88293433 -0.30096102 0.006504341
0.034968898 -0.34392065 0.15599215 0.52677488 0.80904299 -0.26068708 0.015684294
-0.0030370653 -0.33510882 0.15621674 -0.01067901 0.95278096 -0.30347073 0.00860848
0.017517744 -0.33794603 0.15441263 0.19438066 0.92896682 -0.31501865 0.0031825867
0.022676047 -0.33994198 0.15334719 0.26376605 0.90258634 -0.34024322 0.005549531
-0.03291218 -0.20024547 0.15546466 -0.36716291 -0.29295844 -0.88281751 1.7941382e-05
0.03315575 -0.20934568 0.15858418 0.37043142 -0.29897675 -0.87942791 3.3882286e-06
-0.038486809 -0.19592419 0.15634829 -0.36716291 -0.29295844 -0.88281751 1.7941382e-05
0.03186873 -0.19994138 0.15493491 0.3723672 -0.29646054 -0.8794623 0
0.040477939 -0.19292492 0.15619367 0.36729142 -0.29229906 -0.88298267 5.4451643e-06
-0.027981807 -0.15136792 0.15417066 0.22497405 0.97417736 -0.019108575 0.090365589
-0.014055989 -0.15320604 0.15281935 0.17268857 0.98485309 -0.015589414 0.095688544
0.033292025 -0.15066123 0.15374243 -0.098947108 0.99118114 -0.088143505 0.081846692
-0.090149887 -0.1401629 0.15276529 0.34345722 0.93640572 -0.071982555 0.093567215
-0.084981248 -0.14230382 0.15635926 0.31047517 0.95033735 -0.021541363 0.091135643
-0.077104352 -0.14488411 0.15190583 0.23980728 0.96608967 -0.09572538 0.10357485
-0.061287563 -0.14697181 0.15387766 0.032645226 0.99945158 -0.0055520427 0.091483504
-0.053557046 -0.14799218 0.15847193 0.1010265 0.98726135 0.12291694 0.09731444
0.048774585 -0.14861602 0.15586987 -0.12522012 0.99209338 0.0084038489 0.07920824
0.058854274 -0.14728594 0.15792705 -0.16739666 0.98560941 0.023503477 0.081098989
0.081161588 -0.14388597 0.15737149 -0.24127772 0.97040135 0.010313582 0.080873981
-0.11153111 -0.13130651 0.15673335 0.38863784 0.91734141 0.086286753 0.088875443
-0.067062691 -0.13313335 0.15505739 0.12010606 0.99275702 0.0028349105 0.091682248
-0.052805111 -0.13501041 0.15633228 0.098461919 0.99051148 0.095876791 0.10260087
-0.044395335 -0.13611756 0.15205622 0.21660227 0.97620654 0.010208455 0.089282952
-0.029387739 -0.13809335 0.15683433 0.28971073 0.95631713 0.039054275 0.078358181
0.022496911 -0.13900055 0.15421259 -0.12808529 0.99138755 -0.027292205 0.087542064
0.044629335 -0.13608676 0.15367922 -0.18113182 0.98327821 0.018845638 0.079041727
0.050131928 -0.13536233 0.15093145 -0.15424256 0.98799944 0.0081472835 0.098733038
0.070460357 -0.13268603 0.1503098 -0.17925382 0.98257279 0.049181614 0.083342746
0.095794827 -0.13782468 0.15498061 -0.32308412 0.94612449 0.021566384 0.095998585
0.10387468 -0.13447791 0.15498349 -0.39144173 0.91847014 0.056444496 0.0892203
-0.12587969 -0.12536314 0.15282375 0.35596204 0.93420619 0.023450002 0.09159293
-0.10083657 -0.12170841 0.15785895 0.40301189 0.9129535 0.064011157 0.091584213
-0.096176639 -0.12363862 0.15633336 0.42216378 0.90594953 0.032143556 0.090451047
-0.084477171 -0.1284847 0.15834402 0.32045263 0.94648129 -0.038512513 0.098654695
0.082784332 -0.12918587 0.15504122 -0.31810895 0.94487154 0.077617332 0.092671044
0.12278841 -0.1266436 0.15448233 -0.40468797 0.91324496 -0.047024824 0.085030124
0.13012773 -0.12360355 0.15698287 -0.39887068 0.91692686 -0.01214082 0.087421879
-0.15242128 -0.11436926 0.15837291 0.45518059 0.85876501 0.23523027 0.086579621
-0.12377898 -0.11220534 0.15033101 0.31002578 0.9488371 0.059933949 0.081850328
-0.11299831 -0.11667085 0.1564368 0.44633067 0.89393151 0.040932015 0.087208048
-0.10904516 -0.11830828 0.15701492 0.34993374 0.93226922 0.091763258 0.089075387
0.11702418 -0.11500328 0.15244861 -0.37003499 0.92680711 0.064051792 0.082776733
0.12700947 -0.11086724 0.15377432 -0.28726614 0.95640188 -0.052666403 0.091946252
0.15414295 -0.11306155 0.15369309 -0.46613494 0.88277775 0.058495317 0.071318299
-0.16760962 -0.10314009 0.15918912 0.60607904 0.7919122 0.074453697 0.079883777
-0.1349147 -0.10759278 0.15448353 0.42169851 0.90169978 0.095435366 0.091793604
0.13858342 -0.10607316 0.15561257 -0.37232918 0.92778158 -0.02433661 0.09744449
0.14156628 -0.10483761 0.15951549 -0.37353382 0.92761141 0.0030726914 0.085626327
0.16880643 -0.10222171 0.15242247 -0.58662868 0.80985355 -0.0020274189 0.094108768
-0.17677277 -0.096108936 0.15405303 0.5515002 0.83385247 0.023185415 0.10458621
-0.15835923 -0.093902238 0.15961243 0.50853145 0.85930318 0.05471614 0.086389758
0.17382528 -0.098370612 0.15411174 -0.63645023 0.76612395 -0.089360632 0.088056147
-0.19255455 -0.083999127 0.15481614 0.69367445 0.72028285 -0.0028788452 0.090557814
-0.1655947 -0.088350274 0.15540922 0.63065243 0.7627545 0.14311953 0.090455212
0.17558949 -0.080681026 0.15306067 -0.6193409 0.77794117 -0.10594483 0.10832403
0.19129167 -0.084968194 0.15878706 -0.6346373 0.76293254 -0.12316436 0.090487316
-0.20663612 -0.073193967 0.15881443 0.65183747 0.75431007 0.07825768 0.099996835
-0.19980356 -0.078436784 0.15893109 0.66795498 0.74415666 0.008183714 0.098305389
-0.18590586 -0.072764963 0.15523289 0.68480659 0.72857827 -0.014613624 0.085412852
0.18445468 -0.073878519 0.15479694 -0.63045108 0.77127928 -0.087519571 0.088128053
-0.2164169 -0.065475985 0.15891851 0.63564527 0.77129722 0.032491643 0.092615411
-0.20252569 -0.060012117 0.15078115 0.66666442 0.74530298 0.009055838 0.087667286
-0.19516249 -0.065662086 0.15581311 0.69919533 0.7116124 0.068801142 0.094517283
-0.18995146 -0.069660664 0.15509161 0.67395842 0.73807973 -0.031910069 0.086531401
0.20148371 -0.060811654 0.15581661 -0.61116308 0.78204435 0.12200932 0.094673529
0.21764714 -0.064180098 0.15509325 -0.61756188 0.78531557 0.043551382 0.080153383
-0.2048941 -0.05819479 0.15145892 0.68235922 0.72887516 0.05591939 0.092118658
0.20581524 -0.057253852 0.15819854 -0.56320029 0.82598931 0.023392241 0.086623557
0.22745979 -0.051748961 0.15849021 -0.72505617 0.67558444 0.13371314 0.099183872
-0.23431101 -0.042820249 0.15371183 0.82635701 0.55109525 0.11587986 0.081525892
-0.21530226 -0.046303622 0.15494995 0.73710179 0.67362928 -0.053895213 0.08376687
0.23353174 -0.043835841 0.15327735 -0.808164 0.58537668 0.06484659 0.082246438
-0.22132652 -0.038452663 0.15313697 0.79594469 0.59960335 0.083354324 0.084766686
0.22676718 -0.031362236 0.15476236 -0.83356428 0.55114287 0.037577447 0.095838092
0.23740321 -0.038790464 0.15819077 -0.82993805 0.55728757 0.02516719 0.090441406
-0.25054437 -0.021664545 0.15534452 0.80161315 0.59779614 -0.0074863397 0.087445058
-0.23526931 -0.020282064 0.15536578 0.84466225 0.52544326 0.10225024 0.091547325
-0.2297647 -0.027455818 0.1527705 0.83908093 0.53078502 0.11920821 0.08286766
0.22970624 -0.027531993 0.15249003 -0.84598708 0.52861953 0.069765724 0.08603134
0.23507924 -0.020529747 0.15364112 -0.87759936 0.47627822 0.054574613 0.094821744
0.24603617 -0.02753976 0.15509446 -0.82435739 0.56373048 0.051409081 0.093472868
-0.25774077 -0.012286023 0.15524851 0.79466206 0.60495496 0.050414734 0.11569504
-0.24177551 -0.011803018 0.15332636 0.75020814 0.65678644 0.076284178 0.078878067
-0.23694235 -0.018101724 0.15354151 0.82628071 0.56070656 0.053556465 0.091413535
-0.264422 -0.0035788468 0.15369992 0.8470217 0.53132987 -0.015580403 0.11705257
-0.24730287 -0.0045996276 0.15730473 0.80797565 0.58907932 0.012686754 0.096365303
0.2462755 -0.0059384843 0.15685527 -0.7431494 0.66718107 0.050973561 0.08251594
0.25029328 -0.00070239522 0.15832584 -0.7819193 0.62324762 0.012829829 0.092051573
0.26263177 -0.0059119412 0.15208045 -0.85101885 0.52365875 -0.039350197 0.089351609
-0.25569171 0.0073607955 0.15594494 0.89653409 0.44023731 -0.049171261 0.1033247
0.2524271 0.0020784356 0.15545352 -0.85601479 0.51112163 -0.077416271 0.095040664
0.26746726 0.0019229639 0.1514419 -0.88977677 0.45002145 -0.076012738 0.10469263
-0.25830555 0.013671177 0.15010227 0.92268467 0.38333657 -0.041304938 0.095162749
0.26065969 0.019354599 0.15844832 -0.92277426 0.38280636 -0.044124633 0.088532954
0.26301131 0.025031934 0.15521458 -0.92395079 0.37506136 -0.075125977 0.091377728
0.27786914 0.027035303 0.15461028 -0.94086385 0.33416864 0.05573656 0.085497119
-0.2679705 0.037004389 0.15379865 0.93349743 0.35268462 0.064778283 0.076446131
0.26777676 0.036536735 0.15551375 -0.91579121 0.398067 0.053565398 0.10176347
0.28302202 0.039475478 0.1513055 -0.91953605 0.39183363 0.030328792 0.095820338
-0.28539208 0.045197297 0.15386768 0.88274264 0.45214754 0.12778123 0.08370322
-0.27168101 0.045962431 0.15394349 0.91889328 0.38353103 0.09240701 0.091805913
0.27052185 0.043163966 0.15399083 -0.90758246 0.41950119 0.017690109 0.095068775
-0.28938308 0.054832488 0.15383257 0.92519557 0.37854201 0.026814898 0.094221793
-0.27470124 0.053253867 0.15429598 0.94157147 0.33403677 0.043157581 0.083893918
0.28897074 0.053836919 0.15365833 -0.95543498 0.28462693 0.078304134 0.086205013
-0.2934477 0.064645395 0.159484 0.92237687 0.3840014 0.041997898 0.085986607
-0.28077686 0.067921683 0.1528486 0.9064374 0.42013249 0.043127369 0.090032846
0.28059056 0.067472011 0.15920788 -0.94114 0.33650854 0.031899106 0.089312978
0.2941407 0.0663184 0.15303275 -0.9330833 0.3517383 0.075071745 0.081125967
-0.28396618 0.075621426 0.15737484 0.94176584 0.33137357 0.057173297 0.093658693
0.29742995 0.077618212 0.15624771 -0.92086971 0.37306613 0.11322787 0.077299543
-0.29882467 0.088212118 0.15818779 0.9816547 0.18081611 0.060495108 0.087244414
-0.28471503 0.080330417 0.15872008 0.9536581 0.28870121 0.084781468 0.092499673
0.28502142 0.082657762 0.15545589 -0.95005733 0.31200516 0.0066190767 0.08553344
0.29839239 0.084928736 0.1540751 -0.97386223 0.21606225 0.070066936 0.093364395
-0.30025944 0.09911041 0.15375158 0.97680146 0.17177795 0.12787217 0.082413338
-0.28727913 0.099806756 0.15767881 0.99526286 0.094635792 0.02227089 0.092962094
0.28616261 0.091325857 0.15909415 -0.96838069 0.24684216 0.036161561 0.09356878
-0.30071104 0.10254063 0.15674913 0.98736966 0.14317538 0.067837842 0.092624672
0.28848031 0.1089306 0.15144335 -0.9958629 0.069898993 0.058062784 0.095789619
-0.30216634 0.11359473 0.15630586 0.99468654 0.094479442 0.040892448 0.091550261
-0.28973764 0.11848098 0.15455833 0.99388754 0.10464413 -0.035171941 0.094407193
0.28923187 0.11463906 0.15660056 -0.97765881 0.14890338 0.14836152 0.091901585
0.30256307 0.11660835 0.15469275 -0.9892332 0.1325749 0.061980095 0.097528137
-0.30378008 0.12585226 0.15271622 0.99993902 0.0029963369 -0.010626635 0.087872371
-0.29065558 0.12545346 0.15373534 0.99831134 0.029415876 0.050090987 0.093234435
0.29030979 0.12282684 0.15203398 -0.99164605 0.086344488 0.095825955 0.09637437
0.30360842 0.12454841 0.15826736 -0.98552984 0.1340514 0.10373557 0.098079368
-0.30510765 0.13593628 0.15783368 0.99965316 0.023513356 -0.011862641 0.094717801
-0.2917619 0.13385673 0.15461567 0.99869531 0.03499338 -0.037191156 0.09259548
0.29177657 0.13396816 0.15609112 -0.9837352 0.17371859 0.04568059 0.098125786
-0.30644238 0.1460744 0.1591686 0.99464983 -0.054387331 0.087828696 0.091860704
-0.29285026 0.14212355 0.15427163 0.99767697 0.047675125 0.048660856 0.088502869
0.29331481 0.14565222 0.15287562 -0.99723607 0.073059753 0.013510337 0.093475975
0.3058317 0.14143601 0.15798947 -0.99880552 0.014213371 0.046749003 0.084126689
-0.30711025 0.15114751 0.15151514 0.99415869 -0.015904142 0.10674991 0.084004536
-0.29351926 0.1572284 0.15842019 0.9971717 -0.051954377 0.054308191 0.088980377
0.29373088 0.15562096 0.15680058 -0.99790782 0.015081371 -0.062868848 0.095336191
-0.30504116 0.16900219 0.15936154 0.99441177 -0.10468629 0.013641952 0.094953731
-0.29285473 0.16227594 0.15377887 0.99888146 0.01848986 -0.0435207 0.089088336
0.29256535 0.16447382 0.15563583 -0.98979205 -0.12954697 -0.059407722 0.097086787
-0.30385005 0.17804946 0.15071599 0.99952358 -0.028396387 -0.012094805 0.093431585
-0.29133469 0.1738219 0.15782304 0.9950062 -0.076156482 -0.064520068 0.095036075
0.29131323 0.17398478 0.15453924 -0.98229438 -0.13018318 -0.13472216 0.090139233
0.30469736 0.17161353 0.15237303 -0.99350023 -0.044563204 -0.10474444 0.087376408
-0.28997076 0.18418175 0.15293694 0.99534529 -0.06973967 -0.066513851 0.097350761
0.28991231 0.18462569 0.15848772 -0.98842567 -0.12158447 -0.090729229 0.090150684
0.30270067 0.18677999 0.15438788 -0.98058349 -0.14909126 -0.12738831 0.092396654
0.28808799 0.19848281 0.15276322 -0.97582674 -0.14650778 -0.16216567 0.089670792
0.30137014 0.19688629 0.15613744 -0.9870801 -0.10648948 -0.11971974 0.095345058
-0.30053911 0.20319878 0.15781838 0.98049122 -0.17350453 0.092374578 0.08281333
-0.28727105 0.20468807 0.15672725 0.9918384 -0.1237997 -0.030499373 0.1027592
0.30057648 0.2029148 0.15701169 -0.97529352 -0.12927638 -0.17913726 0.083832689
-0.29891211 0.21555689 0.15337169 0.99230641 -0.12129369 -0.024813132 0.093430966
-0.29795873 0.22279844 0.15677848 0.96764314 -0.24874361 0.04234691 0.085208699
-0.28460643 0.22492789 0.15635806 0.9616943 -0.27400839 0.0079643326 0.10352114
0.28510371 0.22115085 0.15486063 -0.97519785 -0.22111347 -0.0098942686 0.084602736
0.2975145 0.22617269 0.15699138 -0.98445946 -0.16690682 0.054604165 0.069196045
-0.29502761 0.23597381 0.15016766 0.92124009 -0.38830549 -0.023141574 0.088270187
-0.28162238 0.2344705 0.15422533 0.9479416 -0.30553314 0.089757048 0.094475292
0.28189373 0.23381539 0.15540372 -0.93515688 -0.34712008 0.070634604 0.1023116
0.29681361 0.23149671 0.15186058 -0.96286994 -0.2297297 0.14179417 0.07262098
-0.29313475 0.24054357 0.15789959 0.93381321 -0.35770929 0.0060707768 0.097477078
-0.28996766 0.24818957 0.15153763 0.92347211 -0.38135189 -0.042072494 0.09845864
0.27696949 0.24570349 0.15754308 -0.89833349 -0.43279961 0.075375602 0.092974104
0.28958902 0.24910375 0.15649518 -0.8808884 -0.47056249 0.051055923 0.091796644
-0.27210152 0.25745586 0.1561617 0.92625582 -0.37407443 0.04602683 0.078929678
0.27366272 0.25368682 0.15938821 -0.87129414 -0.48129824 0.095908783 0.091588087
0.28774038 0.25356674 0.15375118 -0.86347359 -0.50392461 0.021755796 0.099870838
-0.28235444 0.26656961 0.15614823 0.90649664 -0.41482705 0.078627929 0.078066066
0.28416583 0.26219654 0.15106319 -0.89883065 -0.43135762 -0.07767909 0.082828172
-0.28081632 0.27028289 0.15116297 0.93627441 -0.34926265 0.037492622 0.095507838
0.26313552 0.27910167 0.15181084 -0.91495818 -0.39678988 -0.073547341 0.083375469
-0.27414608 0.28638631 0.15113668 0.91501534 -0.40303525 -0.017594147 0.096778996
-0.26172695 0.28250229 0.15254252 0.911075 -0.40950418 -0.047420744 0.094249763
-0.25914085 0.2887457 0.15964101 0.88649523 -0.45665541 -0.074779376 0.097361892
0.25951427 0.28784412 0.15701249 -0.93015045 -0.36707357 -0.008785991 0.095522635
0.26229143 0.28113949 0.15599085 -0.94126523 -0.33762866 0.0051653804 0.084716417
0.27602556 0.28184888 0.15855327 -0.91833133 -0.38878343 0.074263334 0.09121938
-0.27239808 0.29060629 0.1595934 0.89285254 -0.43447581 -0.11851176 0.096692994
-0.26970118 0.29711723 0.15269034 0.85269815 -0.51166779 -0.10536579 0.084157616
-0.25802892 0.29143018 0.15450993 0.87895089 -0.47691038 -0.0013100542 0.093324408
0.27111861 0.29369536 0.15581684 -0.93615013 -0.35069725 0.02518787 0.096368603
-0.26435405 0.30810088 0.15114187 0.83892661 -0.54338866 -0.030510891 0.10147547
-0.25117263 0.30398989 0.15682277 0.79975015 -0.58905333 0.11582678 0.094040334
0.24899144 0.30683246 0.15604845 -0.85905081 -0.50994176 -0.044620335 0.10116185
0.2530112 0.30159384 0.15396968 -0.85910511 -0.46235561 -0.2194666 0.085522763
0.26321867 0.30958056 0.1563122 -0.86178952 -0.50630361 -0.031231107 0.092399634
-0.26156169 0.31173995 0.15551983 0.83841687 -0.54310787 0.045726407 0.090886869
-0.25773716 0.31672418 0.15708411 0.81401956 -0.57665277 0.069596976 0.089180365
-0.2423287 0.31551558 0.15533701 0.75431752 -0.65061158 0.08780466 0.07900206
0.23934242 0.31940728 0.15246582 -0.78733426 -0.61126179 0.080397546 0.091646403
0.2401011 0.31841856 0.15202387 -0.7879222 -0.60924619 0.089429542 0.09842708
-0.23502721 0.32503104 0.15254389 0.80623597 -0.58382607 0.095554903 0.082170755
0.23742652 0.32190418 0.15498295 -0.74869335 -0.65191573 0.12026713 0.091016747
0.2488991 0.32824215 0.15951648 -0.80040407 -0.59936464 0.010737598 0.089552723
0.25071862 0.32587096 0.15309215 -0.76110065 -0.64722788 0.042683359 0.099085443
-0.23068793 0.33068609 0.15129593 0.85089064 -0.51965666 -0.077084146 0.071835965
-0.22828522 0.33381733 0.15481257 0.86083508 -0.50018376 -0.093696654 0.082111925
0.22552744 0.33741134 0.15818518 -0.78038013 -0.62104762 -0.072846562 0.09516266
0.24367666 0.3350482 0.15455993 -0.78906769 -0.61398935 -0.019728996 0.087202027
-0.23326392 0.34861827 0.15341806 0.81828618 -0.57364702 -0.036563084 0.097856656
-0.21759062 0.34775484 0.15186995 0.78961831 -0.61326593 0.020195652 0.090678155
0.21857113 0.346477 0.15381043 -0.72785252 -0.67683655 -0.11010438 0.096015498
0.22152984 0.34262115 0.15339758 -0.81362033 -0.57902288 -0.052483674 0.098351367
0.23726091 0.34340936 0.15336071 -0.80083555 -0.58589321 -0.12406271 0.088081345
-0.23206761 0.35017735 0.15909465 0.86336511 -0.48684511 -0.13259928 0.079284273
-0.21438226 0.35193598 0.15819591 0.78215271 -0.62205124 -0.035907891 0.092146099
0.21312875 0.35356963 0.15921041 -0.72033721 -0.68032467 -0.13517608 0.092211649
0.23119095 0.35131991 0.15375921 -0.80096453 -0.59627485 -0.053964041 0.094974697
-0.216699 0.36990589 0.15617196 0.69303346 -0.7191031 0.050944507 0.084553666
-0.20280945 0.36422783 0.15113603 0.64592904 -0.76207715 0.044879265 0.093650483
-0.19557555 0.36977857 0.15325253 0.67726505 -0.73569721 0.0078494437 0.097186439
0.20196477 0.364876 0.15758689 -0.67999578 -0.72305995 -0.12161484 0.082806386
0.22373378 0.36103824 0.15566757 -0.7539438 -0.64636761 -0.11737791 0.097716428
-0.21304739 0.37270784 0.15588729 0.61690021 -0.78703308 -0.0036069425 0.090518869
-0.2074513 0.37700191 0.15372354 0.62782717 -0.7781831 0.016252367 0.09674564
-0.18490434 0.37796688 0.15150908 0.59270728 -0.80187941 -0.075415857 0.096103109
0.18480593 0.37804243 0.15773204 -0.60177827 -0.79135907 -0.10776722 0.094993107
0.19173396 0.37272635 0.15028162 -0.58982015 -0.80523854 -0.060852751 0.089877047
0.21181464 0.37365377 0.15094408 -0.66770309 -0.74218076 -0.057794221 0.079968154
-0.19606826 0.38573641 0.15527681 0.61912233 -0.77962315 -0.094208628 0.099270269
-0.17813142 0.38316393 0.15490441 0.63695586 -0.77040911 -0.027512997 0.090134539
0.17481256 0.3857106 0.15347859 -0.5607931 -0.81938243 -0.11884248 0.095647454
0.1802173 0.38156343 0.15650016 -0.63935018 -0.7579881 -0.12917235 0.08635363
0.1921027 0.38877928 0.15560941 -0.63699019 -0.76580685 -0.088224031 0.088963173
-0.18458152 0.3945505 0.1508318 0.65994871 -0.74589378 -0.090056561 0.086224571
-0.17909962 0.39875689 0.15524125 0.57364726 -0.8188709 -0.019475747 0.10372186
-0.16610725 0.3923904 0.15315355 0.55636817 -0.83025277 0.033687066 0.094347596
0.16299528 0.39477831 0.15385392 -0.65373009 -0.75497305 -0.051504642 0.10064592
0.17838275 0.39930695 0.15266424 -0.64875406 -0.7567721 -0.080088288 0.095607981
0.18997101 0.39041498 0.15024257 -0.63844949 -0.76919913 -0.026738584 0.08917027
-0.17640845 0.40082189 0.15467763 0.55966932 -0.81867534 -0.12861171 0.094106153
-0.1552774 0.40070045 0.15502355 0.57594895 -0.81671298 0.035535455 0.096532226
0.14544313 0.40766519 0.15717831 -0.45826325 -0.8886987 0.01446844 0.091555513
0.15354338 0.402031 0.15736242 -0.56773144 -0.82316399 -0.0090606036 0.10269495
0.16487215 0.40967399 0.15415923 -0.60111773 -0.79809195 0.041311003 0.1203472
0.17165345 0.40447053 0.15461129 -0.58510137 -0.81091964 0.0081061898 0.099230327
-0.16265567 0.41137478 0.15550721 0.54874545 -0.83208299 0.080724031 0.080037132
-0.12453401 0.41632602 0.15920612 0.30546165 -0.94988567 0.066410713 0.09082941
-0.11859234 0.41878712 0.15665595 0.41302052 -0.91031665 -0.027162492 0.096621595
0.1197634 0.41830206 0.15147595 -0.33348587 -0.94052315 -0.064833745 0.091357969
0.13507393 0.41196024 0.15141134 -0.3684842 -0.9296152 -0.0059087519 0.080723971
0.15766765 0.41520223 0.1558537 -0.53572339 -0.84438753 0.003183719 0.085730508
0.16094436 0.41268793 0.15342601 -0.54301351 -0.83856738 0.044057932 0.10543683
-0.14508075 0.42184323 0.15557864 0.42674825 -0.90130246 0.074429132 0.085765332
-0.13408348 0.42639846 0.15552031 0.28378314 -0.95838386 0.031105919 0.092970103
-0.11387714 0.42074025 0.15048937 0.46484137 -0.88372332 0.054363959 0.088011958
-0.10904543 0.42274156 0.15324391 0.4837324 -0.87477314 -0.027836885 0.091770604
-0.092879072 0.42943788 0.15091911 0.40722117 -0.91200471 0.049175646 0.093291722
0.097347014 0.42758727 0.15113328 -0.36058584 -0.93266052 -0.011052604 0.09602578
0.10869719 0.42288584 0.15649274 -0.31710038 -0.94759488 0.038876001 0.097298965
0.11144032 0.42174959 0.15666491 -0.29083472 -0.95663726 0.01613684 0.098026998
0.13544708 0.42583364 0.15568551 -0.37999737 -0.92476696 -0.020197453 0.084507085
-0.1120832 0.43551126 0.15118861 0.47578382 -0.87900889 -0.031195909 0.098780863
-0.067188285 0.43755022 0.15363282 0.15863071 -0.97656995 0.14542173 0.097274356
0.069523953 0.43724275 0.15929158 -0.25545117 -0.96414822 0.071853168 0.093956262
0.079518795 0.43497193 0.15418623 -0.30508059 -0.95203817 0.0234333 0.08531855
0.08927881 0.43092918 0.15154307 -0.3955175 -0.91783363 0.033872809 0.087628447
0.10178261 0.43977791 0.15023276 -0.39462268 -0.91877681 0.011056386 0.093645014
0.11979464 0.43231708 0.15128581 -0.2850053 -0.95788246 -0.035117924 0.10100535
0.12414229 0.43051624 0.15295249 -0.27301005 -0.96200889 -0.0020872317 0.09917032
-0.10083959 0.44016853 0.155937 0.49904695 -0.86655599 0.0057255328 0.088761918
-0.093150772 0.44335333 0.15536277 0.33160374 -0.94341844 -0.00076872925 0.084250033
-0.085048497 0.44670942 0.15181726 0.28156105 -0.95064014 0.13040949 0.087243125
-0.077423483 0.44927475 0.15589 0.2800433 -0.9585678 0.052188966 0.088590503
-0.047390364 0.44015667 0.15130569 0.18347469 -0.98172396 0.050547041 0.091203287
-0.011223451 0.44491819 0.1556166 0.04521722 -0.99889469 0.012837648 0.095321424
-0.0099814879 0.44508165 0.15314411 0.078306727 -0.99691522 0.0053032795 0.09229891
0.0025642454 0.44605818 0.15465596 0.0068526389 -0.99903381 -0.043410249 0.093032546
0.014257172 0.4445188 0.15395018 -0.017347781 -0.99984688 -0.0022739135 0.083327517
0.074692152 0.44963431 0.15654071 -0.23176862 -0.97233409 0.029150167 0.090012982
0.088419318 0.44531316 0.15484574 -0.34943196 -0.93414813 -0.072557718 0.10080996
-0.062567264 0.45123056 0.15818752 0.15982121 -0.98635584 0.039488163 0.077176578
-0.051314272 0.45271206 0.15177453 0.077056132 -0.99637932 0.035925783 0.086868487
-0.034149744 0.45497182 0.15389773 0.061583944 -0.9980315 -0.011860779 0.077074662
-0.017296337 0.45719057 0.15376399 0.079745203 -0.99486291 -0.062357903 0.093300372
0.0024844015 0.4591406 0.15424085 0.10133044 -0.99473387 0.015384997 0.088981137
0.036265444 0.45469329 0.15365778 -0.12627068 -0.99198443 -0.0047670505 0.081039481
0.04150011 0.45400408 0.15996425 -0.044499122 -0.9975757 0.053502675 0.079468988
0.056789882 0.45199117 0.15229912 -0.27264285 -0.96209043 0.0069193072 0.081823938
0.063145861 0.45115441 0.15379004 -0.17334165 -0.98318815 0.057391103 0.083346598
-0.022703063 -0.4020552 0.16598004 0.24228944 0.90864795 -0.3400805 0.0042967335
-0.0051803202 -0.40481073 0.16831158 0.076586731 0.93847656 -0.33674359 0.0029738953
0.0061282166 -0.405543 0.1659985 -0.063890629 0.93474847 -0.34951869 0.007196459
0.01474578 -0.4048914 0.16413753 -0.24441522 0.90581203 -0.34607181 0.0024532934
-0.04468374 -0.39225209 0.16585794 0.6061219 0.74248534 -0.28518707 0.013584891
-0.035086956 -0.39584333 0.16908702 0.50758338 0.80122602 -0.31685337 0.0095861293
0.045898337 -0.39184853 0.16348672 -0.72803438 0.61957538 -0.29341486 0.02106072
-0.052540198 -0.38432905 0.16370554 0.88125598 0.40708444 -0.24014616 0.031544019
0.046616849 -0.3894842 0.16928901 -0.75560087 0.5865643 -0.29156414 0.019619165
-0.055270568 -0.3784284 0.16251174 0.95450634 0.24446291 -0.17075016 0.050370615
0.056026742 -0.37465385 0.16348016 -0.96378475 0.25944558 -0.061699629 0.057575021
0.055982098 -0.36394757 0.16326311 0.96834719 0.2421321 0.060628418 0.084582195
-0.05254906 -0.35495862 0.16344601 -0.89816004 0.43936276 -0.016394541 0.060428143
0.052255869 -0.3539187 0.16421394 0.78518081 0.61916459 -0.011234177 0.044594567
-0.042765021 -0.34530365 0.16194943 -0.64123708 0.76720011 0.014800958 0.027733942
0.039670244 -0.34215492 0.165645 0.55355453 0.80052578 -0.22964282 0.016046669
-0.023544624 -0.33633128 0.16338445 -0.26676515 0.90131694 -0.34126848 0.0036220008
-0.0074632172 -0.33275405 0.16312625 -0.083117217 0.93208987 -0.35256225 0.0076369843
0.0056687426 -0.33321053 0.16158697 0.069034919 0.95864904 -0.27609101 0.0071537578
0.023898954 -0.33760726 0.16040888 0.2384797 0.91766763 -0.31782645 0.0028899221
0.029964503 -0.23354372 0.16560456 0.35920724 -0.31076339 -0.87999797 3.2971486e-05
0.033835988 -0.23776424 0.16871385 0.36764964 -0.31701657 -0.87426203 0
0.033850417 -0.22488043 0.16417423 0.37721416 -0.30203459 -0.87549108 2.4269024e-05
-0.035284802 -0.21155794 0.16020462 -0.3743864 -0.2990475 -0.87772739 9.0290969e-06
-0.027975077 -0.15136883 0.16260357 0.24000032 0.97060525 0.018036153 0.090030834
-0.017696019 -0.15272558 0.16663887 0.12139907 0.99170995 -0.042114481 0.079314411
0.0048284191 -0.15442187 0.16503291 -0.2550306 0.96681088 -0.015367447 0.073965669
0.013931384 -0.15321933 0.16522351 -0.075573206 0.99197096 -0.10140229 0.096332207
-0.090353899 -0.1400784 0.16199706 0.33306685 0.94289893 -0.0028589389 0.10792476
-0.084542193 -0.14248568 0.16333288 0.28623673 0.95779598 0.026369626 0.090442732
-0.071192712 -0.14566439 0.16859826 0.1992473 0.9787581 0.048301157 0.1084032
-0.061648592 -0.14692415 0.16882578 0.059568137 0.99350768 0.096923172 0.099595152
-0.058737013 -0.14730847 0.16873854 0.098223917 0.99505025 -0.01506763 0.093836121
-0.010659024 -0.14055902 0.16529658 0.051261526 0.99488169 -0.087077804 0.094578706
-0.0034460938 -0.14150864 0.1675712 -0.089946516 0.99557889 0.027063204 0.083670616
0.0049576736 -0.14130963 0.16719483 -0.22351374 0.97177696 -0.075439192 0.077963181
0.01434942 -0.14007318 0.16945529 -0.027975956 0.99838418 -0.049461409 0.091151908
0.045824517 -0.14900625 0.16843832 -0.062014993 0.9979946 0.012685015 0.091893055
0.089860499 -0.14028277 0.16239509 -0.35478869 0.93487954 -0.011189704 0.099095926
-0.11326284 -0.13058922 0.16175243 0.30891109 0.95083451 -0.022084251 0.095109716
-0.10358211 -0.13459909 0.16932896 0.36534655 0.93034798 -0.031217687 0.099384829
-0.094486006 -0.13836682 0.1671284 0.40321568 0.91454113 0.032117214 0.087277271
-0.07081157 -0.1326398 0.16114695 0.16776562 0.97624081 0.13714434 0.096495837
-0.061652429 -0.13384563 0.16277617 0.086966313 0.98673487 0.13708079 0.092841767
-0.056296948 -0.13455069 0.1613812 0.16226497 0.98056054 0.11032265 0.089787923
-0.042143308 -0.13641405 0.1627318 0.23156273 0.96782023 0.098501898 0.083970144
-0.035274632 -0.13731831 0.16398618 0.19217664 0.97252727 0.13137285 0.091317564
0.027175646 -0.13838458 0.1614683 -0.10924195 0.99353689 -0.030831214 0.080028288
0.036608074 -0.13714278 0.16492248 -0.14483774 0.9866007 -0.075106993 0.077186875
0.076274604 -0.13183922 0.16591175 -0.21948487 0.97438353 -0.049021248 0.087882891
0.096327372 -0.1376041 0.16373958 -0.33605984 0.9401266 0.056795422 0.099445745
0.10178532 -0.13534334 0.16740081 -0.45036256 0.89256114 0.022542411 0.091261812
-0.13615669 -0.12110627 0.16353641 0.38983458 0.92032677 -0.032059193 0.083995067
-0.12038802 -0.12763786 0.16356668 0.49991146 0.86592966 0.015947886 0.10347258
-0.090156674 -0.12613216 0.16961907 0.41479179 0.9066897 0.076560587 0.090288833
-0.084095083 -0.12864296 0.16513598 0.35292599 0.93487281 0.038158651 0.099004008
0.085227631 -0.12817386 0.16543232 -0.25970882 0.96567363 0.0050681648 0.09784352
0.096803382 -0.12337901 0.16650973 -0.40745264 0.91272759 -0.030179711 0.09625598
0.10178248 -0.1213166 0.16607428 -0.37276527 0.92735785 0.032456327 0.093350321
0.12046076 -0.12760773 0.16909601 -0.35240576 0.93366605 0.063859105 0.084651031
-0.15413639 -0.11300242 0.16436332 0.49268183 0.86686563 0.076213971 0.096750125
-0.11324919 -0.11656693 0.16409837 0.36452389 0.93071061 0.030003643 0.10148119
-0.10844498 -0.11855689 0.16980082 0.30682415 0.95003897 0.057314042 0.094102822
0.10621516 -0.11948052 0.16386084 -0.39536616 0.91735047 0.046408564 0.088747695
0.11512086 -0.11579166 0.16401666 -0.40001121 0.91402209 0.067487612 0.08705958
0.12158716 -0.11311322 0.16432044 -0.35862741 0.93023336 0.077796705 0.094682112
0.13963246 -0.11966656 0.16178945 -0.2826899 0.95840597 0.039299566 0.092904173
0.14070064 -0.11922411 0.16977195 -0.39245415 0.91663313 0.075917944 0.092051946
0.15700033 -0.11128087 0.1656758 -0.46960986 0.88237065 -0.029810749 0.086430229
-0.16347118 -0.10631562 0.16510795 0.55765933 0.82946777 0.031610869 0.091287956
-0.13658506 -0.10690089 0.16278198 0.4302212 0.89906842 0.081152663 0.094533585
0.14685468 -0.10224897 0.16401632 -0.48952216 0.86701733 0.092999801 0.086167015
-0.17657322 -0.096262053 0.16693293 0.62911284 0.77708548 0.018847892 0.087324552
0.18166116 -0.092357934 0.16163012 -0.67603993 0.73229849 -0.081907645 0.093383916
-0.19120222 -0.085036822 0.1618661 0.70019656 0.71154833 -0.058513142 0.087686256
-0.18639286 -0.088727169 0.16682427 0.65665758 0.7539373 -0.019473605 0.095887057
-0.1706692 -0.084456474 0.16577311 0.62627947 0.77825761 -0.045706667 0.08455833
0.16792017 -0.086565882 0.16448335 -0.69187802 0.7198841 -0.055422924 0.089620359
0.17082438 -0.084337406 0.1651554 -0.6435222 0.76186329 -0.073779568 0.085419491
0.19612707 -0.08125785 0.16414686 -0.5909484 0.80345201 -0.072422095 0.082154311
-0.18357842 -0.074550882 0.16731036 0.70794505 0.70526993 -0.037525393 0.07939481
0.17992991 -0.077350482 0.16920459 -0.60698831 0.79336458 -0.046236016 0.086847946
0.18516076 -0.073336706 0.16132501 -0.63458842 0.76550388 -0.10630735 0.078592435
-0.21877785 -0.063063458 0.16868278 0.67552519 0.72817063 0.11590149 0.097652584
-0.20105556 -0.061140206 0.16099197 0.65070021 0.75845492 0.036541529 0.092056453
-0.19854489 -0.063066691 0.16563657 0.65198243 0.75818568 -0.0085633826 0.091558769
0.19329901 -0.067092009 0.16374867 -0.54228795 0.83525872 0.090921193 0.07753282
0.20099764 -0.061184626 0.16126604 -0.60949981 0.79093421 0.05415896 0.093599036
0.21787605 -0.063838154 0.16410853 -0.63728869 0.77062356 0.0015498217 0.081831917
0.22034454 -0.06102173 0.16226341 -0.60570168 0.79345477 -0.059623223 0.075120173
-0.22589351 -0.053790167 0.16550837 0.7458511 0.65902716 0.096898101 0.093445845
-0.20640543 -0.057035089 0.16651176 0.61264318 0.78892368 0.047621962 0.095768318
0.2084229 -0.055268962 0.1604863 -0.63488567 0.77247083 -0.01445175 0.085694857
0.22671661 -0.052717499 0.16092891 -0.72648633 0.67953569 0.10221972 0.1033103
-0.23025574 -0.048105206 0.16339202 0.79566854 0.60041583 0.080077291 0.097057439
-0.22883421 -0.049957782 0.16578801 0.78573245 0.60241228 0.14044167 0.095997356
-0.21549056 -0.046058219 0.16582538 0.71556997 0.68766046 0.12281191 0.088734075
0.21664637 -0.044551916 0.16831928 -0.750642 0.65950769 -0.039828543 0.091782801
0.23452471 -0.042541787 0.16473015 -0.8208406 0.5656004 0.079478517 0.088151522
-0.23981184 -0.035651453 0.16823274 0.78538501 0.61325151 0.084219538 0.090852767
-0.22568242 -0.032775957 0.1659198 0.78715336 0.61511004 0.045048691 0.09705583
0.22712591 -0.030894736 0.16805132 -0.82326257 0.56724137 0.021816967 0.10915487
0.23664907 -0.039773308 0.16856533 -0.84235251 0.53704315 -0.045022573 0.098429389
0.24106163 -0.034022696 0.16338618 -0.86140847 0.50781602 -0.0099131204 0.10013678
-0.23224264 -0.024226505 0.16263109 0.79509413 0.60290873 0.065775998 0.078678936
0.23423225 -0.021633565 0.16657966 -0.83931595 0.53575796 0.092261642 0.10067769
0.24964029 -0.022842761 0.16711794 -0.82781351 0.53420258 0.17132559 0.089250751
0.25055954 -0.021644797 0.16773432 -0.81064069 0.55069643 0.19898522 0.091350585
0.23681813 -0.018263564 0.16304854 -0.85101312 0.48536974 0.20048134 0.07459192
0.25183284 -0.019985382 0.16688956 -0.79836231 0.59814394 0.06958089 0.089217901
-0.24435008 -0.0084477607 0.16771302 0.79533988 0.60547549 0.028875448 0.08920306
0.26219371 -0.0064828694 0.1603688 -0.80156291 0.59776062 -0.013387807 0.094851717
-0.26699027 0.00077150477 0.16079186 0.826684 0.56231183 -0.019971069 0.096743666
-0.2544955 0.0055229273 0.16602644 0.85532796 0.50819927 0.10073528 0.11528959
0.25448787 0.0047640717 0.1647265 -0.87489033 0.46413767 -0.13835831 0.10273682
0.26812059 0.0035002765 0.16629601 -0.894813 0.43742684 -0.089261301 0.098389395
-0.27276599 0.014715356 0.16932373 0.83326179 0.55285579 0.0050142831 0.080895364
-0.25695381 0.010407776 0.16259935 0.81668675 0.56563282 0.11437774 0.087703176
0.26288772 0.024733517 0.16250052 -0.90428478 0.42654637 -0.018089723 0.092819154
0.2790243 0.029824153 0.1624102 -0.91479814 0.40294614 0.027905032 0.089973427
0.26759058 0.03608726 0.16630325 -0.89167142 0.45250982 0.012524388 0.095953792
0.28099805 0.034589242 0.1663368 -0.8809551 0.47317308 0.0050340313 0.099382281
-0.28445056 0.042924393 0.16318676 0.96123606 0.27494884 0.020697653 0.09013959
-0.27189001 0.046466958 0.16069053 0.94866633 0.30639791 0.078437649 0.094758585
0.28720811 0.049581569 0.16624223 -0.9529466 0.29550469 -0.067600213 0.096375033
-0.27406481 0.051717393 0.16766582 0.96381038 0.26655501 0.0042592785 0.10578714
0.27451906 0.05281413 0.1634959 -0.97169054 0.23506194 -0.023736719 0.0954559
0.28809577 0.051724657 0.16784436 -0.91911614 0.38615152 -0.078183353 0.087218717
0.29096311 0.058646984 0.16212574 -0.93711299 0.3490169 0.002541576 0.088398986
-0.27869529 0.062896378 0.16085023 0.91131228 0.40876615 0.049195543 0.10637801
0.27866831 0.06283123 0.16392761 -0.92516679 0.37822989 -0.031758532 0.0869596
-0.29746389 0.0778763 0.16265333 0.96548152 0.25763074 0.038364824 0.096917495
0.29758802 0.078819156 0.16562235 -0.96819913 0.24657947 0.042295847 0.086496316
-0.29846042 0.085445583 0.1645207 0.98140645 0.18661514 0.04490336 0.081126757
0.29812995 0.082935296 0.16406001 -0.94648713 0.32207882 0.020673005 0.099829048
-0.29921061 0.091143645 0.16925785 0.99125886 0.13025725 -0.020950433 0.090485707
-0.28671548 0.095525466 0.1646259 0.97312099 0.22875878 -0.026553325 0.093043216
0.29930484 0.091859639 0.1633952 -0.98537248 0.16994502 0.012636847 0.084052444
-0.30096015 0.104433 0.16624732 0.99554133 0.064770602 -0.068571836 0.089644246
0.28807345 0.1058401 0.16522631 -0.99927318 0.013123424 0.035787255 0.077096514
0.3010225 0.10490651 0.16666423 -0.99684352 0.077363074 0.017830065 0.069206938
-0.30213574 0.11336235 0.16654561 0.99669749 0.080633275 -0.0096137524 0.08878307
-0.28907812 0.11347142 0.16898389 0.99146926 0.1179045 -0.055563204 0.090998352
-0.30357817 0.12431887 0.16405736 0.99964374 0.012500628 -0.02358315 0.084878139
-0.30482668 0.13380218 0.16642338 0.99407876 0.082619779 0.070579156 0.089756452
-0.29204875 0.13603537 0.16448945 0.99200261 0.079474568 0.098054014 0.092306793
0.29139447 0.1310657 0.1642381 -0.97248077 0.21066803 0.099499129 0.081917875
0.30499709 0.13509637 0.16523366 -0.99154079 0.037288819 0.12432381 0.10244775
-0.29381946 0.14948522 0.16029395 0.99321812 -0.042035475 0.10840184 0.088819608
0.29302832 0.14347617 0.16567886 -0.99870723 -0.027492678 0.042755291 0.091338307
0.30618298 0.14410409 0.16365144 -0.99719363 -0.0014085814 0.074852131 0.085854918
-0.30680805 0.15558146 0.1620281 0.99801493 0.010752251 0.062052652 0.10234044
-0.29353279 0.15712553 0.16686618 0.99254483 -0.069177769 0.10034565 0.10003617
0.30670804 0.15634108 0.1652385 -0.99335861 0.020098569 0.11329053 0.092978664
-0.30518371 0.16791934 0.1650112 0.99719518 -0.074801892 -0.0025226194 0.10539593
-0.29210487 0.16797166 0.16022146 0.99709314 -0.054121453 -0.053631272 0.092116997
0.29289868 0.16194201 0.16774754 -0.98981124 -0.14208245 -0.0092920391 0.092898712
0.30521131 0.16770965 0.16516516 -0.99295259 -0.11528922 0.027448367 0.089145385
-0.30394435 0.17733337 0.16446964 0.9962405 -0.079139225 0.035241269 0.093326963
-0.29120433 0.17481214 0.16915084 0.99682468 -0.078672245 0.012296628 0.090756916
-0.30247822 0.18846968 0.16640154 0.99353558 -0.11333914 0.0064273034 0.088885427
0.2897934 0.18552902 0.16503842 -0.98250759 -0.13933495 -0.1235496 0.095440485
0.30333757 0.18194225 0.16395317 -0.98449278 -0.12699054 -0.12102664 0.094708182
-0.3017875 0.19371627 0.1603412 0.99734277 -0.067352653 0.027768033 0.080652021
0.28836283 0.1963951 0.16332892 -0.98350704 -0.15011048 -0.10089987 0.087386414
-0.29971904 0.2094277 0.16121463 0.99905312 -0.036277436 0.024018211 0.084947132
0.28724706 0.20487028 0.16094381 -0.98641557 -0.148836 -0.069514081 0.085893854
0.30036017 0.20455785 0.16021864 -0.98848265 -0.042506427 -0.14524157 0.087787293
-0.28565675 0.21694991 0.16356188 0.96642405 -0.25665978 -0.01226032 0.09560439
0.28083968 0.23636004 0.1648059 -0.93241346 -0.35944381 -0.037486337 0.10811453
-0.29285169 0.24122694 0.16323519 0.94660181 -0.32027182 0.037026953 0.082798518
-0.2781415 0.24287406 0.16501871 0.95619416 -0.29190731 -0.021974057 0.08290004
0.29250538 0.24206302 0.16541672 -0.89260715 -0.44557217 -0.068686619 0.088671349
0.27232638 0.25691298 0.16042545 -0.87725914 -0.47443122 0.073016942 0.0865006
0.28788441 0.2532191 0.16644989 -0.87146187 -0.48441479 0.076788567 0.098765522
-0.26877606 0.26548418 0.1635294 0.92153513 -0.38641402 0.038171317 0.081627116
0.26840451 0.2663812 0.16560231 -0.87463135 -0.48096243 0.060788292 0.08597666
-0.27697796 0.27954954 0.16692194 0.87377316 -0.4861111 -0.014712296 0.10579398
-0.26416311 0.27662089 0.16601475 0.86461031 -0.50181866 0.0250402 0.096072681
0.26563802 0.27306005 0.16130663 -0.93520248 -0.34535161 0.07828524 0.085613348
0.27942559 0.27364051 0.16710371 -0.89570564 -0.44051567 0.060477145 0.09094277
0.25887072 0.28939778 0.16442354 -0.93952811 -0.34144971 0.026436539 0.093347915
0.26265258 0.28026763 0.16143312 -0.93761992 -0.34729251 0.016019147 0.082649387
0.27570301 0.28262755 0.16953872 -0.90821409 -0.41779998 0.024297958 0.098451465
-0.2705884 0.29497531 0.16743107 0.93636334 -0.34400907 -0.069867432 0.0871085
-0.26985905 0.29673612 0.16105548 0.90984994 -0.41437188 0.021662505 0.093214959
-0.25757074 0.29253626 0.1640076 0.91577083 -0.4010267 0.023267176 0.092907384
0.25584364 0.2966283 0.16268721 -0.87232637 -0.48754293 0.036723282 0.093761325
0.26583758 0.30551916 0.16833448 -0.89583659 -0.44422334 -0.011934618 0.082715727
-0.25708276 0.317577 0.16828921 0.77853721 -0.62082148 0.091981374 0.086130299
0.25872028 0.31544304 0.16481538 -0.85903811 -0.50860441 0.058094788 0.093922719
-0.25355291 0.32217717 0.16890131 0.75149506 -0.65959847 0.013602165 0.093111724
-0.23402949 0.32633129 0.16781873 0.78929472 -0.61351568 0.02474542 0.088514604
0.23611589 0.32361221 0.16372749 -0.77829164 -0.62762988 0.018514723 0.093852729
0.24916823 0.32789147 0.16028808 -0.79631311 -0.60229367 0.055927154 0.097043924
0.25071335 0.32587779 0.16075256 -0.8213957 -0.56975991 0.026129184 0.097757794
-0.24425662 0.33429238 0.16489311 0.67911655 -0.73108274 0.065717325 0.084108271
-0.2305747 0.33083367 0.16611625 0.78280747 -0.60512012 0.14505912 0.094295755
0.24293023 0.33602095 0.1650933 -0.73989624 -0.67268425 0.007036211 0.097732387
-0.23634063 0.34460866 0.16034648 0.82005632 -0.57016271 -0.049215239 0.10153738
0.21912923 0.34574968 0.16500629 -0.73228836 -0.64229709 -0.22629251 0.081129991
0.2222288 0.34171021 0.16217816 -0.77495968 -0.60875589 -0.16986404 0.083270751
0.23413301 0.34748572 0.16938683 -0.76345861 -0.63303554 -0.12805091 0.085663565
-0.23140571 0.35104001 0.16364646 0.86712402 -0.49807823 -0.0037410841 0.084312022
-0.22490415 0.35951293 0.16963615 0.80467772 -0.5925408 0.037273034 0.087159827
-0.21017897 0.35741383 0.16882235 0.65852225 -0.74967349 -0.065864094 0.082771428
0.21298563 0.35375613 0.16526639 -0.74067873 -0.65734756 -0.13888572 0.091486342
0.22818133 0.35524207 0.16881776 -0.78828019 -0.61424482 -0.036299314 0.083462738
-0.20140812 0.3653031 0.16497484 0.67262852 -0.73868316 0.043794818 0.10304845
-0.19587988 0.36954507 0.16373587 0.62653506 -0.77866942 0.033579763 0.098642893
0.19926226 0.36694968 0.16359998 -0.67922944 -0.73298615 -0.037130948 0.097789787
0.20350209 0.36369634 0.16732942 -0.72650373 -0.6820246 -0.083873138 0.091884032
0.21815875 0.36822325 0.16701397 -0.75918901 -0.64040333 -0.1162568 0.10214795
-0.21389358 0.37205857 0.16174638 0.67542905 -0.73580062 -0.04891859 0.088921234
-0.20912422 0.37571824 0.16863941 0.62942421 -0.77664649 0.025403772 0.10590372
-0.19143219 0.37295792 0.16757767 0.55604237 -0.83048171 -0.033421468 0.094231419
-0.18591666 0.37719011 0.16195826 0.61062819 -0.79027772 -0.050935104 0.091865532
0.18588057 0.3772178 0.16838717 -0.64685088 -0.75983071 -0.065125145 0.090008423
0.19332032 0.3715091 0.16026743 -0.59232533 -0.79517806 -0.12977913 0.090093032
0.20827407 0.37637058 0.16646203 -0.63366294 -0.76051444 -0.14173593 0.09623187
0.21108121 0.37421659 0.16815056 -0.65182585 -0.75116801 -0.10425748 0.093866952
-0.19552362 0.38615432 0.16575274 0.58005452 -0.81195909 -0.065262444 0.090465285
-0.18201302 0.38018548 0.16830747 0.6079495 -0.78888142 -0.089797363 0.093102597
-0.1744965 0.3859531 0.16481617 0.60378611 -0.78557956 -0.13530329 0.08200933
0.17296925 0.38712502 0.16271394 -0.66085643 -0.75031567 -0.017180432 0.087437466
0.19092253 0.38968489 0.16799469 -0.65268463 -0.75715637 -0.026778804 0.097640447
-0.18770738 0.39215195 0.16139068 0.63090408 -0.77050573 -0.091000058 0.083150804
-0.1660981 0.3923974 0.16867667 0.70824522 -0.70566684 -0.020565428 0.096652441
0.16756062 0.39127523 0.16010244 -0.66846186 -0.74374634 -0.00029314021 0.090758204
0.18003583 0.39803854 0.16935673 -0.67865282 -0.73444676 0.0042785779 0.084836371
-0.1731355 0.40333331 0.16603425 0.64267081 -0.76501578 -0.041534148 0.095119521
-0.16845489 0.40692487 0.16608204 0.60678029 -0.7933979 0.048346933 0.10744575
-0.15230025 0.40298489 0.1693791 0.52749228 -0.84492165 0.08865232 0.093400091
0.1518299 0.40334582 0.16076811 -0.51102239 -0.85907263 0.029162416 0.10076465
0.17574969 0.40132737 0.16243452 -0.67503697 -0.73751271 -0.020003481 0.085635863
-0.15476587 0.41710743 0.1659836 0.49366635 -0.86918914 0.02835243 0.091825046
-0.13515007 0.41192868 0.16279399 0.33005798 -0.93555456 0.12569539 0.077644333
-0.12925002 0.41437256 0.16578108 0.29797676 -0.94835907 0.10874242 0.089291483
0.12793608 0.41491684 0.16658305 -0.41275525 -0.91084194 4.9436945e-05 0.089785643
