# .PCD v0.7 - Point Cloud Data file format
VERSION 0.7
FIELDS x y z normal_x normal_y normal_z curvature
SIZE 4 4 4 4 4 4 4
TYPE F F F F F F F
COUNT 1 1 1 1 1 1 1
WIDTH 579
HEIGHT 1
VIEWPOINT 0 0 0 1 0 0 0
POINTS 579
DATA ascii
-0.15590629 -0.22148576 -0.31716192 -0.00046129574 0.97022671 0.24219792 2.5847074e-05
-0.14136398 -0.22133186 -0.31778359 0.00017687381 0.97026098 0.24206114 1.8363809e-05
-0.13317414 -0.22266006 -0.31241798 0.0002156444 0.97039741 0.24151352 2.5848407e-05
-0.12529546 -0.22260487 -0.31264099 -0.00026779619 0.97055876 0.24086434 0
-0.11598055 -0.22181299 -0.31583995 -0.0031688618 0.97075802 0.24003923 0
-0.10676923 -0.22156401 -0.31684566 -0.010040551 0.97002816 0.2427851 0.00012665114
-0.09691669 -0.22301826 -0.31097099 -0.02861907 0.96939713 0.24382383 0.0002782357
-0.087698907 -0.22217162 -0.3127026 -0.057952687 0.96792465 0.24446537 0.00040939334
-0.068921328 -0.22066177 -0.31166059 -0.14823043 0.95829678 0.24432555 0.001134025
0.0044046799 -0.22830009 -0.31803989 -0.49879465 0.82901645 0.25285491 0.00055350317
0.011405758 -0.22508344 -0.31313145 -0.53627372 0.8083241 0.24294604 0.00055020477
-0.34213662 -0.21444026 -0.31298357 0.60461015 0.75919592 0.2409735 0.00083278539
-0.33260292 -0.21960516 -0.31906214 0.56727815 0.78677553 0.243269 0.00076797046
-0.28100687 -0.21124718 -0.31192777 0.37041172 0.89304316 0.25547808 0.00091589597
-0.2743718 -0.21263058 -0.31525165 0.31109789 0.91694421 0.24986295 0.0012333354
-0.26586261 -0.21510172 -0.3165307 0.26167765 0.93444628 0.24152608 0.00072477449
-0.251369 -0.21873085 -0.31564677 0.18539461 0.95212734 0.2430687 0.00095387216
-0.066073842 -0.21949093 -0.31405556 -0.15923245 0.9578532 0.23908642 0.0010730695
-0.043425851 -0.21303475 -0.31650645 -0.29608619 0.92024136 0.25590789 0.00098756514
-0.033744115 -0.21033755 -0.31405488 -0.39386913 0.88619739 0.24396996 0.0007184312
0.020544359 -0.21742119 -0.31835806 -0.56595558 0.79037118 0.23453689 0.0002471903
-0.35348624 -0.20420702 -0.31383353 0.66580057 0.70727444 0.23763943 0.00091403886
-0.29546449 -0.20239234 -0.31910497 0.45364362 0.8523218 0.26029795 0.0010401773
-0.28715333 -0.20800409 -0.31362265 0.4136883 0.87691683 0.24470147 0.0011262295
-0.03054589 -0.20933728 -0.31247017 -0.40466586 0.88260186 0.23928963 0.00089746853
-0.021377916 -0.20409691 -0.31507593 -0.44728926 0.86171389 0.23954418 0.0011223207
-0.018055873 -0.2025231 -0.31484258 -0.4704951 0.84903532 0.24036075 0.001356878
-0.36171496 -0.1963664 -0.31291664 0.68732834 0.68587577 0.2390693 0.0004900748
-0.31002754 -0.19466338 -0.3152751 0.55423129 0.79633105 0.24224915 0.0015226185
-0.30413872 -0.19903049 -0.31382304 0.49961704 0.83169252 0.24221961 0.0011493567
-0.011048741 -0.19944134 -0.3114256 -0.50692123 0.8264693 0.24490687 0.0010900315
-0.37200347 -0.18421502 -0.3140341 0.7605893 0.60295117 0.2407361 0.00060610514
-0.32531804 -0.18430585 -0.31107491 0.62310737 0.74437147 0.24010068 0.0009747466
0.0087362342 -0.18368924 -0.31545421 -0.62266243 0.7410816 0.25117642 0.0010009193
0.059667058 -0.18100524 -0.31220922 -0.77156031 0.58683532 0.24559927 0.00040800872
0.014681867 -0.17774396 -0.31767467 -0.65874976 0.71093506 0.24621148 0.0013512663
0.021345539 -0.17031366 -0.31918532 -0.72191697 0.64958555 0.23848388 0.0013606998
0.061638307 -0.17590418 -0.31703654 -0.77506298 0.57901394 0.25302213 0.00048364088
-0.38429978 -0.16423342 -0.31964812 0.82153165 0.51258129 0.24969207 0.00059441081
-0.34658247 -0.16185975 -0.31255725 0.76140726 0.60356033 0.23658811 0.0012548738
0.026376016 -0.16682062 -0.31321058 -0.73161548 0.64138007 0.23102055 0.0013614568
0.07034114 -0.16302672 -0.31670612 -0.83537018 0.49724582 0.23431456 0.00082742871
-0.39196128 -0.15282038 -0.31519151 0.8625018 0.44390211 0.24298474 0.00071874663
0.035648644 -0.15410955 -0.31501719 -0.79393536 0.55356568 0.25145903 0.0013878444
-0.35649332 -0.14724615 -0.31294161 0.8206861 0.51251137 0.25259912 0.0010054358
0.039664287 -0.14866149 -0.31375644 -0.81555426 0.52470469 0.24404132 0.0016197618
0.081497058 -0.14325267 -0.31353098 -0.88901174 0.39201999 0.23659776 0.001005844
-0.40168196 -0.13366473 -0.31179163 0.90195328 0.3554287 0.24525642 0.0005773321
-0.36364448 -0.13263744 -0.31561679 0.88949794 0.38929614 0.23925297 0.00061142142
0.085673563 -0.1302949 -0.31757373 -0.91584587 0.31936076 0.24338247 0.0004743007
-0.36807281 -0.12176739 -0.31757593 0.90333235 0.35438788 0.24166057 0.0011988559
0.049606297 -0.12847219 -0.31725258 -0.87366515 0.4119449 0.25886416 0.0012383411
0.050651021 -0.12790035 -0.31448919 -0.88343424 0.39561573 0.25106192 0.00091869751
0.089651063 -0.12094891 -0.31449446 -0.92928952 0.27528024 0.24625537 0.00042658701
0.053701289 -0.11973603 -0.3153584 -0.91658694 0.32094646 0.23845688 0.0011928489
0.090966299 -0.11521979 -0.31614581 -0.93202943 0.26895982 0.2428613 0.0005043752
-0.40832222 -0.10972615 -0.31524855 0.94262397 0.23055057 0.24146751 0.00060020201
-0.37401426 -0.10466958 -0.31664366 0.93244231 0.2744382 0.23502114 0.00081652851
0.057501294 -0.10627843 -0.31802595 -0.9351365 0.26051116 0.24011195 0.00091388897
0.093304053 -0.10598604 -0.31572914 -0.94651705 0.20445938 0.24960347 0.00074351666
-0.41092965 -0.095627531 -0.31602871 0.95708901 0.15498362 0.24486874 0.00046211362
-0.37533355 -0.099742219 -0.31559032 0.94558901 0.22047719 0.23927218 0.0010305558
0.059285127 -0.09919443 -0.317637 -0.94530118 0.20983998 0.24974567 0.00094805547
0.060641617 -0.093281657 -0.3169224 -0.95443428 0.17195314 0.24390005 0.0013298356
0.096072093 -0.093709014 -0.31443757 -0.95472723 0.15223616 0.25557786 0.00089075154
-0.4119432 -0.083214484 -0.31867677 0.96502578 0.097473398 0.24336036 0.00072751637
-0.37844953 -0.084525608 -0.3148087 0.95990562 0.13196874 0.24731658 0.0008501691
0.063034177 -0.08069618 -0.31521785 -0.96299911 0.10212698 0.2494048 0.00090532779
0.097001746 -0.0835163 -0.31577811 -0.96259254 0.099816859 0.25189725 0.00054582878
-0.41353178 -0.075803295 -0.31423125 0.9686175 0.064659782 0.23999825 0.00024088928
-0.37946314 -0.073064424 -0.31405705 0.96428812 0.08568567 0.25061199 0.00043960681
0.063199207 -0.076260149 -0.31572464 -0.96599418 0.070157677 0.24886379 0.00060486834
0.096542813 -0.07728292 -0.31927505 -0.96312302 0.092055231 0.25282389 0.00038350394
-0.4145233 -0.060941469 -0.31312534 0.9695648 0.025815852 0.24347007 0.00014271917
0.064917006 -0.064109616 -0.31170371 -0.96922719 0.041824348 0.24258891 0.00030730834
0.098517433 -0.065687954 -0.31399482 -0.97058696 0.035680033 0.23809238 0.00020409038
-0.41450348 -0.051997162 -0.31320557 0.97009623 0.011796458 0.24243395 7.7259079e-05
-0.37871385 -0.058861405 -0.31955469 0.96547824 0.021076931 0.25962946 0.00023904804
0.064310841 -0.055216789 -0.31455433 -0.96968937 0.019299416 0.24357778 0.00011471935
0.097734608 -0.056392588 -0.31776273 -0.97001559 0.021836096 0.24205963 6.7315028e-05
0.06370756 -0.046470813 -0.31699139 -0.968687 0.009238366 0.24811301 9.6593074e-05
0.099245489 -0.04048977 -0.31165919 -0.97031808 0.0016289164 0.24182683 0
-0.38084796 -0.03842444 -0.31093341 0.97042668 0.00054982211 0.2413955 0
-0.3794874 -0.03688506 -0.31642973 0.96875066 0.00039454221 0.24803647 0.00011163716
0.064777881 -0.03370472 -0.31266758 -0.97048104 -0.00019612905 0.24117739 7.3660517e-06
-0.37954792 -0.028781489 -0.31618527 0.9692716 -0.0015368531 0.24598822 0
0.063509397 -0.025531594 -0.31779194 -0.97037327 -0.0001380069 0.24161078 8.49768e-06
0.097782955 -0.025886882 -0.31756741 -0.96982348 0.0006987612 0.2438073 9.3370172e-06
-0.41410971 -0.014644178 -0.31479624 0.97026652 3.9520648e-05 0.24203868 1.2108645e-05
-0.38029873 -0.012302315 -0.31315216 0.96942919 -0.0015454903 0.24536642 0
-0.37934536 -0.019130133 -0.31700349 0.96913534 -0.0007113532 0.24652821 0
0.063667022 -0.013261175 -0.31715515 -0.96931249 -0.0017434214 0.24582571 7.1706585e-05
-0.41333139 -0.0056019998 -0.31794041 0.96956021 0.00024011455 0.24485275 0
0.063048631 -0.0044247601 -0.31965327 -0.96767026 -0.0051126843 0.25216675 0.00012768344
0.098296486 -0.0037134346 -0.3154929 -0.97038901 0.00033552063 0.24154732 0
-0.41420192 0.0045933016 -0.31442374 0.97009826 3.0908009e-06 0.24271253 0
0.063683137 0.0019680876 -0.31709006 -0.96871734 -0.0014756208 0.24816234 6.2474603e-05
0.098847046 0.0047350223 -0.31326878 -0.97035348 -0.00048440063 0.24168949 6.4232145e-06
-0.41405305 0.014911273 -0.31502503 0.97017586 -0.00055733195 0.24240138 0
0.063622721 0.016815595 -0.31733412 -0.96879071 0.00013805937 0.24788 6.4315878e-05
0.097554401 0.017621364 -0.31849068 -0.9694944 -0.00065582886 0.2451126 9.7869097e-06
-0.4143554 0.025374848 -0.31380379 0.97043276 -0.00040188126 0.24137136 1.5684584e-05
-0.38015556 0.022695651 -0.3137306 0.97023439 0.00034142248 0.24216759 0
0.064901598 0.029339267 -0.31216779 -0.97056526 2.7280057e-05 0.24083818 4.4825288e-06
-0.41456479 0.03179495 -0.31295776 0.97041506 -0.00032105701 0.24144244 0
-0.37872389 0.033629801 -0.31951416 0.96708524 0.00064132852 0.25445181 0.00033358342
0.06369485 0.036081076 -0.31704277 -0.9703061 -0.00082659943 0.24187887 0
0.098088607 0.030157827 -0.3163327 -0.96995425 0.00058956002 0.24328645 4.496067e-06
-0.41343686 0.045192387 -0.31751448 0.97036362 -0.0053051431 0.24159126 0
-0.37881655 0.042097107 -0.31913981 0.9679696 -0.0017713715 0.25106111 0.00023567601
0.064037651 0.047565393 -0.31565791 -0.96995229 -0.0050470736 0.24324261 2.5867997e-05
0.098867893 0.046062175 -0.31318459 -0.97031289 -0.0046336567 0.24180853 3.2333464e-05
-0.38047853 0.050545 -0.31242585 0.97011548 -0.007826115 0.24251719 0.0001225477
-0.3795428 0.053080812 -0.31620586 0.96980065 -0.014109314 0.24349071 1.7654847e-05
0.097413413 0.053486004 -0.31906027 -0.96961081 -0.010874013 0.24441074 4.7914978e-05
-0.37957081 0.065138757 -0.31571707 0.96930724 -0.033982567 0.24349259 0
0.064092226 0.063334592 -0.31507838 -0.96895581 -0.032653909 0.24506812 0.00015492426
0.099607587 0.063182808 -0.31019634 -0.97145438 -0.030372946 0.23527409 0.00012427795
-0.41395918 0.071582422 -0.31362355 0.96810484 -0.055876069 0.24423519 0.00033124839
-0.37838757 0.072233275 -0.31861228 0.96726173 -0.054965645 0.2477569 0.00062990311
0.063152947 0.078397334 -0.31534648 -0.96570271 -0.081852913 0.2464112 0.00057720789
0.098099992 0.07458213 -0.31371152 -0.97008252 -0.059591848 0.23534808 0.00042205091
-0.41248327 0.085608065 -0.31586733 0.96171844 -0.12681524 0.24293084 0.00051097397
-0.37796333 0.084360585 -0.31711826 0.95903879 -0.1370919 0.2478921 0.0010723353
0.06265109 0.085575804 -0.314372 -0.96120745 -0.12946294 0.24355616 0.001074416
0.096446522 0.084283955 -0.31781343 -0.96394211 -0.1108923 0.24190584 0.00036678489
-0.41099209 0.094868168 -0.31637985 0.95849609 -0.15107688 0.24178721 0.00083913998
0.058981255 0.0998073 -0.31835797 -0.94292235 -0.21342431 0.25563127 0.00073949998
-0.37409645 0.10595217 -0.31490672 0.93401754 -0.26067024 0.24425866 0.0013234109
0.057835128 0.10950282 -0.31283313 -0.9328444 -0.25766996 0.25180843 0.00093505892
0.094181389 0.10701467 -0.3114424 -0.94324684 -0.23093973 0.23864658 0.00048071489
-0.40812778 0.11343651 -0.31230846 0.93735266 -0.24731378 0.24536896 0.00057161803
0.055457883 0.11619608 -0.31323558 -0.91454256 -0.33093655 0.23257893 0.0007515524
-0.40494812 0.12210914 -0.31430286 0.92315221 -0.2928437 0.24906322 0.0009489762
-0.36833036 0.12159641 -0.31681281 0.89887506 -0.36259726 0.24606255 0.00076994899
0.085940257 0.12961614 -0.31743491 -0.90893167 -0.33648837 0.24620874 0.00040931601
-0.40075973 0.13238305 -0.31698388 0.90526152 -0.3482407 0.24337216 0.00042548199
-0.39950556 0.13792738 -0.31407148 0.89995331 -0.36254242 0.24217165 0.00053410215
-0.36464256 0.13289648 -0.3115378 0.87367934 -0.4191626 0.2469556 0.0012635692
0.046076126 0.13797006 -0.31307274 -0.86238861 -0.44884455 0.23414606 0.00073084794
0.08708252 0.13033098 -0.31213713 -0.90941018 -0.33534715 0.2459988 0.00049590436
-0.39395404 0.14760706 -0.31728625 0.87527412 -0.41993153 0.2399012 0.00083222432
-0.35772508 0.14543334 -0.31287295 0.82891512 -0.50666624 0.23704249 0.0011766036
0.039646808 0.14841625 -0.31436557 -0.80623823 -0.54191619 0.23729053 0.00075120636
0.041497231 0.14607738 -0.31339943 -0.82426035 -0.51457328 0.23623949 0.0012277684
0.078414276 0.14985272 -0.31290787 -0.87360388 -0.42071468 0.24457181 0.0006886429
0.081203654 0.14495219 -0.3115575 -0.87885422 -0.41318485 0.23852369 0.00064517849
-0.35243505 0.15018317 -0.3199814 0.80454886 -0.53828192 0.25090584 0.0010956104
0.034351923 0.15559597 -0.31603676 -0.78471541 -0.56735784 0.24965343 0.0011096298
-0.38561645 0.16589475 -0.31149694 0.81646633 -0.52369142 0.24316689 0.00089810399
-0.34449571 0.16332674 -0.31498775 0.75406373 -0.60743064 0.24983174 0.00073054183
0.027744874 0.16531673 -0.31305879 -0.74077874 -0.62725484 0.2404127 0.0011559775
0.06894879 0.16640373 -0.31380367 -0.8276118 -0.50948119 0.23555806 0.00058753265
-0.33470708 0.17347819 -0.31767896 0.70026523 -0.67067993 0.24457508 0.0013736708
0.015721854 0.17787762 -0.3144986 -0.67115015 -0.7005986 0.24232042 0.0011330696
0.020284105 0.17228924 -0.31714696 -0.69153732 -0.68065244 0.24184394 0.00082617224
-0.37184182 0.18487664 -0.3127234 0.75822079 -0.60405761 0.24538861 0.0006321299
-0.36918673 0.18802822 -0.3124325 0.75292838 -0.6107595 0.24509507 0.00059023785
-0.32137969 0.18523374 -0.31874681 0.60813016 -0.75692171 0.2392637 0.00084285473
0.0064032185 0.18508823 -0.31741932 -0.63909829 -0.73254681 0.23436829 0.0011402766
0.055912681 0.18458652 -0.3144114 -0.76362675 -0.59920651 0.24047005 0.00041768956
-0.36033526 0.19578278 -0.31866154 0.70945507 -0.65808851 0.25217676 0.00080221763
-0.35660455 0.19995824 -0.31843227 0.679712 -0.68998319 0.24882686 0.00083449797
-0.31266344 0.1928785 -0.31535465 0.56465846 -0.78739238 0.24733371 0.0013163601
-0.0050282497 0.19450635 -0.31448972 -0.55349666 -0.79497713 0.24830009 0.00084739865
0.04866749 0.19150482 -0.31798932 -0.72046256 -0.64883459 0.24484125 0.00076152699
0.051013 0.19086552 -0.31256825 -0.7329421 -0.63672316 0.23954006 0.0008418131
-0.35704342 0.20050615 -0.31559908 0.68184423 -0.68802536 0.24841386 0.00089642999
-0.29421341 0.20316438 -0.31854317 0.42393163 -0.87139505 0.24688573 0.00096479023
-0.28851086 0.20703176 -0.31472009 0.41208062 -0.88158417 0.23021494 0.0010244832
-0.024729535 0.20570171 -0.31525019 -0.44256747 -0.86306053 0.2434347 0.00092414033
-0.019940361 0.20213655 -0.31961033 -0.46394077 -0.85033298 0.24838038 0.0011122188
0.033334102 0.20697555 -0.31744125 -0.64572561 -0.72510684 0.23928756 0.00076382956
0.040533192 0.20115992 -0.31592932 -0.68324012 -0.68975759 0.2396194 0.00059376634
-0.33591098 0.21716867 -0.31982157 0.59147304 -0.77039212 0.23802438 0.00064504653
-0.27543327 0.21257365 -0.31409124 0.3431299 -0.90626872 0.24685834 0.00090992311
-0.26737589 0.21527074 -0.31423661 0.29763362 -0.92413718 0.23955102 0.001008535
-0.25662506 0.21755691 -0.3161557 0.21713325 -0.94530177 0.24342915 0.00064534514
-0.061113957 0.21718027 -0.31930172 -0.19267039 -0.9522022 0.23704231 0.0015858244
-0.058482464 0.21677296 -0.31884161 -0.21464646 -0.94865119 0.2323527 0.0013293441
-0.040391311 0.21357849 -0.31048596 -0.31064183 -0.91786587 0.24702993 0.0010134992
-0.035936706 0.21148396 -0.31271389 -0.33970606 -0.90847111 0.24347484 0.0011062993
0.019782735 0.21948758 -0.31312656 -0.57403851 -0.7813012 0.24504746 0.00077248813
0.027896106 0.21187764 -0.31703699 -0.61463708 -0.74643993 0.25504643 0.0006636919
-0.32211086 0.22718608 -0.3171463 0.49570829 -0.83193547 0.24931222 0.00055923959
-0.2366807 0.22139913 -0.3135078 0.11085829 -0.96473008 0.23876001 0.00045260557
-0.2232476 0.22232924 -0.31330749 0.034371749 -0.9700259 0.2405584 0.000278586
-0.21990089 0.2227129 -0.3122046 0.034234535 -0.97004831 0.24048777 0.00033822845
-0.20629439 0.22261661 -0.31259352 0.0073390221 -0.97037101 0.24150836 2.8127919e-05
-0.19671877 0.22116551 -0.31845561 0.0018559378 -0.96728355 0.25369093 0.0001709349
-0.1814055 0.22177826 -0.31598029 0.0002442773 -0.97044641 0.24131647 2.162362e-05
-0.16828303 0.22178644 -0.3159472 0.00018856503 -0.97044408 0.24132597 0
-0.14798194 0.22234632 -0.31368542 0.00028102135 -0.97059268 0.24072775 0
-0.13299854 0.22232828 -0.31375837 -0.00021499115 -0.97034377 0.24172932 0
-0.12439872 0.22321643 -0.31017047 -0.00023338807 -0.97031093 0.24186094 3.8233402e-06
-0.10425304 0.22208655 -0.31473482 -0.010576959 -0.96966749 0.24419905 3.6909314e-05
-0.090683669 0.22105418 -0.31799579 -0.05729837 -0.96483564 0.25653285 0.00045723334
-0.086470917 0.2215699 -0.31480378 -0.07416027 -0.96699697 0.24375619 0.00067069341
-0.068811946 0.22052518 -0.31211579 -0.15757811 -0.95819092 0.23882911 0.0011941526
0.016386297 0.22006488 -0.31881022 -0.56074351 -0.79196841 0.24156332 0.00062361982
-0.31610733 0.23149951 -0.31499425 0.47345257 -0.84556878 0.24669001 0.00054163771
-0.30284145 0.23883308 -0.31212631 0.4204787 -0.872944 0.24731837 0.00058350543
-0.2986033 0.23995748 -0.31562486 0.39880982 -0.88364995 0.24518079 0.0007518481
-0.014522688 0.23822707 -0.31740108 -0.3932384 -0.88514018 0.24877796 0.00055256643
-0.0089387335 0.23711482 -0.31145394 -0.4241443 -0.87171346 0.24539219 0.00079111825
0.0048853029 0.23032513 -0.3101593 -0.48928091 -0.83969867 0.23560643 0.00050432846
-0.2953569 0.24146684 -0.31517363 0.37576666 -0.89546365 0.23862982 0.00067927013
-0.27465734 0.24780087 -0.31857392 0.27269903 -0.93033028 0.24519533 0.00068388123
-0.031319726 0.24498802 -0.31678534 -0.31860927 -0.91658658 0.24157257 0.00072274869
-0.026639024 0.24346244 -0.31654319 -0.36556333 -0.89728928 0.24745785 0.00036603259
-0.2639969 0.25104812 -0.31588164 0.20428637 -0.9468689 0.24840751 0.00047164422
-0.25079247 0.2528272 -0.31923926 0.14613004 -0.95861804 0.24433064 0.0005653429
-0.24264145 0.25411117 -0.31829941 0.10583604 -0.96329796 0.24668975 0.00057590782
-0.22948295 0.25508711 -0.31784183 0.046737652 -0.96919453 0.24182135 0.00031982915
-0.20639616 0.25684425 -0.31255445 0.0056666145 -0.97035569 0.24161461 1.004589e-05
-0.19243228 0.25622201 -0.31506824 7.0771086e-05 -0.97017068 0.24242288 3.1159401e-05
-0.17415442 0.25544444 -0.31820938 -0.00036807137 -0.96949452 0.2451129 5.7450093e-06
-0.16735198 0.25548622 -0.31804049 0.00013819823 -0.96950591 0.24506785 0
-0.15428972 0.25573164 -0.31704909 0.00010986732 -0.96999758 0.24311447 4.0877085e-06
-0.1440655 0.25653988 -0.31378412 0.00020629782 -0.97021985 0.24222584 0
-0.12251289 0.25702691 -0.31181663 -8.845103e-05 -0.9702732 0.2420121 0
-0.11335578 0.25558835 -0.31762797 -0.0034424462 -0.96983987 0.24371865 2.1450265e-05
-0.10453136 0.2555095 -0.31794646 -0.011277393 -0.96981162 0.24359445 0
-0.083636045 0.25506908 -0.31724826 -0.06152419 -0.96656048 0.24894902 0.00048209156
-0.065612391 0.25382641 -0.31588256 -0.14877559 -0.95835286 0.243774 0.00045535417
-0.056176696 0.25216261 -0.31503817 -0.1870725 -0.95126253 0.24516019 0.00084299513
-0.042178683 0.25015688 -0.31111348 -0.26611269 -0.93372428 0.23946394 0.00049140031
-0.27566805 -0.25146607 -0.30308336 0.26263586 0.93357104 0.24385945 0.00053372653
-0.26880294 -0.25377998 -0.30126974 0.2500968 0.93591708 0.2480136 0.00054475368
-0.25702727 -0.25493997 -0.30595431 0.18423021 0.95308709 0.24017517 0.00069747691
-0.24963546 -0.25563747 -0.30901635 0.15450031 0.96023345 0.23255409 0.00077408657
-0.21802576 -0.25890225 -0.30424061 0.018470358 0.96981961 0.24312304 3.9018909e-05
-0.2054905 -0.25904435 -0.30366653 0.0030205981 0.97119385 0.23827185 1.0221566e-05
-0.1944937 -0.25819433 -0.30710042 0.00011629075 0.97060049 0.24069647 2.5215775e-06
-0.18388508 -0.25816348 -0.30722499 -0.00055485091 0.97037172 0.24161613 0
-0.17253493 -0.25798452 -0.30794799 -0.00018765776 0.97042066 0.24142 1.9234754e-05
-0.16415709 -0.25842935 -0.306151 1.0057412e-05 0.97056812 0.24082687 0
-0.1507847 -0.25786602 -0.30842671 0.00034276026 0.97036409 0.24164739 4.4771764e-06
-0.14756541 -0.25879541 -0.30467218 -1.5557342e-05 0.97070271 0.24028383 7.2913987e-05
-0.13640574 -0.25921753 -0.30296695 4.3177708e-05 0.97069472 0.24031596 0
-0.12687032 -0.25897956 -0.30392826 3.6871918e-06 0.97068059 0.24037325 0
-0.11935946 -0.25829715 -0.30668509 -6.5454347e-05 0.97062099 0.24061337 3.5695513e-05
-0.10603079 -0.25885952 -0.30441326 -0.0093378145 0.97064781 0.24032405 6.4891523e-05
-0.084441841 -0.25774258 -0.3066839 -0.055150975 0.9685874 0.24248056 0.0001736867
-0.07055366 -0.25725022 -0.3049992 -0.1238042 0.96487451 0.23171034 0.00056835881
-0.067549154 -0.25659475 -0.30637637 -0.13598225 0.96164572 0.23821467 0.00059217267
-0.047398381 -0.25314635 -0.30422199 -0.22606176 0.94543403 0.23462886 0.00071422255
-0.30476567 -0.240244 -0.30357623 0.41565233 0.87579066 0.2454057 0.00074119645
-0.29170692 -0.24603373 -0.30319446 0.34582955 0.90598381 0.24412136 0.00072784553
-0.2861852 -0.2480453 -0.30266953 0.33055699 0.91347158 0.23728026 0.00047001269
-0.31477201 -0.234424 -0.30678424 0.47310299 0.84720284 0.24170427 0.00052319904
-0.30523884 -0.23898041 -0.30730903 0.42268801 0.87362075 0.24108408 0.00092041865
0.0026924908 -0.23247983 -0.3068659 -0.47305825 0.84765673 0.24019544 0.00064205204
-0.33141178 -0.22541676 -0.30221468 0.53729957 0.80918813 0.23774724 0.00061131769
-0.32559282 -0.22853984 -0.30478442 0.51656795 0.82201028 0.23970145 0.00089223759
-0.21619649 -0.22442794 -0.30527624 0.017796485 0.97137433 0.23688649 4.8250055e-05
-0.20081617 -0.22479144 -0.30380782 0.0024146531 0.97072434 0.24018411 0
-0.19847983 -0.22470868 -0.30414221 0.0010399002 0.97060645 0.24066974 0
-0.18483433 -0.22386838 -0.30753666 -0.00010765303 0.97060525 0.24067715 1.2397141e-05
-0.17179319 -0.22390601 -0.30738467 -7.7591118e-05 0.97066087 0.24045257 0
-0.16691992 -0.22521093 -0.30211312 -1.0463191e-05 0.97068346 0.24036148 0
-0.14177513 -0.22468869 -0.30422291 -2.065449e-05 0.97070444 0.24027671 1.1229586e-05
-0.13148817 -0.22492093 -0.30328476 1.6515265e-05 0.97068042 0.24037373 0
-0.12958582 -0.22374879 -0.30801985 -2.9057363e-05 0.97065091 0.2404929 0
-0.11600536 -0.2249455 -0.3031854 -0.0041815732 0.97061175 0.24061495 0
-0.10779326 -0.22504203 -0.3027955 -0.0057594031 0.97054452 0.24085276 5.4419368e-05
-0.093388706 -0.22443759 -0.30476478 -0.049083795 0.96869045 0.24337117 0.00043093233
-0.087690488 -0.22474532 -0.30232561 -0.059931468 0.96932429 0.23836645 0.00048464074
-0.066471405 -0.22201124 -0.3043831 -0.16699691 0.95690006 0.23760092 0.0013944972
0.021314304 -0.22106548 -0.30438921 -0.57594925 0.78226292 0.2373758 0.00047222688
-0.34455723 -0.21379104 -0.30850792 0.61075836 0.75440544 0.24051318 0.00081533677
-0.33893228 -0.21828404 -0.30929434 0.58461201 0.7743147 0.2422097 0.00078089826
-0.27254775 -0.21604091 -0.30457461 0.28807443 0.92577052 0.24487148 0.0010591472
-0.26958132 -0.21769644 -0.30209357 0.28211257 0.9267832 0.24796213 0.0010139656
-0.043179505 -0.21587844 -0.3053084 -0.30948362 0.91966069 0.2417523 0.0013716269
-0.035097588 -0.21377335 -0.30286652 -0.37690631 0.89647752 0.23295839 0.00082711066
0.034248624 -0.21099795 -0.30278835 -0.63670659 0.73364347 0.23742776 0.00068197964
-0.35838392 -0.20301849 -0.30439797 0.68072593 0.69376606 0.23516142 0.00060868572
-0.30415761 -0.20130569 -0.30613837 0.49890354 0.83093446 0.24625854 0.0014144045
-0.29451743 -0.20652615 -0.30581984 0.428951 0.87223518 0.23496129 0.00092333893
-0.016093791 -0.20432065 -0.30482411 -0.46462697 0.85284561 0.23827767 0.0011601285
-0.36471367 -0.19656675 -0.30327505 0.70897865 0.66200799 0.24309398 0.00090395246
-0.31175748 -0.19680353 -0.3042039 0.55232054 0.80127889 0.22998734 0.0015011338
-0.30984569 -0.19860181 -0.3024545 0.54495251 0.80491966 0.23480031 0.001242705
-0.005171461 -0.19648032 -0.30818072 -0.54482049 0.80305874 0.24138635 0.0010130709
0.0036041446 -0.19182542 -0.30412054 -0.58079445 0.77583122 0.24650301 0.0010065393
-0.37303534 -0.18580769 -0.30665791 0.75959146 0.60282528 0.24417724 0.00059823203
-0.33081922 -0.18038601 -0.30832753 0.65774173 0.71506411 0.23676826 0.0012759579
-0.32853091 -0.18397747 -0.30351442 0.64764839 0.72084308 0.24685414 0.001325245
0.0064580049 -0.18770908 -0.30931324 -0.60434014 0.75684136 0.24892576 0.0014106055
0.011164078 -0.18663749 -0.30003294 -0.62855011 0.73845738 0.24414258 0.0011427664
0.057097495 -0.18681692 -0.30487198 -0.76127124 0.60209072 0.2407338 0.00054242095
-0.38412583 -0.17183334 -0.30317545 0.80217218 0.54399592 0.24614693 0.00044118281
-0.33337465 -0.17791672 -0.30878606 0.67253506 0.70026922 0.23941524 0.0011939373
0.016227439 -0.17998749 -0.3067438 -0.67910266 0.69524944 0.23547363 0.0012361308
0.024560295 -0.17221436 -0.30435866 -0.72181529 0.64871877 0.24113622 0.0011783495
0.067221954 -0.17333503 -0.30404764 -0.79283386 0.56167948 0.23649648 0.00044148666
-0.3899895 -0.16132572 -0.30706283 0.83503741 0.49614468 0.23780875 0.00092838466
-0.3503235 -0.16174743 -0.30111957 0.76753694 0.59239143 0.24486621 0.00086809928
-0.34322649 -0.16937473 -0.30273354 0.72751319 0.64326417 0.23861219 0.00080198242
0.033380806 -0.16169623 -0.30558461 -0.77289176 0.58446908 0.24705109 0.0011714643
0.07008785 -0.16748044 -0.30756116 -0.82028145 0.52105868 0.23587324 0.00066355139
-0.39367858 -0.15560766 -0.30398935 0.85842788 0.45274624 0.24108584 0.00063896267
0.036021963 -0.15752967 -0.30608729 -0.77673739 0.58054101 0.24423599 0.0011144571
-0.36052972 -0.14241816 -0.30942655 0.84882963 0.47363481 0.23485801 0.00089014741
-0.35957798 -0.14464214 -0.30842477 0.83485812 0.49365327 0.24355373 0.00086463633
0.042427257 -0.14829303 -0.30530277 -0.82529128 0.51056504 0.24128321 0.0013371177
-0.40494069 -0.13067293 -0.30321094 0.90454137 0.34878239 0.24526678 0.00063283707
-0.36740774 -0.13186255 -0.3033666 0.87676996 0.42159668 0.23136687 0.00079264311
0.04841416 -0.1367964 -0.30669874 -0.85250163 0.46154124 0.24539892 0.00088485953
0.089085467 -0.13265516 -0.30145714 -0.91366017 0.33111379 0.23577257 0.00078443385
-0.40651739 -0.12568915 -0.30365109 0.91730803 0.31286716 0.24629276 0.00018457654
-0.3691152 -0.12736203 -0.30522138 0.89698833 0.37468529 0.23456924 0.00075801153
0.054510351 -0.12540281 -0.30369508 -0.88467824 0.40069205 0.23830709 0.00069100718
0.091755867 -0.12072511 -0.30673349 -0.93159169 0.27477616 0.23798101 0.00070161361
-0.40957099 -0.11328232 -0.3074981 0.94106245 0.23731205 0.24100734 0.00050580798
-0.37572455 -0.11116677 -0.30207062 0.92771143 0.28361583 0.2427212 0.0010127309
0.057503026 -0.11433803 -0.30782488 -0.92319292 0.30212367 0.23756291 0.00071079389
-0.37696645 -0.10236527 -0.30678338 0.93801683 0.25563395 0.23404221 0.00051392615
0.095217228 -0.10729487 -0.30711743 -0.94737601 0.21243997 0.23947409 0.00081779755
-0.41414592 -0.0927715 -0.30553648 0.9613685 0.13775349 0.23831625 0.00049970159
-0.38067433 -0.092382662 -0.30022961 0.95925975 0.15961275 0.23311928 0.0014211234
-0.37824571 -0.096098959 -0.30692315 0.9495706 0.20568089 0.23666655 0.0010017881
0.063688055 -0.094670683 -0.30375734 -0.95211828 0.188071 0.24103966 0.00090441562
0.099051759 -0.094524585 -0.30198905 -0.95739704 0.15651776 0.24267884 0.00065892801
-0.41491497 -0.085611567 -0.30606413 0.96617365 0.10261014 0.23660034 0.00093119475
-0.37997144 -0.088659279 -0.30594897 0.96149731 0.12728328 0.24356078 0.00076462148
0.064609647 -0.083705395 -0.30777729 -0.96187055 0.12035338 0.24560183 0.00074225204
0.099106833 -0.084723793 -0.30697328 -0.96216184 0.11523683 0.24691091 0.00044234021
0.10017648 -0.088599615 -0.30163735 -0.96192312 0.12031452 0.24541473 0.000493292
-0.4151032 -0.077766344 -0.30737793 0.96727258 0.064056285 0.24552093 0.00011322298
0.066186197 -0.072770946 -0.30460575 -0.96945268 0.061504461 0.23744187 0.00046496134
-0.41726744 -0.061183453 -0.30203974 0.97001278 0.027333515 0.24151196 8.0231781e-05
-0.38208047 -0.064568825 -0.305751 0.96780682 0.041457169 0.24825686 0.00037900262
0.10124072 -0.06276235 -0.30359894 -0.9699983 0.031895097 0.24101037 0.00011224416
-0.41553858 -0.056647554 -0.30902404 0.97004718 0.024477441 0.24168038 0.00012512768
-0.38120601 -0.059541032 -0.30948699 0.96906221 0.033542141 0.24452667 0.00023295829
0.065812454 -0.052138008 -0.30848822 -0.97039729 0.013404349 0.24114205 9.4114963e-05
-0.41604599 -0.04356176 -0.30697408 0.97068095 0.0004928303 0.2403713 5.164582e-05
0.10122552 -0.044206683 -0.30366036 -0.97053558 0.0021699741 0.24094799 0
-0.3815977 -0.039009079 -0.3079046 0.9704628 0.00044311633 0.24125056 0
0.067251563 -0.032689009 -0.30267462 -0.97066277 -1.3659073e-05 0.24044523 0
-0.41717154 -0.024733445 -0.30242714 0.97071379 2.583962e-06 0.24023882 0.00011831026
0.067022115 -0.027396372 -0.3036015 -0.97066915 6.1581413e-05 0.24041945 0
0.10167094 -0.029830758 -0.30186102 -0.97069222 7.612407e-06 0.24032597 0
-0.41646561 -0.018395159 -0.30527902 0.97071415 -1.7370469e-07 0.24023728 0.00013368123
-0.38130862 -0.01979547 -0.30907238 0.97074622 6.3091102e-05 0.240108 0
0.066991337 -0.016088782 -0.30372581 -0.97069627 1.0908561e-05 0.2403097 0
0.10116927 -0.017280368 -0.30388764 -0.9707194 -6.2992717e-06 0.24021624 1.7813933e-05
-0.41665351 -0.00038729236 -0.30451983 0.97069073 -1.2800372e-06 0.24033195 0
-0.38292724 -0.0014870858 -0.3025336 0.97067755 -7.2124208e-06 0.2403852 0.00014163507
0.10038143 -0.0092540607 -0.30707026 -0.97066158 3.2802935e-05 0.24044974 0
-0.41688555 0.0053286944 -0.30358264 0.97070491 -1.6808068e-06 0.2402747 0
0.066246852 0.0011304021 -0.30673334 -0.97056079 3.1177344e-05 0.24085627 8.9789792e-06
-0.41531318 0.011647448 -0.30993447 0.97064716 -0.00018513951 0.24050806 1.4238816e-05
0.099791907 0.010969881 -0.30945179 -0.97036701 -0.00027877055 0.24163564 0
0.10079668 0.016255358 -0.30539277 -0.97069603 -2.24529e-06 0.24031079 0
-0.41698444 0.025175918 -0.30318299 0.97069907 2.6208932e-07 0.24029814 3.4750396e-06
-0.38252133 0.028347362 -0.30417344 0.97069973 1.9464011e-05 0.24029571 0.00011177086
0.065524057 0.028010288 -0.30965325 -0.97054893 -4.9352249e-05 0.24090405 2.6929627e-06
-0.41651469 0.035493225 -0.30508065 0.97059029 2.7321295e-05 0.2407372 1.2773754e-05
0.066215187 0.034364145 -0.30686128 -0.97057068 -9.5738877e-05 0.24081635 2.4536839e-06
0.10098654 0.035804886 -0.30462578 -0.97071147 -1.1062519e-06 0.24024805 0
-0.38221529 0.047637828 -0.30540967 0.97051865 -0.0052060718 0.24096976 0
0.065896221 0.045852926 -0.30814978 -0.97052199 -0.0058376119 0.24094193 3.664599e-05
0.099931248 0.049979545 -0.30888891 -0.97058213 -0.0062361346 0.24068934 2.3621649e-05
-0.41727316 0.051539451 -0.30201668 0.9712227 -0.010705347 0.23793243 2.9170518e-05
-0.38226175 0.051354732 -0.30522203 0.97063643 -0.013273381 0.24018472 0.00014142782
0.065602772 0.058072504 -0.30933523 -0.9697125 -0.023845207 0.2430824 0.00015581041
0.10100919 0.055016514 -0.30453429 -0.96976346 -0.010637244 0.24381496 4.4895212e-05
-0.41591117 0.06177507 -0.30751872 0.97091478 -0.02521983 0.23809344 0.00010123682
0.06680841 0.064007841 -0.30429831 -0.96969044 -0.031886261 0.24224721 0.00014744843
0.10009858 0.061788797 -0.30821288 -0.97170132 -0.028647276 0.23446953 0.00010802663
-0.41552052 0.071017519 -0.30747896 0.96749765 -0.060811579 0.24545942 0.00021062385
0.066546664 0.074747175 -0.30263054 -0.96931279 -0.068211056 0.23617795 0.00064013468
-0.41571695 0.081604168 -0.30389002 0.96617341 -0.095558926 0.23953617 0.0001494993
-0.38035583 0.080380686 -0.3085255 0.9673717 -0.099911936 0.23282945 0.00097318954
0.065114312 0.084272727 -0.3058877 -0.96274489 -0.11992975 0.24236152 0.00086731493
0.098629214 0.08895278 -0.30778128 -0.96124083 -0.12805536 0.24416775 0.00082663691
-0.41418147 0.094885319 -0.30372968 0.95689845 -0.15830979 0.24348179 0.00086523191
0.063312396 0.096264981 -0.30398929 -0.9463551 -0.20392564 0.25065184 0.00082454056
0.096325658 0.09853442 -0.30962998 -0.95201463 -0.17991675 0.24758463 0.00066739199
-0.37693617 0.1046348 -0.30495852 0.9366222 -0.24919726 0.24625081 0.00072834728
0.097042233 0.10362355 -0.30278 -0.94426322 -0.22166006 0.24338 0.00043475072
-0.41000056 0.11344662 -0.30566663 0.93688351 -0.24607122 0.2483914 0.00049169071
-0.40892792 0.11815284 -0.30421609 0.93290532 -0.26945874 0.23891343 0.00067326328
-0.37566519 0.11099074 -0.3025263 0.9195413 -0.31166413 0.2393934 0.0007933547
0.093240671 0.11697681 -0.30592093 -0.93815517 -0.25404426 0.23521566 0.00035295339
-0.40658045 0.12350412 -0.30624717 0.92556071 -0.29201302 0.24096864 0.001040707
-0.36879054 0.12618683 -0.30849752 0.89819282 -0.3700456 0.23730968 0.00063042238
0.055929996 0.12129334 -0.30481058 -0.90921432 -0.34446371 0.2338247 0.0013595746
0.089724369 0.12858886 -0.3042933 -0.91796178 -0.31194824 0.24501906 0.00095109828
0.09077438 0.12607491 -0.30354112 -0.92413288 -0.29364863 0.24443597 0.0011345389
-0.40330631 0.13370781 -0.30552223 0.90593153 -0.35294667 0.23391582 0.00070136937
-0.36322629 0.13674006 -0.30980173 0.8642953 -0.44016328 0.24341309 0.00090374524
0.049167626 0.13869345 -0.30057934 -0.85611624 -0.45554301 0.24401967 0.00095918542
0.08845789 0.13439488 -0.30159873 -0.90499604 -0.34784859 0.24491516 0.00064180122
-0.3974719 0.14700833 -0.3056103 0.87504447 -0.41926518 0.24189672 0.00096288521
-0.36168221 0.14425939 -0.30196121 0.84040862 -0.48492295 0.24199814 0.00089384528
0.082385972 0.14851019 -0.30091661 -0.87735689 -0.41383058 0.24287704 0.00079914147
-0.3929818 0.15761386 -0.30292949 0.85699588 -0.4547734 0.24236201 0.00063048978
-0.35491395 0.15318842 -0.30491012 0.80730534 -0.54288906 0.23136471 0.000635139
-0.39030051 0.16116779 -0.30629426 0.84851539 -0.47154802 0.24013352 0.00045567838
-0.38514328 0.16879976 -0.30656639 0.81638467 -0.52520424 0.24015932 0.000659885
-0.34219474 0.16932388 -0.30600253 0.72836924 -0.63859171 0.2483522 0.0010352773
0.028153375 0.16676736 -0.30795419 -0.73707658 -0.63156372 0.24051082 0.00096400629
0.069968268 0.16988742 -0.30256069 -0.8133862 -0.52379292 0.25306898 0.0010627499
0.071893789 0.16590373 -0.30503383 -0.82948416 -0.5033356 0.24209365 0.0006155367
-0.38315225 0.17318645 -0.30340886 0.80107152 -0.54974556 0.23677874 0.0011130633
-0.37889293 0.17884791 -0.30500919 0.78190058 -0.57524878 0.2402503 0.00046337553
-0.3355279 0.17740129 -0.30446118 0.67435563 -0.69951934 0.23646836 0.00050738559
0.024303433 0.17157599 -0.30683911 -0.71673173 -0.65450698 0.2406581 0.00098269142
0.063216254 0.17903356 -0.30471301 -0.77973402 -0.57698923 0.24310152 0.00080668624
-0.32373381 0.18611068 -0.30981284 0.62224811 -0.74556512 0.23862094 0.00078499538
0.0046588369 0.18934688 -0.30913115 -0.60083312 -0.76188743 0.24192378 0.0013071516
0.014443513 0.18252154 -0.30379897 -0.64859259 -0.72026837 0.24605118 0.00090411835
0.060071722 0.18278161 -0.30658701 -0.76561338 -0.59494954 0.24468601 0.00049492228
-0.36617312 0.19420956 -0.30512115 0.73973912 -0.63038594 0.23537096 0.00036355478
-0.31974027 0.19227722 -0.30149126 0.58811396 -0.77138597 0.24307558 0.0006309718
-0.30906156 0.19957247 -0.30095401 0.52727848 -0.81460631 0.24164844 0.001130718
-0.0025191854 0.19479547 -0.30788735 -0.56099749 -0.79147393 0.24259201 0.00097275013
0.0023257094 0.19241607 -0.30500588 -0.5831697 -0.77603108 0.2401852 0.00087987562
0.05247429 0.19258274 -0.30355605 -0.72479612 -0.6436466 0.24574284 0.00096125843
-0.35692093 0.20361489 -0.30648348 0.67828846 -0.69469565 0.23942168 0.00073699775
-0.30519986 0.20172106 -0.30240414 0.50100189 -0.8315348 0.23988934 0.0010987531
-0.298141 0.20373558 -0.30945611 0.44327149 -0.86419219 0.23807994 0.0009743158
-0.012535494 0.20271826 -0.30375564 -0.48741361 -0.83305597 0.26162121 0.00063317508
0.036299624 0.20842636 -0.30513594 -0.64791322 -0.72037017 0.2475383 0.00069943187
-0.28694019 0.2102336 -0.30592567 0.39502099 -0.88954061 0.22951241 0.0010237016
-0.27384633 0.21550986 -0.3049199 0.31688809 -0.91715783 0.24166782 0.0010898416
-0.26388657 0.2186169 -0.30522946 0.25243589 -0.93509454 0.24874568 0.0015048517
-0.06007516 0.21942854 -0.30957511 -0.20657633 -0.94962174 0.23567931 0.0010995417
-0.053553559 0.21829993 -0.30890703 -0.24576084 -0.93940043 0.23901553 0.00047021607
-0.043834209 0.21647064 -0.30389324 -0.28923801 -0.92518693 0.24570419 0.00073276844
-0.032977458 0.21216346 -0.30627185 -0.35172397 -0.90502286 0.23921493 0.0009393947
0.026945507 0.2173638 -0.30290627 -0.59726471 -0.76366621 0.24513014 0.00074292708
0.032140791 0.21275844 -0.30305576 -0.6285035 -0.73953629 0.24097608 0.00091921008
-0.33399493 0.22296172 -0.3046636 0.53420919 -0.81134439 0.23736255 0.00039672764
-0.24850951 0.2221269 -0.30444497 0.1488056 -0.95537305 0.25518453 0.0009152338
-0.23481862 0.22248976 -0.30960327 0.10047624 -0.96598816 0.23826747 0.00077729329
-0.22370954 0.22435382 -0.3050243 0.041001912 -0.96883059 0.24430729 0.00025939333
-0.21487442 0.22434558 -0.30560899 0.014191155 -0.97018057 0.24196738 7.2186871e-05
-0.20258668 0.22549829 -0.30095237 0.001770673 -0.97060949 0.24065341 0
-0.19553548 0.22336651 -0.30956417 0.00097717869 -0.9705525 0.2408876 2.1905147e-05
-0.18779579 0.22516122 -0.30231398 -3.1482985e-05 -0.97072893 0.2401776 3.5284327e-05
-0.17205358 0.22463214 -0.30445135 9.764284e-07 -0.97069818 0.24030204 0
-0.16049026 0.22444502 -0.30520734 1.071137e-05 -0.97069788 0.24030355 0
-0.15314752 0.22392166 -0.30732149 -2.4206849e-05 -0.9706915 0.24032894 0
-0.12625349 0.22424689 -0.30600768 -5.9385806e-05 -0.97059798 0.24070647 2.0545021e-06
-0.10581963 0.22351062 -0.30898193 -0.010324704 -0.96976173 0.2438352 4.837252e-05
-0.095852301 0.22455209 -0.30462781 -0.030692078 -0.96839583 0.24752265 0.0002303534
-0.085641623 0.22442806 -0.30306324 -0.066821583 -0.96703297 0.2457279 0.00041587633
-0.075262591 0.22389218 -0.30248114 -0.11895847 -0.96356916 0.23954789 0.00041476966
0.016204737 0.22445665 -0.30446613 -0.54728937 -0.80084151 0.24316084 0.0011486878
-0.3203063 0.2323183 -0.30395761 0.47740823 -0.84386003 0.24491149 0.00050941127
-0.31202042 0.23609221 -0.30565649 0.45603162 -0.85644287 0.24195211 0.00049956882
-0.30924195 0.23718603 -0.30665779 0.44325238 -0.86313349 0.24192555 0.00071637135
-0.010850433 0.23918572 -0.30736655 -0.40905327 -0.8785935 0.24647301 0.00070854928
-0.0038260522 0.23571524 -0.3073898 -0.46338108 -0.85168296 0.24477372 0.00061961816
0.0057698563 0.23085909 -0.30638051 -0.49048057 -0.83845729 0.23752494 0.00047935039
-0.30451614 0.24050006 -0.30309439 0.4143309 -0.87861657 0.23740877 0.00039569472
-0.297903 0.24320717 -0.30510211 0.38011807 -0.89468092 0.2346407 0.00083131279
-0.28349546 0.24796723 -0.30646101 0.30909455 -0.92132062 0.23585784 0.00072201772
-0.033250906 0.2484175 -0.30617416 -0.31012443 -0.92110109 0.2353628 0.00078754342
-0.024047241 0.24609579 -0.30310422 -0.35019949 -0.90549368 0.23966976 0.0003617428
-0.016808812 0.24314499 -0.30359623 -0.38199049 -0.89124799 0.24445894 0.00067100168
-0.27341649 0.25227946 -0.30272004 0.25878203 -0.93429887 0.24518882 0.00077583798
-0.26475823 0.25370884 -0.30473942 0.19440959 -0.94987386 0.24483588 0.00049602176
-0.25527617 0.2557025 -0.30431321 0.16698055 -0.95463598 0.24655162 0.00087856967
-0.24711452 0.25705916 -0.30523396 0.13005936 -0.96235842 0.23864415 0.00052555866
-0.22586066 0.25922519 -0.30211788 0.04742641 -0.96922076 0.24158202 0.00044305084
-0.21477024 0.25843138 -0.30614293 0.015673345 -0.97028255 0.24146637 5.6011326e-05
-0.20401378 0.25893447 -0.30411065 0.0050587123 -0.97068858 0.24028771 8.738313e-05
-0.19542995 0.258486 -0.30592233 0.00015955057 -0.97060567 0.24067533 1.69828e-05
-0.18395284 0.25864521 -0.30527923 3.5072392e-06 -0.97059387 0.24072306 2.9586037e-05
-0.17844701 0.25970343 -0.30100411 1.7778793e-06 -0.97072053 0.24021164 0
-0.16639106 0.25794289 -0.30811626 -0.00013473189 -0.97060096 0.24069418 1.7763659e-05
-0.14444143 0.25895271 -0.304037 -2.902093e-05 -0.97070783 0.24026297 4.3984794e-05
-0.10581891 0.259074 -0.30354694 -0.0095561696 -0.97035861 0.24148051 0
-0.095120199 0.25947404 -0.30193084 -0.026986487 -0.97038734 0.24004196 0.00010777215
-0.082575254 0.25759265 -0.30679533 -0.067033574 -0.96832341 0.24053329 0.00051607232
-0.072177254 0.25766194 -0.30376869 -0.11218168 -0.96299493 0.24506316 0.00061943999
-0.062496357 0.25504848 -0.30858463 -0.15163361 -0.95712876 0.246803 0.00033691115
-0.056623787 0.25594789 -0.30039284 -0.18580444 -0.95234722 0.24189128 0.00072696927
-0.22510576 -0.26146498 -0.29309502 0.040105112 0.9686023 0.24535941 0.00014605219
-0.21927214 -0.26122862 -0.29484269 0.020511338 0.96988004 0.2427181 0.00010609955
-0.18052636 -0.26229578 -0.29053167 7.7860794e-05 0.97089535 0.23950408 4.0512339e-05
-0.17555922 -0.2615262 -0.29364058 -1.6442311e-05 0.97069085 0.24033155 5.8085288e-06
-0.16897757 -0.26239127 -0.29014593 0.00027259087 0.97094131 0.23931749 8.6611226e-06
-0.14526224 -0.26173389 -0.2928015 1.156721e-05 0.9707278 0.24018253 5.7399844e-05
-0.13570747 -0.2606709 -0.29709578 1.7298144e-05 0.97070968 0.24025546 1.3299456e-05
-0.096411072 -0.26162544 -0.29323962 -0.02775556 0.97030842 0.24027318 0.00012217993
-0.28246066 -0.25167108 -0.29363611 0.30311689 0.92079145 0.2454858 0.001090046
-0.27605131 -0.25255749 -0.29856801 0.26616016 0.93381584 0.23905377 0.00068742596
-0.26710111 -0.25470164 -0.29895931 0.24285319 0.93790406 0.24770606 0.00037979792
-0.25496638 -0.2584447 -0.2936925 0.17079721 0.95675057 0.23549242 0.00096012512
-0.073788583 -0.25954765 -0.29659289 -0.11613945 0.96411765 0.2387235 0.00051018217
-0.050958663 -0.255528 -0.29759169 -0.21761714 0.94708598 0.23594676 0.00064235134
-0.049092792 -0.25640559 -0.29264393 -0.22506948 0.94551063 0.23527305 0.00061827048
-0.031033533 -0.25161266 -0.29107213 -0.29642799 0.92648005 0.2318728 0.00058474427
-0.029902302 -0.25116482 -0.29131645 -0.30071753 0.92436701 0.23476508 0.00054665632
-0.30262953 -0.24492829 -0.29042122 0.39123374 0.88816845 0.24102457 0.00045852072
-0.29718113 -0.24566388 -0.29742435 0.36359832 0.89812696 0.24731365 0.00069828873
-0.28643602 -0.24925138 -0.29773015 0.33012572 0.91218442 0.24276859 0.00042624742
-0.023989726 -0.24844718 -0.29403472 -0.33693802 0.90891886 0.24564068 0.00099229522
-0.016976653 -0.24685623 -0.29052126 -0.38744956 0.88887066 0.24452353 0.00034928462
-0.31797463 -0.23719624 -0.29101798 0.46443635 0.85255712 0.23967734 0.00051713793
-0.0014813992 -0.23850471 -0.29309398 -0.45002249 0.85961443 0.24195616 0.00051636365
0.0044964463 -0.23519923 -0.29404023 -0.49140143 0.83957011 0.23161748 0.00037112777
0.010397685 -0.23089397 -0.29587692 -0.50708985 0.82910269 0.23547536 0.00022802211
-0.33818108 -0.22361289 -0.2930811 0.55062985 0.80061692 0.23626107 0.00023334597
-0.25667667 -0.22240251 -0.29691619 0.21688133 0.94719839 0.23617306 0.00071449741
-0.24718595 -0.2248662 -0.29463458 0.17321867 0.95449978 0.24274559 0.0008583474
-0.23607041 -0.22636041 -0.29366958 0.083396427 0.9661206 0.24424559 0.00030098957
-0.2104736 -0.22652456 -0.29680651 0.01353962 0.97056752 0.24044839 9.9512908e-05
-0.2052587 -0.22675161 -0.2958892 0.0029240404 0.97064328 0.24050587 1.581132e-05
-0.19450316 -0.22736228 -0.29342228 4.471845e-05 0.97070354 0.24028045 0
-0.16335653 -0.22701491 -0.29482549 -2.7661924e-06 0.97069317 0.24032234 0
-0.1429794 -0.22786734 -0.29138198 -7.8075958e-05 0.97078758 0.23994066 3.1623746e-05
-0.12408235 -0.22647142 -0.29702109 -0.00010664546 0.97070539 0.24027307 3.2643751e-05
-0.095345236 -0.22738089 -0.29331461 -0.025707033 0.97061378 0.23926568 0.00022737199
-0.088943288 -0.22551689 -0.29954636 -0.062657498 0.96939176 0.23738906 0.00048882113
-0.076177537 -0.22529268 -0.29706213 -0.11165006 0.96547031 0.23537482 0.00065958832
-0.063974984 -0.2232307 -0.297584 -0.17645122 0.95126534 0.25290161 0.0011810935
-0.054781064 -0.22270033 -0.29243952 -0.23815009 0.93924403 0.2471946 0.00050890964
-0.049117282 -0.2209512 -0.29361373 -0.27065265 0.93158346 0.24269189 0.0012392941
0.016876295 -0.22709367 -0.29410151 -0.5511077 0.79826671 0.2430031 0.00064315053
-0.348232 -0.21363159 -0.29920408 0.62809062 0.74126524 0.23670253 0.00071410678
-0.28943959 -0.21174358 -0.2959891 0.4119916 0.87718582 0.24659272 0.00099512236
-0.27937907 -0.21573241 -0.29688397 0.35320821 0.90508074 0.23679709 0.00067198026
-0.040746268 -0.21868363 -0.29141796 -0.31153169 0.92001158 0.23775329 0.0011316316
-0.033398639 -0.21635993 -0.29076576 -0.37607414 0.89738899 0.23078385 0.00087668275
-0.021840036 -0.21011955 -0.29408097 -0.41797182 0.87788785 0.23369311 0.0011470458
0.0354595 -0.21273893 -0.29427534 -0.64400154 0.72421288 0.2465311 0.0006432723
-0.36279783 -0.20336983 -0.29097348 0.69090444 0.68211728 0.23951401 0.00050824432
-0.30441767 -0.20522055 -0.29240501 0.45472106 0.85735846 0.24117462 0.00061842514
-0.017699149 -0.20852607 -0.29245561 -0.44308421 0.86159319 0.24765624 0.0010060003
-0.0098473951 -0.20419453 -0.2927638 -0.51212382 0.82218999 0.24846081 0.0013814066
0.044025123 -0.20560855 -0.29271194 -0.67623663 0.68953466 0.25931808 0.00081213715
-0.37111679 -0.19299977 -0.29332837 0.74937105 0.61264277 0.25122094 0.00056015112
-0.36677068 -0.19619951 -0.29800576 0.71211839 0.66070157 0.2374045 0.00085982337
-0.31499791 -0.19760062 -0.29425392 0.55944788 0.79181081 0.24505839 0.00095912343
0.048277184 -0.19925031 -0.29854399 -0.70069593 0.6707713 0.24308634 0.00035412065
0.052968532 -0.19567674 -0.29381377 -0.7139166 0.65388554 0.25051302 0.00093674334
-0.33026251 -0.18680243 -0.29032224 0.6447131 0.72301084 0.24819416 0.00098199106
0.014111882 -0.18683833 -0.29157123 -0.63472354 0.73502672 0.23845674 0.0012352221
0.057532247 -0.18985912 -0.29544836 -0.75444388 0.61284399 0.23502477 0.00040299789
0.061955951 -0.18544829 -0.29314417 -0.76601791 0.60027838 0.22996171 0.0006707118
-0.38310045 -0.17647155 -0.29620984 0.78637445 0.56743973 0.24418727 0.00051781599
-0.34237185 -0.17140922 -0.29991007 0.7199598 0.6527124 0.23584816 0.00044341048
-0.33628863 -0.17989327 -0.2952559 0.69393706 0.67813152 0.2420518 0.0010941527
0.022034725 -0.17803933 -0.29651412 -0.70321649 0.66941339 0.23952498 0.0007144839
-0.392849 -0.1605821 -0.29810724 0.85043055 0.470301 0.23576432 0.00036392271
-0.38779241 -0.16937426 -0.29637894 0.80520004 0.54059881 0.2437332 0.00046093762
-0.35218933 -0.16181302 -0.29470515 0.77272838 0.58304781 0.25089067 0.00084503379
-0.34734017 -0.16703501 -0.29647133 0.74935108 0.61709064 0.24015003 0.0012372717
0.029703995 -0.16925317 -0.29662341 -0.7394883 0.62660044 0.24602635 0.00082711416
0.038173135 -0.16035174 -0.29252791 -0.78502464 0.56837481 0.24634615 0.00076927774
-0.39494497 -0.15774843 -0.29557621 0.86195838 0.44504055 0.24283068 0.00053613551
-0.35495031 -0.15742877 -0.29527113 0.79766601 0.55126309 0.24461812 0.0016592984
0.042983085 -0.15119231 -0.29692876 -0.82072514 0.51646739 0.24427778 0.0013093682
0.079078406 -0.15704951 -0.29764283 -0.86137086 0.45024729 0.23519701 0.00086106628
-0.40324107 -0.14143196 -0.29467148 0.88787627 0.39069754 0.24296319 0.00061493786
-0.36262453 -0.1442295 -0.29855943 0.84035826 0.48231342 0.24732932 0.0011538329
0.049698628 -0.14239113 -0.29204872 -0.85119456 0.46897069 0.23565724 0.00075745163
0.086663984 -0.14366534 -0.29407325 -0.88811123 0.38715273 0.24773221 0.00042491165
-0.40421042 -0.13969952 -0.29425478 0.89272988 0.37969348 0.24262375 0.00084996375
-0.3677581 -0.13568519 -0.29526713 0.86983138 0.43332186 0.23585024 0.00093776901
0.054562144 -0.13318299 -0.29087994 -0.87767309 0.41869992 0.23319599 0.00065937953
0.089352041 -0.1385738 -0.29275185 -0.89556164 0.37106341 0.24552262 0.00067259237
-0.41035146 -0.12313377 -0.29230276 0.93034101 0.28251132 0.23377986 0.00078916742
-0.37273413 -0.12514392 -0.29464799 0.8975569 0.36517325 0.24706309 0.00092000788
0.056566849 -0.12521224 -0.29715466 -0.89139134 0.38426682 0.24033424 0.00096146908
0.093621753 -0.12451807 -0.29467049 -0.92848438 0.28414378 0.23912151 0.00050100178
-0.37391132 -0.11963253 -0.29801375 0.91376251 0.32473719 0.24409789 0.0011382237
-0.38042504 -0.10345653 -0.29248995 0.94055539 0.23875304 0.24156277 0.0012941569
0.098202363 -0.10864236 -0.29422802 -0.94699657 0.20780134 0.24498187 0.00087623781
0.10017689 -0.1032294 -0.29067069 -0.95355803 0.18040159 0.24121015 0.00049822603
-0.41568065 -0.096274428 -0.29669493 0.95646286 0.16819625 0.23851359 0.00045464869
