# .PCD v0.7 - Point Cloud Data file format
VERSION 0.7
FIELDS x y z normal_x normal_y normal_z curvature
SIZE 4 4 4 4 4 4 4
TYPE F F F F F F F
COUNT 1 1 1 1 1 1 1
WIDTH 552
HEIGHT 1
VIEWPOINT 0 0 0 1 0 0 0
POINTS 552
DATA ascii
-0.26590416 0.27531388 -0.10291208 0.31149063 -0.95024741 -0.0018768741 6.9206435e-05
-0.084549002 0.27745181 -0.10531867 -0.3071444 -0.95166022 0.0022593942 0.00016916211
-0.078585006 0.27542731 -0.10321887 -0.31954655 -0.94756705 -0.002557813 0.00015088987
-0.0015356999 0.27959228 -0.10412978 -0.52736861 -0.84963638 0.00064975047 0.00054052559
0.0053551393 0.27498797 -0.10401566 -0.54563099 -0.83802545 0.00026719915 0.00018937991
0.012568841 0.27016792 -0.10373966 -0.56033379 -0.82826555 0.0015044201 8.2725142e-05
-0.2421892 0.28261486 -0.10065492 0.25073203 -0.96802378 0.007965832 0.00050294911
-0.23503472 0.28403795 -0.1086428 0.22317648 -0.97476459 0.005132691 0.00022605338
-0.12388843 0.28697553 -0.10952866 -0.16902722 -0.98560327 -0.0039807782 0.00035231505
-0.10159132 0.28254038 -0.10286507 -0.24323447 -0.96996742 0.00051217549 0.00073297654
-0.094012409 0.28063396 -0.10305792 -0.27965125 -0.96006262 -0.0086564925 0.00057153002
-0.010423612 0.28512713 -0.10268387 -0.49192718 -0.87061995 0.005326496 0.00070664915
-0.0076054861 0.28355178 -0.10753153 -0.50137597 -0.86518377 0.0088952836 0.00073534227
-0.30744764 0.29808879 -0.10530124 0.41102824 -0.91162264 0.00014724598 0.00036284563
-0.18760672 0.29046884 -0.10531427 0.048254471 -0.99882662 0.0041157999 0.00011399559
-0.1761235 0.29122147 -0.10610028 0.013291963 -0.99990511 0.0036054871 0.00040528068
-0.16364889 0.29093423 -0.10778639 -0.025030473 -0.99966192 0.0070284666 0.00042559966
-0.15480241 0.29035443 -0.10741398 -0.06309443 -0.99800688 -0.0012233986 9.1067843e-05
-0.034330472 0.29691666 -0.10957007 -0.43027592 -0.90269744 0.00011623422 0.00019997048
-0.02784613 0.29371896 -0.10616691 -0.44662657 -0.8947193 0.001499214 0.00020896591
-0.30270374 0.30042821 -0.10034274 0.39265642 -0.91967559 -0.004207083 0.00040829537
-0.29371589 0.30426854 -0.1045207 0.36483115 -0.93106174 0.0046979683 0.00051579339
-0.28219187 0.30818039 -0.10515395 0.33509421 -0.94218445 0.00053444982 0.00018590428
-0.27706298 0.30992144 -0.10634896 0.32427263 -0.94596368 -0.00032144185 7.7764467e-05
-0.062920749 0.30850548 -0.10500409 -0.3255161 -0.94553643 -0.0002219669 1.518586e-06
-0.046691656 0.30286881 -0.10470364 -0.37547508 -0.92679513 0.008320027 0.00047804124
-0.27043456 0.31217149 -0.10405581 0.30163547 -0.95342225 -0.0014414826 0.00036356482
-0.24806449 0.31851631 -0.10944762 0.23040237 -0.97308266 -0.0049888846 0.00044593625
-0.096128434 0.31852385 -0.10679726 -0.21956123 -0.97559506 -0.0026538067 0.00032357895
-0.076822281 0.31322443 -0.1066614 -0.2998814 -0.95397639 0.00042267388 0.00018006207
-0.23360008 0.32139343 -0.10431677 0.19506517 -0.98079032 -2.9863577e-05 1.5118138e-05
-0.22296017 0.32350984 -0.10394754 0.17208554 -0.98505932 0.0066877399 0.00033003176
-0.21790132 0.32451612 -0.10553834 0.13752197 -0.99049616 0.002235868 0.00052266376
-0.18470037 0.32709515 -0.10634285 0.054980516 -0.99848527 -0.0020864424 9.5332041e-05
-0.17437381 0.32775337 -0.10476943 -0.0018602973 -0.9999814 0.0058194892 0.00055615813
-0.15313898 0.32668123 -0.10459277 -0.051264599 -0.99868363 -0.0017551563 0.00012625215
-0.14759327 0.32631773 -0.10440178 -0.077682912 -0.99697727 0.0012883942 0.00013795325
-0.13226251 0.32531291 -0.10730671 -0.12483035 -0.99215937 0.0060988436 0.00046785735
-0.12236147 0.32374191 -0.10647784 -0.1568515 -0.98761904 0.0024972407 0.00049537868
-0.11437673 0.32215366 -0.10289321 -0.19153494 -0.98148566 0.00053043349 1.8165925e-05
-0.10723224 0.32073253 -0.10776961 -0.19730861 -0.98034084 0.0010356526 2.1588783e-05
-0.23793586 -0.32053098 -0.09659218 0.20333873 0.9791081 -0.00082963146 2.218464e-05
-0.22353746 -0.32339501 -0.093577355 0.16477065 0.98631847 0.0051511941 0.0004264311
-0.2182032 -0.32445604 -0.096994236 0.14160499 0.98991936 -0.00277863 0.00052086578
-0.20782897 -0.32557923 -0.09648779 0.10462067 0.99450946 -0.002343935 0.00041911297
-0.19358838 -0.32651263 -0.092996776 0.07263618 0.99735808 0.00090685283 0
-0.17954557 -0.32743305 -0.093686379 0.023936516 0.9997133 -0.00057152903 0.00062746031
-0.15205024 -0.32660985 -0.09472844 -0.060179092 0.99818534 -0.0021233305 9.989884e-05
-0.14179978 -0.32593799 -0.095397122 -0.09503179 0.99547368 -0.001039176 0.00027036262
-0.12597325 -0.32446033 -0.097964197 -0.14606583 0.9892683 -0.0036093986 0.00043876946
-0.274104 -0.31092584 -0.099727675 0.31080458 0.95047337 -0.00089733861 0.00015178547
-0.26347288 -0.31453466 -0.095130377 0.2808184 0.95976084 -0.00047504512 0.00055975217
-0.25423503 -0.31728891 -0.096271142 0.23593128 0.97176957 0.00062445219 0.00060395116
-0.24649712 -0.31882808 -0.096694008 0.21762739 0.97603196 -0.00014604628 0.00039210319
-0.086321265 -0.31644893 -0.090837598 -0.26621896 0.9639051 0.003800241 0.00039203794
-0.07725244 -0.31337047 -0.095147841 -0.28345993 0.95896387 0.0062225345 0.00047743731
-0.2943978 -0.30403703 -0.095860384 0.36902311 0.92941564 0.0029242339 0.00048352699
-0.053759113 -0.30539554 -0.093998231 -0.36194143 0.93219197 -0.0040475694 0.00038853177
-0.3138085 -0.29495198 -0.092180848 0.44329587 0.89637536 -5.3807555e-05 8.438465e-05
-0.30456889 -0.29950845 -0.091716118 0.41873351 0.90810525 0.0026547636 0.0003571077
-0.18739745 -0.29048255 -0.092203587 0.045945566 0.99893057 0.0051608705 0.00041651895
-0.17806673 -0.29109412 -0.092345044 0.011216143 0.99988115 0.010573445 0.00044746842
-0.15631573 -0.29045358 -0.094113231 -0.061376605 0.99811393 0.0011816146 0.00026189018
-0.14953376 -0.29000908 -0.09115459 -0.067140795 0.99773121 0.0049614436 0.00022501037
-0.021843627 -0.29075885 -0.095998168 -0.45793337 0.88898408 -0.0020781807 0.00011949384
-0.33907527 -0.28196031 -0.090241045 0.49914119 0.86651999 0.0010340939 0.0003522147
-0.24030715 -0.2829892 -0.095039852 0.23318601 0.97243094 -0.0015062775 0.00046196481
-0.23549385 -0.28394663 -0.098388381 0.21293882 0.97706228 -0.0025142985 0.0003570141
-0.20836146 -0.28910848 -0.098936103 0.12539485 0.99208629 -0.0064110365 0.00060240726
-0.1327993 -0.28874803 -0.090333268 -0.13399248 0.99096662 -0.0055881846 0.0008280261
-0.1268281 -0.28756025 -0.096535236 -0.15173949 0.98839539 0.0070455284 0.00076101132
-0.10925893 -0.28406554 -0.097918615 -0.21829282 0.97587562 -0.0038985668 0.00025750825
-0.09910696 -0.2820462 -0.094165452 -0.22411531 0.97455877 -0.0027255148 0.00016771624
-0.0070098457 -0.28321823 -0.097859301 -0.50054127 0.86566013 0.0095361779 0.00045837916
-0.27291316 -0.27293462 -0.095736109 0.34647408 0.93805933 -0.0006017923 0.00021568366
-0.26444319 -0.27580979 -0.093018338 0.31654128 0.94857764 0.0014441541 0.00030984991
-0.25618288 -0.27861378 -0.094476044 0.29655051 0.95501107 0.0034210752 0.00022658233
-0.087331191 -0.27839625 -0.090681836 -0.29224676 0.95634192 0.0014069546 0.00039282997
-0.064225748 -0.27055299 -0.091333836 -0.36543539 0.93082982 0.0035882408 0.00057289226
0.0013108961 -0.27769026 -0.092043683 -0.53656596 0.84385562 0.0021626803 0.00029717252
-0.36852974 -0.26227942 -0.095220432 0.5999878 0.80000103 -0.0036145067 0.00057958195
-0.29102901 -0.26564711 -0.09110342 0.40952083 0.91226739 0.0078029963 0.00044523051
-0.050649457 -0.26442587 -0.09300825 -0.42230201 0.9064551 -0.00041038753 0.0003278626
-0.049355231 -0.26378763 -0.097735591 -0.42670062 0.90438873 0.0027656017 0.00024679062
0.0222583 -0.26369363 -0.094925024 -0.58863336 0.8083728 0.0066471393 0.00048701523
-0.31639758 -0.25303373 -0.095122755 0.49429718 0.86929005 0.0022363386 0.00057895825
-0.024573524 -0.25125849 -0.095067427 -0.50097585 0.86543095 -0.0072465427 0.00064836961
0.028025687 -0.25974047 -0.095075339 -0.60453087 0.79657966 -0.0018431051 0.00054155727
-0.32657444 -0.24658589 -0.094353378 0.53990173 0.84168547 0.008460205 0.00022903387
-0.018083341 -0.24692188 -0.090010114 -0.53558487 0.84448081 -0.00099961692 0.00036435077
0.042956512 -0.24664649 -0.090214849 -0.65433109 0.75620651 0.0016031351 8.8970744e-05
-0.39591855 -0.23892289 -0.093739077 0.67842644 0.73461306 0.0090080462 0.0002527032
-0.34264264 -0.23584947 -0.092448823 0.58335137 0.81221861 0.0014859245 0.0004991538
-0.0047826404 -0.23803464 -0.092132375 -0.578255 0.81583494 0.00588371 0.00032217131
0.004987055 -0.23141064 -0.094774574 -0.60526061 0.79602486 0.0020359389 0.00072431559
0.052505627 -0.23827215 -0.095810518 -0.684829 0.7286576 -0.0082071023 0.00045861074
-0.41145146 -0.22332667 -0.096761011 0.73141176 0.68190831 0.0061509204 0.00034046063
-0.40766108 -0.22764878 -0.095646746 0.71929139 0.69470471 0.0022953418 0.00054902496
-0.36120832 -0.22100446 -0.095792465 0.65747643 0.75347066 0.0026221052 0.00022487677
0.0097269481 -0.22742957 -0.094428763 -0.63028675 0.77632731 0.0073852171 0.00045649422
0.010693004 -0.22658236 -0.094965972 -0.6393286 0.76893294 0.00098467094 0.00030267134
0.068242773 -0.22224769 -0.096979439 -0.74206525 0.67031705 -0.003787817 0.00014630896
-0.37203848 -0.21150669 -0.098599166 0.68823951 0.72547853 -0.0026796479 0.00032761696
-0.3662537 -0.21657979 -0.096834764 0.6624763 0.74908066 0.0017936558 8.1895807e-05
0.019655697 -0.21872228 -0.096253492 -0.6629957 0.74861825 -0.0027514081 0.00031316868
0.026983932 -0.21229559 -0.090165347 -0.68422735 0.7292673 -0.0014284359 0.00040757121
0.076632187 -0.21268138 -0.096888572 -0.76516569 0.64383012 0.0020979934 0.00025451873
-0.4263247 -0.20636702 -0.095156707 0.77267742 0.63476944 0.006110217 0.00015681679
0.03348729 -0.20659229 -0.096869409 -0.70528287 0.70890796 -0.005057829 0.00040164869
0.082868956 -0.20556971 -0.098692968 -0.77898854 0.6270349 -0.0020106845 0.00042618965
-0.43769249 -0.19146024 -0.098007202 0.81520265 0.57917571 0.00027714143 0.00022963295
-0.387936 -0.19499868 -0.093823195 0.74337727 0.66887116 -0.0012716311 0.00015690175
0.040770534 -0.19843149 -0.092802137 -0.72743642 0.68616295 -0.0040722168 0.00040128734
0.094488047 -0.19003768 -0.094430201 -0.81375545 0.58120483 0.0017085241 0.00026239443
-0.43933392 -0.18900366 -0.095304482 0.81718636 0.57637239 0.0011287645 0.00037341923
-0.39579833 -0.18603343 -0.096868679 0.75507933 0.65563107 0.0017410662 7.8974103e-05
0.096673951 -0.18676627 -0.093375921 -0.81939107 0.57322991 0.0023966974 0.00011269774
0.058004167 -0.17878032 -0.097178683 -0.79441923 0.60726565 -0.01124454 0.00057181256
0.061452195 -0.17403699 -0.09806975 -0.80285501 0.59599727 -0.014528317 0.00041662005
0.10289866 -0.17745034 -0.095796749 -0.83956808 0.54325449 0.00022218429 0.00011364736
-0.45226607 -0.16964933 -0.09940172 0.85400206 0.52026927 0.00061350013 0.00050611375
0.067367293 -0.16518441 -0.097436242 -0.82557976 0.56428546 -0.00021973347 0.00021597954
-0.46186107 -0.15221152 -0.09123978 0.88916367 0.45758837 -0.00092515448 0.00016181836
-0.4180764 -0.1553755 -0.095852315 0.84768575 0.53047556 0.0049578566 0.00040324873
0.071521021 -0.15896791 -0.098520629 -0.83525217 0.54986703 3.640457e-05 0.00011448549
0.11877311 -0.15004785 -0.096563667 -0.89281934 0.45041251 0.0014658634 0.0001561708
-0.46394753 -0.14798062 -0.097287789 0.89328068 0.44949564 -0.0018166155 5.8076232e-05
-0.42473626 -0.14528926 -0.092275918 0.86753809 0.49735689 0.003714208 0.00056557235
0.082299843 -0.14180446 -0.096493855 -0.87317872 0.48739639 0.0019561755 0.00056657393
-0.47174847 -0.13216184 -0.095597565 0.91647583 0.40008399 0.0021902823 0.00062767847
-0.46974534 -0.1362237 -0.097531065 0.90892357 0.41683504 0.010319916 0.00023245884
-0.42957211 -0.13548315 -0.09539777 0.88685232 0.46204856 -0.0020146975 0.00034605473
0.088388965 -0.12945694 -0.093088016 -0.89789969 0.44019198 0.0026990988 9.8811375e-05
0.092287876 -0.12155074 -0.090144977 -0.90243036 0.43083003 -0.0022231848 7.9838836e-05
0.128988 -0.12933409 -0.096502841 -0.91715556 0.39852729 0.0012977471 0.00053465262
0.13108481 -0.12489726 -0.096424475 -0.92723495 0.37447852 0.0010619764 0.00061439379
-0.47876787 -0.11450373 -0.096815415 0.93745232 0.34810522 -0.0024091862 9.8380384e-05
-0.441856 -0.11013326 -0.090950549 0.92592871 0.37769824 -0.00035644887 0.00070474949
0.095503293 -0.11503053 -0.096728049 -0.91163248 0.41099095 0.0035592928 0.00045375596
-0.4820857 -0.10472983 -0.095344834 0.94475275 0.32778233 0.00099129754 4.9529575e-05
-0.44352138 -0.10522715 -0.098634772 0.93568462 0.35283002 0.0022689661 0.00038277853
0.099030256 -0.10621757 -0.099697903 -0.92581236 0.37792155 -0.0068404037 0.00038655938
0.1393664 -0.10050054 -0.091308907 -0.94786525 0.31867129 0.00035448381 3.0699786e-05
-0.48661751 -0.091379538 -0.094396099 0.96001488 0.2799485 0.00055538228 0.00057636318
-0.44640848 -0.096722141 -0.099916011 0.94229549 0.3347809 -0.0009704805 0.00013289129
0.13991153 -0.098894626 -0.090492167 -0.95140064 0.30795586 0.00016378192 0.00022756927
0.14275478 -0.090518668 -0.099533156 -0.96366513 0.2670882 -0.0036558912 0.00062862877
-0.48883903 -0.084060512 -0.095313899 0.96531296 0.26109523 -0.00051602541 0.00050720194
-0.45040226 -0.084956735 -0.096205197 0.95721531 0.28937659 -0.00031278236 0.00039072582
0.14532472 -0.081587903 -0.097982138 -0.96972102 0.24415082 -0.0056189359 0.00055111153
-0.45404142 -0.073383942 -0.09532316 0.9696703 0.24434739 0.0058154743 0.00054516696
0.10928362 -0.076012157 -0.090761818 -0.96714556 0.254145 -0.0062986664 0.00041781718
0.11041208 -0.070741624 -0.099573463 -0.9723345 0.23351711 -0.0059436224 0.0004488639
0.14737508 -0.071280047 -0.094843656 -0.97569865 0.21909967 -0.0027351941 0.00030257073
-0.49251354 -0.066335589 -0.098500893 0.97974974 0.20022488 0.00071551342 8.925968e-05
-0.45609397 -0.063065171 -0.093521297 0.97766995 0.21014604 0.00036900127 0.00034247164
0.11093473 -0.068114057 -0.090501718 -0.97223192 0.23401143 -0.0019103712 0.00048610524
0.14844811 -0.065885589 -0.09593761 -0.97903293 0.20367733 0.0031699785 0.00013020745
0.11320095 -0.056721002 -0.091585979 -0.98186702 0.1895521 -0.002688715 9.7436452e-05
0.14978704 -0.059154313 -0.097548649 -0.98260617 0.1856993 0.00096053048 0.00014398737
0.15089062 -0.053606272 -0.094931722 -0.98522246 0.1712712 0.0016624834 0.00034316813
-0.49628603 -0.047369976 -0.097148173 0.98984379 0.14215893 -0.00036707972 0.00062478078
0.15225218 -0.046761226 -0.096466489 -0.98816311 0.15322649 -0.0074283327 0.00051478471
0.42675906 -0.044787243 -0.095680475 -0.58239633 -0.76802367 0.26637214 0.031587545
0.45617115 -0.049227368 -0.099641472 -0.44049329 0.87559092 0.19825785 0.036779184
-0.49800664 -0.030412521 -0.093788132 0.99590719 0.090337075 -0.0028568932 0.00019326097
-0.46119037 -0.036217123 -0.093044408 0.99149388 0.13006759 -0.0047163209 0.00069447159
0.11704221 -0.036113311 -0.095246598 -0.99100721 0.13314164 -0.013344481 0.00048261962
0.15322778 -0.039931692 -0.099914983 -0.99195343 0.1264199 -0.0068150726 0.00069874944
0.4726766 -0.032657724 -0.098415822 -0.82080126 0.46543497 0.33114305 0.0099514611
-0.49822059 -0.027148366 -0.094461322 0.9961648 0.087433152 -0.0033378855 0.00015133423
-0.462006 -0.023773124 -0.095214091 0.99721187 0.07462097 -0.00031057934 0.00026854736
0.11804738 -0.020777594 -0.093242317 -0.99720609 0.0746231 0.0033743691 0.00014650873
0.41391867 -0.024568588 -0.094677836 -0.82984716 -0.31807983 0.45845261 0.0078316741
0.4779368 -0.022638083 -0.095310688 -0.90441799 0.26160604 0.33703169 0.0093795778
-0.49917591 -0.012573484 -0.09429004 0.9994362 0.03275197 -0.0073884465 0.00024220011
-0.46235606 -0.018431967 -0.097731143 0.99741316 0.071858138 0.001864076 8.3370564e-05
0.11840329 -0.015347494 -0.091245189 -0.99811715 0.061337177 6.7168046e-05 2.5211502e-05
0.15481856 -0.015661031 -0.090661302 -0.99898624 0.04501598 -0.0002112096 0.00021748371
0.4089416 -0.013016721 -0.099125087 -0.87706447 -0.083703965 0.4730238 0.0068959221
0.41395879 -0.018331077 -0.090870053 -0.8724575 -0.22845687 0.43200165 0.013682676
0.4780463 -0.015483071 -0.099369332 -0.91937941 0.17848381 0.35054961 0.0061241961
-0.49973407 -0.0040572854 -0.093835995 0.99984485 0.014323507 -0.010252558 0.00042412459
0.11909528 -0.0047898041 -0.095875017 -0.99997449 0.0063371225 -0.0032705092 0.00053797784
0.1553582 -0.0074279313 -0.091756865 -0.99978417 0.020774847 -5.8212441e-05 0.00027203085
0.4789781 -0.0043328181 -0.099693149 -0.92986804 -0.019277481 0.3673878 0.0076439227
0.48190284 -0.0090403352 -0.09127669 -0.94094145 0.10148361 0.32300186 0.005683552
-0.46351665 0.00072491117 -0.091924608 0.9999482 0.0029379292 -0.009738951 0.0006388239
0.15549937 0.005273982 -0.095070884 -0.99960423 -0.027526548 -0.0058011687 0.00038608795
0.40928993 0.008212463 -0.099344455 -0.88504672 0.18999586 0.42496341 0.008791524
0.41155964 0.0093033928 -0.095183164 -0.87621808 0.18968813 0.4430128 0.0097156093
0.48009509 0.0064393152 -0.094416261 -0.93098205 -0.16398457 0.32616162 0.0073747598
-0.49896151 0.01584433 -0.092696197 0.99914479 -0.041318636 -0.0015581115 0.00038237375
-0.46253818 0.015653102 -0.093678251 0.99820775 -0.059834387 -0.0011044623 0.00015781139
0.41450915 0.014409007 -0.091973603 -0.88067031 0.28066462 0.38163745 0.00766706
0.47593021 0.015629333 -0.099650025 -0.87409776 -0.34716541 0.33974883 0.0079906899
-0.46175531 0.027597664 -0.092512988 0.99489576 -0.10090655 0.00059115054 0.00038517243
0.11780039 0.02454583 -0.090691797 -0.99642664 -0.084416546 0.0028027033 0.00045045101
0.15426287 0.024138965 -0.093225837 -0.99747884 -0.070964478 -0.00014743372 5.3340442e-05
0.42132062 0.029264238 -0.092532068 -0.7632432 0.5584358 0.32497585 0.010563146
0.46969086 0.02969617 -0.098456323 -0.78815866 -0.52590698 0.31973061 0.015744939
0.47377825 0.024071066 -0.096332572 -0.83681393 -0.43008152 0.33878088 0.00970258
-0.49753541 0.037602358 -0.090128288 0.99442953 -0.10523309 -0.0059890826 0.00049731683
-0.46116537 0.036598109 -0.093815044 0.99201107 -0.12605555 -0.0049004443 0.00039040652
0.15345013 0.036539316 -0.09393011 -0.99238366 -0.12311133 -0.0042527923 0.00052797981
0.42573693 0.033504289 -0.090003327 -0.6923421 0.64930099 0.31475481 0.020606872
0.46123838 0.039880242 -0.093525924 -0.38716561 -0.9054898 0.17375556 0.048087224
0.47058186 0.032061897 -0.091208793 -0.76249135 -0.58882034 0.26813719 0.012094612
-0.45899367 0.048487473 -0.092310309 0.98476392 -0.17385958 -0.0035832757 0.00032855422
0.43863225 0.042944536 -0.091675028 -0.24088158 0.96392667 0.1132315 0.03642847
0.44119549 0.043697268 -0.092132412 -0.20351911 0.97664803 0.068836473 0.047253296
0.45569474 0.042401489 -0.095102943 -0.35006648 -0.92987555 0.11307053 0.043981254
-0.45787841 0.054093987 -0.099545218 0.98196477 -0.18906353 -0.00030913521 9.395228e-05
0.11330355 0.056205191 -0.095041052 -0.98155278 -0.19118415 -0.0016751576 2.8497952e-05
0.15087137 0.053709112 -0.097264558 -0.98626179 -0.16518237 -0.0015569781 0.00035796277
-0.45571053 0.064992703 -0.094873168 0.97480702 -0.22304563 0.0013534999 0.00034076785
0.11152854 0.065128803 -0.09392941 -0.97206736 -0.23469892 -0.0011958334 0.00052156352
0.14866589 0.064794607 -0.093055531 -0.98163104 -0.19078036 -0.0018500509 5.1691408e-05
-0.49151319 0.071364723 -0.090559646 0.97485888 -0.22272778 -0.006515556 0.00043453078
0.14598818 0.078253828 -0.092729926 -0.97368717 -0.22784746 0.0043515125 0.00043948487
-0.48958439 0.081061408 -0.097060844 0.96852994 -0.24885197 -0.0047341264 0.00043870098
-0.44897738 0.08915434 -0.09323059 0.95233554 -0.30505258 -4.4175107e-05 0.00019805034
0.10556361 0.086970933 -0.094402403 -0.95494068 -0.29677236 -0.00381323 0.00025289171
-0.48463857 0.097209319 -0.095276982 0.95489442 -0.29694092 0.0016428593 0.00042967696
-0.44642133 0.09668424 -0.096307993 0.94377971 -0.33057034 -0.0017576132 0.00016017247
0.10333481 0.093536757 -0.096458539 -0.94573212 -0.324938 0.0024646833 0.00028748729
-0.48229676 0.10410791 -0.095028207 0.94804746 -0.31812856 0.00047275904 0
-0.44397298 0.10389688 -0.0922212 0.93141377 -0.36394948 -0.0030301348 0.00032849051
0.10103586 0.10030925 -0.090162538 -0.94024289 -0.34047669 0.0043465863 0.00020650112
0.1376318 0.10561048 -0.094478816 -0.94864643 -0.31632516 -0.002901762 8.0301506e-05
-0.43987286 0.11459534 -0.090581864 0.92357361 -0.38338158 -0.0055170166 0.00039870359
-0.47663844 0.12077688 -0.093629301 0.92870551 -0.37074956 -0.0071280072 0.00072598801
-0.43497217 0.12453301 -0.092563473 0.90703428 -0.42104617 -0.0030028459 0.00041053019
0.091213003 0.12373036 -0.096716583 -0.90376973 -0.42796579 -0.0067482376 0.00022200982
0.12910029 0.12910636 -0.09972018 -0.91652238 -0.39988676 -0.0087908572 0.00060658157
0.12625882 0.13486832 -0.093188569 -0.90525281 -0.42486256 -0.0030335793 0.00020493315
-0.42484155 0.14469837 -0.092098057 0.87041891 -0.4923031 -0.0029290782 0.00059773767
0.078781165 0.14810233 -0.090934366 -0.86251259 -0.50603288 0.0016621816 0.00073670218
0.11953243 0.14850809 -0.092360288 -0.89515442 -0.44575614 -0.00013204863 8.471388e-05
0.12170918 0.14409408 -0.097506009 -0.89815211 -0.43967962 -0.0021340596 5.5614819e-05
-0.4206737 0.15148829 -0.09486074 0.84703302 -0.53153998 0.00052534603 0.00050920434
-0.41764176 0.15602598 -0.09692958 0.8436023 -0.53696293 0.002456425 0.00023435139
0.076597549 0.15137035 -0.091988325 -0.85420591 -0.51990271 0.0057858778 0.00058505026
0.11627945 0.15510446 -0.097742051 -0.8861376 -0.46341652 0.0022896647 0.00030159712
-0.45350838 0.16779006 -0.098657265 0.85772634 -0.51409853 -0.0028845759 0.00051428966
-0.41313624 0.1627689 -0.096939072 0.82526249 -0.56473732 -0.003687554 0.00019558272
-0.40844369 0.16979182 -0.091994405 0.81543696 -0.57884538 0.00077500875 0.00048609282
0.068065271 0.16413981 -0.099383876 -0.82061124 -0.57140768 -0.0095149083 0.0002181202
0.1129473 0.16186142 -0.091755919 -0.86721873 -0.49792257 0.0021614127 0.00048687289
-0.44619313 0.17873815 -0.093292847 0.83378989 -0.55207735 0.0022249164 0.0002132855
-0.40766498 0.17095718 -0.099468261 0.81783825 -0.57542181 0.0055163661 0.00024006619
0.059978969 0.17624182 -0.094730452 -0.79936039 -0.60079122 -0.0085347863 0.00048409897
0.10324746 0.17692831 -0.099350244 -0.84114748 -0.5408054 -0.0006615165 0.00014988244
-0.44297647 0.18355221 -0.092440091 0.82875991 -0.55960178 0.0017191069 7.8809055e-05
-0.43895644 0.18956858 -0.093525574 0.81590313 -0.57817072 -0.0045513366 0.00031918887
-0.39811653 0.18339001 -0.096364185 0.77526265 -0.631634 0.002492062 0.00035559179
0.051187374 0.18655337 -0.090968013 -0.76450151 -0.64461154 0.0036559249 0.00040398596
0.095113285 0.18910196 -0.09715905 -0.82186896 -0.56967658 0.00025239863 0.00021291614
0.039596293 0.19977045 -0.097262718 -0.73333377 -0.67985934 -0.0035875044 0.00020172095
0.043780595 0.19499919 -0.096630149 -0.73725915 -0.67560655 -0.0021668919 0.00020668161
0.092724383 0.1926772 -0.097046152 -0.81016284 -0.58616561 -0.0067858347 0.00046421264
-0.42317879 0.20995423 -0.094537392 0.76271206 -0.64672369 -0.0043326188 0.00016067379
-0.38173398 0.20207068 -0.090312265 0.73046154 -0.68293607 -0.0049304138 0.00027057948
-0.37923661 0.20491841 -0.091520071 0.71875983 -0.69525605 -0.0018223937 0.00040516892
0.031200577 0.20859769 -0.094419792 -0.69872057 -0.71539342 0.0013983984 0.00049698033
0.080743656 0.20799316 -0.097201422 -0.76916564 -0.63903266 -0.0046413355 0.00024425547
-0.42000279 0.21357574 -0.090272486 0.75719291 -0.65318507 -0.0028581538 0.00014013468
-0.41524014 0.21900654 -0.092608675 0.74987781 -0.6615743 0.0016815658 2.3940399e-06
-0.36787406 0.21515878 -0.093847051 0.67128068 -0.74118954 -0.004512582 0.00028070761
0.071831331 0.21815571 -0.095589533 -0.74557805 -0.66641831 -0.00025890372 0.00013016902
-0.41194558 0.22276323 -0.0939321 0.73669106 -0.67619282 0.0070368773 0.00036555636
-0.40836796 0.22684272 -0.09413211 0.72454065 -0.6891914 0.0074801664 0.00065404229
-0.3545683 0.22682755 -0.094756477 0.63184243 -0.77506971 0.0064831171 0.00044500522
0.0069212895 0.22989008 -0.095687225 -0.61409724 -0.78922272 -0.0034889798 0.00046817175
0.015550143 0.22232276 -0.094391659 -0.64292735 -0.76592058 0.0031960539 0.00028326927
0.066907763 0.22376996 -0.094841525 -0.73089534 -0.68248522 -0.002433605 0.00041389058
-0.40230155 0.23332512 -0.096448779 0.70726985 -0.70692116 -0.0056476137 0.00051207963
-0.3441219 0.23486108 -0.095482312 0.58400053 -0.81175303 0.00078509102 0.00029446083
-0.33901781 0.2382715 -0.094494507 0.5687291 -0.82252032 -0.0027236389 0.00012297806
-0.0059682047 0.23882681 -0.093560353 -0.57083166 -0.82106578 -0.0014634907 0.00041910654
0.002159575 0.23339599 -0.098288476 -0.58904475 -0.80809546 -0.0028315366 0.00037021044
0.056571901 0.23470612 -0.099333033 -0.69682568 -0.71723026 -0.0038198866 0.00052943069
0.060517237 0.23105696 -0.094602145 -0.7088688 -0.70532793 -0.0041679828 0.00054848025
-0.39345473 0.24108359 -0.095457248 0.67747796 -0.73544204 -0.012184304 0.00027787231
-0.38752452 0.24628423 -0.096684314 0.65922678 -0.7519424 -0.0016286563 0.00011422779
-0.32493994 0.24767804 -0.091670528 0.53064871 -0.84758985 0.001872682 0.00023325096
0.047065344 0.24304312 -0.095065601 -0.66489881 -0.74693304 -0.00076491426 0.00015668941
-0.37512052 0.25716227 -0.092525303 0.61634761 -0.78747088 0.002295285 0.00056670734
-0.3089101 0.25682914 -0.094512492 0.45933178 -0.88826478 -0.00010458595 0.00010429964
-0.0353963 0.25690386 -0.09626738 -0.45548734 -0.89022571 0.0054286392 0.00029989608
0.038375363 0.25066406 -0.09305045 -0.64322275 -0.76567912 -0.00030780441 0.00027930309
-0.36442935 0.26501921 -0.099629685 0.583242 -0.81228304 0.0049878703 0.00043414388
-0.29484391 0.26376581 -0.095772885 0.42186207 -0.90663397 -0.0068810033 0.0003410629
-0.061170399 0.26951584 -0.099970043 -0.38572851 -0.92260039 0.0046912241 0.0005217485
-0.054999333 0.26657102 -0.09433981 -0.4016417 -0.91577625 0.0061462475 0.00039804957
0.018366832 0.26629382 -0.096354835 -0.57460338 -0.81841892 -0.0046238834 0.00029702793
0.025950987 0.26122624 -0.092265204 -0.60443944 -0.79664773 -0.0023274936 0.0006907669
-0.35485971 0.27141345 -0.09781909 0.56257015 -0.82674885 0.0011115412 0.0001210709
-0.27517536 0.27216673 -0.093420215 0.35875544 -0.93343163 1.0736246e-05 0.00044146812
-0.26725572 0.27485508 -0.093021773 0.32722056 -0.94494724 -0.0011937384 0.0003695176
-0.25641721 0.27853423 -0.096336216 0.29771167 -0.95465165 0.0028030984 0.00019464402
-0.084075123 0.27729094 -0.099017031 -0.30959883 -0.95086712 0.00047274143 0.00014116619
-0.073994599 0.27386907 -0.099374421 -0.33209258 -0.94324666 0.00052854011 0.00020992053
-0.069216467 0.27224714 -0.099621758 -0.34115851 -0.94000572 -0.00018863205 0.00013246329
0.0043428158 0.27566439 -0.099542677 -0.54477417 -0.83858269 -0.0002509109 0.00014556234
0.012239923 0.27038768 -0.095571019 -0.55761373 -0.83009911 0.0015492659 4.4564902e-05
-0.33631361 0.28377849 -0.093982235 0.5073393 -0.86174637 5.303654e-05 0.00047065257
-0.24265988 0.28252122 -0.095116623 0.24855621 -0.96861702 -0.00095665635 0.00056784053
-0.23353335 0.28433657 -0.096429273 0.20147212 -0.97949415 0.00049864518 0.00020424757
-0.20562638 0.28928775 -0.093986571 0.11851993 -0.99294883 0.0023904031 0.00051907339
-0.19754048 0.28981778 -0.093800269 0.083933152 -0.99647033 0.0014297488 0.00019485911
-0.14655377 0.28981376 -0.090388522 -0.092247069 -0.99572241 0.0052271723 0.00022198955
-0.13287775 0.28860989 -0.096865349 -0.12066884 -0.99269265 -0.00051238312 0.00022371898
-0.12712482 0.28761929 -0.092283443 -0.16238408 -0.9867273 0.00087471458 0.00023589344
-0.11878505 0.28596038 -0.099883139 -0.18418792 -0.98287958 -0.0047539519 0.00027538021
-0.096860468 0.28159934 -0.099145636 -0.26602957 -0.96394163 -0.006694383 0.00060433586
-0.0025707907 0.28028393 -0.098663181 -0.52671647 -0.850034 0.0034621493 0.00047663221
-0.3147524 0.29448652 -0.095840715 0.43485871 -0.9004975 -0.001476701 3.1049844e-05
-0.19141711 0.2902191 -0.094823584 0.066867977 -0.99776018 -0.001810491 0.00018186151
-0.18286684 0.29077953 -0.093302421 0.039604947 -0.99921203 -0.0026267769 0.00049054279
-0.17327583 0.29140815 -0.093483523 0.0073842104 -0.99997175 -0.0014013727 0.00058103638
-0.1661834 0.29110038 -0.090980433 -0.01856645 -0.99982542 -0.0020816799 0.00051671441
-0.035671115 0.29757783 -0.095353357 -0.42023098 -0.90741354 0.0025761628 0.00027761864
-0.29610154 0.30345869 -0.093427025 0.36860803 -0.92955607 0.0073166657 0.00050451991
-0.28395748 0.30758107 -0.09865281 0.33431682 -0.94245541 0.0031652562 0.00016679626
-0.060040358 0.30752772 -0.098296873 -0.3399139 -0.94045109 -0.0032178734 0.00021129896
-0.055269256 0.30590814 -0.095050946 -0.3500292 -0.93673217 0.0035169262 0.00039617741
-0.04314369 0.30126289 -0.095617041 -0.38819158 -0.92157638 -0.0020662404 0.0005285833
-0.27267513 0.3114109 -0.091849916 0.30686629 -0.95175171 -0.0013136714 0.00023899383
-0.26185891 0.31508252 -0.096118234 0.28020641 -0.95993626 -0.0025631767 0.00048911275
-0.25695372 0.31674761 -0.093936652 0.26183194 -0.96510935 -0.0028206029 0.00069546653
-0.24426147 0.31927276 -0.094327703 0.22123775 -0.97521698 -0.0023863718 0.00037279513
-0.095817529 0.31846198 -0.098311566 -0.22934113 -0.97333747 -0.0041009006 0.00041263804
-0.084931195 0.31597704 -0.098334506 -0.26499909 -0.9642328 -0.0055221464 0.00053481001
-0.075879857 0.31290451 -0.095037371 -0.29236835 -0.95630431 -0.0016994438 0.00033153011
-0.23024249 0.32206127 -0.095040537 0.1812662 -0.98343277 0.0015845279 0.00029099607
-0.22605449 0.3228943 -0.09498927 0.17312132 -0.98488444 0.0056155277 0.00042787174
-0.21791974 0.32451245 -0.098860815 0.13973196 -0.99017954 0.0044026617 0.00066670275
-0.2020402 0.32595867 -0.098635793 0.0927632 -0.99568802 -0.00059346791 0.00035753459
-0.1924051 0.32659015 -0.095974401 0.065124094 -0.99787599 0.0015389345 9.079861e-05
-0.1811652 0.32732686 -0.094725512 0.021022279 -0.99977744 -0.0017491907 0.00052446494
-0.16479374 0.32744512 -0.098104879 -0.015580919 -0.99987775 0.0013125609 0.0005005562
-0.15220062 0.32661971 -0.0974999 -0.05511057 -0.99845499 -0.007105412 0.00018624992
-0.14736143 0.32630256 -0.096421123 -0.075256385 -0.99714798 0.0056881532 9.6438613e-05
-0.12401597 0.32407099 -0.096926264 -0.14867939 -0.9888764 0.0042241369 0.00058327185
-0.11208428 0.32169765 -0.094415203 -0.19013697 -0.98175722 -0.00075972511 0.00010283786
-0.10610756 0.32050881 -0.092210799 -0.19823886 -0.98015362 -0.00033895852 0
-0.23394701 -0.32132444 -0.081665538 0.19400603 0.98099959 -0.0012766095 0.00014575305
-0.22789596 -0.32252806 -0.086493142 0.17450468 0.98465377 0.0022551129 0.00026775189
-0.21759216 -0.3245776 -0.083169222 0.13731077 0.99051356 0.0053624781 0.00048539249
-0.20342134 -0.32586813 -0.084021829 0.08931572 0.99599642 0.0037090704 0.00027101685
-0.19386831 -0.32649428 -0.082336918 0.071144752 0.99746585 0.00053466111 5.4130913e-05
-0.18350956 -0.32717323 -0.081818484 0.059324149 0.99823678 -0.0020199325 0.00012599371
-0.17321573 -0.32779181 -0.083707057 -0.0036424242 0.99999106 0.0021358998 0.00060743489
-0.15379643 -0.32672432 -0.086801924 -0.056003328 0.99843049 -0.00044029515 0.00013512507
-0.14314924 -0.32602647 -0.080811501 -0.089897864 0.99594116 -0.0044231461 0.00024022616
-0.13727155 -0.32564121 -0.084482946 -0.095932171 0.99538594 -0.0019390351 0.00026063662
-0.12700093 -0.32466474 -0.081386447 -0.13731071 0.99052119 -0.0036828704 0.00056805927
-0.10620135 -0.32052749 -0.080187514 -0.20191129 0.97940367 0.00052540004 3.8796054e-05
-0.26232907 -0.31492293 -0.08506643 0.26728573 0.96361727 -0.00044522743 0.00074014859
-0.25590965 -0.3169558 -0.085242592 0.24540398 0.96940804 -0.0049898783 0.00080393977
-0.24603035 -0.31892094 -0.086906731 0.21174262 0.97731161 -0.005200631 0.00013609175
-0.10285923 -0.31986269 -0.084488943 -0.21711679 0.97614473 0.0013398685 0.00024260044
-0.081044041 -0.31465754 -0.084996901 -0.26625121 0.96387285 0.0077165808 0.0005067254
-0.075328305 -0.31271732 -0.086859614 -0.28867438 0.95742667 -0.0011089678 0.00037565705
-0.068309769 -0.31033483 -0.084643245 -0.32835212 0.94455522 -0.00057015673 0
-0.30016124 -0.30168205 -0.089335024 0.39189202 0.92000401 0.003629389 0.00054264325
-0.28316084 -0.30785146 -0.084077567 0.33602554 0.94185263 -0.00064972678 0.00016121786
-0.058236975 -0.30691558 -0.087798484 -0.34272826 0.93940228 -0.0077860993 0.00016468206
-0.042306136 -0.30084985 -0.08846505 -0.39661717 0.91797554 -0.0039707557 0.00045771946
-0.19065619 -0.29026896 -0.089419141 0.058012854 0.99831539 -0.0010033363 0.00020162189
-0.18105303 -0.29089838 -0.089894056 0.031909779 0.99946743 0.0068276199 0.000346266
-0.1771201 -0.29115617 -0.080504432 0.0064435615 0.99997723 0.0019936732 0.00062192796
-0.16324902 -0.29090804 -0.084570959 -0.017641775 0.99979883 0.0095393341 0.00042596855
-0.15830703 -0.29058412 -0.087349333 -0.038145464 0.99925178 0.0063848398 0.00031669051
-0.14992213 -0.29003453 -0.084536448 -0.075595424 0.99713117 -0.0038448402 0.00035682978
-0.036814295 -0.29814157 -0.08740288 -0.41829243 0.90831053 -0.0018838225 0.00019657792
-0.029516302 -0.29454261 -0.086687312 -0.43622905 0.89983505 0.0010398942 0.00011935239
-0.33211634 -0.2859236 -0.080144122 0.48217645 0.87607294 -0.0014171911 0.00050150789
-0.32945472 -0.28723612 -0.083870605 0.4778311 0.87845105 0.0010903385 0.00057379983
-0.24439679 -0.28217575 -0.087167211 0.2502993 0.96814287 -0.0070448448 0.00047209629
-0.2261577 -0.28580368 -0.082845725 0.1877562 0.9822011 -0.005361828 0.00010395669
-0.20905982 -0.28906274 -0.081938379 0.10976087 0.99395299 -0.00316169 0.00049237238
-0.19513114 -0.28997567 -0.085088916 0.069523014 0.99758041 -0.00033056844 3.5265293e-05
-0.13842401 -0.28928092 -0.089743122 -0.11563631 0.99328959 -0.0019787829 0.00067339937
-0.12617245 -0.28742984 -0.087011427 -0.16145523 0.9868769 -0.0024859044 0.00059530919
-0.11232364 -0.28467515 -0.089511365 -0.20769386 0.97818339 -0.0045213001 0.0002392053
-0.10513794 -0.28324583 -0.081355207 -0.21676667 0.97621554 -0.003935962 0.00023464971
-0.0089367051 -0.28439388 -0.08102268 -0.50342882 0.86402416 0.0046677301 0.0006547767
-0.35197198 -0.27334297 -0.087243013 0.55151904 0.83416182 -0.00095672364 0.00012986199
-0.34744203 -0.27636981 -0.083230115 0.53815681 0.84284347 0.0014571642 0.00024960726
-0.28150851 -0.27001691 -0.080943942 0.35303146 0.9356032 0.0039193225 0.00043449955
-0.2756356 -0.27201048 -0.082559854 0.34646282 0.93806326 -0.00096628553 0.00035428451
-0.25942576 -0.27751297 -0.08932063 0.29914534 0.95418626 0.0063654124 0.00028014497
-0.07252603 -0.27337056 -0.080819719 -0.35273224 0.93572402 0.00071762881 0.00051352999
-0.065816581 -0.27109301 -0.087635189 -0.36054093 0.932693 0.0096975667 0.00051142595
0.0065319669 -0.27420163 -0.080200031 -0.5528447 0.83328426 0.00036552726 8.1480634e-05
-0.36629924 -0.26376978 -0.081534252 0.594257 0.80427456 -0.00097348588 0.000519945
-0.28348568 -0.26934573 -0.082067087 0.36869666 0.92954928 0.00098019466 0.00059025048
-0.053991806 -0.26607415 -0.085246265 -0.40938386 0.91236222 0.00017792723 0.00037068216
-0.045826294 -0.26204735 -0.080048807 -0.43359724 0.90110427 0.002103626 0.00034892152
0.015979685 -0.2678889 -0.081397623 -0.5635103 0.82609725 -0.0044045057 0.00014731287
0.023505818 -0.26286006 -0.088423505 -0.59956479 0.80029672 0.006864083 0.00063439261
-0.37558335 -0.25675637 -0.085075043 0.63052011 0.77617127 0.0015615979 0.00071282039
-0.036566053 -0.25748071 -0.083895043 -0.46637952 0.88458467 -0.00023030578 0.00029921351
-0.029154526 -0.25382572 -0.08085715 -0.48122346 0.87659794 7.4877731e-05 0.00041425365
0.028985966 -0.25889832 -0.084243566 -0.61655623 0.78731006 -0.0011169518 0.00075027422
-0.38715586 -0.24660754 -0.085058033 0.6580686 0.75295645 0.0015305949 5.4650794e-05
-0.33641523 -0.24001049 -0.083053604 0.56162518 0.82739037 -0.0015224566 0.0001704887
-0.32392704 -0.24835484 -0.084867954 0.52619553 0.8503623 0.0014728428 0.00027665499
-0.020468954 -0.2485159 -0.084926955 -0.51914442 0.85465294 -0.0075730165 0.00058126694
-0.016157409 -0.245635 -0.08457724 -0.54258704 0.83999264 -0.0034238123 0.00020821983
0.045054987 -0.24480619 -0.08413516 -0.65613544 0.75463998 0.0021924088 2.028223e-05
-0.40353185 -0.23224619 -0.084046766 0.7025122 0.71167016 0.0014434903 0.00060241477
-0.34963393 -0.23115496 -0.084202945 0.60807753 0.79386002 0.0052911169 0.00068703975
-0.33710155 -0.2395519 -0.08842887 0.56073976 0.82799107 -0.0012741298 3.0501678e-05
-0.0025629513 -0.23655149 -0.086871192 -0.58544552 0.81067568 0.0076430906 0.00043824274
0.0055641746 -0.23108023 -0.083229266 -0.60937738 0.792831 0.008842051 0.00073980389
0.055490226 -0.23565474 -0.085724056 -0.69363678 0.72021037 -0.012847604 0.00022470822
-0.41126621 -0.22353794 -0.088022545 0.73591882 0.67706966 0.00037321507 0.0002381935
0.0096310684 -0.22751366 -0.084363416 -0.6279555 0.77824455 -0.0026863823 0.00057267316
0.015499699 -0.222367 -0.084114559 -0.64268857 0.76612717 -0.00076028693 0.00029552449
-0.42235312 -0.21089572 -0.08026053 0.76462644 0.64447367 -0.00013933549 0.00013675611
-0.36530527 -0.21741153 -0.086898439 0.66289139 0.74871546 -0.00018809497 0.00030611348
0.018324852 -0.2198894 -0.089706898 -0.65271974 0.75759673 0.0020363573 0.00034241908
0.02564921 -0.21346614 -0.080188811 -0.67539048 0.73746032 0.00011148986 0.00025091719
0.076049097 -0.21334629 -0.085812889 -0.76176047 0.64785802 -0.00091546605 0.00016534784
-0.38200951 -0.20175654 -0.088093296 0.71852458 0.69548506 0.0047973315 0.00059827644
-0.37468377 -0.20918679 -0.081676669 0.70105219 0.71309835 -0.0040663974 0.00057169725
0.037698805 -0.20193413 -0.08454752 -0.71419746 0.69987172 -0.010077668 0.00045107532
0.081623323 -0.20699006 -0.086631984 -0.78013557 0.62560183 0.0033082922 0.00047419098
-0.43687677 -0.19268101 -0.085493445 0.80798918 0.58917373 -0.0052657258 0.00026537068
-0.39071244 -0.19183272 -0.083665274 0.74568158 0.66630238 0.00013745266 0.0001264218
-0.38666904 -0.19644336 -0.084594131 0.74184144 0.67057371 -0.0015312752 0.00011423806
0.04695601 -0.19137833 -0.083029382 -0.75054199 0.66081893 0.0022787051 0.00021023447
0.094429985 -0.19012459 -0.083385199 -0.81317753 0.58201575 0.00019871548 0.00032416647
-0.4443897 -0.18143713 -0.081958823 0.831626 0.55533606 -1.8591285e-05 0
-0.43901291 -0.18948403 -0.086205497 0.81610364 0.57788634 -0.0047104224 0.0001909948
-0.39491045 -0.1870458 -0.082163468 0.76519227 0.64379162 0.0036201377 0.00049876166
0.05347247 -0.18394773 -0.08601369 -0.77951723 0.62636179 -0.0048755966 0.0003932314
0.09905225 -0.1832069 -0.083586566 -0.82664251 0.56272537 -0.0015307796 0.00015801797
0.10049433 -0.18104866 -0.081438273 -0.83183873 0.55501741 -0.0002984014 5.7581665e-06
-0.44859114 -0.17514926 -0.087138213 0.84456849 0.53543299 0.0039419779 0.00033512808
-0.40297467 -0.17784278 -0.085472256 0.79793054 0.60256344 0.014969476 0.00075872679
0.10314561 -0.17708074 -0.084158085 -0.83607107 0.54862118 0.00016612915 3.0623076e-05
-0.45623717 -0.16361564 -0.081915885 0.86557847 0.50077248 -0.00092407863 0.00036690981
-0.41262528 -0.16353355 -0.083545528 0.82273579 0.56842238 0.0013754581 0.00037007802
0.069053397 -0.16266099 -0.085668951 -0.8321892 0.55449116 -0.00086775667 0.00022062342
0.11278477 -0.16219097 -0.080684066 -0.86316681 0.50491655 0.0015132427 0.00060810888
-0.46278864 -0.15033056 -0.088702932 0.88890481 0.45809168 0.00046851477 0.00020550344
-0.41598111 -0.15851128 -0.08493755 0.83830678 0.54518223 0.0042495793 0.00030632818
0.071539409 -0.15894039 -0.084748685 -0.84142113 0.54035646 0.0050354474 0.00017660778
0.12163848 -0.14423743 -0.086899966 -0.8989225 0.43810695 -0.00084247405 2.8733713e-05
-0.47037354 -0.1349498 -0.0839715 0.91094768 0.41251126 0.0029740529 0.00049058493
-0.42832685 -0.13800827 -0.089126945 0.88400781 0.46746966 0.0015212048 0.00038142435
0.085431911 -0.13545325 -0.083708853 -0.88470685 0.46614367 0.0019768195 0.00037435419
0.12589145 -0.13561329 -0.087337688 -0.90819871 0.41853765 -0.001116449 0.00027391053
-0.47371316 -0.12817778 -0.089920148 0.91965753 0.39271924 -0.0013299044 0.00056131213
0.089446232 -0.12731302 -0.083716542 -0.90027171 0.43532306 0.0021342554 6.9128357e-05
0.091314465 -0.12352461 -0.082302094 -0.90214986 0.43142235 0.00067374908 0.00010614439
0.13233151 -0.12122464 -0.084744118 -0.93293148 0.36002219 0.0047737104 0.00058446842
-0.44005305 -0.11422995 -0.086534902 0.91361958 0.40656415 0.002179262 0.00046983641
-0.43901241 -0.11634011 -0.087557778 0.91245306 0.40917939 -0.0013074472 0.00038464024
0.095087603 -0.11587346 -0.084857568 -0.91950399 0.39304355 -0.0054050735 0.00057924102
0.13479257 -0.11397458 -0.087045923 -0.94031125 0.34028605 0.0044865524 0.0002258013
-0.48110282 -0.10762528 -0.084015191 0.94174975 0.33631253 0.0011394193 0.00020571279
0.098337613 -0.10825804 -0.080360733 -0.9272033 0.37455747 -0.00087267777 0.0004221024
0.1375645 -0.10580875 -0.087052487 -0.94649702 0.32270536 0.0021794788 3.2180949e-05
-0.44576344 -0.098622382 -0.080477774 0.94365662 0.33092594 0.00054515112 0.0003125284
0.14162706 -0.093840815 -0.084021471 -0.95549881 0.29499087 0.0015481145 0.00050868833
-0.48878801 -0.084966786 -0.087098181 0.96488941 0.26260516 -0.0051804455 0.00041782286
-0.45052505 -0.084595077 -0.088585466 0.95550758 0.29496601 0.00052239618 0.00025892907
0.10462549 -0.089734539 -0.081114538 -0.95135999 0.30801153 0.0065659685 0.00029691576
0.14436281 -0.085781574 -0.086721301 -0.96660149 0.25628287 -0.0008092139 0.0007115585
-0.49089038 -0.074495852 -0.085869864 0.97631526 0.21633801 -0.002522801 0.0002210128
-0.45450461 -0.071055412 -0.086381175 0.9699719 0.24321675 -0.00018194618 0.0006542831
0.10808612 -0.079539865 -0.089223824 -0.96621436 0.25759473 -0.0086453157 0.00040255047
0.11030114 -0.071299337 -0.08291398 -0.97027761 0.24198459 -0.002184374 0.00052902347
-0.49242058 -0.0668028 -0.081437357 0.97899669 0.20387454 0.00086493883 1.094664e-05
-0.45550489 -0.066026509 -0.087474048 0.9762131 0.21681319 -0.00019233998 0.00036610011
0.11185195 -0.063502885 -0.085236743 -0.97557729 0.21965638 -0.00016349979 0.00045074863
0.14859135 -0.06516546 -0.088935792 -0.97964793 0.20071252 -0.0020787306 0.0001944793
-0.49518195 -0.052920613 -0.080731705 0.98738599 0.15828419 0.0038714588 0.00032889811
-0.45809877 -0.052986231 -0.087072104 0.98155451 0.19118086 0.00071868696 5.5294131e-05
0.11339588 -0.055740982 -0.084633797 -0.98317647 0.18265711 0.00060033688 0.00022496366
0.15019664 -0.057095073 -0.08152169 -0.98307931 0.1831799 -0.00034450344 0.00012797074
0.44487104 -0.051488917 -0.082688905 -0.14901362 -0.98054326 0.12778798 0.04269769
-0.4967671 -0.044951305 -0.085889615 0.9890449 0.1475901 -0.0027142414 0.00026229242
-0.4606277 -0.040272422 -0.085044876 0.98954105 0.1442392 0.0018439471 0.00072255079
0.11563881 -0.044464998 -0.08426746 -0.98901653 0.14780122 0.001002576 0.00058044563
0.43238077 -0.045737267 -0.085321188 -0.57550579 -0.79280758 0.20062165 0.036976162
0.46622422 -0.046634477 -0.083717942 -0.57103795 0.78835654 0.22893143 0.033419818
0.47070187 -0.041339092 -0.087828264 -0.65306979 0.70957065 0.26459283 0.031592719
-0.4976981 -0.035120115 -0.086164907 0.99557871 0.09389431 -0.0026102797 0.00020696448
-0.46131039 -0.034385715 -0.083756037 0.99456948 0.10393398 -0.0054060514 0.00029150554
0.11728387 -0.032426339 -0.082607776 -0.99335289 0.1150744 0.0028096924 0.00061070541
0.15340546 -0.037220798 -0.086816043 -0.99406314 0.10862175 -0.0063110269 0.00053065974
0.41997647 -0.031488687 -0.087931201 -0.82216215 -0.43316069 0.36935234 0.0042721373
0.42345563 -0.037488639 -0.088127375 -0.72618997 -0.59112656 0.3510237 0.011330047
0.47662857 -0.034177944 -0.085017473 -0.82939804 0.48407581 0.27887198 0.0091961613
-0.46216717 -0.021313565 -0.081771247 0.99767357 0.068022788 -0.0045121186 0.00030039981
0.15423018 -0.024638085 -0.085519537 -0.99759191 0.069347925 0.0011464206 3.4770695e-05
0.48197526 -0.021133065 -0.085111611 -0.91600418 0.23794745 0.32298186 0.01000118
-0.49914464 -0.013050064 -0.084843822 0.99940711 0.034137066 -0.0044973851 0.00020912252
0.11842747 -0.014978394 -0.085078426 -0.99769962 0.067760803 0.0020019563 0.00012803925
0.15501396 -0.012679693 -0.084654108 -0.99917674 0.040557861 -0.00096510083 0.00023670515
0.41696259 -0.016993182 -0.083562203 -0.90546972 -0.17873995 0.38493705 0.0066029429
0.48336607 -0.013207685 -0.085672997 -0.93999988 0.12477996 0.31753781 0.0042081089
-0.46293509 -0.0095975054 -0.083667807 0.99953967 0.030336268 -0.00015662686 0.00058356533
0.11886404 -0.0083178347 -0.081930399 -0.99928069 0.037899084 -0.001328333 0.00051595323
0.15578274 -0.00095046323 -0.084506474 -0.99998271 0.00098837772 -0.005791449 0.00059465523
0.41501671 -0.0018950726 -0.08489792 -0.91186309 0.043854393 0.40814513 0.006456608
0.48255184 -2.6182097e-05 -0.089689538 -0.93480468 -0.07737156 0.34663209 0.005109685
-0.49954781 0.0068990272 -0.086971179 0.9996106 -0.027241617 -0.0060464302 0.00039933191
0.11939698 0.00018682008 -0.086609937 -0.9999876 -0.00078786368 0.0049184677 0.0008465689
0.15548158 0.0055455654 -0.080295347 -0.99966836 -0.025733668 0.00099675439 0.00044767812
0.41606236 0.0008189755 -0.082768567 -0.90651512 0.067030042 0.41681802 0.0066700629
0.4829492 0.0084630717 -0.085604027 -0.93291688 -0.18528926 0.3087621 0.0067316545
-0.49918836 0.012382763 -0.085600905 0.99946624 -0.032347225 -0.0045575947 0.00044421409
-0.46243894 0.017167471 -0.08391723 0.99756855 -0.069692187 -2.1441434e-05 0.00026682724
0.11837259 0.015815832 -0.086620957 -0.99840868 -0.056355648 -0.0020220298 0.00015794496
0.15499267 0.013004477 -0.084219493 -0.99927759 -0.037821904 -0.0037190442 0.00037501531
0.41868103 0.012930503 -0.081445888 -0.86986345 0.31833115 0.37683278 0.0045574154
-0.49846601 0.023403727 -0.085336804 0.99766815 -0.068250947 0.00014021833 0.00015310121
-0.46193314 0.024884636 -0.083268218 0.99574202 -0.092121162 0.0034086599 0.00036297142
0.11767293 0.026490554 -0.087267265 -0.99569106 -0.092717931 0.0016579583 0.00044178436
0.15435985 0.022659792 -0.087193206 -0.99752563 -0.07030122 -0.00061654393 5.5692661e-05
0.42253572 0.025641661 -0.084707916 -0.79421747 0.50277066 0.3412334 0.014755356
0.47707075 0.023196515 -0.088686094 -0.84331298 -0.44212562 0.30552953 0.010686771
-0.49779844 0.033589199 -0.088916838 0.99521089 -0.09761595 -0.0051350715 0.00039878461
0.11716651 0.034216963 -0.087088071 -0.99147171 -0.13027178 -0.0036116054 0.0006090299
0.15355979 0.034866214 -0.082627125 -0.99446344 -0.10507589 0.0012086771 0.00044800132
0.42420185 0.031343512 -0.089394249 -0.75998873 0.56592286 0.31960699 0.010366043
0.4349106 0.038397279 -0.080301046 -0.43161133 0.88160604 0.19100365 0.053719379
0.46351424 0.039671082 -0.088247932 -0.38989392 -0.90083987 0.19097199 0.047854122
0.47476572 0.030601295 -0.082803205 -0.7831043 -0.56652683 0.25650531 0.01162695
-0.49625456 0.047528096 -0.084522448 0.98808408 -0.15391284 0.00089624745 0.00054724672
-0.46055102 0.040657908 -0.085388958 0.99083561 -0.13507326 5.3914647e-07 0.0005186327
-0.45938069 0.046541788 -0.087964602 0.9871161 -0.16000372 -0.00071447837 0.00057840405
0.11515596 0.046892457 -0.088621251 -0.98506391 -0.17207401 -0.0062970212 0.00034188468
0.15176764 0.049204089 -0.08841712 -0.98824281 -0.15285277 -0.0034936892 0.0004864294
0.43472481 0.040359206 -0.088061266 -0.30457821 0.9426713 0.13639222 0.033428669
0.45341697 0.044102147 -0.086184241 -0.086921237 -0.99086368 0.1031208 0.042480886
-0.49424142 0.05764899 -0.089031398 0.98349071 -0.18095042 0.0017312445 9.3776696e-05
-0.4579826 0.053570323 -0.083595373 0.98395455 -0.17841758 -0.00079095952 0.00015642456
0.11406508 0.05237671 -0.085937217 -0.98480892 -0.1736358 -0.00141458 0.00027525707
-0.49344623 0.061646573 -0.082105912 0.98352426 -0.18057446 0.008544785 0
0.1119736 0.062891304 -0.081381164 -0.97580963 -0.21862154 -0.00037883452 0.00046570724
0.14889786 0.063628703 -0.085193358 -0.98307759 -0.18317428 -0.0023914236 0.00012598466
-0.49100059 0.073941648 -0.084874101 0.97492498 -0.22243051 -0.0067711687 0.00012914622
-0.45356596 0.075076453 -0.085800111 0.96702456 -0.25467649 0.0018374941 0.00061462761
0.10927838 0.075653493 -0.089244217 -0.96761566 -0.25236335 -0.0057170424 0.00058050221
