# .PCD v0.7 - Point Cloud Data file format
VERSION 0.7
FIELDS x y z normal_x normal_y normal_z curvature
SIZE 4 4 4 4 4 4 4
TYPE F F F F F F F
COUNT 1 1 1 1 1 1 1
WIDTH 591
HEIGHT 1
VIEWPOINT 0 0 0 1 0 0 0
POINTS 591
DATA ascii
0.12821747 0.29898497 -0.226009 -0.44603086 -0.73647457 0.5085879 0.19796276
0.1339151 0.29342487 -0.22485232 -0.36857682 -0.92590672 0.082751386 0.13468178
0.12425186 0.30285484 -0.22548202 -0.78614485 -0.49289569 0.37286729 0.22670524
-0.32267109 0.31170866 -0.22483099 0.93335569 -0.32559991 0.15110201 0.16427064
-0.31340069 0.31721306 -0.22407842 0.46831307 -0.83642954 0.28472546 0.22473058
0.077707082 0.31639823 -0.22637011 -0.50359464 -0.77366388 0.38449547 0.1917005
0.081936814 0.31248754 -0.22975005 -0.57633138 -0.80987382 0.10929998 0.19138858
0.1085773 0.31815097 -0.22310299 -0.68440872 -0.72277707 0.095802538 0.22557321
-0.30623862 0.32146555 -0.22438157 0.40822077 -0.8946436 0.18157248 0.22685573
-0.2941758 0.32862794 -0.22360912 0.64578396 -0.65651345 -0.38981166 0.16374691
0.062114194 0.32514858 -0.22178927 -0.26310241 -0.83431083 0.48446113 0.1967375
-0.33274594 0.3320792 -0.22503607 0.34622869 -0.84825814 0.40072921 0.23134358
0.04702086 0.33361858 -0.22340931 -0.76477319 -0.61665571 0.18670169 0.18786973
0.083200268 0.33929911 -0.22805992 0.413614 -0.90941805 -0.043384369 0.22196357
-0.26450154 0.34624729 -0.22367549 0.27641234 -0.89096767 -0.36024001 0.19443095
-0.25836906 0.3498885 -0.22182488 -0.18908623 -0.94210964 -0.27690408 0.20713082
0.018672194 0.34952706 -0.22393467 -0.55442494 -0.83057684 -0.05248883 0.2465172
0.027858939 0.34437174 -0.22446889 -0.23413725 -0.83233774 0.50238794 0.20881394
-0.29915589 0.35202354 -0.2228227 0.68880051 -0.72386271 0.039707981 0.17259367
-0.2442487 0.35664359 -0.22595006 0.51281959 -0.55053657 -0.65873033 0.24353214
0.0038215318 0.35786086 -0.22231731 -0.59393555 -0.72797352 -0.34248364 0.20815445
0.014037493 0.35212794 -0.22247231 -0.68655759 -0.72674209 0.022013895 0.24291459
0.04840498 0.3588253 -0.22110252 -0.38304049 -0.79019022 0.47841331 0.20181839
0.057055719 0.35397074 -0.22517118 -0.65480435 -0.71759319 0.23725782 0.21116377
-0.28475505 0.36057413 -0.22852024 0.036747411 -0.96775985 0.24917969 0.1605408
-0.27756274 0.36484459 -0.22526576 0.15275486 -0.9777174 0.14399521 0.17556106
-0.2237764 0.36239809 -0.22085513 0.45300624 -0.80959624 -0.37328172 0.24473608
-0.21238601 0.36559975 -0.2279228 -0.09456744 -0.8112939 -0.57693964 0.19496445
-0.20402041 0.36795121 -0.22170779 0.21694753 -0.96211022 -0.16515978 0.13483243
-0.022838481 0.36487699 -0.22640617 -0.10940924 -0.89876616 0.42455751 0.21428587
-0.0068037617 0.36078981 -0.22397608 -0.48345348 -0.70721316 0.51587027 0.17045462
0.031246072 0.36845443 -0.22224161 -0.14280051 -0.98055089 -0.13463983 0.20835316
0.042940378 0.3618919 -0.22647466 -0.39233655 -0.89300233 0.2204971 0.26498905
-0.26575413 0.37185603 -0.22443186 0.3331131 -0.6837213 -0.64927721 0.24021336
-0.24738596 0.37929922 -0.22289172 -0.14358978 -0.82862115 -0.54108125 0.19796237
-0.18599635 0.37301752 -0.22552647 0.3863382 -0.92120928 0.046002265 0.1813882
-0.17927755 0.37490609 -0.22457966 0.11927743 -0.99170232 -0.047951542 0.1854436
-0.14797902 0.37871793 -0.22927199 -0.10874585 -0.96551889 0.23653223 0.14385203
-0.13508257 0.37887549 -0.22692192 -0.027385097 -0.95075172 0.30874124 0.1934679
-0.12404203 0.37901041 -0.22199559 -0.050296485 -0.9734205 -0.22343415 0.24119529
-0.10843274 0.37920111 -0.22728263 -0.080635093 -0.99218565 -0.095213749 0.19194335
-0.09566161 0.37935716 -0.22125565 0.04369558 -0.97922707 -0.19800264 0.20469467
-0.08053714 0.37954196 -0.22034726 0.2711333 -0.90708417 -0.32200167 0.21445978
-0.044981435 0.37052116 -0.22362305 -0.33487281 -0.94207865 -0.018655695 0.14044158
-0.24300942 0.3805294 -0.22677587 0.1044635 -0.87370867 -0.47510073 0.20365703
-0.23443267 0.3829402 -0.22281519 0.10574207 -0.95914048 -0.26242703 0.22455662
-0.22532929 0.38549906 -0.2262069 0.32498369 -0.86359096 -0.38548177 0.1985427
-0.21912616 0.38724267 -0.2201874 0.27751091 -0.92460799 -0.26093623 0.21277483
-0.015606951 0.38641763 -0.22362143 -0.48140144 0.42423636 0.76699162 0.26306796
-0.0046976767 0.38363686 -0.22006319 0.23260325 -0.8842392 0.40498996 0.20587762
0.0041478695 0.38138217 -0.22838631 -0.050350048 -0.80390489 0.59262282 0.214902
-0.2004222 0.39250013 -0.2253885 0.17610364 -0.88200009 -0.43710786 0.22136374
-0.063625313 0.39865735 -0.22377339 -0.2177068 -0.97597373 0.0088858437 0.25262958
-0.049450602 0.39504424 -0.22838059 -0.3478303 -0.91466862 0.20590131 0.17005587
-0.034881536 0.39133063 -0.22249442 -0.56667006 -0.82157302 -0.062473051 0.15938742
-0.15153238 0.40133566 -0.22130726 -0.13110739 -0.89911813 0.4176091 0.15093298
-0.13088335 0.40158796 -0.22994646 0.78083181 -0.38073552 0.49532026 0.24878716
-0.12051696 0.40171462 -0.22124946 0.56423604 -0.82343435 0.059945576 0.22167905
-0.11637107 0.40176526 -0.22650309 0.37459326 -0.9271881 0.001446704 0.22122252
-0.088385239 0.40210718 -0.22440144 0.021091474 -0.87599367 -0.48186108 0.22336598
0.37303603 -0.37917298 -0.21458459 0.023710774 0.9777801 0.20828785 0.011683007
0.38813511 -0.37683254 -0.21472135 -0.31458002 0.90867734 0.27449021 0.011523601
0.39582491 -0.37214029 -0.21744204 -0.41940522 0.85254121 0.31188589 0.0047120834
0.33662295 -0.36416686 -0.21849939 0.57369483 0.81905478 0.0048496164 0.0010543508
0.34278339 -0.36877543 -0.21767581 0.50199467 0.863325 0.051683277 0.0048373127
0.4114911 -0.36034366 -0.21574581 -0.65058923 0.67340577 0.35108179 0.0024859454
0.32429987 -0.35494804 -0.21214861 0.67404413 0.73199433 -0.099241488 0.0046822322
0.41961935 -0.35366863 -0.21111682 -0.71528447 0.61949068 0.32341832 0.0019323878
0.31024343 -0.34021461 -0.21203506 -0.77754331 -0.58989334 0.21783535 0.014087296
0.42550972 -0.34358016 -0.21475042 -0.81249106 0.47319233 0.34051031 0.0016465185
0.30655706 -0.3357566 -0.21493271 -0.7486515 -0.61487991 0.24787822 0.0099262577
0.29889041 -0.32181299 -0.21721011 -0.86190832 -0.25643525 0.43744144 0.023683816
0.43359655 -0.32511199 -0.21820624 -0.89557213 0.27896416 0.34659705 0.0047293347
0.43704468 -0.31691653 -0.21647751 -0.92418903 0.23187864 0.30349126 0.0061716591
0.29675943 -0.3042728 -0.21566726 -0.6982227 0.18069296 0.6927014 0.012760523
0.43808156 -0.30041835 -0.21848634 -0.93457192 -0.12293923 0.33385813 0.018870141
0.44010255 -0.30035409 -0.21146874 -0.96115482 -0.13102582 0.24292731 0.023054287
-0.1774604 -0.29439121 -0.21460237 0.095842451 0.9712159 -0.21806853 0.19445981
-0.16132432 -0.29850423 -0.21570762 -0.070442766 0.99623567 -0.050521139 0.16476335
-0.14756264 -0.2983602 -0.21895032 0.012396494 0.99940449 -0.032202121 0.17759021
-0.13609287 -0.2982201 -0.21460274 0.21376325 0.87026346 0.44378692 0.24027161
-0.12416442 -0.29807433 -0.2147254 -0.11215765 0.8040238 0.58392322 0.20961319
-0.10293601 -0.29781497 -0.2184854 0.14755158 0.94242531 0.30010518 0.21320954
-0.095223568 -0.29772073 -0.21461847 0.34570852 0.92541909 0.15519367 0.23020929
-0.080585003 -0.29754192 -0.21767184 -0.39172333 0.92005908 -0.0066363909 0.22969867
-0.078449681 -0.29751578 -0.2149832 -0.44941723 0.89122051 0.061238658 0.23314261
-0.047242127 -0.29125094 -0.21180528 0.44603336 0.83729404 -0.3162165 0.14666817
0.30062795 -0.29281363 -0.21759161 -0.65234637 0.24093418 0.71860623 0.011903537
0.43763497 -0.29552242 -0.21693614 -0.93035537 -0.25546831 0.26301104 0.020429675
-0.22306538 -0.28276664 -0.21653363 0.0081079826 0.97135621 -0.23748989 0.20208944
-0.19871034 -0.2889747 -0.21588533 0.28591475 0.95339501 0.096387632 0.23474497
-0.031760693 -0.28689933 -0.21975285 -0.23708148 0.6725049 0.70109171 0.20053899
-0.023610424 -0.28460836 -0.2136825 0.014886993 0.81679863 0.57673097 0.21368393
-0.010961219 -0.28105283 -0.21744084 -0.026829153 0.92076439 0.38919544 0.23155993
-0.007687428 -0.28013259 -0.21079451 -0.51044518 0.85637248 0.077922314 0.21591353
-0.24353442 -0.27754918 -0.21820392 0.25437906 0.50251812 -0.8262971 0.20399104
-0.17569751 -0.27145672 -0.21242827 0.2337748 0.954584 -0.18471268 0.24080437
-0.15321627 -0.27576825 -0.21505342 0.36177877 -0.400563 0.84182262 0.2476331
-0.14317648 -0.27564558 -0.21365887 0.62555212 -0.22311786 0.74759811 0.26234835
-0.11092207 -0.27525148 -0.21613589 -0.15876685 0.96848017 0.19193508 0.17196947
-0.098223701 -0.27509633 -0.21708615 0.35636231 0.93148297 0.07311181 0.23162928
-0.08306668 -0.27491111 -0.21228285 -0.1761374 0.94088173 0.28933927 0.22422121
-0.062744878 -0.272071 -0.21299894 -0.037502933 0.98352915 -0.17681609 0.19448416
-0.0016612951 -0.27843875 -0.21713874 0.053680461 0.97798026 0.20167546 0.25899035
0.019725038 -0.27237409 -0.21335021 -0.72010571 0.59404474 -0.35855067 0.18873063
0.42350629 -0.27342358 -0.21396056 -0.69438142 -0.71813136 0.046062768 0.0066828639
-0.27511105 -0.2619614 -0.21347314 0.09628363 0.98147476 0.16564059 0.16187806
-0.20407493 -0.26422337 -0.21667199 0.19247614 0.96664619 0.16896169 0.20911087
-0.1933789 -0.26694977 -0.21205974 0.61021727 0.69355613 -0.38290304 0.22145604
-0.044604465 -0.26697198 -0.21719202 0.014383021 0.99763077 0.067275807 0.21797514
-0.033231787 -0.26377526 -0.21302193 -0.075277746 0.94808853 0.30896828 0.18323046
-0.024926806 -0.26144084 -0.21499358 -0.268004 0.89142704 0.36542001 0.22254632
0.024340525 -0.26963359 -0.21954811 -0.43297395 0.8148275 -0.38547349 0.21862918
0.32809901 -0.2650013 -0.21268284 -0.55110908 0.43017277 0.71500367 0.00077529548
-0.29337865 -0.25171012 -0.21754566 0.87411517 0.46954626 -0.12429348 0.22297069
-0.23715428 -0.25579154 -0.21004361 0.68424523 0.64781022 -0.33488864 0.2000562
-0.223373 -0.25930434 -0.21235427 0.4526369 -0.37775555 0.80772555 0.17090069
-0.013090305 -0.25811377 -0.21299624 -0.38092756 0.77034259 0.51133794 0.24525636
-0.0026785333 -0.25518715 -0.21563905 -0.59059983 0.19022116 0.78422433 0.21833813
0.0030244449 -0.25358415 -0.21283939 0.034729008 -0.54159236 0.83992362 0.23826198
0.01256835 -0.25027078 -0.21747592 0.079824746 0.99037701 -0.11305443 0.23506285
0.046154514 -0.25668138 -0.21633978 -0.2617676 0.89128554 0.3702535 0.21238162
0.056940351 -0.25027725 -0.21728222 -0.25857747 0.96155792 -0.092433535 0.21694985
0.39589059 -0.25276446 -0.21033984 0.4771584 0.87250745 0.10512137 0.0076112519
0.40208483 -0.25739834 -0.21722487 -0.58836937 -0.80831468 -0.021187039 0.00089666276
-0.31338239 -0.24048451 -0.21394441 0.90293229 0.37639171 0.20746706 0.19383092
-0.26674774 -0.24067123 -0.21626359 0.34441915 0.92565709 0.15663445 0.19359408
-0.25260091 -0.24861006 -0.21676779 0.56438762 0.67240697 -0.47888979 0.21039294
0.018223777 -0.24691281 -0.21523057 -0.42686054 0.90146744 -0.071739584 0.21736424
0.066402189 -0.24465922 -0.21491864 -0.63093072 0.76485825 0.13007019 0.2129858
0.33566689 -0.24747151 -0.21680848 -0.39378849 0.5341922 0.74804366 0.016509853
0.34910101 -0.24308427 -0.21107356 -0.28232834 0.68992573 0.66655326 0.020942703
0.3656266 -0.24109709 -0.21134678 0.10893244 0.90833127 0.40381685 0.010670047
0.3762826 -0.24326183 -0.21055667 0.18189956 0.93040085 0.31822455 0.0178307
0.38418418 -0.24478194 -0.21675669 0.416004 0.89756918 0.14598042 0.012191483
0.043383211 -0.23197423 -0.21611515 -0.53603035 0.84390068 0.022429869 0.24215023
0.076262519 -0.23880459 -0.21308984 -0.55369836 0.75045049 0.36089095 0.24373035
0.081747301 -0.23554799 -0.21871951 -0.46117082 0.87878925 0.12268192 0.2384318
0.34162861 -0.23869273 -0.21881428 -0.20513344 0.73697603 0.64403927 0.017124787
0.36396551 -0.23799013 -0.21769503 0.11533157 0.92361879 0.36555031 0.023332316
-0.33929098 -0.22243586 -0.21866071 0.1185248 0.98345751 -0.13697904 0.19592012
-0.29775944 -0.2232683 -0.2188651 0.69191921 0.69715774 0.18766713 0.19305168
-0.28719088 -0.22919908 -0.21427065 0.88268685 0.4406651 -0.1633345 0.20615551
0.096525177 -0.22677352 -0.2143003 -0.58738053 0.80580729 0.075224824 0.11588529
-0.35020947 -0.21178089 -0.21502118 0.70010346 0.64658254 0.30296245 0.23692459
-0.34668887 -0.21521649 -0.21489696 0.72961003 0.68188852 -0.051934648 0.28514734
-0.3110601 -0.21580431 -0.21761602 0.43365645 0.90050352 -0.032180235 0.1309772
0.065943092 -0.21857911 -0.21918949 -0.51261216 0.85760045 -0.041837316 0.25643161
0.10576205 -0.21827179 -0.21224616 -0.88397133 0.44382393 -0.14702027 0.21832214
-0.35777378 -0.20439924 -0.21845478 0.63239175 0.76221704 -0.13822386 0.17350867
-0.32648718 -0.20326978 -0.21489909 0.49167791 0.71391988 -0.49856913 0.26638955
-0.37043077 -0.19204783 -0.21093753 0.58891422 0.80707824 -0.042483836 0.22319543
-0.36681607 -0.19557522 -0.21742599 0.74296516 0.66191083 -0.099382237 0.203573
-0.33702984 -0.1929816 -0.2120766 0.32212111 0.27204561 0.9067685 0.20327586
0.12575862 -0.19778049 -0.21535093 -0.67306226 0.71023965 -0.20626885 0.19943666
-0.3754777 -0.18712275 -0.2163157 0.71048987 0.70243263 0.042338427 0.16173905
-0.34075683 -0.18934461 -0.21032816 0.1867363 0.05024099 0.98112452 0.20778194
0.10680331 -0.18476069 -0.21620393 -0.60852575 0.75182515 0.25388035 0.18927558
0.13625643 -0.18702295 -0.21501586 -0.48143879 0.87581861 -0.034037054 0.19483434
-0.39194828 -0.17104973 -0.2190876 0.93204194 0.34546128 0.1093358 0.18940353
-0.35775924 -0.17275266 -0.21546078 -0.076820359 0.66628909 0.74172598 0.24432015
0.14320832 -0.17989907 -0.21633239 -0.48336709 0.83895546 -0.25002015 0.14801371
-0.39613065 -0.1669683 -0.21709768 0.97315449 0.22897442 0.023261433 0.15750717
-0.36437041 -0.16630112 -0.21558107 0.89115113 0.43872291 0.11563656 0.23027527
0.12753153 -0.16351974 -0.21378832 -0.69317049 0.70880938 -0.13078207 0.18427806
0.15721703 -0.16554376 -0.21530089 -0.72318119 0.69062918 -0.0063485862 0.16613249
0.16058314 -0.16209437 -0.21475507 -0.7874468 0.61454237 0.047594529 0.15524635
0.16574833 -0.1547932 -0.21174166 -0.83538401 0.54927713 0.020691056 0.21374837
-0.38338706 -0.14449023 -0.21079993 0.97068 0.1870499 0.15097281 0.14025135
0.14081383 -0.14990889 -0.21819955 -0.47997969 0.87713134 -0.016124427 0.18644951
0.17149419 -0.14455423 -0.21414651 -0.8082369 0.58076322 0.097299546 0.13496643
-0.41684034 -0.13253132 -0.21442288 0.157028 0.84943432 -0.50378919 0.14716354
-0.38691416 -0.13854991 -0.21314378 0.94029051 0.28229481 0.19016695 0.074067637
0.17660037 -0.13545512 -0.21595523 -0.90600598 0.40949944 0.10706685 0.17797855
-0.39246023 -0.12920925 -0.21881945 0.66393816 0.70093745 -0.26052427 0.1495849
0.15427257 -0.12894103 -0.2165602 -0.89803869 0.36442453 0.2464169 0.20998932
0.18426529 -0.12179641 -0.21464887 -0.98695332 0.11686801 0.11074806 0.18711247
-0.42801708 -0.11370761 -0.21339475 0.86647308 0.42013651 -0.26964754 0.18906808
0.18600675 -0.11869316 -0.21081331 -0.9113186 0.3047072 0.27686095 0.20380652
-0.43221065 -0.10664473 -0.21252687 0.82965237 0.46552116 0.30816722 0.22687215
-0.40595305 -0.10648473 -0.21528989 0.79052365 0.48809379 0.36991456 0.19688407
0.16493699 -0.10993725 -0.21732509 -0.95735359 0.24780919 -0.14854212 0.23618817
0.1936543 -0.10506543 -0.21142749 -0.73106724 0.58269942 0.35496786 0.20177467
-0.44098812 -0.091861844 -0.21902464 0.80633754 0.51777476 0.28588295 0.18169481
-0.41108385 -0.097843423 -0.21175744 0.94532162 0.32527608 0.023718573 0.20266853
0.17380874 -0.094128005 -0.21380323 -0.64787334 0.54163247 0.53562522 0.25289837
0.19920801 -0.095168859 -0.21043223 -0.77524996 0.58375001 0.24129526 0.21885104
0.20166776 -0.090785623 -0.2185258 -0.87553436 0.36445615 0.31719279 0.21344759
0.18068016 -0.081883281 -0.21898505 -0.97985673 0.046922587 0.19411081 0.26312071
-0.44652918 -0.077386938 -0.21489255 0.94309211 -0.32891181 -0.048931301 0.21333423
-0.4240329 -0.073682517 -0.21817079 0.78001982 0.47151822 0.41138753 0.21878119
0.20893492 -0.076211654 -0.2164779 -0.93791264 -0.16192 0.30676031 0.20699924
-0.44973299 -0.065989003 -0.21032956 0.91510707 0.37356865 0.15174142 0.22833271
-0.42631602 -0.065560162 -0.21108016 0.81510955 0.1835418 0.54946238 0.20378216
0.18790573 -0.066974163 -0.21556647 -0.97814119 0.17995144 0.10419822 0.25662327
-0.42909282 -0.055681355 -0.21544451 0.9133743 0.39874908 0.082136862 0.21770203
-0.45614851 -0.04316514 -0.21638715 0.97366118 0.15460482 -0.16757423 0.20780724
-0.43269834 -0.042854261 -0.21798044 0.96172768 0.12648828 -0.2430649 0.19093417
0.1936975 -0.044252157 -0.21400927 -0.94966304 0.31168768 -0.031480704 0.17887068
0.21663788 -0.045991704 -0.21364281 -0.83910686 0.53686404 -0.087616324 0.2481328
-0.43553612 -0.032758683 -0.21839012 0.98880661 0.14919929 0.0009800496 0.20591329
0.19525689 -0.038134366 -0.21824625 -0.94011998 0.33601317 -0.057179898 0.14934513
0.21901862 -0.036651708 -0.21553546 -0.46730155 0.88406301 -0.0078705205 0.21967801
-0.46049994 -0.027684387 -0.21687549 0.87693441 0.4681845 -0.10857844 0.2277486
-0.43862891 -0.021755634 -0.2185261 0.94770658 0.23600321 -0.21483678 0.20799908
0.19845273 -0.025596607 -0.21242532 -0.74118394 -0.41954476 0.52405012 0.22445093
0.22267094 -0.022323037 -0.21419461 -0.87971437 0.23027928 -0.41602182 0.2105879
-0.46458709 -0.013143783 -0.2161932 0.94172877 0.32979774 0.066183448 0.25371936
-0.44042036 -0.015382251 -0.21054128 0.87301534 0.46577483 0.1445615 0.22404762
0.20103577 -0.015462949 -0.21686593 -0.92026711 0.39015475 -0.029793266 0.21045215
0.22520687 -0.012374149 -0.21945088 -0.94414204 0.2451155 -0.22025917 0.16939957
-0.46706182 -0.0043397062 -0.21416068 0.82493579 -0.54248667 0.15871085 0.20090704
-0.44232041 -0.0086226892 -0.21532419 0.97406727 0.21522211 -0.069803201 0.20464478
0.20370565 -0.0049885302 -0.21336055 -0.88310605 -0.024688154 -0.46852344 0.20868365
0.2264851 -0.0073593464 -0.21817183 -0.97326285 0.098494798 -0.20750478 0.22956571
-0.46876425 0.0059022559 -0.21485612 0.88191944 -0.4204343 0.21319717 0.20189346
0.22955598 0.0046881391 -0.2118834 -0.99840766 0.052595273 0.020394506 0.20221804
-0.46892938 0.019419281 -0.21223477 0.92712814 -0.010277151 0.37460345 0.24029575
-0.44621325 0.014908513 -0.21713772 0.98732984 0.15737927 0.020287789 0.19317879
0.20821148 0.014707433 -0.2164064 -0.91425449 -0.11156488 -0.38947663 0.19127257
0.2308611 0.015634522 -0.21568868 -0.95452511 -0.11419489 -0.27539307 0.17757383
-0.46902508 0.027252523 -0.2110669 0.91136044 0.41091692 0.023863818 0.27486256
-0.44630504 0.022425503 -0.2192954 0.99249017 0.097603269 -0.073735043 0.20577398
0.20804222 0.028562196 -0.21239363 -0.86010855 0.18002659 0.47728786 0.23983634
0.23072228 0.026997359 -0.21405962 -0.98814517 0.15003791 -0.032523513 0.22387654
-0.44650832 0.039059635 -0.21281105 0.9979617 -0.049019676 0.040860325 0.12650396
0.20792611 0.03806277 -0.21510516 -0.71355361 0.40030545 0.57497555 0.22211562
-0.46936738 0.055265795 -0.21417268 0.6787225 0.59867251 0.4253552 0.23426045
-0.44672465 0.056765616 -0.21105015 0.96582818 -0.24398381 0.087451793 0.20150049
-0.46945596 0.062517151 -0.21045071 0.73804635 0.62757927 0.24785453 0.21411513
-0.44681248 0.063952617 -0.21979997 0.98979861 0.12861928 0.061285574 0.24669984
0.23027222 0.063832596 -0.21246421 -0.99625993 -0.064092137 0.057950821 0.18180892
-0.44697982 0.077648573 -0.21841705 0.94995368 0.23435418 -0.20655784 0.18452232
0.20752475 0.070910729 -0.21454431 -0.94588423 -0.23964824 -0.21879606 0.14874735
0.23004884 0.08211562 -0.21597065 -0.89506739 -0.02156475 0.44540909 0.21423809
-0.46855265 0.098671414 -0.21579704 0.97087383 -0.23200317 0.059820842 0.1293948
0.22993109 0.091751441 -0.21591619 -0.91915041 0.17928819 0.35073957 0.13729358
-0.44297874 0.10726325 -0.21596017 0.88698786 -0.28919902 0.36002302 0.22051753
-0.46475831 0.11355719 -0.21102236 0.62076628 -0.69753671 -0.35789901 0.18527299
-0.44004288 0.11878113 -0.21210374 0.71856356 -0.69422269 -0.041488409 0.16425025
0.20167081 0.11853282 -0.2164003 -0.90488774 0.23184256 -0.35696942 0.22604744
0.22678921 0.11290841 -0.21110591 -0.92901886 -0.35807708 -0.09329924 0.13000992
-0.46142048 0.1266522 -0.21069577 0.94243413 -0.33433264 -0.0062781498 0.2023108
-0.43786135 0.12733954 -0.21684153 0.70937389 0.0090143709 -0.70477474 0.18455875
0.22460547 0.12067723 -0.21677001 -0.90770531 -0.41374424 -0.069905803 0.19441395
-0.43477893 0.13943245 -0.21457496 0.90913117 -0.0023939626 0.41650313 0.25625181
0.19753779 0.1332365 -0.21560672 -0.74652267 -0.62754238 -0.22112069 0.21820776
0.22031021 0.13595822 -0.21592283 -0.9883402 -0.077654697 -0.13097082 0.22416878
-0.45683849 0.14462796 -0.21340239 0.96738428 0.012738603 -0.25299302 0.2334864
-0.43391204 0.14283323 -0.21221991 0.97148234 -0.23543416 -0.02815764 0.24942832
0.21915367 0.14007278 -0.21823382 -0.94153732 -0.18808872 -0.27951753 0.18563978
-0.45315313 0.15908626 -0.21435589 0.80502963 -0.44013003 -0.39775988 0.21089974
-0.43175682 0.15128849 -0.21361068 0.94453299 -0.31486443 0.093369603 0.22185662
-0.4515647 0.16531789 -0.21881971 0.81760263 -0.43456298 -0.37773138 0.20862272
0.18733311 0.16954085 -0.21171214 -0.6253562 -0.78012943 -0.018101504 0.16079493
0.21177903 0.166309 -0.21871515 -0.81889462 -0.5658223 -0.096212268 0.15926966
-0.42479751 0.17541134 -0.21369477 0.91861975 -0.3950263 0.0095950766 0.22363561
0.20889845 0.17655706 -0.21397839 -0.99741781 -0.013331858 -0.070568956 0.19943184
-0.44662696 0.18371178 -0.21529622 0.97955847 -0.19749315 0.038232803 0.19945148
0.17906059 0.18996066 -0.21254772 -0.96102858 -0.27261242 -0.045896236 0.21505009
-0.44237524 0.19128814 -0.21543431 0.995332 -0.091842867 -0.029648481 0.1839857
-0.41595528 0.19206598 -0.216701 0.90581036 -0.34341323 -0.24814291 0.19581419
0.17325373 0.1997405 -0.21367073 -0.76706469 -0.50027472 -0.40166786 0.17626587
-0.43210232 0.20959431 -0.21477346 0.85908276 -0.48730463 -0.15656 0.18926109
0.16825062 0.20816669 -0.21449152 -0.88056707 -0.33768314 -0.33252329 0.23189062
0.17032999 0.20466465 -0.21596852 -0.74987811 -0.32698274 -0.57512176 0.22389629
0.19837335 0.20181718 -0.21572194 -0.66765058 -0.74139524 0.067644268 0.22913131
-0.4273513 0.21806057 -0.214196 0.91680157 -0.38241073 -0.11505222 0.24680671
-0.40235138 0.21630792 -0.21018408 0.98472399 0.0073971516 0.17396551 0.21315031
0.16460408 0.21430817 -0.21610922 -0.88998085 -0.45169136 -0.062521942 0.21763653
0.18868893 0.21812755 -0.21286063 -0.87341958 -0.32897007 0.35904989 0.25212556
-0.42311692 0.22560613 -0.21641068 0.8043673 -0.56299514 0.18981504 0.2459909
-0.39430752 0.23064192 -0.21904217 0.87274396 -0.17610581 -0.45530713 0.27043328
0.15120761 0.23687036 -0.21658696 -0.70375079 -0.66763473 0.24289632 0.17028354
0.18064214 0.23167984 -0.21580479 -0.87532926 -0.44820741 -0.18140794 0.23631808
-0.41200155 0.24541342 -0.21192068 0.77708513 -0.62401354 0.082133159 0.24185494
0.14917223 0.24029833 -0.21761101 -0.75917226 -0.58013183 0.29513475 0.20069683
0.17134055 0.24734552 -0.21901479 -0.40459687 -0.72883189 0.55236346 0.18668045
-0.40753317 0.25337601 -0.21144359 0.98788738 -0.13901556 0.068943992 0.19746539
0.14310385 0.25051865 -0.2149003 -0.97649008 0.15658467 -0.14815004 0.25459698
0.16956167 0.25034148 -0.21161062 -0.80495697 -0.46497825 0.3685641 0.17334397
-0.40249744 0.26234958 -0.21062981 0.78307778 -0.59622765 -0.1769226 0.10401157
-0.36613408 0.2675426 -0.21458727 0.42017412 -0.90734667 -0.013257274 0.19516453
0.15865213 0.26871523 -0.21557973 -0.87787116 -0.39209759 0.27495772 0.21245553
0.16050379 0.26559669 -0.21204215 -0.88263953 -0.36196032 0.29988676 0.1654287
0.149271 0.2784397 -0.21138865 -0.90691501 -0.37387246 -0.19422808 0.1935463
0.15313235 0.27467155 -0.21437475 -0.8923015 -0.42474335 0.15294157 0.19074969
-0.38527757 0.2803694 -0.21463758 0.48246425 -0.85768259 -0.17778869 0.2008148
-0.35324341 0.28075212 -0.21529144 0.74855185 -0.65935153 0.070183136 0.19256189
-0.34755102 0.28658539 -0.21868306 0.72575164 -0.66619605 0.17166087 0.15759315
0.10842775 0.28663614 -0.21630508 -0.4089798 -0.90222687 0.13682915 0.22973591
0.14669803 0.28095055 -0.21523514 -0.80526572 -0.58504808 0.096259721 0.18733324
-0.33502623 0.29942 -0.21044727 0.72383708 -0.61934888 0.30408356 0.19016923
0.096880034 0.29790509 -0.21252897 -0.76370001 -0.6165154 0.19149689 0.21377103
0.12917274 0.29805273 -0.21038361 -0.5171712 -0.85577714 0.013392341 0.20005313
-0.35765433 0.30867603 -0.21243647 0.5381211 -0.42038956 0.73054653 0.1780162
-0.33123389 0.30330616 -0.21638191 0.6953882 -0.66358376 0.27584752 0.18137193
0.088596977 0.30598819 -0.21344715 -0.74568623 -0.61722672 0.25096455 0.21175052
0.12256683 0.30449921 -0.21107346 -0.78795409 -0.61349547 0.052456487 0.21393779
-0.35324222 0.31319728 -0.21643448 0.70112991 -0.37860128 0.60421669 0.20009597
-0.31537551 0.31604049 -0.21923189 0.55607986 -0.62295246 0.55018669 0.23306127
0.075811654 0.31723544 -0.21640201 -0.7859363 -0.55774313 0.26688322 0.19223699
-0.34432319 0.32233691 -0.21596774 0.8349635 -0.33621028 0.43565896 0.17448774
-0.33875546 0.32804239 -0.2135766 0.73770601 -0.49312732 0.46110234 0.2133783
0.064990386 0.32353452 -0.21860889 -0.39092654 -0.91677684 0.081833161 0.19620985
0.10560851 0.32104808 -0.21649173 -0.30140379 -0.90592062 0.29742837 0.22557077
-0.33283287 0.33202758 -0.21188354 0.98887366 -0.14293823 -0.041200783 0.27715617
-0.32308564 0.33781511 -0.21616781 0.64412111 -0.73375064 0.21614358 0.2294247
0.038393021 0.33846027 -0.21948692 -0.33594835 -0.89823371 0.28339893 0.21896374
0.046319224 0.33401233 -0.21550223 -0.55678344 -0.76220226 0.33021203 0.20437707
0.091727272 0.33451396 -0.21535598 -0.52704602 -0.74838173 0.40267512 0.19829354
-0.263089 0.34708595 -0.21262185 -0.28023198 -0.79305196 -0.5408684 0.21353166
-0.25949275 0.34922126 -0.21973942 0.29212001 -0.94041115 -0.17404795 0.2396511
0.022568023 0.34734085 -0.21716304 -0.30076912 -0.82703871 0.47491571 0.23292384
0.031928822 0.34208781 -0.2130532 -0.11135907 -0.84805673 0.51807225 0.17891034
0.076859549 0.34285736 -0.21302795 -0.53856456 -0.69069916 0.48257965 0.17095354
-0.24322855 0.35693038 -0.21606775 0.46560907 -0.76402879 -0.44661874 0.21711481
-0.23762411 0.3585057 -0.21560308 0.15408471 -0.98802519 0.0080069527 0.23031417
0.0071631121 0.3559857 -0.21541154 -0.79719198 -0.58748013 0.13911195 0.18469499
0.017597135 0.35013038 -0.21522477 -0.40127531 -0.84318274 0.35780039 0.24137922
0.048676919 0.35867271 -0.21135977 -0.81314731 -0.58205682 0.0011177736 0.25673801
0.052105248 0.35674885 -0.21400762 -0.71287173 -0.6894753 0.12820946 0.23736627
-0.23129307 0.36028528 -0.21386588 -0.17121473 -0.9704923 -0.16979425 0.21001448
-0.22902909 0.36092162 -0.2177486 0.38028893 -0.87173957 -0.30895072 0.2274144
-0.21820855 0.36396313 -0.21293411 0.51914394 -0.85418785 -0.029201716 0.22019139
-0.026137065 0.36571777 -0.21522948 0.074531607 -0.99514681 0.064248011 0.26975229
0.035438992 0.36610147 -0.21298131 -0.28926012 -0.95260412 0.094201893 0.24520023
-0.26109391 0.37462309 -0.21797755 0.69802147 -0.63072699 0.3390418 0.21647602
-0.25621158 0.37681842 -0.21821541 0.84111142 -0.36717942 0.39712828 0.2184343
-0.19307528 0.37102774 -0.21487741 0.45023501 -0.88141114 -0.14283866 0.16166773
-0.17854045 0.37511328 -0.21038683 0.66697747 -0.72858715 -0.15589039 0.20209013
-0.162237 0.3785437 -0.21164888 0.25233093 -0.92289698 0.29084411 0.2138022
-0.13682406 0.37885419 -0.21373144 -0.26990244 -0.82092839 0.50321895 0.23907721
-0.12240784 0.37903038 -0.215074 -0.13019344 -0.98749948 -0.088851035 0.22417985
-0.1133596 0.37914091 -0.21412128 -0.1037474 -0.96719116 0.23190027 0.19667792
-0.10070139 0.37929559 -0.21549901 -0.013861964 -0.99702424 0.075832166 0.17976524
-0.085710548 0.37947875 -0.21494937 -0.051222708 -0.99422365 0.094316043 0.25441948
-0.07235641 0.37749898 -0.21903867 -0.11967507 -0.74103594 -0.66071451 0.2398755
0.024691479 0.37213272 -0.21533856 -0.59160566 -0.79735243 0.11929752 0.23193745
-0.24363057 0.38035479 -0.21035585 0.20933186 -0.97171319 -0.10933256 0.21269965
-0.010997936 0.38524279 -0.21336025 0.067783937 -0.99737436 0.025492627 0.23072408
-0.0043316651 0.38354361 -0.21428747 -0.24306889 -0.83694112 0.49035412 0.2053614
0.0025085234 0.38180003 -0.21582446 -0.32268128 -0.94141448 0.098058298 0.19282167
-0.19902316 0.3928934 -0.21454212 -0.080321975 -0.90462315 -0.41857538 0.17948528
-0.18091293 0.39798397 -0.2190308 0.66595286 -0.72133678 -0.19021058 0.17613047
-0.1753442 0.39954925 -0.21698308 0.56530142 -0.8131569 -0.13860118 0.18446071
-0.03139247 0.39044127 -0.21426304 -0.42296815 -0.90583646 -0.023624828 0.19321176
-0.16372341 0.4011867 -0.21452604 0.31461433 -0.93857652 -0.14174621 0.15869714
-0.13753474 0.40150666 -0.21697335 0.16348071 -0.81715798 0.55274493 0.22305483
-0.12709744 0.40163422 -0.21680599 0.19420579 -0.98068279 0.023350919 0.26159582
-0.099347554 0.40197325 -0.21041998 0.077708438 -0.99688661 -0.013358596 0.22146936
-0.085997954 0.40213633 -0.21648991 0.47746131 -0.87154216 -0.11155678 0.24450037
-0.07155747 0.40067923 -0.2130753 -0.0328601 -0.99899566 0.030461684 0.19558288
0.3655459 -0.38078493 -0.20270132 0.20690197 0.95735222 0.2016637 0.011728471
0.38030541 -0.38062856 -0.20646943 -0.099145062 0.96949428 0.22416732 0.0074444362
0.34709349 -0.37199986 -0.20539439 0.47809428 0.8759169 0.064772755 0.0062604565
0.33341545 -0.36176735 -0.20631401 0.65629363 0.75344902 -0.039916113 0.0015622198
0.31431872 -0.34430039 -0.20818678 -0.76331252 -0.60653603 0.22241403 0.012508589
0.42797142 -0.34288874 -0.20953278 -0.81759924 0.46747762 0.33614916 0.0014615264
0.31097829 -0.33592641 -0.20456369 -0.85263515 -0.30931908 0.42111167 0.027539173
0.43180281 -0.33853304 -0.20605129 -0.84431434 0.42643249 0.32448184 0.0015244504
0.43876407 -0.32617691 -0.20213486 -0.90737122 0.28446832 0.30944362 0.0065996964
0.30628473 -0.30438802 -0.20583482 -0.69303995 0.29284763 0.65873808 0.013701427
0.3118957 -0.30289447 -0.20181257 -0.66412795 0.34368759 0.66393745 0.012055169
-0.19189048 -0.29071304 -0.20520665 0.4478974 0.88824159 0.10205358 0.20212159
-0.18631175 -0.29213503 -0.20189412 0.073057689 0.97579622 -0.20611745 0.21334918
-0.17132412 -0.29595536 -0.2021074 0.26757818 0.85141301 -0.45110729 0.18320073
-0.16798668 -0.29680604 -0.20874006 0.12491605 0.98706973 -0.10044583 0.21147043
-0.15695618 -0.29847497 -0.20417988 -0.12597029 0.98176003 -0.1424039 0.22249781
-0.13245565 -0.29817563 -0.20872927 0.18184413 0.98332626 -0.0014963443 0.20426525
-0.12709123 -0.2981101 -0.2008799 -0.036090437 0.98824859 -0.14853331 0.16840832
-0.11694971 -0.29798621 -0.20854738 -0.16875726 0.98517543 -0.030829068 0.16910475
-0.10652182 -0.2978588 -0.20504047 0.1973341 0.97401482 0.11115039 0.18744519
-0.088186778 -0.29763475 -0.20937015 -0.53881317 0.83734655 0.092364259 0.23354125
-0.079385616 -0.29752719 -0.20225346 -0.5586589 0.82939696 -0.00095698354 0.22927944
-0.047280092 -0.29126161 -0.20479064 0.49724767 0.84387755 -0.20153274 0.15544666
0.31378022 -0.29378384 -0.20622639 -0.5866608 0.42149332 0.69150019 0.00076067355
-0.23327851 -0.28016338 -0.20846307 0.61989218 0.60353202 -0.50148064 0.23923922
-0.22555 -0.28213337 -0.2060833 0.5456028 0.82655221 -0.13830799 0.22137828
-0.21475089 -0.284886 -0.20256498 0.3053247 0.88736457 0.34548658 0.19828771
-0.20538175 -0.28727415 -0.20251471 0.1712618 0.97076213 0.16819687 0.18652879
-0.1956477 -0.28975534 -0.20496938 0.61030406 0.72916561 0.30959067 0.21518372
-0.030931905 -0.28666633 -0.2039986 0.11325701 0.99112099 0.069656327 0.23801471
-0.024978139 -0.28499281 -0.20725313 -0.20901206 0.8292858 0.51826549 0.2288041
-0.0087912781 -0.28044289 -0.20268798 -0.49671251 0.84516138 0.19743092 0.16922952
0.31864256 -0.28686726 -0.20650551 -0.58003765 0.43081602 0.69134206 0.00074592192
0.32269439 -0.28220883 -0.20599812 -0.57635778 0.43068495 0.69449413 0.00042053347
-0.24290383 -0.27770993 -0.20507607 0.36417943 0.72763795 -0.5813058 0.23917408
-0.17725024 -0.27106091 -0.20603082 0.37485516 0.79055524 -0.4842582 0.20608056
-0.16597147 -0.27393582 -0.20495661 0.35398617 -0.23424119 0.90544176 0.19435576
-0.14481007 -0.27566555 -0.20789334 0.00091847015 0.99328613 -0.11567985 0.26240364
-0.11192391 -0.27526373 -0.2066367 -0.38772491 0.90020615 -0.19823799 0.20034802
-0.097764581 -0.27509072 -0.20474499 0.49335936 0.86919576 -0.033096567 0.19552369
-0.085343093 -0.27493894 -0.20746836 -0.1350417 0.99080586 0.0082178507 0.21946472
-0.076304078 -0.27482849 -0.20690705 -0.54779339 0.83265138 -0.081326842 0.1453917
-0.064963318 -0.27269459 -0.20480387 -0.36201748 0.92996961 -0.064031266 0.16692293
-0.056048259 -0.27018869 -0.20776719 0.030683137 0.98453915 -0.17245647 0.16630656
0.0043491023 -0.27674931 -0.20079173 -0.63007152 0.77637738 0.015747007 0.21287195
0.015057696 -0.27373925 -0.20932603 -0.8445217 0.50416768 -0.18054919 0.19388738
0.32667029 -0.27818048 -0.20513675 -0.58737481 0.43390816 0.68316513 0.0003235607
0.43014878 -0.27859771 -0.2050308 -0.77784234 -0.61511743 0.12880959 0.012119973
-0.2068491 -0.26351625 -0.20887294 0.60151786 0.78321046 0.15734565 0.20238066
-0.047695566 -0.26784086 -0.20881937 0.16957524 0.98541725 -0.014036695 0.19558418
-0.032872371 -0.26367423 -0.20906809 -0.18307513 0.98284197 0.022477787 0.20159619
0.026477354 -0.26836485 -0.20001623 -0.51181519 0.85664487 -0.064844303 0.24412236
0.33404419 -0.26720273 -0.20588729 -0.56690443 0.44402128 0.6938765 0.0010449444
0.40789405 -0.2617442 -0.20114635 0.53822517 0.84102851 0.054631427 0.004203395
-0.29127431 -0.25289106 -0.2053359 0.76732624 0.61077416 -0.19535969 0.25058949
-0.28421497 -0.25685257 -0.20359868 0.57375318 0.80078393 0.17190802 0.20568526
-0.24354781 -0.25369042 -0.20559192 0.47835258 0.82685119 -0.29579714 0.19185108
-0.23517683 -0.25629556 -0.20759049 0.45888686 0.75902677 -0.46184549 0.21551698
-0.22637022 -0.25854039 -0.20569734 -0.054505061 0.71136343 -0.70070767 0.25128713
-0.0059109917 -0.25609574 -0.20451458 -0.5404886 0.74024749 0.39988217 0.20329262
0.0022820896 -0.25379279 -0.20693424 -0.62748402 0.64804387 0.43162829 0.2518518
0.045975287 -0.25678784 -0.20540589 -0.4538379 0.88932723 0.055929232 0.20817016
0.054832116 -0.25152904 -0.20396462 -0.30315912 0.94398612 -0.13032538 0.17490485
0.40101069 -0.25659478 -0.20167612 0.44471678 0.8910284 0.091078766 0.0084577473
-0.30625349 -0.24448508 -0.20367226 0.59583706 -0.44803253 0.66651714 0.27028406
-0.29793474 -0.24915341 -0.20935206 0.80697161 0.52643484 -0.26769996 0.22749773
0.014515037 -0.2491149 -0.20135313 -0.64653724 0.73343444 -0.20991331 0.21737871
0.026054237 -0.24226342 -0.20653376 -0.33568406 0.93607718 -0.10524172 0.17458379
0.067217484 -0.24417515 -0.20869178 -0.58737636 0.72942716 -0.35060683 0.20099761
0.35682192 -0.24377845 -0.20738146 -0.099981435 0.84140474 0.53107613 0.017600942
0.37694353 -0.24655107 -0.20228627 0.11974571 0.91403747 0.38755202 0.015288071
0.38709652 -0.24836396 -0.20622785 0.31901675 0.9103328 0.26367116 0.011811527
-0.31924605 -0.23719405 -0.20467755 -0.019620633 -0.39516613 0.91840011 0.2144316
-0.28202707 -0.23209691 -0.20356672 0.89857292 0.19276801 -0.39421719 0.21097329
0.039687302 -0.23416869 -0.20521811 -0.21672826 0.97360146 -0.071617372 0.18122163
0.079919852 -0.23663303 -0.20488109 -0.59756458 0.80173266 -0.011884092 0.1920933
-0.34132841 -0.22044758 -0.20257813 0.62761718 0.77819335 0.02261892 0.20671898
-0.33630088 -0.22535375 -0.20127684 0.10193709 0.99360639 -0.048529863 0.18724878
-0.29379088 -0.22549535 -0.20633224 0.84482694 0.47190809 0.25213122 0.23549929
-0.28825241 -0.22860339 -0.2042397 0.80904901 0.54454118 0.22116654 0.21729064
0.050485998 -0.22775689 -0.20944612 -0.50464106 0.86183232 -0.050818715 0.21266468
0.095214352 -0.22746108 -0.2023142 -0.58728755 0.80558604 -0.078260064 0.16164877
-0.34490016 -0.21696204 -0.20417024 0.82186037 0.52278984 -0.2263543 0.25452954
-0.31635728 -0.21283169 -0.20467889 0.41379151 0.90747321 0.072588384 0.18820864
0.065058388 -0.21910441 -0.20014133 -0.57747585 0.81539923 -0.040564708 0.23291795
0.071518332 -0.21526879 -0.20236738 -0.75017101 -0.43098786 0.50149065 0.21810843
0.11188148 -0.21200097 -0.2050488 -0.85338372 0.44681197 0.26850581 0.15359069
-0.36082384 -0.20142275 -0.20297581 0.64831656 0.75851041 -0.065935947 0.19412762
-0.35721669 -0.20494288 -0.20503147 0.70384532 0.60804069 -0.36727133 0.17380193
-0.32593358 -0.20381001 -0.20688705 0.05085361 0.91637778 0.39707145 0.22744645
0.086190365 -0.20588352 -0.20795795 -0.31243443 0.93263042 -0.18051374 0.19803345
-0.36709628 -0.1953017 -0.20358098 0.31663412 0.93957955 -0.13012727 0.20569368
-0.33836782 -0.19167599 -0.20123523 0.41964766 0.10078086 0.90207487 0.2470246
0.096096538 -0.19573233 -0.20456618 -0.92252249 0.37471342 0.092423901 0.16292407
-0.3764472 -0.18617657 -0.20578575 0.64387399 0.76296216 0.057576392 0.14237006
-0.34306344 -0.18709369 -0.20274799 0.42548516 0.37824208 0.82212853 0.25968486
0.10428607 -0.1873402 -0.20302369 -0.59503329 0.80106372 0.065056443 0.16336557
0.14219695 -0.18093549 -0.20376562 -0.78429699 0.55539465 -0.27643239 0.1747634
-0.39287457 -0.17014576 -0.20808138 0.92421138 0.23349687 0.30217975 0.13170424
-0.38960612 -0.17333534 -0.20708197 0.89975226 0.40431365 0.16424474 0.18124615
-0.35112518 -0.17922658 -0.20648676 0.23870264 0.15296705 0.9589693 0.297061
0.11698721 -0.1743249 -0.20325668 -0.68927455 0.63632607 -0.34639522 0.17430961
0.14816286 -0.17482194 -0.20079321 -0.59698737 0.8008725 -0.047004204 0.15608545
-0.39726445 -0.16550088 -0.20500831 0.95957607 0.20084788 0.19716455 0.12102348
0.12651165 -0.16456485 -0.20152847 -0.78368777 0.5836823 -0.21248142 0.15870395
0.15937367 -0.16333377 -0.20184875 -0.49791989 0.81307477 -0.30163765 0.18815273
0.13783538 -0.15296102 -0.20044176 -0.63188702 0.5998987 -0.49075484 0.19282825
0.16636544 -0.15369351 -0.2056002 -0.79442382 0.60499394 0.053600803 0.18585275
-0.38064885 -0.14910196 -0.2047985 0.97252822 0.086630218 0.21606506 0.20764919
0.14567125 -0.1436803 -0.20420325 0.32236791 -0.56075042 0.76265186 0.22271682
0.1687301 -0.14947978 -0.20923382 -0.75160068 0.6590187 0.028119383 0.20812576
-0.41606045 -0.13384476 -0.20307386 0.24050637 0.83832759 0.48924792 0.22787158
-0.39093509 -0.13177787 -0.20474429 0.82327008 0.53975618 0.1757548 0.18134332
-0.38666508 -0.13896938 -0.20116474 0.88319761 0.45524898 0.11274064 0.16397688
0.15286763 -0.13144465 -0.20445266 -0.85265887 0.10756393 0.51127565 0.20376588
0.17618267 -0.13619946 -0.20225045 -0.92821342 0.3297908 -0.17221445 0.20629343
-0.42241496 -0.12314261 -0.20710571 0.76093531 0.63466203 -0.1348393 0.23632632
0.18091244 -0.12777114 -0.20171849 -0.91204691 0.39458627 -0.11167894 0.19935039
-0.40051711 -0.11563989 -0.20564885 0.63091105 0.68576026 -0.36288321 0.16831599
-0.39829731 -0.11937845 -0.20117953 0.80039817 0.59510046 -0.072237104 0.18098766
0.16414386 -0.11135061 -0.2078227 -0.94919598 0.093869783 -0.30035889 0.21327938
0.18622479 -0.11830462 -0.2022907 -0.87388158 0.48370481 0.048585888 0.20677066
-0.43440825 -0.10294358 -0.2019777 0.81601095 0.57613957 0.046789438 0.21195513
-0.40492934 -0.10820886 -0.20673111 0.81017452 0.53359747 -0.24267457 0.21811712
0.16717762 -0.10594452 -0.2044991 -0.53093666 0.84056771 0.10748116 0.21359275
0.19638243 -0.10020395 -0.2041095 -0.86560744 0.49867821 -0.045206483 0.19430612
0.17107302 -0.099003009 -0.20479608 -0.9158088 0.39899948 -0.045757014 0.22345497
0.19887708 -0.09575855 -0.20323712 -0.85610634 0.51493794 -0.043827936 0.20668371
-0.44335258 -0.087879688 -0.20157771 0.8499971 0.18435025 0.49347731 0.18745162
-0.42029586 -0.082328677 -0.2085858 0.86901635 0.20825937 0.4488191 0.18282486
-0.41762918 -0.08681988 -0.20616311 0.80575931 0.42177871 0.41575783 0.17735031
0.17649606 -0.089339249 -0.20096834 -0.79396206 0.53222603 0.29387036 0.18542826
0.20466442 -0.08544565 -0.20065878 -0.87800789 0.47278568 -0.074671313 0.20311964
-0.44680592 -0.076402366 -0.20918013 0.9125123 0.23678274 0.33354944 0.21131898
-0.42319077 -0.076678611 -0.20413555 0.89953667 0.045174837 0.43450323 0.22312474
0.18402523 -0.07592243 -0.20668757 -0.89244163 0.44207555 0.090094864 0.26813155
0.20808287 -0.079354055 -0.20125273 -0.99539715 -0.073399097 0.061620604 0.18663336
-0.44929469 -0.067548342 -0.20694549 0.88320571 0.4062641 0.23430143 0.19718765
-0.42609471 -0.066347495 -0.20792928 0.69363993 0.42479226 0.58173454 0.22786231
0.18876579 -0.063599959 -0.20464653 -0.88958573 0.27350816 0.36582866 0.23029967
0.21085641 -0.068673357 -0.20565742 -0.96271104 -0.0057007368 0.27047163 0.20504084
-0.42980972 -0.053130865 -0.20973237 0.96371371 0.11833857 -0.23927386 0.23015884
0.19082928 -0.055504587 -0.20400509 -0.65929753 0.25791481 0.70626247 0.22090957
-0.45443881 -0.049247611 -0.2042481 0.97293395 -0.073497459 0.21908344 0.17836843
0.19327512 -0.045909137 -0.20060644 -0.98540318 0.16991636 0.010441203 0.17119402
0.2164797 -0.04661224 -0.2054193 -0.74485832 0.35762596 0.5632847 0.20788522
-0.45914036 -0.032521084 -0.20476852 0.88324302 0.46779513 -0.032396819 0.25275797
-0.4343442 -0.03699895 -0.20844039 0.9279477 0.34835881 0.13251148 0.20702446
0.19716384 -0.030653112 -0.20312735 -0.94914424 0.16774321 -0.26643458 0.21096441
-0.43717963 -0.026911564 -0.20370038 0.94719249 0.10756675 0.30208573 0.20516807
0.19964002 -0.02093864 -0.20404288 -0.92757368 0.32707897 -0.18062775 0.19797139
-0.46509361 -0.011341825 -0.20252046 0.92005581 -0.30822128 0.24186146 0.24609311
0.20189407 -0.012095624 -0.20497377 -0.89470375 0.41363597 -0.16855432 0.18159112
0.22334969 -0.01966022 -0.20072974 -0.84599757 0.006756458 -0.53314382 0.24305581
-0.46731225 -0.003448905 -0.20092553 0.91579932 -0.3677581 0.16144799 0.22316176
-0.4445737 -0.00060633913 -0.20902371 0.98270887 -0.012095446 0.18476185 0.20210746
0.20284349 -0.0083709285 -0.20126668 -0.91257548 0.20454583 -0.35407197 0.18409164
-0.44493681 0.00068544876 -0.20519322 0.98593932 -0.050101619 0.15941606 0.18905209
-0.44622943 0.016235296 -0.20513245 0.9962613 0.084981173 0.015546914 0.17180972
0.20817028 0.018079247 -0.20378989 -0.87938535 0.34539396 0.32769543 0.21378095
0.20804092 0.028666101 -0.20405571 -0.97361743 0.16841973 0.15396047 0.20828785
0.23060539 0.036563184 -0.20577735 -0.94874728 0.29374328 0.11659092 0.1862338
-0.46923935 0.044790149 -0.20734361 0.71022099 -0.25728542 0.65527886 0.1798806
-0.44657385 0.044423077 -0.2088649 0.97543383 0.21455424 0.049952839 0.17715181
0.20781389 0.047247522 -0.20688972 -0.94913948 -0.11217932 0.29419389 0.15603045
0.23049907 0.045264803 -0.20363279 -0.85479689 0.40907207 -0.3193467 0.16486189
-0.46938851 0.056997098 -0.2014371 0.79489934 0.32046479 0.5152061 0.24124409
-0.44671023 0.055585567 -0.2086015 0.95537263 -0.28996581 0.056418143 0.20761314
-0.46944785 0.06185006 -0.20456706 0.74580407 0.64937621 0.14861642 0.25916517
-0.44679138 0.062225834 -0.20382223 0.918827 -0.38966161 0.062615924 0.21699217
-0.44692022 0.072770044 -0.20216373 0.99391466 0.073969871 0.081622459 0.20443261
0.20746875 0.075494468 -0.20281193 -0.98550832 0.12087821 0.11900353 0.19100176
-0.46973547 0.085394382 -0.2085465 0.9871524 0.028109061 -0.15728945 0.14327841
-0.44704917 0.083323896 -0.20582485 0.93076062 0.34287027 0.12698299 0.15503137
0.20734365 0.085733861 -0.20696563 -0.71009439 0.69179958 0.1310702 0.12233169
-0.46905518 0.094932944 -0.20451057 0.99837011 -0.017525688 -0.054314204 0.13410406
-0.46705911 0.10453085 -0.20319538 0.98214644 -0.012573598 0.18769743 0.1845585
0.22982398 0.10052 -0.20103014 -0.97657847 0.20928669 -0.049934678 0.1163946
-0.46482193 0.11330754 -0.20739634 0.91931164 -0.24984992 0.30404136 0.1754144
0.22581232 0.11638375 -0.20571688 -0.90644765 -0.42033973 -0.040831782 0.15230802
-0.46225244 0.12338814 -0.209225 0.88839626 -0.41242847 0.20163049 0.21188985
-0.43722498 0.12983617 -0.2070002 0.99111551 -0.12151559 -0.054072805 0.2022711
0.19917455 0.12741351 -0.20304441 -0.13578835 -0.99010432 -0.035425156 0.22052343
0.20057155 0.12244351 -0.20430011 -0.22175083 -0.97373176 -0.051701676 0.19560499
-0.43716371 0.13007644 -0.2005944 0.99719214 -0.052287936 -0.053609379 0.2139328
0.21973786 0.13799444 -0.20238262 -0.95656329 -0.20938225 -0.20284419 0.20890534
-0.45697236 0.14410281 -0.20244201 0.86309165 0.39145666 0.31911501 0.26411283
-0.4330039 0.14639612 -0.20449893 0.95762926 -0.2853539 0.038979519 0.21576491
0.21852022 0.14232637 -0.20337684 -0.97849071 -0.052302174 -0.19955048 0.19601853
-0.45421776 0.15490949 -0.20441487 0.90871757 -0.41030774 0.076680623 0.25308245
-0.43199876 0.15033928 -0.20613262 0.92191321 -0.35842773 -0.14698844 0.19252327
0.19224511 0.15206583 -0.20909527 -0.92439044 -0.34343901 -0.16598758 0.22213468
-0.45109063 0.16717774 -0.20022637 0.98196769 -0.18596356 -0.034015216 0.18920723
-0.42738703 0.16843182 -0.20450968 0.96203595 -0.20699292 -0.17787831 0.19540393
0.18765484 0.16839623 -0.20099901 -0.714306 -0.48058859 0.50872546 0.22699812
-0.42692098 0.17026024 -0.20409971 0.99840492 -0.051152803 -0.023895305 0.18621187
0.18605557 0.17408583 -0.20805517 -0.68589234 -0.6949265 0.215937 0.18624625
0.21032983 0.17146476 -0.2028677 -0.85412252 -0.38248476 0.3523919 0.17749178
-0.44748446 0.1813253 -0.20969345 0.97220713 -0.2282507 -0.052105099 0.18489426
-0.41856784 0.18741049 -0.20020169 0.73452073 -0.66923219 0.11228308 0.25095567
0.20702884 0.18320847 -0.20312677 -0.88911319 -0.41438493 -0.19432671 0.23495339
-0.44177288 0.19236162 -0.20473775 0.9753111 -0.13736936 -0.17291009 0.22372688
0.17609438 0.1949563 -0.20190962 -0.91776633 -0.39685073 0.014641684 0.21995553
-0.43463609 0.2050792 -0.20351979 0.79448605 -0.60723734 -0.0074052452 0.2218495
-0.41121829 0.20050728 -0.20495079 0.70670676 -0.6821453 -0.18773207 0.19839269
-0.40885055 0.20472652 -0.20919082 0.77081996 -0.4959926 -0.39978477 0.17734602
0.17276733 0.20055971 -0.2094744 -0.70543277 -0.66703957 -0.23963054 0.19669844
0.19892463 0.20088872 -0.20847869 -0.28671581 -0.89826828 -0.33302867 0.19351959
-0.43183044 0.21007885 -0.20641446 0.79245722 -0.60983205 -0.010786536 0.21171433
-0.4034903 0.21427837 -0.20580396 0.93464631 -0.11609308 0.33609337 0.19349328
0.16371676 0.21580258 -0.20800135 -0.92988724 -0.36775947 -0.0079134749 0.22753035
-0.39570194 0.2281571 -0.20730397 0.96838808 -0.10410457 0.22668634 0.20799991
0.15845506 0.22466427 -0.20692295 -0.92212415 -0.35371256 0.15676263 0.18006557
-0.42005825 0.23105656 -0.20009637 0.93037862 -0.34540823 -0.12283628 0.14616509
-0.41590583 0.2384561 -0.20580994 0.87770587 -0.46379146 0.12053964 0.20680833
0.17905316 0.23435605 -0.2075261 -0.99183446 -0.088823713 0.091513731 0.23793951
0.18158814 0.23008662 -0.2044415 -0.92322338 0.15236327 0.35276645 0.21752766
-0.41067886 0.24777046 -0.20910472 0.79902649 -0.58095902 0.15505862 0.2134354
-0.3866666 0.24425791 -0.20356102 -0.14518315 -0.75988382 0.6336391 0.23690057
0.14668101 0.24449402 -0.20429835 -0.55857742 -0.81585842 0.14955315 0.2316753
0.17280036 0.24488689 -0.20221485 -0.79387206 -0.56998432 0.2118606 0.20097078
-0.40573084 0.25658768 -0.20260654 0.80349255 -0.56643355 -0.18317389 0.14679706
-0.37558579 0.25785708 -0.20611347 0.2497272 -0.74554127 -0.61790341 0.19047858
0.13797329 0.25780392 -0.20289826 -0.80038917 -0.042624846 -0.59796345 0.20056935
-0.40198022 0.26268053 -0.20682338 0.77143484 -0.59977072 -0.21251689 0.12108593
-0.36955002 0.2640422 -0.2042205 0.42658556 -0.87398899 -0.23274039 0.22562611
0.13102295 0.26458645 -0.20584115 -0.70794034 -0.64019263 -0.29828477 0.24932985
0.15884756 0.26838607 -0.20932101 -0.7401228 -0.65872455 -0.13527822 0.22295666
0.16180445 0.2634061 -0.20447859 -0.87009966 -0.4912807 0.039621539 0.21316624
-0.38827869 0.27729404 -0.20662567 0.37078518 -0.81700939 -0.44160396 0.17463025
-0.36251867 0.27124745 -0.20199639 0.61034137 -0.77923882 0.14237352 0.22635897
-0.35719734 0.27670044 -0.20820318 0.61855805 -0.78110635 -0.08519841 0.19969977
0.11713342 0.27814063 -0.20139948 -0.13997537 0.38701186 0.91138834 0.2591688
0.12416479 0.27127901 -0.20406216 -0.34722638 -0.93263453 0.098115571 0.24389024
0.15351395 0.27429917 -0.20490529 -0.75914884 -0.649257 -0.046457835 0.17634232
-0.38362586 0.28206205 -0.2010996 0.82985955 -0.52408653 -0.19148488 0.23886906
-0.35095486 0.28309733 -0.20088524 0.86898297 -0.44146854 0.22354899 0.19150537
-0.34701848 0.28713113 -0.20283383 0.72098106 -0.64624351 0.25011131 0.19149224
