# .PCD v0.7 - Point Cloud Data file format
VERSION 0.7
FIELDS x y z normal_x normal_y normal_z curvature
SIZE 4 4 4 4 4 4 4
TYPE F F F F F F F
COUNT 1 1 1 1 1 1 1
WIDTH 678
HEIGHT 1
VIEWPOINT 0 0 0 1 0 0 0
POINTS 678
DATA ascii
-0.44632384 0.054826103 -0.46771222 0.00029907492 -9.3767456e-05 1 0
-0.43676186 0.052976783 -0.46771219 0.00027898295 -0.00010538233 0.99999994 0
-0.421749 0.054237947 -0.46771219 0.0002456767 -7.9461126e-05 1 0
-0.41912061 0.053674188 -0.46771216 0.0002327775 -5.7500292e-05 0.99999994 0
-0.40588552 0.055210777 -0.46771222 0.00027761658 5.2668314e-05 0.99999994 0
-0.39079002 0.059224617 -0.46771222 0.00037896482 -1.154974e-07 0.99999994 0
-0.38527176 0.052053303 -0.46771219 0.00032400765 5.4162902e-06 0.99999994 0
-0.36482269 0.053968377 -0.46771219 0.00026225895 -1.8597531e-06 0.99999994 0
-0.33790451 0.05586917 -0.46771219 0.00016677986 -4.4546447e-05 1 0
-0.31197 0.059012596 -0.46771216 0.00015093306 -3.8878352e-05 1 0
-0.30570152 0.055251267 -0.46771219 0.00023596009 -0.00011467967 1 0
-0.29834756 0.0512853 -0.46771222 0.00025176452 -8.2123181e-05 0.99999994 0
-0.28121278 0.05199232 -0.46771222 0.00017392705 -3.139257e-05 1 0
-0.27673832 0.055138875 -0.46771219 0.00018906459 -2.7772734e-05 1 0
-0.24235149 0.056011289 -0.46771219 0.00014620296 -3.6783171e-05 1 0
-0.23210214 0.054859944 -0.46771216 7.0551017e-05 -3.4239823e-05 1 0
-0.21700472 0.055430759 -0.46771222 9.4617841e-05 -3.0733612e-05 1 0
-0.20457274 0.057215329 -0.46771222 6.6326269e-05 -2.8341898e-05 1 0
-0.1912082 0.054687932 -0.46771222 8.7482993e-05 -2.6035284e-05 1 0
-0.16395979 0.05535581 -0.46771219 7.5660093e-05 -5.7807492e-06 1 0
-0.15449989 0.053799145 -0.46771216 3.1585823e-05 -1.7068103e-05 1 0
-0.14399891 0.055144694 -0.46771219 0.00012084378 -4.3467051e-05 1 0
-0.13347116 0.051885195 -0.46771219 9.0552945e-05 -2.2365053e-05 1 0
-0.12314057 0.056213256 -0.46771222 1.9128085e-05 -4.3645086e-05 1 0
-0.11202541 0.056605339 -0.46771222 6.7282315e-05 -7.8343772e-05 1 0
-0.10337124 0.056935675 -0.46771222 2.9700985e-05 -2.6485241e-05 1 0
-0.092469007 0.05722373 -0.46771219 -2.8986879e-06 -3.3934492e-05 1 0
-0.084741235 0.055818822 -0.46771219 5.6247136e-05 -8.1104554e-06 1 0
-0.074085139 0.056161359 -0.46771216 3.7738766e-05 -5.6196692e-05 1 0
-0.066796988 0.055352617 -0.46771225 3.0113946e-05 -4.3534637e-05 1 0
-0.056588687 0.051189151 -0.46771222 1.2813653e-05 -3.2037489e-05 1 0
-0.044136226 0.055454642 -0.46771222 2.1972077e-05 -8.6008848e-05 1 0
-0.020486142 0.055380978 -0.46771216 6.3940893e-06 -3.3845412e-05 1 0
-0.014823344 0.054368295 -0.46771216 9.4785091e-06 -1.3863272e-05 1 0
-0.0053427983 0.057870485 -0.46771216 1.1255541e-05 -3.6307134e-05 1 0
0.0076596183 0.052870478 -0.46771216 -1.0515462e-06 -1.6087119e-05 1 0
0.025366789 0.054497581 -0.46771225 -1.9325511e-05 -2.1663436e-05 1 0
0.044786245 0.054880626 -0.46771216 -1.6145406e-05 -1.7646797e-05 1 0
0.055311769 0.058176897 -0.46771219 -3.0331161e-05 -2.7290042e-05 1 0
0.068064809 0.055884898 -0.46771219 -5.594199e-05 -7.2500734e-05 1 0
0.080314703 0.055001937 -0.46771219 -6.1596773e-05 -3.5664252e-05 1 0
0.10455938 0.052429736 -0.46771219 -7.6062643e-05 -2.3857418e-05 1 0
0.11885671 0.059649076 -0.46771219 -9.79744e-05 -4.1932424e-05 1 0
0.12751886 0.054871574 -0.46771222 -5.4773616e-05 -3.6358218e-05 1 0
0.14918125 0.054298006 -0.46771219 -0.0001509858 -2.3990369e-05 1 0
0.15548813 0.053325396 -0.46771216 -0.00010901199 -4.4836088e-05 1 0
0.16520722 0.052462276 -0.46771219 -0.00022852556 -7.2539883e-06 0.99999994 0
0.18325225 0.053532716 -0.46771219 -0.00015717391 -2.2319336e-05 1 0
0.19634855 0.053629823 -0.46771216 -9.5181465e-05 -3.1560943e-05 1 0
0.20229176 0.052993134 -0.46771222 -3.6329151e-05 -2.2947113e-05 1 0
0.22517684 0.058728427 -0.46771222 -0.47968808 -0.027863255 0.87699664 0.07148502
-0.5 0.063752316 -0.46246737 0.8178376 0.057809588 0.57253796 0.072026402
-0.48494571 0.067044497 -0.46771222 0.35362509 0.033512756 0.93478668 0.065825261
-0.47036463 0.060241807 -0.46771222 0.00017360449 -2.5645137e-05 1 0
-0.45553857 0.065685801 -0.46771216 6.6858796e-05 -3.9442639e-05 1 0
-0.44718468 0.063756779 -0.46771219 0.00027524942 -3.8768994e-05 0.99999994 0
-0.43285105 0.064742066 -0.46771216 0.00056158728 -0.00019422853 0.99999982 0
-0.42201981 0.064569481 -0.46771219 0.00018264295 -6.4639753e-05 1 0
-0.41302761 0.063135915 -0.46771216 0.00017489168 -1.814538e-05 1 0
-0.40936124 0.064662583 -0.46771216 0.0002328838 -1.919922e-05 1 0
-0.39367181 0.061617907 -0.46771219 0.00027943464 -6.8863912e-05 1 0
-0.38380909 0.061249197 -0.46771222 0.00014250769 -5.7415082e-06 1 0
-0.37541056 0.0639714 -0.46771222 0.00035997448 -6.5182599e-06 0.99999994 0
-0.36500952 0.063616775 -0.46771222 0.00023830192 -7.7074823e-05 0.99999994 0
-0.31380573 0.068782113 -0.46771222 0.00033633338 -4.2634758e-05 0.99999994 0
-0.29211777 0.064176649 -0.46771222 7.2774601e-05 -3.8472612e-05 1 0
-0.28058916 0.066384926 -0.46771216 0.00015936326 -1.7913784e-05 1 0
-0.27293339 0.069787897 -0.46771219 0.00030397356 -8.5327112e-05 1 0
-0.26270616 0.063497111 -0.46771219 0.0002929414 -8.6205277e-05 1 0
-0.25363898 0.067410596 -0.46771219 0.00015388279 -5.8630172e-05 1 0
-0.248272 0.063589811 -0.46771219 9.763892e-05 -3.4819627e-06 1 0
-0.2383955 0.061756983 -0.46771216 0.00016493999 -6.0808834e-05 1 0
-0.22782481 0.062245462 -0.46771219 0.00020435474 -1.7258326e-05 0.99999994 0
-0.21647918 0.065485947 -0.46771216 6.1176404e-05 -6.9532296e-05 1 0
-0.20402539 0.069145449 -0.46771219 7.8932877e-05 -4.9386104e-05 1 0
-0.19684181 0.065373033 -0.46771219 0.00029384196 -2.9799672e-05 1 0
-0.18205111 0.06326545 -0.46771219 -1.7829228e-06 -7.5522125e-06 1 0
-0.16537745 0.06513641 -0.46771216 7.2511692e-05 -3.3069646e-05 1 0
-0.14431342 0.06509804 -0.46771222 3.9854171e-05 -3.8115199e-05 1 0
-0.13476399 0.061681844 -0.46771222 0.00010638542 -7.3730793e-05 1 0
-0.12592837 0.068977535 -0.46771219 5.7638747e-05 -4.0555613e-05 1 0
-0.10557836 0.064946316 -0.46771219 5.0521201e-05 -3.0944408e-05 1 0
-0.095615931 0.067070097 -0.46771219 5.5103574e-05 -7.1726754e-05 1 0
-0.086746246 0.060216501 -0.46771219 7.6987679e-05 -3.5776995e-06 1 0
-0.072406881 0.065101333 -0.46771219 4.209896e-05 -1.6164187e-05 1 0
-0.068817489 0.062078733 -0.46771222 3.2852677e-05 -2.2215194e-05 1 0
-0.050482087 0.063596413 -0.46771216 1.6538423e-05 -4.3544667e-05 1 0
-0.041220717 0.068297207 -0.46771222 1.363568e-05 -3.3585318e-05 1 0
-0.037803888 0.067274615 -0.46771219 3.1311498e-05 -9.25122e-06 1 0
-0.025153479 0.066069104 -0.46771216 2.53788e-05 -3.4617045e-05 1 0
-0.016754612 0.063758634 -0.46771219 4.2147135e-06 -3.4561024e-05 1 0
-0.0059127235 0.06613823 -0.46771219 3.7822513e-06 -2.0374591e-05 1 0
0.015599609 0.067648187 -0.46771216 -8.801363e-06 -2.6518403e-05 1 0
0.024249539 0.063708633 -0.46771219 -1.4166963e-05 -3.7270634e-05 1 0
0.054673199 0.064867608 -0.46771219 -5.7688198e-05 -7.2001145e-05 1 0
0.064272039 0.063218474 -0.46771219 -3.3453627e-05 -4.6012858e-05 1 0
0.096597612 0.063593209 -0.46771216 -5.1136511e-05 -1.2276761e-05 1 0
0.1031185 0.063726164 -0.46771216 -0.00012056393 -6.4926244e-05 1 0
0.11080253 0.068365894 -0.46771219 -9.9676756e-05 -3.9631967e-05 1 0
0.13363518 0.063901216 -0.46771225 -0.000128378 -2.7979204e-05 1 0
0.15459235 0.064800195 -0.46771216 -0.00012808842 -3.1127725e-05 1 0
0.16646609 0.066069201 -0.46771219 -0.00013068768 -2.0209211e-05 1 0
0.17653108 0.064911962 -0.46771216 -0.00012225281 -5.9164835e-05 1 0
0.18612772 0.067710295 -0.46771216 -9.1386195e-05 -4.6054658e-05 1 0
0.19419241 0.067979455 -0.46771216 -0.00014588361 -6.0385195e-05 1 0
0.20621109 0.066060275 -0.46771219 -0.064977743 -0.005384848 0.99787217 0.0066017192
0.21624081 0.064920723 -0.46771222 -0.2397728 -0.023584168 0.97054261 0.036564045
0.22230712 0.062979594 -0.46771219 -0.3468692 -0.066007271 0.935588 0.066019543
0.23413482 0.065307043 -0.46124369 -0.78918666 -0.12159531 0.60199577 0.082321405
-0.49926507 0.076609932 -0.46548164 0.75919938 0.10415576 0.64247018 0.070802182
-0.48509514 0.074735165 -0.46771216 0.39918798 0.056371219 0.91513455 0.077066176
-0.47558746 0.075788982 -0.46771222 0.16934697 0.013155861 0.98546875 0.02571341
-0.46813282 0.074766159 -0.46771219 0.00030574427 -1.9917472e-05 1 0
-0.43481171 0.077880464 -0.46771222 0.00019253895 7.6573469e-06 1 0
-0.42461708 0.073420964 -0.46771219 0.00045618697 -4.1491785e-05 0.99999988 0
-0.41225785 0.077006549 -0.46771216 0.00019421385 -5.2134255e-05 1 0
-0.40035707 0.070329696 -0.46771222 0.00027225804 -3.8861417e-05 0.99999994 0
-0.3944422 0.075618684 -0.46771222 0.00027550207 -4.9803784e-05 1 0
-0.38425928 0.074298352 -0.46771216 0.00013967299 -6.5754364e-05 1 0
-0.37903497 0.078171894 -0.46771219 0.0003915673 -0.0001006426 0.99999994 0
-0.36489868 0.076672271 -0.46771222 0.00016907517 -0.00011613534 1 0
-0.34563008 0.072526552 -0.46771219 0.00017393041 -1.7128328e-05 1 0
-0.33536521 0.078411885 -0.46771219 5.9626891e-05 -7.1208713e-05 1 0
-0.32974505 0.077527002 -0.46771222 0.00019097957 -3.524336e-05 1 0
-0.30720669 0.075650811 -0.46771222 0.00018669316 -1.466499e-05 1 0
-0.29329142 0.073174961 -0.46771219 0.00013846578 -3.9400227e-05 1 0
-0.28426209 0.074994408 -0.46771219 0.00029083859 -5.1115158e-08 1 0
-0.27381107 0.073941685 -0.46771216 0.00036114475 -8.1182479e-05 0.99999988 0
-0.26595944 0.074098393 -0.46771222 0.000143025 -9.9978228e-05 1 0
-0.2318425 0.073635899 -0.46771219 3.3755787e-05 -4.0844108e-05 1 0
-0.22772108 0.076499611 -0.46771216 0.00019644997 -5.638535e-05 0.99999994 0
-0.21374345 0.077074617 -0.46771216 4.0866056e-05 -5.9870526e-05 1 0
-0.20429066 0.075903572 -0.46771216 0.00011513517 -0.00010578783 1 0
-0.19526719 0.075183414 -0.46771219 0.0002974029 -5.7954654e-05 1 0
-0.18904339 0.070998855 -0.46771219 0.00014682898 -8.5669226e-06 1 0
-0.16415796 0.078112446 -0.46771222 4.5997229e-05 -2.1566826e-05 1 0
-0.15410087 0.074668273 -0.46771216 0.00012316844 -2.4342896e-06 1 0
-0.1456314 0.073412389 -0.46771222 0.00014420827 -2.8745002e-05 1 0
-0.13082616 0.072750494 -0.46771216 6.1746192e-05 9.2441087e-06 1 0
-0.1242917 0.076429419 -0.46771219 0.00011341893 -3.4589524e-05 1 0
-0.1147524 0.077724941 -0.46771216 7.2501607e-05 -5.2489828e-05 1 0
-0.10552122 0.075611018 -0.46771219 0.00011847253 -5.0921379e-05 1 0
-0.08362674 0.073572651 -0.46771222 6.4576991e-05 -2.2168659e-05 1 0
-0.066629983 0.077088229 -0.46771219 2.0181582e-05 -4.1693787e-05 1 0
-0.043677039 0.076768756 -0.46771222 2.9836739e-05 -2.9441562e-05 1 0
-0.030557333 0.070177674 -0.46771219 6.5318991e-06 -7.0671609e-05 1 0
-0.028856831 0.072377816 -0.46771219 -1.7892531e-06 -7.5577635e-05 1 0
-0.0031501199 0.075714938 -0.46771216 7.3956116e-06 -5.4192176e-05 1 0
0.0072339228 0.075100712 -0.46771225 -9.0902313e-06 -3.3609373e-05 1 0
0.01143321 0.070293963 -0.46771216 -2.2737117e-06 -1.7929204e-05 1 0
0.036171135 0.077854782 -0.46771216 -7.1102218e-06 -1.8015144e-05 1 0
0.043707125 0.077970192 -0.46771219 -2.8114924e-05 2.4534249e-06 1 0
0.057686009 0.073745251 -0.46771219 -2.4552583e-05 -4.2298689e-05 1 0
0.066767246 0.078154057 -0.46771219 -1.7671891e-05 -4.1593423e-05 1 0
0.073942609 0.077085674 -0.46771216 -6.263909e-05 -2.8130322e-05 1 0
0.085806102 0.075263143 -0.46771219 -2.0876012e-05 -5.7788755e-05 1 0
0.093101889 0.073714457 -0.46771216 -8.1187158e-05 -0.00012138529 1 0
0.10939696 0.07496313 -0.46771219 -5.9157584e-05 -4.4788267e-05 1 0
0.11158601 0.074500456 -0.46771222 -5.9157588e-05 -4.4788387e-05 1 0
0.12274023 0.075383626 -0.46771216 -6.0152492e-05 -6.0892398e-05 1 0
0.14212741 0.079014719 -0.46771216 -3.8519942e-05 -6.2201805e-05 1 0
0.1568277 0.074720815 -0.46771219 -7.1093287e-05 -1.7465953e-05 1 0
0.1670031 0.073129892 -0.46771219 -3.3184646e-05 -7.0288814e-05 1 0
0.17738068 0.072102524 -0.46771222 -0.00013242755 -4.2620784e-05 1 0
0.18534558 0.078619994 -0.46771219 -0.0001640642 -0.00011564868 1 0
0.19034119 0.077853322 -0.46771222 -0.00016030898 -0.00013033627 1 0
0.20565978 0.074447311 -0.46771219 -8.969933e-05 -9.7197604e-05 1 0
0.21641089 0.076226495 -0.46771219 -0.25595778 3.524639e-05 0.96668804 0.041609503
0.22760391 0.073998064 -0.46771219 -0.61170095 -0.03334726 0.79038584 0.076035917
-0.49662852 0.084835172 -0.46771219 0.65537339 -0.013233189 0.75518918 0.082530037
-0.48477596 0.087744437 -0.46771219 0.32609814 -0.022345271 0.94507188 0.05936043
-0.46220899 0.084331751 -0.46771216 0.00018399628 -7.0196002e-05 1 0
-0.45766801 0.084070936 -0.46771219 0.0003015126 -0.00011776965 0.99999994 0
-0.44414929 0.086203411 -0.46771216 0.00028157965 -3.4670356e-05 0.99999994 0
-0.42327249 0.084765941 -0.46771219 7.7483841e-05 1.4089355e-06 1 0
-0.41723359 0.082114205 -0.46771219 0.00023379263 -3.2017731e-05 1 0
-0.39380571 0.084401779 -0.46771216 0.00012766646 -1.8343906e-06 1 0
-0.38542426 0.083867751 -0.46771216 0.00032649675 -5.1779309e-05 0.99999994 0
-0.36261797 0.08121334 -0.46771216 0.0002351138 -0.00013956823 1 0
-0.35769975 0.083298042 -0.46771219 0.00013737255 -0.00010434727 1 0
-0.34389207 0.083691455 -0.46771216 0.0002002212 -0.00012455118 1 0
-0.33926705 0.086242631 -0.46771219 1.6050371e-05 -9.6656906e-05 1 0
-0.32404435 0.089020744 -0.46771219 0.00018160016 -5.7726073e-05 1 0
-0.31429005 0.086459026 -0.46771219 0.00017418519 -4.0442694e-05 1 0
-0.30456513 0.084873423 -0.46771222 0.00015726063 -5.6130986e-05 1 0
-0.29745567 0.089112297 -0.46771219 0.00012514764 -2.7554424e-05 1 0
-0.28591692 0.086457342 -0.46771219 0.00020640949 -0.00010097987 1 0
-0.27215344 0.085888088 -0.46771222 0.00020408217 -5.2611031e-05 0.99999994 0
-0.26627272 0.082547761 -0.46771222 0.00017378134 -0.00011203061 1 0
-0.25218913 0.089648835 -0.46771216 9.2764079e-05 -6.2134997e-05 1 0
-0.24509791 0.087704644 -0.46771222 0.00020773195 -6.2731873e-05 1 0
-0.23655231 0.083507285 -0.46771219 0.00016126125 -6.1959181e-05 1 0
-0.22598805 0.084582537 -0.46771219 0.00012878091 -6.3415835e-05 1 0
-0.2036224 0.081318028 -0.46771219 0.00011963092 -8.4029743e-05 1 0
-0.19407935 0.086066961 -0.46771222 0.00016206829 -5.0120503e-05 1 0
-0.18521173 0.086516216 -0.46771222 0.00012703455 -8.6359345e-05 1 0
-0.16084932 0.088817596 -0.46771216 6.2837382e-05 -8.4235086e-05 1 0
-0.15406455 0.087411672 -0.46771216 7.8826626e-05 -6.2779538e-05 1 0
-0.13070792 0.089482605 -0.46771216 5.2955351e-05 -8.3711362e-05 1 0
-0.12562904 0.085331395 -0.46771219 0.00010662027 -7.5880773e-05 1 0
-0.11598445 0.084433146 -0.46771216 8.9949339e-05 -2.8983615e-05 1 0
-0.1028195 0.086536407 -0.46771219 4.7803213e-05 -2.6761622e-06 1 0
-0.095553637 0.086531304 -0.46771219 8.198186e-05 -5.1413394e-05 1 0
-0.082816236 0.087614201 -0.46771225 5.4325556e-05 -7.1389215e-05 1 0
-0.074635655 0.084694341 -0.46771216 5.2978106e-05 -5.45394e-05 1 0
-0.066576608 0.084689461 -0.46771216 4.130993e-05 -3.3537839e-05 1 0
-0.055006869 0.084750548 -0.46771216 3.6820518e-05 -4.1522853e-05 1 0
-0.044861794 0.084337719 -0.46771219 2.0788226e-05 -4.053177e-05 1 0
-0.036919266 0.084265336 -0.46771216 2.6157163e-06 -4.1423762e-05 1 0
-0.015137948 0.08013916 -0.46771219 1.4350418e-05 -3.6102836e-05 1 0
-0.0067489669 0.084847353 -0.46771216 6.5454578e-06 -5.0511466e-05 1 0
0.0060250834 0.084078543 -0.46771216 -2.2564714e-06 -4.7293477e-05 1 0
0.011830389 0.080699168 -0.46771222 -6.0796933e-06 -4.4873512e-05 1 0
0.035582181 0.083772309 -0.46771225 -6.5012441e-06 7.9294591e-07 1 0
0.045907486 0.088326007 -0.46771216 -7.1716175e-05 -8.7966757e-05 1 0
0.053532481 0.084438354 -0.46771219 -3.6431014e-05 -6.4422929e-05 1 0
0.066264607 0.083215728 -0.46771219 -2.1928246e-05 -6.8449022e-05 1 0
0.072049357 0.081275597 -0.46771219 -3.3391516e-05 -2.8656146e-05 1 0
0.084517591 0.086185828 -0.46771219 -0.00010907057 -0.00010568056 1 0
0.096109435 0.083859742 -0.46771216 -7.2338582e-05 -0.00010925336 1 0
0.10777094 0.080353677 -0.46771216 -0.00010317261 -4.6248209e-05 1 0
0.11433089 0.084511615 -0.46771219 -8.2983403e-05 -6.6897701e-05 1 0
0.12364392 0.08574982 -0.46771216 -3.6338104e-05 -3.2277443e-05 1 0
0.13082096 0.088227995 -0.46771216 -8.0653022e-05 -1.8075631e-05 1 0
0.14391856 0.085446872 -0.46771219 -5.7781567e-06 -3.7660415e-05 1 0
0.15441626 0.081816807 -0.46771222 -3.83242e-05 -2.2181324e-05 1 0
0.16575602 0.082446054 -0.46771216 -3.9318507e-05 -6.6700304e-05 1 0
0.1739312 0.088698409 -0.46771222 -0.00013401225 -0.00011592793 1 0
0.18667737 0.083271116 -0.46771219 -0.00018152015 -8.3985069e-05 1 0
0.19334386 0.083342403 -0.46771222 -0.00020256768 -8.9002642e-05 0.99999994 0
0.21057932 0.080127873 -0.46771216 -0.13814177 -0.029078653 0.98998559 0.019672452
0.23394936 0.086042047 -0.46619639 -0.75989377 -0.050776321 0.6480611 0.055733874
-0.49191582 0.094339415 -0.46771219 0.58421576 -0.14457084 0.79861838 0.072733045
-0.4895916 0.090348385 -0.46771219 0.39616054 -0.093479484 0.91341025 0.065279253
-0.47386059 0.095760725 -0.46771219 0.095403664 -0.051316742 0.99411505 0.01320405
-0.4546138 0.096581846 -0.46771219 0.0004618582 -0.00018095062 0.99999988 0
-0.44496131 0.095756285 -0.46771216 0.00032015011 -7.0772971e-05 1 0
-0.43467832 0.095819958 -0.46771222 0.00034945403 -7.210554e-06 1 0
-0.41549841 0.095283344 -0.46771216 0.00031981312 -6.0904338e-05 1 0
-0.40604031 0.098798566 -0.46771222 0.00021126938 -4.5723551e-05 0.99999994 0
-0.39194423 0.098031163 -0.46771216 0.00030716008 -9.3978575e-05 0.99999994 0
-0.37359238 0.096286044 -0.46771216 0.00018830568 -6.0917977e-05 0.99999994 0
-0.36671215 0.098657735 -0.46771222 0.00025856975 -2.0893725e-05 0.99999994 0
-0.35114232 0.093105346 -0.46771216 0.00016170039 -7.1287286e-05 1 0
-0.34476113 0.097598076 -0.46771222 0.00011998538 -9.594165e-05 1 0
-0.32018867 0.099944629 -0.46771219 0.00010395575 -7.7125915e-05 1 0
-0.31949177 0.091428891 -0.46771216 0.00022749283 -8.8491055e-05 0.99999988 0
-0.30513412 0.096820951 -0.46771216 0.00015436561 -7.9658188e-05 1 0
-0.29219073 0.097878367 -0.46771216 0.00012979753 -8.2154584e-05 1 0
-0.28318667 0.093138292 -0.46771222 8.3539097e-05 -8.1909828e-05 1 0
-0.27520362 0.092733763 -0.46771216 0.00025643819 -7.8163503e-05 0.99999994 0
-0.26439166 0.098117426 -0.46771219 0.00013936702 -6.6549357e-05 1 0
-0.25694525 0.093904577 -0.46771219 0.0002083669 -5.6595924e-05 0.99999994 0
-0.24589071 0.09445481 -0.46771219 0.000115839 -5.7041038e-05 1 0
-0.23885261 0.093232483 -0.46771219 9.747564e-05 -7.5703916e-05 1 0
-0.22164142 0.094116636 -0.46771219 0.00012919631 -7.4373951e-05 1 0
-0.21299982 0.095370434 -0.46771222 8.6929482e-05 -1.3984893e-05 1 0
-0.20156407 0.096121214 -0.46771216 0.00023260005 -5.433182e-05 1 0
-0.1933804 0.094127566 -0.46771216 0.00017080385 -1.9980427e-05 1 0
-0.18904963 0.094978914 -0.46771216 0.00016555417 -8.8984882e-05 1 0
-0.16461805 0.094083354 -0.46771216 7.4897529e-05 -5.8239384e-05 1 0
-0.15492082 0.09522666 -0.46771219 4.1261541e-05 -1.2006645e-05 1 0
-0.14112616 0.096133716 -0.46771219 8.3572981e-05 -9.7869728e-05 1 0
-0.13521031 0.09420301 -0.46771216 7.7056728e-05 -0.00011611017 1 0
-0.10196232 0.099505514 -0.46771219 3.8503611e-05 -0.0001161077 1 0
-0.096653335 0.090174764 -0.46771222 8.8365741e-05 -6.8616559e-05 1 0
-0.08774104 0.092379667 -0.46771216 6.283445e-05 -1.8671075e-05 1 0
-0.074540816 0.097874679 -0.46771219 3.452165e-05 -4.439017e-05 1 0
-0.064407624 0.09399616 -0.46771216 3.2167794e-05 -3.5462668e-05 1 0
-0.05518033 0.095744453 -0.46771219 4.6415716e-05 -8.7581298e-05 1 0
-0.04430449 0.09751296 -0.46771219 3.3506276e-05 -7.5652351e-05 1 0
-0.02207916 0.091449454 -0.46771222 8.9815585e-06 -2.7860424e-05 1 0
-0.0090814717 0.094367586 -0.46771219 9.2466971e-06 -8.6786524e-05 1 0
0.015864789 0.095142193 -0.46771216 -8.677297e-06 -1.5699097e-05 1 0
0.022140821 0.095461003 -0.46771222 -1.834059e-05 -2.8019589e-05 1 0
0.035173777 0.095082335 -0.46771225 -2.7196387e-05 -8.9417306e-05 1 0
0.058774531 0.096644774 -0.46771222 -1.3499559e-05 -7.3820062e-05 1 0
0.065169796 0.097085588 -0.46771216 -2.1883236e-05 -5.2725656e-05 1 0
0.075595148 0.093103856 -0.46771216 -5.2043644e-05 -6.341144e-05 1 0
0.099817149 0.093202449 -0.46771216 -6.1753541e-05 -5.4127388e-05 1 0
0.10219238 0.093683802 -0.46771216 -7.1585113e-05 -0.00010271685 1 0
0.12983593 0.092860796 -0.46771222 -5.1449857e-05 -4.3617078e-05 1 0
0.13188797 0.098285362 -0.46771216 -5.9127258e-05 -2.1369351e-05 1 0
0.14710453 0.094919354 -0.46771216 -0.0001457371 -0.00013660069 1 0
0.15613681 0.097921692 -0.46771219 -0.00011100608 -9.3945644e-05 1 0
0.16579473 0.09666013 -0.46771219 -9.0710775e-05 -6.6120818e-05 1 0
0.17687288 0.095279634 -0.46771222 -0.00010921359 -6.5770007e-05 1 0
0.18573628 0.090914644 -0.46771216 -0.00011780429 -6.5848682e-05 1 0
0.19474022 0.093658432 -0.46771219 -0.00012694292 -6.7878114e-05 1 0
0.20479345 0.09392482 -0.46771219 -0.072309501 -0.023028575 0.99711639 0.006889462
0.21651334 0.093537323 -0.46771216 -0.27709755 -0.08733283 0.9568646 0.042000741
0.22830273 0.09477964 -0.46771219 -0.70009923 -0.073891968 0.71021199 0.07560388
-0.4975529 0.1025939 -0.46702352 0.82165074 -0.30257744 0.48304972 0.059960984
-0.478935 0.10748041 -0.46771219 0.32127079 -0.14143841 0.93636543 0.070357032
-0.46509963 0.10202294 -0.46771219 0.036669351 -0.030769348 0.99885368 0.0024471306
-0.45561439 0.10457116 -0.46771216 0.00014292741 -4.3652009e-05 1 0
-0.44418755 0.10492017 -0.46771216 7.5246855e-05 -2.9030396e-05 1 0
-0.43283987 0.10770355 -0.46771216 0.00010810718 -9.0214773e-05 1 0
-0.42411724 0.10314243 -0.46771219 0.00021187245 -6.3328305e-05 1 0
-0.41481328 0.10336784 -0.46771216 0.00034124334 -3.3770328e-05 0.99999994 0
-0.40962154 0.10729684 -0.46771219 0.00025963681 -5.4619562e-05 1 0
-0.39644095 0.10266588 -0.46771219 0.00031562697 -7.6627293e-05 0.99999994 0
-0.36599132 0.10456437 -0.46771219 0.00016485964 -0.0001140693 1 0
-0.35305566 0.10867117 -0.46771219 0.00047023583 2.4008155e-05 0.99999988 0
-0.34363189 0.10617626 -0.46771216 0.00020317397 2.7962187e-06 1 0
-0.33514503 0.1049669 -0.46771219 0.00041351037 2.3844201e-05 0.99999982 0
-0.32298255 0.10504533 -0.46771219 0.00012648726 -9.4887837e-05 1 0
-0.2932533 0.10337709 -0.46771216 5.0519204e-05 -2.5691668e-05 1 0
-0.27663165 0.103417 -0.46771219 2.8220654e-06 -3.2110172e-05 1 0
-0.26683125 0.10682306 -0.46771225 5.8672122e-05 -8.2510123e-05 1 0
-0.23284961 0.1062234 -0.46771219 0.00010902014 -5.9137285e-05 1 0
-0.22479331 0.1061032 -0.46771222 0.00014375969 -7.0220776e-05 1 0
-0.21431892 0.10458124 -0.46771216 6.5164088e-05 -3.7979025e-05 1 0
-0.20202325 0.10068384 -0.46771222 8.6833912e-05 -4.8680595e-05 1 0
-0.1900048 0.10521391 -0.46771216 0.00016061417 -4.8978574e-05 1 0
-0.17700741 0.10835423 -0.46771222 0.00013203989 -4.9447957e-05 1 0
-0.16435756 0.10115492 -0.46771219 8.3366183e-05 -8.5132029e-05 1 0
-0.15479401 0.1038574 -0.46771222 0.00011229245 -5.0688614e-05 1 0
-0.13645369 0.10298452 -0.46771222 2.5378349e-05 -6.4143816e-05 1 0
-0.125442 0.10596935 -0.46771216 1.5905993e-05 -6.5513683e-05 1 0
-0.11481318 0.10376728 -0.46771219 4.0627961e-05 -8.2200662e-05 1 0
-0.10449439 0.10995351 -0.46771219 8.6559259e-05 -4.4851538e-05 1 0
-0.094431423 0.10717452 -0.46771219 5.8217447e-05 -9.6888762e-05 1 0
-0.083486304 0.10692655 -0.46771219 6.3930151e-05 -9.7043077e-05 1 0
-0.071542986 0.10508712 -0.46771222 3.1725052e-05 -1.9574161e-06 1 0
-0.065894119 0.10518205 -0.46771219 2.926366e-05 -0.00010149776 1 0
-0.051364984 0.10333812 -0.46771216 5.8386562e-05 -0.00011304011 1 0
-0.046742972 0.10268701 -0.46771219 3.9411258e-05 -4.2536991e-05 1 0
-0.036387835 0.10535027 -0.46771219 3.3392258e-05 -7.9386075e-05 1 0
-0.024214793 0.10674598 -0.46771216 1.2484961e-05 -9.9798883e-05 1 0
-0.012907591 0.10465502 -0.46771219 1.0498816e-06 -3.5358662e-05 1 0
-0.0057062106 0.10497051 -0.46771216 -7.4849368e-07 -1.6546177e-05 1 0
0.007488396 0.10442694 -0.46771222 -7.5535036e-06 -5.2247146e-05 1 0
0.016539751 0.10601271 -0.46771222 -2.3124558e-06 -5.4528944e-05 1 0
0.034034189 0.10443117 -0.46771219 -5.8677947e-06 -6.097537e-05 1 0
0.049496651 0.10850695 -0.46771222 -7.535654e-05 -0.00013588823 1 0
0.074638344 0.10342369 -0.46771216 -5.3562224e-05 -3.7872171e-05 1 0
0.088195696 0.10215246 -0.46771219 -4.313781e-05 -6.3270527e-05 1 0
0.096361354 0.10508595 -0.46771216 -7.3173651e-05 -0.00010238454 1 0
0.10347507 0.10516824 -0.46771219 -2.8331864e-05 -5.9655755e-05 1 0
0.1145069 0.10337412 -0.46771216 -8.8789551e-05 -7.3337949e-05 1 0
0.12660195 0.10333223 -0.46771219 -5.5506887e-05 -4.5035336e-05 1 0
0.13385186 0.10863841 -0.46771219 -5.0840506e-05 -7.331212e-05 1 0
0.14371455 0.10885824 -0.46771222 -6.7640161e-05 -6.1436003e-05 1 0
0.15475401 0.10482539 -0.46771222 -7.9792815e-05 -5.8663463e-05 1 0
0.17645717 0.10687539 -0.46771219 -0.0001325851 -3.2172426e-05 1 0
0.18468711 0.10627145 -0.46771219 -0.00011781137 -0.00010814221 1 0
0.19040462 0.10214944 -0.46771219 -8.9210844e-05 -5.4062373e-05 1 0
0.21248919 0.10526419 -0.46771219 -0.2981604 -0.13911854 0.9443233 0.060422875
0.22954993 0.10629666 -0.4647215 -0.73251188 -0.30030218 0.61093777 0.092321828
0.2315996 0.10274654 -0.4622362 -0.83178365 -0.28816116 0.47444618 0.084093481
-0.49026978 0.1152086 -0.46209675 0.77713066 -0.34336239 0.52741855 0.085593827
-0.47821531 0.11851656 -0.46771219 0.38492271 -0.24413006 0.89007586 0.076872326
-0.45572507 0.11331864 -0.46771216 0.00021349004 -3.4169494e-05 1 0
-0.43721443 0.11364228 -0.46771216 0.00038993242 6.1335915e-05 0.99999988 0
-0.42874885 0.11082246 -0.46771219 6.7497669e-05 -0.00011119234 1 0
-0.41608515 0.11711781 -0.46771216 0.0003119265 -9.0265312e-05 0.99999994 0
-0.40549129 0.11897253 -0.46771216 0.00025190381 -5.4226122e-05 1 0
-0.39712149 0.11148876 -0.46771222 0.00019245523 -4.3959197e-05 1 0
-0.38470936 0.11781827 -0.46771222 0.00023994849 -0.00010640496 0.99999994 0
-0.37912786 0.11850211 -0.46771222 0.00017094906 -5.3541167e-05 1 0
-0.36783609 0.11437067 -0.46771225 4.9904818e-05 -9.0113077e-05 1 0
-0.35601604 0.11272581 -0.46771216 0.00023008541 -4.2332445e-05 1 0
-0.34220093 0.11692663 -0.46771216 0.00012894833 -5.6468252e-05 1 0
-0.33853716 0.11752433 -0.46771222 0.00026066421 -0.00010332451 0.99999994 0
-0.32111752 0.11480037 -0.46771216 0.00013099435 -6.8915062e-05 1 0
-0.30606622 0.11367051 -0.46771216 0.00021115676 -8.2817394e-05 1 0
-0.29339069 0.11752538 -0.46771219 0.00022217933 -5.5337001e-05 0.99999994 0
-0.28419304 0.11563428 -0.46771222 0.00019857805 -5.0913452e-05 0.99999994 0
-0.27982482 0.11867408 -0.46771222 0.00025844947 -6.6703302e-05 0.99999994 0
-0.26583105 0.11450802 -0.46771222 0.00013524099 -6.8369904e-05 1 0
-0.25595379 0.11241346 -0.46771219 0.00016833149 -2.4018918e-05 1 0
-0.24460205 0.11703674 -0.46771222 0.00014345125 -3.6833557e-05 1 0
-0.23480868 0.11198446 -0.46771216 0.00023330723 -7.1988179e-05 0.99999994 0
-0.22432405 0.11579317 -0.46771219 0.00018689739 -7.3067422e-05 1 0
-0.21354912 0.11530242 -0.46771225 6.812653e-05 -6.4822067e-05 1 0
-0.2059143 0.11516052 -0.46771225 6.4254928e-05 -6.6795918e-05 1 0
-0.1960402 0.1193379 -0.46771219 7.7901059e-05 -8.9453475e-05 1 0
-0.17491071 0.11564332 -0.46771225 2.4672387e-05 -3.8847222e-05 1 0
-0.16623558 0.11208015 -0.46771216 9.1137335e-05 -7.5783384e-05 1 0
-0.15357172 0.11470957 -0.46771216 0.00011101616 -8.888817e-05 1 0
-0.14297992 0.11779749 -0.46771219 0.00015518125 -7.6748373e-05 1 0
-0.12457563 0.11734594 -0.46771219 0.00012872039 -5.8544825e-05 1 0
-0.11940657 0.11253317 -0.46771219 3.1788015e-05 -9.1994531e-05 1 0
-0.10731431 0.11143099 -0.46771216 9.7109289e-05 -6.974749e-05 1 0
-0.091867276 0.11489094 -0.46771219 3.3349523e-05 -5.2914085e-05 1 0
-0.084854178 0.11571199 -0.46771216 4.8244405e-05 -3.1655607e-05 1 0
-0.076359823 0.11535348 -0.46771216 2.0318897e-05 -0.00010796919 1 0
-0.065790549 0.11584666 -0.46771216 3.0385456e-05 -0.00011107442 1 0
-0.056001145 0.11421426 -0.46771219 6.2226209e-05 -0.00014590808 1 0
-0.046502311 0.11185226 -0.46771222 5.1791423e-05 -6.6737994e-05 1 0
-0.034673695 0.11250319 -0.46771222 8.596121e-06 -4.8858707e-05 1 0
-0.027976464 0.11818082 -0.46771216 1.8025175e-05 -7.5321856e-05 1 0
-0.0049122865 0.11503774 -0.46771222 3.4980582e-07 -8.2163831e-05 1 0
0.0039610965 0.11774498 -0.46771219 -8.2038259e-06 -5.7569901e-05 1 0
0.016100954 0.11219572 -0.46771222 -7.813921e-06 -1.8916004e-05 1 0
0.022403363 0.11313593 -0.46771219 -2.4262924e-06 -8.2180697e-05 1 0
0.03322969 0.11185907 -0.46771219 -1.6105365e-05 -9.1129041e-05 1 0
0.042856887 0.11496456 -0.46771222 -1.1532748e-05 -3.0417868e-05 1 0
0.066052698 0.11435509 -0.46771222 -3.1647854e-05 -0.00017079317 1 0
0.073357686 0.11106392 -0.46771216 -4.9687893e-05 -4.8601429e-05 1 0
0.080169737 0.11370119 -0.46771216 -5.709441e-05 -7.0134498e-05 1 0
0.10313235 0.11279078 -0.46771222 -3.7876434e-05 -9.2483817e-05 1 0
0.11686938 0.11290303 -0.46771216 -0.00010483245 -9.3645278e-05 1 0
0.12558281 0.11483969 -0.46771219 -2.1952357e-05 -6.1072875e-05 1 0
0.13857059 0.1176272 -0.46771216 1.014886e-06 -5.2912965e-05 1 0
0.14740519 0.1128612 -0.46771222 -4.7439462e-05 -8.2811333e-05 1 0
0.16959366 0.11438619 -0.46771219 -0.00010893778 -8.7980894e-05 1 0
0.17499635 0.11864199 -0.46771216 -9.0418202e-05 -5.2332456e-05 1 0
0.18531798 0.1146677 -0.46771222 -0.00017284624 -8.8649203e-06 1 0
0.20226786 0.11768681 -0.46771222 -0.15848887 -0.077617288 0.98430526 0.031899959
0.22282887 0.11317807 -0.46771219 -0.64404923 -0.37082052 0.6690985 0.068679787
-0.48586076 0.12284524 -0.46448278 0.74439007 -0.30549794 0.59376281 0.084466949
-0.4643873 0.12523258 -0.46771219 0.11721661 -0.086951494 0.98929256 0.023037434
-0.455773 0.12431415 -0.46771219 0.082102597 -0.069289133 0.99421239 0.017150978
-0.44392955 0.12336192 -0.46771222 0.00050360564 -3.1659099e-05 0.99999982 0
-0.43336147 0.12350069 -0.46771216 0.00021643698 -6.5460721e-05 1 0
-0.42883348 0.12211672 -0.46771216 0.00023200936 -2.8504142e-05 1 0
-0.40425789 0.12169249 -0.46771219 0.00024861866 -0.00011697443 0.99999994 0
-0.37462613 0.12530285 -0.46771216 0.00017365289 -3.8791761e-05 1 0
-0.36378059 0.12769771 -0.46771219 0.00014233631 -3.4458204e-05 1 0
-0.34310412 0.12191816 -0.46771219 0.00015676211 -4.3961543e-05 1 0
-0.30900532 0.1225275 -0.46771222 0.00010700474 -7.7684337e-05 1 0
-0.28626841 0.12441007 -0.46771219 0.0002324518 -7.492755e-05 1 0
-0.26719528 0.12788281 -0.46771219 0.0001988674 -4.1340263e-05 0.99999994 0
-0.25722241 0.12341003 -0.46771219 0.00021914365 -3.7631511e-05 1 0
-0.24703473 0.12968336 -0.46771216 8.0339036e-05 -6.7083973e-05 1 0
-0.23661903 0.12121865 -0.46771219 0.00010646926 2.0567799e-05 1 0
-0.21766524 0.12901627 -0.46771219 0.00015561041 -4.7924383e-05 1 0
-0.20183039 0.12566173 -0.46771216 0.00021650935 -8.7293847e-05 0.99999994 0
-0.19294351 0.12742312 -0.46771219 8.3735271e-05 -0.00010718277 1 0
-0.17179643 0.12230776 -0.46771219 9.0179463e-05 -6.2466916e-06 1 0
-0.1530437 0.12748869 -0.46771216 0.00011256662 -3.4928617e-06 1 0
-0.13499105 0.12778348 -0.46771222 0.00014195773 -8.397473e-05 1 0
-0.10125993 0.12742914 -0.46771222 -3.021589e-06 -0.00011929846 1 0
-0.096448824 0.12935558 -0.46771222 5.4264103e-05 -5.1140876e-05 1 0
-0.072021574 0.1243962 -0.46771222 3.5617424e-05 -9.6467709e-05 1 0
-0.052054338 0.1272994 -0.46771216 2.5302734e-05 -7.8879952e-05 1 0
-0.048696082 0.1245598 -0.46771219 3.1464231e-05 -4.3915716e-05 1 0
-0.035517637 0.12342089 -0.46771219 1.644009e-05 -8.3251063e-05 1 0
-0.013162023 0.12553661 -0.46771219 2.1282158e-05 -7.2485411e-05 1 0
-0.0089128884 0.12468703 -0.46771222 1.3215452e-05 -6.9603615e-05 1 0
0.0049120528 0.12639037 -0.46771222 -1.0165698e-05 -0.00011341969 1 0
0.026770324 0.12331638 -0.46771216 -3.8921639e-06 -6.7567606e-05 1 0
0.034877054 0.1276397 -0.46771219 -1.6521388e-05 -9.4970332e-05 1 0
0.046087041 0.12539655 -0.46771219 2.1795356e-06 -9.3449657e-05 1 0
0.051644225 0.1205876 -0.46771219 -4.8841528e-05 -0.00010844878 1 0
0.082031585 0.12553723 -0.46771219 -8.2641556e-05 -5.6692195e-05 1 0
0.10264716 0.12607951 -0.46771216 -4.8534028e-05 -1.4215033e-05 1 0
0.1192781 0.12097065 -0.46771219 -0.00010967545 -0.00011241499 1 0
0.12468657 0.12445828 -0.46771222 -5.8248985e-05 -9.1029688e-05 1 0
0.13562624 0.12274332 -0.46771219 -0.00011059834 -1.8940325e-05 1 0
0.14812084 0.12089463 -0.46771216 -8.1677208e-05 -0.00011776883 1 0
0.16537601 0.12599799 -0.46771216 -7.9828198e-05 -6.6035653e-05 1 0
0.17879003 0.12658376 -0.46771216 -9.566181e-05 -3.6193989e-05 1 0
0.18049671 0.12447686 -0.46771222 -0.00011019715 -5.3329335e-05 1 0
0.19844738 0.1283074 -0.46771216 -0.28872401 -0.15398839 0.9449476 0.064612962
0.20229381 0.12326252 -0.46771222 -0.30088192 -0.15281412 0.94133842 0.075798132
0.2133449 0.12297222 -0.46771219 -0.55976796 -0.36370414 0.74456632 0.075329304
-0.48066106 0.1318514 -0.46519879 0.63814652 -0.28456393 0.71539658 0.07735613
-0.47640672 0.13515894 -0.46656454 0.48337367 -0.27773347 0.83018911 0.089914471
-0.46834478 0.13519986 -0.46771216 0.20315091 -0.2254118 0.95284802 0.07067468
-0.4563784 0.13327521 -0.46771222 0.11550732 -0.065517873 0.99114352 0.021095421
-0.44663265 0.13406146 -0.46771219 0.027486773 -0.010449783 0.99956757 0.0014760609
-0.41529199 0.13717693 -0.46771216 0.00034513682 -7.2795723e-05 0.99999994 0
-0.40475047 0.13012892 -0.46771222 0.00027399755 -8.5812162e-06 1 0
-0.38479149 0.13272917 -0.46771216 8.1116377e-05 -0.00010367933 1 0
-0.37088779 0.13526475 -0.46771222 3.9266292e-06 -0.000110912 1 0
-0.36602366 0.13294157 -0.46771216 0.00032167023 -2.0281796e-06 0.99999994 0
-0.35545605 0.13354804 -0.46771222 0.00013833302 -5.2676878e-05 1 0
-0.34581 0.13422009 -0.46771219 0.00025425872 -8.6040709e-05 1 0
-0.33375159 0.13559802 -0.46771216 0.00019231049 -5.4721979e-05 1 0
-0.30195665 0.13253616 -0.46771219 -1.5961412e-05 -0.00011407393 1 0
-0.29475597 0.13484667 -0.46771219 0.00012077697 -2.4198334e-05 1 0
-0.27525726 0.135646 -0.46771219 0.00013874499 -8.6632754e-05 1 0
-0.26472822 0.1319121 -0.46771219 0.00010071316 -9.798658e-05 1 0
-0.25422376 0.13422495 -0.46771225 0.00010874412 -8.7394343e-05 1 0
-0.24469705 0.13858466 -0.46771222 8.9890927e-05 -7.4039097e-05 1 0
-0.23391534 0.13208699 -0.46771219 0.00020150398 -4.3735523e-05 0.99999994 0
-0.22349323 0.13357672 -0.46771219 0.00032390148 -2.2587379e-05 0.99999994 0
-0.21625882 0.13399529 -0.46771219 0.00012733525 -1.2745205e-05 1 0
-0.20518604 0.13311651 -0.46771222 0.00013166695 -0.00011721467 1 0
-0.18723458 0.13474777 -0.46771219 8.2165308e-05 -8.3702798e-05 1 0
-0.15394613 0.13266562 -0.46771216 0.00016433708 -9.7925928e-05 1 0
-0.14457613 0.13136202 -0.46771222 9.7047137e-05 -3.6371173e-05 1 0
-0.13487729 0.13352726 -0.46771219 6.9028894e-05 -0.00010184647 1 0
-0.12627073 0.13804841 -0.46771216 8.0117141e-05 -0.00015281387 1 0
-0.11503643 0.13590822 -0.46771219 4.5118806e-05 -3.5069541e-05 1 0
-0.10535415 0.13276242 -0.46771216 2.6071612e-05 -7.7981422e-05 1 0
-0.094784111 0.13611163 -0.46771216 8.598758e-05 -8.4809355e-05 1 0
-0.075928979 0.13674611 -0.46771219 3.4830155e-05 -0.00017138213 1 0
-0.064158604 0.13682385 -0.46771216 7.5755161e-05 -0.00010040838 1 0
-0.053438202 0.13526142 -0.46771216 2.235236e-05 -8.9628389e-05 1 0
-0.045184433 0.13908741 -0.46771216 8.5318752e-06 -9.8934688e-05 1 0
-0.033392608 0.13205588 -0.46771216 2.4611441e-05 -5.263921e-05 1 0
-0.024656128 0.13185547 -0.46771216 1.1590683e-05 -0.00010653253 1 0
-0.0062645585 0.13549553 -0.46771222 1.5812831e-05 -9.2919581e-05 1 0
0.0040007271 0.13819526 -0.46771219 1.1786545e-05 -0.00014817534 1 0
0.014221113 0.13420339 -0.46771216 -8.002321e-06 -0.0001467871 1 0
0.027407408 0.13491978 -0.46771219 4.2371507e-06 -0.00010065117 1 0
0.037703481 0.1349885 -0.46771219 -3.7897178e-05 -9.5392803e-05 1 0
0.04033199 0.13068694 -0.46771222 -2.1658256e-05 -9.3085444e-05 1 0
0.054052915 0.13964243 -0.46771219 -2.081238e-05 -6.3317304e-05 1 0
0.08521951 0.13451648 -0.46771216 -3.5742294e-05 -7.8377721e-05 1 0
0.096500009 0.13643289 -0.46771219 -2.9401792e-05 -8.2220256e-05 1 0
0.11383601 0.13405988 -0.46771216 -6.8024288e-05 -8.343345e-05 1 0
0.12673107 0.13998589 -0.46771219 -0.00016729406 -0.00013578126 1 0
0.13648878 0.13434613 -0.46771216 -4.7671187e-05 -0.00010571459 1 0
0.14854297 0.13393076 -0.46771219 -2.6579612e-05 -5.2051113e-05 1 0
0.15686586 0.1331775 -0.46771219 -0.00013067755 -6.2886931e-05 1 0
0.16454294 0.13512616 -0.46771219 -9.5216099e-05 4.6160476e-06 1 0
0.17519327 0.13207288 -0.46771219 -0.0001122684 -4.2060419e-05 1 0
0.18913025 0.13658643 -0.46771219 -0.16437079 -0.088293083 0.98243904 0.046925161
0.1920923 0.13754022 -0.46771219 -0.17737806 -0.10333738 0.97870249 0.053648114
0.20950024 0.13228995 -0.46771216 -0.59164882 -0.31575382 0.74178916 0.089083664
0.21210726 0.13527708 -0.46747747 -0.69493431 -0.42971477 0.5765515 0.071477741
-0.47128311 0.14809451 -0.46302867 0.64679033 -0.41408238 0.64046699 0.11053595
-0.46937895 0.14771536 -0.46771222 0.52544039 -0.3271406 0.78542435 0.1013393
-0.45223844 0.14093804 -0.46771219 0.15317257 -0.018694568 0.98802257 0.02362828
-0.4354009 0.1453912 -0.46771216 0.00025469938 -9.7542004e-05 1 0
-0.4295904 0.14625005 -0.46771222 0.00030086027 -9.5572381e-05 0.99999994 0
-0.41922063 0.14798743 -0.46771222 8.892201e-05 -6.6945038e-05 1 0
-0.4047879 0.14014207 -0.46771222 0.000255133 -9.902021e-05 1 0
-0.39023274 0.14092499 -0.46771216 0.00024377681 -6.8146939e-05 0.99999994 0
-0.37574095 0.14288844 -0.46771216 0.00016658742 -7.6359953e-05 1 0
-0.3652024 0.14807622 -0.46771219 0.00021240796 -0.00011011452 0.99999994 0
-0.35658514 0.14982459 -0.46771222 0.00022338393 -9.5011019e-05 1 0
-0.34727234 0.14766924 -0.46771219 0.00016797114 -0.00020300006 1 0
-0.33561841 0.14699708 -0.46771216 1.1182909e-05 -7.9782207e-05 1 0
-0.32047534 0.14060786 -0.46771222 0.0001748662 -0.00012284078 1 0
-0.31556582 0.14893827 -0.46771219 0.00018613222 -0.0001122234 1 0
-0.30813894 0.1459509 -0.46771219 6.4663502e-05 -7.1952934e-05 1 0
-0.29075113 0.14613755 -0.46771219 0.00022467705 -7.2893687e-05 1 0
-0.28847232 0.14545836 -0.46771219 0.00018591787 -4.7755279e-05 0.99999994 0
-0.27721238 0.14322244 -0.46771222 4.5622096e-06 -7.8643956e-05 1 0
-0.26806903 0.14153744 -0.46771216 6.5369306e-05 -3.4476732e-05 1 0
-0.25419468 0.14492397 -0.46771219 0.00021557885 -9.2698458e-05 1 0
-0.24630183 0.1475831 -0.46771222 0.00016561936 -7.1580034e-05 1 0
-0.23322119 0.14560364 -0.46771219 0.00022821903 2.8708308e-05 1 0
-0.22623372 0.1473352 -0.46771216 7.2052564e-05 -3.7778653e-05 1 0
-0.20813206 0.14011621 -0.46771216 0.00010750992 -5.8098936e-05 1 0
-0.19292223 0.14450684 -0.46771216 5.5367665e-05 -7.7973673e-05 1 0
-0.18353353 0.14627503 -0.46771216 7.791019e-05 -7.9145248e-05 1 0
-0.17459059 0.1470923 -0.46771216 0.00014374481 -7.7298151e-05 1 0
-0.16663244 0.14480296 -0.46771219 7.3042735e-05 -0.00012011782 1 0
-0.15462326 0.14818761 -0.46771219 5.769304e-05 -7.1312548e-05 1 0
-0.14890757 0.14601859 -0.46771216 6.9767266e-05 -0.00011265393 1 0
-0.1322758 0.1434415 -0.46771219 5.8717374e-05 -6.7112363e-05 1 0
-0.12460042 0.14650123 -0.46771216 1.2322697e-05 -8.6969107e-05 1 0
-0.11695713 0.14459801 -0.46771219 8.4288149e-05 -0.00014736256 1 0
-0.10538663 0.14579962 -0.46771222 7.2280091e-05 -0.00012657432 1 0
-0.093214266 0.14749061 -0.46771222 9.6704884e-05 -4.9557013e-05 1 0
-0.087833069 0.1457884 -0.46771219 6.2440711e-05 -5.5854627e-05 1 0
-0.066327453 0.14645196 -0.46771216 6.6864477e-06 -8.2928069e-05 1 0
-0.043410413 0.14223009 -0.46771216 1.2292486e-05 -3.2778655e-05 1 0
-0.014655109 0.14130346 -0.46771216 1.0738301e-05 -6.3532279e-05 1 0
-0.0083209192 0.14361748 -0.46771216 6.0098168e-06 -0.00010184259 1 0
0.0051927194 0.14747505 -0.46771222 -3.4744676e-06 -5.9699265e-05 1 0
0.015085686 0.14472055 -0.46771222 -1.8803812e-05 -0.00010761522 1 0
0.028355047 0.14075173 -0.46771219 -2.5526215e-05 -9.3985997e-05 1 0
0.034029152 0.14517148 -0.46771216 -1.87122e-05 -8.2752958e-05 1 0
0.045388825 0.1417032 -0.46771216 -3.1082502e-05 -3.3916756e-05 1 0
0.059849493 0.1484255 -0.46771222 1.278571e-05 -4.4107066e-05 1 0
0.065848969 0.14513101 -0.46771216 -1.174327e-05 -0.00011350288 1 0
0.076519623 0.14548188 -0.46771216 -9.6009477e-05 -0.00020170675 1 0
0.085121155 0.14577919 -0.46771222 -7.4068805e-05 -0.00012885647 1 0
0.09264382 0.1423126 -0.46771219 -4.3235043e-05 -0.00011299957 1 0
0.10263991 0.14442223 -0.46771219 -6.7670888e-05 -6.6218432e-05 1 0
0.11312265 0.14394252 -0.46771219 -8.9866982e-05 -0.00014530576 1 0
0.12443724 0.14465213 -0.46771222 -6.5672488e-05 -0.00014317843 1 0
0.13468775 0.14964233 -0.46771216 -0.00011268675 -0.00014047018 1 0
0.14209798 0.1438619 -0.46771216 -6.7010558e-05 -8.4439365e-05 1 0
0.15531439 0.14397515 -0.46771219 -0.00011308663 -2.0625137e-05 1 0
0.17345437 0.14520788 -0.46771216 -0.0080938088 -0.0056172758 0.99995148 9.0569571e-05
0.19365828 0.14442049 -0.46771219 -0.34413469 -0.27045238 0.89912558 0.080036528
-0.46674374 0.15477945 -0.46660128 0.67390549 -0.40568563 0.61747116 0.092629388
-0.44824284 0.15786591 -0.46771216 0.30378327 -0.22017753 0.92695069 0.087784
-0.43710303 0.151509 -0.46771216 0.0066367071 0.00033187002 0.99997789 0
-0.42403829 0.15621147 -0.46771222 0.00022774849 -8.3379869e-05 1 0
-0.41635728 0.15539612 -0.46771219 0.00014522027 -9.8606564e-05 1 0
-0.40562683 0.15644738 -0.46771222 0.00014964669 -0.0001355069 1 0
-0.39533323 0.15283954 -0.46771219 0.00012416318 -1.3058575e-05 1 0
-0.38309342 0.15406527 -0.46771219 0.00025880837 -3.160334e-05 0.99999994 0
-0.37710661 0.15137127 -0.46771222 0.00014014491 -1.1076906e-05 1 0
-0.3643364 0.15240237 -0.46771219 0.00014906185 -0.00015178628 1 0
-0.35890806 0.15185748 -0.46771216 0.00012192976 -9.9236902e-05 1 0
-0.34558761 0.15576787 -0.46771216 0.00021432203 -8.2441467e-05 1 0
-0.33604267 0.15743428 -0.46771216 0.00017158684 -9.4289775e-05 1 0
-0.32234201 0.1506355 -0.46771216 0.00021060772 -0.00018509731 1 0
-0.31514025 0.15304604 -0.46771216 0.00017570167 -4.3105611e-05 1 0
-0.30765548 0.15415683 -0.46771216 0.000190397 -3.1775195e-05 1 0
-0.29484442 0.15210631 -0.46771222 0.00011093062 -0.00011453284 1 0
-0.28311133 0.15174182 -0.46771222 6.1612438e-05 -2.9322489e-05 1 0
-0.27470341 0.15661736 -0.46771216 0.00013375031 -2.3763936e-05 1 0
-0.26458877 0.15333922 -0.46771216 0.00020322822 -6.1887316e-05 0.99999994 0
-0.25824124 0.15038516 -0.46771219 0.00022672041 -5.2526982e-05 0.99999994 0
-0.23548967 0.15343268 -0.46771219 0.00017451841 -0.00014701483 1 0
-0.22187038 0.15702206 -0.46771216 9.626131e-06 -5.9644084e-05 1 0
-0.21402384 0.1549321 -0.46771219 8.3494408e-05 -7.2085088e-05 1 0
-0.20533752 0.1578472 -0.46771216 0.00012218891 -5.7030546e-05 1 0
-0.18609706 0.155352 -0.46771222 0.00013297399 -5.0064875e-05 1 0
-0.17509779 0.15411539 -0.46771216 0.00015576169 -2.4588482e-05 1 0
-0.16368571 0.15434016 -0.46771222 2.8648736e-05 -5.2356751e-05 1 0
-0.15561226 0.15467021 -0.46771222 6.998203e-05 -5.3513089e-05 1 0
-0.13196346 0.15747769 -0.46771219 5.6742323e-05 -6.5123342e-05 1 0
-0.12262861 0.15466119 -0.46771219 0.00015755607 -0.00010161148 1 0
-0.11945125 0.15671976 -0.46771216 8.586239e-05 -5.7548707e-05 1 0
-0.08251249 0.15658391 -0.46771222 4.193872e-06 -8.2511644e-05 1 0
-0.070686303 0.15371701 -0.46771216 4.5460387e-05 -3.665602e-05 1 0
-0.065634795 0.15927792 -0.46771222 1.8228071e-05 -6.0565897e-05 1 0
-0.057254717 0.15125591 -0.46771222 3.955853e-05 -5.7221467e-05 1 0
-0.047856309 0.15585041 -0.46771222 2.1445798e-05 -8.2154678e-05 1 0
-0.037811987 0.15719414 -0.46771222 2.6663818e-06 -8.7185465e-05 1 0
-0.023526058 0.15383875 -0.46771216 1.1614005e-05 -6.933634e-05 1 0
-0.010165416 0.15927233 -0.46771216 -1.454955e-05 -0.0001161943 1 0
-0.0010026321 0.15224208 -0.46771222 1.3837929e-05 -5.8662146e-05 1 0
0.00040307641 0.15145957 -0.46771219 1.1735788e-05 -9.6520889e-05 1 0
0.019182961 0.15322864 -0.46771216 -1.2447496e-05 -8.6982167e-05 1 0
0.026956739 0.15489116 -0.46771219 -1.6662287e-05 -3.0534953e-05 1 0
0.031684492 0.15459876 -0.46771219 -2.0481377e-05 -5.8117635e-05 1 0
0.044351835 0.15702935 -0.46771216 7.0369964e-07 -0.0001264944 1 0
0.052132949 0.15187223 -0.46771219 -5.2287819e-06 -0.00010838693 1 0
0.064618103 0.15522863 -0.46771216 -5.4902453e-06 -7.0733295e-05 1 0
0.076516651 0.15479001 -0.46771219 -5.6776211e-05 -0.00012589747 1 0
0.10445397 0.15895627 -0.46771219 -6.7582856e-05 -8.6944514e-05 1 0
0.11649393 0.15274912 -0.46771216 -4.5378863e-05 -7.8138663e-05 1 0
0.12398107 0.1569714 -0.46771222 -0.00010702466 -0.000113693 1 0
0.13895023 0.15524083 -0.46771222 -5.4777589e-05 -0.000116736 1 0
0.15660918 0.15850314 -0.46771219 -3.2042717e-05 -2.6611386e-05 1 0
0.16592911 0.15529034 -0.46771222 -2.2830223e-05 -8.5027525e-05 1 0
0.17798603 0.15023838 -0.46771219 -0.080145091 -0.049695868 0.9955436 0.017656544
0.18293673 0.15247783 -0.46771216 -0.2045293 -0.085524879 0.97511703 0.042365517
0.19691715 0.15412599 -0.46771222 -0.561243 -0.33011907 0.7589649 0.092481747
0.20331424 0.15005413 -0.46771219 -0.68086278 -0.37905952 0.62668943 0.069250941
-0.46088094 0.16535094 -0.46771216 0.73966789 -0.42010143 0.52574354 0.095677167
-0.45329368 0.16491975 -0.46771216 0.69438785 -0.31548765 0.64675575 0.10391993
-0.44762009 0.16905323 -0.46771216 0.44350994 -0.19495964 0.87480837 0.10411604
-0.42217448 0.16449177 -0.46771219 0.002504251 -0.0020017724 0.99999481 0
-0.40864211 0.16202471 -0.46771216 0.00027464959 -0.0001108313 0.99999994 0
-0.39938825 0.16532415 -0.46771216 0.00033375612 -1.2933719e-05 0.99999994 0
-0.38439286 0.16452876 -0.46771222 0.00026849078 -9.6683005e-05 1 0
-0.37533256 0.16426285 -0.46771216 0.00026263323 -8.8520428e-05 1 0
-0.36256933 0.16779122 -0.46771219 0.00026995092 -0.00025594048 0.99999994 0
-0.3424153 0.16278791 -0.46771216 0.00023632216 -0.00015651459 0.99999994 0
-0.33443975 0.16920108 -0.46771222 0.00012297285 -0.00010152307 1 0
-0.32741249 0.16449146 -0.46771216 0.00036644601 -6.9738009e-05 0.99999994 0
-0.31287619 0.16481601 -0.46771216 0.00019644345 -0.00010606865 1 0
-0.29690123 0.16932516 -0.46771219 0.00023547353 -8.6439468e-05 1 0
-0.27748063 0.16817063 -0.46771219 0.00014139012 -8.8290311e-05 1 0
-0.26795277 0.16314837 -0.46771219 0.00020822595 -0.00016864708 0.99999994 0
-0.25304514 0.16725495 -0.46771222 0.00021691711 1.110696e-05 0.99999994 0
-0.24292473 0.16953422 -0.46771216 0.00014453105 -4.8415615e-05 1 0
-0.22433431 0.16491309 -0.46771219 5.8645186e-05 -9.1722257e-05 1 0
-0.21287152 0.1682823 -0.46771222 0.00019477018 -0.00017750448 1 0
-0.20590341 0.1681606 -0.46771219 3.9475572e-06 -7.7014825e-05 1 0
-0.1903363 0.16206978 -0.46771219 0.00024537597 -7.2947325e-05 1 0
-0.18373467 0.1665491 -0.46771222 7.7717617e-05 -0.00016577063 1 0
-0.16611573 0.16358724 -0.46771222 7.5454256e-05 -7.7626886e-05 1 0
-0.15481105 0.16259779 -0.46771222 2.6188547e-05 -9.6791213e-05 1 0
-0.14326629 0.16763024 -0.46771222 9.3943396e-05 -9.2176531e-05 1 0
-0.10171926 0.16393779 -0.46771216 0.0001006607 -7.1800445e-05 1 0
-0.093817316 0.16712953 -0.46771216 3.3681754e-05 -9.5519863e-05 1 0
-0.084536061 0.16461945 -0.46771219 4.3119722e-05 -0.00010335603 1 0
-0.06528639 0.16843833 -0.46771225 3.6303558e-05 -0.0001486812 1 0
-0.050987568 0.1614721 -0.46771216 1.1058705e-06 -3.0777261e-05 1 0
-0.044102859 0.16574658 -0.46771219 4.0138435e-05 -7.384707e-05 1 0
-0.03411372 0.1669066 -0.46771222 2.2678967e-05 -7.1012102e-05 1 0
-0.028973449 0.16594727 -0.46771216 2.5987503e-05 -0.00011695758 1 0
-0.012689441 0.16871306 -0.46771222 -1.5425345e-05 -0.00011644496 1 0
-0.0062142489 0.16778141 -0.46771222 -1.4496195e-06 -8.4157946e-05 1 0
0.0085523054 0.1699993 -0.46771222 -1.8004255e-05 -0.00015309495 1 0
0.012256769 0.16576114 -0.46771216 -1.7197894e-05 -6.403865e-05 1 0
0.024059778 0.16537644 -0.46771222 -1.3477371e-05 -0.00010684341 1 0
0.030066671 0.16442111 -0.46771216 -4.3018001e-05 -7.8800316e-05 1 0
0.043611534 0.16296747 -0.46771219 -2.4411132e-05 -0.00013476428 1 0
0.056435145 0.16547562 -0.46771222 -2.0902911e-05 -6.9234055e-05 1 0
0.066315867 0.16407128 -0.46771216 -5.1598479e-05 -9.5147705e-05 1 0
0.10210735 0.16764893 -0.46771219 -5.426912e-05 -6.7248991e-05 1 0
