# .PCD v0.7 - Point Cloud Data file format
VERSION 0.7
FIELDS x y z normal_x normal_y normal_z curvature
SIZE 4 4 4 4 4 4 4
TYPE F F F F F F F
COUNT 1 1 1 1 1 1 1
WIDTH 586
HEIGHT 1
VIEWPOINT 0 0 0 1 0 0 0
POINTS 586
DATA ascii
-0.2711215 0.18320021 0.21596083 0.70919889 -0.70499426 0.0044631446 0.002306731
-0.26535696 0.18805259 0.21365736 0.64256448 -0.76606774 -0.015847607 0.0020248021
-0.028011138 0.18085843 0.21968806 0.086764947 -0.99622881 -3.467612e-06 6.9384873e-06
-0.013875032 0.1820896 0.21848473 0.084530264 -0.99642086 0.00027003794 1.2357179e-06
-0.0058762641 0.18278623 0.21669421 0.075737543 -0.99712783 0.00015053425 5.64113e-05
0.013851036 0.18420886 0.21959642 -0.033311803 -0.99944115 0.0027772787 0.0020126691
0.026687799 0.18194018 0.21903229 -0.14649117 -0.98921192 -0.00024883787 0.00070565898
0.26784331 0.18300316 0.21643092 -0.63672352 -0.77109212 -8.5359306e-06 0
-0.26099676 0.19115755 0.21687542 0.62757403 -0.77853519 -0.0058140061 0.0020872175
-0.25556949 0.1950224 0.21594271 0.60285532 -0.79785037 -0.00058048323 0.0010045463
-0.24592847 0.20188789 0.21768287 0.58006555 -0.81456977 1.9153742e-06 0
-0.2383371 0.20729384 0.21976227 0.58007145 -0.8145656 2.6464921e-05 4.7412224e-05
0.2377307 0.20786566 0.21512519 -0.63676137 -0.77106088 3.8669736e-05 0
0.24368256 0.20295152 0.21418351 -0.63676447 -0.77105838 -2.6542573e-05 0
-0.2290376 0.21391612 0.21752954 0.58011883 -0.8145318 -3.0899025e-06 0
0.22517325 0.21823372 0.21284664 -0.62704062 -0.77898395 0.0019851883 0.00027451021
-0.21326679 0.22514674 0.21028832 0.58007342 -0.81456417 -2.6176995e-06 3.1588948e-05
0.2183369 0.22387818 0.2146171 -0.60342324 -0.79735428 0.010322439 0.00074681663
0.22206405 0.22080085 0.21356739 -0.608868 -0.79324222 0.0068278383 0.00073267159
-0.19663657 0.23698935 0.21626064 0.54566151 -0.83799046 0.0050440845 0.0007907034
0.19086927 0.23952059 0.21369126 -0.41870221 -0.90812343 0.00048254212 2.4140798e-05
0.20342159 0.23378831 0.21759659 -0.49529994 -0.86869782 0.006475802 0.0017804631
-0.18443544 0.2449789 0.21500753 0.47323072 -0.8809312 0.0035930467 0.0019959453
-0.17508334 0.24881016 0.2173737 0.41425163 -0.91011178 -0.0096012708 0.001665168
0.17549676 0.24654078 0.21584731 -0.41543096 -0.90962476 1.6465339e-05 1.3150679e-05
0.18032007 0.24433811 0.21588773 -0.41541007 -0.90963423 2.2188355e-05 9.7519696e-06
-0.16408868 0.25291109 0.21147358 0.35444981 -0.93507349 0.0017079156 2.3768845e-05
0.1469385 0.25958252 0.21486421 -0.41543686 -0.90962201 4.8958002e-05 1.4532515e-05
0.15611753 0.25539073 0.21356493 -0.41541386 -0.90963256 7.4080439e-05 2.7042064e-05
0.16280402 0.25233719 0.21411002 -0.41541737 -0.90963095 -5.060402e-05 1.3857437e-05
-0.13044131 0.26546136 0.21512677 0.3494845 -0.9369421 -1.3719078e-05 1.2296528e-05
-0.12479334 0.26756799 0.21086681 0.34947711 -0.9369449 4.7822996e-05 7.098374e-05
0.12758647 0.26842004 0.2150124 -0.3806164 -0.9246856 -0.0093613155 0.00063784822
0.13855705 0.26341009 0.21461755 -0.41545236 -0.90961498 1.6007193e-06 0
0.1432181 0.26128149 0.21666138 -0.41545421 -0.90961409 -2.5961157e-05 3.0429953e-06
-0.11405749 0.27157241 0.21622893 0.34946099 -0.93695086 4.9064594e-05 2.2082553e-05
-0.096469797 0.2781325 0.21544868 0.27527556 -0.96123701 0.015709782 0.0013778444
0.078742631 0.27998161 0.21764131 -0.16582617 -0.98615497 -3.8163093e-05 0
-0.0839798 0.28147963 0.21863624 0.18018797 -0.98362654 -0.0033256288 0.0022582498
-0.075135991 0.28232422 0.21735334 0.1333923 -0.99102157 -0.0090973284 0.00090437272
-0.066491336 0.28314978 0.21631823 0.095962159 -0.99538493 -0.00031060996 0
-0.056352548 0.28411803 0.21909568 0.095077351 -0.99546987 6.1242959e-06 0
-0.04460375 0.28524005 0.21768513 0.095063202 -0.99547124 -4.3220814e-05 0
-0.03445895 0.28620887 0.21692315 0.095075749 -0.99547005 1.9397252e-05 2.8880924e-05
-0.028906949 0.28673911 0.21623623 0.095064305 -0.99547112 2.187266e-05 0
-0.016238244 0.28794894 0.21487498 0.095075779 -0.99547005 -8.895252e-06 2.5280951e-05
0.0035593894 0.28983963 0.21444091 0.041682657 -0.99910468 -0.007238681 0.00092760444
0.027065028 0.28867102 0.21688879 -0.13041729 -0.99141663 0.0091849202 0.0006818666
0.044550989 0.28573081 0.21551108 -0.16582733 -0.98615485 -1.0822607e-05 0
0.054231018 0.28410316 0.21527202 -0.16580054 -0.98615932 -6.1967643e-05 0
0.06588909 0.28214288 0.21835673 -0.16583839 -0.98615295 -5.354701e-05 0
0.074512854 0.28069282 0.2180922 -0.16582207 -0.98615569 -5.7736852e-05 0
0.20804764 0.30948213 0.21732292 -0.18711664 -0.93636346 0.29700327 0.036598533
0.21368709 0.30823484 0.21898161 -0.070011817 -0.94156986 0.32946092 0.061807901
0.22038041 0.30524111 0.21486488 0.093264401 -0.96357614 0.25064498 0.073760517
0.17435652 0.31821707 0.21257454 -0.74102497 -0.65493739 0.14811826 0.087453365
0.19503063 0.31254005 0.21421395 -0.28880274 -0.90774763 0.30428129 0.010389621
0.20445436 0.31062293 0.2176576 -0.2935769 -0.90179831 0.31713134 0.017577384
0.235176 0.31656119 0.2147446 -0.86775386 0.47609547 -0.14260535 0.055326067
0.17271565 0.33464301 0.21373433 -0.9851864 0.063828371 0.15916568 0.05098724
0.17601162 0.3458418 0.21763781 0.90633208 -0.3157379 -0.2808412 0.064390056
0.24375777 0.34571961 0.21693119 -0.83711523 0.048616268 -0.54486197 0.099627428
0.178496 0.35428298 0.21417224 0.90450919 -0.3097541 -0.29311341 0.063094556
0.24642751 0.35479054 0.21488057 -0.92508399 0.065551013 -0.37406248 0.083357945
0.18257824 0.36815324 0.21375349 0.7638309 -0.42398846 -0.48661709 0.080231406
0.24721195 0.36552453 0.215349 -0.73214769 -0.22061755 -0.64442819 0.089662567
0.18404093 0.37312305 0.21588613 0.68783998 -0.46546733 -0.5569706 0.083663799
0.23208061 0.37304962 0.21676309 -0.3048752 -0.37879467 -0.87382245 0.02923391
0.24579366 0.37259623 0.2142735 -0.68921751 -0.30378798 -0.6577934 0.097439349
0.25116757 0.37712413 0.21002804 -0.76652366 -0.26307616 -0.58586031 0.099978767
0.18758929 0.38517928 0.2126656 0.74754727 -0.42951572 -0.50664526 0.08562246
0.19887337 0.38078111 0.218182 0.12821387 -0.50038463 -0.85625726 0.027235683
0.21102791 0.38311863 0.21407184 -0.026498782 -0.52488279 -0.85076195 0.010980094
0.22314668 0.38306251 0.21163231 -0.15684073 -0.52540964 -0.8362689 0.0011045634
0.19772241 0.39129668 0.21111013 0.25559306 -0.58949989 -0.76626503 0.053266756
0.20516956 0.39020541 0.21034536 0.095471486 -0.5983485 -0.79552764 0.047710542
-0.04029651 -0.49559817 0.22984765 0.16585693 0.98614979 4.7235011e-05 3.6661295e-05
-0.030014236 -0.49732712 0.22095375 0.13924311 0.990233 -0.0070713279 0.00073532626
-0.028114684 -0.49764654 0.22306877 0.13492031 0.99083143 -0.0070478311 0.00079420448
0.0029630263 -0.49836877 0.2236174 -0.074549466 0.99721152 0.0034065312 0.00039557941
0.015894713 -0.49713379 0.22461993 -0.095064685 0.99547112 -7.0877635e-05 0
0.038840491 -0.49494246 0.22389635 -0.095039517 0.9954735 -6.7751702e-05 0
0.041110914 -0.49472564 0.22592363 -0.095097259 0.99546796 3.2985121e-05 4.1945801e-05
0.056043092 -0.4932996 0.22866514 -0.095084272 0.99546921 8.2029095e-05 0.00014611705
0.064346254 -0.49250668 0.22552893 -0.096607581 0.99532241 0.00056085648 0
0.082372263 -0.49078518 0.22621605 -0.1676961 0.98583698 -0.0018463695 0.0033164066
-0.11533049 -0.48257133 0.22424521 0.2907097 0.95680416 -0.0037025146 0.0019317771
-0.1073922 -0.48431626 0.22866613 0.2422106 0.9702 -0.0067855068 0.0015231839
-0.083091788 -0.48840231 0.22285682 0.16580966 0.98615777 4.0325587e-05 8.4758132e-05
-0.076099195 -0.4895781 0.22631006 0.16581851 0.98615628 3.7559228e-05 4.4747536e-05
0.089918524 -0.48972815 0.2250987 -0.23458198 0.9720962 0.00048528728 0.0030136823
0.10815633 -0.48292553 0.22636992 -0.33779782 0.9412185 0.00067454792 0.00011800637
-0.14370206 -0.47021252 0.22334906 0.4153437 0.90966463 -4.2221789e-05 1.0250114e-06
0.12543896 -0.47647923 0.22975478 -0.349437 0.93695986 3.9419705e-05 4.2291329e-05
0.13185012 -0.47408792 0.22489209 -0.34953383 0.93692374 2.1927419e-05 0
-0.15157731 -0.46661612 0.22476295 0.41543156 0.90962446 4.4289744e-05 0
0.14716709 -0.46837479 0.22590646 -0.34953186 0.93692446 0.00012067753 8.6998873e-05
0.1516307 -0.46670988 0.22055808 -0.34953538 0.93692321 8.3416875e-05 5.8195714e-05
0.16723627 -0.4608891 0.22389105 -0.36009264 0.93290555 0.0045326562 0.00014825779
-0.17296906 -0.45684716 0.22278957 0.41541916 0.90963006 -1.7790129e-05 0
0.17213309 -0.45906264 0.22568753 -0.38720265 0.92199332 -0.0015291465 0.0010781153
0.18469495 -0.45400682 0.22284701 -0.47312063 0.88068295 -0.023548085 0.0023913635
-0.20841317 -0.44066083 0.22092377 0.51062548 0.85972911 -0.01129362 0.0020652607
-0.19827656 -0.44528994 0.22174072 0.45298705 0.89151675 -0.00080614141 0.0011493849
0.19627503 -0.44639879 0.2243039 -0.549568 0.8354373 -0.0044143307 0.0011749028
0.20163223 -0.44258386 0.22569814 -0.5732035 0.81941307 -0.00023472826 2.5782256e-05
0.20820248 -0.4379051 0.22527461 -0.5754863 0.81781125 0.00042013003 9.7438206e-05
0.21570145 -0.432565 0.22587678 -0.58007592 0.81456244 4.7524623e-05 0.00010426727
0.23239586 -0.42067668 0.22066727 -0.58016402 0.81449968 3.4271513e-06 0
-0.24606229 -0.41013867 0.22573927 0.63670176 0.77111006 -2.3888822e-05 8.4539679e-05
0.24094236 -0.41459063 0.22944541 -0.58023703 0.81444764 4.2472388e-05 0.00015887155
-0.25430873 -0.40333003 0.22472909 0.63683277 0.77100194 -8.7245207e-05 0
-0.24672799 -0.40958905 0.22841606 0.63671947 0.77109557 -1.3207004e-05 2.5241303e-05
-0.26450244 -0.39491358 0.22543748 0.63675654 0.771065 6.5421009e-05 0
-0.25861999 -0.39977041 0.22674289 0.63670564 0.77110702 -3.7247504e-05 0.00012673135
-0.02380139 -0.39160231 0.22525652 0.12865156 0.9916603 -0.0076652952 0.0015049243
-0.014224987 -0.39329478 0.2239916 0.074815109 0.99719542 0.0020148314 0.0025384955
0.26784548 -0.3954325 0.22863528 -0.68508691 0.72718769 -0.043057233 0.0029890018
0.27038518 -0.39324409 0.22818527 -0.70039463 0.71273476 -0.038164534 0.0027448451
-0.27095449 -0.38958639 0.22714159 0.64378607 0.76520503 0.00085593137 0.00011148865
-0.077830955 -0.38205355 0.22460076 0.2452191 0.96938008 -0.013031856 0.0015561139
-0.050689913 -0.38685024 0.22240394 0.17405427 0.98473603 3.2026859e-05 0
-0.044916674 -0.38787055 0.22344324 0.17406274 0.98473459 -2.2181392e-05 0
-0.034241527 -0.38975725 0.22558737 0.17113432 0.98524767 0.00031171113 0
0.029893693 -0.3898465 0.22550619 -0.086781956 0.99622738 -5.0993076e-06 0
0.037214369 -0.38920891 0.22216946 -0.091894425 0.99576879 -8.1431586e-05 5.7801255e-05
0.066973142 -0.38537982 0.22691104 -0.25445741 0.96693444 0.017007949 0.0016729356
0.073737174 -0.38292092 0.22658986 -0.29789591 0.95447403 0.015403878 0.00084150489
0.27626252 -0.38612565 0.22588728 -0.75141388 0.65981162 0.005087377 0.0011996828
0.28072691 -0.38071856 0.2226932 -0.76532096 0.64364868 0.00042801688 0.00011141026
-0.2920481 -0.37074816 0.22587213 0.74012846 0.67246509 -0.00085207575 0.0020701149
-0.10671378 -0.37125751 0.22590545 0.42297444 0.90614164 -4.2614691e-05 0
-0.096349806 -0.37609529 0.22465786 0.3791835 0.92531818 0.0024970633 0.00072270993
0.083899587 -0.37922662 0.22813588 -0.34168333 0.93981516 -1.8741914e-05 5.4292363e-05
0.091309957 -0.37653276 0.22757587 -0.34169006 0.93981272 6.843498e-05 7.691951e-05
0.10484471 -0.37161255 0.22793801 -0.34165004 0.93982732 4.0515428e-05 4.8616013e-05
0.28528783 -0.37519446 0.22746788 -0.76780748 0.64068037 -0.00062504609 0
-0.13027993 -0.36025718 0.22854392 0.42300594 0.90612692 5.9715308e-06 7.8321726e-05
-0.12145868 -0.36437482 0.22122541 0.42297778 0.90614009 -7.9878489e-05 0
-0.11744229 -0.36624959 0.22400419 0.42288429 0.90618366 -0.00016421836 0
0.11351002 -0.36846247 0.22546418 -0.34493932 0.93862462 -0.00070979662 1.8504097e-05
0.12825562 -0.36310205 0.22731179 -0.42705119 0.90421945 -0.0038055487 0.002357448
0.13143666 -0.36194569 0.22947858 -0.44459683 0.89572757 0.0023888813 0.0024084509
0.2948488 -0.3636145 0.22496241 -0.77116591 0.63663423 -5.9441674e-05 6.8521617e-06
-0.29975554 -0.35992479 0.22187211 0.80761975 0.58968544 -0.0046380092 0.00030931985
-0.15038282 -0.35087341 0.22657105 0.4867222 0.87354517 0.0045153522 0.0016584588
-0.14704826 -0.35242993 0.22929081 0.46467257 0.8853848 0.013156664 0.0011606229
0.14551321 -0.35277945 0.22251329 -0.54216868 0.8402645 -0.0029467212 0.00077301339
0.30378377 -0.3527928 0.22314444 -0.77112985 0.63667798 2.6755504e-05 0
-0.31166011 -0.34320757 0.22745746 0.81452334 0.58013088 -1.3075607e-05 7.5038156e-06
-0.1621448 -0.34291101 0.22596341 0.58676416 0.80971777 0.0080569638 0.00089994597
0.16152403 -0.34157795 0.22163498 -0.5732953 0.81934887 4.7868849e-05 5.6057401e-05
0.31372207 -0.34075588 0.22209658 -0.77115768 0.63664424 9.9645813e-06 4.0226023e-05
-0.3180919 -0.33417559 0.22407801 0.81455415 0.58008754 7.6644581e-05 0
-0.17430879 -0.33269602 0.22474483 0.64311892 0.7657662 4.4454009e-06 0
-0.16632596 -0.33939976 0.22001585 0.59465188 0.80395997 0.0061294804 0.00083747884
-0.32634217 -0.32258999 0.22544768 0.81449348 0.58017272 -7.2484836e-05 0
0.17906095 -0.32930872 0.22690447 -0.59476984 0.80385929 -0.0076884637 0.00038131577
0.1825951 -0.32683617 0.22735238 -0.60331279 0.7974267 -0.011149834 0.00069255655
0.19097203 -0.32097551 0.22004625 -0.64869595 0.7610411 -0.003146786 0.0013557757
0.33042896 -0.32052103 0.22626287 -0.80512577 0.59302843 0.0094705904 0.0010828645
-0.33209345 -0.31451368 0.2231524 0.81454057 0.58010668 3.2568238e-05 1.6212276e-05
0.19746283 -0.31539145 0.22672319 -0.68498802 0.72846359 0.011502579 0.002448299
0.20016013 -0.31217948 0.2299729 -0.71570301 0.69838136 0.0057267849 0.0023555579
0.33498153 -0.31500715 0.22145547 -0.83532697 0.5492655 0.023160437 0.0019733945
-0.33967081 -0.303873 0.22333452 0.83247507 0.55405438 0.003000051 0.00069625617
-0.21249804 -0.30062586 0.22781131 0.74373049 0.66832894 -0.014195534 0.0020651508
0.20313036 -0.30864251 0.2296728 -0.72339034 0.69042605 0.0042642071 0.0020379701
0.33911791 -0.3063474 0.22110741 -0.89442313 0.44714046 -0.0085226148 0.00097147078
-0.34486815 -0.2965745 0.22574827 0.87314612 0.48710829 0.018477269 0.0017503243
-0.21698706 -0.29470819 0.22080597 0.78033203 0.62534052 0.0055753863 0.0012578928
0.21496907 -0.29454497 0.22363958 -0.76579481 0.64308494 -1.3554119e-05 0
-0.22570786 -0.28224319 0.2232205 0.81819177 0.57494503 -0.00050687999 3.8530401e-05
0.2191484 -0.28956822 0.22744955 -0.76578164 0.64310056 -2.4027899e-05 0
0.34925225 -0.28415567 0.22626403 -0.90963703 0.41540384 -4.7378991e-05 8.4299254e-06
-0.35346386 -0.27945107 0.22254072 0.9104926 0.41346228 -0.0072215707 0.0011961765
-0.23022018 -0.27579349 0.22179188 0.8193779 0.57325369 1.3763457e-05 7.114555e-06
0.22865589 -0.27824667 0.22460417 -0.7694515 0.63869697 0.0032651189 0.00010224713
0.23134667 -0.27504253 0.22378573 -0.7711798 0.63658875 0.0060379244 7.6370496e-05
-0.35703725 -0.26987067 0.22682592 0.92908567 0.3698445 -0.0038396539 0.00027286584
0.23563102 -0.26994064 0.22186057 -0.79871875 0.60155231 0.013529424 0.0013278137
-0.24792325 -0.25048977 0.22097653 0.84841359 0.52926248 -0.0086923568 0.0011053258
0.24860854 -0.25000769 0.22768795 -0.88159937 0.47192749 -0.0081865843 0.0011665077
0.36303532 -0.25397405 0.22837208 -0.90961736 0.41544703 -2.2279122e-05 0
-0.36579758 -0.24638416 0.22849298 0.93691194 0.34956542 -2.3209439e-05 0
0.24929538 -0.24853626 0.22519772 -0.88838869 0.45908394 -0.0027529669 0.00075355062
0.2521286 -0.24246661 0.22795613 -0.89757782 0.44084746 -0.0027518668 0.00034697779
-0.37185723 -0.2301382 0.22043286 0.93691105 0.34956795 -5.7921348e-05 0
-0.25720915 -0.23563047 0.22406 0.8961916 0.44366685 -0.00053539308 0.0022947385
0.25683916 -0.23237519 0.22225833 -0.90612572 0.42300835 -5.197123e-05 0
-0.3737762 -0.22499339 0.2261124 0.93693674 0.34949896 -3.9141878e-06 6.9616812e-07
-0.26063144 -0.22704005 0.22141895 0.92259604 0.3857643 0.0016126285 0.0015792326
0.25963345 -0.2263889 0.22984874 -0.90613538 0.42298788 4.0539721e-06 0
0.37831858 -0.22042352 0.22190584 -0.96229994 0.27184317 0.0089494688 0.0020963063
-0.26565349 -0.21322523 0.224196 0.93928808 0.34312952 -0.00024748011 2.3971033e-05
0.2657539 -0.21327706 0.22415422 -0.9090603 0.41666457 -0.00025668408 7.3398383e-05
-0.3804425 -0.20712104 0.22389141 0.94967866 0.31316751 0.0060487743 0.00142717
-0.2681016 -0.20649083 0.22570699 0.93982577 0.34165415 9.3317249e-06 2.5157772e-06
0.38062578 -0.20670201 0.22890529 -0.97874361 0.20493403 -0.0079401974 0.00082382286
-0.38358375 -0.19869933 0.22138919 0.96679729 0.25551358 0.0039702798 0.0026401307
-0.2715939 -0.19688413 0.22564602 0.93984509 0.34160092 6.0333972e-05 2.1031352e-05
0.38320655 -0.19135372 0.22859988 -0.98615819 0.16580662 1.7420882e-05 0
-0.3860015 -0.18912293 0.22453046 0.9865613 0.16338591 0.0013722192 0.0012121248
-0.27493811 -0.18768473 0.22786036 0.9430638 0.33260193 0.0025805037 6.8442983e-05
0.27618849 -0.18970098 0.2258532 -0.95524567 0.29580778 0.0018551119 0.0024582159
0.38427645 -0.1849907 0.22361985 -0.98615116 0.16584896 -8.7488304e-05 0
-0.38688603 -0.17986076 0.22472796 0.98905158 0.14754763 -0.0025504853 0.0012874828
-0.27824801 -0.17857966 0.22814904 0.95004719 0.31209904 0.0021236259 0.00070060731
0.27841747 -0.17708871 0.22621968 -0.98013896 0.19831166 -0.0002703006 0.00036355722
-0.38824955 -0.16558285 0.22570565 0.9953441 0.09638451 0.00036743507 0
-0.28257701 -0.16539638 0.22034532 0.98115689 0.19310291 -0.0065069427 0.002110668
0.28071395 -0.16409482 0.22738664 -0.9847337 0.17406766 3.7694987e-05 0
0.38789141 -0.16349199 0.22011915 -0.98615968 0.16579822 6.3253399e-05 9.8947246e-05
-0.38928598 -0.15473053 0.22550395 0.99547255 0.095049135 -3.0447211e-06 3.5492452e-05
0.28221422 -0.15560576 0.22212936 -0.9847402 0.17403108 -1.4943402e-05 7.4082891e-06
0.38978705 -0.15221798 0.2272729 -0.98615831 0.16580656 -3.2624601e-05 0
-0.28405029 -0.14848013 0.22516683 0.99614346 0.087731943 -0.0012119601 3.5609115e-05
0.39098907 -0.14506926 0.22332954 -0.98614568 0.1658815 2.1117594e-05 0
-0.39089268 -0.13790599 0.22406289 0.99547386 0.095035583 3.4844605e-05 7.5083808e-05
-0.28497976 -0.13780785 0.22115803 0.9962247 0.086812139 6.6230709e-06 0
0.39283606 -0.13408506 0.2267414 -0.99144316 0.13052672 0.0018156556 0.00091451319
-0.28650662 -0.12027636 0.22359142 0.99623203 0.086728141 0.00014017591 2.8567842e-05
0.2882956 -0.12119566 0.22427191 -0.99724609 0.073229216 -0.011734755 0.0019539483
0.39380497 -0.12832274 0.22341514 -0.99627477 0.086076379 0.0052379076 0.0021217747
-0.39303297 -0.11549463 0.22314093 0.99591076 0.090342626 0.00013020734 9.6500284e-05
-0.28709531 -0.11351694 0.22574808 0.99737906 0.072223261 0.0043259761 0.00034470161
0.3946937 -0.11104722 0.22881497 -0.99967033 -0.025057869 0.0056050285 0.0017057668
-0.39375699 -0.10791337 0.22136584 0.99726057 0.073929675 0.0023967153 0.00027990082
-0.28797191 -0.10345192 0.22907673 0.99965811 0.020484246 0.016251327 0.00096931058
0.28813717 -0.10759717 0.22228621 -0.99945283 -0.024488118 -0.022235962 0.001202433
0.39396203 -0.10338555 0.22650269 -0.998667 -0.051316608 -0.0055418899 0.00084487157
-0.39495778 -0.095339566 0.22156602 0.99966025 0.0094355596 -0.02429885 0.001942616
-0.28877661 -0.094212383 0.228489 0.99948895 -0.029952969 0.011164506 0.0019751813
0.28681284 -0.092391178 0.22380002 -0.99683309 -0.079513915 -0.0011815403 0.00010677866
0.39314938 -0.094876274 0.22514442 -0.99557006 -0.094022229 -0.00037842224 6.8482979e-05
-0.39490759 -0.087386698 0.22724941 0.99953365 -0.014096141 -0.027089784 0.0018707142
-0.28765339 -0.084322646 0.22350527 0.99756622 -0.069722876 -0.00052594452 0.001889723
0.39200246 -0.082866617 0.22985588 -0.99547058 -0.095070295 5.4097807e-05 6.8398316e-05
-0.39292091 -0.075571552 0.22576343 0.98855799 -0.15082967 0.001875855 0.00025498323
-0.28641623 -0.077322572 0.22430947 0.99264681 -0.12096883 0.0043522343 0.0010527053
0.28565741 -0.07912422 0.22994202 -0.99622762 -0.086778849 3.4980389e-05 2.1827958e-05
0.38999426 -0.061838195 0.22797292 -0.99546874 -0.095089361 3.3906643e-05 5.108814e-05
-0.38884374 -0.051323954 0.22346058 0.98615068 -0.16585165 -2.3331804e-05 5.8674243e-05
-0.28252533 -0.055306833 0.22528934 0.98474216 -0.17401956 -3.0947118e-05 8.3462719e-06
0.38968101 -0.058558185 0.22000802 -0.99547058 -0.095069423 9.7283133e-05 7.4625859e-05
0.28278223 -0.046111703 0.22671056 -0.97737706 -0.21146034 -0.0043217572 0.0025940873
0.38809168 -0.041915976 0.22414538 -0.99527031 -0.097144105 -0.00014296467 0
-0.38611811 -0.035114206 0.2249167 0.98615426 -0.16583058 2.9108949e-06 1.9922161e-05
-0.27924675 -0.036755674 0.22745965 0.9816618 -0.19052319 -0.0064094472 0.00043089862
0.27835315 -0.03086145 0.22950324 -0.950737 -0.30980691 -0.010898714 0.00084258791
0.28100941 -0.038168401 0.22606866 -0.9720915 -0.23445697 -0.0082538333 0.0022364915
0.38760766 -0.036847629 0.22262439 -0.99360126 -0.11294451 0.00018045651 0.00043408305
-0.38397786 -0.022385623 0.22560833 0.98615658 -0.16581635 4.7042423e-07 0
-0.27658868 -0.02171557 0.22583747 0.95963138 -0.28126061 -0.00010503321 0.0019493641
0.2771661 -0.027596038 0.22352707 -0.94469637 -0.32784456 -0.0081690345 0.00029937399
-0.38266167 -0.014557808 0.22479527 0.98487359 -0.17327011 0.0011889426 8.023878e-05
0.27381125 -0.01836749 0.2261114 -0.94146812 -0.337102 0.00026474649 8.1478109e-05
0.38535154 -0.015669905 0.22745548 -0.97423494 -0.22551382 -0.0031364085 0.0030306955
-0.38156462 -0.0080335857 0.22495323 0.98471582 -0.17416768 0.00065154693 5.3565811e-05
-0.2686277 -0.0020315936 0.22844934 0.91776633 -0.39712077 1.2605014e-05 0.0004719971
0.3824648 -0.0074528237 0.22484764 -0.96002483 -0.27974084 -0.0098700756 0.0022647842
-0.26424998 0.0073468392 0.22676396 0.90613735 -0.4229835 2.1560747e-05 1.1385638e-05
0.2661061 0.0028281617 0.22706531 -0.93982226 -0.34166363 4.5584813e-05 1.1340881e-05
0.37708578 0.0069683404 0.22510731 -0.93772739 -0.34736913 -0.0014575294 0
-0.37741488 0.01314721 0.2267466 0.95224363 -0.30533928 3.0478868e-05 0.0032977306
0.37480226 0.013090524 0.22351503 -0.93694401 -0.34947944 -4.9006201e-05 0
-0.37369514 0.021479588 0.22953376 0.92446649 -0.38120773 -0.0065155625 0.0014261979
-0.2566846 0.023554238 0.22146571 0.90613365 -0.42299148 -6.9724197e-06 1.617186e-05
0.25889817 0.022656064 0.22214013 -0.91189945 -0.41041028 -0.0016707716 0.0015381288
0.37166113 0.021511931 0.22909859 -0.93694341 -0.34948111 -5.5976667e-05 0
-0.36806178 0.033815216 0.22438775 0.91128224 -0.41178232 -6.0230297e-05 3.6868718e-05
-0.25353143 0.030309265 0.22452375 0.90366429 -0.4282403 -0.00102761 7.076074e-05
0.2497668 0.038702685 0.22693956 -0.85491914 -0.51876128 -0.00034674918 0.0011914871
0.36822748 0.030717628 0.22658077 -0.93694121 -0.34948692 -4.0898325e-05 0
-0.3630873 0.044708207 0.22463173 0.90962404 -0.41543233 5.1093873e-05 3.869236e-05
0.24235277 0.049299862 0.22087507 -0.81936485 -0.57327235 9.9657973e-06 1.8096973e-05
0.36255696 0.045920331 0.22863597 -0.93694121 -0.34948716 -3.9636951e-05 0
-0.24213882 0.053039119 0.22771046 0.84409338 -0.53599119 -0.014826506 0.0028563871
0.23716465 0.056715474 0.22647429 -0.81937528 -0.57325751 -2.3615125e-06 4.3606337e-06
-0.35319442 0.066371232 0.22310835 0.90962923 -0.41542116 3.5536617e-05 0
0.22848234 0.069125496 0.22212318 -0.81937444 -0.5732587 -1.6772192e-05 0
-0.35147876 0.070128135 0.22687106 0.90962374 -0.41543302 -3.657183e-05 0
-0.34923244 0.075047031 0.22441441 0.90964347 -0.4153899 8.827963e-06 1.4018882e-05
-0.22625832 0.071949676 0.2273643 0.76593435 -0.64291877 8.6545006e-05 0
0.22490524 0.074238405 0.22662517 -0.80948651 -0.58712041 -0.0046097497 0.00039140412
-0.34636667 0.081322312 0.22647196 0.90963405 -0.41541055 -2.0014009e-05 0
-0.21260889 0.08820346 0.2242007 0.7658022 -0.64307612 -8.1122716e-06 1.5706453e-05
0.21438518 0.089275204 0.22105134 -0.75237262 -0.65861946 0.012478672 0.0032092112
0.3436954 0.089069359 0.22930199 -0.84062618 -0.54161525 -0.00063515751 0.00076265662
-0.33875468 0.097990744 0.22477461 0.88244677 -0.47040892 -0.0017938185 0.0015634262
-0.20977344 0.091579929 0.2214224 0.76502573 -0.6439994 0.00056835293 1.6874632e-05
0.20950684 0.093985766 0.22090213 -0.71448624 -0.69960421 -0.00795977 0.0025007776
0.21344683 0.090616412 0.2295654 -0.74768895 -0.66403681 0.0040553431 0.0031338329
0.33753255 0.097723693 0.22344419 -0.82091469 -0.57104796 0.0017924856 0.00015094482
0.34089074 0.093007892 0.22737804 -0.8319543 -0.55481058 0.0060956264 0.00059390703
-0.33624646 0.10348324 0.22320826 0.85401791 -0.52016079 -0.0092883054 0.0022570859
0.33173615 0.10586338 0.22398572 -0.81457585 -0.58005697 5.2429292e-05 0
-0.32392606 0.11924517 0.22474748 0.78805643 -0.61554915 -0.0081471624 0.00054150604
-0.18444633 0.11638901 0.2252828 0.60762233 -0.79420263 -0.0061073084 0.0010574475
0.18493435 0.11462098 0.22066887 -0.64307541 -0.76580292 2.6257953e-06 1.6442167e-05
0.32776725 0.11143684 0.22752295 -0.81455249 -0.58008975 6.5452186e-05 2.063688e-05
-0.17087129 0.12588641 0.22212991 0.57327491 -0.81936306 5.3556919e-06 0
-0.16763079 0.12815352 0.22043204 0.57327622 -0.81936222 5.5450037e-06 0
0.17333157 0.12436463 0.22818771 -0.63734215 -0.77058083 -0.00025763852 0.00014374357
-0.31006855 0.13602892 0.22976379 0.77108985 -0.63672632 9.2973805e-06 4.3768454e-05
-0.15212077 0.13900469 0.22055653 0.56678653 -0.82386357 -0.001400233 9.82458e-05
0.15495148 0.1395888 0.22980696 -0.53394336 -0.84549081 0.0070534809 0.0024880485
0.16491151 0.13143554 0.22690757 -0.61064267 -0.79188442 0.0058748159 0.00085740536
0.30967206 0.13684738 0.22607666 -0.81454283 -0.5801034 5.7565496e-05 7.5057069e-05
-0.30016017 0.14802961 0.22995409 0.77116388 -0.63663673 -2.0134146e-05 0
-0.29924035 0.14914368 0.22771955 0.77114153 -0.63666379 -4.9145037e-05 0
-0.14449649 0.1443388 0.22141151 0.53132802 -0.84713435 -0.0073441761 0.0010371928
0.13862039 0.14721194 0.22087303 -0.42855445 -0.90351272 -0.0024061068 6.9644899e-05
0.14831096 0.14268851 0.22647431 -0.49842384 -0.86688858 0.0088239461 0.0023190263
0.30440357 0.14424576 0.2254291 -0.81457216 -0.58006239 1.5574433e-05 0
-0.29562011 0.15352833 0.22619991 0.77111083 -0.63670099 -5.9760157e-05 2.3271925e-05
-0.12960654 0.15345898 0.22055116 0.44315019 -0.89608848 -0.025364511 0.0020934683
-0.11493941 0.15879086 0.22587283 0.35506517 -0.93484104 0.0010428077 0.00023638221
0.11460356 0.15842265 0.22463827 -0.42259997 -0.90631634 5.7598158e-05 2.1847734e-05
0.12583865 0.15317826 0.22726206 -0.42296657 -0.90614533 5.5228761e-06 1.8021761e-06
-0.28559774 0.16566712 0.2256169 0.77111769 -0.63669264 3.4565459e-05 0
-0.098473713 0.16477655 0.22498611 0.34165955 -0.93982375 -5.4522175e-06 1.0145978e-05
0.098501079 0.16593905 0.2252253 -0.35973728 -0.93302876 -0.0068162824 0.0015881348
-0.28112614 0.17108296 0.22046685 0.75320268 -0.65760863 0.015380872 0.00079903507
-0.2796407 0.17288204 0.22312427 0.74650151 -0.66531718 0.0094161006 0.00093057397
-0.075677931 0.17306337 0.22119316 0.31285265 -0.94979548 -0.0034039847 0.00060584128
-0.066681378 0.17633386 0.22842482 0.2468316 -0.96903628 0.0065468368 0.0022693418
-0.051673979 0.17879757 0.22538397 0.15289296 -0.98821849 0.0069304751 0.0013182613
0.0431953 0.17902277 0.22529563 -0.17403497 -0.98473942 1.6003318e-05 4.4960429e-06
0.054302458 0.17705978 0.22933097 -0.17403236 -0.98473996 -3.8863647e-07 0
0.062643252 0.1755857 0.22528797 -0.17664276 -0.98427504 2.9371555e-05 0
0.072501384 0.17384344 0.22595257 -0.21573177 -0.97645175 -0.0013355592 0.0011375883
0.088122934 0.17069918 0.22553709 -0.30976674 -0.95081061 0.0019394191 0.0028032234
0.27228352 0.17933708 0.22961077 -0.64382273 -0.76517141 -0.0022424792 0.00012821521
0.28034407 0.17268191 0.2210464 -0.66636819 -0.7456041 -0.0052908678 0.00067155831
-0.27374181 0.18002662 0.22708373 0.70090151 -0.71320277 0.0088879261 0.0020646984
-0.26541308 0.18801264 0.22471753 0.64903557 -0.76073939 -0.0053409585 0.0021991918
-0.037242584 0.18005444 0.22804177 0.093583651 -0.99561089 0.0010718912 0.00011709748
-0.021616995 0.18141533 0.22348604 0.086766116 -0.99622875 -4.5703819e-05 0
-0.016694805 0.181844 0.22589147 0.086766869 -0.99622864 -4.3980261e-05 0
0.0052214391 0.18375276 0.22493918 0.0092876162 -0.99994481 -0.0049213045 0.0021417609
0.016088726 0.18381338 0.22945192 -0.08095596 -0.99668759 -0.0077421763 0.0022777852
0.02768206 0.18176447 0.22561891 -0.15771554 -0.98748338 -0.0015549723 0.00034198878
0.2663897 0.18420336 0.22688526 -0.63680184 -0.77102757 -5.0734401e-05 0
-0.25470296 0.19563945 0.22611666 0.59458053 -0.80402267 -0.0046336693 0.00034985421
0.25694984 0.19199736 0.2249922 -0.63668782 -0.77112168 -6.2312492e-06 0
-0.24482447 0.20267408 0.22436491 0.58014154 -0.81451571 2.9475634e-05 0
-0.23749098 0.20789635 0.22151357 0.58009148 -0.81455135 3.06896e-05 0
-0.22696567 0.21539158 0.22482544 0.58012652 -0.81452632 -3.257117e-05 0
-0.21371579 0.22482701 0.2270927 0.58009762 -0.81454694 7.9225865e-06 9.7416032e-06
-0.20853755 0.22851449 0.22511196 0.58006597 -0.81456947 7.1894879e-06 1.3826154e-05
0.21713154 0.22487336 0.22536808 -0.59525108 -0.80350286 -0.0077083902 0.00086241198
0.22130997 0.22142343 0.22986314 -0.60698223 -0.79471439 0.0012361299 0.00049707352
-0.20410836 0.23166858 0.22902802 0.57336122 -0.81930262 0.00040248156 2.9187759e-05
-0.19875661 0.23547965 0.22424918 0.55637407 -0.8309285 0.0024066805 0.00047340299
0.20133415 0.2347416 0.22261596 -0.46572751 -0.88492614 0.001876601 0.0014999735
-0.1833532 0.24572556 0.22689621 0.44919816 -0.89342326 -0.0039932914 0.0021931941
0.17536852 0.24659933 0.22686544 -0.41542882 -0.90962571 -3.1792202e-05 0
0.18449679 0.24243073 0.22734712 -0.41545811 -0.9096123 2.4554862e-05 0
-0.15705988 0.2555328 0.22243649 0.34952176 -0.93692821 -4.0670042e-05 0
-0.14932027 0.25841963 0.22781077 0.34947583 -0.93694538 2.6613077e-05 3.108705e-06
0.14634827 0.25985205 0.22858253 -0.41536909 -0.90965295 1.8876563e-05 0
0.15497938 0.25591049 0.22186267 -0.41540968 -0.90963441 3.5226967e-05 5.0681534e-05
0.16083615 0.25323588 0.22507805 -0.41542754 -0.90962631 8.2890192e-06 0
-0.14371333 0.26051095 0.22649752 0.34952116 -0.93692845 1.5215192e-05 1.1693352e-05
-0.13908941 0.26223567 0.22278702 0.34948924 -0.93694037 -1.8027156e-05 2.7951655e-05
-0.12404642 0.26784658 0.22878799 0.3494963 -0.93693775 3.0088155e-05 3.4967834e-05
0.12576072 0.26925379 0.22136852 -0.35729095 -0.93398732 0.0032932591 0.0011051937
0.13164468 0.26656675 0.22635618 -0.38526639 -0.92280382 -0.0017403996 0.00068769429
0.14359236 0.2611106 0.22640859 -0.41542092 -0.90962929 -6.2560784e-06 0
-0.11483596 0.27128205 0.22658919 0.3494828 -0.93694276 6.3735366e-05 1.8825656e-05
-0.10894446 0.27347952 0.22286306 0.33461583 -0.94235456 -0.00039957074 0.00019027984
-0.099719942 0.2769202 0.22955427 0.30748767 -0.95130014 0.02189685 0.0011170692
0.09944579 0.2765004 0.22218762 -0.19224429 -0.98127276 0.012083488 0.0005085321
0.10546234 0.27548876 0.22798476 -0.22423594 -0.97388411 0.035608303 0.0012555425
-0.086070716 0.28113374 0.22426388 0.21309978 -0.97698241 0.0096849045 0.0016932933
-0.076094292 0.2822327 0.22636126 0.13231629 -0.99120528 -0.0020931999 0.0007672903
-0.067398384 0.28306317 0.22297513 0.096143268 -0.99536747 -0.00030194269 2.85389e-05
-0.055226691 0.28422558 0.22607337 0.095057033 -0.99547178 9.0986949e-05 9.8672499e-06
-0.049949963 0.28472948 0.2229158 0.095064424 -0.99547112 -1.6775823e-05 0
-0.026972843 0.28692377 0.22446835 0.095066175 -0.99547094 1.9347233e-05 0
-0.010953924 0.28845361 0.22983745 0.085157096 -0.99636739 -0.00047207673 0.00012612251
-0.003655494 0.28915063 0.22168712 0.08259517 -0.99656105 -0.0066440296 0.00015321994
0.046487086 0.28540525 0.22185564 -0.16583069 -0.9861542 -1.2136018e-06 4.1827847e-05
0.060511358 0.28304714 0.22013685 -0.16582745 -0.98615474 -6.4644017e-05 0
0.071918137 0.28112912 0.22333151 -0.16582751 -0.98615474 5.1072984e-05 3.8841859e-05
0.017650133 0.29025412 0.22852656 -0.060710501 -0.99814701 -0.0040996778 0.0021981131
0.21988045 0.30719715 0.22213863 0.067102604 -0.93592387 0.34575087 0.091043435
0.23134391 0.30557221 0.22917105 0.28893229 -0.91230965 0.29018831 0.1054152
0.18298411 0.31906533 0.22619581 -0.51770735 -0.7386747 0.43166965 0.090227418
0.19813739 0.31405419 0.22397894 -0.27841824 -0.84200865 0.46206564 0.060093399
0.20501725 0.31240365 0.22548406 -0.24087864 -0.84233284 0.48213372 0.071416356
0.23453125 0.31437057 0.22176808 -0.72720051 0.6282621 -0.2765252 0.095030256
0.16997984 0.32191154 0.22225049 -0.80277622 -0.50709379 0.31369781 0.10080941
0.17057465 0.3273685 0.22157156 -0.9622041 -0.14980613 0.22742346 0.085756838
0.23759158 0.32476866 0.22302057 -0.88124967 0.20069708 -0.42792487 0.11728017
0.24151552 0.33810109 0.22140837 -0.72614139 0.06252645 -0.68469638 0.085834332
0.17539649 0.3437517 0.22848985 0.73365009 -0.29055908 -0.61427426 0.09004353
0.21755067 0.34560519 0.22993313 -0.21124162 -0.31308767 -0.9259336 0.012886384
0.23752987 0.34595948 0.22764708 -0.56402868 -0.16370556 -0.80936527 0.075438567
0.24301217 0.34318626 0.22389394 -0.68810666 -0.0029058922 -0.7256037 0.083123483
0.17813471 0.35305536 0.22924277 0.66029006 -0.47842914 -0.57889777 0.083309062
0.18235803 0.35693365 0.22957721 0.47776952 -0.47985244 -0.73585182 0.070700072
0.1975272 0.35383528 0.22907624 0.15680335 -0.3965264 -0.90453279 0.046434503
0.20673436 0.35845724 0.22638783 -0.035475127 -0.40648556 -0.91296822 0.0089744804
0.2170856 0.35339662 0.22712636 -0.18738879 -0.32221031 -0.92793643 0.0085628228
0.22774255 0.3571372 0.22460467 -0.30660322 -0.32496855 -0.89464509 0.029808121
0.18275507 0.36875403 0.22318679 0.4068982 -0.442357 -0.79922092 0.044652577
0.1924642 0.36541283 0.22537738 0.24154896 -0.47339922 -0.84708154 0.050173316
0.20668286 0.3672317 0.22317594 0.028753897 -0.46953046 -0.8824479 0.019911723
0.21367836 0.3620137 0.22433436 -0.10915323 -0.37757865 -0.91952157 0.0012444663
0.22426255 0.36877137 0.22071418 -0.20677987 -0.42562783 -0.88095582 0.0088979844
0.23419803 0.36491549 0.22105584 -0.33354521 -0.33023086 -0.88300347 0.030775106
0.24663158 0.36119375 0.22107869 -0.70791894 -0.23902312 -0.66461927 0.096883781
0.20363525 0.37120265 0.22204879 0.048266489 -0.49203727 -0.8692351 0.021382375
0.21914659 0.37062728 0.22058578 -0.13235269 -0.44838816 -0.88398576 0.0026778877
-0.071872197 -0.49028882 0.23470072 0.16586752 0.98614806 -4.5782348e-05 5.917373e-05
-0.056502342 -0.49287325 0.23616533 0.16582564 0.98615509 -6.2870262e-05 5.9352506e-06
-0.030734736 -0.49720597 0.23474804 0.14160752 0.98992056 -0.0021357387 0.00060694036
-0.015234879 -0.49981222 0.2324433 0.047736924 0.998698 0.017986625 0.0018447045
-0.0039717802 -0.49903101 0.23459905 -0.010087654 0.99971527 0.021623446 0.0014076965
0.03310905 -0.49548984 0.23403591 -0.09507335 0.99547029 3.2263695e-05 6.5542459e-05
0.040520087 -0.49478209 0.23448505 -0.095058396 0.99547172 -2.7723054e-05 0
0.056581207 -0.49324825 0.23176545 -0.095025867 0.99547482 -0.00015949149 4.8463284e-05
0.076430514 -0.49135265 0.23646885 -0.13837004 0.99033904 -0.0090764891 0.0012906601
0.085181862 -0.4905169 0.23221746 -0.18182757 0.9831354 -0.019581413 0.0029093851
-0.12136291 -0.48041415 0.23347321 0.33146942 0.94340271 0.010926884 0.0019508239
-0.1075335 -0.48429251 0.23924774 0.23483986 0.9719612 0.011897412 0.0015050536
-0.095628321 -0.48629436 0.23364091 0.17734297 0.98414743 0.0018335574 9.3298782e-05
-0.086037114 -0.48790705 0.23651023 0.16581056 0.98615766 -4.3384422e-05 0
-0.074312277 -0.48987857 0.23275015 0.16586506 0.98614836 5.7859041e-05 8.5117885e-05
0.094431765 -0.48804474 0.23460348 -0.26060566 0.96523148 -0.020319033 0.0017367599
0.10214645 -0.48516721 0.23734085 -0.30302292 0.95298326 0.00012961253 0.0014789911
-0.13407353 -0.47460955 0.23604076 0.38610914 0.92242467 0.0072376789 0.00047852195
0.13082367 -0.47447073 0.23691888 -0.34951246 0.93693167 2.9653713e-05 1.9377254e-05
0.14242457 -0.47014368 0.23943894 -0.34946609 0.93694901 9.4925395e-05 2.9714438e-05
-0.14682826 -0.46878487 0.23758213 0.41545817 0.9096123 7.6288266e-06 0
0.15927207 -0.46385968 0.23812148 -0.3494502 0.93695498 3.3589626e-05 9.3107974e-06
0.16823086 -0.46051809 0.23688985 -0.36635822 0.93047309 -0.0012530884 0.00031102405
-0.17195642 -0.45730957 0.23728105 0.41539526 0.90964103 5.898163e-05 1.4799998e-05
-0.1681883 -0.45903033 0.23447135 0.41543132 0.90962452 5.7009289e-05 9.3298397e-05
0.1725603 -0.45890325 0.23797928 -0.36874893 0.92952794 -0.0014068573 0.00031221414
-0.20733875 -0.4411515 0.23268315 0.50681758 0.86203402 -0.0057749329 0.0016013293
-0.19973984 -0.44462168 0.23203155 0.4721992 0.88143969 -0.0095961103 0.0016487776
-0.18866183 -0.44968069 0.23114243 0.41549531 0.90959525 -9.625136e-06 9.2411741e-05
-0.21540183 -0.43545353 0.23391399 0.58275956 0.81264162 -0.0022237976 0.0015809108
0.20554899 -0.43979469 0.23187128 -0.5743736 0.81859189 0.0014841715 6.4228043e-05
-0.23393661 -0.42015028 0.23579992 0.63673985 0.77107871 -8.2825456e-05 0
-0.22387752 -0.42845559 0.23518521 0.61542755 0.7881934 0.00035971127 0.00049735978
0.22793801 -0.42385119 0.23668444 -0.58005464 0.81457764 3.2795779e-05 1.7630889e-05
-0.2418403 -0.41362455 0.23257543 0.63668919 0.77112055 -6.3114458e-05 0
0.23598775 -0.41811883 0.2324322 -0.58002275 0.81460029 3.0041572e-05 3.6034111e-05
0.24361129 -0.41269001 0.23424208 -0.58005106 0.8145802 -9.3540169e-05 1.4184874e-06
-0.25173515 -0.4054549 0.23691764 0.63670373 0.77110851 -8.1835555e-05 0
-0.2483868 -0.4082194 0.23539175 0.63667226 0.7711345 7.6172022e-05 2.1512431e-06
0.25368205 -0.4055185 0.23590808 -0.58621675 0.8101536 0.0010072642 5.5236604e-05
-0.26546058 -0.39412245 0.23712942 0.63669604 0.77111495 4.5565412e-05 4.9854287e-05
-0.025409635 -0.39131808 0.23255903 0.13332601 0.99107218 0.00033454946 0.0014139462
-0.015364807 -0.39309332 0.23091391 0.084313564 0.99628031 -0.017799836 0.0018844977
-0.0053052492 -0.39291209 0.23667353 -0.025324585 0.99957037 -0.014757386 0.0013009607
0.0039499444 -0.392106 0.23201033 -0.052778598 0.99855721 -0.00989387 0.00098551076
0.024722133 -0.39029694 0.23602831 -0.086761221 0.99622911 5.3557851e-05 8.2981323e-06
0.26764712 -0.39557379 0.2389082 -0.67482513 0.73797524 -0.0019169883 0.0026029209
0.27165654 -0.3917042 0.23553152 -0.70471859 0.70893985 -0.027858239 0.0026214875
-0.27395561 -0.38710853 0.23540178 0.6539194 0.75653702 0.0064206938 0.00043991409
-0.080074161 -0.38165712 0.23870711 0.26140046 0.96520507 -0.0069987276 0.0016018787
-0.078931965 -0.38185897 0.23421809 0.25853974 0.96573776 -0.022532105 0.0013874844
-0.068235666 -0.38374937 0.2350474 0.17759082 0.98410434 -0.00027741684 0
-0.046429671 -0.38760319 0.23993018 0.17404743 0.98473728 1.9184359e-05 0
-0.038823318 -0.38894746 0.23427808 0.17262408 0.98498768 -0.00024628261 5.5271747e-05
0.029414082 -0.38988829 0.23261921 -0.086759113 0.99622929 5.2757923e-06 4.182844e-05
0.035418842 -0.38936532 0.23310547 -0.086799525 0.99622577 -0.00010419036 0
0.045341611 -0.38850111 0.23702857 -0.099170789 0.99506646 0.0028324868 8.4243497e-05
0.053367082 -0.38780212 0.23636718 -0.16011 0.9870919 0.0038044287 0.0017460233
0.077056751 -0.38171417 0.23766825 -0.3144702 0.94926661 -0.0011894427 0.00066254416
0.080342352 -0.38051975 0.23438923 -0.3185631 0.94789928 -0.0021279536 0.00068016123
-0.28436607 -0.37851313 0.23380563 0.69048166 0.72310966 0.018639226 0.0016597694
-0.10327198 -0.37286407 0.23637497 0.3895064 0.921022 0.0018486071 0.0008551426
-0.088905968 -0.37956995 0.23662183 0.31486723 0.9489826 -0.017052246 0.0017513378
0.082755268 -0.37964261 0.23868828 -0.33154589 0.94343209 -0.0036404042 0.00024057702
0.096889555 -0.37450445 0.2337189 -0.34163806 0.93983155 -2.0283325e-05 8.1759918e-06
0.2857874 -0.37458941 0.23163772 -0.76789749 0.64057267 0.00014165753 0
-0.29483396 -0.36683607 0.23551764 0.77480328 0.63216746 -0.0066442178 0.0019297352
-0.12548406 -0.36249578 0.23717172 0.42298171 0.90613824 5.6735662e-05 0
-0.11128853 -0.36912209 0.23182839 0.42301762 0.90612143 -7.0721951e-05 0
0.11351031 -0.36846235 0.23203456 -0.34586099 0.93828553 -0.00071750971 6.1851832e-05
0.12308607 -0.36498132 0.23477632 -0.40419567 0.91454881 -0.015046924 0.0021533093
0.29647586 -0.36164391 0.23611274 -0.77113962 0.63666606 5.5226596e-05 3.1901367e-05
-0.14589609 -0.35296774 0.23757558 0.45295352 0.89149976 0.0078318883 0.00044305954
-0.13455604 -0.35826111 0.23543465 0.43282253 0.90147901 -0.00050249672 0.0002107199
0.13575725 -0.35960495 0.23234019 -0.47912496 0.87773979 -0.0034662017 0.002705615
0.14340082 -0.35425735 0.23665494 -0.54452533 0.83872712 -0.0053763166 0.00068048935
0.2992056 -0.35833776 0.23014195 -0.77102518 0.6368047 -4.5875862e-05 0
-0.30849186 -0.3476567 0.23608449 0.81431878 0.58041793 -4.0148323e-05 0
0.15856119 -0.34365082 0.23789385 -0.57324946 0.819381 -2.6928385e-05 0
0.1629505 -0.34057996 0.23139358 -0.57332611 0.81932724 8.7176784e-05 6.9215544e-05
0.30792481 -0.34777734 0.23214805 -0.77112389 0.63668507 4.5029625e-05 3.3168359e-05
0.31305978 -0.34155804 0.23786014 -0.7711696 0.63662976 1.9758867e-05 7.6500153e-05
-0.31511298 -0.33835882 0.23709258 0.81453973 0.58010763 -3.8796115e-05 0
-0.17416872 -0.33281365 0.23228487 0.64249384 0.76629061 -0.00051737577 1.752852e-05
0.17386259 -0.33294564 0.2384679 -0.57759637 0.81632251 -0.000182989 6.6158616e-05
-0.32414883 -0.32567006 0.23695767 0.81458408 0.58004552 3.7133073e-06 3.3721306e-05
-0.1888677 -0.32046989 0.23585543 0.64312321 0.76576275 5.4789478e-05 0
0.18398011 -0.32586721 0.23462903 -0.61383367 0.78943151 0.002488012 0.0010277382
0.32646769 -0.32531881 0.23692292 -0.80103242 0.59855497 -0.0088935252 0.00099162699
-0.19269131 -0.31725895 0.23606214 0.64308888 0.76579159 -1.181112e-06 1.8423926e-06
0.197662 -0.31515428 0.23913302 -0.68363637 0.72981912 0.0023231218 0.0024114766
0.20071539 -0.31151828 0.23622149 -0.71328843 0.7007466 0.013180555 0.0018627797
0.33397859 -0.31582469 0.23594296 -0.83553016 0.54944414 0.00067074702 0.0021999865
-0.33881569 -0.30507383 0.23957138 0.81446791 0.5802086 1.6214306e-05 2.1502314e-05
-0.20597509 -0.30610365 0.23246264 0.70931989 0.70472974 -0.014877149 0.0019334442
0.20517457 -0.30620831 0.23553458 -0.73921353 0.67346561 0.0027448654 0.0010725661
0.33986324 -0.30471542 0.23665561 -0.89314067 0.44976947 0.0026689374 0.0010753939
-0.34763849 -0.29268426 0.23435995 0.88022488 0.47446766 -0.0091915689 0.0024284841
0.21637827 -0.29286692 0.2351961 -0.7657935 0.64308661 2.0984426e-05 0
-0.223501 -0.28539756 0.23069707 0.80571866 0.59228623 -0.0038118782 0.00050915597
0.22497995 -0.28262395 0.23566906 -0.7656787 0.64322329 -7.3423282e-05 0
0.34945923 -0.28370237 0.23085053 -0.90962559 0.41542909 -1.9498006e-05 5.5625595e-05
0.35084328 -0.28067169 0.23156941 -0.90962845 0.41542292 -0.00010707088 0
-0.35638255 -0.27162603 0.23306318 0.92866933 0.37089393 -0.0033061979 0.00031102367
-0.23143069 -0.27406329 0.23700303 0.81936687 0.57326955 3.2009855e-05 0
-0.2285302 -0.27820909 0.23645577 0.81851268 0.5744884 0.00011483407 0
0.22797589 -0.2790564 0.23263575 -0.76577973 0.64310294 -4.49498e-05 0
0.35223719 -0.2776193 0.23802644 -0.90963131 0.41541642 -7.9816218e-06 6.7399218e-05
-0.35879952 -0.26514602 0.23415715 0.93414551 0.35689208 -0.00057196443 1.4780034e-05
-0.23437899 -0.26984915 0.23669907 0.81935185 0.57329094 -0.00010307022 0
0.23786965 -0.26727489 0.23182847 -0.80594635 0.59197319 -0.004264331 0.001506964
0.24187836 -0.2625013 0.23952651 -0.82856077 0.55982006 -0.0094074141 0.0020267013
0.35712627 -0.26691344 0.23470606 -0.90961951 0.41544235 3.9508683e-05 4.4919325e-05
-0.3622115 -0.25599849 0.23227052 0.93699288 0.3493484 4.4485907e-05 2.128738e-05
-0.24466337 -0.25514925 0.23245844 0.82842338 0.56009227 0.0033922533 0.00023266034
0.36256891 -0.25499535 0.2397082 -0.90959269 0.41550103 -0.00016159065 0
-0.36481643 -0.24901465 0.23756796 0.93693107 0.34951437 2.147792e-06 0
0.25306159 -0.24046786 0.2345911 -0.90397036 0.42759293 -0.0013831296 0
0.36768305 -0.24379666 0.2377045 -0.90957975 0.41552943 -7.999759e-05 0
-0.36929542 -0.23700652 0.23670898 0.93699288 0.34934857 -7.6822456e-05 0
0.25670674 -0.23265886 0.23996544 -0.90613657 0.42298523 2.8492375e-05 7.4305062e-06
0.37231264 -0.23365898 0.23720066 -0.93335432 0.35893661 0.0037763552 0.0017217031
-0.37222868 -0.22914234 0.23914811 0.93694621 0.34947366 -5.1131468e-05 0
-0.26116127 -0.2255827 0.23515978 0.93013161 0.36707884 -0.010410404 0.00046854847
0.26163745 -0.22209579 0.23935844 -0.90610749 0.42304757 -0.00011083145 0
-0.37620449 -0.21848324 0.23619863 0.93739653 0.3482638 -0.00039160671 0
0.26643422 -0.21181962 0.23630428 -0.90899032 0.41680729 0.002875986 0
0.37890199 -0.21695364 0.23010565 -0.96988058 0.24322467 -0.013171621 0.0016473236
-0.38156185 -0.20412004 0.234033 0.95422739 0.29876351 -0.013797953 0.0016547224
0.38063905 -0.20662302 0.23554048 -0.97814339 0.20782074 -0.0067841336 0.00091310573
-0.38366556 -0.19848004 0.23482051 0.96770936 0.25205061 0.0030227767 0.0029252849
-0.27335641 -0.1920357 0.23659754 0.93980676 0.3417064 -1.9768991e-05 3.4222019e-06
0.27315077 -0.19743067 0.23636079 -0.93743128 0.34806111 -0.0087194387 0.0015502969
0.38179454 -0.19975117 0.23401041 -0.98433882 0.17627825 -0.0017432924 0.00018338667
-0.38638943 -0.18506068 0.23740858 0.98827666 0.15250964 0.0070720213 0.0012604679
-0.27597696 -0.18482703 0.23569454 0.94321477 0.33218041 0.0014081106 4.7543355e-05
0.27646238 -0.18815124 0.23524863 -0.95853657 0.28491908 -0.0053620795 0.002464388
0.38354021 -0.18936956 0.23945616 -0.98614883 0.16586253 -5.8631044e-06 0
-0.38769922 -0.1713458 0.23374571 0.99456197 0.10412568 -0.0021012952 0
0.27880895 -0.17487375 0.23015451 -0.9810949 0.19350608 0.0028550941 0.00031253076
0.38576469 -0.1761402 0.23449461 -0.98614645 0.16587739 1.083175e-05 6.9427959e-05
-0.3886843 -0.16103077 0.23625615 0.9954688 0.095089361 -9.226516e-05 0
0.28127685 -0.16090964 0.23657657 -0.98473477 0.17406163 1.0199348e-05 7.1587779e-06
0.38791686 -0.16334048 0.23911384 -0.98615932 0.16580029 6.606229e-05 0
-0.28346908 -0.15515366 0.23318933 0.99263585 0.12113559 -0.00043036157 0.00088355492
0.28220901 -0.15563516 0.23857789 -0.98472983 0.17408919 -0.00011122903 0
-0.3901853 -0.1453134 0.23550424 0.99547243 0.095050618 -0.00010001596 0
-0.38997054 -0.14756234 0.23406184 0.99547243 0.095050678 -2.6473906e-05 0
-0.28438532 -0.14463331 0.23665257 0.99606073 0.08866246 -0.0014137842 2.0579533e-05
0.28390115 -0.14606065 0.23641554 -0.98473936 0.17403539 2.33315e-05 5.2927528e-05
-0.39086443 -0.13820222 0.23261797 0.99546939 0.095082253 1.105111e-05 2.5418167e-06
-0.28505194 -0.13697925 0.23792605 0.99613947 0.087784283 -0.0001176444 0
0.28598726 -0.13425694 0.23748133 -0.98557758 0.16922386 0.00038635673 4.765961e-06
0.39351124 -0.13006948 0.2337299 -0.99310231 0.11645498 0.013643511 0.0015943373
-0.39209682 -0.12529734 0.23440747 0.99547184 0.095057182 1.1648018e-05 0
0.2871446 -0.12770832 0.23716366 -0.99184853 0.12741932 -0.00086394959 0.0010253248
-0.39291632 -0.11671616 0.23613338 0.99547184 0.095056757 0.00011761738 0.00010920455
-0.28717369 -0.1126174 0.23114589 0.99750715 0.070506319 0.0028903771 0.00034959373
0.39498505 -0.11409824 0.2307016 -0.99996477 -0.0082578463 -0.0014890726 0.0015225143
-0.39371151 -0.10838935 0.23684615 0.9977451 0.067114122 -0.00065556628 0.00062981679
-0.28785101 -0.10484021 0.2313053 0.99967825 0.021659529 0.013200333 0.00089945958
-0.39514095 -0.093421437 0.23636107 0.9999845 -0.00019841416 0.0055612475 0.0018691175
0.3928383 -0.091618702 0.23322865 -0.99554843 -0.094250724 -0.00045947949 6.6923902e-05
-0.3937698 -0.080620036 0.23623496 0.99633378 -0.083271921 -0.019613227 0.0026443836
0.28612208 -0.084459759 0.23300499 -0.99622935 -0.086758643 -5.9957798e-05 0
-0.39218271 -0.071181506 0.23578142 0.98821408 -0.15298516 0.0053355563 0.00011147255
-0.28561869 -0.07280986 0.23580959 0.98577839 -0.16804956 0.00060176867 2.2744711e-05
0.39106646 -0.0730654 0.23295249 -0.99546957 -0.095080972 -3.9527684e-05 1.0839942e-05
-0.28427315 -0.06519638 0.23391362 0.98528349 -0.17092647 0.00074926787 1.6437565e-05
0.28457174 -0.066658877 0.23594494 -0.99621207 -0.086957119 -0.00017742705 0
