# .PCD v0.7 - Point Cloud Data file format
VERSION 0.7
FIELDS x y z normal_x normal_y normal_z curvature
SIZE 4 4 4 4 4 4 4
TYPE F F F F F F F
COUNT 1 1 1 1 1 1 1
WIDTH 587
HEIGHT 1
VIEWPOINT 0 0 0 1 0 0 0
POINTS 587
DATA ascii
0.021716792 0.5 0.055376239 0 -1 0 0
0.036126494 0.5 0.052047033 0 -1 0 0
0.048438702 0.5 0.057070281 -0.021287821 -0.99974376 0.0076970141 0.0014361475
-0.078757167 -0.49094003 0.062723488 0.22199787 0.97504711 -1.2629302e-05 0
-0.065036982 -0.49406382 0.068270534 0.22198272 0.97505057 -2.3665272e-05 4.7263195e-05
-0.053102739 -0.49678099 0.063270867 0.18979354 0.98182058 -0.0026084445 0.00091888948
-0.048422538 -0.4978466 0.069901139 0.14919287 0.98880774 0.0008057587 0.0015952415
-0.025598627 -0.4994927 0.067385137 0.0089571299 0.999861 0.01406228 0.0015013748
-0.019338761 -0.49925512 0.068029098 -0.0094417958 0.99992949 0.0072024786 0.00058146066
0.0165454 -0.49789312 0.060552776 -0.037928421 0.99928051 1.2795616e-06 0
0.024602348 -0.49758732 0.061144888 -0.037944697 0.99927986 1.0103073e-05 9.9020835e-05
0.031444188 -0.49732763 0.063220158 -0.037933566 0.99928027 1.7157788e-07 0
0.065994166 -0.49601632 0.065335289 -0.11558668 0.99324656 -0.010051739 0.00100205
0.076731801 -0.49392784 0.065002993 -0.204851 0.9787057 -0.013081182 0.0018176682
0.082044572 -0.49228597 0.062452257 -0.25683966 0.96639371 0.010797825 0.0010600818
-0.10336816 -0.4853366 0.068448693 0.22204658 0.97503608 -1.3680748e-05 1.409758e-05
-0.092222065 -0.48787436 0.061258949 0.22199929 0.97504687 1.6605279e-06 2.64593e-05
0.10937233 -0.48384041 0.060697429 -0.29532257 0.95539761 -1.8644578e-05 0
-0.13840355 -0.47735977 0.06384407 0.32326987 0.94620693 0.013749199 0.0019913479
0.13237929 -0.4767302 0.067462057 -0.29523346 0.95542514 -5.958922e-06 0
0.14405897 -0.47312063 0.064496316 -0.29528928 0.95540786 1.4716601e-05 2.6048807e-05
-0.1650299 -0.46552715 0.061963424 0.44860488 0.89371735 -0.0047997767 0.00034374167
-0.19178073 -0.45140719 0.062243104 0.46685871 0.88433194 -1.4648163e-05 0
-0.18524902 -0.45485485 0.06145747 0.46679673 0.8843646 8.2785045e-06 0
-0.057452284 -0.45082384 0.062709339 0.20253626 0.97926641 -0.0040532583 0.00084017578
-0.042461842 -0.45371515 0.065433599 0.11249579 0.99353659 -0.015160517 0.0010598724
-0.011581289 -0.45311749 0.06436456 -0.019358372 0.9998126 1.4066555e-05 6.190467e-05
0.0093332324 -0.45271263 0.06272117 -0.019356068 0.9998126 -7.6293975e-07 6.8268978e-06
0.019136077 -0.4525229 0.06352593 -0.019348145 0.99981278 -1.5549129e-05 0
0.024359131 -0.45242181 0.063372858 -0.019352863 0.99981272 1.3879499e-05 3.1368781e-05
0.033882223 -0.45223749 0.061553672 -0.029995961 0.99954998 -0.00026740861 6.7190456e-05
0.19304693 -0.45227581 0.068856806 -0.51464558 0.85740298 9.178491e-05 0.00025725679
-0.21035719 -0.44160202 0.061248332 0.46683303 0.88434547 -1.9290541e-05 0
-0.20620787 -0.44379216 0.069646865 0.46684527 0.88433903 3.964944e-05 0.00016791715
-0.19937566 -0.44739842 0.0677692 0.46679035 0.884368 3.0071822e-06 0
-0.074973598 -0.44649065 0.062314529 0.24007952 0.97075325 -3.6457324e-05 0
-0.064261779 -0.44913977 0.066770718 0.22755212 0.97376269 0.0024906858 0
0.065874182 -0.44809255 0.068318732 -0.25984299 0.96564537 -0.0032525556 0.00040684958
0.077579834 -0.44471192 0.069202513 -0.27747822 0.96073192 -5.0754825e-05 0
0.082252502 -0.44336241 0.063485846 -0.27747247 0.96073359 -2.9554158e-05 7.0782728e-05
-0.23101613 -0.43069762 0.063478783 0.51248413 0.85865515 -0.0084470334 0.001429516
-0.22319162 -0.43482763 0.06617032 0.4829911 0.87562519 -0.0003216441 0.00019918258
-0.13429168 -0.43182066 0.069805384 0.31654748 0.94853163 -0.0092404829 0.0017910604
-0.12109309 -0.43508482 0.065409176 0.2526516 0.96755254 -0.0030309996 0.0002512676
-0.11517245 -0.43654904 0.061751157 0.2400755 0.97075421 -3.060796e-06 0
-0.10522743 -0.43900856 0.067171872 0.24010672 0.97074652 -1.3905956e-05 0
0.10207945 -0.43763632 0.063120253 -0.2774699 0.96073431 -2.9692332e-05 2.4019519e-05
0.11503853 -0.43389368 0.069539405 -0.27744374 0.96074194 -1.2448748e-05 3.0653744e-05
0.22308937 -0.43337643 0.062712073 -0.5324713 0.84644806 -4.0855252e-06 0
-0.23625998 -0.42792976 0.065037847 0.52350891 0.85198331 -0.0079211658 0.0017136764
-0.15367335 -0.42316064 0.063182436 0.45372641 0.8911323 -0.0039525474 0.0007093504
0.13115384 -0.42923951 0.065661542 -0.31274682 0.94982684 -0.0043012113 0.00078699429
0.15066212 -0.42253429 0.063819617 -0.41505462 0.90976924 -0.0070529701 0.0019817234
0.24403188 -0.42020172 0.064920388 -0.53247517 0.84644562 -2.6241341e-06 3.7353533e-05
-0.25438207 -0.41370633 0.067114279 0.65223527 0.75799662 -0.0055039888 0.00097441982
-0.24800588 -0.41961622 0.067189187 0.60871756 0.79319263 -0.017562233 0.0024945112
-0.17178145 -0.41316813 0.064946681 0.48324457 0.87548542 9.9617491e-06 7.9778161e-05
0.16494915 -0.4139128 0.068312317 -0.51251131 0.85868001 0.0009124701 0.0001028107
0.25549567 -0.41298994 0.061585851 -0.57010037 0.82151222 -0.010160182 0.00084465143
0.17322353 -0.40891963 0.063693285 -0.5167855 0.85611492 -2.1006384e-05 5.1014493e-05
0.2608563 -0.4096176 0.068296798 -0.57366014 0.81906438 0.0069019692 0.0011408638
-0.27745634 -0.39231956 0.065522417 0.67993003 0.73327702 -5.2297168e-05 0
-0.26965392 -0.39955139 0.067728601 0.6798296 0.73337013 -1.1566667e-06 2.7235126e-05
-0.20563133 -0.39448884 0.060793024 0.4872252 0.87327635 0.00015710409 0.00016720791
-0.1974377 -0.3990103 0.063508391 0.48314944 0.87553793 -1.4058614e-05 0
0.19883204 -0.39346623 0.069597237 -0.51667356 0.85618252 1.6807406e-05 5.0981707e-05
0.27563021 -0.39687723 0.067104451 -0.68860406 0.72507334 0.009642683 0.0015137059
-0.28526056 -0.38508612 0.06387119 0.67992413 0.73328251 -2.6044187e-05 0
-0.22900935 -0.38079137 0.065901659 0.5890252 0.80796766 0.015414419 0.0023247127
0.20496243 -0.38976681 0.061488401 -0.51668203 0.85617739 -1.5858268e-05 0
0.2152628 -0.38355106 0.069817901 -0.54531324 0.8382315 0.0011559523 0.00084534648
0.28372595 -0.38814268 0.065281719 -0.73321062 0.68000162 -3.7671231e-05 0
-0.23281348 -0.3771317 0.064511538 0.63900048 0.76920342 -0.0021081294 0.0019653277
0.22504514 -0.37764794 0.06694679 -0.55816078 0.82972258 0.0041249236 0.00097343535
0.23355237 -0.37159592 0.060949314 -0.64736289 0.76214653 -0.0073504685 0.0020512319
0.29658991 -0.37426373 0.062835433 -0.73354578 0.67963994 4.7961926e-06 9.5234034e-05
-0.3109659 -0.36126068 0.064699575 0.71894258 0.69506764 0.0016215981 0.00091105211
-0.3093031 -0.36280185 0.069902271 0.70560235 0.70860612 0.0016059059 0.00042161491
-0.24504326 -0.36536637 0.064435549 0.6894058 0.72437501 0.00075648661 6.0477716e-05
0.237082 -0.36792696 0.065240465 -0.66768354 0.74437571 -0.010171977 0.0023154845
0.24061897 -0.36425036 0.065894105 -0.6934526 0.72048134 0.0054917061 0.0012905315
0.30425936 -0.36598915 0.068258323 -0.73346174 0.67973071 -1.602561e-05 5.8483529e-05
0.25324127 -0.35112977 0.065905154 -0.7205798 0.69337213 -1.3644859e-05 0
0.31393769 -0.35554719 0.065452449 -0.7334249 0.67977053 -8.8873285e-06 7.8960649e-05
-0.32851171 -0.34139329 0.060055308 0.81148118 0.58437854 -3.2863845e-05 0.0012729432
-0.26695788 -0.344284 0.066137202 0.69334859 0.72060233 -2.67657e-05 0
0.32502776 -0.34358203 0.061455574 -0.73344809 0.67974544 -1.2540952e-05 0.00012447937
-0.33333856 -0.33372056 0.06310261 0.83747005 0.54646748 0.0041403882 0.00034582804
-0.32991159 -0.33916813 0.06117107 0.81152368 0.58431953 -1.9720432e-05 0.0012957418
-0.28001395 -0.33172378 0.061132465 0.69324738 0.72069967 1.5853328e-05 6.8070681e-06
-0.27638924 -0.33521083 0.063518196 0.69335258 0.7205984 -8.8917823e-06 0
0.26427925 -0.339656 0.067500591 -0.72063392 0.69331574 1.0545994e-05 0
0.3357664 -0.33199608 0.066363364 -0.77336806 0.63392502 -0.0063986517 0.00071544282
0.27408808 -0.32945997 0.063702241 -0.720406 0.69355255 3.238791e-05 0
-0.34633839 -0.31305611 0.066982374 0.84641314 0.53252679 -1.0347704e-05 8.8093975e-06
-0.29541093 -0.31691155 0.06243971 0.75833416 0.65161347 -0.018141499 0.002179143
0.28367722 -0.31949228 0.069283262 -0.72065473 0.69329411 4.157997e-06 0
0.34743869 -0.31533802 0.065148465 -0.84975457 0.52716804 -0.0033174651 0.0014465115
-0.30384082 -0.30469221 0.069927692 0.82961637 0.55833364 -0.00041617258 0.0010230202
0.29879352 -0.30376697 0.065570012 -0.80340266 0.59541309 -0.0052366122 0.0027728509
0.3521843 -0.30634716 0.062680289 -0.87878275 0.47715712 0.0078657912 0.00020365993
-0.35859489 -0.29357311 0.0668879 0.8464545 0.53246117 -2.2647013e-05 4.377297e-06
-0.31266013 -0.29007739 0.068014383 0.85617006 0.51669413 4.5018523e-06 0
-0.31383407 -0.28813204 0.065779492 0.85614735 0.5167318 -4.8643648e-07 1.9509822e-05
0.31165171 -0.28111455 0.061621383 -0.87439924 0.48520711 -0.00016936345 7.7001343e-05
0.36281574 -0.28620532 0.067598037 -0.88440233 0.46672547 3.3058404e-05 4.69051e-07
-0.37308484 -0.27053994 0.069868714 0.86984837 0.49331912 1.3522144e-05 0.0016731604
-0.36945921 -0.27630323 0.065907747 0.8474797 0.53082782 0.00019721828 9.2418159e-05
0.37110552 -0.27049994 0.061786063 -0.88432747 0.46686727 -2.9550423e-05 0
-0.32797971 -0.26469076 0.064035684 0.85618246 0.51667356 -7.8611565e-06 0
0.37372467 -0.26553786 0.065156259 -0.88436592 0.46679428 -1.0926278e-05 0
-0.38178265 -0.25611621 0.063554063 0.90664238 0.42183301 0.0075237718 0.0017042485
-0.33448809 -0.25390539 0.063135117 0.85613745 0.51674825 1.826806e-05 0
0.37976196 -0.25409985 0.061080299 -0.88434076 0.46684188 -1.452255e-05 4.6400382e-05
0.38030684 -0.25306761 0.062968835 -0.88432163 0.46687821 9.6008889e-06 0
-0.38460523 -0.24698308 0.063529179 0.93152517 0.3635909 0.0079048453 0.0017582896
-0.33907473 -0.24630471 0.06687396 0.87249261 0.48861697 -0.0031789378 0.00066158595
0.33680826 -0.23552674 0.064952739 -0.87593973 0.48242044 -0.00027064804 0
0.3874093 -0.2396116 0.062817186 -0.90241337 0.43063614 -0.014235265 0.00069605222
0.39030766 -0.23412052 0.062816828 -0.91828108 0.3957831 -0.010748754 0.0017009856
-0.35065955 -0.22362754 0.066729724 0.91942579 0.39192164 0.032459624 0.0015080837
0.34106216 -0.22781809 0.065964952 -0.89177406 0.45248082 0.00042768911 0.00075271149
0.39479959 -0.22262408 0.060276292 -0.95015031 0.31178662 0.0018748142 0.0017005606
-0.39407751 -0.21633299 0.066270262 0.95541811 0.29525614 -9.2288101e-06 0
0.39584458 -0.21803428 0.065578267 -0.95789462 0.28647381 0.019252896 0.0018685266
-0.35510835 -0.20822327 0.065813392 0.96072835 0.27749044 -2.9436371e-06 1.9206361e-06
0.39922819 -0.20317301 0.063522026 -0.97395831 0.2266987 0.0036015012 9.774448e-05
-0.39951175 -0.1987491 0.061836984 0.95543444 0.29520351 -1.9635654e-07 0
-0.35901749 -0.19468758 0.063327193 0.96071279 0.27754456 1.3829474e-05 0
0.35250598 -0.19507223 0.063751712 -0.9706108 0.24065436 -0.00044055042 5.3801617e-05
0.402172 -0.19024329 0.068268232 -0.97503889 0.22203417 9.2859018e-06 2.682899e-05
-0.40449321 -0.18263032 0.066856802 0.95542669 0.29522851 -7.7358736e-06 6.6462126e-06
0.35541236 -0.18332031 0.068355717 -0.97075462 0.24007374 1.359045e-05 0
0.4037405 -0.18335402 0.061055683 -0.97504526 0.22200613 -1.2510516e-05 0
-0.40644366 -0.17631926 0.067038402 0.95593929 0.29356328 0.00082312105 1.7657006e-06
-0.36339161 -0.17954192 0.068686597 0.96072036 0.2775183 5.6183335e-06 1.5551885e-05
0.35860175 -0.17042401 0.067018561 -0.9707489 0.24009693 6.0776479e-06 0
0.40557727 -0.17528664 0.06450177 -0.97505689 0.22195525 -3.3666788e-06 1.4222907e-05
-0.41124988 -0.16076738 0.060205139 0.97619551 0.21688293 0.0020440598 0.0017307689
-0.40854776 -0.16951083 0.062991887 0.95604491 0.29321995 0.00038419885 0
-0.36724687 -0.1661929 0.062375087 0.96072733 0.27749404 -9.836047e-06 0
0.36044872 -0.1629557 0.063732594 -0.97075135 0.24008712 5.3867898e-06 5.691055e-05
-0.41340441 -0.15343538 0.064725354 0.98079425 0.19496547 -0.0055743721 0.0017334954
-0.37169665 -0.15078524 0.069852047 0.97029954 0.24185711 0.0048942007 0.0010389884
0.36261821 -0.15418337 0.062001713 -0.97075444 0.24007468 2.2552005e-05 1.7453129e-05
0.41095856 -0.15165137 0.065146849 -0.9750427 0.22201754 3.5388525e-06 2.6161608e-05
0.41254616 -0.14467834 0.061595257 -0.97517538 0.22143398 1.4610265e-05 4.1725958e-05
-0.4143196 -0.1382108 0.063360833 0.99688184 0.07872089 -0.0054492112 0.00083035999
-0.37610209 -0.13133794 0.069553457 0.98989582 0.14173043 -0.0043293191 0.0019657395
0.36759415 -0.13406327 0.063253738 -0.97817308 0.2077719 -0.0028866527 0.0011728771
0.36967468 -0.12565055 0.064932391 -0.98800617 0.15432394 -0.0052871616 0.002241163
0.37061396 -0.12185245 0.063826054 -0.99560678 0.093474038 -0.0054573282 0.0019936094
-0.41502815 -0.1195426 0.069285609 0.99928069 0.037922077 -1.6919846e-06 2.5803673e-05
-0.3765043 -0.11055829 0.063042469 0.99974293 0.022642788 0.0011813134 9.7384058e-05
0.41760409 -0.11246803 0.065954924 -0.9999277 0.0056596436 0.010612344 0.0015417879
-0.41562861 -0.10372175 0.062739529 0.99927926 0.037960343 -2.2143102e-05 0
0.41713369 -0.10007478 0.065843046 -0.99937814 -0.035254996 0.00058347359 0
-0.41583806 -0.09820357 0.060240779 0.9992823 0.037880108 6.4874125e-06 4.296605e-05
-0.37683865 -0.093284525 0.067133658 0.99981284 0.01934821 3.2960559e-06 5.4423155e-05
-0.41637903 -0.083949655 0.067533702 0.9992823 0.03788051 1.436438e-07 0.00010082398
0.36999667 -0.083426058 0.061815254 -0.99981225 -0.019375747 2.2859549e-05 0
0.37008104 -0.08778581 0.065382883 -0.99981242 -0.019366307 -3.1807656e-05 0
-0.41673875 -0.074472219 0.069708161 0.99928075 0.037921246 -1.3689739e-05 0
0.3698433 -0.075503945 0.065745428 -0.99981332 -0.019322602 -1.8768427e-05 0
0.41625142 -0.076828972 0.063743398 -0.99928206 -0.037886396 -2.7352051e-05 0
-0.37747535 -0.060391154 0.069909841 0.99993658 0.011035069 0.0022254479 0.00012712655
0.36959502 -0.06267491 0.06802395 -0.99981248 -0.019363217 4.2144306e-06 9.1180395e-05
0.4157193 -0.062809125 0.062503688 -0.99928087 -0.037917498 7.4013788e-06 0
-0.41737586 -0.057685487 0.062101118 0.99998039 0.0061466624 0.0011891397 0.000601621
-0.37757999 -0.054984294 0.065572836 0.99997282 0.0018287959 0.0071465345 0.00017903867
-0.41770527 -0.043746624 0.063980013 0.99327564 -0.11552119 -0.0076434785 0.0028663254
-0.37776503 -0.045424819 0.063335739 0.99874038 -0.050072886 -0.0032283335 0.0021124042
0.3692129 -0.042933621 0.063761503 -0.99940813 -0.034251891 0.0032023056 0.00026346499
0.41499245 -0.04365867 0.060246442 -0.99924093 -0.038953189 -0.00024874174 2.0320096e-05
-0.416004 -0.034650538 0.065779768 0.98650104 -0.16300195 -0.015686087 0.0013329656
-0.37754568 -0.036389377 0.065761469 0.99308759 -0.11715595 0.0071815453 0.0029602367
0.36902422 -0.033185899 0.063926265 -0.99723154 -0.073782861 0.0092375651 0.0012179239
0.41467676 -0.035341643 0.065408774 -0.99923486 -0.039112087 0.00026137708 0
-0.37457916 -0.024020655 0.064480864 0.97979313 -0.20000882 -0.0013980652 0.00079233927
-0.41217661 -0.017839935 0.065637656 0.97567457 -0.2192239 -5.593819e-06 2.570982e-05
-0.37231165 -0.014851956 0.064937033 0.97114825 -0.2384765 8.3656771e-05 0
0.36705363 -0.016922051 0.060603704 -0.98359948 -0.1799632 0.012052438 0.0020910131
0.41376132 -0.013936369 0.06370946 -0.98971748 -0.14290269 -0.0061772563 0.0020342434
-0.41022712 -0.0092774937 0.06861224 0.97504735 -0.22199696 -8.509673e-07 0
0.41050491 -0.00096349302 0.065722197 -0.96081585 -0.27716357 -0.0036291401 0.00021425677
-0.40768346 0.0018946024 0.067588091 0.97504616 -0.22200195 -3.575104e-05 0
-0.36839217 0.00099628267 0.069200069 0.97075385 -0.24007688 -1.6033739e-05 0
0.36181468 0.0012182482 0.067030683 -0.9607361 -0.27746373 2.6168937e-06 0
0.40920225 0.0032516418 0.06246148 -0.95862865 -0.28465697 0.0012703195 0.00019642407
-0.40478766 0.014613328 0.066409208 0.97504419 -0.22201073 -2.5867908e-05 0
0.40402699 0.019997675 0.063233554 -0.95541525 -0.29526529 1.4357757e-05 0
-0.40200117 0.02685201 0.0694848 0.97504616 -0.22200206 -1.1622525e-05 0
-0.363148 0.022201296 0.068265155 0.97075438 -0.24007472 8.1520975e-06 0
0.35373065 0.029209776 0.065221913 -0.96073276 -0.27747527 -8.9894847e-06 2.7645021e-05
0.40240183 0.025256105 0.066558257 -0.95541245 -0.29527453 2.318031e-05 0
-0.36097088 0.031004442 0.061259598 0.97075212 -0.24008404 4.4498015e-06 9.4854704e-06
-0.35879189 0.039815277 0.060437582 0.96239614 -0.27161735 -0.0041949698 0.00065177667
0.35065788 0.039849456 0.061725087 -0.96073449 -0.27746943 -2.060103e-05 0
0.34999108 0.042158291 0.068297178 -0.96073157 -0.27747947 -1.7039696e-05 0
-0.39526144 0.056453802 0.064377531 0.95253295 -0.30441391 0.0036333143 0.0013656635
-0.35367805 0.059079938 0.069354929 0.92816484 -0.37178835 0.016834976 0.0021859915
0.39360785 0.053711314 0.06730359 -0.95541322 -0.29527199 1.549238e-05 0
-0.39232516 0.066156611 0.064900726 0.9337436 -0.35767066 0.013951653 0.0022287762
-0.35075727 0.064372927 0.060423337 0.91126442 -0.41181514 0.0023346406 0.0024173809
-0.34913391 0.067314617 0.060967453 0.8995387 -0.43682829 0.0033463584 0.0016973182
0.38968128 0.06641674 0.062370498 -0.95540905 -0.29528576 -2.192867e-05 0
0.39116013 0.061631605 0.065949082 -0.9554016 -0.29530948 3.2516687e-06 0
-0.38585454 0.078415543 0.069444746 0.8975054 -0.44099548 -0.0026451019 0.00074853475
-0.34494805 0.07490012 0.063897878 0.8828392 -0.46967444 -0.00088607986 0.00046395895
0.3373374 0.078374967 0.066903599 -0.89184743 -0.45219249 0.01140476 0.0018218099
0.34100366 0.072231025 0.061295394 -0.93299037 -0.35980931 -0.0081412364 0.0010087242
-0.33972979 0.084356442 0.064622536 0.87552875 -0.48316595 4.8540287e-06 5.6255911e-05
0.33625796 0.080163762 0.065561429 -0.88638717 -0.46282983 0.010312226 0.0016578956
0.38467103 0.082628801 0.069062218 -0.93673754 -0.3500298 -0.0013303029 0.0016251155
-0.3775301 0.094186708 0.061881684 0.88435864 -0.46680805 6.876332e-06 9.0284129e-06
-0.33125064 0.099722043 0.061944328 0.87550712 -0.48320523 2.4601986e-06 0
0.32540524 0.098148152 0.06896168 -0.85618562 -0.5166685 1.5367443e-06 0
0.37722671 0.099814653 0.068788826 -0.87863046 -0.47750139 0.0010323594 0.0011483002
0.38163486 0.092453092 0.063525565 -0.91417652 -0.4052597 -0.0067711431 0.0023235525
-0.372233 0.10422229 0.066348195 0.88436711 -0.46679211 -1.086991e-05 0
0.37516749 0.10308796 0.066225089 -0.87877023 -0.47724283 -0.0014680914 0.0011976663
-0.3651875 0.11757037 0.068774648 0.88438505 -0.46675816 -3.1755364e-05 0
0.31398559 0.11707211 0.066843912 -0.85619211 -0.51665771 2.3055363e-06 0
0.31020233 0.12334145 0.061601836 -0.85618997 -0.51666123 -2.3190261e-05 0
0.35826424 0.12995733 0.068199806 -0.8464129 -0.53252715 4.2200045e-07 8.1093831e-06
0.36235571 0.12345352 0.067319356 -0.84641176 -0.53252888 -4.0259557e-08 2.7889704e-05
-0.35585028 0.13526013 0.067377597 0.88435394 -0.46681705 -1.6605651e-05 0
-0.31217486 0.13429049 0.063444763 0.84743118 -0.53088552 0.0045830002 0.0012310543
0.30285677 0.13551402 0.067339107 -0.8528055 -0.5222286 3.4523349e-05 8.6610555e-05
-0.35254517 0.14152186 0.067888357 0.87741601 -0.47972944 0.00082979864 0.00014569028
0.29957128 0.14095855 0.06482777 -0.84552133 -0.5339219 -0.0045982152 0.00058526138
-0.34567437 0.15453896 0.065096498 0.84786475 -0.53000093 0.014983024 0.0015415017
-0.29843748 0.15272032 0.063603349 0.76005024 -0.64981067 -0.0083445096 0.0012993711
0.29242557 0.15279993 0.06508404 -0.79099733 -0.61181962 -7.6039199e-05 0.0022150862
0.34164196 0.15637998 0.067699283 -0.84642768 -0.53250366 1.3066633e-06 0
-0.33559358 0.16804095 0.063971937 0.76124078 -0.64839011 0.010139144 0.0010184767
-0.28887272 0.16266266 0.06251812 0.72060913 -0.69334155 -1.6530141e-06 0
0.27814502 0.16770844 0.06250672 -0.7021516 -0.71202749 -4.1234704e-05 6.7049339e-05
-0.27364191 0.17849469 0.066730671 0.72060341 -0.69334751 -1.9119543e-05 0
0.27339929 0.17227392 0.064335048 -0.69752043 -0.71656489 0.00015215256 0.00011676599
0.32758999 0.17871705 0.06317991 -0.81993687 -0.57220411 -0.016912332 0.0012903974
-0.31688464 0.18822609 0.065029427 0.73338252 -0.67981619 4.9285168e-06 0
-0.27211419 0.18008272 0.069614232 0.72063965 -0.69330984 -1.0269233e-05 0
-0.26970237 0.18258974 0.061845742 0.72057676 -0.69337517 7.6374472e-06 0
0.25630161 0.1887223 0.066600516 -0.69332427 -0.72062564 0 0
0.32457668 0.18350695 0.064137585 -0.79543567 -0.606022 -0.0044074338 0.0017513653
-0.25442272 0.19847256 0.064762913 0.71865463 -0.69536722 -7.3361218e-05 0
0.31434244 0.19398955 0.064742714 -0.70194918 -0.71219707 0.0065372596 0.00070820044
-0.30209118 0.2041868 0.065433115 0.73340082 -0.67979646 -6.6171979e-06 0
-0.25249326 0.20047821 0.065001629 0.71417731 -0.6999647 -9.2098817e-05 9.3211616e-05
-0.24841894 0.20471331 0.062502235 0.6987375 -0.71537155 -0.0030664972 0.00071928493
0.23529695 0.20892927 0.065537781 -0.6815812 -0.73173767 -0.0026520919 0.00037168729
0.24430203 0.20026618 0.06465745 -0.69333172 -0.72061849 -1.9673153e-05 0
0.229267 0.21473023 0.060768932 -0.65662879 -0.75418413 -0.0067029418 0.0014055374
0.29373354 0.21309125 0.065582789 -0.67979604 -0.7334013 2.0990497e-05 0
-0.28295466 0.22483329 0.063366778 0.72667754 -0.68697613 0.0018642243 0.00019901089
-0.27859515 0.22953673 0.063970208 0.71035725 -0.70384032 0.001120653 0.0008221172
-0.22219093 0.22480758 0.062233191 0.52657086 -0.85013092 -0.00078604004 0.00018421431
0.21279839 0.22766855 0.061482135 -0.5594492 -0.82877171 -0.012409412 0.0018045389
-0.27332735 0.23522024 0.063183203 0.67536551 -0.73735708 0.01363882 0.0013152354
-0.20184723 0.23708399 0.065902345 0.51668912 -0.8561731 -9.5849373e-06 2.2833807e-05
0.19591096 0.2369875 0.064357817 -0.4831647 -0.87552947 -1.5655476e-05 0
0.20108971 0.2341297 0.06740877 -0.48320785 -0.87550569 -3.1629559e-05 0
0.26744786 0.23745456 0.066763833 -0.67999297 -0.73321855 -0.00012600134 0
0.2753973 0.23008648 0.062333345 -0.67983109 -0.73336881 -4.1574982e-05 0
-0.26310539 0.2440612 0.064112842 0.6147607 -0.78871292 0.0010935017 0.0019564747
-0.25727245 0.24773064 0.066691898 0.57254642 -0.81984949 0.006108305 0.001376743
-0.19383159 0.24192102 0.064738169 0.51666296 -0.85618889 -2.3074392e-06 0
-0.18151212 0.24935521 0.066228129 0.51671451 -0.85615778 -4.4526414e-06 4.3391765e-06
0.18517055 0.24291435 0.068350956 -0.48318607 -0.87551767 -3.054339e-06 0
0.25799534 0.24621576 0.069002189 -0.67663145 -0.73632145 -0.00078789244 7.4796109e-05
-0.24674842 0.25435123 0.06700401 0.53263569 -0.84634459 -2.1532178e-05 0
-0.16431898 0.25973043 0.064003885 0.45187786 -0.89206588 0.0049923332 0.0014884103
0.24360345 0.2595551 0.069375247 -0.57640553 -0.81715375 0.0040543727 0.0024809462
0.25340411 0.2504712 0.062948748 -0.67622977 -0.73668653 -0.0025206269 1.1219627e-05
-0.23210804 0.26356134 0.068680525 0.53245783 -0.84645647 1.247784e-05 2.5411968e-05
-0.15549919 0.26505271 0.067586198 0.4045333 -0.91446489 -0.010335172 0.0017078582
-0.14736702 0.26773316 0.06738133 0.35682642 -0.93416965 0.0013745551 0.0014890791
0.13934532 0.26820195 0.069192074 -0.39286703 -0.91956735 -0.0071689128 0.0028121751
0.14394444 0.26566404 0.065682009 -0.44306874 -0.89629805 0.01843618 0.0013971567
0.15194295 0.26125023 0.069749177 -0.47112489 -0.88206488 0.001724018 0.00033919932
-0.13909489 0.27012217 0.06214007 0.31737053 -0.94828939 0.0048184814 0.0010571484
-0.12323357 0.27470297 0.06309741 0.27746126 -0.96073681 2.8220952e-06 0
-0.11136886 0.27812952 0.065761238 0.27749637 -0.96072674 -1.7173739e-05 0
0.098957561 0.27988231 0.067855515 -0.24008127 -0.97075284 -5.1931952e-06 7.1137433e-06
0.10382538 0.27867845 0.062741354 -0.24007823 -0.97075361 -1.9931358e-06 0
0.1126316 0.27650058 0.060328767 -0.25064951 -0.96806914 -0.0041232258 0.00022195249
0.12696186 0.27295655 0.068468571 -0.32617539 -0.94530892 -0.00085247337 0.0021442785
0.1349358 0.27063525 0.067672409 -0.38086978 -0.92462319 -0.0031779984 0.0022790355
0.20818262 0.27860832 0.068312317 -0.46684396 -0.88433969 -2.203588e-05 0
0.21279158 0.27617556 0.063248396 -0.46686256 -0.88432992 -1.1112096e-06 0
-0.20075732 0.2832838 0.0611335 0.53251064 -0.84642333 3.106559e-06 0
-0.19068208 0.28962204 0.06907291 0.50810099 -0.8612873 -0.0041943616 0.00057739299
-0.10296638 0.28055617 0.061394714 0.2774905 -0.96072835 1.5520054e-05 0
-0.095674232 0.28266218 0.06750723 0.27749279 -0.96072769 -1.3006821e-05 0
-0.07725025 0.28798309 0.067638278 0.26687932 -0.96371293 -0.0057282448 0.00016981462
0.067037337 0.2877765 0.067131363 -0.24009678 -0.97074896 -9.6700278e-06 0
0.078018367 0.28506076 0.065933764 -0.24008299 -0.97075236 -2.2345928e-05 1.2547802e-05
0.1904791 0.28795275 0.065291062 -0.46681625 -0.88435441 -1.9147832e-05 0
0.20054631 0.28263897 0.066782989 -0.46683118 -0.88434643 2.4927323e-07 0
-0.18729411 0.29175338 0.062659353 0.49060389 -0.87136871 0.0049326522 0.00095279474
-0.17930675 0.29677814 0.063391417 0.44978738 -0.8929199 0.019630741 0.0018317873
0.036209334 0.29483372 0.063554727 -0.087049216 -0.99613601 -0.011643727 0.0024696139
0.054873642 0.29078469 0.066356279 -0.21001869 -0.97767353 -0.0068291421 0.00074785377
0.17724609 0.29493752 0.066822439 -0.46680611 -0.88435972 -1.1284786e-05 0
0.18058208 0.29317671 0.063677669 -0.46679318 -0.88436651 -1.59065e-06 8.8885945e-06
-0.1688356 0.30132204 0.061004944 0.3725304 -0.92801231 -0.0037823576 0.0017651636
-0.15501088 0.3055945 0.066123165 0.31169674 -0.95017713 -0.0029508488 0.00028936373
-0.14718579 0.30801281 0.069429621 0.2953164 -0.95539951 -2.4503739e-05 0
0.15606882 0.30611554 0.063866526 -0.43904009 -0.89842552 -0.0086799078 0.00078135822
0.16531208 0.30123669 0.063434325 -0.46503785 -0.88529086 6.1639337e-05 0
-0.13372797 0.31217194 0.064324275 0.29529202 -0.95540708 -2.3248484e-05 5.8252259e-05
-0.12471209 0.31495824 0.065146081 0.29525992 -0.95541698 1.4170998e-05 3.3226544e-05
-0.11552273 0.3177982 0.064882509 0.29526624 -0.95541507 2.9290266e-06 2.6331127e-05
-0.10875362 0.31989014 0.061519045 0.29528213 -0.95541006 9.462261e-06 0
0.10913441 0.31988227 0.066714138 -0.2220532 -0.97503459 -2.4762063e-05 0
0.11707222 0.318075 0.063358821 -0.22199456 -0.97504789 4.2917823e-06 7.320943e-06
0.12621987 0.3159923 0.066301487 -0.23242863 -0.97261178 0.0018003347 5.3576943e-05
0.1336174 0.31430802 0.062949061 -0.27910674 -0.95970929 -0.032519702 0.0012005082
-0.081690863 0.32825381 0.060283132 0.26169968 -0.96514565 0.0026856563 0.0014200677
0.074320823 0.32780862 0.065844327 -0.22201675 -0.97504288 -1.0016701e-05 0
0.086872339 0.3249509 0.065436654 -0.22196797 -0.97505397 8.8437491e-06 1.2196838e-05
0.094401419 0.32323664 0.065192938 -0.22196215 -0.97505528 2.3771094e-05 0
0.1067854 0.32041708 0.069581166 -0.22203051 -0.97503972 -2.6786816e-05 0
-0.074918106 0.33034688 0.062174618 0.1791026 -0.98382539 0.0031478475 0.0022030128
-0.067499928 0.33181766 0.067924395 0.11395921 -0.99336505 0.015465999 0.0016691037
-0.050981883 0.33244461 0.065079235 0.051005337 -0.99868017 0.0060361992 0.00013496612
-0.043414347 0.33273184 0.069681726 0.038773075 -0.99924803 -0.0001309712 4.6045763e-05
-0.023207575 0.33349878 0.065260172 0.03792901 -0.99928045 -9.0960284e-06 4.4604276e-05
-0.017546631 0.33371365 0.065786555 0.037926689 -0.99928051 -5.0660327e-07 5.1879109e-05
-0.0026794011 0.33427793 0.067647099 0.037926335 -0.99928051 9.5263058e-06 0
0.014884621 0.33494458 0.064629875 0.023832213 -0.99971336 -0.0023021803 0.00021867441
0.03394122 0.33559856 0.065312378 -0.04847692 -0.9987855 0.0088073388 0.0022678541
0.044463776 0.33460641 0.065846384 -0.12033992 -0.99270618 0.007263612 0.0035317927
-0.0090376697 0.44310683 0.062501095 -0.50361162 -0.83440518 -0.22392721 0.074844867
0.0083163269 0.44196039 0.067062378 -0.09724766 -0.95942563 -0.26466075 0.020582002
0.012022747 0.44319689 0.062142823 0.0015394315 -0.96790421 -0.251315 7.1320814e-05
0.021874512 0.4421294 0.066389903 -0.0014559326 -0.96605629 -0.25832793 2.1547819e-05
0.035246566 0.44255188 0.064709067 -0.0021692829 -0.96813643 -0.25041428 7.2870651e-05
0.042317733 0.44252193 0.064828232 0.0012119144 -0.96683359 -0.25540435 0.00013790803
0.05385302 0.44278073 0.063798629 0.25489905 -0.91595995 -0.30990952 0.029113419
0.068918072 0.4417792 0.067783147 0.42424151 -0.84182686 -0.3336865 0.049529865
0.075273961 0.44551459 0.067762211 0.8195768 -0.54868162 -0.1650521 0.060796443
-0.016888918 0.45625779 0.066056155 -0.89190996 -0.40489659 -0.20138387 0.074323744
0.075273961 0.45834661 0.060519826 0.89325142 -0.38995114 -0.22369641 0.067955136
0.075273961 0.46179438 0.062836275 0.97531897 -0.21284327 -0.058742564 0.051110666
-0.016888918 0.47422075 0.061087623 0.99575794 -0.091857329 -0.0053166812 0.012671454
0.075273961 0.47044033 0.060138755 -1 -4.8720209e-05 -2.8811961e-05 0
-0.016888918 0.48328751 0.065285601 0.99196708 -0.12637965 0.0054316334 0.024743546
-0.016888918 0.49771783 0.063603953 0.74838793 -0.65334547 0.11425929 0.11730526
-0.0093963295 0.5 0.068701476 0.58901888 -0.80066496 0.10950954 0.099894151
0.025064379 0.5 0.065528877 0 -1 0 0
0.034303091 0.5 0.068129852 0 -1 0 0
0.042960845 0.5 0.062403325 0 -1 0 0
0.053817891 0.5 0.062773883 -0.096425295 -0.9953205 0.0062599983 0.014075354
0.066710182 0.5 0.064365305 -0.33999771 -0.94007099 0.02584794 0.057432503
0.072833151 0.5 0.06616468 -0.54391038 -0.83903527 0.01346553 0.090738066
-0.072601594 -0.49234152 0.075678654 0.22203639 0.97503835 3.0658292e-05 0.00012127784
-0.068282895 -0.49332479 0.07648658 0.22205025 0.97503525 -3.9674374e-06 0.00015356434
-0.057167728 -0.49585548 0.076852873 0.20873438 0.9779585 -0.0052037761 0.00025203839
-0.045138843 -0.49859422 0.07803423 0.1347626 0.9908511 0.007293677 0.0021656547
-0.039454736 -0.49988836 0.073262364 0.11257709 0.99363101 0.0048877196 0.002301974
-0.016203759 -0.49913612 0.073404022 -0.027501125 0.99961972 -0.0020392993 0.00014092767
-0.0038553851 -0.49866745 0.072245389 -0.037929866 0.99928045 -2.8435154e-06 6.933933e-06
0.0015311111 -0.498463 0.075547516 -0.037934229 0.99928021 -1.2623982e-05 0.00011284702
0.011502983 -0.49808452 0.079946086 -0.037933625 0.99928021 1.3234671e-05 0
0.026179161 -0.49752748 0.074470565 -0.037933525 0.99928027 1.6714721e-05 6.7048e-05
0.033659067 -0.49724358 0.071672574 -0.037933186 0.99928027 1.8678242e-05 2.6471387e-05
0.045442224 -0.49679631 0.075653441 -0.037935663 0.99928021 6.9328657e-06 7.4313328e-05
0.052744418 -0.49651921 0.071105592 -0.055398211 0.99846375 -0.0010364102 0.00026754028
0.084798068 -0.49143499 0.071289532 -0.26396933 0.96453029 0.0011932343 0.00065584481
-0.12344064 -0.48076653 0.070931017 0.23215879 0.97267789 -9.7120166e-05 0.00020435789
-0.115517 -0.48257056 0.074763484 0.22200839 0.97504473 -2.5670905e-05 0
-0.10845724 -0.48417795 0.077595614 0.22200423 0.97504574 4.7435442e-06 8.8162487e-05
-0.085319638 -0.48944589 0.07782197 0.22202319 0.97504139 -1.0355119e-05 0.00016831927
0.096189514 -0.4879145 0.073966399 -0.29525852 0.95541745 -2.2621252e-05 0
0.10638687 -0.48476303 0.071360514 -0.29527164 0.9554134 -3.7398215e-05 0
-0.1495769 -0.47368366 0.073800325 0.37368003 0.92734927 0.019660354 0.0016113046
-0.13276333 -0.47864395 0.072184607 0.23941362 0.97091079 -0.0036586814 0.00025640687
0.13889378 -0.4747169 0.079509616 -0.29527971 0.95541084 -7.1836883e-05 0
0.14372709 -0.47322318 0.070169695 -0.29537389 0.95538169 4.0476309e-05 3.195622e-05
-0.16548327 -0.4652878 0.070013076 0.46692777 0.88429552 2.3123826e-05 0
0.17030376 -0.46500978 0.074758403 -0.38592923 0.92183715 0.035704996 0.0019460615
-0.18285897 -0.45611638 0.076836914 0.46682826 0.88434798 2.5850079e-05 5.1377801e-06
-0.17962223 -0.45782486 0.077849522 0.46685362 0.88433462 1.9069093e-05 5.5865094e-06
-0.060399305 -0.45009503 0.075093895 0.21213257 0.9772318 -0.0042206077 0.00056567224
-0.055157788 -0.45139134 0.077198647 0.17442825 0.98464537 -0.0069407369 0.0014453797
-0.0309429 -0.45349222 0.079955287 0.0098323207 0.99995166 -0.00015594283 0.00063791726
-0.026821278 -0.45341241 0.078299925 0.0023773152 0.99999696 0.00056825613 0.00046502845
-0.013059736 -0.45314604 0.076614782 -0.019352254 0.99981272 1.5595142e-05 0
0.0034237318 -0.45282704 0.071163163 -0.019356912 0.99981266 -1.6559708e-05 2.5390375e-05
0.015588183 -0.4525916 0.079931587 -0.019353718 0.99981266 -8.6416003e-06 6.8579415e-05
0.029948391 -0.45231363 0.074415162 -0.024953617 0.99968851 -0.00056235382 0
0.046195157 -0.45199916 0.07634747 -0.083048806 0.99654543 -0.00035789478 0.0010609335
0.053891726 -0.45155314 0.073846929 -0.15858704 0.98732966 0.0055017369 0.00264489
0.18916368 -0.45471871 0.075407267 -0.50989568 0.86023313 0.0023179804 0.0002664481
0.19453779 -0.45133793 0.077783838 -0.51805502 0.85534471 -0.002109651 0.00030895162
-0.20639569 -0.44369304 0.079806469 0.46682808 0.88434809 -1.4202349e-05 8.0442194e-05
-0.096113548 -0.44126254 0.07142172 0.24010462 0.97074699 1.1555197e-05 3.2940754e-06
-0.081540704 -0.44486654 0.079852924 0.24008068 0.97075289 -2.9152394e-05 3.7830028e-05
-0.077306248 -0.44591376 0.079199463 0.24014993 0.97073579 1.8357499e-05 9.2618189e-05
-0.06503851 -0.44894773 0.076494448 0.23042122 0.97309095 -0.00019553571 4.0302686e-05
0.064140484 -0.44859323 0.075093433 -0.2572878 0.96631199 -0.0066342643 0.00060116145
0.078955211 -0.44431472 0.073882453 -0.27745327 0.96073914 -1.9075827e-05 0
0.19885442 -0.44862235 0.079212159 -0.53255087 0.84639806 2.8987541e-05 5.3022108e-05
-0.22510509 -0.43381763 0.076071046 0.48089793 0.87677068 0.0032086291 0.00010148509
-0.21850307 -0.43730241 0.078941628 0.47035328 0.88247716 0.0013480941 0
-0.11291709 -0.43710682 0.0742165 0.24006981 0.97075564 -3.5928064e-05 0
0.099176042 -0.43847483 0.073060632 -0.27750137 0.96072519 3.6240766e-05 0.00011022021
0.10002078 -0.43823084 0.071819477 -0.27747399 0.96073318 2.6245978e-06 3.7522728e-05
0.11871071 -0.43283314 0.076381594 -0.27751684 0.96072078 1.4156587e-06 7.961817e-05
0.12762858 -0.43025762 0.078591146 -0.29884183 0.95429313 -0.004267558 0.00025172994
0.22453062 -0.43246973 0.076043591 -0.53243238 0.8464725 -4.8671723e-06 0
-0.24405272 -0.42324427 0.076495312 0.58098018 0.81349099 -0.02635232 0.0022684447
-0.15575321 -0.42201293 0.072577074 0.45644045 0.8897413 0.0047494206 0.00057524291
-0.1471397 -0.4267661 0.078190356 0.44586703 0.89508361 0.0052716443 0.00077355996
0.13301781 -0.42870119 0.078468502 -0.32177931 0.94681311 -0.0017500296 0.0006976836
0.15190315 -0.42178541 0.079000428 -0.42779207 0.90381616 0.010499795 0.0018467195
0.22977731 -0.42916909 0.076109976 -0.5324114 0.84648573 2.4541387e-06 0
0.23619343 -0.42513281 0.079281352 -0.53247172 0.84644783 -1.8475153e-05 0
0.2416117 -0.4217242 0.079461493 -0.53253078 0.84641063 7.1047843e-06 4.4699689e-05
-0.25338414 -0.41463131 0.074769154 0.64798993 0.76159388 -0.0091585657 0.0012547876
-0.16915472 -0.41461763 0.075148918 0.48316962 0.87552679 -2.2544082e-06 5.7640955e-05
0.1571216 -0.41863635 0.072066501 -0.46332341 0.88614756 -0.0085921735 0.0013740633
0.16826004 -0.41191486 0.074906603 -0.51669341 0.85617048 -1.2726598e-05 0
0.2551173 -0.41322798 0.073301494 -0.56461006 0.8253569 0.0012232421 0.0010063811
-0.26495317 -0.40390837 0.077271476 0.67963892 0.73354685 5.9412737e-06 0
-0.19375816 -0.40104076 0.073979445 0.48319489 0.87551284 1.531453e-05 3.234762e-05
-0.18336834 -0.40677416 0.078480169 0.48313245 0.87554723 -2.2109049e-05 0
-0.17864972 -0.40937802 0.073778957 0.48316655 0.87552845 2.6787422e-05 2.1884271e-05
0.18445843 -0.40213996 0.073680535 -0.51680064 0.8561058 -1.4650398e-05 1.5176149e-05
0.26873848 -0.40431273 0.072249405 -0.65284997 0.75718868 0.021266384 0.0017239426
-0.27446625 -0.39509094 0.07698229 0.67977327 0.73342228 -9.9762622e-07 6.4915024e-05
-0.21186647 -0.39104813 0.075715661 0.51166737 0.85917318 0.0042412356 0.00080860272
-0.20645285 -0.39403549 0.072326392 0.48668012 0.87358016 0.00036685902 0.00012996113
0.20201635 -0.39154464 0.070226692 -0.51660776 0.85622215 -2.2956083e-05 1.4360823e-05
0.2754378 -0.39708483 0.074994236 -0.69150984 0.7221579 0.017381303 0.0014489352
-0.22592287 -0.38329142 0.076620094 0.58978075 0.80730242 0.020529697 0.0025831254
-0.21650775 -0.38848692 0.07312642 0.52443457 0.85143769 0.0047153886 0.0011491441
0.20534433 -0.38953638 0.077232979 -0.51666039 0.85619038 9.2436647e-07 0
0.214919 -0.38375854 0.076900102 -0.54182297 0.84046072 0.0073274774 0.00066418509
0.28286535 -0.38907123 0.075685486 -0.73329645 0.67990911 3.0441104e-05 0
-0.2967681 -0.37442014 0.076950349 0.67990083 0.73330408 2.9620707e-05 0
-0.23394123 -0.37604678 0.072512828 0.63836598 0.76964217 -0.011823052 0.0018528843
0.23346451 -0.37168729 0.075880699 -0.63150954 0.77494925 -0.025483541 0.0026782278
0.29463202 -0.37637609 0.072909564 -0.73344088 0.67975324 2.6123071e-05 9.7913646e-05
0.30024949 -0.37031537 0.075987875 -0.733441 0.67975318 -3.1570951e-06 2.2637851e-05
-0.30534816 -0.36646754 0.07546927 0.68410093 0.72938043 -0.0031803777 5.5082659e-05
-0.2502749 -0.36033344 0.07496459 0.69336653 0.72058505 -7.6739116e-06 0
-0.24545422 -0.36497104 0.072741486 0.69181383 0.72207582 -0.00032651567 4.2558098e-05
0.23867515 -0.36627093 0.07199464 -0.667072 0.74497598 -0.0050710761 0.00218891
0.30251861 -0.36786726 0.074647978 -0.73344111 0.67975301 -4.7273243e-05 1.3256616e-05
-0.32114714 -0.35182393 0.074276708 0.76923496 0.6389572 -0.0033662845 0.0023930159
-0.31564337 -0.35692522 0.074212939 0.71978039 0.69389784 0.020539563 0.00092206267
-0.25560653 -0.35520425 0.076344058 0.69321805 0.72072798 2.7836322e-05 3.8013948e-06
0.25299969 -0.35138088 0.072421834 -0.72061604 0.69333434 -4.0675233e-05 0
0.31458342 -0.35485047 0.077493839 -0.7334165 0.67977953 2.5184436e-05 5.6851659e-05
-0.32706621 -0.34369108 0.076557271 0.79302585 0.60918254 -0.0025654335 0.0019765147
-0.26262611 -0.34845126 0.070763595 0.69337362 0.72057831 -1.9375413e-05 0
0.25763071 -0.34656703 0.074211486 -0.72068655 0.69326103 -3.0188789e-05 4.4205048e-05
0.26214671 -0.34187275 0.078547657 -0.72056574 0.69338667 9.4513389e-06 0
0.32014093 -0.34885448 0.079586692 -0.73338234 0.67981631 1.8045657e-05 0
-0.3348766 -0.3312757 0.077764019 0.84464115 0.5353328 -0.00035253147 4.1354349e-05
-0.27682605 -0.33479062 0.077420712 0.69332451 0.72062552 4.5993224e-06 0
0.26430672 -0.33962747 0.071988329 -0.72072321 0.693223 2.9924681e-06 3.8902333e-05
0.27190214 -0.33173218 0.075112388 -0.72072119 0.69322509 4.26631e-06 3.7325706e-05
0.33214781 -0.33590022 0.073772207 -0.76331258 0.64600748 -0.0053213923 0.00077923626
-0.28764606 -0.32438153 0.078498408 0.715662 0.69841337 0.0068183211 0.00058034708
0.27722141 -0.32620293 0.075415604 -0.72067016 0.69327813 -1.061837e-05 1.8188866e-05
0.28227329 -0.32095161 0.078267053 -0.72076738 0.6931771 -3.5523448e-05 2.4615973e-05
-0.34479117 -0.31551555 0.073799327 0.84642524 0.5325076 2.5309064e-06 0
0.34692216 -0.3163166 0.078030132 -0.84706879 0.53138208 0.010370021 0.001487097
-0.3543072 -0.30038887 0.070620194 0.84642935 0.53250104 -1.7657596e-05 0
-0.34960711 -0.30786014 0.07347177 0.84646988 0.53243661 -1.0837663e-05 0.00013942517
0.29730582 -0.30532563 0.073591545 -0.79446405 0.60701519 -0.01896107 0.0022579241
0.35538819 -0.3002772 0.078896932 -0.88433534 0.46685222 -1.2114108e-05 0
-0.3560493 -0.29761964 0.077561721 0.84648323 0.53241521 1.1117278e-05 7.1278328e-06
-0.3068341 -0.29973191 0.075332291 0.85106486 0.52505964 0.00094828871 0.00015512563
0.30291802 -0.29694134 0.075107679 -0.8391906 0.54373848 0.010373128 0.0014111809
0.35784394 -0.29562476 0.072003052 -0.88430023 0.4669188 -3.2943477e-05 0
-0.36346263 -0.28583544 0.077010825 0.84644693 0.53247303 6.6723019e-06 8.9168898e-05
0.30974025 -0.28457838 0.070127808 -0.86546022 0.50097632 0.0012185167 0.00020520952
0.31093526 -0.28241283 0.075051233 -0.87213856 0.48925886 0.00019342068 0
0.36477652 -0.28249055 0.077789865 -0.88432121 0.46687898 -9.2651908e-06 0
-0.37082842 -0.27412671 0.077592418 0.84744573 0.53088069 0.0011785424 0
-0.32102323 -0.27621859 0.075109303 0.85618621 0.51666731 2.4207717e-05 1.9875335e-05
0.36803451 -0.27631807 0.075098366 -0.88435829 0.46680865 -1.5592768e-05 0
0.37099999 -0.27069986 0.072761863 -0.88436419 0.46679771 9.7704776e-07 9.2551318e-06
-0.37593359 -0.26601154 0.076373175 0.88504803 0.46549964 9.2973693e-05 0.0017664451
-0.33070403 -0.26017612 0.076520294 0.8561908 0.51665968 1.9400408e-05 0.00011534127
-0.32546982 -0.26884997 0.071982577 0.85619682 0.51664984 3.0169895e-05 4.4999542e-05
0.37411028 -0.26480728 0.070512682 -0.88425291 0.46700823 3.4309878e-06 0
-0.38063544 -0.25853747 0.076063573 0.89992607 0.43519107 0.027236801 0.0017402933
-0.33475336 -0.2534658 0.074412636 0.85619253 0.51665676 2.6085512e-05 0.0001300186
0.32432821 -0.25814262 0.077821404 -0.87556309 0.48310381 3.2626033e-06 0.00012952466
-0.38543025 -0.24431343 0.076539502 0.93810683 0.34631976 -0.0042762407 0.0011478607
-0.33798566 -0.2481095 0.073419042 0.86477327 0.5021522 -0.0032023205 0.00029184599
0.32884395 -0.24995939 0.076001503 -0.87544382 0.48331994 7.60771e-05 0
0.33201057 -0.24422097 0.070731036 -0.8754468 0.48331454 2.1741786e-05 0
0.38260999 -0.24870414 0.079940587 -0.88835251 0.45915377 -0.0027440239 5.9304104e-05
-0.38696125 -0.2393595 0.072235145 0.94947147 0.31384602 -0.0021419262 0.00043051515
-0.34436852 -0.23753221 0.070813112 0.88799113 0.4598605 0.00029133406 0.001163003
0.33475316 -0.23925096 0.078498781 -0.87843525 0.47785553 -0.002356414 2.2525062e-05
0.39111194 -0.23259676 0.073454276 -0.91754252 0.39755568 -0.0080769788 0.0015952721
-0.39241213 -0.22172171 0.078168496 0.95540231 0.29530731 8.033216e-07 0
-0.35145834 -0.22086158 0.073888466 0.94132477 0.33621749 0.029417302 0.0020269086
0.3431094 -0.2241081 0.072961196 -0.90004325 0.43579754 -0.001638104 0.0014303459
0.39440483 -0.22435793 0.079730973 -0.94854909 0.31661952 -0.0025844388 0.0022922971
-0.35283434 -0.21609707 0.076659635 0.95433515 0.29866114 0.0067783743 0.00070188619
0.34724882 -0.21632965 0.070098892 -0.93064231 0.36592296 0.0023125291 0.0022986995
0.39565283 -0.21887651 0.077954814 -0.96226376 0.27211648 0.0010219146 0.00098295952
-0.39660734 -0.20814706 0.071746767 0.95543677 0.29519579 -9.3626531e-06 4.6813588e-05
-0.40088832 -0.19429478 0.076132342 0.95541817 0.29525614 -8.9307887e-06 0
0.35293534 -0.19333608 0.072894268 -0.97062695 0.24058932 -0.0001610702 8.5001819e-05
-0.40333578 -0.18637544 0.078878745 0.95541447 0.29526788 -2.6053038e-05 0
0.35507205 -0.18469638 0.074449621 -0.97072965 0.24017519 1.5750828e-07 0
-0.40700549 -0.17450124 0.073985755 0.95598626 0.29340979 0.0010086223 0
-0.36329257 -0.17988485 0.078519046 0.96072459 0.27750358 9.2634809e-06 6.3785781e-05
0.35709739 -0.17650706 0.075150266 -0.970761 0.24004796 1.1719919e-05 0
0.40611029 -0.1729456 0.075741112 -0.97503793 0.22203822 -1.2666106e-05 0
-0.41025808 -0.16397664 0.071073517 0.9744662 0.22376241 -0.018599084 0.0020341356
-0.4099848 -0.16486095 0.076561108 0.9662081 0.25750902 -0.011443416 0.0012077732
0.35972461 -0.16588379 0.077259451 -0.97074616 0.24010839 2.9722054e-05 0
0.36004961 -0.16456968 0.077933796 -0.97076601 0.24002783 1.0694256e-05 0
0.4078151 -0.1654579 0.07253778 -0.97504336 0.22201438 -6.6617586e-06 0
-0.36930686 -0.15906 0.07557977 0.96266878 0.27066609 0.0029502136 8.2623847e-05
0.41210011 -0.14663759 0.078238226 -0.97599047 0.21781249 0.00050622493 3.796264e-05
-0.41444385 -0.13493721 0.074530683 0.99604595 0.088623658 0.0061890334 0.0017326067
-0.37487492 -0.13978031 0.075966291 0.98512363 0.17180052 -0.0040097809 0.0020373208
0.3676196 -0.13396011 0.074096441 -0.98149782 0.19141379 -0.0047635795 0.0014401139
-0.37627369 -0.12247203 0.077068612 0.99765742 0.068349242 0.002841091 0.001441258
0.36990887 -0.12470357 0.075953946 -0.98855782 0.14989334 -0.016892063 0.0020874662
0.37057555 -0.11333305 0.075249068 -0.99903977 0.043639544 0.0038943072 0.0018088259
0.41784704 -0.11886944 0.0780956 -0.99655056 0.082956433 0.0022672876 0.0028968707
-0.37667361 -0.10181054 0.075897649 0.99981344 0.019316165 -1.9456877e-05 0
0.37038395 -0.1034339 0.074585102 -0.99998367 -0.0056893947 0.00038509653 0.00019465055
0.41722924 -0.10259208 0.070253655 -0.99952066 -0.030931635 -0.0013139559 0
-0.41600448 -0.093819268 0.076307029 0.99927968 0.037949678 -2.7543333e-06 4.6735237e-05
-0.37674454 -0.098148622 0.070347689 0.99981308 0.019333284 -1.299624e-06 4.5215103e-05
0.37017903 -0.092847519 0.073757648 -0.99981296 -0.019340253 6.9272223e-06 0
0.41693994 -0.094969407 0.070806116 -0.99928212 -0.037885033 7.7245359e-06 0
0.37001234 -0.084237576 0.078441888 -0.9998132 -0.019327043 -3.0016401e-05 0
0.41653669 -0.084344961 0.070618793 -0.99928248 -0.037875459 -1.2798096e-05 0
0.36982405 -0.074509509 0.077128291 -0.99981236 -0.019367801 8.4608009e-06 8.7145971e-05
0.41613546 -0.073774174 0.073678277 -0.99928123 -0.037907422 -1.5370179e-05 0
-0.37739038 -0.064780608 0.073814213 0.99987221 0.015975097 0.00061461463 0
0.36958703 -0.062262446 0.073028669 -0.99981242 -0.019367106 1.6761971e-05 3.6188681e-05
0.41593087 -0.068383247 0.072517894 -0.99928004 -0.037939493 -4.5067736e-07 0
-0.41751373 -0.054054268 0.075096369 0.99996263 -0.0064634127 -0.0057407883 0.0011006487
-0.37755585 -0.056231394 0.070873328 0.99994987 0.0093654925 0.0035271861 0.00016020227
0.369405 -0.052858964 0.071608223 -0.99981284 -0.019345064 -8.8001195e-07 0
0.41535866 -0.053306866 0.074556194 -0.99928081 -0.037919663 1.160738e-05 0
-0.41770709 -0.048958573 0.071802132 0.9983986 -0.056139372 -0.0069754594 0.0022699421
-0.37770855 -0.048341211 0.074806876 0.99864155 -0.05188901 0.0047606556 0.0017452816
-0.41503093 -0.030376501 0.075883083 0.98063618 -0.19574781 -0.005965556 0.00050992781
-0.41303977 -0.021631047 0.076680958 0.9774344 -0.21123584 -0.0012110973 0.0002934449
-0.37471449 -0.024567885 0.074353874 0.97949362 -0.2014754 0.00016304824 0.00074079679
0.36836785 -0.021472724 0.074568383 -0.98794973 -0.1547002 0.0048121754 0.0023068264
-0.41132778 -0.014111703 0.073810302 0.97504759 -0.22199577 -1.6859825e-05 0
-0.37271845 -0.016496884 0.079498172 0.97124451 -0.23808394 3.8263235e-05 0
0.36675236 -0.015878921 0.077744909 -0.97984332 -0.19946645 -0.010961777 0.0020010136
-0.41025746 -0.0094106495 0.076827548 0.97504717 -0.22199807 -2.8288454e-05 0
-0.40900049 -0.0038900273 0.078534685 0.97504288 -0.22201677 4.6553005e-06 4.893303e-05
-0.37054625 -0.0077135228 0.072948299 0.9707486 -0.24009812 1.8819444e-05 2.5726498e-05
0.36329967 -0.0039236993 0.078914054 -0.96145225 -0.27497122 -0.00068998162 0
0.4120419 -0.0059368499 0.07518658 -0.97772998 -0.20978233 0.0059557348 0.002176289
-0.40729046 0.0036207631 0.076875478 0.97504693 -0.22199868 -1.2524836e-06 0
0.36142769 0.002558128 0.077261426 -0.9615109 -0.27476627 -0.00049631333 6.1822125e-06
-0.40356883 0.019966707 0.074057288 0.97504848 -0.22199203 -2.5209647e-05 0
-0.36458194 0.016403047 0.075056449 0.97075266 -0.24008186 -2.790377e-05 0
0.35773021 0.015360866 0.076383159 -0.96073043 -0.27748358 -2.6445676e-05 3.5845744e-05
0.40554005 0.015101623 0.072409324 -0.95540589 -0.29529577 -1.6835005e-05 2.9555358e-05
-0.40227216 0.025661785 0.073941365 0.97504359 -0.22201383 -3.6201648e-06 6.2427382e-05
0.35542122 0.023356015 0.078892529 -0.96073544 -0.27746591 -2.2201872e-05 0
-0.39968044 0.037045073 0.075683802 0.97502601 -0.22209087 2.6255288e-05 0.00019187568
0.35170555 0.036221724 0.07226675 -0.96073139 -0.27748021 -2.1774318e-05 0
0.39890039 0.036586002 0.075723678 -0.95540643 -0.29529399 3.5474135e-05 5.184536e-05
0.40063751 0.030965125 0.076099522 -0.95541292 -0.29527286 -1.0247868e-05 0
-0.35835871 0.041566782 0.075859219 0.96375841 -0.26676822 0.0021073529 0.00045517721
0.34966367 0.043291874 0.078040197 -0.96073192 -0.27747834 1.6029097e-05 0
0.39676774 0.043486696 0.076857865 -0.95540023 -0.29531401 1.3184082e-05 7.3329458e-05
-0.39561349 0.054907598 0.07490813 0.9532879 -0.30199525 0.0064117243 0.0021562988
-0.35491633 0.05548599 0.078140967 0.94175398 -0.33617342 0.0093273288 0.0018265459
0.3460215 0.055903189 0.077306367 -0.94992071 -0.31241584 0.0068517136 0.00056876679
0.39386162 0.052890301 0.079502113 -0.95541179 -0.29527682 -1.7487905e-06 0
-0.39156199 0.067602545 0.073431127 0.92517185 -0.37952864 0.0038848903 0.0013517897
-0.35111794 0.063719273 0.076570265 0.92032307 -0.39077204 0.01739686 0.0023598701
