# .PCD v0.7 - Point Cloud Data file format
VERSION 0.7
FIELDS x y z normal_x normal_y normal_z curvature
SIZE 4 4 4 4 4 4 4
TYPE F F F F F F F
COUNT 1 1 1 1 1 1 1
WIDTH 593
HEIGHT 1
VIEWPOINT 0 0 0 1 0 0 0
POINTS 593
DATA ascii
0.091725782 -0.2109881 -0.30681238 -0.24859044 0.96059674 0.12432428 0.12989148
-0.10780264 -0.2052597 -0.30391601 0.20184818 0.97931331 -0.014237946 0.19655825
0.10453836 -0.20883779 -0.30373949 -0.58615363 0.7968812 0.14630257 0.19861397
-0.14492227 -0.19118573 -0.30784157 0.25760165 0.88847697 -0.37980282 0.2105636
-0.13468319 -0.1950679 -0.30599001 0.48011008 0.83453333 -0.27027485 0.20611581
-0.12538025 -0.19859511 -0.30538237 0.29448768 0.95537931 -0.022966612 0.21273269
-0.066323169 -0.19171818 -0.30471233 -0.20730521 0.94030327 0.26991534 0.20377517
-0.046698336 -0.19369924 -0.30584395 -0.11722709 0.97530729 0.18717223 0.18985331
-0.038954128 -0.19448097 -0.3043972 0.030783448 0.99231064 -0.11988333 0.21511088
-0.025938028 -0.19579493 -0.3047998 -0.034561269 0.98889005 -0.14457479 0.19839783
-0.013608568 -0.19703954 -0.30514169 0.17747957 0.9836821 0.029505346 0.095700048
-0.0053046714 -0.19787779 -0.30696374 0.24872704 0.95815599 0.14167525 0.13276243
0.01670251 -0.19839188 -0.30588222 -0.41574317 0.87282413 0.25560862 0.16753268
0.036702774 -0.19513974 -0.30952448 -0.039602589 0.99485815 0.093214542 0.17570435
0.042721774 -0.19416103 -0.30483258 0.2094143 0.97766083 0.018024147 0.19935328
0.056292281 -0.19195442 -0.30876297 0.50928557 0.85984594 0.035961155 0.21058227
0.13662985 -0.19439127 -0.30731153 -0.13680726 0.98900759 0.056105088 0.21996276
0.14163925 -0.19213618 -0.30462393 -0.64974505 0.7503823 0.12148169 0.23206656
-0.16991076 -0.18171132 -0.30958825 0.45725739 0.83191019 -0.31438994 0.21469401
-0.15116933 -0.18881714 -0.30093607 0.39713758 0.91021389 -0.11744102 0.23909171
-0.096961677 -0.18319608 -0.30212203 0.48544171 0.86323541 0.13845949 0.21602263
-0.087811194 -0.18666551 -0.30614597 0.024127761 0.86423558 -0.50250834 0.26762053
0.10640669 -0.18115734 -0.30149394 -0.68370193 0.71095836 0.16458993 0.22052976
0.15080911 -0.18800822 -0.30563655 -0.15595007 0.98706138 0.037274987 0.20340487
0.16174036 -0.18308732 -0.30951917 -0.43874314 0.88120216 -0.17603178 0.16568616
-0.18611674 -0.17059027 -0.30816212 -0.12301175 -0.31194782 0.94210225 0.23303925
-0.1733048 -0.17981839 -0.30133346 0.41111681 0.76084489 -0.50209367 0.20745701
-0.13049778 -0.17048082 -0.30397466 0.67961264 0.71582407 0.16038263 0.25560087
-0.12386113 -0.1729971 -0.30364847 0.50039226 0.77973282 0.37633008 0.26694667
0.10921039 -0.17989519 -0.30666161 -0.43634263 0.8993445 -0.02800907 0.2151181
0.12739603 -0.17170861 -0.30083126 -0.38124749 0.90641248 0.18184251 0.19626994
0.17617412 -0.17658973 -0.30466497 -0.97761774 0.16714567 0.12777245 0.23175167
0.18685234 -0.17178275 -0.30390057 -0.81662238 0.56818682 -0.10144784 0.26631096
-0.19056092 -0.16738923 -0.30661857 -0.12892018 -0.52476823 0.84142613 0.19409677
-0.14435303 -0.16522758 -0.30442548 0.66672367 0.71150857 -0.22188987 0.22604141
-0.13700664 -0.16801296 -0.30061617 0.75661337 0.62209028 -0.201345 0.1837355
0.13541275 -0.16809973 -0.30552509 -0.58564985 0.78760636 0.19154787 0.17623134
0.14483047 -0.1638602 -0.30271268 -0.24756551 0.94667226 -0.20621108 0.18843405
-0.20594984 -0.15630496 -0.30572331 0.35128418 0.92674369 -0.13321254 0.23333925
-0.16373286 -0.15655132 -0.30353236 0.35490355 0.934219 -0.035754923 0.18335007
0.15953422 -0.15724106 -0.30127785 -0.56148672 0.82666105 0.036934156 0.22258663
0.16661206 -0.15405485 -0.30948955 -0.72423846 0.68456483 -0.082761943 0.21262835
0.1724138 -0.15144309 -0.30792376 -0.87756711 0.4701032 -0.094227776 0.1703098
-0.21578087 -0.14922391 -0.30456725 0.81616074 0.57716525 -0.027601173 0.21027651
-0.18431735 -0.1417248 -0.30432314 0.54963487 0.83396202 -0.049080852 0.26192605
-0.17894097 -0.14559729 -0.30045414 0.19892883 0.91964561 -0.33864331 0.22176193
0.17904472 -0.14790922 -0.30659831 -0.86953121 0.4918938 -0.044225696 0.20208545
0.18364826 -0.1441499 -0.30390596 -0.58264363 0.80868512 -0.080961369 0.16449755
0.22261356 -0.14392768 -0.3051028 -0.41873208 0.90486741 -0.076670475 0.18317634
-0.23184481 -0.13765346 -0.30384967 0.64559913 0.72617131 0.23638329 0.24628393
-0.19427395 -0.1345533 -0.30415666 0.59306097 0.80503821 -0.013865841 0.21810141
0.18901548 -0.13976693 -0.30836603 -0.45137274 0.88849455 -0.082703836 0.10189907
0.19602163 -0.13404557 -0.30302507 -0.254448 0.96616507 -0.042205606 0.13938266
0.22973424 -0.13811278 -0.3025468 -0.64053684 0.76568574 -0.058632568 0.19671433
0.23662537 -0.13248536 -0.30678189 -0.68274921 0.68714398 -0.24836811 0.1367013
-0.21129507 -0.12229342 -0.30974504 0.71273148 0.70140505 -0.0066934754 0.16051321
0.20625134 -0.12569182 -0.30707064 -0.19542366 0.91539222 -0.35194701 0.20845102
0.24752271 -0.1235864 -0.30359912 -0.82508379 0.54108101 -0.16269018 0.22759648
0.25115058 -0.1206238 -0.30431035 -0.79388702 0.44421405 -0.4152317 0.23911847
-0.2545639 -0.11810881 -0.30377471 0.49500996 0.81237358 0.30824387 0.21679343
-0.2185078 -0.11709826 -0.30058563 0.7102834 0.70248437 -0.044868741 0.21108888
-0.26213542 -0.10883705 -0.30450797 0.59872621 0.79581708 0.090564825 0.15841268
-0.23077889 -0.10825968 -0.30979201 0.31737 0.94372928 -0.093012847 0.1912135
-0.22924659 -0.10936337 -0.30214143 0.47042421 0.79338652 -0.38631451 0.20627491
0.23351109 -0.10343099 -0.30211705 -0.83794057 0.47915193 -0.2612834 0.15217401
-0.269923 -0.099300608 -0.30012593 0.66457695 0.74428433 -0.066168971 0.16520882
-0.24114296 -0.095850423 -0.30052266 0.3479768 0.86175746 -0.36916986 0.21787134
0.24350515 -0.095269665 -0.3063336 -0.9548828 0.11908839 -0.27206022 0.20548657
0.27600497 -0.093333632 -0.30320361 -0.38995582 0.78467983 -0.48188379 0.25653103
-0.27992207 -0.08705619 -0.30580872 0.86049956 0.50252104 0.083744429 0.20124267
0.24874395 -0.089306727 -0.30354521 -0.64817935 0.76006776 0.046481416 0.22138892
0.25137025 -0.085660487 -0.30574688 -0.61546957 0.77991039 -0.11374093 0.23122323
0.28318691 -0.083362572 -0.30235335 -0.8011747 0.5609237 -0.20852742 0.19706099
-0.29263514 -0.071488202 -0.30926284 0.81547648 0.56142205 0.14072518 0.21780248
0.25841397 -0.075881317 -0.30059028 -0.29691985 0.893112 -0.3379195 0.17654878
0.26068622 -0.072726585 -0.30762941 -0.29559216 0.95500094 -0.024464075 0.18614635
0.28754863 -0.077306904 -0.30392751 -0.55357426 0.81871277 -0.15252846 0.15808958
-0.29625025 -0.067061283 -0.30816337 0.70778906 0.55923665 -0.4316121 0.24311604
-0.26742837 -0.063662283 -0.30496389 0.64074641 0.76484388 0.066768058 0.26295584
0.29601926 -0.065546691 -0.30953962 -0.94831264 0.31431302 0.043708116 0.16858505
-0.30665663 -0.054289266 -0.3064796 0.68445367 0.72703987 -0.054186933 0.1996866
-0.27453166 -0.054963838 -0.30707377 0.80256557 0.43481475 0.40844181 0.23504671
-0.31106609 -0.045928791 -0.30383903 0.75043118 0.6608032 0.013865197 0.19145174
-0.2843796 -0.042904418 -0.30381003 0.58094066 0.81017637 -0.07824441 0.24060737
0.27875063 -0.047646753 -0.3035405 -0.92936993 0.2408261 0.27977556 0.23157057
0.31326267 -0.041606661 -0.30434698 -0.79553676 0.20195457 0.57125789 0.21289992
-0.31460291 -0.038072117 -0.30314109 0.80918849 0.55691451 0.18724371 0.19887258
-0.28849885 -0.036438603 -0.30625552 0.63849515 0.68419653 0.35241872 0.26320425
0.28619495 -0.03731136 -0.30146122 -0.83855283 0.52732444 0.13696037 0.21278058
0.29107755 -0.030532546 -0.3098222 -0.87131149 0.31372336 0.37735116 0.18093652
0.31576484 -0.038132727 -0.3083584 -0.73860866 0.64320022 0.20186809 0.22122465
-0.32179356 -0.022098798 -0.30165377 0.9102391 0.41125974 0.048272997 0.20342
0.29567447 -0.02415037 -0.30166519 -0.86623192 -0.1423108 0.4789466 0.25367987
-0.32471672 -0.015605291 -0.30677873 0.8996954 0.42546222 -0.097621657 0.18241712
-0.29829636 -0.014674405 -0.30820227 0.061969262 -0.72703171 0.68380159 0.23296998
0.29971024 -0.015532298 -0.30651975 -0.96169072 0.17095557 0.21430169 0.21995446
0.30147853 -0.010868508 -0.3033182 -0.97398812 0.22282274 0.041197248 0.21506767
0.32727632 -0.011860781 -0.30235887 -0.90011907 0.40667099 0.15621932 0.21182035
-0.33064193 -0.0024430603 -0.3070153 0.93395388 0.35130721 -0.065676808 0.19804353
-0.30369341 -0.0026854258 -0.30632436 0.93799609 0.32578287 0.11844339 0.27278587
0.30318025 -0.0063803545 -0.30251065 -0.81171495 0.56001413 0.16584028 0.15070081
0.32829943 -0.0091623515 -0.30139676 -0.68877059 0.52318406 0.50187004 0.19509454
-0.3339344 0.0048707775 -0.30557099 0.98101878 0.1893186 -0.04195809 0.22658806
-0.3080374 0.0069643799 -0.30244553 0.42536405 0.37456301 0.82387376 0.22420183
0.3078019 0.0058091283 -0.30415845 -0.88354516 0.43895894 0.16328813 0.22247618
0.33292904 0.0030481312 -0.30662489 -0.78314328 0.60300159 0.15190662 0.26627028
-0.33786497 0.013602125 -0.30494878 0.89367503 -0.0090143075 -0.44862419 0.22860488
-0.31177944 0.015276917 -0.30627164 -0.50826949 0.06103605 0.85903251 0.25426432
0.30956137 0.010449721 -0.30922574 -0.79097551 0.42939523 0.43586406 0.2303738
0.3386552 0.018150672 -0.303047 -0.95674044 0.28958741 0.028049437 0.18032818
-0.34292623 0.024845207 -0.30516699 0.97458476 0.22112367 -0.035900783 0.20528871
-0.31686971 0.026584424 -0.30136368 0.81639922 0.3778564 0.43671143 0.23397617
0.31569678 0.026631571 -0.30313364 0.33121967 -0.73995703 0.58545464 0.20590921
0.34085882 0.023962647 -0.30557838 -0.97616231 0.21166608 -0.048006635 0.19815162
-0.322696 0.039526906 -0.30204377 0.83110327 0.51332921 0.21391693 0.22056091
-0.31988496 0.0332825 -0.30958387 0.95067179 0.23769701 -0.19930679 0.23326646
0.31886783 0.034995113 -0.30677736 -0.75413531 0.63742185 -0.15802968 0.20792331
0.32020235 0.038514879 -0.30476126 -0.86207998 0.4156774 -0.28987998 0.21743986
0.34383482 0.031811766 -0.30457217 -0.93512893 0.3153725 -0.16147427 0.16101044
0.34811753 0.043107282 -0.30914184 -0.95294052 0.30128226 0.03366496 0.1203348
-0.35063529 0.056710906 -0.3096804 0.97696233 0.10178032 0.18757747 0.20895819
-0.3497898 0.05151144 -0.30152687 0.96942639 0.23749301 0.061721463 0.21137348
0.32655364 0.055266261 -0.30167773 -0.89763582 -0.1447231 -0.41629943 0.21168233
0.35173386 0.052645262 -0.30988944 -0.98791879 -0.043218613 -0.14882377 0.21318191
-0.3523857 0.0674759 -0.30063275 0.94512415 0.29877996 0.13217789 0.1880022
0.3291952 0.067026384 -0.3053894 -0.84675258 0.33218917 -0.41552421 0.24926901
0.35376459 0.06674017 -0.30937576 -0.86657107 0.49902281 -0.0055531925 0.24009342
-0.35322422 0.072632648 -0.30516911 0.95907468 0.056488082 0.27746144 0.18195443
0.35425776 0.071625516 -0.30569059 -0.91355866 0.40537488 -0.032890089 0.20908982
-0.354707 0.081751511 -0.30151087 0.88692302 0.10396502 0.45006555 0.2366043
-0.32993829 0.081915431 -0.3070516 0.90853792 0.35234725 0.22452228 0.20056827
0.33102638 0.085166633 -0.30808038 -0.98486757 0.071922995 0.15768008 0.23025434
-0.35623956 0.091176704 -0.30578148 0.81595016 0.47226208 0.33345732 0.26144364
-0.33164927 0.092437766 -0.30696747 0.93216354 0.014125151 0.36176193 0.26026711
-0.35832602 0.10400821 -0.30579656 0.94260079 -0.29542238 0.15565792 0.25707328
-0.33305612 0.10108973 -0.30828631 0.98958659 -0.1385594 0.038983196 0.25131804
0.35766768 0.10540532 -0.30333969 -0.96164095 0.27254295 0.031097801 0.18703198
-0.33511105 0.11372735 -0.30519027 0.99156934 0.021523425 -0.12777705 0.19613232
0.35884658 0.11708377 -0.30539879 -0.9850229 -0.11940344 -0.12438937 0.19474478
-0.33692759 0.12489891 -0.30589548 0.91201371 -0.22310703 -0.34417167 0.22160903
0.33541 0.12859157 -0.30277902 -0.17115694 0.95840514 0.22839665 0.24980751
0.35957667 0.12431606 -0.30342019 -0.98728478 0.15819737 0.01556567 0.20616345
-0.36088893 0.13856512 -0.30914497 0.92765152 0.36116037 -0.095004156 0.21361305
-0.33659306 0.13556954 -0.30399042 0.99029487 0.057050698 -0.12673302 0.14765704
0.33601767 0.13461107 -0.30358243 -0.91067457 -0.40724391 0.0694566 0.22845729
0.36047789 0.13324381 -0.30656418 -0.99000865 0.11536347 0.081081383 0.19108884
0.36141565 0.14253362 -0.30002505 -0.98590338 0.16670574 -0.014274333 0.15777038
-0.35902619 0.15701789 -0.30428883 0.91983652 -0.15696032 0.35953337 0.2282249
-0.33494434 0.15190215 -0.30475831 0.96723586 -0.078911074 -0.24130429 0.22789544
-0.33366355 0.16458975 -0.30553484 0.93608987 -0.17099087 0.30740517 0.22651984
0.33529142 0.16104464 -0.30257416 -0.97991806 0.11146269 -0.16533791 0.21207187
0.35991317 0.16211173 -0.30838633 -0.98041493 -0.18592609 -0.064945906 0.11642366
0.36019754 0.16036303 -0.30611056 -0.98025072 -0.16773537 -0.1047534 0.14056496
-0.35739431 0.17318392 -0.30453181 0.96254444 -0.22490111 -0.15141949 0.22742276
-0.33257261 0.17539683 -0.30484611 0.99104828 0.027086148 0.13072753 0.27077401
0.33265737 0.17724366 -0.30260515 -0.70320505 -0.47855568 0.52582037 0.25420681
0.35702455 0.17987677 -0.30677271 -0.87014103 -0.23837276 -0.43131542 0.22710848
-0.3563039 0.18398571 -0.30559215 0.99276513 0.076986626 -0.092143774 0.24068537
-0.33174846 0.18356115 -0.30195838 0.3743692 -0.92311144 0.08782351 0.27968642
0.33177459 0.18267271 -0.30391285 -0.9110263 -0.41028318 -0.04121653 0.24925837
-0.3555876 0.19108154 -0.30233842 0.91929936 -0.15629575 0.3611927 0.2433513
-0.3307265 0.19368514 -0.30264503 0.91267037 -0.12225711 0.38998201 0.24537037
0.35436612 0.19622573 -0.30524647 -0.84140432 -0.43110693 -0.3258611 0.25862235
-0.35396534 0.20715167 -0.30141452 0.91080964 -0.40611643 0.074129157 0.23228329
-0.32979435 0.20291899 -0.30881739 0.99127096 0.097159624 0.089116849 0.1991387
0.32796043 0.20612936 -0.30139881 -0.99273336 -0.11318116 -0.040873211 0.16862755
-0.32755759 0.21796678 -0.30845946 0.98881447 -0.020306893 0.14776167 0.28997782
0.32700765 0.21198893 -0.30706891 -0.94809282 0.19213265 -0.25338686 0.17689647
-0.35211053 0.22224224 -0.30904055 0.99495351 -0.012794428 -0.099518403 0.18899046
-0.34926629 0.22974387 -0.30409718 0.96010715 -0.27963203 0.00042814671 0.19648623
0.32471409 0.22609407 -0.3028543 -0.99456167 -0.1012762 0.024293063 0.22719936
0.34949774 0.22616601 -0.30525637 -0.98623401 0.12586541 -0.10723972 0.18630579
0.35035515 0.22089303 -0.30983827 -0.98996711 -0.095865019 -0.10380284 0.25448307
-0.34652686 0.23696908 -0.30710366 0.96670467 -0.24773283 -0.064112939 0.21103378
-0.32125932 0.23457834 -0.30434829 0.93290222 -0.36007324 0.0063811112 0.24522835
0.34746394 0.23867364 -0.30510518 -0.84728163 -0.5220179 0.098036215 0.18959187
-0.34070635 0.25232035 -0.30615515 0.98048788 -0.18918364 -0.053413421 0.18114574
-0.33961797 0.25519097 -0.30126446 0.72453254 -0.68447566 0.080905423 0.1879907
0.31505594 0.25332567 -0.30488747 -0.92273885 -0.3854256 -0.00028195474 0.20002586
-0.33502281 0.26731053 -0.30400863 0.91434789 -0.39175937 0.1024334 0.19459927
-0.31082904 0.26208776 -0.30597675 0.80651087 -0.40629193 0.42949629 0.1868577
-0.30898649 0.26694739 -0.30475453 0.90844882 -0.41756669 -0.018942486 0.18960895
0.3112728 0.26172948 -0.3041741 -0.89929783 -0.3808049 0.21506044 0.22168177
0.33833697 0.26123023 -0.30260018 -0.609164 -0.78498727 -0.11275798 0.25795206
-0.30571443 0.2755774 -0.30234402 0.99365461 -0.11058464 0.020530721 0.1920421
0.30610597 0.27320713 -0.30345386 -0.98444128 -0.066688262 0.16256686 0.19403258
-0.32844177 0.28466794 -0.30421942 0.74796367 -0.40709117 0.52423948 0.21724431
-0.30182806 0.28582752 -0.30729982 0.9526248 -0.30307791 0.025490711 0.23346286
0.32769993 0.28485936 -0.30791149 -0.97214276 -0.056443892 -0.22749159 0.21926168
-0.32456124 0.29490259 -0.30321431 0.94652373 -0.20955728 0.24531306 0.18351357
0.29468849 0.29856983 -0.30495018 -0.89297384 -0.3454195 0.28858805 0.20965496
0.32314765 0.29497179 -0.30108339 -0.9958427 0.0010935542 -0.09108267 0.19011156
-0.29199827 0.30513519 -0.3050797 0.79038376 -0.57312661 0.21637788 0.21038885
0.29144603 0.30577263 -0.3051388 -0.85168755 -0.44070747 0.2835581 0.22655749
0.32012075 0.3016957 -0.30165988 -0.82129878 -0.56985098 0.027170377 0.16924995
-0.31367972 0.31690851 -0.30740449 0.89133477 -0.45289382 -0.020237327 0.13831003
0.28556734 0.3173309 -0.30397347 -0.58761519 -0.78378022 0.20098978 0.26165718
0.31470847 0.31371856 -0.30331549 -0.70551646 -0.69772387 0.1242091 0.17181365
-0.30881837 0.32365787 -0.30819467 0.80426562 -0.59291255 -0.040145282 0.13645743
-0.27598059 0.32737347 -0.30181584 0.73170042 -0.68159902 -0.0060967142 0.1655637
0.27963924 0.32459021 -0.30069563 -0.85108596 -0.51847589 0.082676739 0.14266269
-0.30251569 0.33240819 -0.30129391 0.16931912 -0.93936282 0.29820871 0.22587281
-0.29880947 0.3375538 -0.30897018 0.40245807 -0.88779569 0.22326291 0.20218182
-0.27092701 0.33438963 -0.30867243 0.80547601 -0.58984852 0.057333395 0.13650839
-0.26960993 0.33621818 -0.30197459 0.9350273 -0.34325016 0.088900506 0.13245212
-0.29278123 0.34592307 -0.30139244 0.64444041 -0.17292914 0.74484366 0.24450056
-0.26455417 0.3432374 -0.30893379 0.90357131 -0.42666519 0.038930602 0.23182037
0.26400399 0.34373653 -0.30823824 -0.96120083 -0.27134171 0.049665257 0.19593148
0.29591528 0.34335238 -0.30058619 -0.79493773 -0.60259157 0.070408642 0.21823747
-0.28395805 0.35817286 -0.30852163 -0.79992831 -0.47383794 0.36822858 0.24020128
0.2537311 0.35631633 -0.30101064 -0.72609544 -0.68502784 0.059348539 0.22109219
0.28463072 0.35717106 -0.3083902 -0.33627635 -0.88422769 0.32412905 0.24891268
-0.27572197 0.36960745 -0.30582267 0.80910581 -0.53182888 0.25001168 0.22500059
-0.24664985 0.36809507 -0.30728632 0.45768112 -0.72311604 0.51733077 0.20369312
0.27686507 0.36668056 -0.30357179 -0.98079592 -0.068567351 0.18258648 0.15873881
-0.27163166 0.37528628 -0.30100161 0.7570852 -0.65295553 0.021703936 0.1835518
-0.24264014 0.37185696 -0.30869448 0.68513203 -0.72820389 0.017699534 0.22209944
-0.23453107 0.37847894 -0.30858746 0.64114177 -0.71137816 -0.28788584 0.20839985
0.23526558 0.37892851 -0.30482081 -0.64152449 -0.75959408 -0.10706692 0.17035083
0.2741451 0.3700113 -0.30602214 -0.91819757 -0.19123739 0.3469027 0.2045823
-0.26486373 0.3846826 -0.30434686 0.67914587 -0.68631214 0.26026234 0.16054176
-0.22204663 0.38867399 -0.30094653 0.71596164 -0.69759762 0.027503885 0.19392985
0.22515324 0.38819259 -0.30191517 -0.14667986 -0.97825515 -0.14663532 0.23881263
0.25894648 0.388623 -0.30988157 -0.56419289 -0.82338345 0.061042063 0.18121794
0.26302633 0.38362697 -0.30468687 -0.71993315 -0.68748462 -0.095189787 0.16566853
-0.25389624 0.39426255 -0.30105335 0.47889879 -0.8273986 -0.29337281 0.26219234
-0.21240579 0.39654687 -0.30737543 0.64248371 -0.75283676 0.14300896 0.24823308
0.22110195 0.39111066 -0.30399323 -0.61517417 -0.78508323 -0.072145015 0.21889475
0.24993499 0.39965814 -0.30858433 -0.68718994 -0.70521951 0.17445768 0.23860532
-0.24137528 0.40448743 -0.30001795 0.40549704 -0.88157803 0.24164514 0.25485361
-0.23670951 0.40829757 -0.30040649 0.60381573 -0.79226351 -0.087892644 0.25765714
0.2011755 0.40546319 -0.30771512 0.6535092 0.13695432 0.74442554 0.18038166
0.24413958 0.40467873 -0.30427179 -0.46673024 -0.88276088 0.05381573 0.23195228
-0.22290429 0.41957116 -0.3083812 0.66200435 -0.58632034 0.46688181 0.24441516
-0.19477305 0.41094613 -0.30057698 0.74168855 -0.63500941 0.21601194 0.21190837
-0.18629403 0.41787022 -0.30407587 0.64880842 -0.76057369 0.023986725 0.24535438
0.18620823 0.41624376 -0.30391082 -0.38178143 -0.0094520571 0.92420423 0.23515843
0.23348013 0.4123565 -0.30219463 -0.76478094 -0.6433422 -0.034943011 0.23713942
-0.22158793 0.4206461 -0.3037771 0.48555797 -0.86188078 -0.14627066 0.24845617
-0.16682944 0.42983791 -0.30821204 -0.35796687 -0.42962945 0.82902241 0.23504534
0.17500108 0.42431599 -0.30177584 0.028150372 -0.99554396 -0.089999087 0.20653988
0.21387437 0.42647806 -0.30590224 -0.66559488 -0.71014529 -0.22951497 0.18378527
-0.20036775 0.43797487 -0.30225599 0.69530469 -0.71587956 -0.06378033 0.23876412
-0.19858563 0.43943021 -0.30890301 0.86188114 -0.23251943 0.45066136 0.19306001
-0.16356198 0.43130881 -0.3005127 0.45648241 -0.86745703 -0.19784355 0.24696614
-0.14649826 0.43899029 -0.30486912 0.29671606 -0.93050861 -0.21474014 0.16524385
0.14755778 0.43989339 -0.30293077 -0.16003633 -0.97065973 0.17946599 0.25581491
0.1538763 0.43749771 -0.30300751 -0.6700387 -0.72935677 0.13815542 0.21368369
0.19692698 0.43868485 -0.30839202 -0.46716371 -0.87874079 -0.09784022 0.2183663
0.20175606 0.43520656 -0.30325231 -0.61291331 -0.78715152 -0.068773411 0.23689076
-0.1919127 0.44487944 -0.3022984 0.51921242 -0.79207534 0.32099062 0.24304287
-0.18275025 0.44951022 -0.30762804 0.46972197 -0.86833394 0.15924025 0.2148927
-0.13514574 0.44410086 -0.30373088 0.60254759 -0.78240728 -0.15740131 0.21673842
-0.12301423 0.44956204 -0.30881965 0.66652101 -0.64026499 0.38185135 0.24700807
0.12460662 0.44859537 -0.30534741 -0.44341844 -0.88138235 -0.16292688 0.15723146
0.18377672 0.44815663 -0.30599895 -0.44173968 -0.88104743 0.16917908 0.14921695
-0.18040991 0.45056382 -0.30830428 0.55161768 -0.79673886 0.24683033 0.20915905
-0.16863243 0.45586559 -0.30266705 -0.017746843 -0.92859453 -0.37067136 0.22998878
-0.10627522 0.45709735 -0.30944091 0.30788115 -0.92465425 0.22410651 0.30302694
0.099458627 0.4581303 -0.30964622 -0.4579404 -0.87948632 0.12959309 0.22204961
-0.15621667 0.46145478 -0.30598781 0.34516189 -0.86440653 -0.3656016 0.19804233
-0.13875711 0.46931452 -0.30919638 0.40037131 -0.88357073 0.24291033 0.28366962
-0.077284634 0.46442187 -0.30558509 0.14065282 -0.98955041 -0.031731039 0.15474756
-0.061965302 0.46691287 -0.30562919 0.55232805 -0.76376635 -0.33405808 0.19992727
-0.046170369 0.46948117 -0.30862629 -0.030920358 -0.97100884 0.2370353 0.24578902
0.045262165 0.46972513 -0.30632067 -0.066035084 -0.97227669 0.22431557 0.17440715
0.052483086 0.4689962 -0.30961293 0.079741232 -0.92827779 0.36323789 0.20483878
0.071054645 0.46712145 -0.30107734 0.14032543 -0.9770425 -0.16030206 0.23408119
0.082882792 0.46441501 -0.30923751 -0.7946642 -0.58318537 -0.16853395 0.25370544
0.091560066 0.46112502 -0.30463535 0.77262688 -0.63268065 0.052564114 0.22165267
0.1570199 0.46247977 -0.30779928 -0.99576199 -0.046595596 0.079290345 0.22730842
-0.12203938 0.47684032 -0.30546135 0.43587652 -0.74481946 0.50522822 0.25913435
-0.037335239 0.47091779 -0.30358422 0.46234104 -0.43219954 0.77423793 0.21612027
-0.024850253 0.4729479 -0.30706978 0.080941275 -0.96932572 0.23206933 0.22799173
-0.013264859 0.47483173 -0.30905873 -0.074436851 -0.98945361 0.12426036 0.27579722
0.0046375152 0.47382605 -0.30891716 0.024689302 -0.98879069 0.14725274 0.2424151
0.012972636 0.47298461 -0.30378026 -0.91248471 -0.37781349 0.15693489 0.25661927
0.023975611 0.47187394 -0.3069796 -0.51459301 -0.76756233 -0.38215455 0.21973065
0.11617947 0.47796449 -0.30589575 -0.29037789 -0.95691168 0.00079692906 0.24105191
0.12263215 0.47551799 -0.30710006 -0.65253431 -0.75715017 -0.030373048 0.1934915
-0.11434741 0.48030293 -0.30272135 -0.021129653 -0.99730694 -0.070231065 0.20414697
-0.10489322 0.48401088 -0.30274001 0.26451433 -0.96234775 0.062602594 0.18827765
-0.083449543 0.48821473 -0.30716941 0.34654835 -0.93329835 -0.094118871 0.17402495
0.096816234 0.48530611 -0.30288079 -0.5564214 -0.80687726 0.19835417 0.21808593
-0.060308319 0.4919776 -0.30449012 0.25611961 -0.96471566 0.061044589 0.21759333
-0.058586694 0.49225754 -0.30885336 0.17761034 -0.98364472 -0.029961942 0.16639519
-0.045612816 0.49436718 -0.30224973 0.24946555 -0.96703792 -0.051036421 0.1962679
-0.037239186 0.49572873 -0.30525595 0.20847046 -0.97775877 -0.022974201 0.17056604
-0.025243107 0.49767935 -0.30448318 -0.070099786 -0.98040587 -0.18409321 0.23392558
-0.018415991 0.49878949 -0.30301949 -0.01163082 -0.99242842 -0.12227247 0.20922144
0.014895234 0.49738884 -0.30556625 -0.41609779 -0.70154762 0.57852703 0.22321157
0.023354163 0.49653494 -0.30381179 -0.41916594 -0.80953211 0.41104469 0.26726931
0.034812499 0.49537826 -0.30694348 -0.28655997 -0.94572562 0.1532532 0.2310968
0.05583274 0.49325633 -0.30316332 0.20564297 -0.94072503 0.26971704 0.16926473
0.062972039 0.49253562 -0.30125886 -0.0014634669 -0.99112666 0.13291219 0.18080074
0.079661049 0.49085093 -0.30613604 -0.28322738 -0.94459528 0.16589735 0.14637311
0.082048483 0.49060959 -0.30515704 -0.24369887 -0.95368457 0.17634198 0.16557932
-0.0031559682 -0.22269298 -0.29521358 0.32429466 0.93386704 0.15074946 0.17724037
0.0041879551 -0.22343433 -0.29524371 -0.51849055 0.78533822 -0.33824769 0.26335672
0.018852325 -0.22283766 -0.29219085 -0.093668438 0.90452904 0.41599703 0.24956343
0.023409048 -0.2220967 -0.29196659 -0.12918739 0.77067184 0.62399966 0.24890092
-0.080388308 -0.21489663 -0.29004607 0.29943722 0.94555068 -0.12755886 0.13072649
-0.070615433 -0.2158832 -0.29689196 0.29006922 0.83759081 0.46292704 0.20242633
-0.060500115 -0.2169043 -0.29276726 -0.17457089 0.96515763 -0.19492482 0.20625482
-0.044280022 -0.21854165 -0.29272562 0.1193901 0.98234189 -0.14405051 0.26731566
-0.032969709 -0.21968338 -0.29678255 -0.55225247 0.81137925 0.19152279 0.20964016
0.037909046 -0.21973895 -0.29728091 0.31446072 0.14906761 0.93749309 0.26475352
0.052574068 -0.21735433 -0.29803646 -0.41097787 0.91153932 -0.013899376 0.27730617
0.066973768 -0.21501288 -0.29386124 -0.010112628 0.94078445 -0.33885443 0.18092611
0.08871787 -0.21147721 -0.29137442 -0.15228091 0.97924566 -0.13374791 0.13841349
0.096471623 -0.21021642 -0.29980114 -0.27080432 0.95997292 -0.071533017 0.18699838
-0.1133934 -0.20313995 -0.29556739 0.2577484 0.95968753 0.11209666 0.17554358
0.098546229 -0.20987909 -0.2954753 -0.30628958 0.91234088 -0.27170005 0.17249973
0.10024764 -0.2096024 -0.29746392 -0.45490113 0.87607419 -0.1598721 0.18533474
0.11713827 -0.20316571 -0.29146001 -0.33255395 0.9119035 0.24049924 0.18177868
-0.14248303 -0.19211058 -0.29538837 0.57586062 -0.76087385 0.29909131 0.26146063
-0.13993488 -0.1930767 -0.29507789 0.66807109 0.71484733 -0.20657721 0.26731831
-0.12545347 -0.19856736 -0.29534334 0.42698374 0.89993066 0.088373035 0.23663218
-0.056146923 -0.19274545 -0.29559419 -0.08894708 0.99564821 0.027806969 0.25701028
-0.04265105 -0.1941078 -0.29189724 0.012181056 0.96861058 -0.24828461 0.21046074
-0.032494739 -0.19513306 -0.29538512 -0.19170897 0.97941303 -0.063228771 0.22283688
-0.022673875 -0.19612443 -0.29600462 0.17394175 0.9846375 -0.015273264 0.20745122
-0.017538153 -0.19664288 -0.29238513 0.38094175 0.92169821 0.073182985 0.2113777
-0.0054532727 -0.19786279 -0.29234174 0.13390286 0.98762643 0.081634164 0.17235193
0.015360172 -0.19861014 -0.29479164 -0.25134102 0.96767473 0.020816529 0.22248487
0.026701063 -0.19676608 -0.29500243 -0.74335384 0.60760081 0.27972534 0.27012768
0.031510491 -0.19598404 -0.29646707 -0.69150984 0.72228032 -0.011194125 0.2453144
0.044208717 -0.19391924 -0.29141203 0.050747018 0.95761591 -0.28354266 0.24142055
0.056381594 -0.19193989 -0.29222217 0.148251 0.86997616 -0.47027981 0.24422808
0.12549749 -0.19940266 -0.29341048 -0.35722899 0.88065749 0.31117511 0.2143631
0.13766663 -0.19392452 -0.29568937 -0.29894054 0.94329971 0.14429227 0.18505755
-0.16504885 -0.18355469 -0.29286861 0.62780559 0.76121265 0.1625282 0.22120166
-0.10439405 -0.18037811 -0.29967564 0.36883113 0.92353016 -0.10514582 0.20902653
-0.095652908 -0.18369232 -0.2933431 0.14978023 0.98381013 -0.098405197 0.27741799
0.088424653 -0.18672957 -0.29257447 -0.79624373 0.40094149 -0.45303628 0.20952804
0.10220966 -0.18304668 -0.29036394 -0.7710157 0.53424913 -0.34657279 0.2525343
-0.12486728 -0.17261563 -0.2934829 0.61694634 0.74936706 -0.24047092 0.24225222
0.11488887 -0.17733893 -0.2973364 -0.14061064 0.98690927 0.078984804 0.17911807
0.12289057 -0.17373683 -0.29796892 -0.1692058 0.97848928 0.11801756 0.20850186
0.16910121 -0.17977372 -0.29598993 -0.55286682 0.72615469 -0.40870243 0.28184217
0.17852333 -0.17553219 -0.29834402 -0.99311537 0.10979644 0.040823173 0.24925882
0.18180536 -0.17405474 -0.29527578 -0.89004338 -0.15486047 0.42876691 0.23019746
-0.19694842 -0.16278847 -0.29757637 0.42338854 0.90577745 -0.017589454 0.26297972
-0.18916509 -0.16839463 -0.29983026 0.32963938 0.9440223 -0.012636933 0.2732873
-0.15024625 -0.16299315 -0.29883862 0.25133586 0.95712721 -0.14400631 0.18710621
-0.14354615 -0.16553351 -0.29488984 0.57743424 0.81636786 0.010637933 0.22338052
-0.13940942 -0.16710195 -0.29358143 0.63895291 0.7612775 -0.1104341 0.20340556
0.14410079 -0.1641887 -0.29757735 -0.38892305 0.89121193 -0.23340963 0.24071278
0.1525095 -0.16040337 -0.29703382 -0.44141945 0.89694577 0.02524301 0.23220648
0.19270919 -0.16834813 -0.29262578 -0.65594268 0.5892294 0.47174975 0.2404552
-0.20099194 -0.15987602 -0.29284862 0.86567581 0.48752353 0.11369339 0.23356822
-0.17233111 -0.15035821 -0.29680789 0.51492465 0.83346319 -0.20047855 0.18503794
-0.16192718 -0.1578519 -0.29571894 0.46347648 0.88600326 0.013701165 0.19768672
0.15872788 -0.15760404 -0.29456282 -0.51318067 0.83883357 0.18166973 0.21698363
0.16628453 -0.15420231 -0.29507366 -0.51353782 0.77528954 0.36770248 0.24674761
0.173521 -0.15094469 -0.29516444 -0.79848498 0.60092288 -0.036241446 0.19569196
0.21311888 -0.1516812 -0.29358634 -0.59103477 0.80222106 0.084376171 0.17707911
-0.22851616 -0.14005099 -0.2922813 0.68951505 0.40512154 0.60037124 0.23090684
-0.17339516 -0.14959179 -0.29909533 0.38970464 0.90524524 -0.16929671 0.18149619
0.17601666 -0.14982121 -0.29836974 -0.83290511 0.54733109 -0.081838861 0.21837316
0.18402298 -0.1438439 -0.2903758 -0.60052067 0.79230928 0.10780042 0.13090263
0.22348747 -0.14321402 -0.29538566 -0.65532941 0.7494908 -0.093845189 0.24772915
-0.19257744 -0.13577525 -0.29348695 0.4523662 0.88312739 -0.12430135 0.22939889
0.1903654 -0.13866454 -0.29602084 -0.53403032 0.79972374 0.27432385 0.13787253
0.22858335 -0.13905261 -0.29432175 -0.27685776 0.92530656 -0.25914764 0.22751616
0.23545742 -0.13343915 -0.29251957 -0.59965837 0.689825 -0.40564916 0.20447622
-0.24706098 -0.12643617 -0.29663286 0.59964782 0.74043959 0.30359811 0.17950308
-0.21366127 -0.12058908 -0.29169276 0.57924104 0.75421882 0.30924737 0.19187416
-0.20499408 -0.12683186 -0.29829577 0.56223476 0.82487124 -0.058987048 0.20728931
0.2058062 -0.1260553 -0.29587099 -0.28528661 0.84572721 -0.45095137 0.2124685
-0.22393641 -0.11318816 -0.2961207 0.68263376 0.70517367 0.19167994 0.18757682
-0.21855499 -0.11706426 -0.29506379 0.4795323 0.85231978 0.2088059 0.18742111
0.21949191 -0.11487931 -0.29366493 -0.69149131 0.61022359 -0.3866097 0.18401642
0.25543517 -0.11712492 -0.29383194 -0.78381199 0.50885504 -0.35595703 0.24427116
0.26228881 -0.11152811 -0.29796121 -0.90518874 0.34692618 -0.24551094 0.25434881
-0.26658058 -0.10339364 -0.2955806 0.72950703 0.6792267 -0.080439731 0.19154435
-0.22969805 -0.10903818 -0.29196349 0.23263994 0.84170473 0.48724928 0.20490758
0.22638401 -0.1092511 -0.29712364 -0.73148853 0.60707742 -0.3104538 0.17969067
0.2365258 -0.10096912 -0.290025 -0.80927187 0.51235336 -0.28735501 0.20076758
0.26565874 -0.10769791 -0.29572767 -0.81147802 -0.49264476 0.31433186 0.25904939
0.27095789 -0.10034082 -0.29376057 0.5631023 -0.020639129 0.82612944 0.29377115
-0.27402645 -0.094275743 -0.29521477 0.75813007 0.61954117 -0.20348814 0.18834023
-0.24092862 -0.096112877 -0.29537392 0.48096043 0.87078607 0.10202318 0.23502733
0.23882775 -0.09908931 -0.29322883 0.50386727 0.28038755 0.81700712 0.22746727
0.24555773 -0.093593508 -0.29668203 -0.28956884 0.54829907 0.78454953 0.22669843
-0.2853685 -0.080386654 -0.2995331 0.85066378 0.52440929 0.036959771 0.18301471
-0.27796221 -0.089456171 -0.29831979 0.8289547 0.55890173 -0.021518005 0.20561542
-0.25179982 -0.082800403 -0.29211056 0.89392203 0.44581071 -0.046434727 0.2262785
0.24987036 -0.087742887 -0.29468867 -0.77067029 0.6133793 0.17272277 0.23910394
0.25276345 -0.083726257 -0.29816827 -0.66834599 0.74010926 0.074511267 0.23223929
0.28393057 -0.082330078 -0.29428449 -0.74445713 0.65729266 0.11726061 0.21713562
-0.28778446 -0.077428222 -0.29801714 0.88531554 0.46482527 -0.012405531 0.15284263
-0.25713333 -0.076269194 -0.29852325 0.91253102 0.39735901 -0.096916534 0.25867057
0.26260281 -0.070065692 -0.29035899 -0.38447636 0.84742486 -0.36612687 0.19763863
0.28629178 -0.079051875 -0.29517406 -0.67300028 0.73487639 0.083828822 0.22497486
0.26418331 -0.067871369 -0.29382366 0.43858925 -0.69630766 0.56815052 0.18006822
0.29414195 -0.068153031 -0.29871267 -0.94350737 0.31404638 -0.10568193 0.16395152
0.27254149 -0.056267247 -0.29625997 -0.83123583 0.05817252 -0.55286789 0.24566175
0.30526197 -0.052714489 -0.2958515 -0.72716057 0.65495247 0.20560834 0.18488584
-0.31353584 -0.040442511 -0.29912478 0.69499594 0.7168048 0.056316722 0.14711763
-0.28464946 -0.042573955 -0.2920267 0.10399725 0.97701102 0.18610251 0.19935624
0.28357357 -0.040950786 -0.29885218 -0.97878551 0.20488231 -0.0014659894 0.21418613
0.30822998 -0.048593797 -0.29172796 -0.8015784 0.56880194 0.18421832 0.179281
0.31368563 -0.041019466 -0.29652488 -0.97099459 -0.23485853 0.044843625 0.25583449
-0.31529677 -0.036530755 -0.29445809 0.85264391 0.52014327 -0.049491677 0.15676428
0.31805268 -0.034912691 -0.29648322 0.45559523 0.19346008 0.86891097 0.25355542
0.32015422 -0.030645069 -0.29232946 -0.77455598 0.15223107 -0.6139127 0.25220037
-0.31918424 -0.027895164 -0.29123488 0.94415587 0.32426086 0.058520395 0.15953821
-0.29318145 -0.026036665 -0.29230821 0.98674077 0.043476589 0.15637314 0.21226445
0.29417726 -0.026229054 -0.29609722 -0.9223206 0.1424353 0.35921693 0.26168644
0.3207866 -0.02897718 -0.29309782 0.51178724 -0.15365387 0.8452599 0.25109711
-0.32528672 -0.014339111 -0.29434371 0.8739503 0.29184794 -0.38863304 0.21803774
0.29975012 -0.015427169 -0.29261211 -0.84738636 -0.23727612 0.47501191 0.2762557
-0.33035797 -0.0030738702 -0.29428241 0.87596971 0.47995037 -0.048214927 0.26970765
-0.32887566 -0.006366672 -0.29404771 -0.21687318 0.054709062 0.97466558 0.28306511
-0.30062699 -0.0094971787 -0.29890651 0.78111988 0.58226335 -0.2254357 0.27051991
0.32900402 -0.0073040258 -0.29648519 -0.92606133 0.37372831 -0.052321207 0.19935234
0.33117151 -0.0015873127 -0.29543701 -0.82493007 0.51714253 0.22815345 0.19039248
-0.33382472 0.0046271905 -0.29887092 0.91860503 0.26241288 -0.29547286 0.21052696
-0.30749056 0.0057495646 -0.29854676 0.38079312 0.58903164 0.71276814 0.2491641
-0.33746564 0.012715186 -0.29552355 0.96201611 0.2171568 -0.16543251 0.17792529
-0.31125319 0.014107876 -0.2995972 0.81415194 0.39180869 0.4285354 0.23992649
0.33730832 0.014598235 -0.29404211 -0.94503862 0.32551625 -0.030678499 0.1115659
-0.34438199 0.028079048 -0.2988756 0.88576704 0.38322783 -0.26182666 0.1748762
0.33970612 0.020922454 -0.29720032 -0.974971 0.18826257 -0.11827408 0.19542104
-0.346892 0.033690173 -0.29407173 0.89058453 0.4464719 -0.086729497 0.1396113
-0.31848416 0.0301708 -0.29004779 0.90594554 0.40935138 -0.10813921 0.18376604
0.34587994 0.03720567 -0.29982403 -0.90126574 0.40490839 -0.15417285 0.18301994
-0.34869942 0.044805545 -0.29555315 0.91988432 0.35215765 -0.17262059 0.20792611
-0.35047519 0.055726402 -0.29151282 0.98697418 0.15549231 0.041280866 0.17606835
-0.32571357 0.055933814 -0.29344633 0.71183634 0.60490716 0.3568984 0.22663999
-0.35189915 0.064483538 -0.29202676 0.91951412 0.38659659 -0.070971683 0.20338161
-0.32705596 0.064189337 -0.29250202 0.51297319 0.017710593 0.85822189 0.20159882
0.3288582 0.063687891 -0.29429096 -0.93739325 0.31465766 -0.14928025 0.23769048
0.35359049 0.065015845 -0.29315153 -0.97224402 0.09336789 0.21453194 0.19540596
-0.35354376 0.074597739 -0.29580647 0.99087709 0.1306978 0.032871898 0.17401557
-0.32858688 0.073604405 -0.2984159 0.98287535 -0.073497936 0.16897951 0.24762855
0.35480353 0.077032208 -0.29220891 -0.88442481 0.37008375 0.2843076 0.25081921
-0.35551286 0.086707465 -0.29515612 0.9788152 0.13496892 0.15396175 0.20150129
-0.33079538 0.087186381 -0.29376161 0.98651206 0.11180151 -0.11955943 0.26734945
0.33096883 0.084596246 -0.29176515 -0.97137976 0.045864891 0.23306167 0.24446866
0.35569367 0.085850261 -0.29564616 -0.97037077 0.24078254 0.020109626 0.19498718
-0.35722053 0.097209401 -0.29809934 0.94259131 0.32185051 -0.089072652 0.26770791
-0.3313407 0.090540051 -0.29072666 0.86675972 0.39198071 -0.30834818 0.26329494
0.33196884 0.094502494 -0.29494089 -0.97578096 0.21790555 0.019201305 0.21986766
0.35692725 0.098070346 -0.29327473 -0.99317539 0.039959479 -0.10957114 0.17934401
-0.35773385 0.10036623 -0.29939225 0.85052299 -0.28225088 0.44378504 0.21450227
0.3331832 0.10653251 -0.29104814 -0.86662728 0.4451054 0.22547364 0.22199595
-0.36056858 0.11779983 -0.29892662 0.97017032 -0.23767419 0.047755416 0.21945749
-0.33530235 0.1149038 -0.29149094 0.99451965 -0.10344688 0.015144039 0.22766562
0.3340441 0.1150607 -0.29768187 -0.26074168 0.78728861 0.55873996 0.23423243
0.35846749 0.11332816 -0.29558876 -0.98812157 0.095234551 -0.12060727 0.18123955
-0.33622018 0.12054846 -0.29419363 0.93198764 -0.35925627 0.048311803 0.17554554
0.33524799 0.12698664 -0.29654145 -0.89386153 -0.43570146 -0.10571544 0.26784909
0.35917288 0.12031603 -0.29612261 -0.97562659 0.21383639 0.049261324 0.187736
0.3600868 0.12936956 -0.29101986 -0.980533 -0.18788692 -0.057039738 0.21883942
-0.33670127 0.13449743 -0.29640985 0.99367052 0.10159837 0.047923062 0.22199963
0.36099222 0.13833901 -0.29710889 -0.98447758 0.16501573 -0.059781827 0.18737742
-0.36048386 0.14257811 -0.29234165 0.98737448 0.10665316 0.11711837 0.21373013
-0.3357628 0.14379434 -0.29984668 0.82865822 0.5596174 0.012404536 0.20477137
0.33732697 0.14758164 -0.29268694 -0.80356216 -0.5530926 0.2199465 0.25399417
0.36200827 0.14840424 -0.29360566 -0.98161298 0.041485619 -0.18631899 0.12677032
-0.35935304 0.15378018 -0.29313987 0.92682379 0.31590718 0.20297836 0.1748344
-0.33429757 0.15830886 -0.29350224 0.96860731 -0.011902197 0.24831058 0.20585985
0.33445981 0.16615875 -0.2961615 -0.32253155 -0.66465384 -0.67395002 0.2176853
0.3600044 0.16155085 -0.29941049 -0.98532492 -0.15885796 0.06244107 0.19526319
-0.35727939 0.17432223 -0.29308364 0.91552764 -0.24138935 0.3217769 0.21530142
-0.33222529 0.17883749 -0.29852608 0.96144348 0.041620027 0.27183488 0.25481185
0.33272812 0.17680852 -0.29280329 -0.98891395 -0.1385971 0.053292379 0.18933991
0.35756284 0.17656627 -0.29047897 -0.79945505 -0.54862344 0.24471205 0.19993587
-0.35583055 0.18867467 -0.29946071 0.98926896 0.14600173 -0.0055125016 0.23305523
-0.33190194 0.18204069 -0.29377031 -0.32335785 0.4249337 0.84550047 0.31576166
0.33188924 0.18196759 -0.29899976 -0.85942763 -0.3953276 0.32419178 0.21168201
-0.35526776 0.19424957 -0.29469988 0.54115343 -0.64916104 0.5345493 0.3001292
0.32937852 0.1974082 -0.29630125 -0.95296258 -0.2251344 0.20292069 0.14840864
0.35458526 0.1948783 -0.29404113 0.090828866 0.73217314 0.67503524 0.26294518
-0.35416701 0.20515415 -0.29578546 0.97379351 -0.20844342 0.090981573 0.19759843
-0.32960832 0.20476162 -0.29562789 -0.097798444 0.32130581 0.94191188 0.23035799
0.32850152 0.20280175 -0.29319626 -0.96486169 -0.2275189 0.13144213 0.17076488
-0.3528854 0.21785003 -0.29664874 0.95454782 -0.26697996 0.13251485 0.19198178
-0.32834518 0.21564183 -0.29581136 0.80329669 0.15359078 -0.57543409 0.28674918
0.32578537 0.21950576 -0.2955628 -0.93467778 0.35527962 -0.012409631 0.22926116
-0.35013795 0.22744484 -0.2942996 0.98168916 -0.16434598 0.096315995 0.16564682
0.34944898 0.226466 -0.29360247 -0.71189368 0.67870218 -0.18047376 0.21481375
-0.32236782 0.23165464 -0.29335728 0.88182014 -0.4660823 0.071837395 0.24945761
0.3219105 0.23809893 -0.29697704 -0.97051269 -0.22847076 0.076851599 0.22111423
0.34878418 0.23055436 -0.29261193 -0.032899983 -0.99151933 -0.12572585 0.23613033
-0.31712413 0.24548467 -0.29748815 0.9999221 -0.0085086152 0.0091340998 0.27112311
0.34435296 0.24786639 -0.29735014 -0.96211398 -0.23946099 0.13036543 0.16792138
-0.340776 0.25213677 -0.29267389 0.89886487 -0.43165553 -0.075599708 0.24236976
-0.33810997 0.25916827 -0.29384267 0.95648444 -0.28509539 -0.062114503 0.18767089
-0.31296313 0.25645918 -0.29547679 0.8715322 -0.48776191 0.050199173 0.22146131
0.34258741 0.25178832 -0.29261696 -0.93618411 -0.34146628 -0.08342693 0.1545554
-0.33471632 0.26811892 -0.29726779 0.98527169 -0.13613538 0.10347343 0.22964673
0.30946201 0.26575196 -0.29457182 -0.98863697 -0.14988352 -0.011479384 0.18894269
-0.30494726 0.2776008 -0.29767501 0.90995812 -0.14116439 0.38993436 0.24370836
0.30538785 0.27480233 -0.29665315 -0.99873936 0.049931485 0.0051523717 0.21252072
0.3325544 0.27407569 -0.29511553 -0.88756174 -0.44468006 0.12039044 0.22917676
-0.30228138 0.284632 -0.29387426 0.73123384 -0.16391173 0.66214037 0.21739446
0.29978237 0.28725433 -0.2909089 -0.77764076 0.170615 -0.60511595 0.22707385
0.32577324 0.28913927 -0.29487059 -0.92584568 0.050116532 -0.37456387 0.19927384
0.32402626 0.29302013 -0.29484904 -0.89923781 0.13645923 -0.41563246 0.15678602
-0.32027927 0.30619609 -0.29692459 0.91046363 -0.40198091 0.097299933 0.18843248
-0.29203364 0.30508605 -0.29675117 0.83893311 -0.51946151 -0.16232964 0.26232618
0.31886658 0.30448169 -0.29161668 -0.82384849 0.21086174 -0.52612829 0.2136073
0.32068393 0.30044463 -0.29594404 -0.92525768 -0.1283571 -0.35696313 0.19502868
-0.28129473 0.31999552 -0.29109472 0.59956563 -0.79552877 0.087493353 0.1750927
0.31399506 0.31530321 -0.2965672 -0.80733675 -0.58773243 0.052706651 0.18019401
-0.30827504 0.32441217 -0.29223394 0.76455647 -0.63785201 -0.092726476 0.20123827
-0.27777767 0.32487845 -0.29749274 0.72990578 -0.6773808 0.091612533 0.18735079
0.27595675 0.32909963 -0.29781088 -0.71166915 -0.69933027 0.066815563 0.13296479
0.30940112 0.32550827 -0.29533944 -0.87614733 -0.45162573 0.16852319 0.13979353
0.31163248 0.32055151 -0.29801878 -0.86863148 -0.48097911 0.11890497 0.15878661
-0.29900381 0.33728391 -0.29273152 0.043597251 -0.94237095 0.33171713 0.2420684
0.26861161 0.33809423 -0.29125166 -0.33675304 -0.75101119 0.5679608 0.17947441
-0.26428652 0.34360904 -0.29466304 0.95969951 -0.27766439 0.043350287 0.16040133
0.26272392 0.34530407 -0.29170394 -0.95303041 -0.29208294 -0.080128714 0.23902589
-0.25730568 0.3533009 -0.29768196 0.74239135 -0.66938943 -0.027803147 0.25633344
-0.2811057 0.36213291 -0.29845172 0.98209864 -0.18791786 -0.013005271 0.18514475
-0.27921498 0.36475793 -0.29060155 0.86556739 -0.5006898 -0.010142334 0.20727305
-0.25122187 0.36174741 -0.29025298 0.61426085 -0.78258526 0.10121191 0.20334034
0.24608152 0.36568376 -0.29299483 -0.67266631 -0.67586648 -0.30120507 0.23226896
0.27994186 0.36291283 -0.29168332 -0.84543395 -0.43600452 -0.30844998 0.26548803
0.2810508 0.36155486 -0.2976076 -0.82215703 -0.56692129 0.051554922 0.23371947
-0.27360493 0.37254661 -0.29684076 0.6382063 -0.7572751 0.13866207 0.19849573
-0.23809449 0.37556902 -0.29242161 0.41914037 -0.90447986 0.078978062 0.21369159
0.23963559 0.37357718 -0.29872996 -0.52143288 -0.85324425 -0.0090488046 0.19983612
-0.26513249 0.38430941 -0.29206783 0.61143249 -0.7745986 0.16170102 0.15775231
-0.22593631 0.38549763 -0.29597759 0.58248699 -0.81265378 -0.017400617 0.17146957
0.22461934 0.38857716 -0.29085445 -0.62299716 -0.7803036 -0.054780886 0.22124146
-0.25647154 0.39215952 -0.29241112 0.72961116 -0.66558337 0.15705509 0.20316656
-0.21246189 0.39650106 -0.29374 0.85604662 -0.50394917 -0.11497559 0.23122071
0.21197492 0.3976846 -0.29611588 -0.63976389 -0.7671662 0.046456296 0.17144327
-0.24039605 0.40528706 -0.29641476 0.59397602 -0.76101702 -0.26085547 0.23488399
-0.20779924 0.4003087 -0.29418623 0.7955938 -0.60574383 0.010240327 0.19800349
0.19922718 0.40686652 -0.29394805 -0.34830227 -0.73200214 -0.58554119 0.24067736
0.20872512 0.40002537 -0.29956132 -0.59449905 -0.77870202 0.20048463 0.21882524
0.24160299 0.40650579 -0.29112637 -0.86177433 -0.50578034 -0.039130244 0.24491428
-0.22633703 0.4167679 -0.29503393 0.87433469 -0.015189487 -0.48508573 0.21497165
-0.19579247 0.41011357 -0.29824674 0.5672102 -0.77978963 0.26495442 0.18453692
0.18827222 0.4147571 -0.29514393 0.38804874 -0.040550787 0.92074633 0.24799681
0.19181371 0.41220626 -0.29674453 -0.49963361 -0.1353842 0.85559183 0.21594182
0.23372458 0.41218042 -0.29445571 -0.62326992 -0.77301121 0.11827192 0.20219581
-0.21595959 0.4252423 -0.29521954 0.84800971 -0.52790111 -0.046902802 0.20817535
-0.18040797 0.42267689 -0.293475 -0.20250559 -0.96113616 0.18763971 0.23601998
-0.17320201 0.42696917 -0.29872382 0.27559111 -0.91202122 0.30375463 0.24617435
0.21266522 0.42734897 -0.298704 -0.79742426 -0.52536076 -0.2968342 0.2422999
0.22116682 0.42122549 -0.29788297 -0.54092973 -0.84056854 0.028974324 0.17571612
-0.16182432 0.43209103 -0.2975786 0.26707366 -0.96295118 -0.037371919 0.20518737
-0.15362935 0.43578014 -0.29255509 0.30902749 -0.94039416 -0.14198886 0.16889167
-0.14629415 0.43908221 -0.29324359 0.35475183 -0.93150151 -0.080349207 0.12799974
0.14811625 0.43968162 -0.29579023 -0.58742046 -0.75036734 0.30312699 0.23662569
0.15350802 0.43763736 -0.29554376 -0.82053638 -0.51473451 0.24853249 0.25147212
0.19574438 0.43953663 -0.29468134 -0.6893838 -0.71466959 0.11831074 0.24774925
0.20266475 0.43455204 -0.29685166 -0.75776368 -0.65236706 -0.014540548 0.24937318
-0.19756967 0.44025984 -0.29871422 0.71763438 -0.6935401 0.063269533 0.22680622
-0.18767241 0.44729447 -0.29787821 0.29170367 -0.92838711 0.2302312 0.22773722
-0.13501969 0.4441576 -0.29497743 0.71869189 -0.69374961 -0.046834368 0.16887181
-0.1222473 0.44990727 -0.29820758 0.8320576 -0.50956851 0.21913493 0.23907274
0.12165294 0.44971523 -0.29883033 -0.48701546 -0.87171 -0.054199543 0.20746906
0.13513209 0.44460461 -0.2940352 -0.062195681 -0.95187753 0.30010158 0.18797569
0.18651712 0.44618282 -0.29737201 -0.34935382 -0.89506036 0.2771621 0.18018979
0.19352797 0.44113308 -0.29018468 -0.68537426 -0.72446835 -0.073537044 0.2537576
-0.17314203 0.45383555 -0.29619086 0.049452003 -0.99061155 -0.1274488 0.22771336
-0.1124803 0.4543041 -0.29331255 0.03080021 -0.99535805 0.091179535 0.22846699
-0.10606898 0.45719025 -0.29530054 0.52225345 -0.79137832 0.31776056 0.2803382
0.099334076 0.45817751 -0.29532921 -0.23122784 -0.97274983 0.017073993 0.2433926
0.10151122 0.45735201 -0.2955969 -0.31561685 -0.93995875 -0.12985957 0.25951469
0.11860759 0.45086992 -0.29482269 0.17792125 -0.83364171 -0.52286273 0.26321086
0.16517517 0.45938772 -0.29413012 -0.37702301 -0.8658393 0.32890108 0.24995603
0.17385089 0.45530599 -0.2967189 -0.44489181 -0.89426458 0.048602261 0.1225663
-0.14325383 0.46729025 -0.2958968 0.68777776 -0.72180444 -0.077201784 0.21292928
-0.1377995 0.46974558 -0.29683366 0.81778628 -0.52877641 -0.22720252 0.28137949
-0.085287169 0.46312061 -0.29488176 0.11081751 -0.99384022 -0.0010168859 0.20381914
-0.074687652 0.46484414 -0.29292345 0.73418295 -0.64886796 -0.19986413 0.25348619
-0.066830039 0.46612182 -0.29238737 0.30053353 -0.95047826 0.079188168 0.22803394
-0.057587784 0.46762463 -0.29599783 0.69136691 -0.69905859 -0.18256165 0.2221075
0.043203142 0.46993294 -0.29630068 -0.17169054 -0.98503447 -0.015152602 0.19531243
0.087142706 0.46279985 -0.29768467 -0.96327645 -0.26216879 0.05801722 0.22190118
0.094491459 0.46001357 -0.29144746 -0.3232002 -0.94375795 0.069733202 0.19139309
0.14881231 0.4655917 -0.29223648 -0.44178703 -0.89493716 -0.062543929 0.22776935
0.15595622 0.46288311 -0.29802194 -0.93554264 0.23634844 0.26248696 0.21321446
0.161679 0.4607133 -0.29326409 -0.48025829 -0.81060195 0.3350769 0.24489337
-0.13346563 0.47169659 -0.29711434 0.72689289 -0.65543133 -0.20502825 0.26479685
-0.12572142 0.47518277 -0.29681402 0.41452777 -0.91003668 4.2445587e-05 0.26414454
-0.037665013 0.47086415 -0.29463947 0.028947383 -0.92516005 -0.37847182 0.22157052
-0.01700384 0.47422376 -0.29937589 -0.17792435 -0.97710603 -0.11664779 0.24819924
-0.008286383 0.47513068 -0.29600161 -0.33934608 -0.90562898 -0.25432333 0.22698498
0.01225356 0.47305721 -0.29579437 0.52741784 -0.80440855 0.27341792 0.20962343
0.024810497 0.47178966 -0.2950432 -0.28987852 -0.95500922 0.062671952 0.25306797
0.11987419 0.47656369 -0.29434726 -0.59375304 -0.80462992 0.0052924971 0.18450609
0.13423631 0.47111821 -0.29456374 -0.29547817 -0.92994404 0.21885359 0.20723669
-0.11221628 0.48126233 -0.29343364 0.31043416 -0.94973797 0.040353037 0.1878465
