# .PCD v0.7 - Point Cloud Data file format
VERSION 0.7
FIELDS x y z normal_x normal_y normal_z curvature
SIZE 4 4 4 4 4 4 4
TYPE F F F F F F F
COUNT 1 1 1 1 1 1 1
WIDTH 582
HEIGHT 1
VIEWPOINT 0 0 0 1 0 0 0
POINTS 582
DATA ascii
-0.34166718 -0.27449846 -0.09465602 -0.020057701 0.85923249 0.51119196 0.24393411
-0.33703765 -0.27770427 -0.092127413 0.8084712 0.5855878 -0.05883358 0.20801054
-0.29734829 -0.27755421 -0.093868986 0.01314054 0.97575611 -0.21846573 0.25280398
0.049392108 -0.27902332 -0.093622714 -0.24374101 0.91877061 0.3105655 0.25839099
0.056177534 -0.27409124 -0.096183375 -0.44050026 0.89428687 -0.078806892 0.21564032
0.060385566 -0.27112433 -0.098627001 -0.58244592 0.78762686 -0.20099919 0.23587973
0.092464596 -0.27694124 -0.094589666 -0.56819606 0.74383646 -0.35193828 0.20559202
0.070772581 -0.26275063 -0.094864249 -0.40963036 0.89075738 -0.19686125 0.238637
0.10627533 -0.26642078 -0.095150463 -0.59883416 0.77559245 -0.19963461 0.20993935
0.11255762 -0.26147363 -0.094227016 -0.62332064 0.53006786 0.57489067 0.23485321
-0.37078336 -0.25192738 -0.092981823 0.44165185 0.83633071 -0.32479915 0.21356833
-0.36558041 -0.25612622 -0.094488561 0.65657282 0.70437723 -0.26974976 0.23417164
-0.33342734 -0.2500385 -0.095442355 0.77231061 0.63514209 -0.011433159 0.1767837
-0.32589421 -0.25562024 -0.093589395 0.65527809 0.71801168 -0.23466946 0.21106623
0.075737804 -0.2586019 -0.091704808 -0.56598687 0.72142005 -0.39901376 0.2296731
0.083139762 -0.25358197 -0.097858042 -0.5795297 0.71269131 0.39524221 0.20373009
0.11801648 -0.25726965 -0.094115898 -0.58073723 0.8133412 0.034933742 0.25740156
0.12284784 -0.25396028 -0.097018734 -0.59927475 0.77484643 0.20120303 0.22332409
-0.34494412 -0.24084657 -0.092133224 0.66375214 0.74530256 0.062906958 0.22809333
0.088775359 -0.24927397 -0.098010518 0.24350512 0.49362311 0.83489013 0.26502672
0.092895359 -0.24584344 -0.095500201 -0.7028054 0.6367898 0.31711689 0.26374015
0.12907422 -0.24875899 -0.099562086 -0.64328647 0.7640329 -0.049357265 0.21113519
-0.38553461 -0.23411833 -0.093863577 0.8110674 0.58186638 -0.060010698 0.20770881
-0.35240176 -0.23557094 -0.096300431 0.63832521 0.69480538 -0.33134025 0.18666448
-0.34745315 -0.23930158 -0.095679581 0.52582335 0.72426581 -0.44603676 0.20856915
0.10616811 -0.23557383 -0.094707012 -0.4842039 0.69731164 0.52849132 0.25194928
0.13725968 -0.23795624 -0.098804936 -0.73941141 0.65592742 -0.15175627 0.16573903
0.14145206 -0.23176703 -0.094742581 -0.85864508 0.45452166 -0.23693609 0.18243288
-0.38964248 -0.22895195 -0.094911218 0.60306734 0.76210141 -0.23560826 0.22461386
0.11638846 -0.22435042 -0.095814288 -0.58957237 0.79634112 0.13507497 0.25325873
-0.4023248 -0.21253741 -0.095545657 0.78116167 0.53427762 -0.32300758 0.1884855
-0.37128806 -0.21284285 -0.09639506 0.93871713 0.34145457 -0.047104869 0.20319252
-0.36987522 -0.21513161 -0.099598058 0.82762241 0.56125456 -0.0058678999 0.21482687
0.15502425 -0.21431327 -0.09605173 -0.70661616 0.45198601 -0.54442835 0.21157335
-0.41042715 -0.20214881 -0.096501 0.75985187 0.55117089 -0.34472567 0.2219007
-0.40689349 -0.20650963 -0.095133245 0.76892096 0.55768561 -0.31264582 0.19172043
0.13146383 -0.20458928 -0.09499453 -0.97624773 0.21080658 -0.050009459 0.22493161
0.16358933 -0.20253399 -0.092597142 -0.71903855 0.59433579 -0.36020613 0.22368953
-0.38192427 -0.19937897 -0.099239938 0.34784526 0.85778129 -0.37843758 0.23386879
0.13845757 -0.1953855 -0.094355315 -0.75108105 0.64181894 -0.15474403 0.21475951
0.14201614 -0.19074553 -0.09433838 -0.39120016 0.88181895 -0.26335877 0.2216796
0.16784051 -0.19752032 -0.095545277 -0.61036903 0.65110201 -0.45112726 0.24397241
0.17159621 -0.19264385 -0.095646299 -0.37275481 0.89633811 -0.24006629 0.2162627
-0.42106673 -0.18864372 -0.098520495 0.90187275 0.13467842 -0.41047198 0.25388584
-0.39431998 -0.18249276 -0.094002858 0.65045547 -0.056383155 -0.75744867 0.21851876
0.143999 -0.18794976 -0.092823766 -0.5339154 0.80505753 -0.25848922 0.22327833
0.17670177 -0.18583758 -0.094792157 -0.8435722 0.51893508 -0.13817491 0.15060297
0.18046288 -0.18097661 -0.095019303 -0.8623994 0.49277452 -0.11593286 0.11418733
-0.40126514 -0.17354453 -0.094739065 -0.16511495 0.54358721 0.82295197 0.20789698
-0.39855298 -0.177158 -0.095304042 0.69357848 -0.025275303 -0.7199375 0.21888909
0.15410171 -0.17521307 -0.095896736 0.53678262 0.26781628 0.80008686 0.24213265
0.18223362 -0.17869535 -0.095167235 -0.85281581 0.50391006 -0.13703966 0.10585497
-0.40659237 -0.1667906 -0.096089393 0.8326506 0.1703667 -0.52694225 0.27531177
0.16352856 -0.16031888 -0.090809025 -0.73446274 -0.34866923 0.58223212 0.27241963
0.18717736 -0.1670247 -0.090970136 -0.88292778 0.46599236 -0.057356335 0.085801288
-0.44032043 -0.15069167 -0.094118454 0.90828675 0.4104645 -0.080833152 0.21626931
-0.43807474 -0.15517904 -0.090830274 0.90969324 0.3038345 -0.28309506 0.17810015
-0.41263804 -0.1546219 -0.098872781 0.83235908 0.52491665 0.17787875 0.24124797
0.19219628 -0.15714154 -0.09883111 -0.96891552 0.18009102 -0.1696171 0.18627608
-0.4426446 -0.14558575 -0.095895797 0.7772038 0.62597364 0.064119883 0.22708572
-0.41610131 -0.14527568 -0.09444081 0.47505668 0.87925309 -0.035145 0.26126748
0.17251676 -0.14007337 -0.097349823 -0.99172306 0.1119857 -0.062804967 0.16070375
0.19756211 -0.14305198 -0.094835505 -0.96618336 -0.090952635 -0.24128282 0.23836271
-0.44783196 -0.13322856 -0.096480951 0.95107085 0.22765699 -0.20889355 0.17780221
-0.42096388 -0.13293627 -0.091741122 0.99994344 -0.00067713135 -0.010615001 0.21230307
0.17550409 -0.13196827 -0.093332037 -0.99106425 0.013971916 0.13265133 0.20938818
0.17772715 -0.12755463 -0.097620718 -0.88374186 0.41967961 -0.20704903 0.18302189
0.18023124 -0.12058108 -0.093445264 -0.91127121 0.38241383 -0.15278895 0.18004501
0.20445314 -0.12587677 -0.092939228 -0.46697882 0.54589146 -0.6956532 0.2651549
-0.455331 -0.11371528 -0.091521785 0.83861965 0.48787257 -0.24227551 0.23979826
-0.43042666 -0.11077194 -0.094803669 0.97720897 0.20665982 -0.048521802 0.21579625
0.18246704 -0.11488031 -0.09208177 -0.91593838 0.39155185 -0.088000633 0.12049268
0.20921731 -0.1152124 -0.095886409 -0.48370051 0.70735943 -0.5154382 0.23219194
-0.4609735 -0.10195617 -0.098078609 0.83419669 0.54121226 -0.10585457 0.18911906
-0.43262333 -0.10565244 -0.095630527 0.82633495 0.40748435 -0.38875049 0.25871527
0.1863358 -0.1055345 -0.092055663 -0.83936024 0.51630718 -0.17000343 0.18329155
0.21520518 -0.10053335 -0.095101282 -0.62772375 0.6101144 -0.48344943 0.21548377
-0.4378444 -0.092828758 -0.094645873 0.64383209 0.75819892 0.1030275 0.24022071
0.1895678 -0.09792047 -0.092904657 -0.88180029 0.41611013 -0.22199222 0.19466664
0.19242731 -0.091442704 -0.094819739 -0.93683642 0.3170861 -0.14762756 0.23046833
0.21763304 -0.095428213 -0.097762719 -0.79069823 0.50594676 -0.34469441 0.22000833
-0.46518299 -0.08801958 -0.093300983 0.94319648 0.27846321 -0.18121462 0.12205569
-0.43966228 -0.089351445 -0.098746046 0.82106596 0.56653148 -0.069947764 0.23797804
0.21969309 -0.088611633 -0.09872856 -0.94165212 0.27641651 -0.192055 0.18762279
0.22064304 -0.082221381 -0.099719428 -0.98233217 0.11558652 -0.1471847 0.16608635
-0.46635786 -0.077916779 -0.091886014 0.95701391 0.04479178 -0.2865625 0.17379613
0.19647911 -0.073905043 -0.094611242 -0.77320886 0.27646503 -0.57071459 0.2556555
0.2208488 -0.076949611 -0.095267057 -0.97060347 0.20208028 -0.1307385 0.19087221
-0.44425318 -0.060465336 -0.09458141 0.9430871 -0.095448516 -0.31855339 0.21212539
0.19738944 -0.066543184 -0.093925044 -0.87361032 0.46812379 0.13291016 0.19831286
0.22199304 -0.066314496 -0.092933834 -0.9685933 0.15367962 -0.19547303 0.17754799
-0.46977407 -0.053164549 -0.093322188 0.99163753 0.075351812 -0.1047716 0.2311908
0.19885959 -0.05549467 -0.094106711 -0.98450232 0.16683161 -0.054058395 0.21032842
0.22343487 -0.057779256 -0.095834501 -0.99376971 0.095782228 -0.056986593 0.16769381
-0.47148663 -0.045401942 -0.099619046 0.99888098 -0.045335237 0.013474068 0.24689558
0.22496778 -0.044456389 -0.093818679 -0.98605227 -0.12774365 0.10668904 0.21976247
-0.4474479 -0.035762955 -0.093912199 0.98699123 -0.16055508 0.0083838217 0.23651682
0.22539166 -0.038632814 -0.090692952 -0.97713226 -0.18436259 0.10593856 0.20812933
0.43831185 -0.034201909 -0.090188265 -0.4050746 -0.90207618 0.14890631 0.040549733
0.44719461 -0.036628187 -0.091539532 -0.1187281 -0.99279225 0.016346775 0.03275067
0.45638752 -0.035943687 -0.098278321 -0.12261466 0.98518997 0.11985962 0.021142619
-0.47409523 -0.022835499 -0.096314989 0.71239108 0.19976373 -0.67275065 0.23643637
-0.44918174 -0.020086262 -0.090065517 0.98404288 0.15614055 -0.085321024 0.19379832
0.20282724 -0.025795579 -0.094779238 -0.9367972 -0.27746364 0.21313128 0.19549102
0.22726324 -0.02687617 -0.093645453 -0.96615458 0.24584088 -0.07815142 0.22392496
0.42558005 -0.027538195 -0.095794715 -0.65907109 -0.70567703 0.26008695 0.030209739
-0.4746559 -0.016445778 -0.093757294 0.93949282 0.039663937 -0.34026465 0.24495725
-0.45000553 -0.014578816 -0.091216557 0.98099273 0.01583242 -0.19339754 0.20842712
-0.44955084 -0.019560747 -0.093561582 0.96907198 0.22021982 -0.11136709 0.19756195
0.41724658 -0.01586142 -0.095664471 -0.81628382 -0.40090433 0.41588029 0.036714084
0.48458922 -0.013688125 -0.092811503 -0.90177017 0.31823406 0.29246801 0.024788624
-0.45139325 -0.0063372119 -0.094744153 0.92399943 0.22116055 -0.31195033 0.2131443
0.20586573 -0.0035427497 -0.096047737 -0.90072256 0.43195924 -0.04593455 0.24480888
0.41339588 -0.00052502833 -0.099134676 -0.87921876 0.058094479 0.47286293 0.033015683
-0.47654676 0.0058153523 -0.098237276 0.98480803 0.089002118 -0.14910328 0.19371882
-0.45164299 0.0032807095 -0.092965148 0.77173835 0.24503186 -0.5868383 0.20955944
0.20597002 0.0022747866 -0.095317572 -0.83249092 0.55226654 -0.044277463 0.25965238
0.23050384 0.0014296706 -0.092646979 -0.99982178 -0.015655367 -0.010547644 0.18397141
0.41741079 0.0043435204 -0.091314338 -0.84977633 0.30614799 0.42913124 0.029584464
0.48319378 0.006502423 -0.094800763 -0.85892224 -0.3282699 0.39305404 0.030351574
-0.47452876 0.015018791 -0.090884745 0.97465718 -0.033190656 -0.22122797 0.2035107
-0.44966289 0.019668378 -0.095032573 0.52349895 -0.05779193 -0.8500641 0.22693017
0.20474668 0.013726573 -0.098631509 -0.90120894 -0.43253645 0.027103489 0.21202275
0.22936045 0.015948392 -0.099649951 -0.93088335 -0.24867798 -0.26761061 0.20389959
0.23011298 0.010340395 -0.099779695 -0.9497624 0.10953772 -0.29317713 0.22732586
0.41928869 0.010323935 -0.092913762 -0.80789375 0.34376681 0.47867739 0.028622968
-0.47394183 0.023943342 -0.096246406 0.96599406 -0.18035357 -0.18527812 0.22789405
-0.44896102 0.025243295 -0.095406011 0.58473808 -0.33816704 -0.73737663 0.27812323
0.20252177 0.026860127 -0.092852198 -0.9817934 -0.18950562 -0.013016189 0.22112833
0.42565119 0.020357117 -0.096451595 -0.58532286 0.74400377 0.32226625 0.031017788
0.43463829 0.024425386 -0.092328966 -0.39427677 0.89309376 0.21663187 0.03251883
0.44997835 0.028364195 -0.091562212 -0.12939535 0.98794621 0.08496543 0.016605593
0.45373356 0.02822708 -0.095534638 -0.032405734 -0.9994238 0.010095882 0.035394777
0.46521506 0.025182348 -0.094193235 -0.43896654 -0.89526552 0.076210544 0.020593455
-0.47239184 0.035567775 -0.096067891 0.99558109 -0.093887649 0.0018292761 0.26175225
0.20154737 0.035364762 -0.09454529 -0.95776379 -0.068695985 -0.27923009 0.23468697
0.22623894 0.034414995 -0.093355387 -0.97995043 -0.1966386 0.032098986 0.20831634
-0.47139508 0.043689467 -0.096728273 0.96128398 -0.25572017 0.10266554 0.25510839
-0.44627082 0.044916578 -0.094238907 0.99805498 -0.043886311 -0.044274796 0.23996049
0.22498977 0.045272481 -0.094998896 -0.9697665 0.22679712 0.090089671 0.18605967
-0.46963367 0.051721614 -0.090309717 0.737149 -0.66233844 -0.13386232 0.18301094
0.19865514 0.05946498 -0.097816035 -0.9848634 0.0043358915 -0.17327799 0.25803909
0.22318242 0.05844764 -0.09433502 -0.99524176 -0.093985096 0.025703462 0.18529394
-0.44386411 0.064469166 -0.096190646 0.97945106 -0.19383012 -0.055726022 0.15975378
0.22156203 0.067315005 -0.090204552 -0.95239496 -0.29246399 -0.086073399 0.2116344
-0.46674895 0.074098073 -0.090867944 0.96533924 -0.21458642 -0.14856942 0.23276252
-0.44174498 0.076662071 -0.090201601 0.95359641 0.29964826 0.029404914 0.2149788
0.19662702 0.073152244 -0.095180251 -0.64583176 -0.75969058 0.075970717 0.26937038
0.22136284 0.074703895 -0.097258165 -0.90730596 -0.30443504 0.29002616 0.26166934
-0.46599543 0.083360404 -0.095115811 0.89602762 0.28769699 -0.33817869 0.21977401
-0.44132042 0.08327698 -0.095402732 0.98893386 -0.11666991 -0.091639698 0.23540287
0.19517346 0.081792288 -0.091496289 -0.77799237 -0.31677923 0.5425669 0.26247686
0.22056012 0.081130311 -0.097653404 -0.99735463 -0.038519084 -0.061643954 0.2202412
-0.46387258 0.094760284 -0.098056205 0.98522401 -0.060279641 -0.16031231 0.25610054
-0.43674529 0.094892234 -0.091991805 0.94012171 -0.31399354 -0.13258688 0.26679173
-0.45817277 0.10748117 -0.093727134 0.9699499 -0.23517898 0.06235395 0.22584818
-0.43242115 0.10532689 -0.091970362 0.87089181 -0.48600823 -0.073098786 0.24018121
0.18858129 0.10116927 -0.096805744 -0.88408482 -0.41673097 -0.21149315 0.20349285
0.21331397 0.10565477 -0.097056806 -0.8892324 -0.43063068 -0.15434691 0.2039323
-0.45513877 0.11546542 -0.096048065 0.86952245 -0.49156094 -0.047943119 0.25802737
-0.42753527 0.11717947 -0.092226692 0.87547922 -0.43061873 -0.21932526 0.18673907
0.18489824 0.11055811 -0.099042222 -0.84294063 -0.53348684 -0.069590837 0.21167332
0.20770921 0.11857685 -0.094913401 -0.93919384 -0.34013954 0.047117416 0.19148488
0.21050577 0.1115294 -0.093871854 -0.95562375 -0.1271272 0.26574805 0.19553149
-0.45187402 0.1240323 -0.098459125 0.93366921 -0.31187153 -0.17606252 0.24786668
-0.42352623 0.12651649 -0.09068957 0.97354782 -0.22778746 -0.017818231 0.18594447
0.17722794 0.12773983 -0.093032248 -0.9827143 -0.15368438 0.10321717 0.2369239
0.20426093 0.12661794 -0.093914494 -0.7288779 -0.66443193 0.16512789 0.21492703
-0.44689068 0.13525009 -0.095597662 0.88852084 -0.33097157 -0.31778687 0.25062746
-0.42106381 0.13322516 -0.094126068 0.90719068 -0.25389868 -0.33547047 0.25042051
0.1752312 0.13336717 -0.096661456 -0.9606486 -0.26815072 0.072452761 0.20326078
0.19940993 0.13875815 -0.095424041 -0.94338977 -0.30106401 0.13919806 0.25147387
-0.44320649 0.14459771 -0.097192749 0.86104995 0.0086629 -0.50844657 0.2636967
-0.41530639 0.14698887 -0.093514509 0.86132348 -0.49218014 -0.12601827 0.18577564
0.196982 0.14492464 -0.096497305 -0.95443523 -0.27436239 -0.11738241 0.19197528
-0.43758634 0.15642075 -0.091050655 0.68946302 -0.68262899 0.24219498 0.24973348
-0.41064805 0.15857668 -0.095051125 0.89364928 -0.41026926 -0.18185177 0.21182975
0.1674372 0.15178351 -0.094861545 -0.90719193 -0.3467631 0.23823981 0.19790517
0.1911255 0.15874055 -0.095360622 -0.87153232 -0.3143298 -0.37633517 0.26706761
-0.43339688 0.16733603 -0.093869537 0.62442434 -0.7645998 -0.15962939 0.24057417
-0.40700221 0.16643968 -0.09740039 0.72754914 -0.65906346 -0.1905454 0.23580225
0.16371249 0.16052748 -0.093744785 -0.93443489 -0.16576137 0.31520566 0.21924365
0.18984807 0.16158463 -0.094516449 -0.81602913 -0.48376662 -0.3163327 0.19643299
-0.40132141 0.17320073 -0.092803746 0.89141768 -0.45294765 -0.014588403 0.22665817
-0.39656809 0.17999852 -0.097119816 0.89623505 -0.33885646 -0.28624988 0.20787153
0.15567103 0.17327833 -0.096687071 -0.99912101 -0.041851867 0.0023970867 0.24120224
0.18272252 0.1776946 -0.093131647 -0.90524226 -0.38190368 -0.18624158 0.18230717
-0.4240548 0.18400855 -0.094371498 0.96738094 -0.11333729 -0.22655849 0.25302911
-0.39334178 0.18339537 -0.091339007 0.84716469 -0.45342043 -0.27698711 0.19218716
0.17428717 0.18858927 -0.092580289 -0.67209387 -0.73672205 -0.07436727 0.17906129
-0.38497052 0.19494236 -0.095900208 0.61901999 -0.77413046 -0.1324248 0.20499392
0.13658439 0.19798793 -0.095508911 -0.61160749 -0.78148979 0.12332869 0.25357112
0.14109336 0.1918633 -0.093731374 -0.54077691 -0.73501801 0.40903395 0.2424213
0.16931999 0.19480741 -0.091151245 -0.74349886 -0.66869491 -0.0075217616 0.15138084
-0.41076648 0.20058778 -0.090237178 0.982997 -0.17377044 -0.059336528 0.21575306
-0.37678126 0.20495453 -0.091175184 0.76796311 -0.63457882 -0.086846419 0.21090642
0.12829736 0.20898405 -0.096913517 0.81531388 -0.54489803 0.19583018 0.26429209
0.13113834 0.20504868 -0.095246464 -0.98133826 -0.084007978 0.17296778 0.2451207
0.1646347 0.20086722 -0.090892851 -0.69583851 -0.69905013 -0.16473535 0.20371816
-0.40244821 0.21278282 -0.097820386 0.81999785 -0.5615716 -0.11063855 0.15875238
-0.3712315 0.21310811 -0.097765796 0.75122821 -0.64090955 -0.15776956 0.18647674
0.12313728 0.21553853 -0.095694877 -0.85629511 -0.43973431 -0.27091032 0.24828579
0.15422717 0.21502283 -0.094208576 -0.78992766 -0.61171508 -0.042648897 0.21700396
-0.39281252 0.2250392 -0.096134722 0.62389976 -0.77442396 -0.1049595 0.2296683
-0.36314732 0.22285709 -0.092137806 0.63612449 -0.76830542 0.071080089 0.20636289
0.11624763 0.22437628 -0.094685815 -0.68671197 -0.71649706 -0.12271377 0.2124933
0.14695233 0.22483152 -0.096044756 -0.9603681 -0.26550856 0.084842369 0.23883203
-0.35447842 0.23356059 -0.093721524 0.61042899 -0.78721976 -0.087529875 0.21928141
-0.34891245 0.23826371 -0.096442901 0.70343506 -0.63144863 -0.32626936 0.17655766
0.1043959 0.23692407 -0.094617113 -0.70965123 -0.7031706 -0.044114459 0.21160764
0.13816556 0.23640053 -0.096704572 -0.85962296 -0.4974657 -0.11651688 0.15192531
-0.37899864 0.24332681 -0.097730108 0.73596388 -0.67424273 -0.061269376 0.24312575
-0.34355015 0.24171317 -0.09023957 0.72032374 -0.68140328 0.12970465 0.17917472
-0.33494541 0.24894515 -0.096109115 0.71423537 -0.46076837 -0.52684003 0.21486397
0.093615904 0.24517584 -0.094430543 -0.58732575 -0.75051284 -0.30295023 0.19651431
0.13474528 0.2408241 -0.096515223 -0.83491325 -0.51283205 -0.19980781 0.19693562
-0.32390413 0.25768095 -0.098566756 0.55529952 -0.8284753 0.072602086 0.22341952
0.076812945 0.25772613 -0.091231287 -0.2472132 -0.96731347 -0.056482274 0.19726208
0.084755003 0.25216386 -0.096191362 -0.51586163 -0.84346986 -0.149818 0.21901405
0.11960696 0.25625527 -0.095619261 -0.63069934 -0.77565426 0.024059463 0.17887942
0.12348133 0.25334677 -0.096089035 -0.64975768 -0.75839072 -0.051559314 0.17125951
-0.35306442 0.26519001 -0.090548009 0.93426311 -0.20671727 -0.29055196 0.23659644
-0.34890598 0.26852903 -0.091628812 0.73568964 -0.65470666 -0.17355084 0.25480974
-0.31183642 0.26615444 -0.091232494 0.65789902 -0.56919438 0.49313971 0.22805828
-0.30999169 0.26809627 -0.096141331 0.45659959 -0.86912251 -0.19011256 0.21468483
0.067084335 0.2653982 -0.093162239 -0.74388272 -0.66189378 0.092385069 0.2259227
0.072075404 0.26196465 -0.096857488 -0.41890502 -0.89249754 -0.16723272 0.23349917
0.10315403 0.26900882 -0.096558489 -0.39535236 -0.911246 -0.11544317 0.25835094
-0.3414031 0.27477568 -0.095200099 0.78781527 -0.38561466 -0.48025867 0.19997042
-0.33568844 0.27903235 -0.094263673 0.67351085 -0.60518885 -0.42441672 0.25854287
-0.30379918 0.27269405 -0.094706059 0.71436518 -0.59563166 0.36729452 0.19388236
-0.29866832 0.27699515 -0.09810143 0.73609382 -0.65359008 0.17602798 0.18778652
0.057405829 0.27349964 -0.099456124 -0.70613658 -0.69208443 -0.14963402 0.23820217
0.093987755 0.27576688 -0.094548918 -0.7847333 -0.56735778 -0.24959736 0.23844378
0.1006279 0.2710391 -0.097229406 -0.56272495 -0.78401434 -0.26203489 0.24043204
-0.32705891 0.28533384 -0.091927424 0.43408123 -0.88144875 0.1860688 0.27627343
-0.28666884 0.28576273 -0.097506508 0.81372178 -0.58057332 0.028131759 0.26011392
0.07735163 0.28863889 -0.095326975 -0.63486868 -0.76673979 0.095141545 0.23485814
0.082610235 0.28518388 -0.099559449 -0.5600872 -0.8279255 -0.029013371 0.24661587
-0.31500793 0.29500532 -0.095024511 0.81429297 -0.47680473 0.3310349 0.22457342
-0.30914047 0.29893571 -0.090851627 0.66643846 -0.74381149 -0.051031329 0.18020988
-0.27363077 0.29056507 -0.091009319 0.39865941 -0.8803882 -0.25687999 0.21542002
-0.26130176 0.29634234 -0.098290801 0.18295448 -0.98157072 0.055196237 0.19175388
-0.25224662 0.2998648 -0.095810942 0.48341942 -0.87328547 0.060647193 0.17407574
0.0090720747 0.29878291 -0.096804149 -0.14880036 -0.98640788 -0.069698751 0.22421813
0.015681677 0.29600421 -0.096359715 -0.093424641 -0.99338567 -0.066758811 0.23963785
0.027103767 0.290782 -0.091026962 -0.23385543 -0.94211394 -0.24027687 0.25558487
0.066307053 0.29688287 -0.09364298 -0.41028389 -0.90320212 -0.12606777 0.20016359
0.070926324 0.2932432 -0.092948332 -0.65452975 -0.7511071 0.086191379 0.22217399
-0.30248302 0.30453965 -0.094467089 0.72670943 -0.67342895 0.13559838 0.17305425
-0.29215258 0.30977935 -0.09503369 0.41354871 -0.90573627 -0.092840336 0.19599748
-0.24795881 0.3017109 -0.096571639 0.35530135 -0.93468595 0.011095216 0.19955473
-0.014157466 0.30816326 -0.094179586 -0.84058142 -0.53754359 -0.066856712 0.26668033
-0.0051474567 0.30451107 -0.09504728 -0.75919974 -0.45294139 -0.467397 0.23706877
0.0049320539 0.30078328 -0.099904902 -0.49925667 -0.86049759 -0.10142329 0.23862073
0.048266407 0.30882007 -0.094347902 -0.45011976 -0.88977057 -0.075502031 0.15517661
0.055263966 0.30554926 -0.095658667 -0.50161034 -0.82709897 -0.25356337 0.09019351
-0.28615516 0.31231666 -0.095484719 0.16169719 -0.9818579 0.099040493 0.202473
-0.22441609 0.31112045 -0.092855312 0.3449274 -0.85717571 -0.38245887 0.21362583
-0.21442056 0.31549573 -0.09540759 -0.12274849 -0.93708587 -0.32680705 0.2725381
-0.19732574 0.31928825 -0.092984609 0.18227024 -0.97606045 -0.1186747 0.25029385
-0.052841347 0.31995618 -0.094386607 0.29978725 -0.95133138 -0.071388505 0.24887292
-0.046727024 0.31918532 -0.094783776 0.31438452 -0.94420737 0.09815722 0.23270866
0.025499634 0.31821263 -0.094027348 -0.23699425 -0.83216482 -0.50133359 0.21336617
0.032189645 0.31510872 -0.091199324 -0.19693047 -0.98040217 -0.0054762228 0.21341647
0.042954147 0.31151682 -0.09856528 -0.4628095 -0.87407416 -0.14765374 0.16520043
-0.26516283 0.32110137 -0.096244976 0.21594492 -0.97633547 0.01170241 0.19616213
-0.25345668 0.32594368 -0.096189141 0.50895864 -0.82669812 -0.23985681 0.2117452
-0.18238676 0.32183707 -0.099768549 0.056794483 -0.99709892 0.050676756 0.19661494
-0.17154083 0.32270238 -0.093211628 0.13365249 -0.98545611 0.10494381 0.22292928
-0.16312215 0.3236708 -0.091580987 0.40335852 -0.88548565 -0.2306883 0.22858244
-0.1588009 0.32430524 -0.092344388 0.2056407 -0.9781611 0.030210435 0.22597106
-0.14590168 0.32626414 -0.095383041 0.10172856 -0.99192321 -0.075760953 0.25496781
-0.1323622 0.32807568 -0.095721424 -0.24642409 -0.91844594 0.30940619 0.23657843
-0.1280134 0.32843399 -0.093224727 -0.41073683 -0.91169322 0.010519329 0.26755714
-0.10376471 0.32641539 -0.091531202 0.1731261 -0.9588275 0.22511601 0.21055008
-0.083647534 0.32408273 -0.095211811 -0.48305869 -0.76367539 0.42831552 0.21717785
-0.07394205 0.32260966 -0.092935443 -0.5759939 -0.7892468 0.21288587 0.22070925
-0.061162911 0.32106185 -0.094504073 -0.17240992 -0.97551334 -0.13655972 0.22839206
-0.053938653 0.3203522 -0.097318187 -0.10450144 -0.98523879 -0.13558757 0.20775574
0.0014164248 0.32840472 -0.095867224 -0.39999643 -0.86921555 -0.29063225 0.1774296
0.015469638 0.32226083 -0.09312363 -0.45092165 -0.78582495 -0.42325988 0.21100023
-0.24016927 0.33129287 -0.094875358 0.43271595 -0.88059211 -0.1931691 0.18473409
-0.23170942 0.33531567 -0.099281959 0.2696425 -0.93346024 -0.23652698 0.21716833
-0.2237466 0.33759087 -0.090588659 0.25255036 -0.93942344 -0.23173703 0.20447458
-0.022707634 0.33824846 -0.094603091 -0.23019207 -0.97178704 0.051394649 0.16153815
-0.011089024 0.33344555 -0.094685033 -0.51883179 -0.84636492 -0.12033296 0.22509849
-0.0037038461 0.33014619 -0.092643276 -0.40025219 -0.89677209 -0.18867448 0.19194143
-0.2111674 0.34237689 -0.095274873 0.073586896 -0.99709588 0.019618373 0.23154646
-0.20908117 0.34253401 -0.094202779 0.075924002 -0.9913131 -0.10739619 0.21814027
-0.19663773 0.34462118 -0.09829656 0.055273563 -0.92016566 -0.38760808 0.23178548
-0.18920793 0.34510902 -0.093825996 0.098478965 -0.68492037 -0.72193217 0.23370883
-0.17476784 0.34763634 -0.099536188 0.23739237 -0.82092458 -0.51935321 0.24494481
-0.16359964 0.34845105 -0.093557738 0.51740503 -0.84705406 -0.12162019 0.23791744
-0.15981433 0.34965065 -0.09995237 0.47692385 -0.87893093 -0.0049085147 0.21412316
-0.083833307 0.34855869 -0.092828505 -0.046401769 -0.94384861 -0.32710353 0.21943173
-0.07500723 0.3475453 -0.094183221 -0.26868868 -0.84199882 -0.46780798 0.19915524
-0.061773479 0.34569532 -0.093201242 -0.24433319 -0.75178128 -0.6124754 0.21390899
-0.053039789 0.34479505 -0.09547624 0.017884674 -0.86243057 -0.5058592 0.24062918
-0.045768149 0.34378794 -0.095022306 0.11097872 -0.90316069 -0.41471019 0.21634087
-0.027833231 0.34016439 -0.092842929 -0.20148541 -0.97091794 -0.1293135 0.16002491
-0.15335341 0.35010618 -0.096350089 0.2476553 -0.93099964 -0.26815408 0.20490219
-0.14339827 0.35143626 -0.096527226 -0.2702722 -0.92113107 -0.28012577 0.21367237
-0.12928376 0.35291004 -0.093021981 0.0050561707 -0.99913073 -0.041378461 0.23057508
-0.11348397 0.35283083 -0.09618862 -0.082408026 -0.93355566 -0.34883046 0.2010216
-0.14124024 -0.35047856 -0.085204609 0.15426709 0.83222347 0.53254646 0.26022804
-0.13801506 -0.35050908 -0.081610978 0.06190569 0.97667289 0.20561562 0.21682763
-0.12814426 -0.35239521 -0.086960033 0.11065327 0.72738236 0.67725229 0.19657558
-0.11046375 -0.35075897 -0.080923036 -0.10925956 0.97802639 -0.17755768 0.2144058
-0.10783263 -0.35103938 -0.086638227 -0.23993748 0.96793067 -0.07443206 0.23233947
-0.21509506 -0.34080786 -0.087755233 -0.17449467 0.98434526 0.024820894 0.2394122
-0.20389026 -0.34216884 -0.084642112 0.33056426 0.9411912 -0.069902137 0.22714761
-0.19674134 -0.34335482 -0.086874418 0.35319471 0.93534422 0.019613946 0.20317864
-0.18451819 -0.3452349 -0.089344189 0.44079009 0.89646447 0.045338027 0.21506266
-0.17786241 -0.34554267 -0.084160686 0.15388331 0.98807245 -0.0057311892 0.20796119
-0.16715367 -0.34718093 -0.086243242 0.23496816 0.91460174 -0.3290799 0.21749832
-0.15376762 -0.34904408 -0.087163024 -0.016598763 0.94747925 -0.31938621 0.26539847
-0.10361996 -0.34989613 -0.081270754 -0.35073879 0.93581438 0.035123501 0.24529548
-0.092939831 -0.34914333 -0.087227359 -0.42195898 0.89285684 -0.15734452 0.24708232
-0.08334583 -0.34721547 -0.08116582 -0.17772439 0.97982985 -0.091364592 0.23744093
-0.073994517 -0.3467223 -0.087894611 -0.37589574 0.923554 -0.075831331 0.2288461
-0.060372401 -0.34512061 -0.089642622 -0.10030457 0.98253024 -0.15675904 0.24377689
-0.054475743 -0.3437883 -0.084572792 -0.25861692 0.96181637 0.089590691 0.24706368
-0.043471221 -0.34205076 -0.08193966 -0.2285901 0.95870668 -0.16919823 0.22644389
-0.031596448 -0.34062895 -0.085083865 -0.22009443 0.96018279 -0.17206828 0.13379954
-0.23422706 -0.33246267 -0.083901271 0.65466422 0.7559129 -0.0032310351 0.23663291
-0.2247283 -0.33631623 -0.083213516 0.33786246 0.91994774 0.19885932 0.21502408
-0.023933917 -0.33817643 -0.089674994 -0.29601231 0.95254773 -0.070918746 0.1365525
-0.011659519 -0.33260012 -0.085493945 -0.55898917 0.77997619 -0.28136852 0.18665899
-0.0084324731 -0.33164129 -0.088704482 -0.52794814 0.79940414 -0.28674686 0.21842924
-0.24537694 -0.32817033 -0.086672276 0.79764545 0.52192289 0.30225545 0.21539588
-0.18093365 -0.32105196 -0.088388376 0.24812703 0.96565741 -0.07706365 0.16600162
-0.17238359 -0.3220689 -0.087121591 0.25731659 0.96605867 -0.022778865 0.1870939
-0.16413018 -0.32313392 -0.08687041 -0.32162833 0.93162507 -0.16920385 0.2317507
-0.15533546 -0.32415777 -0.08530885 0.34563112 0.87937558 0.32747185 0.23045427
-0.14661101 -0.32509637 -0.082861185 0.41888201 0.76707435 0.48593706 0.22876182
-0.13493164 -0.32688051 -0.085734308 0.11609454 0.81498402 0.56773502 0.26110289
-0.12805355 -0.32781067 -0.086021706 0.022986235 0.83966017 0.54262549 0.23070738
-0.11449096 -0.3276611 -0.089591734 -0.27007249 0.91233909 0.30773059 0.23157316
-0.10290377 -0.325811 -0.085808247 -0.21845403 0.95338291 0.2081802 0.22627659
-0.099259451 -0.32520455 -0.084332027 -0.15995589 0.95354968 0.25525889 0.25938162
-0.082532942 -0.32288456 -0.082957759 -0.17306447 0.98480648 0.014313746 0.26053151
-0.07543204 -0.32220516 -0.08593484 -0.064175136 0.993164 -0.097502388 0.20740269
-0.06650871 -0.32101858 -0.085797451 -0.25223562 0.95231867 -0.17165779 0.21037681
0.0057567358 -0.32554162 -0.086815469 -0.48983049 0.78222758 -0.38494942 0.23815961
0.017508402 -0.3207168 -0.087179855 -0.5479973 0.7810244 -0.29949915 0.2162008
-0.28650472 -0.31103426 -0.085819215 0.32749254 0.94173008 -0.076766647 0.19214533
-0.27337429 -0.31620178 -0.083514072 0.3580786 0.93021911 -0.080449581 0.21061687
-0.22555108 -0.31015897 -0.087519072 0.49813452 0.86665004 0.027924834 0.21443866
-0.2112532 -0.31599924 -0.086627267 0.43916029 0.88240004 0.1688447 0.23710303
-0.20659167 -0.31725702 -0.085369036 0.11744562 0.99297339 0.014504645 0.25742638
-0.19471537 -0.31937444 -0.089983873 -0.014922441 0.99853921 0.05193118 0.22550356
-0.051706329 -0.31877333 -0.082342029 0.097073466 0.98944485 -0.10759031 0.25701097
-0.047966063 -0.31836951 -0.083374657 0.23920529 0.90052867 -0.36308247 0.27788013
-0.3050321 -0.30137318 -0.085635222 0.62704265 0.77897614 -0.0037076415 0.211776
-0.29579791 -0.3071034 -0.085126773 0.57545841 0.80746239 -0.12981573 0.20053518
-0.2434337 -0.30265912 -0.086512804 0.37010857 0.911228 -0.18078503 0.17715491
-0.23349412 -0.30650616 -0.083579518 0.37917945 0.86060172 0.3399817 0.19063587
-0.22759429 -0.30872929 -0.081183255 0.43650585 0.89880204 0.040217333 0.21793184
-0.013491343 -0.3067995 -0.082365401 -0.35983148 0.91660047 -0.17425552 0.2449939
-0.0024299098 -0.30221775 -0.08236555 -0.53005964 0.82384717 -0.20078006 0.22175162
0.047127485 -0.30822578 -0.085290454 -0.14338061 0.91428131 -0.37885585 0.27415219
0.059276521 -0.30115235 -0.085432798 -0.62738073 0.67500001 -0.38828897 0.21039505
-0.32051867 -0.29000336 -0.08938136 0.50291651 0.85356426 0.13602568 0.1899979
-0.3143065 -0.29430479 -0.085986011 0.53530568 0.82661772 0.17364036 0.19680463
-0.30769989 -0.29926425 -0.085183956 0.56440806 0.7990405 0.20731077 0.17477477
-0.26361421 -0.29430246 -0.086538889 0.39913997 0.90289783 0.1595711 0.21225171
0.0058960486 -0.29926854 -0.08779116 -0.5635882 0.82313472 -0.069409288 0.2080062
0.014739685 -0.2955991 -0.087722503 -0.28868034 0.94712329 -0.14007522 0.18948244
0.027438182 -0.29037684 -0.088131249 -0.18861525 0.96731657 -0.16947877 0.20992342
0.066460162 -0.29563659 -0.085406989 -0.36569169 0.93016088 0.032715678 0.20399442
-0.32884026 -0.28284279 -0.083725274 0.58031273 0.65000546 -0.49064252 0.23445509
-0.28451994 -0.28529724 -0.082929775 0.090905003 0.51113516 0.85467952 0.26110488
0.030563153 -0.28879815 -0.085043415 -0.26512083 0.96114147 -0.07692793 0.22955242
0.041646369 -0.28351793 -0.080109835 -0.52082407 0.84005851 -0.15180214 0.26392967
0.082574949 -0.28386971 -0.089773215 -0.57671559 0.79556763 -0.18566434 0.16086429
-0.34302378 -0.27187717 -0.083125323 0.60116947 0.79574233 0.073412776 0.22747628
-0.33940116 -0.27454206 -0.082287379 0.74869514 0.63534915 -0.18917465 0.26933953
-0.30414402 -0.27141696 -0.085263684 0.74452806 0.56149036 -0.36111853 0.22883707
-0.29472417 -0.27830994 -0.082137689 0.21872684 -0.058273517 0.97404456 0.25464436
0.04762052 -0.27970329 -0.087286249 -0.71736795 0.6897375 -0.098211192 0.20476443
0.054074764 -0.27457786 -0.085673794 -0.63159871 0.76402032 -0.13174209 0.17934439
0.089197882 -0.27823645 -0.085750639 -0.58364028 0.78899091 -0.19198269 0.199688
0.094531044 -0.27416548 -0.085906073 -0.7215243 0.67743218 -0.14313708 0.25649732
-0.34772387 -0.26873627 -0.086522751 0.38497913 0.9219088 -0.043305993 0.2153181
-0.31457782 -0.2633298 -0.084507614 0.54129839 0.78750914 -0.29466146 0.24057782
-0.30769563 -0.26871917 -0.085519269 0.7163713 0.67427915 -0.17933132 0.20921557
0.071143866 -0.26186877 -0.089296587 -0.42059553 0.84472066 -0.33097786 0.1902215
0.099848844 -0.26964423 -0.082690008 -0.48657268 0.86207592 -0.14167552 0.20525987
0.10560855 -0.265921 -0.087770835 -0.53294122 0.84022921 0.099942416 0.2014311
0.11053696 -0.2613492 -0.082006395 -0.6283161 0.77228922 -0.09374661 0.17485592
-0.36880785 -0.25256574 -0.086579382 0.64366579 0.72762179 -0.23719396 0.24913716
-0.33184692 -0.25019899 -0.08562912 0.81988025 0.56396669 -0.098680951 0.18828201
-0.32337642 -0.25709897 -0.089362726 0.51228106 0.85506165 0.080235131 0.23615037
0.076459058 -0.25721949 -0.083973117 -0.42271689 0.85176849 -0.30951709 0.21211864
0.11894162 -0.25569326 -0.087793581 -0.89913541 0.39133564 -0.19598973 0.23327895
0.12291153 -0.25225529 -0.084935129 -0.80970252 0.5443055 -0.21934751 0.22424132
-0.33885163 -0.24478455 -0.085260108 0.75386161 0.64748764 0.11159128 0.17678522
0.089008197 -0.24737489 -0.081965506 -0.73275697 0.68047762 -0.0041891532 0.21667138
0.095673345 -0.2423147 -0.082470335 -0.49776271 0.83862418 -0.22122771 0.2475246
0.12920156 -0.24611968 -0.085714526 -0.66939509 0.5121733 -0.53813446 0.23396562
0.13124102 -0.24382521 -0.087749332 -0.64008558 0.65139115 -0.40740639 0.22982977
-0.38149258 -0.23777974 -0.084870532 0.88062787 0.47314593 -0.02505004 0.20681913
-0.35157359 -0.23469919 -0.082243368 0.77526492 0.6316095 0.005803172 0.23389122
-0.34719741 -0.23840939 -0.085528895 0.46788985 0.88375539 0.0074525555 0.21041492
0.10747063 -0.23385099 -0.087960549 -0.88333124 -0.34169629 0.32088867 0.24657023
0.11041906 -0.23030332 -0.082742959 -0.91783929 0.39525923 0.036620438 0.23868701
0.13951546 -0.23247254 -0.084562384 -0.73195976 0.41878736 -0.53744954 0.20655355
0.14009392 -0.23238091 -0.088269994 -0.75401157 0.39388806 -0.52566034 0.20362304
-0.39211583 -0.22424841 -0.086623907 0.11747793 0.91404963 -0.38821667 0.25134045
-0.38877216 -0.22919163 -0.089903012 0.67921406 0.73137087 -0.061358776 0.19042115
-0.36146328 -0.22439505 -0.087437563 0.64458996 0.74931014 -0.15178314 0.19244727
-0.35975933 -0.22557987 -0.080025449 0.7795015 0.62580889 -0.02721459 0.18090113
0.11278721 -0.22754321 -0.085076638 -0.74684966 0.58411086 -0.3178522 0.22900507
0.14521623 -0.22589317 -0.089321382 -0.79652643 0.52644229 -0.29732829 0.23627274
-0.4019922 -0.21034086 -0.080821171 0.82509661 0.52124381 -0.21799211 0.22239214
-0.3995142 -0.21430288 -0.084923103 0.85271257 0.42128131 -0.30887422 0.22276609
-0.37058794 -0.21261714 -0.088250756 0.85519654 0.38209832 0.35019955 0.24730247
-0.36490721 -0.21972898 -0.086165167 0.62043428 0.77568322 -0.11565833 0.16110346
0.11944638 -0.2185837 -0.083064944 -0.73731726 0.64968276 -0.18513644 0.21083762
0.15272436 -0.21576445 -0.087395787 -0.71005672 0.46509665 -0.52868187 0.22736982
-0.4107669 -0.20040476 -0.089215338 0.94338346 0.0517365 -0.32764459 0.22327659
-0.40535355 -0.2070366 -0.086847335 0.77015686 0.4675622 -0.43387091 0.19034009
-0.37875959 -0.20115215 -0.082414813 0.77921486 0.62048846 0.088421039 0.25261945
0.12834115 -0.20705064 -0.08348605 -0.86092299 0.45141587 -0.23459619 0.18920764
0.13102166 -0.20443127 -0.089740068 -0.94997984 0.24994159 -0.18726319 0.18830851
0.16198587 -0.20311913 -0.084173761 -0.60178339 0.69798923 -0.38815945 0.22899008
-0.4143362 -0.19527476 -0.086537041 0.80296934 0.39956078 -0.4422572 0.22401917
-0.38497889 -0.19314341 -0.083104767 0.75371051 0.48049736 -0.44837797 0.26058695
0.13871905 -0.19345255 -0.082961209 -0.76125056 0.58931834 -0.27055764 0.21390472
0.16917931 -0.19474493 -0.089775003 -0.61568373 0.75803834 -0.21520068 0.22234944
-0.4232572 -0.18418828 -0.089558154 0.89626777 0.35219982 -0.26955414 0.23892187
-0.38901502 -0.18870649 -0.088994823 0.83769631 -0.0081316847 -0.54607588 0.23943907
0.14546373 -0.18470305 -0.083249807 -0.52326828 0.85137492 -0.036757912 0.20735022
0.17663595 -0.1839774 -0.083897457 -0.78743619 0.55727303 -0.26342192 0.15634848
-0.42933729 -0.17453994 -0.084730417 0.80749708 0.54932696 0.21491502 0.19590226
-0.40205413 -0.17179775 -0.089597031 0.67486227 0.73296434 -0.085581347 0.24629988
0.15245274 -0.17546873 -0.082347587 -0.45311454 0.87097234 -0.18998539 0.22983222
0.18288572 -0.17584617 -0.085821986 -0.86365312 0.46838179 -0.18633822 0.09376055
-0.40777779 -0.16362752 -0.086600229 0.75556874 0.56403863 0.33313105 0.17790954
0.18673819 -0.16635674 -0.084887847 -0.91592604 0.31759644 -0.24538146 0.13509025
-0.43577662 -0.15813848 -0.081719361 0.86682397 0.4985739 -0.0063500637 0.21120757
-0.4089382 -0.15960097 -0.081089363 0.79040188 0.4799464 0.38067889 0.22460277
0.19246478 -0.15305631 -0.086734638 -0.99536294 0.081241637 -0.051501345 0.17544328
-0.43962485 -0.14941958 -0.083730794 0.86945236 0.41567183 -0.26696381 0.20974489
-0.4158887 -0.14291589 -0.0815164 0.92056191 0.17809567 0.34763137 0.23232746
0.17078955 -0.14131707 -0.084185898 -0.94900668 0.19936638 0.24421196 0.20836607
-0.41897261 -0.13705118 -0.088626444 0.95079994 0.090665936 0.29624194 0.23444161
0.17362459 -0.13413708 -0.082676284 -0.99732774 0.063290641 0.036493 0.20404941
0.20075822 -0.13228351 -0.084092759 -0.72366178 -0.34528887 -0.59756941 0.26807305
-0.45132905 -0.12217595 -0.087295473 0.94735885 0.27772024 -0.15931952 0.20241539
-0.44872576 -0.12857355 -0.087692142 0.95955926 0.12685375 -0.25130519 0.19818276
-0.42468745 -0.12234819 -0.084549755 0.7882517 0.432744 0.43748355 0.24724774
0.17735754 -0.12538479 -0.083845221 -0.99898148 0.040639143 -0.019608857 0.19060209
-0.45543522 -0.11230329 -0.08743801 0.7369464 0.65243322 -0.17675094 0.24065122
-0.42737883 -0.11658037 -0.087832548 0.77367151 0.45958832 0.43613175 0.24910003
0.17989779 -0.11883655 -0.081975713 -0.9513697 0.3001906 -0.069146894 0.13242501
0.18293138 -0.11237848 -0.08587005 -0.88971311 0.43980339 -0.12240783 0.17386763
-0.45892593 -0.1018346 -0.080253676 0.91010046 0.40402019 0.09211351 0.19224006
-0.43189883 -0.10562769 -0.087650515 0.87544483 0.11542635 0.46933264 0.26763618
-0.42979065 -0.10953203 -0.082318753 0.98739159 0.1524604 -0.042588327 0.25558674
0.18480438 -0.10727892 -0.083271146 -0.90600377 0.390948 -0.16222444 0.1724925
0.21105041 -0.10659105 -0.081118941 -0.87274748 0.45033595 -0.18843968 0.26720592
-0.46290067 -0.09377671 -0.085666277 0.96022868 0.26738468 -0.080412962 0.21290074
0.18844774 -0.098832563 -0.084843293 -0.89020318 0.42291772 -0.16934851 0.1524161
0.19091503 -0.093057372 -0.085659206 -0.90652317 0.39256361 -0.15527223 0.18343648
-0.4390474 -0.087451249 -0.083519757 0.89744282 0.34789371 0.27123126 0.25918823
0.19381662 -0.084705167 -0.08401487 -0.85528219 0.34109846 -0.39005658 0.23366961
0.21828753 -0.086702265 -0.083620235 -0.73244649 0.380041 -0.56488138 0.2360532
-0.46600556 -0.076156959 -0.08656124 0.95944303 -0.02528332 -0.28076658 0.17921837
-0.44145849 -0.075532474 -0.085129194 0.90971416 -0.0036699027 -0.41521886 0.26389763
0.19581124 -0.072361261 -0.08445856 -0.86169767 0.47973189 -0.16533153 0.19469894
0.21950006 -0.077607721 -0.083759062 -0.83971375 0.39817616 -0.36923787 0.23483421
-0.46708095 -0.065991342 -0.084163517 0.95398813 0.27389511 -0.12201686 0.1637226
-0.44266716 -0.0637872 -0.081193931 0.87061381 -0.12050717 -0.47697958 0.23058933
0.19706926 -0.060415942 -0.080791973 -0.84054214 0.28398794 -0.46134552 0.24204795
0.22205369 -0.061004642 -0.087112665 -0.92560565 0.35176152 -0.13970675 0.16308637
-0.4687506 -0.054272186 -0.085319631 0.90326947 0.39543542 -0.16653866 0.21336445
-0.44418818 -0.056380287 -0.0875559 0.95679677 -0.24514447 -0.15634599 0.22827485
0.22231275 -0.055501245 -0.082868218 -0.94625729 0.31866276 -0.05523625 0.20345803
-0.47017056 -0.041864298 -0.083372056 0.96991825 0.1100666 -0.21712655 0.17214638
-0.46885562 -0.049420055 -0.080452368 0.98825759 -0.0024633368 -0.15277717 0.20167124
-0.44543529 -0.045102496 -0.084786281 0.96689796 0.14004275 -0.21329857 0.19722672
0.22430508 -0.042274192 -0.085156545 -0.87924713 -0.11821485 -0.46146476 0.19910313
-0.4710823 -0.036512591 -0.085261337 0.9693706 -0.22451679 -0.099563591 0.22908649
0.20083538 -0.034777954 -0.085346676 -0.96021932 -0.22703975 -0.16257884 0.25235623
0.2254169 -0.033915702 -0.085260592 -0.89823049 -0.17355211 -0.40380895 0.20513754
0.43888551 -0.034099258 -0.087638676 -0.45217374 -0.87746477 0.15998276 0.029644966
0.45137623 -0.037031751 -0.082646199 -0.1509283 -0.98724848 0.050606605 0.024767328
0.46744245 -0.034912936 -0.084763303 -0.36124596 0.91144848 0.1968831 0.040669028
0.47260052 -0.032296624 -0.08602877 -0.46273917 0.86417216 0.19768368 0.028334973
-0.47222733 -0.025429422 -0.082397342 0.94418418 -0.3165189 -0.091279306 0.22130801
-0.44751957 -0.028862379 -0.084159344 0.9967159 -0.041460976 0.069559149 0.23129378
0.20209847 -0.027962875 -0.089610949 -0.91957313 -0.18448339 -0.34691671 0.24073562
0.22610453 -0.027062085 -0.083303146 -0.97777838 -0.098571196 0.185022 0.24232173
0.43103856 -0.029410562 -0.087051079 -0.60140812 -0.76267493 0.23798157 0.029392539
0.48427859 -0.020738376 -0.086640827 -0.87331814 0.40293804 0.27378157 0.021170227
-0.47481808 -0.010792663 -0.088449419 0.92870086 0.25400415 -0.27017921 0.2368343
-0.4486275 -0.018979302 -0.081907764 0.94010717 0.10107433 -0.3255496 0.22870424
0.2035996 -0.016268577 -0.089162827 -0.99733639 -0.069953203 -0.020657919 0.21041319
0.22686271 -0.019088876 -0.080644935 -0.93402433 0.15866056 -0.32003966 0.2175772
0.41870585 -0.013680574 -0.089483209 -0.82285422 -0.37912667 0.42328915 0.032013576
0.4219476 -0.018252259 -0.086048648 -0.86088282 -0.377433 0.34121129 0.032993924
0.48760048 -0.013602098 -0.085986175 -0.90948313 0.29789877 0.28999421 0.026601249
-0.45082396 -0.0047494769 -0.085672989 0.99016106 -0.13245727 -0.045123633 0.21386895
0.20395276 -0.0088734683 -0.081931636 -0.97433704 0.20163932 0.10004392 0.22063036
0.22898147 -0.0081992941 -0.086892158 -0.93704647 0.10237823 -0.33386043 0.18542773
0.41961744 -0.0034929824 -0.082778007 -0.92778158 -0.0044601215 0.37309697 0.036562618
0.42045683 -0.0089634312 -0.082288332 -0.91474962 -0.1671517 0.36782259 0.028398316
0.48880711 -0.0062735006 -0.085475206 -0.95620823 0.12504943 0.26462892 0.019918602
-0.47509778 0.0093563106 -0.089275956 0.99248171 0.026358906 -0.11952089 0.21670082
0.20528129 0.0020568625 -0.086956114 -0.99920416 0.01910099 -0.035016373 0.23195115
0.22994484 0.0011972698 -0.087270781 -0.97913778 -0.0039913408 -0.2031583 0.16365255
0.42208466 0.0091023054 -0.084885374 -0.8539266 0.37485766 0.36095858 0.027529627
0.48660451 0.0068394868 -0.085682414 -0.87972379 -0.36834219 0.30068275 0.026705729
-0.47350037 0.017787188 -0.084831156 0.9046396 -0.11802712 -0.40950799 0.25415292
-0.44909996 0.016893657 -0.084214181 0.98217273 -0.13199742 -0.13384116 0.24677396
0.20354402 0.015276339 -0.086992584 -0.86549956 -0.48510417 -0.12483773 0.19807453
0.22729321 0.01625181 -0.081164718 -0.9537276 -0.2601153 0.15080999 0.22281535
0.42715639 0.01757608 -0.086784981 -0.67907643 0.68199468 0.2715483 0.035927303
0.48588547 0.010778052 -0.083316326 -0.81800622 -0.48956475 0.30198041 0.024519881
-0.47290277 0.02287736 -0.085491896 0.89261031 0.047523592 -0.44831717 0.23550506
0.22629556 0.024416391 -0.081868932 -0.90419853 -0.42669642 0.01884586 0.20093089
0.44092435 0.026256107 -0.087327756 -0.2962285 0.9448759 0.13949247 0.028647851
0.45832777 0.027829226 -0.084115572 -0.082940973 0.99296099 0.084553212 0.012459335
0.46184644 0.027232287 -0.085949227 -0.19946828 -0.97978592 0.015228766 0.033688519
-0.47103414 0.036009163 -0.084217854 0.90483308 -0.054793347 -0.42222613 0.23047698
-0.44681799 0.033352837 -0.082873061 0.94482344 -0.28868401 -0.1548233 0.24076842
0.20124775 0.034623384 -0.089915775 -0.98045212 0.16235685 -0.11114796 0.22462858
0.22552429 0.035916187 -0.088641152 -0.98186803 -0.18937735 -0.0084569054 0.20682701
-0.47050697 0.041609548 -0.08613383 0.8235153 -0.48261818 -0.29816499 0.22143793
-0.46957934 0.048109375 -0.085477926 0.81084406 -0.35255635 -0.46715739 0.21257696
-0.44538522 0.044804607 -0.083745532 0.94652396 0.069861732 -0.31497893 0.25982553
-0.46841785 0.055539664 -0.083806969 0.92206031 -0.30062652 -0.24377976 0.2359446
-0.44462651 0.05136241 -0.084965631 0.93678981 -0.33369985 -0.10521095 0.2077781
0.19819093 0.054157007 -0.084261 -0.98705304 -0.1136622 -0.11316908 0.19274932
0.22268145 0.055565726 -0.086307436 -0.96816659 -0.17768587 -0.17629851 0.11294661
-0.44321531 0.062189762 -0.085131578 0.96239364 -0.26418805 -0.063270681 0.20558994
0.19645166 0.065157346 -0.080868959 -0.73013002 -0.67062795 -0.13102812 0.23109962
-0.44138521 0.075341709 -0.083981685 0.99235213 -0.10974281 -0.056513045 0.22384778
0.19490734 0.079392999 -0.084713228 -0.98989064 -0.11876284 -0.077535816 0.2871221
0.21902794 0.079552181 -0.08178822 -0.91893327 -0.34235513 -0.19584343 0.20661327
0.22030583 0.072300762 -0.084735528 -0.99456394 -0.10274905 -0.016887372 0.24805108
-0.46449041 0.082809865 -0.080731869 0.98669696 0.1547506 0.04981206 0.23427853
-0.43971962 0.085667476 -0.08279597 0.97034699 -0.23397361 -0.060688362 0.26383698
0.19265287 0.08821746 -0.082760312 -0.78694934 -0.088400386 0.61065221 0.23913549
0.21925119 0.081837326 -0.086567014 -0.91357803 -0.21960029 -0.34227303 0.23495083
-0.46236989 0.096268728 -0.089927375 0.99947661 -0.026161093 -0.019030286 0.22503388
-0.4370769 0.092042536 -0.082773194 0.87134963 -0.4649131 -0.15686144 0.25251803
0.19160527 0.091445342 -0.085903734 -0.64149141 -0.18913893 0.74344826 0.26562446
0.21710221 0.09301652 -0.084764525 -0.93177807 -0.24632375 -0.2666727 0.15548494
-0.45729896 0.1072833 -0.085605852 0.70870519 -0.59984851 -0.37137407 0.23692858
-0.43087029 0.1078956 -0.086682379 0.91121107 -0.39394185 -0.12043326 0.20355518
0.21399806 0.1012589 -0.087398201 -0.95893502 -0.28261998 0.02386505 0.21860352
-0.45395768 0.11584114 -0.087334938 0.92285991 -0.34227756 -0.17656671 0.21680401
0.18044357 0.11917724 -0.089435883 -0.98495543 0.14601983 -0.092417412 0.2650533
0.20586172 0.11981469 -0.083572328 -0.87261659 -0.47708362 -0.10455356 0.21251436
-0.42220193 0.12840128 -0.084786147 0.97699922 -0.19310352 0.090462588 0.22689275
0.1791636 0.12120248 -0.084645577 -0.99795753 0.034392219 0.053832378 0.25032714
-0.44493076 0.13683525 -0.084523767 0.84115261 -0.49192283 -0.22466452 0.21631061
-0.41728097 0.13950434 -0.081289545 0.61875063 -0.76163411 0.19251251 0.24518164
0.17339393 0.13476478 -0.082994901 -0.78186262 -0.55928075 -0.27549225 0.25130296
0.19947782 0.13675109 -0.088937163 -0.91694957 -0.32401222 -0.23285101 0.25761446
-0.44003707 0.14753595 -0.080603614 0.89413345 0.43639714 -0.1004131 0.25992942
-0.41441992 0.14649096 -0.081647277 0.81424499 -0.56323087 0.14062762 0.18166156
0.16842122 0.14725657 -0.085184179 -0.98808277 -0.1342862 0.075230129 0.24909131
0.19728182 0.14005777 -0.081915893 -0.95757985 -0.27780664 -0.076578975 0.22647466
-0.40999997 0.1568411 -0.080204546 0.98511851 -0.17136019 -0.01331084 0.21312949
0.16499914 0.15534918 -0.084423564 -0.92072189 0.35066074 -0.17119661 0.2663947
0.19203126 0.15488237 -0.089478046 -0.88310301 -0.46362805 0.07195808 0.25255409
-0.40640363 0.16537972 -0.08423207 0.81649804 -0.57605636 0.038601458 0.22020856
0.15858787 0.16768087 -0.08383324 -0.92367244 -0.25674391 0.28444991 0.27104273
0.16250619 0.16156191 -0.085297257 -0.8896935 0.087170541 0.44815934 0.27237976
0.18598765 0.16798708 -0.084248483 -0.90369016 -0.4256995 0.046088014 0.19397803
-0.42884523 0.17610413 -0.086225018 -0.048846196 -0.93429446 0.35313985 0.2528362
-0.40144011 0.17252207 -0.089053944 0.90128171 -0.41322175 -0.13015017 0.17519088
0.18334499 0.1734661 -0.083028272 -0.9187786 -0.39474547 -0.004671223 0.15158537
-0.39331657 0.18202814 -0.081319615 0.70857209 -0.70460969 -0.038089685 0.2161122
0.14829347 0.1805726 -0.080081865 -0.45270538 -0.70384872 0.54740739 0.2801733
0.17665537 0.18389186 -0.083560146 -0.87545246 -0.47796211 -0.071660794 0.15764003
-0.41263983 0.19779408 -0.088264771 0.89750189 -0.41107792 -0.159704 0.22198161
-0.38045546 0.19869033 -0.08061333 0.72030604 -0.69329953 -0.022250712 0.22973228
