# .PCD v0.7 - Point Cloud Data file format
VERSION 0.7
FIELDS x y z normal_x normal_y normal_z curvature
SIZE 4 4 4 4 4 4 4
TYPE F F F F F F F
COUNT 1 1 1 1 1 1 1
WIDTH 581
HEIGHT 1
VIEWPOINT 0 0 0 1 0 0 0
POINTS 581
DATA ascii
0.11321458 -0.061407045 0.15441345 -0.98570621 0.16736785 0.019269308 0.00097728439
0.15386765 -0.063889988 0.15574771 -0.98013669 0.19387981 0.041746195 0.012619912
-0.49336287 -0.050262634 0.15494996 0.99103844 0.13357684 -6.6261229e-05 0
-0.45190418 -0.053632408 0.15667154 0.9904089 0.13816635 -0.00052193756 0.00012090745
0.15498365 -0.055209752 0.1540015 -0.96747261 0.21946763 0.12582 0.040742632
-0.49437013 -0.042787049 0.15809831 0.99104464 0.13353112 7.0850481e-05 0
-0.45274687 -0.047378369 0.15690598 0.99100137 0.13385151 0.00024663212 3.7170506e-05
0.1154425 -0.044079203 0.15744101 -0.99183565 0.12752256 -1.462889e-05 0
0.15667206 -0.042077363 0.1546658 -0.97453022 0.13039863 0.18244736 0.048398353
0.40966165 -0.049272101 0.15534543 -0.59498614 -0.49319714 -0.6346243 0.096587203
0.41700056 -0.049990565 0.15026288 -0.41575998 -0.83027911 -0.37118757 0.083704427
0.42476591 -0.049990565 0.15422274 -0.20672588 -0.97349423 -0.097843915 0.046707243
0.43462595 -0.049990565 0.15313555 0.010597914 0.99702317 -0.076370895 0.068193421
0.44397014 -0.049990565 0.15590492 -0.42285946 0.87304729 -0.24285449 0.076834492
0.4542658 -0.049990565 0.15263119 -0.68570966 0.64092702 -0.34498522 0.071994409
-0.49521646 -0.036506087 0.15309334 0.99104351 0.13353944 1.7927039e-05 0.00014968173
-0.45469332 -0.032932207 0.15082878 0.99104404 0.13353552 -2.2190994e-05 0
0.11680045 -0.033517607 0.15479904 -0.99183476 0.12752971 1.807859e-05 6.6924708e-06
0.15817873 -0.030358551 0.15944836 -0.99284565 0.044572026 0.11077448 0.063774206
0.40450871 -0.037283037 0.15874061 -0.72373462 -0.29210588 -0.62520581 0.063347347
0.41130191 -0.031365737 0.15065841 -0.76052505 -0.24052621 -0.6031158 0.052979197
0.45684481 -0.03187675 0.15205361 -0.81464338 0.24697465 -0.52474725 0.039170578
-0.49735388 -0.02064258 0.15802386 0.99149811 0.13008142 -0.0032209235 0
-0.45579311 -0.02476977 0.15486048 0.99202996 0.12599446 -0.0014132222 6.1308878e-05
0.40492851 -0.022470696 0.15840062 -0.74890381 -0.016602036 -0.66247076 0.0061841747
0.4113282 -0.022859167 0.15061112 -0.80566818 -0.020411918 -0.59201539 0.006759759
0.45656899 -0.025827991 0.15236409 -0.86203122 0.11152704 -0.49443299 0.014049771
-0.49803072 -0.015619172 0.15238002 0.99503738 0.098792903 0.011853295 0.0011546828
0.11893097 -0.01694716 0.15605547 -0.99483019 0.10149793 -0.0033264423 0.00072567386
0.16032019 -0.013702448 0.1574491 -0.99814159 -0.023783986 0.056104396 0.053437971
0.40708539 -0.016803408 0.15665388 -0.75978804 0.0044830134 -0.65015537 0.0058564087
0.45356455 -0.013798453 0.15771039 -0.88127625 -0.012387496 -0.47243908 0.00012629504
-0.49991426 -0.0016399866 0.15965897 0.99962425 -0.026705625 0.0061727986 0.0021464287
-0.45779344 -0.0099238129 0.15972964 0.99879003 0.048962176 0.0045892405 0.0019474945
0.1204742 -0.0049445801 0.1539724 -0.99924374 0.03793703 0.0085300235 0.0019104863
0.40794429 -0.009769164 0.15595827 -0.77394891 -0.016155703 -0.63304192 0.0050150473
0.41139823 -0.0035134293 0.15048495 -0.80635768 -0.028875172 -0.59072292 0.0036763761
-0.45846897 0.0033436925 0.15404345 0.99898994 -0.041898049 0.016237086 0.0021104068
0.12070326 0.0047375392 0.15792544 -0.99948531 -0.030119136 0.011043247 0.0017187033
0.15749884 0.0031363838 0.1595702 -0.99833274 -0.030892359 0.048757743 0.067655735
0.16212779 0.0016209742 0.15398446 -0.99708855 -0.021069204 0.073283337 0.064108565
0.41121227 0.0061807074 0.15081988 -0.81127191 -0.035464555 -0.58359247 0.0034256657
0.4545365 0.005929119 0.15511957 -0.8859356 -0.018600946 -0.4634352 4.6131954e-05
-0.49802122 0.014387127 0.15549541 0.99430805 -0.10653897 -0.00094156695 0.00020043795
-0.45683199 0.016075805 0.15626867 0.99537498 -0.096050121 0.001745673 0.00058560347
0.11973491 0.011924339 0.15890187 -0.9976275 -0.068809949 -0.0021375483 0.001532574
0.159097 0.018311871 0.15782066 -0.99767643 0.028516959 0.061874647 0.06102255
0.16020638 0.015881423 0.15834382 -0.98644227 -0.015113066 0.16341129 0.092968926
0.45409632 0.013956279 0.15567432 -0.87771416 -0.11143705 -0.46604681 0.014569962
-0.49674636 0.02430293 0.1553902 0.99244356 -0.12270121 -0.00052445789 0.00016043099
-0.45536596 0.027478283 0.15870588 0.99183428 -0.12753293 -3.9683819e-05 0
0.11864674 0.020000547 0.1526688 -0.99410743 -0.10830745 0.0044708713 0.00049295748
0.15901297 0.024738682 0.1581559 -0.9963187 -0.022769652 0.082647406 0.066182293
0.4092871 0.027446633 0.15428674 -0.69824243 0.48509848 -0.52643794 0.076554775
0.45420986 0.024238419 0.15508075 -0.83149445 -0.39490125 -0.39072996 0.057383306
-0.45481074 0.031796396 0.15553774 0.99183422 -0.1275342 2.3651784e-05 6.4455613e-05
0.40435544 0.035437044 0.15886474 -0.39148521 0.82571065 -0.40612954 0.092721477
0.42409086 0.037421681 0.15741354 0.06747257 -0.99654555 0.04841917 0.036807936
0.43927491 0.037421681 0.15349728 -0.32258484 -0.93440741 -0.15106863 0.05298413
0.44410983 0.037421677 0.15602802 -0.45879519 -0.84892446 -0.26236275 0.083844416
0.45444024 0.03568247 0.15331274 -0.76355952 -0.53138179 -0.36689284 0.059591282
0.15660033 0.042644929 0.15927404 -0.97775328 -0.17895789 0.10941935 0.048979476
-0.49280101 0.054989275 0.15491608 0.99183047 -0.1275629 -6.7247602e-05 0
-0.45147556 0.057735913 0.15025005 0.98840261 -0.1518503 -0.0013336688 0.00089285709
0.1144198 0.051372141 0.15109825 -0.99097222 -0.13406727 -0.00010266898 9.2693508e-06
0.15542337 0.051380079 0.15595236 -0.96673387 -0.25254881 0.040554695 0.022642815
-0.49183908 0.062470917 0.15409535 0.98968416 -0.14325906 -0.0014129769 9.3771516e-05
-0.45084575 0.062634744 0.15752202 0.98221952 -0.18734941 -0.012039261 0.0011875191
0.1122385 0.067561358 0.15490654 -0.97288954 -0.23119943 0.0057223104 0.002349149
0.15387744 0.062853627 0.15619081 -0.98905736 -0.14749001 -0.0035060674 0.00015291407
0.11176015 0.07111159 0.15653479 -0.97289073 -0.23119442 0.0057239686 0.0023504153
0.15245415 0.073416948 0.15472624 -0.98479331 -0.17369075 0.0037013944 0.0010707169
-0.48836434 0.085576043 0.15247709 0.95886713 -0.28379846 -0.0056898296 0.0021125709
-0.44410461 0.087020479 0.15484257 0.94286603 -0.33306673 -0.0083777001 0.0007598825
0.1078828 0.083662026 0.15265137 -0.9407568 -0.33907488 0.0022011404 0.0011279372
0.14955734 0.089326791 0.15511625 -0.96341008 -0.26803061 0.00078791886 0.0032564749
0.15056658 0.086632565 0.15177993 -0.96563315 -0.25969213 -0.010614173 0.0030505329
-0.48497653 0.094469979 0.15433976 0.9429267 -0.33291203 -0.0076739057 0.0009544809
-0.44210398 0.091892235 0.15440615 0.92872018 -0.37077495 0.0021616952 0.00021638851
0.10326649 0.094711766 0.15305729 -0.92984605 -0.3679373 -0.0029056396 0.00038560305
0.14739439 0.094504207 0.15450844 -0.94342917 -0.33157381 0.00046994194 0.0014458195
-0.48112544 0.10384759 0.15504982 0.92550153 -0.37874359 -0.00053899357 0.00011893468
-0.43768683 0.10264836 0.15445614 0.92503899 -0.37987199 -7.7440847e-05 0
0.098410308 0.1063357 0.15211678 -0.92271256 -0.38548875 1.9578798e-05 1.8125477e-06
0.10076728 0.10069399 0.15367532 -0.92270982 -0.3854951 1.7517514e-05 0
0.14100766 0.10979186 0.15190578 -0.92287034 -0.38511086 1.1320788e-05 9.496247e-06
-0.47558624 0.11733592 0.15666178 0.92501092 -0.37994054 -4.8259892e-05 0
-0.43223983 0.11591227 0.15610741 0.92502326 -0.37991059 3.248443e-05 5.0800809e-05
0.094097205 0.11665971 0.15726238 -0.92270374 -0.38550991 -1.9959085e-05 0
0.13939781 0.11364533 0.15575927 -0.9228726 -0.38510537 -6.7357607e-05 0
-0.47115713 0.128121 0.15654984 0.92504102 -0.37986714 -1.3350235e-05 0
-0.4275763 0.12726828 0.15422274 0.91684026 -0.39925179 -0.001387176 0.00058129651
0.089539997 0.12756799 0.15965462 -0.91966838 -0.39269412 0.0012553188 0.0001019021
0.13519946 0.12369478 0.15642554 -0.92270708 -0.38550195 -1.0194652e-05 0
-0.47033334 0.13012698 0.15028439 0.92502487 -0.37990665 -1.1409815e-05 0
-0.46837324 0.1349 0.15375866 0.92503142 -0.37989071 1.3084445e-05 1.7459786e-05
-0.42521343 0.13302217 0.15755613 0.89751363 -0.44098386 0.0015588461 0.0014811439
0.087311998 0.13290104 0.15709656 -0.91243613 -0.40918013 0.0056419699 0.00065815984
0.12868136 0.13929692 0.15456492 -0.9227156 -0.38548142 4.0858369e-05 6.4090627e-06
0.13063388 0.13462324 0.15185399 -0.92272222 -0.38546562 -3.6272245e-06 0
-0.46503952 0.14301777 0.15944436 0.92450351 -0.38117337 -0.00029007689 0
0.079484731 0.14896731 0.15134241 -0.84797794 -0.53003067 -0.0009187067 0.0024166764
0.080449238 0.14771821 0.15630083 -0.85795379 -0.51369566 -0.0056729023 0.0028911852
0.12584211 0.14609307 0.15531336 -0.92159808 -0.38814554 0.0001795374 1.640829e-05
-0.46125913 0.15222321 0.15348177 0.91127849 -0.41160819 0.012256873 0.0010521597
-0.45831075 0.15940268 0.15096043 0.87702566 -0.48039046 0.0071401666 0.0022433894
-0.41074669 0.157197 0.15253329 0.81666392 -0.57711095 0.0017081896 0.00067834888
0.071950093 0.15872523 0.15123504 -0.79448962 -0.60727757 -0.00043781297 2.3043502e-05
0.12150312 0.15647918 0.15503834 -0.90680325 -0.42152539 -0.004910023 0.00088767335
-0.45533717 0.16573913 0.15712264 0.85854256 -0.51274234 0.00029713797 0.0025550663
-0.40572086 0.16378798 0.15343328 0.79888684 -0.60148013 0.0011652097 4.160931e-05
0.067089364 0.16502023 0.15538421 -0.79337323 -0.60873544 -0.00030933047 1.795655e-05
0.070671126 0.16038157 0.15267536 -0.7941007 -0.607786 -0.00056540628 2.543996e-05
-0.45155227 0.17070273 0.15690596 0.84440243 -0.53567541 0.0060339537 0.0019127075
-0.39563125 0.17701985 0.15209323 0.79517418 -0.60638106 6.6504008e-06 0
0.058476336 0.17617473 0.15963963 -0.79148507 -0.61118847 -1.6659835e-05 0
0.061377272 0.17241779 0.15160289 -0.79150224 -0.6111663 7.1419613e-06 0
0.10950892 0.17657587 0.15844391 -0.82322884 -0.56769836 -0.0035931657 0.0012893492
0.11181189 0.17359331 0.15688014 -0.82322931 -0.5676977 -0.0035713576 0.0012840144
-0.44272548 0.18227851 0.15495729 0.80396956 -0.59466201 -0.0031452868 0.00038494854
-0.43951255 0.18649203 0.15269215 0.79523182 -0.6063056 -6.0918405e-06 9.7584598e-06
-0.38857961 0.1862676 0.15417203 0.78499484 -0.61950064 0.0014553769 0.00025488107
0.052660737 0.18370634 0.15405655 -0.79150093 -0.61116791 -1.0730684e-05 0
0.1032364 0.18469922 0.15761358 -0.79357004 -0.60847884 0.00033381587 2.2098338e-05
-0.43213391 0.19616857 0.15861326 0.79517835 -0.60637569 6.2077073e-05 0
-0.38160402 0.19541563 0.15574348 0.75326389 -0.65764171 0.010048618 0.0015883333
0.044980675 0.19365257 0.15582962 -0.7737602 -0.63346601 -0.0039979029 0.00069525023
0.095482506 0.19474107 0.15465464 -0.79146767 -0.61121106 -2.872707e-06 0
-0.42514363 0.20533584 0.1572587 0.79513049 -0.60643828 -3.3742451e-06 0
-0.37184322 0.20669711 0.15428811 0.69339675 -0.72052222 0.0069763483 0.0026042224
-0.36936969 0.20860705 0.15421605 0.68028516 -0.73291069 0.0073515708 0.002439799
0.032883387 0.20785815 0.15370522 -0.69617033 -0.7178576 -0.005234655 0.0021834979
0.089394391 0.20262562 0.15273592 -0.79148537 -0.61118811 -1.8978782e-05 0
-0.41794425 0.21477731 0.15719458 0.79438698 -0.60741168 -0.00053936633 0
-0.36448547 0.21237844 0.1552193 0.63266683 -0.77440804 0.0049833069 0.0008467813
-0.35722679 0.21798329 0.15295249 0.61191165 -0.79092592 -0.00052006642 2.679931e-07
0.079784259 0.21507147 0.15417285 -0.79004294 -0.61305118 -0.00059561682 2.6498032e-05
-0.41335356 0.22079772 0.15455996 0.77914286 -0.62684637 -2.1606329e-05 0.00053580588
-0.4077349 0.22816619 0.15393713 0.75389123 -0.65697622 -0.0055074836 0.0017337491
-0.35222271 0.22184722 0.1570123 0.61122209 -0.79145908 4.6471298e-05 0
-0.34247357 0.22937509 0.15831366 0.61113948 -0.79152292 2.3959159e-05 5.8947542e-05
0.007828488 0.22696312 0.15238015 -0.60635841 -0.79519153 -8.6456657e-06 3.1084435e-06
0.015146609 0.22138289 0.15871862 -0.6078366 -0.79406208 -0.00033284997 0
0.072249755 0.22482915 0.15383428 -0.75892138 -0.65111631 0.0092580039 0.0012940458
-0.40531248 0.231343 0.15343729 0.74267662 -0.66961259 -0.0070956913 0.0017273378
-0.39682359 0.23875061 0.15118918 0.67224348 -0.74029315 -0.0073977225 0.0017482442
-0.33427688 0.23570423 0.15644783 0.61042345 -0.79207516 0.00033334532 3.2956847e-05
-0.0038822719 0.23589289 0.15426825 -0.60635996 -0.79519033 -2.8553446e-05 0
-0.32310647 0.24432954 0.15795259 0.5726344 -0.81980288 0.0036017653 0.0010455699
-0.31838876 0.24797234 0.15226124 0.54320526 -0.8395884 -0.0043921983 0.0018081459
-0.015516804 0.24476454 0.15726261 -0.58115363 -0.81375718 0.0077264975 0.00077620317
0.049007323 0.24666727 0.15444601 -0.6174342 -0.78660935 0.0045574768 0.00020481004
0.057277679 0.2403609 0.15023771 -0.65663236 -0.75420856 0.0018150009 0.0015295126
-0.37430805 0.25613618 0.15753342 0.61116195 -0.79150552 -1.5540249e-05 0
-0.29495522 0.2590642 0.15385658 0.39602715 -0.91823679 0.0019156528 0.00023407539
-0.043840423 0.25959116 0.15931015 -0.38794211 -0.92168075 -0.0023391552 0.00010787883
-0.034818284 0.25588611 0.15195972 -0.42849636 -0.90354276 -0.001126538 0.0010898245
-0.029974148 0.25389677 0.15549995 -0.44006371 -0.89794469 0.0062630442 0.0012237388
0.034466222 0.25775522 0.15236187 -0.60636246 -0.79518837 -2.9593963e-05 0
0.042536758 0.25160122 0.1596511 -0.60673296 -0.79490578 -0.00011369884 0
-0.28614414 0.26274526 0.15329924 0.38549942 -0.92270809 2.1923832e-05 0
-0.065527588 0.26849726 0.15131408 -0.37989709 -0.92502874 1.9056982e-06 0
0.021295838 0.26779798 0.1567871 -0.60637164 -0.79518145 2.5646159e-07 1.249299e-05
-0.35397273 0.27183828 0.1583474 0.60923696 -0.79298818 9.4788171e-05 0.00016502064
-0.34738177 0.27692747 0.1588847 0.58559704 -0.81059909 0.0022806362 0.00095794868
-0.26492274 0.27161101 0.15522403 0.36727676 -0.93009359 -0.0058038789 0.00047161122
-0.25261939 0.27675104 0.15467113 0.32327899 -0.94630289 0.0013082534 0.0011504476
-0.092855945 0.27972001 0.15437323 -0.29239285 -0.95628238 -0.0055201268 0.0024521959
-0.089116119 0.27818418 0.15799709 -0.29895756 -0.95425951 0.0036197207 0.0023968793
-0.069193564 0.27000275 0.15611339 -0.37993515 -0.92501312 2.6685177e-05 3.7788799e-05
0.016014254 0.27182534 0.15688206 -0.60248578 -0.79812968 0.00012060168 3.8822334e-05
-0.33966178 0.28288859 0.15253752 0.51711363 -0.85590589 -0.0043167593 0.0024013917
-0.24182412 0.28040966 0.15481144 0.28799194 -0.95763224 0.0010575944 0.0020712528
-0.23706363 0.28105113 0.15695788 0.19888483 -0.97999245 -0.0077158194 0.0022846677
-0.22288275 0.28296182 0.15514074 0.13358185 -0.99103773 -4.694818e-06 7.8632993e-06
-0.20767921 0.28501034 0.15493348 0.13354918 -0.99104214 -1.3576177e-05 0
-0.18441272 0.28814518 0.15816773 0.096237712 -0.99535817 0.00061402586 0.0013382275
-0.17155629 0.28987744 0.15607631 0.0041070953 -0.99998325 0.0040811691 0.0024530215
-0.15873238 0.2886979 0.15996237 -0.073134162 -0.99729049 -0.0079405783 0.0014448868
-0.14708276 0.2872 0.15418386 -0.11989052 -0.99278522 0.0019022813 0.00012010425
-0.11164404 0.28264353 0.15533672 -0.1591358 -0.98721558 0.0090086507 0.00056174264
-0.0038036637 0.2866196 0.15730377 -0.50188917 -0.86487937 0.0095407823 0.002223033
-0.32251218 0.2915931 0.15258858 0.42612198 -0.90465003 0.0053289193 0.0011220225
-0.31344417 0.29538143 0.15463223 0.39960465 -0.91668081 0.003524652 0.0001443119
-0.16938205 0.29006714 0.15545705 0.0041020303 -0.99998313 0.0040990855 0.0024530275
-0.033443738 0.29925254 0.15512609 -0.37990177 -0.92502683 -2.7835751e-05 1.9567813e-05
-0.023959735 0.29535776 0.15527327 -0.38301733 -0.92374068 -0.00099393062 0
-0.01620717 0.29217404 0.15451184 -0.42734072 -0.90407062 -0.0060198228 0.0011843863
-0.27966496 0.30949336 0.15206996 0.38190868 -0.92419952 -0.00098314194 1.7393586e-05
-0.053119086 0.30733258 0.15319124 -0.37986246 -0.92504305 -3.599903e-05 0
-0.044181813 0.3036623 0.15564696 -0.37988943 -0.9250319 2.9369798e-05 0
-0.2741591 0.31179351 0.15076078 0.36305973 -0.93176293 0.0023463897 0.00046474749
-0.26472005 0.31573686 0.15608437 0.32655549 -0.94515342 -0.0068207434 0.00089464191
-0.25577486 0.31918776 0.15446964 0.29231191 -0.95631242 -0.0044905087 0.0018010626
-0.082196169 0.31927359 0.15876146 -0.25304222 -0.9673419 -0.014811871 0.0022956673
-0.073514804 0.31570846 0.15353702 -0.33957237 -0.94057953 -0.00078879087 0.0010517506
-0.062935919 0.31136402 0.15506484 -0.37987402 -0.92503822 9.3469325e-06 0
-0.25009775 0.32029951 0.15052782 0.26414239 -0.9644556 0.0073634074 0.0018356333
-0.24521305 0.32095769 0.15351093 0.1958929 -0.98062003 0.0032075478 0.00145296
-0.21571803 0.32493177 0.15800342 0.13369353 -0.99102271 2.3983237e-05 0
-0.20083418 0.3269372 0.15770364 0.13356492 -0.99104011 9.0480047e-05 0.00017488377
-0.19665068 0.32750088 0.15675667 0.13356294 -0.99104035 -4.59584e-06 2.1292192e-06
-0.18575969 0.32896835 0.15156096 0.08592838 -0.99628472 -0.0057549011 0.0010201427
-0.16086559 0.32994416 0.1573891 -0.059008215 -0.99825543 -0.0020270981 0.0018709318
-0.14276204 0.32761657 0.15372705 -0.1275349 -0.9918341 1.8570747e-05 2.0912987e-06
-0.1343767 0.32653853 0.15534249 -0.12750523 -0.99183786 -6.2890707e-05 0
-0.12727183 0.32562506 0.15700555 -0.12751828 -0.99183625 -1.5009097e-05 0
-0.11036811 0.32345176 0.15204278 -0.13096847 -0.99138641 -0.00040942524 3.9380549e-05
-0.095037006 0.32148069 0.15053493 -0.20426483 -0.97891474 -0.0014143591 0.0017858117
-0.16386893 0.33033028 0.15227205 -0.058602016 -0.99827909 0.0021970128 0.0018843409
-0.23646834 -0.32228851 0.16728671 0.14304855 0.98971397 -0.0018424137 0.0001621077
-0.22683485 -0.3235271 0.16716485 0.12756969 0.99182963 -3.7852085e-05 0
-0.19504702 -0.32761404 0.16862988 0.12754503 0.99183279 7.833346e-06 2.2427235e-05
-0.18720931 -0.32862172 0.16641429 0.12746407 0.99184316 3.8174699e-06 1.4496306e-05
-0.15640804 -0.32955831 0.16882315 -0.088785306 0.99604887 -0.0019446959 0.00076622609
-0.1441416 -0.32790554 0.1619312 -0.13356322 0.99104035 1.3416194e-05 0
-0.13473912 -0.32663864 0.16881414 -0.13353738 0.99104381 -1.2944163e-05 0
-0.12296689 -0.32505247 0.1661654 -0.1335576 0.991041 5.2291496e-05 3.4193439e-05
-0.11879259 -0.32449004 0.16321793 -0.1335351 0.9910441 3.663767e-07 0
-0.094453566 -0.32121059 0.1638774 -0.17324446 0.98484999 0.0075349952 0.00098054938
-0.087558776 -0.32028159 0.16584426 -0.2402807 0.97069776 0.0033148974 0.0018331374
-0.27366561 -0.31185165 0.16553472 0.36829951 0.92970711 -0.00036186795 0.00023791008
-0.30089211 -0.30067062 0.16348755 0.37988096 0.92503536 7.8413417e-05 2.3747622e-05
-0.28801763 -0.30595773 0.16719498 0.37990072 0.92502725 -9.9648059e-06 4.1937681e-05
-0.27890995 -0.30969799 0.16358796 0.37991384 0.92502189 6.6089371e-05 4.9897844e-05
-0.043064304 -0.30320179 0.16432807 -0.38551158 0.92270303 6.1649771e-05 2.2765564e-05
-0.03839615 -0.30125159 0.16260862 -0.38550562 0.92270547 1.3098693e-05 2.1700364e-05
-0.32652351 -0.29014468 0.16856369 0.44054335 0.8977266 -0.0029004486 0.001298925
-0.31494665 -0.29489887 0.16398241 0.39285818 0.91959888 0.00055569288 0.00027140146
-0.30482918 -0.29905385 0.16782266 0.37992516 0.92501718 -5.733702e-05 5.0998378e-06
-0.16834272 -0.290043 0.16617596 0.0097398367 0.99995214 -0.00093849981 0.0021014251
-0.035026427 -0.29984382 0.16720967 -0.38552466 0.92269754 -1.1962466e-05 3.6723341e-05
-0.015703872 -0.29177147 0.16512044 -0.41952074 0.90773875 0.0035794133 0.00070185371
-0.339347 -0.2828486 0.16003188 0.5171833 0.85586613 -0.0038149259 0.0019650147
-0.24197289 -0.28060845 0.16357213 0.25853199 0.9659791 -0.0067481329 0.0026679325
-0.23553038 -0.2814368 0.16231993 0.20301577 0.97917497 0.00099602633 0.0023315395
-0.22602999 -0.28265828 0.16557558 0.14694564 0.98914462 -7.8175093e-05 0.00064914225
-0.2122238 -0.28443339 0.16446325 0.12752499 0.99183542 -2.1303422e-05 0
-0.20076972 -0.28590611 0.16968976 0.12754667 0.99183255 0.00010158393 1.6681026e-06
-0.19436431 -0.28672963 0.16786698 0.12732236 0.99186134 -2.2363103e-05 2.4594115e-06
-0.18532421 -0.28789195 0.16723239 0.12727287 0.99186772 1.1746542e-05 4.0905117e-05
-0.17860752 -0.28875554 0.16485721 0.050666198 0.99866557 -0.0099944696 0.002020451
-0.14943662 -0.28761432 0.16486844 -0.10288527 0.99467659 0.005754502 0.00064521079
-0.12421854 -0.28421643 0.16581421 -0.13352929 0.99104482 9.5224759e-06 0
-0.11577977 -0.28307945 0.16128069 -0.13351682 0.99104655 3.4824859e-07 0
-0.1028795 -0.28134125 0.16555056 -0.17470115 0.9845928 -0.0075143506 0.00075386179
-0.095418803 -0.28033602 0.16612403 -0.22697417 0.97383058 -0.011697844 0.0020749576
0.0047060102 -0.28070083 0.16093317 -0.55197877 0.83382839 0.0070414417 0.0020339815
-0.25360271 -0.27615967 0.16590787 0.33013636 0.94392955 -0.0026387079 0.0015121627
-0.086365081 -0.27725041 0.16420949 -0.31754991 0.94824111 0.00092903106 0.0014907805
-0.072926596 -0.27163613 0.16895595 -0.38054743 0.9247601 0.0015466661 4.9459763e-05
0.012643931 -0.27457151 0.16672802 -0.61073148 0.79183751 -0.00047138141 0
-0.36729857 -0.26153481 0.16536283 0.60632509 0.7952168 1.4792389e-05 0
-0.29113019 -0.26074851 0.16811574 0.38164505 0.92430896 0.00026753478 0
-0.28533047 -0.26313025 0.16641127 0.37984189 0.92505139 -2.4818082e-05 2.0792548e-05
-0.2694796 -0.26963964 0.1609986 0.37871948 0.92551154 6.236367e-06 4.8117279e-05
-0.053322062 -0.26344588 0.16441816 -0.3854906 0.92271173 -1.2491014e-05 0
0.024746608 -0.26522633 0.16369897 -0.61116689 0.79150182 -1.6005351e-05 0
-0.37773892 -0.25357372 0.16475391 0.60627174 0.79525757 3.3374759e-05 5.3547697e-05
-0.31446865 -0.2507149 0.16475916 0.49809831 0.86710274 0.0055588898 0.0023810568
-0.30448276 -0.25526512 0.16924042 0.42787686 0.90383273 -0.0028088314 0.0012953443
-0.2976653 -0.25806478 0.16043603 0.40044239 0.91632187 0.00034702363 0.00051315146
-0.042603143 -0.25896782 0.16250046 -0.39188933 0.92001063 0.0017915643 4.2038511e-05
0.035621859 -0.2568289 0.1623293 -0.61117095 0.79149866 -1.1588442e-05 7.3732776e-06
-0.39202324 -0.24268156 0.16191158 0.65351218 0.75691432 0.0015937682 0.0016801279
-0.38644451 -0.24693552 0.16368632 0.61207432 0.79079133 -0.0037613127 5.3072024e-05
-0.021739911 -0.2497789 0.16598679 -0.50456506 0.86335987 0.0048787049 0.0018764652
-0.01327606 -0.24324347 0.16419809 -0.56535834 0.82484531 0.000437974 0.0013052456
-0.0092346976 -0.24012288 0.1650022 -0.6090734 0.79311359 0.0007112376 3.0189332e-05
-0.39884543 -0.23747945 0.16744101 0.69425374 0.7197302 0.00042213799 0.0019960871
-0.33341444 -0.23626825 0.16764188 0.60598522 0.79547584 -1.2407034e-05 0
-0.0055861273 -0.23730563 0.16372259 -0.60909611 0.79309613 0.00068750599 2.7032171e-05
0.067309827 -0.23162319 0.16658467 -0.73977584 0.67284584 0.0031751345 0.0019157541
-0.4114849 -0.22295626 0.16571331 0.77299869 0.63440579 -0.0015425279 0.00083607499
-0.40859914 -0.2266935 0.16422613 0.76881069 0.6394763 0.00028395106 0.00072870677
-0.34652236 -0.22627307 0.16401695 0.60631025 0.79522818 5.5070301e-05 6.5664834e-05
0.0047281319 -0.2293414 0.1694617 -0.61119407 0.79148078 6.1785959e-06 2.4464982e-05
0.011067584 -0.22444633 0.16076767 -0.61118835 0.79148519 -3.6207732e-06 1.9082823e-05
-0.41414282 -0.21951406 0.16499931 0.78194398 0.62334722 -0.0013825884 0.000199341
-0.3644377 -0.21261217 0.16416888 0.62883747 0.77749878 0.0076834653 0.00054135668
0.019506123 -0.21793047 0.16242155 -0.61202395 0.79083914 0.00032578802 1.1991371e-05
0.023724839 -0.21467294 0.16610833 -0.6187079 0.78560483 0.0050583445 6.9088368e-05
0.0777684 -0.21790749 0.16522245 -0.77779937 0.62850201 0.0036598961 0.00050569139
0.082714476 -0.21142107 0.16572584 -0.79519355 0.60635561 5.4864045e-06 0
-0.42560056 -0.20467544 0.1630536 0.79146594 0.61121321 2.6531879e-05 2.2335866e-05
-0.37411886 -0.20485592 0.16678949 0.71777517 0.69610721 0.015283168 0.0025382631
0.035548404 -0.20539308 0.16381116 -0.70655161 0.70763475 -0.0061519407 0.0017131844
0.089290254 -0.20279738 0.16297655 -0.795192 0.60635781 4.6622058e-06 5.3943046e-07
0.09131977 -0.20013583 0.16701525 -0.79522073 0.60632002 1.1444598e-06 1.6410873e-05
-0.38547057 -0.19015464 0.16295913 0.78273606 0.62234998 -0.0022138082 0.00021483187
0.04526715 -0.19351119 0.16706312 -0.7688123 0.63940233 -0.0096081644 0.00074170489
-0.38881552 -0.18582271 0.16822232 0.79098213 0.61183923 -0.00021767731 0
0.052584421 -0.18391509 0.16686623 -0.79311657 0.60906976 -0.00042774997 1.9079413e-05
0.10449617 -0.18285587 0.16993579 -0.79900509 0.60132354 0.0009733325 6.6007029e-05
-0.44834206 -0.17522359 0.16556279 0.81530404 0.57888031 -0.01330224 0.00090721034
-0.3950569 -0.17773965 0.1620889 0.79149574 0.61117464 6.1128718e-05 0
0.056851104 -0.17831963 0.16164319 -0.79520708 0.60633802 5.3680392e-06 5.9925883e-06
0.1074166 -0.17902593 0.16108496 -0.80786806 0.58935875 -0.002353606 0.00058133481
0.11397215 -0.1704288 0.16319837 -0.85232013 0.52292341 0.010077509 0.0022143682
-0.45385808 -0.16807994 0.16002274 0.8627243 0.50560361 0.0084673716 0.0026739051
-0.40344712 -0.16687374 0.16317204 0.79147542 0.61120099 3.1946776e-05 3.8063907e-05
0.065661602 -0.1667653 0.16096228 -0.79754329 0.60326129 0.00069128716 2.5850983e-05
-0.45882559 -0.15759583 0.16507649 0.89612198 0.44375005 0.0071612555 0.00096751517
-0.41373488 -0.15355039 0.16566521 0.83509201 0.55010706 -0.0019040295 0.0015804943
0.076943204 -0.15197027 0.160947 -0.8282463 0.56036031 0.0020899028 0.0013901331
0.12237611 -0.15488715 0.16401456 -0.89470732 0.44665259 -0.0004604503 0.0014784582
-0.46517855 -0.14238897 0.16252224 0.92031533 0.39117533 0.001190834 0
0.07902047 -0.14924608 0.16458321 -0.84803259 0.52993721 -0.0027163718 0.0017741814
0.082603157 -0.1440618 0.1652568 -0.87261224 0.48801234 -0.019796373 0.0026312454
0.12528399 -0.14780632 0.16784774 -0.91447997 0.40461597 0.0035310427 0.00049609336
-0.46759415 -0.13660683 0.16434471 0.92269468 0.38553149 1.4844789e-05 0
-0.42495006 -0.1332622 0.16036871 0.9072426 0.42056885 -0.0057131588 0.00080095162
0.086993717 -0.13407101 0.16093761 -0.90425718 0.42697635 0.0031835549 0.0013287108
0.13088074 -0.13417789 0.16463038 -0.92502785 0.37989944 1.5652035e-05 8.7875549e-07
-0.47242427 -0.12504512 0.16695777 0.92270041 0.38551778 4.0610154e-05 4.4139484e-05
-0.42653704 -0.12946358 0.16860515 0.91127294 0.41178003 0.0043385196 0.00062121655
0.090908512 -0.12453812 0.16381069 -0.92058742 0.39053464 0.001246831 0.00016680521
0.13377917 -0.12712005 0.16889803 -0.92503303 0.37988672 2.4253859e-05 6.7114711e-06
-0.4750998 -0.11864077 0.16032411 0.92270988 0.3854951 -4.1008348e-05 1.4650262e-05
-0.43391335 -0.11180732 0.16400619 0.92271096 0.38549256 3.1192051e-06 0
0.094090223 -0.11679039 0.16518867 -0.92445636 0.38128781 0.0003477142 0
0.13855273 -0.11549617 0.16376546 -0.92502916 0.37989607 1.5536307e-05 0
0.14011982 -0.11168018 0.16945571 -0.92502856 0.37989751 1.2234245e-05 4.9964109e-07
-0.48056445 -0.10556024 0.16670236 0.92350984 0.38357365 -0.00092482212 6.3347237e-05
-0.43704978 -0.10429987 0.16065596 0.92269999 0.38551876 -8.8781062e-06 5.8530582e-06
0.14328483 -0.10397324 0.16575828 -0.93031293 0.36676654 0.00017493864 0.00015728529
-0.48384845 -0.097699463 0.16329658 0.94253772 0.3340413 0.0062479596 0.0017353363
-0.44188049 -0.092736922 0.16917236 0.92886448 0.37041733 0.001334058 0.00025281243
-0.43913424 -0.099310391 0.16382463 0.92426324 0.38175559 -0.00021325579 6.5312903e-05
0.10225575 -0.09690661 0.1625376 -0.92503679 0.37987757 -1.0283187e-05 2.7580761e-06
-0.488186 -0.087188452 0.16418898 0.96131778 0.27533016 0.00783992 0.0023139662
-0.44430381 -0.08693631 0.16388202 0.93441784 0.35613114 -0.0058257328 0.00074486964
0.15082267 -0.085618153 0.16414338 -0.9634158 0.26784766 -0.0093587479 0.0027772563
-0.4904772 -0.071679391 0.16758958 0.98536807 0.1702531 0.0079740239 0.00073545589
-0.44749796 -0.079290688 0.16385303 0.95718563 0.28920534 -0.012489667 0.0021862048
0.11096303 -0.075703621 0.16767797 -0.96507901 0.26193866 0.003271345 0.0024079501
0.15190673 -0.079141863 0.16258256 -0.97395289 0.22672947 0.0030816316 0.0025972368
-0.4919647 -0.060639445 0.16949898 0.99093282 0.13435796 0.00014429618 0
-0.44990098 -0.068499923 0.16208021 0.97600293 0.21772413 -0.0038065217 0.0020643077
0.11242057 -0.067582637 0.1664649 -0.98168945 0.19048809 0.00027481813 0.0011354737
0.15379378 -0.064464502 0.16752309 -0.94722545 0.30284306 0.10511898 0.053461604
-0.45182469 -0.054222465 0.16706945 0.99026948 0.13916101 0.00071624591 2.9190927e-05
0.11417267 -0.05395535 0.16670091 -0.99094921 0.13420622 0.0028713881 4.6193898e-05
0.15502843 -0.054861404 0.16408078 -0.95253217 0.26023814 0.15798257 0.064737089
-0.49398637 -0.045635134 0.16412431 0.99104351 0.13353954 -4.7627349e-05 8.8787063e-05
-0.45300898 -0.045432951 0.16637655 0.99103713 0.13358687 4.0802042e-05 0.00011363205
0.11481675 -0.048946053 0.16459121 -0.99142629 0.13066676 0.00037051228 1.5733362e-05
0.15704918 -0.04593724 0.16262427 -0.97128844 0.19756658 0.13253745 0.071907625
0.16481927 -0.048499033 0.16797234 -0.95297831 0.19139154 0.23495027 0.13950817
0.39681733 -0.043250609 0.16496953 -0.45629176 -0.56358302 -0.68860137 0.095746525
0.40260994 -0.048517343 0.16027835 -0.58087587 -0.62733984 -0.51867902 0.098953396
0.4169541 -0.049990565 0.16721906 0.028154744 0.99317956 0.11314502 0.050230753
0.43984035 -0.049990565 0.16079172 -0.3336139 0.91556424 -0.2245976 0.073108807
0.44636258 -0.049224354 0.16585641 -0.57958329 0.72971869 -0.36275858 0.10585763
-0.49503133 -0.037880067 0.1634547 0.99104244 0.13354726 2.8676698e-06 0.00012002881
0.40148181 -0.034800962 0.16119203 -0.66138279 -0.27013552 -0.699714 0.05902018
0.45142871 -0.036841262 0.16266319 -0.83809084 0.23785192 -0.49094829 0.034494452
-0.45537901 -0.027843194 0.16276371 0.9910441 0.13353503 1.9715717e-05 0
0.15883791 -0.022742238 0.16548741 -0.99681693 -0.0091043767 0.079202302 0.077941887
0.16478908 -0.023747316 0.16513489 -0.96902776 -0.0096231261 0.24676426 0.13058773
0.39474726 -0.026500506 0.166646 -0.6689083 -0.17055279 -0.72351468 0.031179316
0.40058848 -0.023164716 0.16191547 -0.66399634 -0.011551742 -0.74764669 0.0019151622
0.45133629 -0.026370859 0.1624593 -0.85839397 0.11419505 -0.50011933 0.014321668
-0.49813077 -0.014876623 0.16667342 0.99404949 0.10888205 0.0032150412 0.00084363477
-0.45723131 -0.014095673 0.16435526 0.99657869 0.082623862 -0.0020853837 0.00085502438
0.1194365 -0.013015419 0.16410717 -0.99711049 0.075962968 -0.00051079469 0.0013222479
0.15730411 -0.013716765 0.16382606 -0.99867934 -0.034758464 0.037833158 0.063967183
0.16295858 -0.013585413 0.16617075 -0.99384904 -0.011491768 0.11014534 0.14384031
0.39252436 -0.011521925 0.16844624 -0.6440028 0.00080673111 -0.76502264 0.00051673118
0.44877094 -0.013908473 0.16694427 -0.83751273 -0.016477896 -0.54616922 0.0024164782
0.45119923 -0.012749823 0.16222642 -0.85047716 -0.0016436063 -0.52600944 0.0015308352
-0.49958527 -0.0040816776 0.16417386 0.99961847 -0.026849419 0.0064800759 0.0017076316
0.12091953 -0.001480967 0.16285571 -0.99946278 -0.028997764 0.015275498 0.0020912655
0.15730411 -0.0075973654 0.16325651 -0.99902099 -0.030061185 0.032454804 0.054481637
0.39838594 -0.0095098028 0.16369918 -0.66564387 -0.0073178415 -0.7462337 0.0014185983
0.44778788 -0.0011645854 0.16837245 -0.82935786 -0.003449833 -0.55870712 0.0024376216
0.450661 -0.004641043 0.16296709 -0.84869909 -0.0037836146 -0.52886254 0.0018681617
-0.45766547 0.0095934439 0.16081893 0.99646813 -0.083940372 0.0022821175 0.0011272872
0.12029319 0.007781032 0.16671969 -0.99787623 -0.064555161 0.008705508 0.0016259574
0.15730411 0.0069256914 0.16515696 -0.99859267 0.03078394 0.043186884 0.098703362
0.16258594 0.0060027568 0.16441664 -0.96972114 0.069870099 0.23400657 0.11781381
0.39369527 0.0068519283 0.16749796 -0.65483612 0.0065912581 -0.75574213 0.00086984673
0.401207 0.005234424 0.16141453 -0.6857959 -0.010666057 -0.72771573 0.0031635591
0.44930881 0.0023493823 0.16531581 -0.84307146 -0.014352981 -0.53761005 0.0019340527
-0.49838042 0.01159334 0.16947767 0.99656337 -0.082600415 -0.0062223352 0.0010987966
-0.45662314 0.017700154 0.16575781 0.99447733 -0.10470333 0.0072164834 0.00061033055
0.11960842 0.012863258 0.16976969 -0.99594593 -0.089876875 -0.0037189906 0.0012808152
0.15730411 0.015712515 0.16995932 -0.99958473 0.0079447264 -0.027697891 0.11779008
0.16284287 0.013498632 0.16364935 -0.95728827 0.09977705 0.27137393 0.13290194
0.39621496 0.01722005 0.16545734 -0.64578247 0.21781218 -0.7317943 0.046092205
0.40086055 0.014602339 0.16169512 -0.66923141 0.14260703 -0.72924113 0.032241452
0.44803962 0.011724781 0.16741771 -0.83721298 -0.10868655 -0.53596801 0.013650892
0.45068449 0.010710574 0.16236205 -0.86474097 -0.064432055 -0.49806789 0.0062649529
-0.49681056 0.023803439 0.16708517 0.99317324 -0.11661389 -0.0028379804 0.000267692
-0.45551327 0.026332358 0.16772467 0.99183428 -0.12753342 -2.4330837e-05 0
0.11816724 0.023559332 0.16414294 -0.9921841 -0.12475333 -0.0027126789 0.00013215018
0.15949643 0.021150636 0.16129988 -0.99442899 0.016991759 0.10403038 0.083993904
0.16750388 0.028257975 0.16720709 -0.87605202 -0.12678915 0.46524975 0.16722779
0.3973521 0.022969931 0.16453645 -0.58147401 0.36765635 -0.72575259 0.064623788
0.40014577 0.025416637 0.16227396 -0.57270509 0.39374256 -0.71901023 0.07468643
0.44755158 0.028062526 0.16776162 -0.74705064 -0.44083104 -0.49757743 0.07009463
-0.49566448 0.032717526 0.16956067 0.99183726 -0.12750998 6.634511e-06 0
-0.45437479 0.035187259 0.16440724 0.99183393 -0.12753624 -6.0862545e-05 1.7991104e-05
0.11649025 0.036005583 0.16963084 -0.99104446 -0.13353243 7.515137e-06 5.9219324e-06
0.15824674 0.038166035 0.16577084 -0.97731394 -0.18188629 0.10851222 0.09901724
0.16719541 0.031866673 0.16697162 -0.88834119 -0.15151811 0.43346521 0.1652662
0.17034601 0.033240132 0.16937649 -0.8593421 -0.1878909 0.47563455 0.15947658
0.39541888 0.03352806 0.16641967 -0.42777711 0.61411113 -0.66323024 0.10026439
0.40241006 0.036203403 0.1650337 -0.22752042 0.91492337 -0.3333911 0.084597439
0.41639149 0.037421681 0.16732325 -0.14134713 0.98542476 -0.094652273 0.086490043
0.42497745 0.037421681 0.16365881 -0.039570514 -0.99173528 -0.12204625 0.045762759
0.43605396 0.037421681 0.16447906 -0.3673293 -0.89989662 -0.23506418 0.070659891
0.44585493 0.036484361 0.16448101 -0.57181031 -0.74156719 -0.3508718 0.067554817
-0.49348009 0.049707517 0.16131455 0.99183565 -0.12752275 5.4334178e-05 7.4219656e-06
0.11491893 0.047667637 0.16553035 -0.99085397 -0.13493787 -0.00045565638 4.4702415e-06
0.15597455 0.047289293 0.16053896 -0.97179419 -0.2101028 0.10711182 0.040362503
-0.49298644 0.053547084 0.16410935 0.99183249 -0.1275474 9.9848885e-06 7.9326521e-05
-0.45178065 0.055363335 0.16453148 0.99103814 -0.13357668 -0.00079948921 0.00013675913
0.11376333 0.056244243 0.16855939 -0.99079043 -0.13540378 -0.00030629974 5.5836063e-06
0.15485272 0.055615265 0.16129006 -0.95960104 -0.28132671 0.0045806551 0.019223427
-0.45069617 0.063798308 0.16759537 0.9815042 -0.19121021 -0.0093950015 0.0014161107
0.11244545 0.066025324 0.16415946 -0.98238564 -0.18680608 0.0046925442 0.0013007969
0.15413474 0.060943905 0.16018608 -0.98548025 -0.16966695 0.006466256 0.003203168
-0.44783226 0.077943519 0.1679481 0.95805967 -0.28651869 0.0053486172 0.001725417
0.11129404 0.073779263 0.16210997 -0.97042727 -0.24109256 0.012054491 0.00198799
0.15236607 0.074070558 0.16417542 -0.98687494 -0.16147986 0.0014547029 0.00046500599
-0.44503281 0.084760278 0.16741735 0.94401038 -0.32991084 0.0017928606 0.0009922249
0.10656647 0.086812831 0.16531599 -0.93734527 -0.34839925 -0.0013604793 0.00090484234
0.14971383 0.088952184 0.16668031 -0.96122915 -0.27549303 -0.011920216 0.002634305
-0.48492494 0.094595566 0.16663918 0.94096255 -0.33829921 -0.011963982 0.0012662353
-0.44013089 0.096696913 0.16484322 0.92503428 -0.37988365 -9.7832271e-06 0
-0.47959286 0.10757951 0.16473597 0.92553407 -0.37866414 0.00032117197 5.71651e-05
-0.43694323 0.10445914 0.16378999 0.92502195 -0.37991372 3.5448764e-05 6.6488436e-05
0.097450897 0.10863218 0.16189559 -0.92271656 -0.38547918 -1.249161e-05 7.4398949e-06
0.14339826 0.10406961 0.16832086 -0.92448097 -0.3812255 -0.0014030655 3.7644713e-05
-0.43289477 0.11431745 0.160943 0.92501903 -0.37992069 -7.1286104e-06 0
0.095148601 0.11414307 0.16266747 -0.9227137 -0.38548589 2.9635994e-06 7.981123e-07
-0.47364867 0.122054 0.16310547 0.9250201 -0.37991807 -5.6430756e-05 0
-0.43026668 0.12071708 0.16465065 0.92401832 -0.38234624 -0.0012652874 6.675881e-05
-0.42752504 0.12739328 0.16463307 0.92018121 -0.39149144 -0.0010035692 0.00028799506
0.089164257 0.1284674 0.16325569 -0.91905695 -0.39412078 0.0017605966 0.00010469949
0.092379153 0.12077211 0.1688903 -0.92270935 -0.38549635 -1.1280304e-05 2.1428311e-06
0.13536549 0.1232973 0.16101515 -0.92270833 -0.38549882 5.3700478e-06 0
-0.42353624 0.13710621 0.16561639 0.89060599 -0.45476824 -0.0026134241 0.0016473295
0.086965024 0.13373156 0.16139837 -0.90692234 -0.42122346 -0.0079127494 0.00095982593
0.12915863 0.13815446 0.16790329 -0.9227125 -0.38548878 4.9373853e-06 1.1094628e-05
-0.46392736 0.14572588 0.16732936 0.92131239 -0.38881716 0.0021667113 0.0001918701
-0.41645664 0.14970875 0.16470855 0.84495097 -0.53482407 0.0045832787 0.0019360222
0.082285926 0.14493161 0.16632718 -0.86248404 -0.5060693 -0.00387882 0.0022586521
0.12737459 0.14242487 0.16379239 -0.92270052 -0.38551742 2.7055401e-06 0
-0.46001714 0.15524754 0.1655895 0.89716923 -0.44156542 -0.010364329 0.0014168789
-0.45809191 0.15993559 0.16199312 0.87381297 -0.48623914 -0.0047360184 0.002705351
0.12267023 0.15368553 0.16608576 -0.90787375 -0.41919175 0.0065921275 0.00081490661
-0.45661479 0.16331448 0.16550103 0.86678165 -0.49867749 -0.003227087 0.0022717912
-0.40627244 0.16306461 0.16352236 0.79513186 -0.60643649 1.3309917e-05 0
0.065858804 0.16661389 0.16373175 -0.79220062 -0.61026061 -0.00024379812 6.127911e-07
0.1181972 0.16439244 0.16172317 -0.87473238 -0.4845688 -0.0060214386 0.0022776893
-0.44485542 0.17948522 0.1685265 0.81071824 -0.58542567 0.0035679413 0.00053176528
-0.40077358 0.17027599 0.16741557 0.79516941 -0.60638732 -1.4187751e-05 0
0.057536468 0.17739192 0.16853417 -0.7914986 -0.61117101 1.5428157e-05 4.892288e-07
0.061756041 0.17192726 0.16605994 -0.79150563 -0.61116195 4.89785e-06 6.9240577e-06
-0.44234657 0.18277538 0.16305438 0.80056566 -0.59924453 -0.00073735561 0.00019847714
-0.39261577 0.18097444 0.16653441 0.79514545 -0.60641879 3.6199424e-05 0
0.048336379 0.18930669 0.16722274 -0.78657156 -0.61749578 0.0020556126 6.276826e-05
0.052666452 0.18369894 0.16626415 -0.78947234 -0.6137861 0.00014316163 2.8116167e-05
0.10528713 0.18204336 0.16375047 -0.7950598 -0.6065287 -0.0016560475 3.4825534e-05
-0.43261495 0.19553772 0.1644024 0.7951737 -0.60638171 3.3475119e-06 0
-0.38351303 0.19291213 0.16979629 0.77393681 -0.63322747 0.0066922596 0.00085542205
0.045254022 0.19329858 0.16696215 -0.76389486 -0.64531702 0.0055404743 0.0012242924
0.098480202 0.19085884 0.16283968 -0.79147333 -0.61120367 -1.1324815e-05 0
-0.42404309 0.20677908 0.16443138 0.7951324 -0.60643595 -2.420798e-05 0
-0.37507582 0.2039621 0.16479015 0.71445405 -0.69952911 -0.014645489 0.0024795958
-0.36995861 0.20815229 0.16521236 0.67039865 -0.74162912 -0.023491949 0.0019642289
0.038105942 0.20255585 0.16407678 -0.72482437 -0.68891478 -0.0051092319 0.0019119778
-0.42085546 0.21095954 0.16082746 0.79438412 -0.60741568 -0.00020823076 0
-0.4179399 0.21478303 0.16137914 0.7941854 -0.60767531 -0.00047232656 0
-0.36055243 0.21541536 0.16316076 0.62665218 -0.77929872 -0.00066071807 0.00070326304
-0.3559095 0.21900044 0.16352046 0.6116727 -0.79111093 -0.0002155509 1.588289e-05
0.018504061 0.21882273 0.16878086 -0.61603028 -0.78772241 0.00026878674 0.00010837347
0.025089782 0.21380095 0.16372755 -0.65289134 -0.75743526 0.0049741953 0.0014543768
0.07932508 0.21566612 0.16826653 -0.78969747 -0.61349642 0.00031922356 4.2225652e-06
-0.40917277 0.22628048 0.16892147 0.75566757 -0.65495491 0.00075024785 0.0016325986
-0.34745848 0.22552596 0.1663986 0.6111083 -0.791547 3.1238043e-05 8.4397121e-05
0.0063318871 0.22810435 0.1665801 -0.60638338 -0.79517239 1.3804882e-05 1.989872e-05
0.071095526 0.22632396 0.16769318 -0.74035794 -0.67217606 -0.0070362361 0.0013819321
-0.40264794 0.23425329 0.16527796 0.72173387 -0.69215125 0.005179591 0.0020296827
-0.33645225 0.23402451 0.1643858 0.61094493 -0.79167312 1.3320443e-06 3.709305e-05
-0.0051413714 0.236853 0.16211845 -0.60638374 -0.79517215 2.2610568e-05 2.4540957e-05
0.058319017 0.23956686 0.16423684 -0.65969783 -0.75146741 -0.0097727012 0.0012694522
0.063454032 0.23554111 0.16255629 -0.69586366 -0.71814269 -0.0066919266 0.0022673847
-0.38349655 0.2490412 0.16710418 0.61120582 -0.79147172 3.2494085e-05 0
-0.32342893 0.24408054 0.16421643 0.57512373 -0.81806612 -0.00078275136 0.00098272692
-0.021125488 0.2490413 0.1621531 -0.5370878 -0.84352148 0.0028581601 0.0018525562
-0.015377167 0.24465807 0.16334939 -0.56964499 -0.82185555 0.0076249065 0.0010472379
0.051398698 0.24484378 0.16772392 -0.62539965 -0.7802996 -0.002767852 0.00060320238
-0.37568355 0.25507405 0.16726145 0.61123562 -0.79144871 5.318952e-05 0
-0.3145012 0.25089839 0.16516456 0.53170788 -0.84690529 -0.0061680549 0.0019388754
-0.30715644 0.25396684 0.16065168 0.44803777 -0.89388055 0.015484629 0.0012836301
0.040434025 0.25320461 0.16787529 -0.60674191 -0.79489887 -9.2622649e-05 8.6208238e-06
-0.36195007 0.26567847 0.16703656 0.61120063 -0.79147571 4.6391866e-05 3.1737174e-05
-0.067749858 0.26940987 0.165236 -0.37990087 -0.92502725 -7.8946698e-07 2.1240065e-05
-0.05938898 0.26597637 0.16058689 -0.37987909 -0.92503607 -3.2878506e-05 0
0.024835866 0.26509863 0.16111487 -0.60635626 -0.79519314 1.2755244e-05 0
-0.35451835 0.27141696 0.16855702 0.6095131 -0.79277521 0.0010889849 0
-0.26819301 0.27024475 0.16372785 0.3795602 -0.92516673 0.00079236244 5.5601187e-05
-0.089967899 0.278534 0.16616952 -0.28545114 -0.95836735 -0.0070616538 0.0025620835
-0.076910935 0.27317202 0.16501063 -0.37446615 -0.92723751 -0.0024033797 7.4659474e-05
0.0060733818 0.27940547 0.16564971 -0.56959796 -0.82174903 0.016931545 0.001173668
0.017865879 0.27041343 0.16085961 -0.6051203 -0.796134 0.00027713695 0
-0.33355224 0.28698087 0.16093114 0.49487367 -0.86893278 0.0074808821 0.0023249662
-0.2342972 0.28142387 0.16587326 0.17472696 -0.98459953 0.0058460073 0.0009912427
-0.21011817 0.28468171 0.16706058 0.13353032 -0.9910447 -5.4994089e-05 0
-0.202757 0.2856735 0.16094106 0.13347724 -0.99105185 1.5133136e-05 1.540527e-05
-0.1847696 0.28809708 0.1630252 0.095596492 -0.99541992 -0.00080001028 0.0012977318
-0.17377567 0.28957841 0.1694338 0.029428886 -0.99956673 0.00045760992 0.0024556618
-0.15570593 0.28830874 0.16591382 -0.076905452 -0.99703676 0.0017858542 0.0012320583
-0.14862648 0.28739852 0.1666458 -0.11481839 -0.99338025 -0.0035225488 0.00018735121
-0.12596484 0.28448483 0.1622804 -0.1275102 -0.99183732 1.2848074e-06 0
-0.11559284 0.28315124 0.16632769 -0.14412524 -0.9895587 0.0012441006 0.00037093728
-0.10980342 0.28240687 0.16009547 -0.15688302 -0.98761237 0.0030861043 0.0004534146
-0.097602189 0.2808381 0.16599119 -0.22207449 -0.9750185 -0.0046759471 0.0022534966
-0.0061590774 0.28789485 0.16583061 -0.46700364 -0.88419276 0.010521636 0.0024225609
0.0023485518 0.28224576 0.16585475 -0.56329846 -0.82591146 0.023768689 0.0012010599
-0.30870622 0.29736081 0.16466412 0.38545227 -0.9227277 7.9182146e-06 1.7929207e-05
-0.16990906 0.29009938 0.16695645 -0.01571543 -0.99986774 0.0041867034 0.0024941154
-0.033136018 0.29912615 0.16544758 -0.38086858 -0.92462915 -0.00024258484 5.0278002e-05
-0.029692769 0.29771215 0.16335884 -0.38260895 -0.92391032 -0.00027851757 0
-0.015018266 0.29168579 0.16771249 -0.42897183 -0.90330148 -0.0054465919 0.0012327877
-0.29758394 0.30200735 0.16684842 0.38544837 -0.92272937 -1.6651813e-05 3.7152204e-05
-0.28515807 0.30719849 0.1608175 0.38544619 -0.92273033 7.339514e-06 7.8660967e-05
-0.050597865 0.30629718 0.16091612 -0.37988901 -0.92503202 1.1255715e-05 1.3496932e-05
-0.048923571 0.30560961 0.16043937 -0.37987527 -0.92503774 -2.906673e-05 0
-0.038983006 0.30152732 0.16695639 -0.37988415 -0.92503411 1.2208972e-05 0
-0.083484702 0.31980276 0.16974139 -0.26305827 -0.96477985 0.00035327475 0.0020789942
-0.067916378 0.31340933 0.16564976 -0.3682898 -0.92971087 -0.00043847272 0.00022481458
-0.24706595 0.32070801 0.16530739 0.19779433 -0.98011672 -0.015772706 0.0021197675
-0.22265844 0.32399666 0.16703458 0.13352408 -0.99104553 4.619847e-06 3.0491645e-05
-0.21510014 0.32501507 0.16425665 0.13353398 -0.99104422 5.1777395e-05 5.2465497e-05
-0.20325154 0.32661152 0.1632316 0.13359378 -0.99103612 -3.7133577e-05 0
-0.19649221 0.32752225 0.16426925 0.1335565 -0.99104124 -3.2976594e-05 0
-0.18209805 0.32946169 0.16576004 0.082517251 -0.99654394 -0.0095460285 0.0012254042
-0.15384336 0.32904133 0.16513188 -0.10359771 -0.99460083 -0.006056502 0.00064867811
-0.14009072 0.32727316 0.16128469 -0.12753686 -0.99183381 -1.2572114e-05 2.6186814e-05
-0.12549958 0.32539719 0.16340293 -0.12748449 -0.99184054 1.1122354e-05 0
-0.11096514 0.32352853 0.16944289 -0.12874089 -0.9916783 3.0576954e-05 0
-0.10528111 0.32279772 0.16513522 -0.1323037 -0.99120927 -0.00014909256 2.2506223e-05
-0.09065216 0.32091692 0.1662612 -0.21192074 -0.97727913 -0.0038696639 0.0013708019
-0.16319746 0.33024397 0.16847572 -0.048857249 -0.99879938 0.0035548664 0.0016835631
-0.24740648 -0.32088223 0.17435306 0.22317258 0.97477883 0.00037034068 0.0024639417
-0.23548329 -0.32241517 0.17504087 0.14404368 0.98957121 0.0004722903 0.00028095304
-0.22865537 -0.32329303 0.17220861 0.13182525 0.99127257 -0.00085046672 7.8858131e-05
-0.21701545 -0.32478958 0.17719805 0.12751102 0.9918372 -1.6915796e-05 9.8798337e-06
-0.20443465 -0.32640705 0.17334685 0.12754497 0.99183279 -4.7629546e-05 3.7757629e-05
-0.19767104 -0.32727665 0.17309073 0.12752496 0.99183536 3.2666867e-05 0
-0.18032451 -0.32950687 0.17656247 0.062351793 0.9979924 0.011108686 0.0014685935
-0.15409181 -0.32924622 0.17235871 -0.08684244 0.99622118 0.0013788965 0.00069938868
-0.14791273 -0.32841364 0.17651111 -0.12683132 0.99192417 -0.0004688843 0.00010368181
-0.13303234 -0.32640865 0.17699131 -0.13345835 0.99105442 -4.4599292e-05 0
-0.10393244 -0.32248777 0.17027426 -0.14508954 0.98941803 -0.0009995189 0.00021286636
-0.096391067 -0.32147163 0.17712261 -0.1584928 0.98735672 -0.0025871187 0.00059399323
-0.26755756 -0.31436002 0.17531134 0.35335565 0.93548083 -0.0039185295 0.00046680524
-0.25962362 -0.31761825 0.17628412 0.29489037 0.95547783 -0.010088829 0.0018532135
-0.083796047 -0.3197746 0.17559105 -0.2458587 0.96927023 0.0082891388 0.0022331737
-0.075708359 -0.31683946 0.17455477 -0.30293292 0.95297056 0.008870597 0.002518988
-0.062228952 -0.31120819 0.17422611 -0.37309143 0.92779237 0.0020400474 0.00024536549
-0.29982156 -0.30111027 0.17812139 0.37987724 0.92503691 6.444257e-06 3.7897058e-05
-0.28842968 -0.30578855 0.1731208 0.37998426 0.92499292 -5.8892688e-06 0
-0.054455861 -0.30796084 0.17236961 -0.38549221 0.92271107 2.0619535e-05 6.8295017e-06
-0.040618993 -0.3021802 0.1758585 -0.38550204 0.92270696 3.8450522e-05 2.5485924e-05
-0.034475051 -0.29961348 0.17683285 -0.38556331 0.92268133 4.8809488e-05 5.9368322e-05
-0.019485002 -0.29335111 0.17854242 -0.40941697 0.91234046 0.0035568285 0.0004453632
-0.34138805 -0.28129226 0.17936295 0.57238543 0.81996983 -0.0049348664 0.00090201414
-0.33563015 -0.28558183 0.17396553 0.51035762 0.85992843 -0.0076374388 0.002044
-0.32744855 -0.28976476 0.17168742 0.45651966 0.88968009 -0.0076947869 0.0019847536
-0.24188346 -0.28054684 0.17948645 0.25101826 0.96789885 -0.012714232 0.002241272
-0.23272577 -0.28179741 0.17436785 0.20241837 0.97929543 -0.0026890568 0.0025745826
-0.2245992 -0.28284225 0.17485528 0.13122189 0.9913525 0.00096769561 4.0039686e-06
-0.2160757 -0.28393814 0.17304021 0.1303615 0.9914664 0.00050194567 1.1718425e-05
-0.18444033 -0.28800562 0.17434087 0.097284369 0.99525452 0.0020218755 0.0009331241
-0.17304112 -0.28947127 0.1769944 0.025530541 0.99963659 0.0086528435 0.0027022988
-0.15499638 -0.28836343 0.1765646 -0.070701309 0.99746484 0.0080753965 0.0012301336
