# .PCD v0.7 - Point Cloud Data file format
VERSION 0.7
FIELDS x y z normal_x normal_y normal_z curvature
SIZE 4 4 4 4 4 4 4
TYPE F F F F F F F
COUNT 1 1 1 1 1 1 1
WIDTH 595
HEIGHT 1
VIEWPOINT 0 0 0 1 0 0 0
POINTS 595
DATA ascii
0.208626 0.08278662 -0.29266375 -0.026255192 -0.19010872 0.98141193 0.2295697
0.21072197 0.084440261 -0.29266375 -0.214073 -0.026061762 0.97646993 0.19449286
0.2236124 0.085230209 -0.29266375 0.22526765 -0.00057332852 0.97429675 0.21760556
0.23532748 0.084810913 -0.29266375 0.13374662 -0.37114006 0.91889447 0.21230596
0.2429558 0.082258873 -0.29266375 0.24929163 -0.12162656 0.96076047 0.26355121
0.25717622 0.085456416 -0.29266375 0.053447019 -0.23990154 0.96932489 0.19784842
0.26587671 0.080423802 -0.29266375 0.14159629 -0.11028238 0.98376238 0.20823932
0.27782458 0.080099791 -0.29266375 0.24465413 -0.30046874 0.92188007 0.21094319
0.28694192 0.083574928 -0.29266375 0.15005375 -0.11612593 0.98183435 0.13679999
0.29333797 0.086896598 -0.29266375 -0.14351323 -0.041744277 0.98876762 0.079315275
0.30511966 0.08269313 -0.29266375 -0.4049381 0.11692672 0.90683693 0.075052515
0.3135328 0.081748888 -0.29204938 -0.56277066 0.21000551 0.79949164 0.083825834
-0.30564213 0.092088744 -0.29266375 0.53589392 0.016825574 0.84411764 0.08038979
-0.2746942 0.098462567 -0.29266375 -0.32336947 -0.0837605 0.94255841 0.24819942
-0.25032914 0.097985581 -0.29266375 0.17130335 -0.23322634 0.95721507 0.24004777
-0.2424942 0.098108143 -0.29266375 -0.34453204 0.46532777 0.81533283 0.24636091
-0.23827028 0.09476836 -0.29266375 0.02679209 0.26736188 0.9632237 0.22703663
-0.22567447 0.096120752 -0.29266375 -0.12304294 -0.1511942 0.9808163 0.24245645
-0.21173841 0.094307005 -0.29266375 0.090020746 0.019673025 0.99574554 0.21759917
-0.2049633 0.094866827 -0.29266375 0.045846861 -0.03494516 0.99833703 0.22364092
-0.18754381 0.096879095 -0.29266375 -0.045294445 -0.069430813 0.99655801 0.2329064
-0.17669874 0.094008528 -0.29266375 0.021083899 0.068869568 0.99740285 0.2427476
-0.16747139 0.094025418 -0.29266375 -0.053323969 0.016078051 0.9984479 0.21616341
-0.15768665 0.093922853 -0.29266375 -0.0054687839 -0.094230071 0.99553549 0.20928569
-0.14215742 0.094979644 -0.29266375 0.13339037 -0.15328842 0.97913724 0.21645889
-0.13288294 0.098774105 -0.29266375 0.19260107 -0.10664322 0.975465 0.19361612
-0.12517029 0.095401734 -0.29266375 0.11432339 0.10385246 0.98800039 0.21356468
-0.11434656 0.098688707 -0.29266375 0.01948005 -0.11862551 0.99274796 0.19380622
-0.10844459 0.098176964 -0.29266375 -0.1716987 0.062922932 0.98313802 0.21425022
-0.092005707 0.09069971 -0.29266375 0.010956305 -0.043547388 0.99899125 0.2355209
-0.081348568 0.096941888 -0.29266375 0.07466054 0.34094101 0.93711531 0.23056625
-0.075668193 0.095654733 -0.29266375 -0.034673955 0.29798254 0.9539414 0.24721621
-0.054220334 0.094986022 -0.29266375 -0.029783869 0.2209059 0.97484022 0.20188798
-0.044362783 0.095382117 -0.29266375 -0.13943899 -0.20262544 0.96927798 0.17961505
-0.027860876 0.098001972 -0.29266375 -0.28598318 -0.0015750309 0.9582333 0.23723616
-0.01490493 0.094539508 -0.29266375 0.13489017 -0.06959153 0.98841369 0.21750484
0.012625755 0.098280482 -0.29266375 -0.34566778 -0.24558136 0.90565085 0.21417376
0.021524929 0.090935349 -0.29266375 -0.11609493 -0.095043547 0.98868024 0.24744591
0.0313216 0.09025342 -0.29266375 0.14389521 -0.22878763 0.96278262 0.23750319
0.044989187 0.096001878 -0.29266375 -0.11267743 -0.2796334 0.95347202 0.21004836
0.054151498 0.097860217 -0.29266375 0.23948716 -0.060733426 0.96899807 0.20879121
0.062784076 0.090176761 -0.29266375 -0.36473525 0.29086104 0.8845157 0.23222105
0.076822363 0.093756035 -0.29266375 0.2119589 0.07676252 0.97425908 0.19703022
0.081527956 0.095555514 -0.29266375 0.080166802 0.035042405 0.99616534 0.18422237
0.10582915 0.092862636 -0.29266375 0.072425015 0.050166417 0.99611139 0.23848876
0.12572643 0.096187674 -0.29266375 -0.15550816 -0.05758705 0.98615468 0.22543752
0.13141194 0.091784105 -0.29266375 0.097490557 -0.085675806 0.99154186 0.23714337
0.14500587 0.095649093 -0.29266375 0.075043149 -0.085466795 0.9935109 0.22512013
0.15746219 0.094403677 -0.29266375 0.32490855 0.018396793 0.94556653 0.21109316
0.16347137 0.091173388 -0.29266375 -0.02303138 0.22340785 0.97445285 0.21891265
0.1745026 0.093262665 -0.29266375 -0.076032899 0.12009943 0.98984599 0.19750023
0.1854063 0.091457359 -0.29266375 -0.17080879 0.11022606 0.97911936 0.23935328
0.19881958 0.092069618 -0.29266375 -0.10354131 0.013702838 0.99453068 0.21903132
0.20591497 0.092819273 -0.29266375 0.0024155527 0.046830416 0.99889988 0.20542601
0.2251758 0.09605813 -0.29266375 -0.12893754 0.044516098 0.99065298 0.22429942
0.23256868 0.095449559 -0.29266375 0.21792683 -0.23226158 0.94792533 0.22388554
0.24778152 0.098934636 -0.29266375 0.04668469 -0.11869203 0.99183309 0.22735611
0.2545417 0.099913388 -0.29266375 -0.26846755 0.00011451352 0.96328878 0.23865663
0.26747772 0.093940876 -0.29266375 -0.020740995 -0.1826432 0.98296046 0.20798317
0.28695655 0.09931232 -0.29266375 0.32846853 -0.028191769 0.94409406 0.1500217
0.29261988 0.090316638 -0.29266375 -0.10957342 0.03632997 0.99331462 0.066517122
0.3022553 0.096480876 -0.29266375 -0.36277497 0.095565662 0.92696357 0.062346973
0.31818113 0.095720157 -0.29031837 -0.7178883 0.22854587 0.65757382 0.090174437
-0.29049438 0.10633264 -0.29266375 -0.28711465 -0.092367582 0.95343238 0.1560455
-0.28565592 0.1033058 -0.29266375 -0.25266704 -0.16102894 0.95405918 0.22329633
-0.26416448 0.10723863 -0.29266375 0.22165659 0.12576991 0.96698004 0.20478149
-0.25586575 0.10349713 -0.29266375 0.33181554 -0.31940216 0.88762647 0.22214459
-0.24520922 0.10713306 -0.29266375 0.42876929 0.18484645 0.88430125 0.20952523
-0.23444015 0.10536771 -0.29266375 -0.039050225 0.18138696 0.98263615 0.16698883
-0.22541136 0.10424388 -0.29266375 0.046460263 0.086964309 0.99512744 0.20309138
-0.21156408 0.10427327 -0.29266375 0.022113102 0.013853651 0.99965948 0.18561877
-0.20226862 0.10965942 -0.29266375 -0.14294952 -0.13566245 0.98038822 0.19426353
-0.18876541 0.10883413 -0.29266375 0.19414064 -0.29163507 0.93662071 0.22687837
-0.17551288 0.10438337 -0.29266375 -0.11498976 -0.10727163 0.98755771 0.24848257
-0.16813911 0.10086957 -0.29266375 -0.24467307 -0.23700719 0.94019288 0.22061497
-0.14418633 0.10794386 -0.29266375 0.15310885 0.030673414 0.98773319 0.22467151
-0.13426678 0.1076836 -0.29266375 0.080994047 0.038658395 0.99596465 0.18757059
-0.11449147 0.10487372 -0.29266375 -0.018768404 -0.26136699 0.96505702 0.19257574
-0.10486396 0.10664552 -0.29266375 0.010301652 -0.059661757 0.99816549 0.20960206
-0.085554138 0.10644196 -0.29266375 -0.061108269 0.22816004 0.97170407 0.18633172
-0.078327172 0.10527255 -0.29266375 0.24821632 0.29210979 0.92361277 0.19274053
-0.067387462 0.10553944 -0.29266375 0.12293126 0.17751504 0.97640991 0.20445211
-0.058394819 0.10467784 -0.29266375 -0.22558054 0.037478514 0.97350329 0.16316196
-0.045185778 0.10715295 -0.29266375 -0.3627665 0.022794265 0.93160123 0.18562762
-0.022348573 0.1046837 -0.29266375 0.32626122 -0.29660466 0.89754069 0.24283092
-0.013948327 0.10578328 -0.29266375 0.52930582 -0.14747484 0.83551574 0.25131211
-0.0028840757 0.10581493 -0.29266375 0.47019699 0.09029945 0.87792987 0.22527522
0.0021713749 0.10851983 -0.29266375 0.64051962 0.50152123 0.58155912 0.23230438
0.019030675 0.10356162 -0.29266375 0.00045325604 0.27544069 0.96131796 0.23077822
0.023445809 0.1095141 -0.29266375 -0.18604229 -0.079948187 0.97928369 0.2207768
0.045692999 0.10629958 -0.29266375 -0.014401162 0.10684998 0.9941709 0.18471095
0.066194355 0.10803469 -0.29266375 0.057092894 -0.14058594 0.98842096 0.22869536
0.073833399 0.10467587 -0.29266375 0.11845743 0.030839812 0.99248016 0.22751814
0.083168909 0.10025851 -0.29266375 -0.25009927 0.037678421 0.96748674 0.2079179
0.09528625 0.10853642 -0.29266375 -0.22444491 0.0083505893 0.97445107 0.22445628
0.11363706 0.10105662 -0.29266375 0.47495404 -0.12891573 0.87051672 0.22027671
0.12809511 0.10538518 -0.29266375 0.050139356 0.073338836 0.99604595 0.2312918
0.13591406 0.10610792 -0.29266375 0.52997148 -0.0093750795 0.84796363 0.28414002
0.14783168 0.1092037 -0.29266375 0.059107132 -0.21833789 0.97408158 0.22182389
0.15558736 0.10529396 -0.29266375 0.28124005 -0.23421609 0.93061638 0.22793108
0.16802067 0.10777698 -0.29266375 0.024419986 0.066338278 0.99749833 0.21731439
0.1745875 0.1047126 -0.29266375 -0.19187087 0.040494971 0.98058438 0.1744612
0.1861766 0.10878557 -0.29266375 -0.33033478 0.0039421422 0.94385558 0.24102601
0.19305259 0.10755408 -0.29266375 -0.092962936 -0.19899078 0.97558218 0.23223945
0.24701799 0.10536553 -0.29266375 0.25325155 -0.11267176 0.96081674 0.22870435
0.26638058 0.10361611 -0.29266375 0.24664006 0.035827838 0.96844471 0.20973882
0.27691674 0.10465362 -0.29266375 0.15173957 -0.026993811 0.98805189 0.21660134
0.29445899 0.10832391 -0.29266375 -0.079952084 0.02092088 0.99657917 0.0094627813
0.31744274 0.10588725 -0.29266375 -0.62032956 0.11787663 0.775433 0.12194446
-0.31709641 0.1181678 -0.29266375 0.60436249 0.31643608 0.73117322 0.083372153
-0.29115939 0.11096813 -0.29266375 -0.13303813 0.068578839 0.98873544 0.17012289
-0.25502837 0.11585984 -0.29266375 0.42944071 -0.10697372 0.89673698 0.20853023
-0.24483125 0.11409866 -0.29266375 0.27084863 -0.028200546 0.96220881 0.21855189
-0.23554587 0.11447485 -0.29266375 -0.10531756 -0.089702405 0.99038464 0.21075585
-0.22658777 0.11645683 -0.29266375 -0.0069424077 -0.20950189 0.97778362 0.18317775
-0.21668665 0.11742041 -0.29266375 0.028764576 0.019404849 0.99939781 0.19923937
-0.19480982 0.11555173 -0.29266375 0.012691463 0.13966878 0.99011695 0.20081595
-0.18410186 0.11517937 -0.29266375 0.045795418 -0.17060432 0.98427486 0.24941011
-0.17381258 0.11293398 -0.29266375 -0.21346223 0.072656959 0.97424585 0.23004964
-0.1681914 0.11457485 -0.29266375 -0.080197431 -0.19637945 0.97724283 0.25712243
-0.14646816 0.11427863 -0.29266375 0.17176533 -0.050509468 0.98384225 0.18600464
-0.13593797 0.11285615 -0.29266375 -0.054108255 0.065223731 0.99640256 0.24344371
-0.12239892 0.11440799 -0.29266375 -0.12925054 0.061271582 0.98971719 0.19359362
-0.11413656 0.11139715 -0.29266375 0.19978246 -0.051032327 0.97851038 0.22020012
-0.10971859 0.11666458 -0.29266375 -0.10370385 0.1270116 0.98646522 0.22179204
-0.093679845 0.11340454 -0.29266375 -0.068659924 -0.36413276 0.92881268 0.22961967
-0.086714491 0.11457341 -0.29266375 0.17509679 -0.20308635 0.96337789 0.19754878
-0.071013466 0.11718728 -0.29266375 0.15379177 0.12116044 0.98064685 0.18802747
-0.063826151 0.11786803 -0.29266375 -0.025984084 -0.056490075 0.99806499 0.15247893
-0.055076625 0.11778772 -0.29266375 -0.16506608 0.12259992 0.97863293 0.19528013
-0.045096423 0.115491 -0.29266378 -0.17036439 0.1694698 0.97069865 0.22467211
-0.035472617 0.11446179 -0.29266375 -0.065783843 0.35659087 0.93194175 0.21184114
-0.0022565082 0.1125998 -0.29266375 0.11983621 -0.37145627 0.92068434 0.25456709
0.0080342963 0.11217854 -0.29266375 -0.042497147 0.093916446 0.9946726 0.26245829
0.015026899 0.11757145 -0.29266375 0.2495492 -0.1380696 0.95846856 0.27288756
0.026811503 0.11577757 -0.29266375 -0.043880787 0.12313115 0.99141979 0.20088048
0.038754843 0.11626129 -0.29266375 0.17116563 0.013581996 0.98514861 0.22982912
0.056715716 0.1174482 -0.29266375 -0.20803191 -0.269759 0.94018769 0.21373476
0.066896766 0.11668153 -0.29266375 0.019603567 -0.03188416 0.99929929 0.20417503
0.073358752 0.11191964 -0.29266375 0.15932545 -0.36946476 0.91548419 0.2191764
0.085771017 0.11903765 -0.29266375 0.2731964 -0.1489007 0.95036429 0.24138314
0.094947204 0.11292613 -0.29266375 -0.26202974 0.13757049 0.95520407 0.21028699
0.10119945 0.11320563 -0.29266375 -0.079992689 0.16906472 0.98235345 0.15992384
0.12637997 0.11664137 -0.29266375 -0.084395029 -0.14585413 0.98569983 0.21459763
0.13284919 0.1164343 -0.29266375 -0.37894624 -0.3063837 0.87322897 0.2409206
0.14669532 0.11197565 -0.29266375 0.12160712 -0.27575934 0.95350325 0.23262984
0.15595329 0.11265422 -0.29266375 0.2246328 -0.16731346 0.95997208 0.17757671
0.17353728 0.11461818 -0.29266375 -0.29532522 -0.21871656 0.9300248 0.16373913
0.1889618 0.11657538 -0.29266375 -0.12265565 -0.22662857 0.96622723 0.25346339
0.1983467 0.11109665 -0.29266375 0.052681763 -0.34434554 0.93736374 0.24854232
0.20416901 0.11650449 -0.29266375 0.60065645 0.047313184 0.79810607 0.25723612
0.21498299 0.11389639 -0.29266375 0.26126924 -0.27220017 0.92609149 0.19059856
0.22268116 0.11242554 -0.29266375 0.09123873 -0.034433305 0.9952336 0.24907082
0.23662162 0.11218601 -0.29266375 -0.3686876 0.035132743 0.92888921 0.25692922
0.24436396 0.11967289 -0.29266375 -0.016878547 0.12924545 0.99146891 0.22129631
0.25436768 0.1157978 -0.29266375 0.19246078 -0.30306154 0.93333411 0.24640505
0.27387944 0.11652648 -0.29266375 0.15242699 0.0097296229 0.98826683 0.19420862
0.28839731 0.111139 -0.29266375 0.2050918 -0.040793471 0.97789222 0.15383138
0.29962793 0.11905724 -0.29266375 -0.012592214 0.028039491 0.99952751 0.057450261
0.30698171 0.11614209 -0.29266375 -0.19030041 0.055627152 0.98014867 0.031042876
0.32139194 0.119783 -0.29266375 -0.46339619 0.10844219 0.87949097 0.091881558
-0.32323098 0.12351547 -0.29266375 0.74136603 0.26979265 0.6144821 0.081057489
-0.31663224 0.12940916 -0.29266375 0.61373299 0.21266963 0.76033109 0.09972284
-0.30735636 0.12643534 -0.29266375 0.3044568 0.17339808 0.93661046 0.070995435
-0.28360453 0.12519372 -0.29266375 -0.10491553 0.18513903 0.97709584 0.23129874
-0.27297142 0.12908916 -0.29266375 -0.25342277 0.16660362 0.95290089 0.24266613
-0.26477355 0.12523338 -0.29266375 0.17304377 0.22797337 0.95816708 0.22809894
-0.25236344 0.12676467 -0.29266375 0.3967092 0.16344227 0.9032765 0.21591929
-0.24012817 0.12802586 -0.29266375 -0.18147612 -0.4160749 0.89103764 0.21685117
-0.21486117 0.12482467 -0.29266375 0.18935724 -0.31423306 0.9302696 0.19001421
-0.20385374 0.12499496 -0.29266375 -0.30419895 -0.11476883 0.94566965 0.23475662
-0.19782537 0.12728721 -0.29266375 -0.27418122 -0.15825455 0.94856739 0.24033158
-0.18942 0.1206234 -0.29266375 -0.078677073 0.087382637 0.99306303 0.21764998
-0.17497882 0.12803534 -0.29266375 -0.11151689 0.11349793 0.98725998 0.22896549
-0.16753916 0.12719399 -0.29266375 -0.13572535 0.24705121 0.95945001 0.20593384
-0.15474176 0.12524708 -0.29266375 0.19545105 0.2146749 0.95692927 0.19937211
-0.14720602 0.12504937 -0.29266375 -0.012980322 0.080249108 0.99669033 0.18048236
-0.1273533 0.12379539 -0.29266375 -0.2932446 -0.11015414 0.94967031 0.1887918
-0.10587201 0.12651069 -0.29266375 0.10546396 -0.11249724 0.98803931 0.23399605
-0.091646098 0.12508224 -0.29266375 0.3188459 0.022781814 0.94753271 0.22417998
-0.084799744 0.12734486 -0.29266375 0.10559262 0.10755623 0.9885757 0.23899162
-0.074250996 0.12418739 -0.29266375 0.33192495 -0.081239283 0.9398011 0.18262759
-0.065145895 0.12670016 -0.29266375 -0.005096829 0.044570621 0.99899322 0.21926065
-0.05687407 0.12612976 -0.29266375 -0.045232479 0.20013915 0.97872275 0.17147902
-0.046122026 0.12455735 -0.29266375 -0.29488555 0.21787333 0.93036216 0.15809759
-0.028438954 0.12458107 -0.29266375 -0.15753065 0.16641849 0.97339046 0.1763628
-0.014378875 0.1244067 -0.29266378 -0.32191271 -0.14176914 0.936095 0.22564189
-0.0025680219 0.12305778 -0.29266375 -0.52673024 -0.55514264 0.64371735 0.23740189
0.0066002081 0.1234014 -0.29266375 0.32353282 0.055466577 0.94458979 0.22150515
0.028508559 0.12583123 -0.29266375 0.22460398 0.0035508652 0.97444367 0.25062206
0.037078742 0.12734114 -0.29266375 -0.38973281 0.049980588 0.91957068 0.20363928
0.042164069 0.1279842 -0.29266375 -0.14283675 0.11380214 0.98318195 0.24205992
0.050119124 0.12805094 -0.29266375 0.04464246 0.057266805 0.99736029 0.2331396
0.074033722 0.12728421 -0.29266375 0.18356135 0.2297893 0.95577312 0.22331767
0.082381047 0.12278672 -0.29266375 0.21491715 0.0068024253 0.97660863 0.22903296
0.094467998 0.12564245 -0.29266375 -0.33028501 0.15931241 0.9303394 0.20924214
0.10633554 0.12511364 -0.29266375 0.038970709 0.066142745 0.99704885 0.21551794
0.12630875 0.12660272 -0.29266375 0.1122589 -0.2147693 0.97019178 0.24913174
0.13334648 0.12821722 -0.29266375 0.064582542 0.072740279 0.99525779 0.2272823
0.16125713 0.12629478 -0.29266375 0.26789752 -0.045862108 0.96235526 0.22758146
0.17494094 0.12351383 -0.29266375 -0.13335706 -0.10323235 0.98567688 0.22615905
0.18153276 0.12627152 -0.29266375 -0.38435936 -0.2031175 0.90056163 0.23790778
0.20325269 0.12164406 -0.29266375 -0.14450701 0.33917531 0.9295578 0.23801678
0.21577656 0.12463187 -0.29266375 -0.097301207 0.73280674 0.67344391 0.23671602
0.22065923 0.12386408 -0.29266375 0.23625138 0.40925997 0.88130111 0.26125571
0.23248586 0.12713823 -0.29266375 -0.14292485 0.017058408 0.98958653 0.26447681
0.24508044 0.12725663 -0.29266375 -0.15512946 0.10155859 0.98266006 0.20659384
0.25737408 0.1267816 -0.29266375 -0.12994257 -0.12006058 0.98422581 0.23304753
0.27414101 0.12557539 -0.29266375 0.21141486 -0.15555559 0.96493846 0.20076573
0.28005028 0.1211313 -0.29266375 0.3540459 -0.20289424 0.91295427 0.17508265
0.29701543 0.12125075 -0.29266375 0.051093109 -0.021701887 0.99845809 0.061821617
0.32386917 0.12371418 -0.29159957 -0.57509291 0.044967175 0.81685138 0.088038489
-0.32240909 0.13769841 -0.29266375 0.61818457 0.15627734 0.77034098 0.090842322
-0.31909314 0.13220407 -0.29266375 0.63927943 0.12780394 0.75827962 0.098473072
-0.29533541 0.1311585 -0.29266375 -0.25851223 -0.040082831 0.96517599 0.15577289
-0.2874614 0.13688454 -0.29266375 -0.023313459 0.15179344 0.98813719 0.27692464
-0.27546859 0.13880584 -0.29266375 0.18425588 0.50441116 0.8435753 0.22889464
-0.26388448 0.13550276 -0.29266375 0.29994228 0.27464586 0.91356677 0.22304307
-0.25530714 0.13420615 -0.29266375 0.034698054 0.092387863 0.99511838 0.24004988
-0.24491014 0.13477279 -0.29266378 -0.5022772 -0.11949835 0.85640985 0.21359228
-0.23609607 0.1335512 -0.29266375 -0.13218306 -0.16784357 0.9769116 0.18408242
-0.22444628 0.13648549 -0.29266375 0.17326918 -0.36295569 0.915555 0.23550844
-0.21092004 0.13539082 -0.29266375 0.13665859 -0.33712518 0.93148863 0.2226804
-0.20868771 0.13332944 -0.29266375 0.088562459 -0.49227694 0.86592162 0.22094983
-0.19304541 0.13855805 -0.29266375 0.20524034 0.0099503798 0.978661 0.22778888
-0.18343374 0.13858427 -0.29266375 0.075511165 0.12027816 0.98986423 0.22194411
-0.17248963 0.13227075 -0.29266375 0.1647166 -0.093912028 0.98185998 0.23736736
-0.16767219 0.13716015 -0.29266375 0.043998498 0.048761815 0.99784094 0.22671057
-0.15547374 0.13398877 -0.29266375 0.075587235 0.099819027 0.9921304 0.1993378
-0.14206462 0.13258784 -0.29266375 0.19587196 0.08523009 0.97691864 0.20575204
-0.1325855 0.13456237 -0.29266375 -0.178728 -0.18957014 0.9654634 0.21782476
-0.1268471 0.13501813 -0.29266375 -0.20069866 0.015789641 0.9795258 0.17344244
-0.11596391 0.13613065 -0.29266375 -0.013766708 0.24979201 0.96820158 0.22131769
-0.10706967 0.13662775 -0.29266375 0.14286467 -0.42264667 0.89496338 0.25223625
-0.09484005 0.13123134 -0.29266375 0.27759832 -0.01965908 0.96049613 0.24832545
-0.087913506 0.13019651 -0.29266375 0.16679467 -0.30127132 0.93883717 0.24641061
-0.073168278 0.1384159 -0.29266375 0.32213145 -0.14769922 0.93510222 0.21684004
-0.069009677 0.13670948 -0.29266375 0.45311692 -0.29158953 0.84241354 0.20120551
-0.057807881 0.1370765 -0.29266375 0.18645613 0.01732756 0.98231047 0.23695417
-0.045058519 0.13835998 -0.29266375 -0.029789995 0.095567197 0.99497718 0.15667975
-0.03572211 0.1332695 -0.29266375 -0.0060084905 -0.050248418 0.99871868 0.17621255
-0.024147874 0.13545068 -0.29266375 -0.039131526 0.22141789 0.97439361 0.19752261
-0.013281538 0.13283761 -0.29266375 -0.041122027 0.0038693442 0.99914664 0.20044816
-0.0066902605 0.13545845 -0.29266375 -0.25715402 0.069548428 0.96386451 0.1942085
0.0257031 0.13432939 -0.29266375 0.41470093 -0.085250445 0.90595555 0.19834197
0.044721592 0.13613257 -0.29266375 -0.27405676 -0.19621803 0.94148362 0.23623563
0.054639407 0.13373366 -0.29266375 0.053250611 0.087830335 0.99471116 0.20532615
0.068255857 0.13304219 -0.29266375 -0.0011137741 0.21608849 0.97637314 0.20230572
0.094972432 0.13829294 -0.29266375 -0.35015669 -0.13102497 0.92748201 0.21096773
0.11472076 0.13625719 -0.29266375 0.10044011 0.12151983 0.98749423 0.22433068
0.12734415 0.135928 -0.29266375 0.083062746 0.42338195 0.90213549 0.28638437
0.14515838 0.13718186 -0.29266375 -0.10222758 0.15544008 0.98254162 0.20351535
0.1615472 0.1322466 -0.29266375 -0.039795972 0.054814946 0.99770319 0.184038
0.17547019 0.13101248 -0.29266375 -0.20007408 -0.030229777 0.97931433 0.19252852
0.19493908 0.13743089 -0.29266375 0.38839257 -0.016577972 0.92134488 0.17783831
0.21917328 0.1362886 -0.29266375 0.0065655205 -0.051103 0.99867183 0.24951716
0.22595653 0.13950779 -0.29266375 0.12444764 -0.074176304 0.98944968 0.21366484
0.23372412 0.13297379 -0.29266375 0.026030583 -0.027363572 0.99928659 0.23326191
0.26583037 0.13514009 -0.29266375 -0.5093261 -0.18125468 0.84126908 0.24909332
0.27189156 0.13432722 -0.29266375 0.22070479 0.10960217 0.96916288 0.1959839
0.29850346 0.13644028 -0.29266375 0.008158681 -0.056236282 0.99838418 0.049027283
0.30349761 0.13632923 -0.29266375 -0.18973504 -0.055733636 0.98025221 0.035820547
0.31548452 0.1394197 -0.29266375 -0.28481275 -0.020170635 0.95837086 0.06063747
0.32446444 0.13616398 -0.29242039 -0.55889654 0.047547281 0.82787311 0.12038285
-0.32665864 0.14163353 -0.29173604 0.75752443 0.059130307 0.65012336 0.078867167
-0.30114198 0.14449328 -0.29266375 -0.091676727 0.034880195 0.99517781 0.11192321
-0.28917789 0.14252518 -0.29266375 -0.16690238 -0.064270049 0.98387653 0.26180169
-0.26634979 0.14697976 -0.29266375 -0.15500431 -0.075026579 0.98506069 0.23240943
-0.25851887 0.1462018 -0.29266375 0.045152795 -0.32804957 0.94358075 0.24861646
-0.24519145 0.14066151 -0.29266375 -0.10015115 0.0293645 0.99453884 0.23988909
-0.21642622 0.14789501 -0.29266375 0.052502371 0.087745279 0.99475837 0.19560607
-0.205007 0.14502288 -0.29266375 -0.2237509 -0.14662975 0.96355343 0.24817766
-0.19496582 0.1433962 -0.29266375 0.32149822 -0.25308645 0.91246164 0.24486475
-0.17293496 0.14925052 -0.29266375 0.19077578 0.13171066 0.97275734 0.23971249
-0.163569 0.14359006 -0.29266375 0.19585887 0.011214936 0.98056793 0.18218853
-0.15508574 0.14347783 -0.29266375 0.029361185 0.2516129 0.96738243 0.2108354
-0.14192262 0.1407638 -0.29266375 -0.027978621 0.093363792 0.9952389 0.19334371
-0.1363903 0.14732796 -0.29266375 -0.0054041166 0.19265081 0.98125255 0.22123529
-0.12505047 0.14515957 -0.29266378 -0.064096846 0.26553711 0.96196759 0.220091
-0.11707348 0.14340845 -0.29266375 -0.19366381 0.039346386 0.98027867 0.18522698
-0.10206593 0.14496422 -0.29266375 -0.075560622 0.013471424 0.99705011 0.2206742
-0.098059259 0.14907661 -0.29266375 -0.16386095 -0.1385695 0.97670263 0.24826254
-0.081849806 0.14437401 -0.29266375 0.13675329 -0.44679406 0.88412315 0.21842565
-0.075326763 0.14233531 -0.29266375 0.17145026 -0.042945676 0.98425633 0.21935241
-0.065471441 0.14031132 -0.29266375 0.55839151 -0.13680267 0.81822002 0.20784909
-0.055622984 0.1472121 -0.29266375 0.11015479 -0.018155742 0.99374855 0.14745621
-0.046209317 0.14292935 -0.29266375 -0.10774496 0.040390857 0.99335772 0.14628714
-0.035617821 0.14843939 -0.29266375 -0.17387603 0.09665063 0.98001313 0.20053843
-0.020387005 0.14936747 -0.29266375 -0.031918414 -0.099903554 0.99448502 0.2145897
-0.011552246 0.14435264 -0.29266375 0.015289231 0.071345888 0.99733448 0.18706337
0.0065726065 0.14691617 -0.29266375 -0.065078817 0.285974 0.95602494 0.21514989
0.018874127 0.14719519 -0.29266375 0.3516579 0.14415118 0.9249633 0.18899316
0.025671735 0.14599086 -0.29266375 0.2287802 0.18810388 0.95513171 0.21131729
0.034345172 0.14459319 -0.29266375 -0.35274443 -0.08598657 0.93176049 0.19782649
0.040069316 0.14097571 -0.29266375 -0.13312632 -0.051414244 0.98976469 0.24677666
0.065223023 0.14657176 -0.29266375 -0.17294198 0.100874 0.97975278 0.19032504
0.074517779 0.14422022 -0.29266378 -0.018712861 0.16871783 0.98548675 0.19855654
0.08418113 0.14308633 -0.29266375 -0.074270986 0.16979396 0.98267692 0.22644912
0.095858335 0.14011934 -0.29266375 -0.12245506 0.0077035101 0.99244422 0.21551631
0.11592272 0.14368814 -0.29266375 0.21618442 0.23646186 0.94728565 0.2135448
0.12430353 0.14655997 -0.29266375 -0.096636944 0.29166129 0.95162755 0.21375513
0.13710731 0.14497747 -0.29266375 0.14949083 0.18047933 0.97215205 0.22942066
0.14800751 0.145647 -0.29266375 -0.20536615 0.44856733 0.86983448 0.22174086
0.15446411 0.14650109 -0.29266375 0.13128005 -0.08437258 0.98774832 0.20521384
0.16324463 0.14681457 -0.29266375 -0.15476944 -0.027198941 0.98757607 0.13713361
0.1826447 0.14946672 -0.29266375 -0.21853685 0.085885696 0.97204179 0.22956239
0.19666284 0.14285329 -0.29266375 0.023435401 -0.070056245 0.99726766 0.21818082
0.20670068 0.14506455 -0.29266375 -0.10642995 -0.14579946 0.98357266 0.23703337
0.21762928 0.143139 -0.29266375 -0.17541094 0.084812224 0.98083526 0.22338784
0.23378195 0.14311542 -0.29266375 -0.036295373 0.17651641 0.98362827 0.24792351
0.24426675 0.1482822 -0.29266375 -0.2385793 0.097615063 0.96620452 0.22538556
0.26060247 0.14942193 -0.29266375 -0.023690104 0.032297865 0.99919748 0.25379494
0.28803292 0.14125867 -0.29266375 0.10865855 0.034347214 0.99348551 0.12262658
0.29683486 0.14506751 -0.29266375 0.14766787 -0.020670976 0.98882097 0.085634857
0.31573713 0.1440092 -0.29266375 -0.38759974 0.0030042476 0.92182297 0.06673646
0.3252745 0.14024465 -0.29195035 -0.66879851 0.028741237 0.74288803 0.12773874
-0.32570446 0.15312275 -0.29212713 0.57451141 -0.032226089 0.81786191 0.078103885
-0.31211126 0.15209518 -0.29266375 0.29535055 0.00013644819 0.9553889 0.063185371
-0.30626306 0.15454593 -0.29266375 0.12332495 -0.11695461 0.98545039 0.11403509
-0.29096913 0.15176047 -0.29266375 -0.02457731 0.066725053 0.99746871 0.19598189
-0.28353152 0.15331608 -0.29266375 -0.089683421 0.032513157 0.99543947 0.20401651
-0.26439977 0.15124033 -0.29266375 -0.12245357 -0.071616828 0.98988694 0.18668477
-0.25611907 0.15406124 -0.29266375 -0.22702007 -0.16698268 0.95946795 0.21557383
-0.23370737 0.15322448 -0.29266375 0.20449054 -0.38632092 0.89941078 0.20768943
-0.19538982 0.15476739 -0.29266375 -0.24100094 0.21406059 0.9466238 0.24601945
-0.18970686 0.15719409 -0.29266375 0.25893074 0.07320676 0.96311772 0.22712031
-0.17535235 0.15524924 -0.29266375 0.13769299 -0.012165694 0.99040025 0.21574338
-0.16198912 0.15279472 -0.29266375 0.13740711 -0.11115837 0.9842577 0.18084314
-0.15384334 0.15375115 -0.29266375 0.1503389 -0.10740557 0.9827829 0.18065001
-0.14340281 0.15206979 -0.29266375 -0.013426721 -0.076936901 0.99694556 0.21050084
-0.13805954 0.15263052 -0.29266375 0.050042041 -0.02114014 0.99852341 0.18962754
-0.12828296 0.15873377 -0.29266375 0.015789306 -0.13289966 0.99100369 0.18146916
-0.097896993 0.15899962 -0.29266375 0.0472073 0.15677637 0.98650527 0.19911325
-0.07598228 0.15366822 -0.29266375 0.060923308 -0.13931164 0.98837268 0.22622213
-0.063007288 0.15164204 -0.29266375 0.47902974 -0.037697211 0.87698883 0.17575006
-0.053771112 0.15455858 -0.29266375 -0.02983267 -0.044797834 0.99855053 0.18364167
-0.045663595 0.15200122 -0.29266375 -0.054154828 -0.075424097 0.99567986 0.15608765
-0.035283707 0.15184364 -0.29266375 -0.078927219 -0.097204804 0.99212992 0.20645112
-0.028435245 0.15129019 -0.29266375 -0.13386346 -0.01046793 0.9909445 0.24313268
-0.019639716 0.15085465 -0.29266375 -0.055574555 -0.30127165 0.95191747 0.21900503
0.0014292933 0.15815336 -0.29266375 0.016450165 0.055493247 0.99832356 0.23454393
0.011346975 0.15119547 -0.29266375 0.2052277 0.28724086 0.93561441 0.2422518
0.025948789 0.1537715 -0.29266375 0.0061640944 -0.10411433 0.99454623 0.21579708
0.03507673 0.15659478 -0.29266375 -0.089130193 -0.18947962 0.97783101 0.25777936
0.048014861 0.15499102 -0.29266375 0.033673201 -0.1954778 0.9801299 0.18264049
0.05198504 0.15387076 -0.29266375 0.092209719 -0.28665021 0.95358747 0.20600639
0.06719996 0.15602647 -0.29266375 0.35265118 -0.069813244 0.93314695 0.2426742
0.074569069 0.15577888 -0.29266375 0.06875553 0.0011941508 0.9976328 0.23123582
0.081333965 0.15151374 -0.29266375 -0.26205215 -0.14252432 0.95447129 0.23515087
0.095664024 0.15641516 -0.29266375 -0.075131245 0.22941369 0.97042501 0.21459635
0.10659369 0.15627021 -0.29266375 -0.017539408 -0.14639442 0.98907083 0.2367737
0.13578124 0.15759017 -0.29266375 -0.0023071617 0.090850636 0.99586189 0.19260554
0.14404167 0.15112722 -0.29266375 0.27669576 -0.46164453 0.84280717 0.21007839
0.15195784 0.15523569 -0.29266375 0.13122493 -0.34349489 0.92994148 0.27370718
0.1633341 0.15206638 -0.29266375 -0.11643951 -0.2743035 0.95456761 0.21503435
0.17398252 0.1541224 -0.29266378 0.063288838 -0.031202616 0.99750733 0.21158049
0.18939105 0.15558463 -0.29266375 -0.20833133 -0.26766181 0.94072056 0.29052135
0.19417965 0.15561911 -0.29266375 -0.40924612 -0.79458529 -0.44849956 0.2410731
0.20196784 0.15211931 -0.29266375 0.1890071 0.61444634 0.7659843 0.2447411
0.21210265 0.15509947 -0.29266375 -0.25525692 -0.16306083 0.95302421 0.23452768
0.22648329 0.15527746 -0.29266375 0.20581882 0.072222658 0.97592127 0.23006293
0.2367882 0.15719168 -0.29266375 -0.17037885 0.19270937 0.96635091 0.2167668
0.24421272 0.15562007 -0.29266375 -0.17827217 0.23107097 0.95646501 0.20919554
0.25168794 0.1522374 -0.29266375 -0.13878234 0.068863027 0.98792577 0.20940733
0.26631516 0.15949 -0.29266375 -0.03185733 -0.18542573 0.98214167 0.24005994
0.27487123 0.15340334 -0.29266375 0.15444562 0.15284535 0.97610706 0.23589331
0.29149646 0.15425496 -0.29266375 0.24706538 0.17230326 0.95355666 0.13407592
0.30296227 0.15288801 -0.29266375 -0.15764649 0.023690037 0.98721147 0.034293365
0.32481194 0.15867826 -0.29266375 -0.78950804 -0.027737359 0.61311316 0.06547977
-0.32712787 0.16252987 -0.29006433 0.72736394 -0.1192596 0.67580974 0.1057495
-0.31361747 0.16814633 -0.29266375 0.29340234 0.050166212 0.95467192 0.051488928
-0.30488494 0.16512497 -0.29266375 0.057409488 0.023801889 0.9980669 0.10532832
-0.29807881 0.16004775 -0.29266375 -0.21511489 0.14396819 0.9659186 0.17403604
-0.28297877 0.16596755 -0.29266375 -0.017470758 0.10071596 0.99476177 0.20617171
-0.27355331 0.16736181 -0.29266375 0.081450619 -0.019776434 0.99648124 0.22417752
-0.26217037 0.16524461 -0.29266375 -0.54567701 -0.18207099 0.81797719 0.2089631
-0.24275762 0.16122855 -0.29266375 -0.035529841 -0.10797377 0.99351859 0.22226667
-0.23187172 0.16681981 -0.29266375 0.58985025 -0.63234073 0.50221694 0.28137472
-0.22334833 0.16270937 -0.29266375 0.37816197 0.3769266 0.84552938 0.2267552
-0.21807028 0.16698033 -0.29266375 0.22824968 0.43528503 0.87087834 0.22077571
-0.20663534 0.16460937 -0.29266375 0.13883778 0.14233203 0.98003346 0.25578749
-0.19549993 0.16532098 -0.29266375 0.16719761 -0.024887977 0.98560923 0.22165494
-0.182266 0.16710685 -0.29266375 0.11338105 0.09499865 0.98899955 0.21613902
-0.17508675 0.16389713 -0.29266375 0.14671296 0.11238531 0.98277402 0.20528151
-0.16225863 0.16335693 -0.29266375 -0.084870934 0.13233297 0.98756504 0.17959167
-0.15257403 0.16654924 -0.29266375 -0.069760814 -0.026773691 0.99720442 0.17958379
-0.14626214 0.16830716 -0.29266375 0.0039306385 -0.032664973 0.99945867 0.19342583
-0.13386445 0.16315655 -0.29266375 -0.0013526249 -0.11138235 0.99377668 0.1588721
-0.12481979 0.16444248 -0.29266375 0.021260239 -0.11114 0.9935773 0.18350428
-0.11609596 0.16980149 -0.29266375 -0.12813005 -0.015390885 0.99163789 0.19118978
-0.10882459 0.16426408 -0.29266375 -0.51828229 0.025696419 0.85482353 0.2222712
-0.095006756 0.16485476 -0.29266375 -0.28287145 -0.12425862 0.9510749 0.23688684
-0.074420311 0.16365723 -0.29266375 0.33315319 -0.0080910996 0.94283795 0.23930092
-0.065522432 0.1638573 -0.29266375 0.39884374 -0.11546053 0.90972114 0.19641201
-0.058094326 0.16416678 -0.29266375 -0.084111199 -0.14688769 0.98557049 0.18431
-0.044346731 0.16959178 -0.29266375 -0.16249488 -0.054404035 0.98520839 0.21589945
-0.034514938 0.16471012 -0.29266375 -0.26321658 0.072657198 0.96199691 0.19586402
-0.026011471 0.16585906 -0.29266375 0.12070017 -0.18510735 0.97527772 0.2624822
-0.014121637 0.16631585 -0.29266375 0.17490765 -0.059997521 0.98275506 0.22694218
-0.0016770443 0.1632708 -0.29266375 0.035989244 0.064455628 0.99727136 0.22707783
0.016860124 0.16586746 -0.29266375 0.5501644 0.04385823 0.83390379 0.25548917
0.025109157 0.16812286 -0.29266375 -0.058484342 -0.084171318 0.99473351 0.25238967
0.030257422 0.16279832 -0.29266375 -0.29321259 -0.11068867 0.94961798 0.23539299
0.053023506 0.16649623 -0.29266375 -0.18377514 0.074360862 0.98015159 0.23201376
0.065547884 0.16501877 -0.29266375 0.56273818 0.157811 0.81143165 0.24013993
0.076645754 0.16651277 -0.29266375 -0.33272642 0.0723527 0.94024372 0.24006438
0.087395951 0.16459222 -0.29266375 0.095362492 -0.077092104 0.99245286 0.22361569
0.094527043 0.16112617 -0.29266375 -0.12903765 -0.13137218 0.98289907 0.2349028
0.10865214 0.16588199 -0.29266375 0.1667027 0.25160494 0.95336521 0.22685221
0.115549 0.16558547 -0.29266375 0.017555639 0.080879621 0.99656928 0.20515104
0.12000587 0.16372636 -0.29266375 0.013258745 0.049457788 0.99868822 0.23794504
0.13790229 0.16004394 -0.29266375 -0.14116523 -0.15678851 0.97749156 0.20360611
0.14272925 0.16584036 -0.29266375 -0.057622131 -0.45685342 0.88767362 0.20910698
0.15568867 0.16239199 -0.29266375 -0.030166239 -0.083356328 0.99606305 0.22011681
0.16847961 0.16734862 -0.29266375 0.0090609835 0.041867021 0.99908215 0.20764785
0.17118815 0.16979726 -0.29266375 -0.01337138 0.12099808 0.99256271 0.21798223
0.18623261 0.16659312 -0.29266375 0.14375 0.22583409 0.96350133 0.22199656
0.19244301 0.16312744 -0.29266375 -0.37484777 -0.068081461 0.92458314 0.25651783
0.2084654 0.1648232 -0.29266375 0.19724827 0.024045326 0.98005867 0.24280828
0.22475708 0.16304484 -0.29266375 0.19304241 -0.042534236 0.980268 0.17482059
0.24566783 0.16860846 -0.29266375 -0.28334451 -0.099783994 0.9538129 0.22076119
0.25390154 0.16809751 -0.29266375 0.092560172 -0.35762596 0.92926651 0.28262308
0.26586744 0.16827442 -0.29266375 -0.10533322 0.35432759 0.92916995 0.22466554
0.27498883 0.16572116 -0.29266375 -0.21190032 -0.075057343 0.97440475 0.29590172
0.28959039 0.16535163 -0.29266375 0.44838792 -0.24777311 0.85881132 0.1701851
0.29258332 0.1642049 -0.29266375 0.20868506 -0.073169276 0.97524196 0.11951334
0.31202918 0.16986945 -0.29266375 -0.31209117 0.051984664 0.9486289 0.055811472
0.32510188 0.16907543 -0.29218644 -0.81927776 0.0070172693 0.57335395 0.066286705
-0.31109366 0.1726269 -0.29266375 0.21676286 0.042202786 0.97531164 0.042904321
-0.30271375 0.17600556 -0.29266375 -0.0094871363 0.00084028183 0.9999547 0.12895535
-0.29293409 0.17471559 -0.29266375 -0.21809636 0.20700212 0.95372117 0.18085228
-0.28001317 0.17725265 -0.29266375 -0.18036665 0.26044494 0.94849157 0.24030852
-0.27275193 0.17276096 -0.29266375 0.19279809 -0.063503891 0.97918135 0.24394278
-0.25171191 0.17734042 -0.29266375 -0.094076335 0.34431767 0.93412787 0.227815
-0.24393028 0.17493698 -0.29266375 0.17511895 0.52731854 0.83142555 0.22322604
-0.22476619 0.17979237 -0.29266375 -0.17727001 0.26218382 0.94859636 0.24044865
-0.21507072 0.17564423 -0.29266375 0.32025468 -0.013081406 0.94724119 0.25326562
-0.20030355 0.17652306 -0.29266375 0.073201954 0.39596125 0.91534477 0.19950074
-0.18815181 0.17575058 -0.29266375 0.084252045 0.24124862 0.9667992 0.21048601
-0.17640831 0.17419015 -0.29266375 0.24486557 0.039451487 0.96875411 0.20442699
-0.16678929 0.17250896 -0.29266375 -0.0422723 0.064368322 0.9970305 0.18880041
-0.15686822 0.17133124 -0.29266375 -0.11897869 0.12456552 0.98505205 0.18154076
-0.14042689 0.17476761 -0.29266375 0.10468286 -0.049404569 0.99327773 0.19513348
-0.12422611 0.17098556 -0.29266375 -0.0016077985 -0.11152834 0.99375993 0.17067346
-0.11353179 0.17545201 -0.29266375 -0.2229314 0.39369777 0.89179796 0.23031196
-0.10422036 0.17652604 -0.29266375 -0.052889489 -0.75781894 0.65031779 0.27207696
-0.094798669 0.17313848 -0.29266375 -0.19746631 0.011208696 0.98024559 0.27505931
-0.083132662 0.179865 -0.29266375 0.2477096 -0.018710123 0.96865368 0.20841241
-0.077821001 0.17142382 -0.29266375 -0.059683245 0.040720776 0.99738646 0.21615665
-0.06135105 0.17404774 -0.29266375 0.069826283 -0.03509628 0.99694157 0.19900937
-0.057349127 0.17519873 -0.29266375 -0.040042035 -0.052062906 0.99784076 0.22816324
-0.042916346 0.17530876 -0.29266375 0.003856262 -0.16062582 0.9870078 0.23191975
-0.02637155 0.17112508 -0.29266375 -0.079630762 0.055281647 0.99529028 0.25947157
-0.014627579 0.1738447 -0.29266375 -0.40232587 -0.14951544 0.90320492 0.26379332
0.0070053111 0.17266193 -0.29266375 0.33137813 -0.14548385 0.93221402 0.22318882
0.017450249 0.17314807 -0.29266375 -0.3720611 0.056140289 0.92650896 0.2376768
0.033622012 0.1728458 -0.29266375 -0.26176172 -0.079839893 0.96182448 0.23423421
0.058440927 0.17528977 -0.29266375 0.19594865 -0.14238968 0.97022128 0.23865151
0.067883529 0.17131689 -0.29266375 0.40909907 -0.37244961 0.83301818 0.22437133
0.072229899 0.17029178 -0.29266375 0.026960587 -0.27823913 0.96013337 0.22424459
0.083554901 0.17102477 -0.29266375 -0.17941001 -0.20291394 0.96262038 0.22387505
0.096546195 0.17350321 -0.29266375 0.08394096 -0.38801646 0.91782194 0.23663357
0.112291 0.17449962 -0.29266375 -0.069378838 0.46074903 0.88481456 0.20571162
0.12487473 0.17598855 -0.29266375 -0.33390898 0.056161586 0.94093072 0.22317627
0.13443743 0.17424795 -0.29266375 -0.13435167 -0.10986462 0.98482448 0.22364138
0.15843481 0.17219166 -0.29266375 0.081855036 -0.056333333 0.99505091 0.19802128
0.17899325 0.17128429 -0.29266375 -0.28106111 -0.011442694 0.95962167 0.23070313
0.1896223 0.17849937 -0.29266375 -0.023351364 -0.039015666 0.99896568 0.20376317
0.19504714 0.17826758 -0.29266375 -0.015582546 0.036009599 0.99923003 0.21210663
0.21757638 0.17260595 -0.29266375 0.058426332 -0.030755436 0.99781787 0.21141084
0.22304085 0.17573175 -0.29266375 0.038459931 -0.21997193 0.97474778 0.23256281
0.23256609 0.17799826 -0.29266375 -0.0076010767 -0.21158874 0.97732919 0.22043505
0.24566695 0.17451602 -0.29266375 -0.19967183 -0.19935244 0.95936942 0.20745426
0.26207632 0.1777429 -0.29266375 -0.21695568 0.083478965 0.97260547 0.21638338
0.27962151 0.1742124 -0.29266375 0.40539363 0.22321165 0.88647199 0.22630782
0.28632247 0.17600265 -0.29266375 0.20515858 0.055400837 0.97715956 0.19574969
0.30768058 0.17202184 -0.29266375 -0.26641014 0.037048653 0.96314746 0.057316583
0.31150126 0.1736851 -0.29266375 -0.34115186 0.013014742 0.93991816 0.067850545
-0.32632843 0.18033704 -0.29259479 0.73569053 0.0094826128 0.67725146 0.10430536
-0.31937057 0.18194303 -0.29266375 0.46348447 -0.03946355 0.88522583 0.11460064
-0.30516899 0.18453878 -0.29266375 0.078427173 0.012982613 0.99683535 0.072899267
-0.29419473 0.18345326 -0.29266375 -0.16250968 -0.013650808 0.9866125 0.20243935
-0.28481901 0.18575783 -0.29266375 0.22733253 -0.45995334 0.85834903 0.24747291
-0.27153945 0.18550675 -0.29266375 0.15285115 0.20909871 0.96587485 0.22788303
-0.26523715 0.18049955 -0.29266375 -0.11202581 0.096778095 0.98898137 0.20648777
-0.25503862 0.18720984 -0.29266375 -0.26371855 0.19383551 0.94492352 0.23293781
-0.23464108 0.18387568 -0.29266375 0.26612833 0.17939481 0.94709724 0.23506273
-0.22455721 0.18374336 -0.29266375 0.04468812 0.023848759 0.99871624 0.23963733
-0.21157126 0.18993618 -0.29266375 0.30063537 -0.061540566 0.95175153 0.17722557
-0.20561583 0.18282077 -0.29266375 0.14979771 0.25078046 0.95638371 0.24826728
-0.19769225 0.18824112 -0.29266375 -0.0048658545 0.18362708 0.98298389 0.17229174
-0.18459867 0.18546063 -0.29266375 -0.04549982 0.12068552 0.99164748 0.22138487
-0.17182089 0.1843195 -0.29266375 0.12307553 -0.0040846448 0.9923889 0.16678548
-0.16459124 0.18593329 -0.29266375 -0.081075862 -0.050394598 0.99543315 0.20486571
-0.15367718 0.18374938 -0.29266375 0.025926908 -0.051060069 0.99835891 0.17188141
-0.14759421 0.18882228 -0.29266375 0.031356774 -0.077762671 0.99647868 0.19686644
-0.13441655 0.1837222 -0.29266375 6.1975484e-06 -0.10357504 0.99462169 0.22112358
-0.12586892 0.18654042 -0.29266375 -0.057140563 -0.072060324 0.99576217 0.20616925
-0.11405681 0.18286628 -0.29266375 -0.20034227 -0.066065669 0.97749597 0.20424132
-0.1074371 0.1849736 -0.29266375 -0.35295111 -0.26846123 0.89630026 0.20626563
-0.096366897 0.18429084 -0.29266375 -0.39058807 -0.33639616 0.85690051 0.23663433
-0.088033408 0.18316977 -0.29266375 -0.090857416 -0.77695072 0.6229707 0.2355874
-0.060927283 0.18141839 -0.29266375 -0.15509488 0.022810604 0.98763621 0.23299421
-0.055170804 0.18193039 -0.29266375 -0.14035256 -0.042445321 0.98919129 0.22275236
-0.047698334 0.18748406 -0.29266375 0.37970433 0.024656666 0.9247793 0.24065359
-0.034297194 0.18537112 -0.29266378 -0.10793851 -0.020813586 0.99393964 0.21646057
-0.023203872 0.18358016 -0.29266375 -0.082955398 0.039827898 0.99575704 0.24703476
-0.014849785 0.18641269 -0.29266375 0.37598136 -0.033958539 0.92600477 0.24199426
-0.0027470165 0.18420732 -0.29266375 -0.10800026 0.10777341 0.98829186 0.21437772
0.0051396121 0.18695651 -0.29266375 -0.036806885 0.020455522 0.99911302 0.19650902
0.028790766 0.18626349 -0.29266375 -0.36425054 0.239755 0.89991057 0.23353687
0.034204587 0.18629034 -0.29266375 -0.14081278 0.069961093 0.98756123 0.19861801
0.052698966 0.18496339 -0.29266375 0.19772981 0.33109945 0.92264616 0.22694941
0.063323729 0.18613331 -0.29266375 0.42771676 0.27003664 0.86263466 0.24446389
0.071433097 0.181941 -0.29266375 0.044371683 0.17167018 0.9841547 0.26349619
0.087065168 0.18316472 -0.29266375 0.002385099 -0.50740719 0.86170316 0.24074206
0.09676785 0.18550947 -0.29266375 0.12644497 -0.30187505 0.94492495 0.18786739
0.1076363 0.18309146 -0.29266375 0.28207079 -0.14673838 0.94810539 0.19531578
0.12286666 0.18246561 -0.29266375 -0.36102018 0.19578668 0.9117741 0.25108188
0.13494997 0.18251026 -0.29266375 -0.088360988 -0.16060346 0.98305589 0.23112889
0.15568063 0.18461269 -0.29266375 0.16190605 -0.22860822 0.95996082 0.2435078
0.16811669 0.1831447 -0.29266375 0.3049441 -0.038944215 0.95157361 0.24451181
0.1736102 0.18569012 -0.29266375 -0.065303132 -0.40625936 0.9114213 0.24819715
0.18584405 0.18949634 -0.29266375 0.54674071 -0.13055228 0.82706147 0.24450471
0.20839612 0.18359533 -0.29266375 0.049450215 0.17186949 0.98387784 0.21564969
0.2164672 0.1828274 -0.29266375 -0.74468881 -0.11634229 0.65719336 0.24064285
0.2284655 0.18579692 -0.29266375 -0.18783334 -0.19952373 0.96172178 0.18438166
0.24798214 0.18123195 -0.29266375 -0.067251526 0.018627033 0.99756217 0.23884411
0.25009727 0.18543148 -0.29266375 0.37726945 -0.48263717 0.79039806 0.24901833
0.26789975 0.18897125 -0.29266375 -0.42432806 0.14651047 0.89357728 0.21501541
0.27959663 0.18847661 -0.29266375 0.17827587 0.18606274 0.9662289 0.24409097
0.30584449 0.18417442 -0.29266375 -0.17279114 -0.014194814 0.98485619 0.040786888
0.31432119 0.18596303 -0.29266375 -0.4907378 -0.10363063 0.86512262 0.089150801
0.32254657 0.18444443 -0.29266375 -0.7129131 -0.11044595 0.69250041 0.073880531
-0.32569012 0.19455472 -0.29219863 0.82347131 0.19113141 0.53419447 0.10661419
-0.3167074 0.19197538 -0.29266375 0.39571634 -0.035898641 0.91767091 0.089585766
-0.30081031 0.1926637 -0.29266375 -0.07374344 -0.0093396492 0.99723345 0.095056996
-0.29428336 0.19830151 -0.29266375 -0.25674605 0.15444621 0.95405865 0.16853973
-0.28155914 0.19749625 -0.29266375 0.055668622 0.055331755 0.99691492 0.24282053
-0.27384451 0.19214052 -0.29266375 0.054309104 -0.23849285 0.96962452 0.22283636
-0.2693069 0.19118844 -0.29266375 -0.08927568 -0.307082 0.94748646 0.2429547
-0.25201848 0.19657604 -0.29266375 -0.20167315 0.13610473 0.96995026 0.24275975
-0.24499553 0.19567026 -0.29266375 -0.1286772 0.17074041 0.97687769 0.21976794
-0.22608997 0.19110882 -0.29266375 -0.013464148 0.071719281 0.997334 0.21620929
-0.2160352 0.19644912 -0.29266375 0.063353099 -0.0042446591 0.99798208 0.23004752
-0.2026647 0.19447061 -0.29266375 0.14437135 -0.094319895 0.98501807 0.23006132
-0.19129777 0.19252789 -0.29266375 -0.015939889 0.0022034023 0.99987048 0.19765201
-0.1825833 0.19180872 -0.29266375 -0.072754458 0.14451976 0.98682356 0.21166873
-0.17877617 0.19701868 -0.29266375 -0.084890611 0.046309754 0.99531353 0.20329402
-0.16833839 0.19074789 -0.29266375 0.13530399 -0.061980676 0.98886359 0.1807811
-0.15839723 0.19600153 -0.29266375 -0.15087208 -0.12511711 0.98060352 0.18209915
-0.1434243 0.19205505 -0.29266375 0.024482487 -0.052851293 0.99830222 0.19279331
-0.13386022 0.19507293 -0.29266375 -0.15846793 -0.18787573 0.96932483 0.20885426
-0.12556796 0.19568025 -0.29266375 -0.030007347 -0.095952585 0.99493349 0.21752177
-0.11734865 0.19448 -0.29266375 -0.17382097 -0.32355934 0.93010515 0.23162478
-0.090117969 0.19205223 -0.29266375 -0.73894608 0.061434332 0.67095786 0.2407413
-0.077227727 0.19651651 -0.29266375 0.14964959 -0.16807325 0.9743492 0.18422358
-0.056356251 0.19613564 -0.29266375 0.19886918 0.10418461 0.97447252 0.24816689
-0.047265261 0.19503208 -0.29266375 -0.31166983 0.1174246 0.94290686 0.23374787
-0.027122557 0.19222468 -0.29266375 -0.11058618 -0.13351196 0.98485792 0.22146842
-0.015281647 0.19490486 -0.29266375 0.18430457 0.088733695 0.97885555 0.22699082
0.009289531 0.19853227 -0.29266375 0.093576476 0.080721892 0.99233431 0.2404041
0.016059283 0.19551164 -0.29266375 0.072021358 0.042129688 0.99651295 0.20980813
0.029683221 0.19090652 -0.29266375 -0.080364168 0.086192496 0.99303192 0.24085845
0.030137092 0.19906434 -0.29266375 0.07582216 0.086782396 0.99333769 0.22881666
0.06813594 0.1917311 -0.29266375 0.48446247 0.06364204 0.87249404 0.22679254
0.075308517 0.19626272 -0.29266375 -0.30352026 -0.03430137 0.95220733 0.19868846
0.091072276 0.19397429 -0.29266375 -0.015971681 -0.23357613 0.97220731 0.2227264
0.1052587 0.19333553 -0.29266378 0.33022472 -0.0098084966 0.94385135 0.2145035
0.11379611 0.19359139 -0.29266375 -0.052967332 -0.12698989 0.99048877 0.1539046
0.12557781 0.19205558 -0.29266375 -0.43035114 0.068106838 0.90008855 0.23016846
0.13332717 0.19535202 -0.29266375 -0.4978562 0.26020202 0.82730538 0.21874213
0.14329164 0.19794996 -0.29266375 -0.10204729 -0.21047248 0.9722591 0.23950091
0.15296355 0.19427496 -0.29266375 -0.26701373 -0.072553955 0.96095765 0.24793839
0.16657953 0.19595256 -0.29266375 0.13842356 -0.12506855 0.98244429 0.19975501
0.17062485 0.19881999 -0.29266375 0.19165458 -0.21527037 0.9575631 0.23013632
0.18520993 0.19083953 -0.29266375 0.42106971 -0.14851931 0.89478618 0.24615701
0.19627321 0.19454743 -0.29266375 -0.050659623 0.12069893 0.99139571 0.20807788
0.20422137 0.19323462 -0.29266375 0.25448021 -0.019554947 0.96688026 0.26133201
0.21709667 0.19272071 -0.29266375 -0.31168175 0.079148188 0.94688439 0.22461407
0.24531761 0.19864689 -0.29266375 0.21801892 0.0471715 0.97480392 0.20418176
0.25346884 0.19099067 -0.29266375 0.2373165 -0.094711788 0.96680427 0.24247582
0.26544848 0.19734518 -0.29266375 -0.011063655 -0.015378737 0.99982041 0.25627488
0.27605927 0.19580659 -0.29266375 0.081203252 0.1823993 0.97986555 0.20904329
0.28358629 0.1953059 -0.29266375 -0.097751275 0.23851153 0.9662075 0.23540705
0.29767269 0.19358341 -0.29266375 0.12950964 -0.011406334 0.9915126 0.088648677
0.30215216 0.19697715 -0.29266375 -0.052040678 -0.010521283 0.99858958 0.0043656183
0.31833982 0.19540134 -0.29266375 -0.66369992 -0.030049073 0.7473951 0.073429927
0.32300928 0.19550294 -0.29223022 -0.69274724 -0.0088389041 0.72112632 0.072324462
-0.32129067 0.2054584 -0.29266375 0.36259294 -0.12956879 0.92289668 0.074822031
-0.31671005 0.20664117 -0.29266375 0.36865345 -0.081491247 0.92598802 0.073061123
-0.29480201 0.20156428 -0.29266375 -0.16224144 0.050078813 0.98547941 0.16201599
-0.28256661 0.20926872 -0.29266375 -0.42215583 0.31517094 0.84997165 0.23916432
-0.26647726 0.20593159 -0.29266375 0.055396304 0.022974204 0.99820012 0.20480667
-0.25124922 0.20106177 -0.29266375 -0.043481249 0.19197868 0.98043543 0.24584216
