# .PCD v0.7 - Point Cloud Data file format
VERSION 0.7
FIELDS x y z normal_x normal_y normal_z curvature
SIZE 4 4 4 4 4 4 4
TYPE F F F F F F F
COUNT 1 1 1 1 1 1 1
WIDTH 578
HEIGHT 1
VIEWPOINT 0 0 0 1 0 0 0
POINTS 578
DATA ascii
-0.39887142 0.11449503 -0.2870225 0.85750943 -0.37026611 0.35718414 0.0091608828
0.10747749 0.11527337 -0.28883928 -0.86324286 -0.33012715 0.38187414 0.014000338
0.18815164 0.11418968 -0.28248733 -0.92552036 -0.3786903 -0.0024121411 3.8963273e-05
-0.47396159 0.12549636 -0.285492 0.92387491 -0.38269463 -0.00016209713 9.2909497e-05
-0.39354485 0.12735441 -0.28672838 0.85163116 -0.40394649 0.33399332 0.012323819
0.1836403 0.12508099 -0.28219086 -0.92388606 -0.38266763 -1.7176004e-05 3.6693331e-05
-0.46858323 0.13848098 -0.28520137 0.9238711 -0.38270381 -0.00010885392 7.4240648e-05
-0.3918052 0.13337004 -0.28397387 0.85068154 -0.44754285 0.275765 0.0097540496
0.10020816 0.13661647 -0.28339595 -0.86311877 -0.44589025 0.23708178 0.0085300785
0.1783531 0.1378454 -0.28986669 -0.92387468 -0.38269526 -3.4372948e-05 0
0.18001449 0.13383445 -0.28333205 -0.92387807 -0.38268691 -4.3753265e-05 2.6127849e-05
-0.46671191 0.14299868 -0.28219539 0.92381305 -0.38284376 0.00010725879 0
-0.3870171 0.14284424 -0.28439832 0.82948327 -0.49327832 0.26198089 0.010420672
0.089752287 0.14970711 -0.28891867 -0.76707637 -0.54969674 0.33079803 0.012237247
0.094990984 0.14489675 -0.28416044 -0.81377274 -0.51071072 0.27739587 0.012376611
0.17595479 0.14363541 -0.28936115 -0.92389131 -0.38265491 -7.7715675e-05 3.5126013e-05
-0.46182132 0.15480565 -0.2833336 0.92133129 -0.38877809 0.00057239167 8.0049613e-05
-0.38036117 0.15053335 -0.28715172 0.76887494 -0.54921877 0.32739896 0.0075961458
0.086390622 0.15636376 -0.28314039 -0.78142917 -0.57982188 0.23059745 0.0092639523
0.090267986 0.15162742 -0.28297204 -0.79223621 -0.55700296 0.2492177 0.010437247
0.1694833 0.15925896 -0.28790331 -0.91727823 -0.39823654 0.0028901007 0.00030581301
0.17200328 0.15317516 -0.2896522 -0.92341453 -0.38380393 0.00043722265 2.2488475e-05
-0.45763242 0.16491859 -0.28410575 0.91092539 -0.41256279 -0.0026361903 0.00074223499
-0.37038332 0.16467619 -0.28444168 0.76152998 -0.61304229 0.21035992 0.0079308758
0.077646717 0.16701281 -0.28538468 -0.76000452 -0.58794034 0.27698269 0.0093438234
-0.4528091 0.17604443 -0.28633437 0.87957168 -0.47575247 0.0036375513 0.0020118204
-0.3648116 0.17204842 -0.2840988 0.76530367 -0.60280538 0.22569007 0.0081125489
0.067916334 0.17905419 -0.28730893 -0.7387234 -0.56823546 0.36248618 0.013820685
0.073113047 0.1735657 -0.28410888 -0.77607912 -0.58642417 0.23196538 0.0082297018
0.1649223 0.17027017 -0.28119409 -0.89161694 -0.45279005 0.00051794201 0.0019723871
-0.45015886 0.18039136 -0.28127337 0.86227196 -0.50635594 -0.0095281005 0.0025268923
-0.44845986 0.1826055 -0.28252631 0.83598828 -0.54873312 0.0039627338 0.0024607137
-0.35408974 0.1852116 -0.28632787 0.73825419 -0.5927459 0.3219209 0.0096792225
0.064833045 0.18396434 -0.2850461 -0.7545014 -0.6068756 0.24985944 0.0063193189
0.15788352 0.1827136 -0.28393954 -0.849204 -0.52795434 0.010805065 0.0022061274
-0.34392729 0.19977397 -0.28150553 0.72065526 -0.67570966 0.15515268 0.007742615
0.056743018 0.19537343 -0.28274816 -0.71864545 -0.64998525 0.24711926 0.0070189578
-0.43103504 0.20531388 -0.28320655 0.79335034 -0.60876542 -7.5943215e-05 0
-0.33895615 0.20334634 -0.28247958 0.61958593 -0.75872481 0.20112149 0.01088006
0.039298244 0.20864081 -0.28803727 -0.57968503 -0.7617352 0.28935239 0.010033634
0.046280861 0.2045629 -0.2840091 -0.64097309 -0.72159129 0.26164767 0.0082903672
0.050355934 0.20051686 -0.2871865 -0.6605919 -0.68724972 0.3021692 0.0084277466
0.13772562 0.20898394 -0.28025156 -0.79335016 -0.60876566 3.5961832e-05 0
0.14202662 0.20337877 -0.28730237 -0.79336226 -0.60874993 -1.6565837e-05 1.0661528e-05
-0.32520956 0.21422522 -0.28114903 0.57572776 -0.78408134 0.23184885 0.0063602105
0.035623565 0.21375039 -0.28013772 -0.58879185 -0.791592 0.16342008 0.0042569567
0.13305283 0.21507367 -0.28546992 -0.7933526 -0.60876244 1.0845989e-07 1.280373e-05
-0.41675505 0.22392397 -0.28322753 0.79331034 -0.60881752 -2.6982138e-05 0
0.018120207 0.22664815 -0.28240275 -0.59332985 -0.7866655 0.17063726 0.0046865842
0.021868221 0.22299126 -0.28528446 -0.59762549 -0.78033125 0.18419237 0.0059972284
-0.41028577 0.23235489 -0.28033164 0.7884801 -0.61505735 -0.0018910866 0.00017657276
-0.29542485 0.23573974 -0.2859849 0.56604344 -0.78786618 0.24261446 0.0096565997
-0.28932652 0.23995575 -0.28741267 0.51024127 -0.81122524 0.28560024 0.011660208
0.0041202861 0.23532617 -0.28876251 -0.53462881 -0.78118104 0.3223789 0.018098757
0.11649564 0.23665145 -0.28150973 -0.77824724 -0.62795436 -0.0021512976 0.00050138833
-0.40002251 0.24573019 -0.28435004 0.74486941 -0.66714054 0.009641842 0.0021519053
-0.28592902 0.24360527 -0.28421056 0.47219548 -0.8517651 0.22699714 0.0099801254
-0.27014595 0.24993728 -0.28521556 0.38430539 -0.87572366 0.29226261 0.011636378
-0.26735181 0.24995062 -0.28868458 0.36426824 -0.85017526 0.38014561 0.012947368
-0.00096392172 0.24017259 -0.28653437 -0.50590849 -0.82153672 0.26293343 0.0084870392
0.10835695 0.24725801 -0.28457874 -0.74675554 -0.66509295 0.0027490554 0.0013892771
-0.26535565 0.25191399 -0.2848646 0.36625749 -0.88553452 0.28580415 0.010539375
-0.25367478 0.2567617 -0.28436372 0.34931302 -0.8950876 0.27712563 0.010085339
-0.24997893 0.25821733 -0.2855593 0.37769806 -0.88396627 0.2755864 0.0091125742
-0.035117339 0.25674939 -0.28196344 -0.32396767 -0.9010064 0.28850031 0.010350031
-0.024207197 0.25173694 -0.28427446 -0.37278751 -0.88755751 0.27068642 0.0056902491
0.10392534 0.25213495 -0.28560054 -0.70865649 -0.70549184 -0.0093361214 0.0018803158
-0.37759918 0.26504093 -0.28584316 0.61823535 -0.7859931 -0.0001146806 0.00015618505
-0.23565447 0.26491925 -0.28195918 0.34377334 -0.912907 0.22004716 0.0075882003
-0.22534466 0.26776814 -0.28702748 0.31653559 -0.89454055 0.31559843 0.01031933
-0.066499442 0.267737 -0.28915972 -0.27925989 -0.8902564 0.35980201 0.0092499303
-0.053115666 0.26214641 -0.28928828 -0.34160948 -0.85651344 0.38689494 0.0089337453
-0.047936261 0.26163614 -0.28387812 -0.36973149 -0.88503981 0.28284833 0.0092100296
0.092034392 0.26125914 -0.28746006 -0.63281363 -0.7742883 0.0049606045 0.00059322309
-0.36972746 0.27108112 -0.28729993 0.6088379 -0.79329461 1.9952295e-05 3.0423331e-05
-0.21134357 0.27171767 -0.28758931 0.19767058 -0.93889838 0.28177333 0.012096993
-0.20233539 0.27247319 -0.2888574 0.14235458 -0.94904435 0.28115833 0.0085944282
-0.18612659 0.27575123 -0.28485131 0.1309678 -0.96661878 0.22021696 0.0076345694
-0.1759004 0.27788711 -0.28114837 0.14940402 -0.96876019 0.19794504 0.0066639306
-0.16068974 0.2786696 -0.28675506 0.11354271 -0.94072127 0.31961152 0.011762187
-0.14032808 0.27898875 -0.2898967 -0.045637727 -0.94413316 0.32638901 0.010063387
-0.1370351 0.27933046 -0.2876128 -0.054936308 -0.94823503 0.31278148 0.0088699237
-0.12409306 0.27820632 -0.28518364 -0.13234486 -0.95614237 0.26129812 0.0085066408
-0.10856445 0.27632526 -0.28501043 -0.12334961 -0.95153069 0.28173426 0.0086892778
-0.091356173 0.27354106 -0.28695187 -0.1363268 -0.9448244 0.29786232 0.0081998976
-0.080782957 0.27339008 -0.28137904 -0.2058758 -0.95608455 0.20860873 0.0082317116
-0.074806236 0.27155858 -0.28492028 -0.22984511 -0.93717074 0.26245415 0.0091688232
0.073109001 0.27578112 -0.28589112 -0.60880548 -0.79331958 -4.5181278e-05 4.4926452e-05
-0.3515819 0.28500471 -0.28318077 0.60881025 -0.79331583 1.8107776e-05 1.6645279e-05
-0.15460652 0.28062201 -0.2814928 0.076562241 -0.9699918 0.23076826 0.010088396
-0.14962731 0.28145793 -0.28058589 0.013805585 -0.98331171 0.18140432 0.0081634074
0.058259726 0.28717536 -0.28403935 -0.60877079 -0.79334617 -1.9722092e-05 0
-0.34320498 0.29143256 -0.28579712 0.60602498 -0.79544562 -0.00020654887 9.9092758e-06
0.052582476 0.29153168 -0.28408891 -0.60805684 -0.7938934 0.00028966123 2.5694577e-05
-0.32096377 0.30791286 -0.28799334 0.47981331 -0.87732691 -0.0087602958 0.0024657692
-0.3183555 0.30899322 -0.28531051 0.43010467 -0.90273768 -0.0086490493 0.0012978324
0.025833165 0.30983365 -0.28358138 -0.45691529 -0.88950205 0.0038218598 0.0016540489
-0.30362684 0.31509405 -0.28601214 0.38521656 -0.92282623 0.00015284547 0.00010779943
-0.29737669 0.31768292 -0.28528261 0.38285178 -0.92380971 -4.4598364e-05 1.4163887e-05
0.012114318 0.3155162 -0.28149688 -0.38561442 -0.92265958 -0.00087221799 3.7539845e-05
0.020006437 0.31224716 -0.28655908 -0.41624895 -0.9092505 0.00062633218 0.00091494137
-0.29003587 0.32072359 -0.28107309 0.38258591 -0.92391992 -3.1179101e-05 4.9710525e-05
-0.28535849 0.32266104 -0.28470784 0.38250953 -0.92395157 -8.0279933e-05 0.00010977776
-0.27382064 0.3274402 -0.28369409 0.3826994 -0.92387289 -3.287835e-05 4.3746419e-05
-0.012629257 0.32576531 -0.28415152 -0.38268837 -0.92387748 -6.132367e-05 4.2959098e-05
-0.0046832734 0.322474 -0.28504175 -0.38271707 -0.92386562 9.6710479e-05 0
-0.26300916 0.33191845 -0.281681 0.3826834 -0.9238795 -1.9866364e-07 4.3217358e-05
-0.25707626 0.33437592 -0.2813887 0.37771606 -0.92592013 0.0015590881 0.00012206245
-0.045006897 0.33917657 -0.28101486 -0.30247927 -0.95310885 0.0094794128 0.0013699128
-0.23386621 0.34308639 -0.28548685 0.21583505 -0.97642088 -0.004179426 0.0022104252
-0.2266942 0.34403056 -0.2870484 0.15869546 -0.98732316 -0.0029496416 0.00053504569
-0.21336089 0.34578598 -0.28332394 0.13411696 -0.99096459 -0.0013284748 7.3464158e-05
-0.20551281 0.34681919 -0.28003362 0.13046049 -0.99145353 1.9097299e-06 2.8451445e-06
-0.19648668 0.3480075 -0.2863971 0.13049367 -0.99144912 -2.5826146e-05 3.5305355e-05
-0.18598594 0.34938991 -0.28684303 0.13064602 -0.99142903 4.9217684e-05 0
-0.1045944 0.34940138 -0.28558913 -0.13050076 -0.99144822 -3.7964295e-05 0
-0.067003921 0.3444525 -0.2862286 -0.17860408 -0.98390913 0.0048341621 0.00079973036
-0.055017799 0.34240365 -0.28456593 -0.24778855 -0.96876919 0.0093300799 0.0018055156
-0.17455217 0.35089523 -0.28216937 0.13055542 -0.99144101 -3.7006255e-05 1.1160591e-06
-0.16579282 0.35204843 -0.28445417 0.12669975 -0.99194068 0.00092381181 7.6830496e-05
-0.1522322 0.35383368 -0.28499973 0.034225926 -0.99931568 -0.014027743 0.0025018933
-0.143491 0.3545222 -0.28332961 -0.024665732 -0.99968195 -0.0052601672 0.0025174215
-0.12919401 0.35263994 -0.28792548 -0.10089689 -0.99487716 -0.0062738112 0.00067273248
-0.11964513 0.35138285 -0.28043628 -0.12934813 -0.99159914 -0.00044833758 9.5025407e-06
-0.1808815 -0.35006195 -0.27194896 0.13051468 0.99144638 -3.0180139e-05 0
-0.17613702 -0.35068658 -0.27278975 0.13055708 0.99144077 -7.4516567e-05 0
-0.16895539 -0.35163203 -0.27425948 0.11866831 0.9929325 -0.0016551757 0.00015491142
-0.15244043 -0.35380626 -0.27745306 0.057103917 0.99830061 -0.011623818 0.0014685518
-0.14038965 -0.35411391 -0.2765424 -0.0034018669 0.99966133 -0.025801759 0.0019450968
-0.13731119 -0.35370862 -0.27488077 -0.060466122 0.99808121 -0.013331832 0.00145103
-0.12945116 -0.35267383 -0.27391702 -0.10429132 0.99450564 -0.0090432633 0.00078963616
-0.22284092 -0.34453788 -0.27313066 0.14471932 0.98947072 0.0020457502 0.00020861761
-0.21001478 -0.34622651 -0.27693668 0.13067362 0.9914254 0.00015013784 0
-0.20510936 -0.34687227 -0.27704692 0.13052711 0.99144483 -8.4199826e-05 7.729318e-06
-0.19525783 -0.34816924 -0.27331141 0.13048942 0.99144971 7.7198303e-05 0
-0.18829976 -0.3490853 -0.27233291 0.13054273 0.99144274 -2.5116728e-05 0
-0.10104688 -0.34893432 -0.27278385 -0.13057069 0.99143898 -5.2663665e-05 4.2817657e-05
-0.095772132 -0.3482399 -0.27731687 -0.13055739 0.99144077 1.7120454e-05 0
-0.084348418 -0.34673595 -0.27513108 -0.1305121 0.99144673 5.0400056e-05 0
-0.074934579 -0.34549659 -0.2757667 -0.13742687 0.99050635 0.003322253 6.1013037e-05
-0.063390948 -0.34397686 -0.27668893 -0.18357715 0.98300469 0.0011409487 0.0015109272
-0.058450855 -0.34332648 -0.27204823 -0.20206121 0.97937292 -0.00018767362 0.0021358803
-0.25497192 -0.33524758 -0.27430975 0.37076497 0.92872638 -0.00076149858 8.2796862e-05
-0.035745937 -0.33534059 -0.27561101 -0.36245269 0.93198228 0.0060742628 0.00047876974
-0.026303226 -0.33142927 -0.27548531 -0.38267958 0.92388111 8.0671482e-05 0
-0.29102385 -0.32031438 -0.27387795 0.38269731 0.92387378 -2.5960808e-05 0
-0.28619027 -0.3223165 -0.27632317 0.38272974 0.92386037 -3.7275033e-05 0
-0.27368045 -0.32749826 -0.27649033 0.38269284 0.92387563 -0.00011232865 1.9568013e-05
-0.013149338 -0.32598078 -0.27512479 -0.38270736 0.92386961 -2.6968937e-05 3.660041e-05
-0.0052605886 -0.32271311 -0.27543566 -0.3827191 0.92386478 6.2179301e-05 5.3410808e-05
-0.31270009 -0.31133574 -0.27420598 0.44547972 0.89524221 -0.0094471928 0.0012742578
-0.3038688 -0.31499383 -0.2700485 0.40859634 0.91270715 -0.0038358115 0.00037885027
-0.29573014 -0.31836495 -0.27774337 0.38275886 0.92384821 -0.00014991565 0
0.015411595 -0.31415042 -0.27616349 -0.39142475 0.92020941 -0.0011357779 0.00011061464
0.022083223 -0.31138694 -0.27864915 -0.42037833 0.90728927 -0.010403484 0.0013858168
-0.3302519 -0.30137187 -0.27132115 0.53412712 0.84540069 -0.0023861544 0.0014081482
-0.32716584 -0.30373988 -0.27167422 0.52945644 0.84833688 0.00056622602 0.0015524791
0.033066392 -0.30650687 -0.27403516 -0.52128392 0.85327482 -0.013612764 0.0022979355
-0.33517981 -0.29759055 -0.2750082 0.57396615 0.81887853 -0.00090027926 0.00091962772
0.046173178 -0.29644972 -0.27244729 -0.5892548 0.80794311 0.0026062937 0.00051756145
-0.35606974 -0.28156111 -0.27544713 0.60874653 0.79336476 3.3549037e-05 2.6097288e-05
-0.15039918 -0.28178918 -0.27381733 0.050283469 0.99337995 0.10328531 0.0047468501
-0.14607646 -0.28180286 -0.27848908 0.022786388 0.98382264 0.17768988 0.006679452
-0.13442016 -0.28103188 -0.27468449 -0.093750037 0.99282986 0.074161366 0.0026005299
-0.12928344 -0.28036588 -0.27272555 -0.098994657 0.99273223 0.068431512 0.0020480533
0.055196557 -0.28952581 -0.27046978 -0.60875106 0.79336131 1.205814e-05 0
-0.36236596 -0.27672982 -0.27646995 0.60875994 0.79335445 -7.3788433e-05 4.6042973e-05
-0.21736392 -0.27297309 -0.27165848 0.23465197 0.96752965 0.0939404 0.0043397401
-0.20845434 -0.27397105 -0.27719772 0.1922671 0.96634644 0.17090327 0.0043561123
-0.19671197 -0.27569199 -0.27291128 0.13356923 0.98477757 0.11123066 0.0031584268
-0.18584651 -0.27706897 -0.27376673 0.12760508 0.98440599 0.12108568 0.0031975235
-0.17986229 -0.27770334 -0.27768481 0.12819333 0.98342675 0.12821206 0.0029733113
-0.16971216 -0.2792466 -0.2708782 0.13000159 0.98759013 0.088121086 0.0028081969
-0.1201055 -0.27900749 -0.2768181 -0.13923539 0.97510302 0.1725907 0.0059724003
-0.10320257 -0.2769323 -0.27332407 -0.13822775 0.98225355 0.12677182 0.0032021692
-0.099215537 -0.27626681 -0.27667248 -0.1496031 0.97542882 0.16173303 0.0050965254
-0.079960249 -0.27387241 -0.27380019 -0.21006261 0.97195101 0.10575871 0.0022666762
-0.068259344 -0.27122211 -0.27472255 -0.26542675 0.95476747 0.13404392 0.0044052154
-0.38224661 -0.26147488 -0.27463996 0.62672478 0.77923447 -0.0031211223 0.00083158875
-0.37489873 -0.26711309 -0.27571058 0.60894656 0.79321122 5.4239732e-05 0
-0.2420224 -0.26276538 -0.27841997 0.3928709 0.90599817 0.15754297 0.0072175995
-0.23552391 -0.26567674 -0.2748957 0.36898926 0.92390651 0.10121102 0.0027756563
-0.22953731 -0.26813543 -0.27559724 0.34460992 0.93214202 0.11115423 0.003591873
-0.064205669 -0.2695407 -0.27475473 -0.31797728 0.93856812 0.13409102 0.0041512544
-0.053191822 -0.26499462 -0.27373099 -0.35593721 0.9275825 0.11357529 0.0040297671
-0.044016458 -0.26119408 -0.27059647 -0.38821873 0.91717321 0.089885846 0.0023454106
0.082937032 -0.26823983 -0.27074352 -0.60940087 0.7928623 -1.3801158e-05 3.5051755e-05
-0.39599594 -0.25087786 -0.27430922 0.69301981 0.72069311 0.018030144 0.0023156716
-0.38580385 -0.25874531 -0.27614614 0.64725107 0.76227236 0.0026023181 0.001385236
-0.26301676 -0.25428385 -0.27389604 0.39018381 0.91603565 0.09292613 0.0024783728
-0.038255464 -0.25880778 -0.2735751 -0.38037744 0.91985279 0.095831938 0.0017873064
-0.022474991 -0.25213751 -0.27625948 -0.3792966 0.91377139 0.14545061 0.0037267043
0.096290879 -0.25799307 -0.27196312 -0.65282649 0.75750309 -0.0025569357 0.0013659877
0.10366791 -0.25226605 -0.27536225 -0.67344761 0.73920524 -0.0066280505 0.0018596721
-0.28847969 -0.24286729 -0.27724588 0.49994144 0.84694791 0.18093587 0.006802768
-0.012068535 -0.24796081 -0.27267206 -0.44623542 0.89064217 0.087352559 0.0038083906
-0.0047511873 -0.24480468 -0.27388474 -0.47607219 0.87173277 0.11591894 0.0051598302
0.1099456 -0.24518767 -0.27294162 -0.74002647 0.67250204 -0.010090747 0.0021074207
-0.40598744 -0.23795661 -0.27800953 0.77563357 0.63118142 -0.0016147839 0.00094529416
-0.30386776 -0.23128228 -0.27257422 0.59946543 0.79701346 0.073557146 0.0020203562
-0.29832602 -0.23553459 -0.27351704 0.5887444 0.80081314 0.10990115 0.0060138074
0.0026551748 -0.23938476 -0.2760253 -0.545609 0.83203721 0.10012458 0.0038006683
0.011906142 -0.23215029 -0.27768525 -0.59757107 0.79299974 0.11857568 0.0056187869
-0.41474161 -0.22654794 -0.27224019 0.79338402 0.60872149 6.097951e-05 3.0368967e-05
-0.31475648 -0.22292705 -0.27351293 0.61291689 0.78408873 0.097661279 0.0028901657
0.025562385 -0.22187985 -0.27373469 -0.61259997 0.78454226 0.095994405 0.0034952613
0.12507904 -0.22546534 -0.27141041 -0.79335797 0.60875547 2.6172675e-06 1.6265121e-05
-0.42231286 -0.21668091 -0.27013284 0.79333949 0.60877943 -5.5425302e-05 8.640439e-05
-0.3262195 -0.2139114 -0.27721041 0.62183493 0.76784974 0.15403886 0.0028592942
0.039874703 -0.21080364 -0.27565944 -0.6307472 0.76082653 0.15264653 0.0054814741
0.040435303 -0.2104214 -0.27570391 -0.63075262 0.76082176 0.15264831 0.0054887435
0.13273051 -0.21549371 -0.27481276 -0.79335105 0.60876435 2.3897042e-05 0
-0.42809206 -0.2091493 -0.27387327 0.79329163 0.60884178 -6.1241386e-05 0.00010864963
0.041782796 -0.20914006 -0.27872348 -0.64167929 0.7440455 0.18612894 0.0065565151
-0.44258094 -0.19026706 -0.27670768 0.81078935 0.58533442 -0.0020420882 0.00069582026
-0.43609548 -0.19871905 -0.27498701 0.79513329 0.60643464 -0.00018860793 5.5598866e-06
-0.34711596 -0.1965764 -0.27805385 0.69410235 0.69739574 0.17849676 0.0066370433
0.14654753 -0.19748698 -0.27550492 -0.79812592 0.60248744 0.0019746327 0.00011160608
0.15086174 -0.19186457 -0.27747089 -0.80813628 0.58896315 0.0061806552 0.00037940824
-0.44516644 -0.18689759 -0.2753506 0.81986833 0.57253987 0.0037564537 0.0011822464
-0.35345465 -0.18851151 -0.27621928 0.75728434 0.63868576 0.13638486 0.0048611411
0.06196237 -0.18999396 -0.27045548 -0.76059228 0.6437186 0.084413201 0.0017273475
0.15855291 -0.18184122 -0.27245393 -0.83372217 0.55217463 0.0032395117 0.0014755271
-0.45306101 -0.17565113 -0.27157265 0.86842549 0.49570456 0.010690682 0.0026417142
0.072510324 -0.17619695 -0.27310872 -0.78751582 0.60892218 0.095040008 0.0026579688
0.16206262 -0.17618006 -0.27902198 -0.86182261 0.50691843 0.017191766 0.0025472494
-0.45668489 -0.16720614 -0.27553225 0.90217215 0.43137527 0.00088134129 0.0012667181
-0.37383044 -0.16213787 -0.27280453 0.7746402 0.62178534 0.11539329 0.0027798631
0.079481646 -0.16699409 -0.27610388 -0.79261762 0.59123123 0.14900655 0.0039301277
0.084516659 -0.1606006 -0.27182755 -0.79003638 0.60375625 0.10640031 0.0035668674
0.16671319 -0.16594654 -0.27486965 -0.90934205 0.41602787 -0.0042207297 0.00066903903
-0.46126938 -0.15613817 -0.27697378 0.92359328 0.38337371 -0.00016528289 0
-0.38067067 -0.15322351 -0.27050582 0.80251759 0.59269238 0.068419635 0.0015443203
-0.37788606 -0.15685248 -0.27371207 0.79102719 0.60334927 0.10122034 0.0025976524
0.0862462 -0.15796448 -0.27810749 -0.79300815 0.59045565 0.15000072 0.0048086005
0.1727263 -0.15142965 -0.27504236 -0.92301387 0.3847667 0.00024677051 0
-0.46437055 -0.14865118 -0.27516645 0.92367566 0.3831751 -8.9665933e-05 0
-0.38541055 -0.14704639 -0.2700116 0.83803016 0.54188484 0.063767634 0.0027927898
0.09874323 -0.14192615 -0.27250361 -0.85573381 0.51227933 0.072729923 0.0033744529
0.17511563 -0.14566137 -0.27581879 -0.92388278 0.38267559 -2.0496855e-05 0
-0.46876854 -0.13803349 -0.27098051 0.92390692 0.38261732 -7.5839438e-05 8.4429539e-06
-0.39128876 -0.13753772 -0.27556759 0.87694758 0.46547741 0.11955607 0.0057553966
0.099832065 -0.13941438 -0.2787776 -0.84975797 0.49736178 0.17476456 0.0079767369
0.10285036 -0.132579 -0.27579361 -0.89201564 0.44153327 0.096728168 0.0054151048
0.17840472 -0.13772081 -0.27938139 -0.92386883 0.38270929 2.0922042e-05 0
0.18026213 -0.13323662 -0.27975309 -0.92386937 0.38270801 -3.5182406e-05 1.7266153e-05
-0.47515649 -0.12261169 -0.27157667 0.92386281 0.38272399 -3.2707325e-05 0
-0.3967559 -0.12455735 -0.27318913 0.9109621 0.39978096 0.10160375 0.0042921654
0.10437426 -0.12854946 -0.2781831 -0.90278959 0.41369212 0.11760014 0.0055367672
-0.48031256 -0.11016384 -0.27589089 0.93033385 0.36667091 -0.005596756 0.00025582573
-0.47789386 -0.11600307 -0.27430531 0.9247964 0.38046202 -0.00046241688 0
0.10816263 -0.11992142 -0.27513272 -0.92294943 0.37838638 0.070627399 0.0010259642
0.18841884 -0.1135446 -0.27366742 -0.92576653 0.37809539 -0.00047086432 4.0384737e-05
-0.48349899 -0.10247106 -0.27476618 0.94363868 0.33096668 0.0026450451 0.001497926
-0.40497971 -0.104318 -0.27699107 0.91064912 0.37140149 0.18105045 0.0076262755
0.18989488 -0.10998113 -0.27051249 -0.92757899 0.37360823 -0.0037532593 0.00016153362
-0.41071671 -0.090207472 -0.27864695 0.91215402 0.34927183 0.21443932 0.0063743661
-0.40793419 -0.097427368 -0.27411428 0.91633278 0.38556737 0.10803726 0.0020590299
0.11805478 -0.096142367 -0.27090788 -0.91807997 0.38533938 0.092967242 0.0027783753
0.12027439 -0.090783767 -0.27177343 -0.91883975 0.38033435 0.10525783 0.0026841355
0.1966573 -0.093655258 -0.27089131 -0.96006137 0.27978879 -0.00069507293 0.002681521
-0.48928267 -0.081406273 -0.27029169 0.98317802 0.18260852 0.003887058 0.0015098865
-0.4129678 -0.085097037 -0.27474821 0.93023926 0.33027157 0.15992396 0.0049994648
0.19768852 -0.089767903 -0.27649695 -0.9690848 0.24666756 -0.0054530795 0.0025196418
-0.41700363 -0.075566128 -0.27432132 0.95059174 0.27079573 0.15180559 0.0058168536
0.12676026 -0.074540533 -0.27377313 -0.95625347 0.26893085 0.11513284 0.0030668057
0.19979727 -0.073750354 -0.27627885 -0.99042159 0.13800927 0.004319251 3.7965594e-05
-0.41901457 -0.065555692 -0.27558035 0.97053558 0.20809755 0.12147453 0.0048694471
0.20107593 -0.064038031 -0.27407253 -0.99093777 0.13431507 0.0013481297 4.8190705e-05
-0.49251097 -0.056884687 -0.2760824 0.99144363 0.13053569 2.7600752e-06 9.6755874e-05
-0.41973799 -0.058680046 -0.27835444 0.9682653 0.15740278 0.1941307 0.0050383261
0.1295647 -0.057781436 -0.27268952 -0.984411 0.15323283 0.08634007 0.0020296127
0.20239842 -0.053992651 -0.27489373 -0.98496294 0.17238893 0.011406463 0.0058401749
-0.49440271 -0.042515859 -0.27412638 0.99144274 0.13054205 -0.00019735075 0
-0.42153868 -0.04532522 -0.27770579 0.97299927 0.1050804 0.20550035 0.0076695038
0.20354173 -0.045308426 -0.27191752 -0.96655893 0.24879546 0.062166642 0.045008652
-0.49521697 -0.036330674 -0.27375072 0.99144459 0.13052839 -1.4794178e-05 4.7095142e-05
-0.42354143 -0.031695262 -0.2740348 0.98459077 0.11306101 0.13341041 0.0053586178
0.13223727 -0.037800547 -0.27337274 -0.9893378 0.12806535 0.069354162 0.0017261322
0.20523086 -0.032478139 -0.27263749 -0.91941684 0.38063872 0.098928474 0.13068387
0.21067005 -0.033439405 -0.27240723 -0.75728106 0.58546615 0.2894043 0.15822463
-0.49693543 -0.023277616 -0.27439666 0.99207783 0.12562278 0.00066987699 0
0.13428593 -0.022292336 -0.27001536 -0.98880625 0.12662707 0.078916341 0.0021050298
0.20604758 -0.026274599 -0.27677804 -0.90648311 0.39686799 0.14416739 0.12884593
0.23066616 -0.026886318 -0.2729826 -0.19283502 0.65248477 0.73285621 0.053062655
0.24215946 -0.023833271 -0.27022964 -0.36324149 0.41494611 0.83419144 0.028687911
-0.49819821 -0.013685773 -0.27393043 0.99463105 0.10336648 -0.0049491292 0.00075106241
-0.42514557 -0.018550903 -0.27645445 0.98215508 0.10655718 0.15497398 0.0050930129
0.13447484 -0.018177284 -0.27991104 -0.98129576 0.099457383 0.16482362 0.0071383356
0.23445973 -0.017020017 -0.27757725 -0.25438309 0.34900126 0.90193534 0.042600773
0.24743001 -0.015529753 -0.27182388 -0.37013972 0.34290555 0.86337262 0.026925866
0.25056994 -0.013133254 -0.27031776 -0.42142993 0.23298398 0.87642187 0.019240223
-0.42748162 -0.0017664765 -0.27181941 0.99755293 0.013671693 0.068565466 0.0033807899
0.13586578 -0.0075711794 -0.27999297 -0.98625433 0.058221795 0.15463683 0.0072542997
0.20855089 -0.0072598183 -0.27291733 -0.93971533 0.11441588 -0.32224849 0.15977524
0.23453417 -0.0040153698 -0.27800962 -0.2337264 0.16429928 0.95832026 0.076930009
-0.49989456 0.00080083299 -0.27178806 0.99998909 -0.00086521596 0.0045936438 0.002119673
-0.42681742 0.00619527 -0.27493799 0.99368012 -0.036803655 0.1060442 0.0032532704
0.13650258 0.0051482157 -0.27233997 -0.99630266 -0.028662508 0.080991104 0.003194612
0.23487377 0.0030419175 -0.27784672 -0.29370284 -0.0083228452 0.9558605 0.069258504
0.24297316 0.004174056 -0.27396169 -0.44552076 -0.033790685 0.89463365 0.0042597074
-0.49785867 0.016264949 -0.27112299 0.99358159 -0.11311301 -0.0010460616 0.00029709822
-0.42540991 0.016743593 -0.27550453 0.98197126 -0.11829398 0.14744137 0.003517359
0.13481851 0.018246869 -0.27120143 -0.99153548 -0.11572742 0.05886063 0.0013993672
0.2394999 0.011443446 -0.27562773 -0.43159425 -0.18708816 0.88245362 0.014166225
-0.42428318 0.025331736 -0.27378893 0.98112679 -0.13336807 0.14001149 0.0043132179
0.13365074 0.025690556 -0.27739346 -0.9835732 -0.11500799 0.13912919 0.0066342582
0.20588715 0.027492963 -0.27337405 -0.9822033 -0.18767659 -0.0073624267 0.099638596
0.2226733 0.026328987 -0.27706391 -0.44626495 -0.68395138 0.57711184 0.12364032
-0.42316803 0.033900939 -0.27522299 0.98254275 -0.13464935 0.12837167 0.0038025323
0.13213319 0.036800664 -0.27823049 -0.97695947 -0.13466389 0.16557741 0.0069619725
0.20892558 0.034175787 -0.27146623 -0.91931021 -0.37154999 0.12968916 0.1319506
0.21394178 0.031038266 -0.27559388 -0.87489986 -0.42965823 0.22348161 0.12764989
-0.42223173 0.040765751 -0.27628997 0.98420274 -0.11988777 0.13027599 0.003866266
0.20312831 0.048448659 -0.27887446 -0.96648645 -0.25056738 0.055856388 0.025836844
-0.49262065 0.056051556 -0.27740163 0.99144357 -0.13053635 -4.7578283e-06 8.6878361e-05
-0.42006123 0.055463858 -0.27988261 0.96503574 -0.15216368 0.21342961 0.0075195506
0.20250759 0.053163502 -0.27464008 -0.97477782 -0.22183599 0.024431286 0.014079873
-0.49174094 0.062733784 -0.27573746 0.991436 -0.13059297 -0.00010276117 0.00017977149
-0.41910669 0.06378708 -0.27772745 0.95946127 -0.2103408 0.18759218 0.0098825311
0.20037502 0.069362029 -0.27675486 -0.99028969 -0.13901781 -0.0006025433 0.0001293245
-0.41766775 0.073669255 -0.27397528 0.95450646 -0.27414992 0.11729956 0.0042602201
0.1270797 0.074354276 -0.27042747 -0.96128637 -0.26562971 0.073276408 0.0033729095
0.12365928 0.082525462 -0.27415872 -0.9350462 -0.33790153 0.10729016 0.0041912133
0.19780459 0.088886343 -0.27055445 -0.97249413 -0.23217471 0.018710488 0.0020264548
-0.40703386 0.099038757 -0.27900022 0.91468835 -0.36846444 0.16606951 0.006918475
0.19536655 0.096771404 -0.27662554 -0.95873708 -0.28419757 -0.007405512 0.002184618
-0.48298097 0.10372162 -0.27624843 0.94656354 -0.32249621 -0.0036946908 0.00080296554
-0.40302739 0.10932666 -0.27537593 0.9212954 -0.37116143 0.11599134 0.0049214601
0.11416026 0.10515641 -0.27652189 -0.90943134 -0.3967444 0.12461364 0.0021638889
0.19011432 0.10945134 -0.27951318 -0.93002802 -0.36748222 0.002167399 0.00034901907
-0.39906433 0.11903843 -0.27076727 0.9169997 -0.39524788 0.053765953 0.0013331008
-0.39750826 0.12252687 -0.27610695 0.91470212 -0.39791232 0.070610821 0.0016491247
0.18473059 0.1224488 -0.27918267 -0.92388105 -0.38267964 -8.9806977e-05 8.3860104e-06
-0.39286703 0.13361472 -0.27503625 0.8778739 -0.46505556 0.11428348 0.0050666817
0.10093386 0.13714793 -0.27548748 -0.88122863 -0.4527607 0.13580772 0.0038654478
0.17854443 0.13738349 -0.27092242 -0.92388272 -0.38267571 1.328697e-05 1.9412475e-05
-0.46589136 0.14497972 -0.27335909 0.92384952 -0.38275588 5.2007748e-05 8.1195894e-06
-0.39008251 0.14045396 -0.27610865 0.85534203 -0.49682832 0.14680497 0.006222405
-0.38672978 0.14521182 -0.27560785 0.8373189 -0.52695566 0.14565319 0.0052726832
0.094918586 0.1467623 -0.27638629 -0.83793253 -0.53183442 0.1225606 0.0063996892
0.17586611 0.14384949 -0.27314481 -0.9238742 -0.38269627 -2.6721777e-05 1.2163197e-05
-0.3763499 0.1586125 -0.2767936 0.76659364 -0.62389457 0.15195347 0.0051977532
0.088311948 0.15531042 -0.27775076 -0.8037917 -0.57739472 0.143298 0.0056077666
0.16952761 0.15915197 -0.27732381 -0.92007524 -0.39173198 0.0027443259 0.00020972799
-0.45693341 0.16660608 -0.27082008 0.90103221 -0.43369353 0.0071342103 0.0015462644
-0.37437004 0.16088066 -0.279717 0.76739413 -0.61824816 0.16992807 0.0067643868
-0.36906645 0.16811359 -0.27567226 0.77896172 -0.60793567 0.1537303 0.0054997224
0.16737431 0.16435049 -0.27177778 -0.91098583 -0.41243699 -0.00064145855 0.00077211368
0.07345432 0.17493574 -0.27452105 -0.79009426 -0.60351115 0.10735649 0.0038318757
0.16170371 0.17770225 -0.27542263 -0.86504722 -0.50167048 -0.0044679269 0.0021731809
-0.45019385 0.18034576 -0.27092946 0.84968632 -0.52709085 -0.014432384 0.0017833404
-0.44481921 0.18735011 -0.27518648 0.82181573 -0.56972462 0.0057339901 0.0012826623
0.068447039 0.18144728 -0.27542388 -0.79938871 -0.58626926 0.13139988 0.0046523814
0.15568715 0.18557596 -0.27331722 -0.82850629 -0.55997968 -1.8187355e-05 0.0015962133
-0.44231319 0.19061601 -0.27170947 0.81257379 -0.58285844 1.5158637e-05 0.00057059556
-0.43695873 0.19759408 -0.27093959 0.79332876 -0.60879344 6.0966009e-05 0
0.05771118 0.19524986 -0.2771914 -0.73554003 -0.65930098 0.15589401 0.0061102482
0.060998235 0.19123387 -0.27468297 -0.77500755 -0.61907345 0.12693082 0.0052587725
0.1479578 0.19564907 -0.27358365 -0.79701489 -0.60395938 -0.00058608147 9.44598e-05
0.15089869 0.19181642 -0.27015379 -0.80270392 -0.59636331 0.0041421475 0.0003963651
-0.34086901 0.20280871 -0.27535474 0.69532508 -0.71325165 0.088290066 0.0043933187
-0.33978304 0.20372352 -0.27173167 0.69533509 -0.71323842 0.088317066 0.0043534408
0.047085352 0.20522457 -0.27645969 -0.63247555 -0.76427573 0.12592569 0.005439823
0.050996035 0.202369 -0.27486551 -0.68092614 -0.72619802 0.094742127 0.0066702259
0.13758402 0.20916848 -0.27995932 -0.79335016 -0.60876566 3.5961832e-05 0
0.14194037 0.20349115 -0.27389824 -0.79333156 -0.6087898 3.9203896e-05 0
-0.4227137 0.21615854 -0.27255821 0.79331255 -0.60881448 9.1235503e-05 0
-0.31248468 0.22467026 -0.27204362 0.60580879 -0.78685117 0.11773252 0.0040402291
-0.3093935 0.22696725 -0.27413833 0.60680401 -0.78670907 0.11347993 0.0033223087
0.01720106 0.22823031 -0.27514809 -0.61346734 -0.77713305 0.14043528 0.0047700237
0.12600309 0.22426106 -0.27513638 -0.79333419 -0.6087864 6.9596019e-05 0
-0.4107365 0.23176749 -0.27131078 0.78879941 -0.61464971 0.0011003341 0.00020358733
-0.4048847 0.23939374 -0.27280259 0.7889235 -0.61449099 0.00070663076 0.00014607007
-0.3023856 0.23235077 -0.27536678 0.58803749 -0.8006084 0.11505688 0.0044480287
-0.29649886 0.23666298 -0.27719012 0.57195288 -0.809829 0.13056335 0.0046088416
0.12068261 0.23119487 -0.27519765 -0.78866535 -0.61482233 -0.00066489837 0.00010248147
-0.4019348 0.24323803 -0.27708685 0.78160816 -0.62375546 0.0042244084 0.00028642311
-0.27419567 0.24971251 -0.27038333 0.42439833 -0.90252668 0.073017932 0.0015353194
-0.008492507 0.24621341 -0.27831128 -0.47055927 -0.86935931 0.150958 0.005054831
0.00098574604 0.2407884 -0.27012202 -0.5419383 -0.83850354 0.056698382 0.0022627546
-0.39262879 0.2535083 -0.27533427 0.69992328 -0.71411842 0.011932502 0.0024973734
-0.023689914 0.25277436 -0.27334183 -0.39768228 -0.91041899 0.11395609 0.0031628883
-0.018857513 0.25069073 -0.27435681 -0.40497431 -0.90816104 0.10601553 0.0036302328
0.098117046 0.25659177 -0.2770628 -0.66248977 -0.74906033 -0.0039865249 0.0014589594
0.10229664 0.25338471 -0.2736173 -0.69366515 -0.72022688 -0.010102492 0.0023800186
-0.37708774 0.26543337 -0.27092099 0.60966206 -0.79266137 -0.00035473716 0
-0.24550661 0.26145619 -0.27651429 0.37912494 -0.92114705 0.088046812 0.002365065
-0.044361901 0.26132065 -0.27257025 -0.37580824 -0.92207855 0.092408411 0.0017832455
0.085982218 0.26590315 -0.27433553 -0.60878724 -0.79333353 -2.1192041e-05 6.4926548e-06
-0.3663356 0.27368379 -0.27381384 0.60887665 -0.79326487 4.7781134e-05 0
-0.35850617 0.27969155 -0.27731186 0.60875309 -0.7933597 0.00011710737 7.3646748e-05
-0.21715491 0.27272955 -0.27555349 0.22990957 -0.96323389 0.13900411 0.0046143117
-0.19000243 0.27657533 -0.27044973 0.14117597 -0.98777801 0.066060014 0.0011362473
-0.18678482 0.27699894 -0.27005664 0.14466971 -0.98798203 0.054426108 0.0010144615
-0.12031914 0.27918574 -0.27034146 -0.12259636 -0.98753929 0.098672785 0.0023863055
-0.10296146 0.27690056 -0.27400434 -0.10773728 -0.98814178 0.10940079 0.0037433777
-0.098214447 0.2762756 -0.27350709 -0.12987921 -0.98572582 0.10712595 0.0032885242
-0.087784939 0.27490252 -0.27236894 -0.15907812 -0.98410171 0.078981526 0.003253734
-0.076848634 0.2733674 -0.27579793 -0.24657886 -0.95584559 0.15986885 0.0057145981
-0.067243442 0.27076584 -0.27335444 -0.30090103 -0.94913054 0.092789613 0.0034213965
-0.35126039 0.28525144 -0.2734943 0.60875219 -0.79336047 4.2710753e-06 8.0650452e-06
-0.34649622 0.28890711 -0.27555943 0.60885638 -0.79328048 0.00010004039 0
-0.16152142 0.28013656 -0.27740082 0.10449056 -0.98607099 0.12940525 0.0034293241
-0.15975437 0.28047436 -0.27579641 0.098465323 -0.98796338 0.11930193 0.0037740308
-0.1463128 0.28184706 -0.27477831 -0.015059423 -0.99455917 0.10307888 0.004611217
0.061075181 0.28501499 -0.27067536 -0.60874295 -0.79336751 -1.488454e-05 1.1903038e-06
-0.34314853 0.29147589 -0.27443406 0.60878056 -0.79333866 8.7853055e-05 0
-0.33281967 0.29940152 -0.27146602 0.59257114 -0.80551708 0.0012822783 0.00019205031
0.045651931 0.29684964 -0.2789301 -0.58239269 -0.81290722 -0.00074356014 0.00064079062
0.053784817 0.29060906 -0.27424264 -0.60877508 -0.79334289 2.0816127e-05 0
-0.31708694 0.30951869 -0.2731728 0.44082555 -0.89735907 -0.020483403 0.0019337025
0.027048087 0.3093304 -0.27780622 -0.4694908 -0.88293093 -0.0033729426 0.0018915444
0.034457788 0.30543923 -0.27721447 -0.5229516 -0.85233665 -0.006623337 0.0023076409
-0.30023548 0.31649882 -0.27169132 0.38864794 -0.92138231 -0.002723698 5.3152646e-05
-0.29409242 0.31904331 -0.27774912 0.3827475 -0.92385298 -2.2626315e-05 3.2281534e-06
0.0075660595 0.31740016 -0.2711961 -0.38267809 -0.92388177 -3.1907482e-05 0
0.017384641 0.31333315 -0.279957 -0.411181 -0.91154581 0.0037845585 0.00069630943
0.022085816 0.31138584 -0.27725759 -0.4494051 -0.89332521 -0.0022625159 0.0016785254
-0.29026285 0.3206296 -0.27460688 0.38253269 -0.92394191 0.00019947406 4.5118639e-05
-0.27401528 0.32735956 -0.27607644 0.38263872 -0.92389804 -3.7343361e-05 8.3062369e-05
-0.011951689 0.32548466 -0.27423197 -0.38270923 -0.92386883 -5.9689464e-05 3.2812179e-05
-0.24419197 0.3397128 -0.27068853 0.32505599 -0.94568551 0.0041631809 0.0011013689
-0.24046941 0.34125471 -0.27504742 0.28831622 -0.95743752 0.013681613 0.0022028615
-0.22376235 0.34441659 -0.27628797 0.15249337 -0.98830312 0.0016381174 0.00048948289
-0.20479825 0.34691325 -0.27944747 0.13053305 -0.99144393 2.6552334e-05 0
-0.19454421 0.3482632 -0.27985722 0.13061827 -0.99143273 0.00020479292 0
-0.18866032 0.34903786 -0.27517214 0.13049774 -0.99144858 7.896532e-05 0
-0.10643068 0.34964311 -0.27862009 -0.13052067 -0.9914456 3.8192604e-05 3.2456377e-05
-0.079275325 0.34606808 -0.27822143 -0.13389799 -0.99099517 -2.6910013e-05 0
-0.066796228 0.34442517 -0.27941373 -0.17107622 -0.98525661 0.0015283314 0.00092619332
-0.058508005 0.34333402 -0.27593198 -0.22705242 -0.97387266 -0.0043938542 0.001464204
-0.048544731 0.34064204 -0.27452716 -0.26371264 -0.96453655 -0.011176566 0.0015139735
-0.16805437 0.35175067 -0.27595866 0.12760955 -0.99182403 0.00091733556 1.8382354e-05
-0.15643883 0.35327989 -0.27561724 0.068886191 -0.99761903 0.0033275369 0.0014795944
-0.14608493 0.35464299 -0.27140689 -0.0043657413 -0.99998522 -0.003243512 0.0025920847
-0.13506307 0.35341263 -0.27650052 -0.096228577 -0.99535245 0.0036796404 0.0010031706
-0.12411019 0.35197067 -0.27619541 -0.11895135 -0.9928984 0.001824457 0.00016042184
-0.11762445 0.35111678 -0.27167916 -0.12932336 -0.99160248 -8.0870705e-05 4.720033e-05
-0.17317711 -0.35107625 -0.26447514 0.13056168 0.99144018 5.2617266e-05 0
-0.16892534 -0.35163599 -0.26763013 0.11778986 0.99303305 0.0032971187 0.00011419568
-0.15453455 -0.35353059 -0.2621575 0.065520212 0.99782729 0.0069026309 0.0013797112
-0.14160156 -0.35427344 -0.2647469 -0.005977347 0.99992865 -0.010343351 0.002303526
-0.13456649 -0.35334727 -0.26512057 -0.074094281 0.99719816 -0.010288918 0.00089318678
-0.12738195 -0.35240141 -0.26410443 -0.10889578 0.99405187 -0.0015757844 0.00053282187
-0.11507052 -0.35078061 -0.26195443 -0.13047841 0.99145114 -1.6468299e-05 0
-0.23388869 -0.34308341 -0.26586506 0.22639003 0.97402835 0.0040354044 0.002737944
-0.22167948 -0.34469077 -0.26923051 0.13747877 0.99050456 -0.00058177195 9.6047668e-05
-0.21854183 -0.34510386 -0.26759177 0.1369274 0.99058068 -0.00090135826 8.0991929e-05
-0.20216157 -0.34726036 -0.26801962 0.13060388 0.99143463 -3.9106042e-05 0.00011377769
-0.19307697 -0.34845638 -0.2622574 0.1305093 0.99144715 -6.6055451e-05 6.9879279e-05
-0.1024159 -0.34911457 -0.26279727 -0.13053596 0.99144363 -4.6197219e-05 0
-0.084522687 -0.34675887 -0.26641086 -0.13051473 0.99144644 8.6437729e-05 1.5382873e-05
-0.077048451 -0.34577489 -0.26648712 -0.13165788 0.9912951 -0.00040209902 0
-0.064586811 -0.3441343 -0.26940268 -0.15832151 0.98738402 -0.0026538908 0.00044044969
-0.055329699 -0.34291556 -0.26541552 -0.22388203 0.97451329 -0.014171009 0.0021233265
-0.25839031 -0.33383164 -0.26634431 0.37164703 0.92837399 -0.00050732377 0.00014492906
-0.04470085 -0.33904985 -0.26526755 -0.33108729 0.94358099 0.0060084276 0.0010250052
-0.28074995 -0.32457 -0.26073977 0.38264665 0.92389476 -4.2289666e-05 0
-0.2744056 -0.32719791 -0.26476151 0.38255638 0.92393214 2.3909763e-06 6.621648e-06
-0.26927137 -0.32932454 -0.26049662 0.38261291 0.92390871 -2.6622682e-05 0
-0.013268914 -0.32603025 -0.26622728 -0.38269711 0.92387384 1.3142553e-06 1.2132206e-05
0.0012705855 -0.32000783 -0.26496375 -0.38265947 0.92388946 0.00012516856 6.3150105e-06
-0.31170037 -0.31174988 -0.262878 0.44700438 0.89443606 -0.013085756 0.0011214728
-0.3059414 -0.31413531 -0.26653022 0.41990027 0.90753973 -0.0074412073 0.00061239157
-0.29838899 -0.31726366 -0.26265869 0.38900629 0.92123449 -0.0010563969 0.00012682637
0.014784217 -0.31441027 -0.26845035 -0.39526916 0.91856414 -0.0014880762 0.00016507067
-0.33196598 -0.30005658 -0.26891658 0.54860377 0.83607811 -0.0026989118 0.0012420974
-0.32490653 -0.30509982 -0.264467 0.49966693 0.86600578 -0.019153804 0.0017228846
0.025832016 -0.30983412 -0.26806492 -0.45961276 0.88789582 -0.01992646 0.0023403652
0.03546261 -0.30466819 -0.26553965 -0.52507681 0.85073888 -0.02318655 0.0019326129
-0.33494249 -0.29777262 -0.26527995 0.57517171 0.81801999 -0.0045549227 0.0010988053
0.046045326 -0.29654777 -0.2665523 -0.59704977 0.80219698 -0.0034099407 0.00030315595
0.052400112 -0.2916716 -0.26323885 -0.60750818 0.79431337 -0.00012785691 1.1625747e-05
-0.3569499 -0.28088573 -0.26360232 0.60876495 0.7933507 -3.5033401e-05 3.0427591e-05
-0.34870636 -0.28721118 -0.26257831 0.60794336 0.79398036 6.1562743e-05 0
-0.16351937 -0.28006187 -0.26700068 0.11996289 0.99124485 0.055159293 0.0019232659
-0.15685627 -0.2809391 -0.26744694 0.075479001 0.9957943 0.05192871 0.0021505242
-0.14257354 -0.28211561 -0.26342025 -0.012236715 0.99938619 0.032826029 0.0022408792
-0.13318142 -0.28087908 -0.26660588 -0.090010911 0.99411774 0.060231078 0.0024818364
0.059442505 -0.28626782 -0.26297352 -0.60879195 0.79332995 -1.2371865e-05 0
0.065312877 -0.28176332 -0.2638765 -0.60876149 0.79335326 -2.9503652e-05 6.9807138e-06
-0.35876864 -0.27949014 -0.26464888 0.60866225 0.79342943 0.00010696449 4.3312266e-05
-0.22032811 -0.27202523 -0.2682555 0.266606 0.96275997 0.044882633 0.0033849727
-0.21439832 -0.27336356 -0.26445144 0.20848952 0.97732085 0.037095051 0.0021060894
-0.20269856 -0.27490383 -0.26670024 0.15740573 0.98598796 0.055237684 0.0014513555
-0.19313043 -0.27616352 -0.26430142 0.13618664 0.98958504 0.046633746 0.0010249407
-0.18581425 -0.2771267 -0.26634055 0.13110909 0.9906829 0.036849059 0.00055329729
-0.17478895 -0.27857819 -0.26285231 0.12746908 0.99177933 0.011195859 0.00017820604
-0.12047657 -0.27920645 -0.26127341 -0.12404669 0.99201876 0.022609906 0.0003036531
-0.1129351 -0.27821362 -0.26706913 -0.12669164 0.99089813 0.045499295 0.0011349042
-0.094825462 -0.27582943 -0.26516259 -0.14932628 0.98625427 0.070740014 0.001648035
-0.088107884 -0.27494505 -0.26257834 -0.16812833 0.98551685 0.022123463 0.001249539
-0.076822206 -0.27345926 -0.26095289 -0.22385719 0.97418451 0.029196559 0.001788822
0.073862605 -0.27520287 -0.26771432 -0.60877061 0.79334635 2.7399074e-05 0
-0.3764407 -0.26592985 -0.2631605 0.60899866 0.79317129 -5.9985618e-05 0
-0.24617612 -0.26131862 -0.26012227 0.38775495 0.92148119 0.022773575 0.00041207374
-0.23271057 -0.26689628 -0.26048276 0.37199929 0.92784113 0.026968414 0.00053790433
-0.22786129 -0.26890486 -0.26469952 0.34435141 0.9381777 0.035280291 0.0015310232
-0.063111402 -0.26910347 -0.26417485 -0.3399668 0.93984741 0.03330842 0.0019035597
-0.05863703 -0.26725012 -0.26889798 -0.36466509 0.92980945 0.049737021 0.0015787585
0.086583659 -0.26544172 -0.26685375 -0.61168355 0.79110253 -0.00019198585 5.4887118e-05
0.090864882 -0.26215658 -0.26760936 -0.62322849 0.78203404 -0.0030083002 0.00039707156
-0.38676137 -0.25801054 -0.26570523 0.65894473 0.75219136 -0.00027870698 0.0016531373
-0.2536757 -0.25821221 -0.2637738 0.39377403 0.91899049 0.019961245 0.00026678611
-0.040104296 -0.25957361 -0.26096183 -0.38317883 0.92361295 0.010631944 0.00011891602
-0.036843807 -0.25822306 -0.26452601 -0.38449427 0.92243761 0.035678871 0.00078748359
-0.023533141 -0.2527096 -0.26464218 -0.39879844 0.91649455 0.031582896 0.00076764362
0.09453325 -0.25934178 -0.2618683 -0.63804621 0.76997977 -0.0052990504 0.00098476571
0.10588963 -0.25047353 -0.26430693 -0.70229739 0.71186692 -0.0048908112 0.0025320258
-0.4013164 -0.24404396 -0.2624121 0.74866462 0.6629107 0.0071111741 0.00132642
-0.39945742 -0.24646668 -0.26142645 0.74928522 0.66207242 0.015227571 0.0014168181
-0.29139793 -0.24085069 -0.26877731 0.5895347 0.80567288 0.057792902 0.0019181827
-0.28268066 -0.24619795 -0.26310489 0.47163153 0.88172358 0.011281542 0.002188269
-0.014307836 -0.24888834 -0.26287973 -0.42360696 0.90522373 0.033572387 0.0011866781
0.10758398 -0.24826539 -0.26269245 -0.71296132 0.70115536 -0.0082016885 0.0022291802
-0.40641701 -0.23739675 -0.26560032 0.77081662 0.63703614 -0.005171522 0.00084407459
-0.30265158 -0.23221548 -0.26146621 0.60789102 0.7938118 0.018200239 0.00033467426
-0.29506761 -0.23803484 -0.26633149 0.58761138 0.80757439 0.050364148 0.0015732446
0.0070587192 -0.23612848 -0.26749679 -0.58484125 0.81076056 0.025061367 0.00081179274
0.11541127 -0.23806465 -0.26552516 -0.7754364 0.63141751 0.0031995589 0.00096779037
-0.41705108 -0.22353821 -0.26490441 0.79328817 0.60884631 0.00013497252 0
0.017589817 -0.22804771 -0.26045418 -0.60951203 0.79253918 0.019411029 0.00017656635
0.026842855 -0.22094761 -0.26099715 -0.60763204 0.79394847 0.020716185 0.00022155038
0.12311028 -0.22803108 -0.26171133 -0.79335397 0.60876065 -2.8197426e-05 1.9107963e-05
-0.42376071 -0.21479401 -0.26554734 0.79327339 0.60886562 5.3003678e-05 0
-0.32826775 -0.21255951 -0.26514888 0.61697352 0.78596365 0.040061265 0.00089185924
0.033228986 -0.21604735 -0.26559684 -0.60651636 0.79361868 0.048034076 0.0015114944
0.13202213 -0.21641691 -0.26626533 -0.79333854 0.60878068 1.9308411e-05 0
-0.43234289 -0.20360956 -0.26586848 0.7933588 0.60875434 4.4613057e-06 0
-0.42753455 -0.20987591 -0.26534817 0.79332191 0.60880238 -4.4589058e-05 6.4383756e-05
-0.34022656 -0.20338321 -0.26153263 0.68444669 0.72854728 0.027415488 0.0019368564
-0.33748844 -0.20548421 -0.26045871 0.68443483 0.728558 0.027426194 0.0019103365
0.047777481 -0.20488389 -0.26472193 -0.66425002 0.7468977 0.030261045 0.0015399556
0.14282149 -0.20234287 -0.26740259 -0.79331273 0.60881436 1.3694515e-05 0
-0.43929577 -0.1945484 -0.26781395 0.7958945 0.60543531 4.3389195e-05 3.2601383e-05
-0.35031554 -0.19278307 -0.26987913 0.72863567 0.68033504 0.078956537 0.0038950504
-0.34519693 -0.1994538 -0.26672354 0.69456601 0.71669364 0.062676117 0.0029125954
0.057584837 -0.19569889 -0.26117247 -0.73400486 0.67762566 0.045391325 0.0014995923
0.061002146 -0.19124536 -0.26809305 -0.74520904 0.663185 0.069635823 0.0012659772
0.14836161 -0.19512282 -0.26333109 -0.79863042 0.60181981 0.0014917356 0.00015451733
-0.4499816 -0.18062234 -0.26061779 0.84245056 0.53865319 0.011398407 0.0021666684
-0.35718843 -0.18382618 -0.26420295 0.78009301 0.62469971 0.034714133 0.001139769
0.067135282 -0.1832525 -0.26636183 -0.78140283 0.62118614 0.059476428 0.0016784554
0.1554375 -0.18590131 -0.26658523 -0.82849973 0.55998296 0.0027029971 0.0012293938
0.069832921 -0.17973684 -0.2649737 -0.79264295 0.60773897 0.048686359 0.0018070766
0.073416889 -0.17506614 -0.26441091 -0.7923547 0.60877103 0.039645322 0.00094893522
0.16151911 -0.17797559 -0.26395726 -0.85205323 0.52334201 -0.010886714 0.0018634808
-0.45616716 -0.16845593 -0.26910019 0.89992309 0.4359262 0.010335004 0.0015904688
-0.37312445 -0.16305792 -0.26366675 0.79020309 0.61227489 0.026427237 0.00038402309
-0.36784601 -0.16993693 -0.2692945 0.78402585 0.61362427 0.093641646 0.0026243296
0.16645832 -0.16656187 -0.2661081 -0.9080984 0.41875315 0.0017489162 0.00092128786
-0.46158633 -0.15537298 -0.26909912 0.92161596 0.3881014 -0.0011717328 5.6876823e-05
-0.38102984 -0.15275542 -0.26520497 0.80935472 0.58621114 0.036075111 0.0015906621
-0.37892771 -0.15549499 -0.26167268 0.80059171 0.59882635 0.021447513 0.00045371585
0.089973778 -0.15348873 -0.26216441 -0.80852687 0.58816087 0.018736832 0.00063442084
-0.46473619 -0.14776856 -0.26401335 0.92384952 0.38275573 7.0904148e-06 0
-0.38423181 -0.14858256 -0.26515207 0.83680105 0.54677302 0.028340757 0.0019919979
0.096126698 -0.14547008 -0.2668013 -0.85071313 0.52414703 0.039461035 0.002653864
0.17556502 -0.14457639 -0.26319411 -0.92387706 0.38268942 -2.0567373e-05 6.4425089e-06
-0.39123166 -0.13794823 -0.26108104 0.86639047 0.49903768 0.018139714 0.0013023174
0.17976204 -0.13444392 -0.26700425 -0.92387402 0.38269678 -5.1667457e-06 0
0.18139753 -0.13049552 -0.26028416 -0.92387158 0.38270247 5.5951576e-05 0
-0.47373423 -0.12604532 -0.26366645 0.92386198 0.38272578 -3.579475e-05 7.686871e-05
-0.39762992 -0.12250141 -0.26584151 0.91541862 0.40007767 0.04412036 0.0010124615
0.10556095 -0.12630519 -0.26535273 -0.91241068 0.40770161 0.035861991 0.0017298933
0.18524146 -0.12121548 -0.26620573 -0.9238857 0.38266864 1.8081832e-05 0
-0.47793674 -0.11589961 -0.26745391 0.92470199 0.38069168 8.3139923e-05 0
0.1084123 -0.1194214 -0.26460683 -0.92368698 0.38220441 0.026872249 0.00059330609
0.1118562 -0.11110708 -0.26129231 -0.92441064 0.38036323 0.028085923 0.00060006243
0.18603969 -0.11928838 -0.26970166 -0.92389011 0.38265783 -1.1402471e-05 0
-0.40560547 -0.10324662 -0.26301125 0.92430687 0.37964886 0.039032675 0.0011673861
0.11580494 -0.10157397 -0.26455766 -0.92234141 0.38366887 0.045656011 0.00096340914
0.19265483 -0.10331806 -0.26299998 -0.93781626 0.34706274 -0.0069354819 0.0013388277
-0.48806438 -0.090659879 -0.26963595 0.9684431 0.24923459 -5.5415157e-06 0.0024425844
0.11799473 -0.096287362 -0.26569372 -0.92020398 0.38794464 0.052187465 0.00092390255
0.19742161 -0.091795415 -0.26836467 -0.96552342 0.26021463 0.0072655082 0.0031268443
-0.4889344 -0.084051654 -0.26676071 0.97999316 0.19892338 0.0065433169 0.0019895562
