# .PCD v0.7 - Point Cloud Data file format
VERSION 0.7
FIELDS x y z normal_x normal_y normal_z curvature
SIZE 4 4 4 4 4 4 4
TYPE F F F F F F F
COUNT 1 1 1 1 1 1 1
WIDTH 603
HEIGHT 1
VIEWPOINT 0 0 0 1 0 0 0
POINTS 603
DATA ascii
-0.23375183 0.21386658 -0.39694399 0 0 1 5.909034e-05
-0.20577811 0.21216361 -0.39694402 4.5476569e-05 4.2426509e-05 1 0
-0.19134256 0.2121698 -0.39694402 -6.3070962e-05 1.1884397e-05 1 4.2347096e-05
-0.18602759 0.21451411 -0.39694402 0.00013752141 -0.00013432176 1 0
-0.17784385 0.21807164 -0.39694402 7.8417201e-05 -0.00013735125 1 0
-0.1552608 0.21293968 -0.39694399 -1.6674256e-05 -0.00017812604 1 0
-0.14795825 0.21040092 -0.39694405 3.9187395e-05 -6.5614178e-05 1 0
-0.12784608 0.21603079 -0.39694396 2.6545318e-05 1.1501521e-05 1 7.4033873e-05
-0.11427633 0.2134068 -0.39694405 -3.5132266e-06 -3.7952464e-05 1 0
-0.10550342 0.21197698 -0.39694405 1.9752686e-05 -4.1388248e-05 1 0
-0.095341399 0.21517387 -0.39694405 3.4415392e-05 -8.5641768e-05 1 0
-0.070104845 0.21777813 -0.39694402 -8.8639354e-06 -2.8784146e-07 1 3.2060139e-05
-0.066999123 0.21630056 -0.39694405 -3.6226161e-06 3.734796e-05 1 3.4162531e-05
-0.056573529 0.21464372 -0.39694405 6.5998183e-06 -5.7642741e-05 1 0
-0.045736976 0.21306023 -0.39694399 -1.899404e-05 -1.1979294e-06 1 9.8703909e-05
-0.03526707 0.21390854 -0.39694402 -1.6751121e-05 8.6682187e-05 1 0
-0.023239143 0.21858257 -0.39694402 6.5186568e-06 7.8002326e-05 1 3.9168226e-05
0.003161639 0.21728523 -0.39694402 -5.3461872e-06 6.2685795e-05 1 8.6047359e-05
0.017371655 0.21236403 -0.39694402 -6.4685651e-07 -2.7411133e-05 1 4.1169071e-05
0.058070727 0.21345796 -0.39694399 1.4498113e-05 6.383645e-07 1 3.3218712e-05
0.076074027 0.21785846 -0.39694402 -2.6123822e-05 3.6126832e-05 1 0
0.083657049 0.21922044 -0.39694405 0.038761605 0.054121349 0.99778175 0.0096188309
0.099465176 0.21507384 -0.39694402 0.33918601 0.21357521 0.91615421 0.085490294
0.11268746 0.21861658 -0.39694399 0.55057347 0.62405252 0.55446118 0.092013873
-0.42845726 0.22195853 -0.39463812 0.80682486 -0.5906834 -0.011258068 0.0023952462
-0.36286494 0.22188105 -0.39694405 -0.31789747 0.34897861 0.88156402 0.084603816
-0.35474223 0.22663435 -0.39694405 -0.45445117 0.1467718 0.87859666 0.08657708
-0.34385714 0.22289912 -0.39694402 -0.040100049 0.004638108 0.99918491 0.0030210828
-0.33025497 0.22961444 -0.39694399 -0.00094698393 0.001014219 0.99999905 6.103536e-05
-0.32672441 0.22790039 -0.39694402 -6.2115585e-05 -3.0101013e-05 1 3.3687345e-05
-0.31444877 0.22125526 -0.39694402 -7.8935322e-05 7.3974974e-05 1 0
-0.30432725 0.22329885 -0.39694402 3.8510225e-05 -7.958983e-05 1 0
-0.28865868 0.22226073 -0.39694402 2.110495e-06 -3.4355537e-05 1 0
-0.2704663 0.22687705 -0.39694402 -9.3444454e-05 -4.2160245e-05 1 6.5455599e-05
-0.26581797 0.22337379 -0.39694402 -6.1598308e-05 3.6964128e-05 1 3.4056167e-05
-0.24075964 0.22746393 -0.39694402 3.8805909e-05 -3.2263899e-05 1 0
-0.1975807 0.22558832 -0.39694402 1.2500005e-05 4.8226586e-05 1 0.00011497
-0.18487564 0.22402197 -0.39694399 5.0829101e-05 -7.5119765e-06 1 4.6100828e-05
-0.1799497 0.22266045 -0.39694405 3.1078307e-05 -4.5149194e-05 1 0
-0.15460223 0.22393852 -0.39694405 6.85439e-06 6.8922673e-05 1 0
-0.14633794 0.22824378 -0.39694402 -3.7119985e-06 3.547272e-05 1 0
-0.13642511 0.22805658 -0.39694405 2.0862968e-05 -8.1236263e-05 1 0
-0.12297428 0.22504036 -0.39694402 3.3359572e-07 3.688212e-05 1 6.8043177e-05
-0.11369511 0.22416186 -0.39694402 -6.6746701e-08 3.3998109e-05 1 3.5509409e-05
-0.10774934 0.22293344 -0.39694402 -0 -0 1 0
-0.079968169 0.22468352 -0.39694405 3.3696997e-05 -0.00011245336 1 0
-0.064552009 0.22430271 -0.39694399 -7.0379838e-06 -5.2630738e-05 1 0
-0.03408391 0.2244705 -0.39694402 1.9166016e-06 -3.1204087e-05 1 3.6788795e-05
-0.026291527 0.22952718 -0.39694399 -2.7182001e-05 6.0119906e-05 1 3.9934166e-05
-0.015522674 0.22574578 -0.39694399 0 0 1 7.0185764e-05
0.015917927 0.22490309 -0.39694399 -0 -0 1 4.3385884e-05
0.023941278 0.22457513 -0.39694399 -2.7252511e-06 -4.2276602e-05 1 0
0.032201797 0.2234478 -0.39694405 -1.1069819e-05 -0.00014167849 1 0
0.046085551 0.22848833 -0.39694399 1.0790556e-06 -3.0956242e-05 1 0
0.056345392 0.2238974 -0.39694405 5.4990887e-06 -3.3046963e-05 1 3.3957047e-05
0.080123693 0.22300677 -0.39694402 0.051790215 0.13378711 0.98965585 0.027380755
0.091550127 0.22591966 -0.39694402 0.2518287 0.286174 0.92449272 0.086921506
0.10344301 0.22783534 -0.39694402 0.46143317 0.37671021 0.80322409 0.10508721
0.15727232 0.22612703 -0.39540455 -0.79590666 -0.60539371 -0.005569926 0.00247341
-0.41835776 0.23312177 -0.39104038 0.74917686 -0.66229004 -0.010295278 0.0015473552
-0.35177264 0.23217574 -0.39694402 -0.47389892 0.10456539 0.87434882 0.082219385
-0.3397243 0.23086512 -0.39694402 -0.1413724 0.1217718 0.98243856 0.05193802
-0.31619868 0.23468679 -0.39694402 -2.2050017e-05 -8.6382512e-05 1 0
-0.30657136 0.23689905 -0.39694405 5.4459597e-05 -0.00010889277 1 0
-0.28849265 0.23428696 -0.39694402 5.6953275e-05 -0.00013554869 1 0
-0.26277915 0.23653264 -0.39694402 -2.7418118e-05 -1.3584824e-07 1 2.9517108e-05
-0.25010067 0.23502405 -0.39694402 3.4900659e-05 -1.0725468e-06 1 7.5011114e-05
-0.24316275 0.23642397 -0.39694402 4.3720152e-06 -3.7807782e-05 1 0
-0.23753363 0.23763004 -0.39694405 4.721147e-05 -3.9604478e-05 1 0
-0.22547047 0.23540984 -0.39694402 3.2215237e-05 6.2111503e-06 1 0
-0.21693751 0.23337039 -0.39694402 -4.4028575e-06 -6.0155064e-05 1 0
-0.20171183 0.23674925 -0.39694402 1.4203663e-05 6.3814543e-05 1 0
-0.18468823 0.2322823 -0.39694402 5.5967976e-05 -5.4023944e-06 1 4.0535095e-05
-0.17700052 0.2311226 -0.39694402 8.4074032e-05 2.0198053e-05 1 0
-0.16370574 0.2318933 -0.39694402 -1.0307094e-05 -0.00010000793 1 0
-0.092802778 0.23315226 -0.39694399 -1.677947e-05 6.7778556e-06 1 6.4004562e-05
-0.087391846 0.23680159 -0.39694402 0 0 1 3.1037296e-05
-0.063841663 0.23370208 -0.39694405 8.3244622e-06 -9.219379e-07 1 6.5592518e-05
-0.036830246 0.23778206 -0.39694402 -4.7014692e-06 6.3527768e-05 1 0
-0.016894698 0.23356161 -0.39694402 -7.1365598e-06 1.3043635e-06 1 3.1411517e-05
-0.0059591122 0.2313551 -0.39694402 4.4132668e-07 -1.5158875e-07 1 3.1240532e-05
0.0084316432 0.23869318 -0.39694405 -0 -0 1 0
0.01362348 0.23598437 -0.39694405 -7.1989402e-06 -3.1182961e-05 1 0
0.023286786 0.23734735 -0.39694399 -2.8460411e-06 -5.3466014e-05 1 6.429651e-05
0.063362874 0.23774971 -0.39694402 0.18154252 0.17186113 0.9682489 0.039283819
0.076918229 0.23513348 -0.39694399 0.074364051 0.18771602 0.97940427 0.038011804
0.082957737 0.23705269 -0.39694402 0.14880612 0.24109608 0.9590252 0.035514608
0.096300468 0.23562512 -0.39694402 0.39400551 0.43296224 0.8107425 0.10489797
0.14759019 0.23579484 -0.39606839 -0.72779423 -0.685785 0.0038225157 0.00062478136
-0.35383081 0.24698146 -0.39710471 0.62484586 -0.44658068 -0.64041662 0.093640588
-0.34030581 0.24959554 -0.39694402 -0.33339351 0.30321679 0.89269727 0.11173477
-0.32219562 0.24708875 -0.39694402 -0.10982895 0.092723623 0.98961604 0.040404662
-0.31530264 0.24367458 -0.39694402 -0.0042861206 0.0062399795 0.99997139 0.00022829768
-0.30566928 0.24446566 -0.39694402 8.3483996e-05 -1.0180279e-05 1 3.6347534e-05
-0.29896039 0.24588645 -0.39694399 6.1981315e-05 -8.5282081e-05 1 0
-0.28817481 0.24452586 -0.39694399 -1.1318978e-06 -4.0605886e-05 1 0.00010547083
-0.27450919 0.24104306 -0.39694405 8.1334829e-06 -3.5210942e-05 1 0
-0.25455293 0.24709475 -0.39694402 4.1968648e-05 -3.8680748e-05 1 0
-0.23445058 0.24297303 -0.39694399 -9.162577e-06 -5.4966236e-05 1 0
-0.22329165 0.24066448 -0.39694405 4.4158528e-06 -3.690095e-05 1 0
-0.20420572 0.24244756 -0.39694405 -0 -0 1 0
-0.19329989 0.24496335 -0.39694405 9.0337569e-05 -2.7073958e-05 1 0
-0.18508008 0.24594554 -0.39694402 -0 -0 1 0
-0.16763008 0.24119711 -0.39694402 2.6796604e-07 2.6810541e-05 1 3.0884396e-05
-0.12509692 0.24647239 -0.39694405 5.2521635e-05 -4.2589887e-05 1 0
-0.08463224 0.24407619 -0.39694399 -4.1977106e-05 -4.0287046e-05 1 7.2995135e-05
-0.074958429 0.24346183 -0.39694399 -3.6258651e-05 -4.5693378e-06 1 6.5646105e-05
-0.066635057 0.24687575 -0.39694399 3.6296901e-06 -3.1939981e-05 1 3.1053034e-05
-0.046639811 0.24455565 -0.39694402 5.1660586e-06 -3.9722458e-05 1 0
-0.037372008 0.24911979 -0.39694402 -6.7176979e-06 -6.8411457e-05 1 0
-0.028115153 0.24417645 -0.39694402 -1.3476753e-05 -5.3758919e-07 1 0
-0.016680572 0.24842766 -0.39694402 -1.9696324e-06 1.2992674e-08 1 6.540239e-05
0.0040616496 0.24475731 -0.39694402 -1.2278805e-06 1.3136784e-07 1 0
0.015552673 0.24039888 -0.39694402 4.2923975e-06 -2.9994335e-05 1 0
0.042332664 0.24966761 -0.39694402 0.04691799 0.19203602 0.98026568 0.023162734
0.069234207 0.24193007 -0.39694399 0.1453957 0.21893701 0.96484542 0.039701398
0.08268825 0.2460586 -0.39694405 0.24062169 0.30519086 0.92139006 0.043763041
0.13388738 0.24947736 -0.39627942 -0.70660132 -0.70761186 -9.4251454e-06 0
-0.40013129 0.25137526 -0.39621603 0.70754403 -0.70666915 -4.625829e-05 0
-0.39271298 0.25880459 -0.39443576 0.70755231 -0.70666093 7.1063194e-05 0
-0.35064149 0.25017551 -0.39702621 0.59871066 -0.39701024 -0.69564968 0.10371914
-0.34409845 0.25642705 -0.39789551 0.64209056 -0.59554082 -0.4827534 0.10523806
-0.33197805 0.25966105 -0.39694405 -0.18924646 0.41365448 0.89054799 0.081004009
-0.3068381 0.25214016 -0.39694402 -0.017120777 0.058212277 0.99815744 0.0084509104
-0.29828182 0.25296307 -0.39694402 8.0988488e-05 2.4573008e-05 1 4.0165985e-05
-0.28706139 0.25249252 -0.39694402 6.395641e-05 -5.2253919e-05 1 0
-0.27515477 0.2560342 -0.39694405 3.163475e-07 -0.00011414327 1 0
-0.26591432 0.25250807 -0.39694405 0.00011314533 -2.6932834e-05 1 0
-0.25508243 0.25556582 -0.39694402 -8.5978299e-06 -6.6104418e-05 1 7.0609545e-05
-0.24702364 0.25388074 -0.39694402 -2.9242179e-05 5.6203509e-05 1 9.9198456e-05
-0.23576955 0.25645337 -0.39694402 7.4779899e-05 9.2101865e-05 1 5.8640624e-05
-0.22997403 0.25954053 -0.39694402 -3.0093532e-05 2.707282e-05 1 8.3070321e-05
-0.20228164 0.25667983 -0.39694402 -1.4022482e-05 0.00010878411 1 6.9524525e-05
-0.19001885 0.25462967 -0.39694399 -0 -0 1 0
-0.17406675 0.25817075 -0.39694402 -3.9097067e-05 5.2212832e-05 1 8.7921013e-05
-0.14583181 0.25433162 -0.39694402 3.1612009e-05 -2.7776045e-05 1 0
-0.11538895 0.25367886 -0.39694405 0.00010163135 -9.8372679e-05 1 0
-0.093620777 0.25698978 -0.39694405 1.1886933e-05 -3.0391358e-05 1 0
-0.065097965 0.25297153 -0.39694405 2.5179732e-05 -3.3565422e-05 1 0
-0.056578677 0.2565437 -0.39694402 8.4944359e-06 3.9780156e-05 1 3.7968945e-05
-0.046781972 0.2545321 -0.39694405 1.8214725e-05 -4.9172137e-05 1 0
-0.024475763 0.25765795 -0.39694399 8.3694231e-06 -9.0188036e-07 1 0
0.0023909456 0.25651643 -0.39694402 -1.1400504e-06 -2.7997241e-05 1 3.1568525e-05
0.012146525 0.25408077 -0.39694399 7.813841e-06 -8.2905914e-05 1 0
0.058264054 0.25006595 -0.39694402 0.1745325 0.32706353 0.92874527 0.046815388
0.062027887 0.25702506 -0.39694402 0.29702583 0.48251462 0.82398736 0.033463322
0.12461111 0.25873989 -0.39637545 -0.70658815 -0.70762509 -5.8624904e-05 0
-0.38611665 0.26541069 -0.39814997 0.70758539 -0.70662785 -6.7675312e-05 0
-0.33342841 0.26594025 -0.39823714 0.3159388 -0.70679057 -0.63295317 0.093330003
-0.3273735 0.26476279 -0.39694399 -0.12230517 0.49410257 0.86075789 0.079975046
-0.30589569 0.26987952 -0.39694402 -0.21238038 0.45063826 0.86707538 0.088216752
-0.29046229 0.26740569 -0.39694405 -0.16142544 0.19426756 0.96757531 0.042220049
-0.26439756 0.26551163 -0.39694402 -5.9887116e-06 5.5578974e-05 1 3.3700708e-05
-0.25885767 0.26496625 -0.39694402 -0.0001127401 -5.483222e-05 1 6.7748719e-05
-0.21743393 0.26987794 -0.39694402 -3.4775425e-05 3.9191269e-05 1 0
-0.20933005 0.26529616 -0.39694402 -2.7376142e-05 3.5826248e-05 1 6.5352098e-05
-0.19692451 0.2670024 -0.39694402 7.7065131e-05 -0.00014308355 1 0
-0.1850951 0.26508567 -0.39694399 2.6555512e-05 3.4678833e-05 1 7.3510273e-05
-0.15866014 0.26771784 -0.39694399 2.0635202e-06 -4.0126528e-05 1 0
-0.13121712 0.26373431 -0.39694405 3.8425937e-05 -4.2713007e-05 1 0
-0.12661925 0.26261103 -0.39694402 3.0076199e-05 -0.00015573871 1 0
-0.10539726 0.26349378 -0.39694402 -2.1383184e-07 -0.00018922413 1 3.4982259e-05
-0.09568011 0.268426 -0.39694402 -1.1933168e-06 -8.3892068e-05 1 0
-0.08937759 0.26670799 -0.39694405 3.5738813e-05 -2.4815861e-05 1 3.1519474e-05
-0.068683684 0.26475704 -0.39694402 -0 -0 1 3.2359527e-05
-0.053296708 0.26593533 -0.39694402 1.3428297e-05 1.6463329e-06 1 7.2000803e-05
-0.044801347 0.26978374 -0.39694399 -5.0650647e-06 7.6647229e-05 1 0.00011293426
-0.035995748 0.26268744 -0.39694405 3.4766388e-06 -0.00016341871 1 0
-0.025893364 0.26701888 -0.39694402 5.0357357e-06 -5.47441e-07 1 7.6110686e-05
-0.0067028105 0.26163426 -0.39694405 -2.5237443e-06 -3.2810723e-05 1 0
0.01552606 0.26351011 -0.39694402 0.012865826 0.012110892 0.9998439 0.00073469436
0.026702253 0.26267523 -0.39694399 0.25407976 0.099060878 0.96209693 0.033625994
0.034425136 0.26323581 -0.39694405 0.14955996 0.2658025 0.95235544 0.039462078
0.061219171 0.26191071 -0.39694399 0.23400412 0.50104356 0.83318508 0.036734544
0.11357434 0.26976031 -0.39693829 -0.70655948 -0.70765364 4.1142957e-05 1.6611801e-05
0.12323169 0.26011726 -0.39979938 -0.70659804 -0.70761514 3.0222577e-06 0
-0.37540597 0.27613729 -0.39546102 0.70012712 -0.71401757 0.0010071074 0.00013924198
-0.29241344 0.27759936 -0.39694402 -0.39486215 0.35864931 0.84584552 0.068047658
-0.27544203 0.2742666 -0.39694402 -0.048307683 0.097773731 0.99403554 0.017939674
-0.26688376 0.2765435 -0.39694402 -0.029264649 0.099835508 0.99457347 0.01793935
-0.25246504 0.27657706 -0.39694399 -6.1449013e-05 -3.6954872e-05 1 6.5143664e-05
-0.23889117 0.2776666 -0.39694402 7.4233003e-07 0.00013350125 1 3.7697668e-05
-0.22676858 0.274957 -0.39694402 -3.129592e-05 -4.0882649e-05 1 3.8337781e-05
-0.21715915 0.27968663 -0.39694399 -2.6215894e-06 -7.0695911e-05 1 3.2498981e-05
-0.20447659 0.27458692 -0.39694402 1.1145038e-05 4.4275388e-05 1 0
-0.1931704 0.27641445 -0.39694405 2.3775779e-05 -8.9941102e-05 1 0
-0.18093055 0.27084696 -0.39694402 -1.889146e-05 5.4884247e-05 1 7.5519842e-05
-0.1710186 0.27085012 -0.39694405 0.00011738222 -6.5370914e-05 1 0
-0.16437906 0.2740801 -0.39694405 -1.9797537e-05 -0.00011974038 1 0
-0.13117871 0.27343407 -0.39694399 1.1851077e-05 4.1650255e-05 1 6.7340399e-05
-0.12229319 0.27320766 -0.39694402 8.7906548e-05 -0.00015309005 1 0
-0.11237413 0.27321666 -0.39694402 8.2458442e-05 -6.2788336e-06 1 3.3499189e-05
-0.10296793 0.27818343 -0.39694405 3.4930195e-05 -8.6870146e-05 1 0
-0.091192633 0.27556014 -0.39694402 -7.9718893e-06 -5.5199282e-05 1 4.1987332e-05
-0.081944302 0.27066797 -0.39694405 -7.7506147e-06 3.0194289e-05 1 3.2293396e-05
-0.078633241 0.27157086 -0.39694399 -2.8931703e-05 2.578055e-05 1 0.00010088269
-0.06940072 0.27752012 -0.39694405 1.145751e-05 -3.9123144e-05 1 3.4345147e-05
-0.055203013 0.27558601 -0.39694399 -3.7538714e-06 -4.3796255e-05 1 6.6659923e-05
-0.045040227 0.27459431 -0.39694405 8.8949237e-06 -6.432183e-07 1 0.0001169946
-0.030437954 0.27748972 -0.39694399 3.9408378e-06 -0.00010664811 1 0
-0.028408691 0.27270207 -0.39694402 -6.4977407e-06 -6.8719994e-05 1 6.7738009e-05
-0.013671871 0.27030033 -0.39694402 2.0150785e-06 -3.1480235e-07 1 0
-0.0060977452 0.27704906 -0.39694402 0.034518961 0.062352404 0.99745709 0.011213471
0.012966041 0.27458861 -0.39694405 0.22220743 0.19689344 0.95491201 0.059591681
-0.37069321 0.28085703 -0.39123029 0.69187069 -0.72202098 0.00077423314 0.00031839748
-0.29594195 0.28222418 -0.39694402 0.46601501 -0.53154397 -0.70731252 0.066249415
-0.28868696 0.28408137 -0.39694402 0.39608955 -0.5861035 -0.70682079 0.068264388
-0.27416283 0.28633082 -0.39694399 -0.18567246 0.34588474 0.9197225 0.07489343
-0.25412774 0.28688964 -0.39694402 -0.050656673 0.204209 0.97761577 0.040438145
-0.24689782 0.28278494 -0.39694402 -0.004886556 0.021670353 0.99975318 0.0014623243
-0.23717122 0.28230613 -0.39694402 9.6339623e-05 4.139942e-05 1 0
-0.22867234 0.28586686 -0.39694402 -0.0089635793 0.026043233 0.99962062 0.0019071038
-0.19309673 0.28009275 -0.39694402 2.738595e-05 -6.2259365e-05 1 0
-0.17564756 0.28445038 -0.39694402 4.8209084e-05 -3.6689184e-05 1 0
-0.16485354 0.28503445 -0.39694399 5.3881573e-05 -5.1838404e-05 1 0
-0.15906222 0.28326428 -0.39694402 4.0980016e-05 -7.8110279e-06 1 3.7370068e-05
-0.14027332 0.28400084 -0.39694399 5.037577e-06 -0.00015519113 1 0
-0.13726705 0.28282002 -0.39694402 2.5409339e-05 -3.6964506e-05 1 5.9975475e-05
-0.1155633 0.28551811 -0.39694405 2.2079696e-05 7.5975098e-05 1 3.6288857e-05
-0.10620753 0.28546166 -0.39694402 -2.0361855e-05 -8.960838e-05 1 0
-0.092269138 0.28612065 -0.39694402 2.1390862e-05 -8.3785169e-05 1 7.4124415e-05
-0.081463769 0.28174683 -0.39694402 2.6122021e-05 -0.00020816571 0.99999994 0
-0.07612922 0.28728637 -0.39694399 -6.9017915e-07 -4.803405e-05 1 0
-0.065467723 0.28190538 -0.39694405 -6.236322e-06 -0.00019981865 1 0
-0.04941646 0.2870543 -0.39694405 -3.4008938e-08 -3.6427264e-05 1 0
-0.025079183 0.28452429 -0.39694405 0.011263313 0.057021968 0.99830937 0.0066188816
-0.0061185695 0.28063494 -0.39694402 0.04628408 0.19013993 0.98066533 0.036309633
0.0045211716 0.28716403 -0.39694402 0.22344404 0.38440749 0.89571404 0.093194656
0.015242432 0.28322545 -0.39694402 0.31953636 0.35347003 0.87917888 0.077367723
0.021229131 0.28372812 -0.39694402 0.3940649 0.4784793 0.78471041 0.069166385
-0.35629377 0.29415116 -0.39116269 0.60603398 -0.79525799 0.01695865 0.0022584773
-0.27235693 0.29207474 -0.39694405 -0.17841738 0.30985814 0.93389255 0.06528385
-0.26998904 0.2906214 -0.39694402 -0.094457932 0.2530216 0.96283841 0.054802947
-0.2324907 0.29870328 -0.39694402 -0.013893419 0.13144083 0.99122667 0.015589865
-0.22406694 0.29544306 -0.39694405 -0.0036203258 0.11950235 0.9928273 0.01742764
-0.20918867 0.29676875 -0.39694402 -0.083176114 0.13573694 0.98724729 0.030367587
-0.16942112 0.29226911 -0.39694405 -5.1355779e-05 8.5461346e-05 1 9.7984805e-05
-0.15912844 0.29380932 -0.39694402 0.0001488382 -1.0724021e-05 1 0
-0.12696573 0.29305786 -0.39694402 1.3481328e-05 -0.0001744433 1 0
-0.11554155 0.29170838 -0.39694402 3.7013269e-05 -3.5649234e-06 1 3.4830933e-05
-0.10139509 0.2937783 -0.39694405 -9.6883941e-06 -0.00012728262 1 0
-0.09548299 0.29555428 -0.39694399 -2.9948751e-05 -6.2787272e-05 1 6.91932e-05
-0.088579245 0.29633513 -0.39694399 -3.0462768e-05 -0.00016319031 1 3.3146938e-05
-0.077191368 0.29341751 -0.39694402 1.6588521e-05 -2.4109241e-07 1 3.2423221e-05
-0.046125259 0.29509869 -0.39694405 0.043328375 0.1677722 0.98487318 0.036015477
-0.035454985 0.2945821 -0.39694402 0.0081166755 0.19605368 0.98055965 0.04433189
-0.024670791 0.29694813 -0.39694405 0.14143801 0.29139161 0.94608998 0.06280224
0.00074480101 0.29268903 -0.39694402 0.24500705 0.57682562 0.77925849 0.098826759
0.014496976 0.29173547 -0.39694402 0.45189038 0.55144274 0.70121753 0.10634861
0.02216143 0.29084969 -0.39985061 0.51383996 0.60154444 0.61164755 0.072784103
-0.34255198 0.30209854 -0.39626163 0.5115664 -0.85923439 -0.0040139621 0.00048848253
-0.27152735 0.3002423 -0.39694402 -0.30715755 0.52133024 0.79615897 0.070755921
-0.24398553 0.30817512 -0.39694402 -0.18163902 0.37564713 0.9087885 0.066979699
-0.21310832 0.30696985 -0.39694402 -0.15006293 0.32705253 0.93301547 0.053318985
-0.2061234 0.3024959 -0.39694399 -0.118512 0.18960254 0.97468239 0.047085688
-0.19498949 0.30676821 -0.39694402 -0.11250437 0.22893609 0.96691835 0.067929834
-0.18471047 0.30770802 -0.39694402 -0.040498845 0.20670092 0.97756559 0.04542274
-0.16371612 0.30718195 -0.39694399 0.011309775 0.1325354 0.99111378 0.028583847
-0.15876625 0.30644512 -0.39694402 0.023814062 0.097935669 0.9949078 0.022919124
-0.14805365 0.30957922 -0.39694402 -0.00014329587 0.092449538 0.99571735 0.017241383
-0.12587392 0.30540642 -0.39694402 0.013225293 0.070116147 0.99745113 0.0099871606
-0.11259093 0.30039862 -0.39694402 1.9777946e-05 -0.00015825733 1 3.7710663e-05
-0.10543598 0.30142918 -0.39694405 0.0024260145 0.038358226 0.9992612 0.0052276659
-0.084652841 0.30702645 -0.39694402 0.019286064 0.13432226 0.99075001 0.020428967
-0.073973961 0.30645984 -0.39694402 0.033005755 0.14599426 0.98873478 0.029222466
-0.068898723 0.30005103 -0.39694399 0.023937415 0.11937574 0.99256057 0.019906886
-0.044812515 0.30549344 -0.39694399 0.15496553 0.48248455 0.86208725 0.067967579
-0.032369915 0.30556959 -0.39694405 0.12788928 0.49571076 0.85901988 0.11640748
-0.013810769 0.30441767 -0.39694402 0.2986775 0.56486279 0.76923448 0.076722197
0.0040562847 0.30128485 -0.39706671 0.3659218 0.68881965 0.62580258 0.084917612
0.067013301 0.30639809 -0.39658356 -0.4993628 -0.86639297 7.385866e-05 0
0.076581568 0.30088332 -0.39904401 -0.53430378 -0.84529251 -0.0002365376 0.00083236181
-0.32740301 0.3108598 -0.39876521 0.50060642 -0.86567497 8.3268962e-05 3.8981102e-06
-0.31583679 0.31754899 -0.39597681 0.50062644 -0.86566335 3.1997741e-05 3.7425143e-06
-0.25145704 0.31017902 -0.39699978 -0.24141659 0.60561448 0.75825399 0.089663036
-0.22449906 0.31468225 -0.39704505 -0.16072105 0.6429379 0.74886554 0.10276005
-0.21738622 0.31933534 -0.39808267 0.22063272 -0.72808647 -0.64900792 0.089247279
-0.20147571 0.31765902 -0.39694399 0.15746205 -0.77063841 -0.61751294 0.090648115
-0.19658196 0.3112219 -0.39694402 -0.19593731 0.66108918 0.72427177 0.083575435
-0.18395969 0.31387293 -0.39694399 -0.043826178 0.49280119 0.86903763 0.073514313
-0.17888133 0.31571376 -0.39694405 -0.046421424 0.42043695 0.90613341 0.081487052
-0.16505849 0.31303176 -0.39694405 -0.033823401 0.25108749 0.96737325 0.063884638
-0.15515088 0.31383106 -0.39694402 -0.077494457 0.30489141 0.94922906 0.059583373
-0.12378699 0.31829983 -0.39694399 -0.014471987 0.31950068 0.94747555 0.071251109
-0.11039197 0.31144059 -0.39694402 0.025752813 0.12750466 0.9915036 0.019032784
-0.10283677 0.31614056 -0.39694402 0.071544059 0.26406434 0.96184802 0.048083115
-0.099939346 0.31552184 -0.39694402 0.04299758 0.2761167 0.96016181 0.047584139
-0.089836784 0.31626746 -0.39694402 -0.01390336 0.27415192 0.96158588 0.044114605
-0.064510599 0.31717396 -0.39694402 0.12412225 0.33296841 0.93473303 0.043913234
-0.056834474 0.31391174 -0.39694402 0.11838879 0.33929202 0.93320149 0.047600158
-0.03418785 0.31489927 -0.39852381 -0.14453982 -0.79904169 -0.58364421 0.096498512
-0.025187168 0.3100116 -0.39694405 0.23226872 0.59194207 0.77178746 0.077174954
0.046588279 0.31817034 -0.39805388 -0.49936178 -0.86639357 2.4937523e-05 0
-0.30782488 0.3221826 -0.39382702 0.50068283 -0.86563075 5.4699241e-05 0
-0.19433855 0.32490009 -0.39710164 0.22294794 -0.79327881 -0.56657124 0.065019108
-0.18541092 0.3218846 -0.39694402 -0.18504359 0.71185344 0.67751271 0.091759525
-0.17245516 0.32887337 -0.39694405 -0.13435058 0.73205245 0.66786921 0.075861312
-0.16538514 0.32895535 -0.39694405 -0.05046732 0.72510159 0.68679017 0.09560357
-0.15557387 0.32602531 -0.39720732 -0.098500945 0.50248057 0.85895908 0.065156713
-0.1453836 0.32639045 -0.39694405 -0.00014015882 0.6514762 0.75866908 0.094636522
-0.1349088 0.32710236 -0.39694402 0.064948104 0.72286153 0.68793386 0.083003044
-0.12974496 0.32135591 -0.39694405 0.09378057 0.43294856 0.89652711 0.062582925
-0.11731258 0.32215202 -0.39694402 0.043919578 0.5185774 0.85390192 0.075870141
-0.10562563 0.32084522 -0.39694402 0.085870296 0.35485896 0.93096799 0.065215908
-0.096225262 0.3267661 -0.39694402 0.027275646 0.51755369 0.85521591 0.059290633
-0.083532378 0.32629955 -0.39694402 0.076396696 0.66426414 0.74358368 0.05810333
-0.070622303 0.32463291 -0.39913547 0.21790662 0.6923613 0.68786085 0.092979424
-0.065819398 0.3233498 -0.39872813 0.20391622 0.67045796 0.71337527 0.084394023
0.034923173 0.32489365 -0.39557606 -0.49936533 -0.8663916 1.4857425e-05 0
-0.27970147 0.33844748 -0.39873564 0.40959644 -0.91221052 -0.010139442 0.0046371389
-0.15149972 0.33000016 -0.39964294 0.081348173 -0.7752673 -0.62637299 0.098185845
-0.14355265 0.330006 -0.39818156 0.021333663 -0.79023975 -0.61242628 0.090002984
-0.099382937 0.33003879 -0.39855859 -0.028609596 0.75740194 0.6523217 0.085384436
-0.27565202 0.34078941 -0.39207464 0.41340142 -0.91054672 -0.0019982406 0.0039707278
-0.25195491 0.34718612 -0.39319664 0.27006403 -0.9628424 0.00012028752 0.00013232538
-0.24658528 0.34862918 -0.39605373 0.25951996 -0.96573776 -2.8544344e-05 0
-0.023461081 0.34915972 -0.39476019 -0.2580964 -0.96611917 6.3919564e-05 0
-0.0092467563 0.34536225 -0.39940447 -0.28734338 -0.95782447 -0.0024775164 0.00054296252
0.0022749063 0.34228417 -0.39319086 -0.29379538 -0.95584095 0.0072343661 0.00054137968
-0.23900352 0.35066673 -0.39607176 0.25951824 -0.96573824 -0.00018758948 9.2871174e-05
-0.22152092 0.35536507 -0.39432177 0.2595745 -0.96572304 -4.3219497e-05 5.6938094e-05
-0.21214397 0.35788503 -0.39539015 0.25888699 -0.96590763 -0.00015568914 0.00013291204
-0.20638019 0.35943404 -0.3948063 0.25863269 -0.96597576 3.2344782e-05 4.999372e-05
-0.036147945 0.35254905 -0.39197975 -0.25808516 -0.96612215 7.4108008e-05 0
-0.20203178 0.36060262 -0.39657867 0.24002062 -0.97076714 -0.0011473699 0.00036298329
-0.18430011 0.36522472 -0.39729396 0.1837589 -0.98296028 0.0046618921 0.0013419145
-0.17535223 0.36585066 -0.39450464 0.083126478 -0.99648607 0.010266668 0.001906598
-0.15068789 0.36586896 -0.39432481 0.00071118376 -0.9999997 -1.5098341e-05 0
-0.1482341 0.36587077 -0.39571589 0.00075640436 -0.99999964 4.2119307e-05 0
-0.13309045 0.36588198 -0.39254338 0.00074366527 -0.99999976 4.0223757e-05 0
-0.12519236 0.36588788 -0.39982748 0.00072247605 -0.99999976 -3.8675721e-06 2.8774912e-05
-0.10839307 0.36590034 -0.39337996 -0.0038493616 -0.99999261 -0.00018283672 8.7687469e-05
-0.083522394 0.36520541 -0.39382035 -0.1373318 -0.99043596 -0.013287963 0.0027382986
-0.069476247 0.36145285 -0.39004755 -0.23177744 -0.97276509 -0.0027039642 0.00067213364
-0.18175147 -0.36591661 -0.38791746 0.14845479 0.98891675 -0.0022014775 0.0025073604
-0.17241824 -0.3659097 -0.38965061 0.06161752 0.99809879 0.001460186 0.0013393494
-0.15819782 -0.36589915 -0.38712925 -0.00071384932 0.9999997 -0.00012943885 2.9891338e-05
-0.13434863 -0.3658815 -0.38342357 -0.00072924211 0.99999976 0.00010068774 3.9156344e-05
-0.12420498 -0.36587396 -0.38409472 -0.00082339102 0.99999964 -5.0527946e-05 0.0001404558
-0.11361096 -0.36586609 -0.38184917 -0.00077172101 0.99999976 -8.3454928e-05 3.4810899e-05
-0.095173895 -0.36585242 -0.38924673 -0.048473459 0.99871522 -0.014771123 0.0010166063
-0.080984093 -0.36459339 -0.38973829 -0.1719164 0.98507291 -0.0087268697 0.0020672102
-0.23726624 -0.35114712 -0.38425767 0.25812805 0.96611071 -3.8367234e-05 6.9618e-05
-0.057180498 -0.35819632 -0.38717693 -0.25953725 0.96573311 1.3437105e-05 0
-0.0472738 -0.35553396 -0.38358888 -0.25953373 0.965734 4.9360187e-05 2.5354902e-05
-0.26504022 -0.34372717 -0.38332361 0.32994035 0.94399345 -0.0039728237 0.001765506
-0.25596288 -0.34615219 -0.38330331 0.26811454 0.96338314 0.0027386837 0.00029294117
-0.24799171 -0.34828174 -0.3893913 0.25799248 0.96614689 -5.1486575e-05 5.4429336e-05
-0.01982731 -0.34815788 -0.38546497 -0.25953364 0.96573412 -4.4899676e-05 6.6269777e-06
-0.29110846 -0.33179915 -0.3817479 0.46010265 0.8878653 -0.00083761412 0.0011556622
-0.28797394 -0.3336058 -0.38050768 0.45044845 0.89279205 0.0043014796 0.0011110586
0.016459741 -0.33559933 -0.38459885 -0.46452036 0.88554776 -0.0051067369 0.00071675488
0.039165393 -0.32246774 -0.38204542 -0.50064421 0.8656531 1.6897968e-05 0
-0.33885267 -0.30428118 -0.38820347 0.50352544 0.86398035 -8.5843363e-05 4.0856848e-05
0.068287931 -0.30562505 -0.38173297 -0.50063378 0.86565918 -0.00010219456 5.2202381e-06
-0.35453913 -0.29524007 -0.38588557 0.57096648 0.82097328 0.0002953526 0.0021305874
-0.36490631 -0.28656983 -0.38194442 0.63904226 0.76766682 -0.04809086 0.0020039799
0.097731985 -0.28565896 -0.38117746 -0.65922064 0.75174767 -0.01742373 0.0013846856
0.10349443 -0.27988797 -0.38077641 -0.69724369 0.71681476 -0.0052736793 0.00022076328
-0.38867009 -0.26284128 -0.38959661 0.7066887 0.7075246 3.1762025e-05 0
-0.40150365 -0.25002673 -0.38416243 0.70659316 0.70762002 1.2982515e-05 9.858778e-06
-0.39167547 -0.25984037 -0.38318092 0.70659596 0.70761722 -3.6976879e-05 7.5772509e-06
0.12812944 -0.25521642 -0.38567966 -0.7076537 0.70655948 -6.2575964e-05 2.8772316e-05
0.13008292 -0.25326005 -0.38449171 -0.70762855 0.70658463 -4.6433441e-05 1.6296175e-05
-0.41034439 -0.24119908 -0.38917726 0.70957983 0.70462358 -0.0014106139 0
-0.40903658 -0.24250497 -0.38260576 0.70938355 0.70482242 -0.00067848439 0
-0.41651505 -0.23503754 -0.38300386 0.74134547 0.67110473 -0.0050240322 0.0012574327
0.14616475 -0.23715436 -0.38869181 -0.72192717 0.69196892 -0.00051512715 0.00053325639
-0.42580014 -0.22576624 -0.38011125 0.77977586 0.62605834 0.00068341719 0.0024903314
0.15692642 -0.22637673 -0.38319945 -0.82771498 0.55790579 -0.06024085 0.012464178
-0.43443084 -0.21149632 -0.38416815 0.84539229 0.53412342 0.0048995088 0.00092867843
0.16431844 -0.21497053 -0.38750106 -0.85854965 0.50771117 -0.071566544 0.01257011
-0.43858409 -0.20431495 -0.38461405 0.86212951 0.50668448 0.0018596747 3.2698823e-05
0.16925141 -0.20641172 -0.38611785 -0.86981452 0.48975253 -0.059708219 0.07962583
-0.44372413 -0.19542736 -0.38581499 0.86566019 0.50063217 -5.5325905e-05 9.9948062e-05
0.17462961 -0.19708046 -0.38489479 -0.89500469 0.44470754 0.034667104 0.090676799
-0.4523254 -0.18055499 -0.386576 0.86563838 0.50066966 -0.00010365135 8.4673324e-05
0.18020791 -0.18740198 -0.38908726 -0.84043205 0.54180288 0.011115947 0.10083969
0.18901892 -0.1721531 -0.38336062 -0.8942247 0.43091965 -0.12112177 0.11901516
-0.46388268 -0.16057144 -0.38492006 0.87434864 0.48527858 -0.0043983641 0.00021326057
-0.45888957 -0.16920498 -0.38436732 0.86562258 0.50069714 4.5249286e-05 0
0.18347371 -0.16436005 -0.38302144 -0.80081469 0.55778027 -0.21812142 0.087653443
-0.46765929 -0.15404129 -0.38391793 0.88372058 0.46800894 0.0023685785 0.00037719135
0.18391937 -0.1596297 -0.3824259 -0.78943753 0.55221695 -0.2680389 0.16165227
0.20010744 -0.1528759 -0.38522655 -0.86323762 0.49878615 -0.077673875 0.085842513
-0.47526395 -0.14021774 -0.38912281 0.93160087 0.36331275 0.011120163 0.0021523396
0.19483817 -0.1475769 -0.38100946 -0.83117855 0.51078218 -0.21964423 0.11563449
0.20480889 -0.14471883 -0.38896745 -0.89873058 0.43818653 -0.016608497 0.075378478
-0.47616535 -0.13686356 -0.3831349 0.93390703 0.35750723 0.0025088084 0.0018357255
0.20869575 -0.1345062 -0.38089475 -0.93214363 0.36111611 0.026520999 0.13165496
-0.48015594 -0.12201458 -0.38314199 0.96573287 0.25953799 -6.3652835e-05 0
0.21464276 -0.11224568 -0.38721147 -0.97047961 0.24118045 -0.0011942396 0.025776053
0.21614709 -0.10661469 -0.38792205 -0.96002758 0.27645478 -0.043815635 0.0105721
0.22180857 -0.085422948 -0.38430303 -0.96611595 0.25810835 0.00011948604 0
-0.49532485 -0.065570891 -0.3844071 0.96742195 0.25316587 -0.0013797956 0.00010881101
0.22744435 -0.064327374 -0.38503176 -0.96822309 0.25006989 -0.0030268389 7.3962663e-05
-0.4975872 -0.057152644 -0.38811198 0.9819935 0.18884762 0.005034545 0.0015921614
0.23114803 -0.050464027 -0.38282186 -0.98977196 0.14239399 -0.0086873788 0.0025834129
0.23183075 -0.044119477 -0.38050854 -0.99476945 0.10121855 -0.013731137 0.0020851975
-0.49994004 -0.032956503 -0.38578343 0.99968415 0.024938785 0.0030986937 0.00041601082
-0.49994698 -0.02357829 -0.38202888 0.99998575 0.0052942145 -0.00063149229 0.00016792263
0.23181531 -0.023273841 -0.38438046 -0.99997473 0.0068685575 0.0018028165 4.2478237e-05
-0.49995473 -0.013150979 -0.38281757 0.99999976 0.00071594265 -0.00014565885 0
0.23180319 -0.0069402829 -0.38674465 -0.99999976 -0.00074205839 9.7582051e-06 7.6704782e-06
-0.49997014 0.0076188869 -0.38697392 0.9999997 0.00075521338 -7.5669435e-05 4.0018225e-05
0.23179778 0.00036788918 -0.388502 -0.9999997 -0.00075240561 5.187756e-05 0
-0.49998337 0.025495879 -0.38010478 0.99990016 -0.014122766 -0.0004872756 7.3575888e-05
0.2317818 0.021905577 -0.3832303 -0.99999976 -0.00074536598 3.3844612e-05 0
0.23176576 0.043544039 -0.38112101 -0.9968859 -0.078746855 0.0041806023 0.0010280142
-0.49711612 0.058692828 -0.38307947 0.97572786 -0.21898448 -0.00096862466 0.00089356222
-0.49611169 0.06245245 -0.38684791 0.97542787 -0.22027695 -0.0043192673 0.00073672953
0.21918352 0.095245622 -0.38863206 -0.96572775 -0.25955716 -7.6450131e-05 2.2762228e-05
0.21594389 0.10730036 -0.38459772 -0.96573502 -0.25953013 -5.3123724e-05 2.9403034e-06
-0.48235622 0.11394126 -0.38341165 0.96597719 -0.25862709 -0.00038869819 9.0711867e-05
-0.4794181 0.12493894 -0.38399807 0.95230168 -0.30513802 -0.0035262592 0.001022853
0.21247619 0.12020367 -0.38417989 -0.96459526 -0.26372796 -0.0018609125 1.6953734e-05
-0.47760999 0.13170695 -0.3847394 0.94615602 -0.32367477 -0.0048334864 0.0016220917
0.207994 0.13688207 -0.38880369 -0.92979389 -0.36780253 -0.014302063 0.0024723862
0.20607261 0.14264634 -0.38402286 -0.91929108 -0.39357361 -0.0019221045 0.0025249738
-0.4692277 0.15122102 -0.38674402 0.89614242 -0.44363242 -0.010914484 0.002325567
0.19600162 0.16007796 -0.38769275 -0.87177706 -0.48990148 0.0011748963 0.00016380084
-0.45443299 0.17689009 -0.38583788 0.86638075 -0.49938405 -5.7192603e-05 5.5733876e-06
0.18954344 0.17124477 -0.3874107 -0.86565012 -0.50064945 1.5994699e-06 0
-0.44875312 0.18674478 -0.38906965 0.86638129 -0.49938315 -2.5836949e-05 0
0.16817129 0.2081991 -0.38391697 -0.85980231 -0.51062703 0.00042544882 4.2963875e-05
-0.43418926 0.2120133 -0.38220683 0.8528592 -0.52213603 0.0022332787 0.00087074575
0.16296387 0.21720317 -0.38425085 -0.82781303 -0.56098706 -0.0043730377 0.0016405372
-0.42717153 0.22418922 -0.38073489 0.77332741 -0.63398176 -0.005640029 0.0028620607
-0.4156577 0.23582584 -0.3839086 0.72345293 -0.69021761 -0.014681036 0.00068638113
-0.40624923 0.24524826 -0.3842476 0.70810795 -0.70610398 -0.00055848336 0
0.13946112 0.24391186 -0.38179001 -0.70659631 -0.70761687 4.7298625e-05 0
-0.3948738 0.25664058 -0.38501078 0.70765173 -0.70656145 0.0001108564 0
0.12386634 0.25948352 -0.38724887 -0.70658928 -0.70762396 6.5940403e-05 0
-0.38888159 0.26264167 -0.38356414 0.70760703 -0.70660615 -5.8660378e-05 9.0259227e-06
0.11587711 0.26746097 -0.38476706 -0.70658022 -0.70763308 3.1331794e-05 8.522743e-07
0.12177774 0.26156905 -0.38354564 -0.70664078 -0.70757252 5.9914499e-05 0
0.10788389 0.27544233 -0.38725376 -0.70376557 -0.71043229 -0.00022117645 1.8152497e-05
0.11169251 0.27163935 -0.38336796 -0.70659423 -0.70761889 -2.6198213e-06 0
-0.3708722 0.28067783 -0.38137737 0.6930787 -0.72085434 0.0033011478 0.00027449409
-0.36378556 0.28777495 -0.38706642 0.6357224 -0.77190375 0.0046630907 0.0018963445
0.096423939 0.28688532 -0.38313437 -0.65474242 -0.75565654 0.017195566 0.001939061
-0.35316074 0.29596308 -0.38168651 0.5756883 -0.81746829 -0.018120965 0.0019309868
0.087833084 0.29439837 -0.38077229 -0.59994465 -0.79987824 0.016159751 0.0025223428
-0.34450024 0.30097181 -0.38735291 0.52552974 -0.8506847 -0.012411188 0.00068639527
-0.33386362 0.30712336 -0.38694236 0.50060266 -0.86567712 7.3883581e-05 9.3853305e-06
0.064088657 0.30808377 -0.38324291 -0.49936473 -0.86639184 4.7810286e-06 0
-0.32074749 0.31470892 -0.38373438 0.50068539 -0.86562932 -4.1887193e-05 0
0.045489974 0.31880331 -0.38447541 -0.49943063 -0.86635393 -0.00010458192 8.0549245e-05
0.057996619 0.31159499 -0.38482451 -0.49938235 -0.8663817 -1.3886064e-06 1.8042532e-05
-0.29965535 0.32690737 -0.3887541 0.50072587 -0.86560595 4.9804396e-05 0
0.028427836 0.32863733 -0.38275403 -0.49936715 -0.86639041 0.00013540349 0
-0.28697819 0.33423901 -0.38311112 0.49006215 -0.8716343 -0.0096370745 0.00015195468
0.012499944 0.33781755 -0.38302794 -0.42825413 -0.90363652 0.0062784576 0.0017447571
-0.24566944 0.34887528 -0.38370234 0.25954723 -0.96573043 2.7995937e-05 0
-0.02233471 0.34885877 -0.38847113 -0.25815701 -0.96610302 -4.9059821e-05 5.8554357e-05
-0.0072340504 0.34482455 -0.38896489 -0.2884019 -0.9575054 0.0027720076 0.00067325879
-0.24006681 0.35038096 -0.38512042 0.2593635 -0.96577978 -8.7437853e-05 4.0327159e-05
-0.23827636 0.35086212 -0.38862902 0.25956526 -0.9657256 -4.609425e-05 5.8902446e-05
-0.2225711 0.35508284 -0.38756061 0.25949791 -0.96574366 6.2600702e-05 1.4695092e-05
-0.20579791 0.3595905 -0.38518929 0.25883663 -0.96592081 0.00071308244 0
-0.052970212 0.35704321 -0.38393062 -0.25810006 -0.96611816 -3.3803623e-05 0
-0.040459845 0.353701 -0.38620573 -0.25809893 -0.96611851 -5.1463161e-05 0
-0.037879542 0.35301167 -0.38420418 -0.25807837 -0.966124 8.5103646e-05 0
-0.19247229 0.3631717 -0.38443553 0.20448601 -0.97883368 -0.0083745038 0.0010965454
-0.1693543 0.36585516 -0.38867041 0.048637703 -0.99881488 -0.0017959541 0.0011018649
-0.13429245 0.36588109 -0.38238144 0.00074204087 -0.9999997 4.7640227e-05 9.4407202e-05
-0.11586715 0.36589476 -0.38482863 0.00076689973 -0.9999997 -0.00012759242 3.938597e-05
-0.10721761 0.3659012 -0.38733435 -0.0032091499 -0.9999938 0.0014626104 2.3974346e-05
-0.093664281 0.36591125 -0.38237485 -0.084229574 -0.99644244 0.0027827281 0.0026897229
-0.085665174 0.36577785 -0.3896924 -0.13839751 -0.99034101 -0.0084111374 0.0029158134
-0.077720433 0.36365536 -0.38115767 -0.2058509 -0.97854578 -0.0085753035 0.0012863225
-0.067111984 0.36082128 -0.38928622 -0.24440889 -0.96964741 -0.0069407797 0.00039212385
-0.20170429 -0.36064768 -0.37985873 0.24388082 0.96980387 0.0016373257 0.00016272764
-0.19448534 -0.36257625 -0.37257102 0.22162142 0.97512811 -0.003032916 0.00061603013
-0.17770605 -0.36591363 -0.37718329 0.12084317 0.99261385 -0.010708993 0.0024915431
-0.15238628 -0.36589488 -0.37494671 -0.00074574357 0.9999997 -7.3014358e-05 0
-0.14174064 -0.36588696 -0.37322712 -0.00069381978 0.99999976 4.5421009e-05 0
-0.13733256 -0.36588371 -0.37753284 -0.0006730957 0.99999976 -8.994402e-05 0
-0.12903598 -0.36587757 -0.37009394 -0.0007242306 0.99999976 3.1057141e-06 0
-0.11045373 -0.36586377 -0.37573153 -0.0037688813 0.99999189 -0.0014133144 2.6384894e-05
-0.10231936 -0.36585775 -0.37506104 -0.030403653 0.99951917 -0.0060829869 0.00057608396
-0.092498943 -0.36585048 -0.37799382 -0.062712811 0.9980216 -0.0044750203 0.0012918852
-0.076388732 -0.36335838 -0.37409937 -0.18208703 0.9832505 -0.0079204021 0.002203176
-0.069574609 -0.36152714 -0.37529233 -0.23572226 0.97181779 0.0023006615 0.00058545696
-0.23373918 -0.35208938 -0.3737168 0.25814736 0.96610552 -0.00010112424 0
-0.22098044 -0.35549796 -0.37299734 0.25805721 0.9661296 2.1612141e-05 0
-0.20806751 -0.35894769 -0.37454247 0.25802022 0.9661395 -2.6367009e-06 0
-0.060630649 -0.35912353 -0.37722611 -0.25955248 0.965729 0.00012320915 0
-0.04410962 -0.35468358 -0.37709385 -0.25959143 0.96571857 -6.580156e-06 0.0001374647
-0.03609252 -0.35252905 -0.37618619 -0.25960091 0.965716 -0.00015158895 4.6803532e-05
-0.26508474 -0.34371525 -0.37302563 0.34215134 0.93958944 0.010199565 0.0015694301
-0.24391887 -0.34936982 -0.37495637 0.25811735 0.96611363 -8.0246784e-05 3.206876e-06
-0.020332977 -0.34829378 -0.3722055 -0.2595194 0.96573782 0.00021836645 1.6511234e-05
-0.014999734 -0.34686047 -0.37770304 -0.26428437 0.96444392 0.0012836955 3.2756987e-05
0.0027007679 -0.3421036 -0.37940246 -0.35077068 0.936459 0.0020956076 0.0024649161
-0.28879762 -0.33313107 -0.37402937 0.45958504 0.8881067 0.0069324947 0.0010976854
0.0092498846 -0.33976907 -0.37959051 -0.40631458 0.91370159 -0.0076085893 0.0021698161
0.025565231 -0.33033326 -0.37889177 -0.49329385 0.86986244 0.0006596052 0.00022000975
-0.30437469 -0.32415301 -0.37400547 0.4993383 0.8664071 -0.00011196346 7.6725861e-05
0.029101472 -0.32828811 -0.3718231 -0.50065106 0.86564922 5.298997e-05 0
0.043064136 -0.32021296 -0.37784535 -0.50063455 0.8656587 -8.2948827e-05 6.1827554e-06
-0.320407 -0.31491256 -0.37592936 0.49942476 0.86635721 1.5076819e-05 0
0.048972938 -0.31679568 -0.37603611 -0.50064087 0.86565518 7.8420991e-05 0
-0.34586453 -0.3002398 -0.37316501 0.51746905 0.85567379 0.0069376044 0.00060876977
-0.33919907 -0.30408153 -0.37409237 0.50327682 0.86412477 0.00095125649 8.2160725e-05
0.068829283 -0.30531195 -0.37142876 -0.5007093 0.86561549 5.2984044e-05 5.2314183e-05
0.076263152 -0.30101269 -0.37181044 -0.54396915 0.83888859 0.01906337 0.00097345939
-0.36007118 -0.29139781 -0.37874293 0.58704394 0.80950552 -0.008960546 0.0021116624
-0.35323569 -0.29599133 -0.37751806 0.58319473 0.81228721 -0.008564176 0.0020929596
-0.34996921 -0.297874 -0.37294659 0.55279243 0.83331698 0.0018444144 0.0019337829
0.085656561 -0.29558006 -0.3732523 -0.56276441 0.82606077 0.030328736 0.0013169397
0.099857263 -0.28353053 -0.37435257 -0.66512728 0.74635303 -0.023723245 0.0015087617
-0.38824034 -0.26327041 -0.37475622 0.70679355 0.70741987 -7.4876589e-05 0
0.11422256 -0.26914391 -0.37280446 -0.70762736 0.70658594 5.0122853e-05 0
0.12030926 -0.2630482 -0.37389323 -0.7076475 0.70656574 -1.4916336e-05 0
-0.39775327 -0.25377154 -0.37062484 0.70658332 0.7076298 0.00010716194 0
0.12670584 -0.25664213 -0.37514335 -0.70762616 0.70658702 -7.4524913e-05 0
-0.40584561 -0.2456912 -0.37184188 0.7065419 0.70767117 4.6169891e-05 0
0.1341849 -0.249152 -0.37841827 -0.70752358 0.70668972 5.1383795e-06 0
0.14320315 -0.24012035 -0.37788221 -0.71319586 0.70096064 -0.002385448 0.00013472264
0.14634362 -0.23697522 -0.37569314 -0.75255173 0.6561138 -0.056395896 0.011472786
-0.42693973 -0.22399794 -0.37436265 0.78474355 0.61971444 0.011473006 0.00226638
0.15424617 -0.22906096 -0.37974781 -0.80110294 0.59699345 -0.042812221 0.012676243
-0.43294874 -0.21405894 -0.37573823 0.84793353 0.53001511 0.0096252449 0.0011982635
0.16143078 -0.2199807 -0.37082306 -0.82884073 0.55819356 0.03798819 0.080674522
0.20386162 -0.21029365 -0.37007186 -0.0074854456 0.36831567 0.92967069 0.0036565422
-0.43768391 -0.20587146 -0.37564716 0.8638252 0.50379097 0.00077767012 0
0.16356865 -0.20304453 -0.37193316 -0.86731058 0.36233395 -0.34130117 0.16863698
0.17380826 -0.20291233 -0.37303826 -0.95839179 0.23908892 -0.15595429 0.1906589
0.19759294 -0.2052968 -0.37199587 0.098842934 0.36104658 0.92729467 0.06242701
0.20809478 -0.20986038 -0.37001729 -0.014588034 0.37133849 0.92838293 0.0030113836
0.21857244 -0.20565026 -0.37090796 -0.051222 0.31970331 0.94613224 0.0021729779
0.22363302 -0.2019477 -0.37162405 -0.072670385 0.23983929 0.96808887 0.0029609201
0.23218459 -0.2003119 -0.37077516 -0.11685517 0.14811911 0.9820416 0.0016853822
-0.44253856 -0.19747731 -0.37426153 0.86560535 0.50072676 -0.00014567294 5.8985101e-05
0.1679201 -0.19390149 -0.37704331 -0.86157149 0.36284745 -0.35501587 0.09322603
0.17272751 -0.19441088 -0.37668276 -0.88510835 0.41863489 -0.20329297 0.14083131
0.18565667 -0.19739933 -0.37513089 -0.10935738 0.37202987 0.92175633 0.21942212
0.20432711 -0.19283804 -0.37563643 -0.097342588 0.078708112 0.99213374 0.097644061
0.22463739 -0.19381507 -0.37282422 -0.11418548 0.16444448 0.97975492 0.0038150731
-0.45038444 -0.18391106 -0.37744147 0.86565101 0.50064796 -9.0843547e-05 6.5880129e-05
0.168722 -0.1861605 -0.3754341 -0.82106102 0.40112826 -0.40614632 0.1219921
0.17370825 -0.18561716 -0.37794301 -0.84953022 0.4743157 -0.23091778 0.10456701
0.20312268 -0.18485218 -0.377101 -0.25939283 0.12543748 0.95759118 0.13397463
-0.45544916 -0.17515373 -0.37157196 0.8656767 0.50060344 -2.7567728e-05 5.1985257e-06
0.17493993 -0.17378512 -0.37464613 -0.77582407 0.38955909 -0.49632725 0.14788821
0.18658119 -0.17634422 -0.37259492 -0.82144487 0.52988344 -0.21083599 0.12324791
0.22616279 -0.17515601 -0.37424198 -0.20350644 0.054279771 0.97756779 0.0012163441
0.23956557 -0.17090364 -0.37142608 -0.24783753 -0.082212783 0.965307 0.0038423534
0.24141768 -0.17614299 -0.371041 -0.22656178 0.009409586 0.97395134 0.0022579278
0.19491215 -0.16188985 -0.37524581 -0.78981978 0.59205973 -0.16015658 0.11504062
0.20044249 -0.16791566 -0.37970376 -0.88655049 0.45669222 0.073894955 0.20230503
0.19787908 -0.15674217 -0.37492546 -0.85859227 0.49369496 -0.13814698 0.13050218
0.20499596 -0.15794128 -0.37886757 -0.87758166 0.47856197 0.028789038 0.22603698
0.21484199 -0.1549959 -0.37626654 -0.24483922 -0.25650677 0.93501759 0.15834503
0.23281516 -0.15917864 -0.37162873 -0.29504269 -0.16524906 0.94108582 0.0011947809
0.18901616 -0.14617294 -0.3738302 0.4841238 -0.4933753 0.72263747 0.15735421
0.20413059 -0.14473188 -0.3778525 -0.78319627 0.60676378 -0.13579838 0.12990247
0.21315293 -0.1447667 -0.37521133 -0.38058347 -0.10173517 0.91913337 0.18060216
-0.47651121 -0.13557665 -0.37821093 0.93327093 0.35917297 -0.00024907492 0.0020804508
0.19595692 -0.1315258 -0.37095121 0.60821235 -0.314134 0.72897023 0.13692126
0.20818734 -0.13687551 -0.37547156 -0.84216553 0.41918814 -0.33917344 0.2109676
0.21215004 -0.13971506 -0.37473968 0.073006801 -0.35900155 0.93047726 0.23667514
-0.48015526 -0.1220171 -0.37096745 0.96572906 0.25955233 0.00013096527 0
-0.47927964 -0.12527537 -0.37489331 0.96570271 0.25965029 -6.2847444e-05 0.0001278251
0.20442909 -0.12581217 -0.37316638 0.76053727 -0.32554093 0.56178832 0.16456681
0.21196134 -0.12228257 -0.37053889 -0.94440651 0.26916343 -0.18880518 0.15310757
-0.48134217 -0.11760069 -0.37893379 0.96570021 0.25965944 -0.00010810339 0.00017028117
0.21435463 -0.1133241 -0.37566251 -0.96651393 0.25134304 -0.051744252 0.099292986
-0.48434412 -0.1064303 -0.3704994 0.96571541 0.25960284 -9.6317512e-05 6.5230422e-05
0.2156173 -0.10859782 -0.37514254 -0.9856202 0.15585823 -0.065276705 0.084085979
0.22037068 -0.09080524 -0.37571138 -0.94521028 0.32020062 -0.063632242 0.0084773051
-0.48911995 -0.088659331 -0.37332305 0.96574819 0.25948104 -0.00011660857 4.6267858e-05
0.22155285 -0.086380146 -0.37597299 -0.95809662 0.28533009 -0.025252964 0.0040131598
-0.49252552 -0.07598725 -0.37600142 0.96572065 0.25958338 0.00021730327 0
0.22460425 -0.074958362 -0.37377664 -0.96612054 0.25809103 -6.4051812e-05 2.4737255e-05
-0.49582222 -0.063720129 -0.37628779 0.9691506 0.24646664 -0.0010782233 0.00019953884
0.22701648 -0.065928981 -0.37181306 -0.96848482 0.24907248 -0.00013623123 8.1930142e-05
-0.499145 -0.051355951 -0.37258041 0.99008459 0.14046907 0.0010064892 0.002716139
-0.49993059 -0.045681655 -0.37086368 0.99338579 0.11482464 6.3443629e-05 0.0024815467
-0.49994704 -0.023570662 -0.37395594 0.99996495 0.008366067 -0.00040505422 0
0.23181804 -0.026969071 -0.37275773 -0.99997813 0.0051116659 0.0041962266 4.9009883e-05
0.23181073 -0.017109068 -0.37390369 -0.99999976 -0.00074122718 1.5241297e-05 0
0.23178661 0.015442934 -0.37601271 -0.99999976 -0.0007408266 2.6762655e-07 0
-0.4999842 0.026602607 -0.3710869 0.99983853 -0.017966192 0.00032438079 0.000361604
-0.49999169 0.03669278 -0.37580854 0.99673384 -0.080158755 0.0098060546 0.0010423213
0.23177069 0.036869813 -0.37364313 -0.99897385 -0.044947926 0.0055581499 0.00094012188
-0.49821654 0.054573655 -0.37439597 0.98996133 -0.14115109 -0.0072764261 0.001871724
0.22983411 0.055614546 -0.37508264 -0.98545241 -0.16909878 -0.01700232 0.00072205579
-0.49444592 0.068687618 -0.3758547 0.96681249 -0.25548384 -0.0012974279 0.00024020016
0.22840177 0.060944363 -0.379273 -0.98197526 -0.18839912 -0.015177029 0.00077172666
-0.49308351 0.073787428 -0.37552822 0.96701652 -0.25470999 -0.0013351705 0
0.22511134 0.073188096 -0.37596667 -0.96573395 -0.25953394 -3.1054569e-05 0
-0.48964041 0.086675256 -0.3755357 0.96611774 -0.2581017 -0.00012286063 0
0.21868512 0.097100079 -0.37341386 -0.96573186 -0.25954163 -2.4446701e-05 1.3107625e-07
-0.4846648 0.10530005 -0.37603283 0.9661141 -0.25811541 4.2549756e-05 0
0.21776715 0.10051589 -0.37668389 -0.96572816 -0.25955546 -0.00012189771 0
0.21349476 0.11641364 -0.37606668 -0.96505731 -0.26203758 -0.00086424191 3.7516063e-05
0.21116611 0.1250785 -0.37344459 -0.96213329 -0.27254024 -0.0046255426 0.00017823676
-0.47501498 0.14116065 -0.37425408 0.93922305 -0.34297353 0.015138258 0.0010645968
-0.46993005 0.15000239 -0.37086764 0.90218616 -0.43131775 0.0050125918 0.0015475098
0.1990677 0.15477642 -0.37497872 -0.8722052 -0.48912638 0.0036633813 0.00015895827
-0.45858479 0.16968672 -0.37452811 0.86639559 -0.49935824 -0.0001077026 2.9506973e-05
