# .PCD v0.7 - Point Cloud Data file format
VERSION 0.7
FIELDS x y z normal_x normal_y normal_z curvature
SIZE 4 4 4 4 4 4 4
TYPE F F F F F F F
COUNT 1 1 1 1 1 1 1
WIDTH 634
HEIGHT 1
VIEWPOINT 0 0 0 1 0 0 0
POINTS 634
DATA ascii
-0.1557427 -0.12363984 -0.24773093 -7.2407114e-05 6.9760749e-06 1 1.8518727e-05
-0.13864547 -0.12427375 -0.24773093 1.420739e-05 -1.1980736e-05 1 0
-0.11616455 -0.1249908 -0.24773091 1.2248608e-05 2.8845177e-05 1 0
-0.09484458 -0.12671131 -0.24773091 1.499036e-05 2.8583545e-05 1 0
-0.085589729 -0.12544838 -0.24773093 -2.5358788e-05 1.0906746e-05 1 0
-0.056144387 -0.12735218 -0.24773094 -1.3177395e-05 -3.6161022e-05 1 1.7699029e-05
-0.045099638 -0.1260547 -0.24773091 -1.2802399e-05 1.9000821e-05 1 0
-0.039232261 -0.1209622 -0.24773093 -7.0426095e-06 2.2071672e-06 1 1.590146e-05
-0.02848503 -0.12690428 -0.24773093 -9.3829567e-06 -3.0545223e-05 1 3.123299e-05
-0.013445021 -0.12633207 -0.24773091 -5.0046724e-06 -9.7573529e-06 1 1.7975804e-05
-0.0098052658 -0.12140955 -0.24773091 -8.1435746e-06 -2.9601126e-05 1 3.5858629e-05
0.0063166446 -0.1276437 -0.24773093 8.9379034e-07 -1.6710821e-05 1 3.6769306e-05
0.012748243 -0.122813 -0.24773091 -1.634284e-06 2.3427809e-05 1 1.6245607e-05
0.026804242 -0.12662658 -0.24773094 5.3493718e-06 -1.7124255e-05 1 0
0.06197568 -0.12701151 -0.24773091 -1.055081e-06 -9.2462005e-06 1 0
0.071467035 -0.12527254 -0.24773093 1.6316167e-06 8.8793513e-06 1 0
0.082191847 -0.12936179 -0.24773093 -1.016039e-05 1.1092491e-06 1 0
0.099546261 -0.12906815 -0.24773093 7.3834855e-08 -1.5736101e-05 1 1.6025249e-05
0.10441192 -0.12736997 -0.24773093 -1.4262118e-05 -3.6736088e-05 1 0
0.11915256 -0.12256582 -0.24773093 1.3219708e-06 1.569041e-05 1 0
0.1267837 -0.12203481 -0.24773093 -1.3502575e-05 1.9760353e-05 1 0
0.14445531 -0.12252432 -0.24773093 -0.21043044 0.069325209 0.97514766 0.04153512
0.16346952 -0.12449324 -0.24550168 -0.75082672 0.32804054 0.5732789 0.086538881
0.2369372 -0.12647575 -0.2477724 -0.9590894 0.28302351 0.0067189881 0.0011628316
-0.48103249 -0.11688918 -0.24337316 0.96183479 0.27363113 3.5649136e-05 4.7182803e-05
-0.41221726 -0.11226541 -0.2400322 0.8393783 0.33115599 0.43102172 0.074115083
-0.40162563 -0.11177189 -0.24773093 0.4163079 0.092646182 0.90449125 0.067992225
-0.39159596 -0.11892807 -0.24773093 0.33507836 0.027031042 0.94180244 0.067327902
-0.38002113 -0.11566596 -0.24773094 0.007519389 -7.2634823e-05 0.99997169 0.00014208019
-0.37543738 -0.11739941 -0.24773091 3.1379834e-05 2.1324027e-05 1 0
-0.34756553 -0.11385411 -0.24773093 -7.3634066e-05 -2.1737736e-05 1 0
-0.33764589 -0.11261685 -0.24773091 4.603967e-05 5.1934921e-06 1 0
-0.32843024 -0.11875279 -0.24773093 -7.0303424e-05 -2.1829812e-05 1 3.8374943e-05
-0.31661084 -0.11390576 -0.24773091 -0.00010011999 -1.99552e-05 1 3.3826753e-05
-0.30359834 -0.11765495 -0.24773093 -4.1217856e-05 -1.0843321e-05 1 3.2860906e-05
-0.2829814 -0.11259623 -0.24773091 3.0721225e-05 -1.4863289e-05 1 0
-0.27987266 -0.11437984 -0.24773093 -2.6889405e-05 -2.8945709e-05 1 1.5071638e-05
-0.25188664 -0.11510187 -0.24773091 1.9582723e-05 5.8580476e-08 1 3.4633336e-05
-0.24002486 -0.11956925 -0.24773091 1.4356154e-05 -4.8904672e-05 1 3.424504e-05
-0.23613498 -0.11985034 -0.24773091 -4.7669368e-05 -3.0702766e-05 1 4.9290833e-05
-0.22178456 -0.11447246 -0.24773091 2.7484218e-06 -3.1903994e-05 1 1.7133621e-05
-0.21490571 -0.11429842 -0.24773093 -2.8234188e-05 -1.5188641e-05 1 1.6664244e-05
-0.20836961 -0.11277854 -0.24773091 8.6149534e-08 -1.0429399e-05 1 1.6335674e-05
-0.19408685 -0.11561669 -0.24773093 1.3896583e-05 -1.2278368e-05 1 3.2563112e-05
-0.18027075 -0.11252547 -0.24773094 -4.7702368e-05 -4.2442323e-05 1 1.6842005e-05
-0.15952492 -0.11022991 -0.24773093 -1.6904011e-07 -2.2501343e-05 1 0
-0.14448307 -0.11384594 -0.24773091 -3.313765e-07 -2.0794418e-05 1 1.5504162e-05
-0.12042089 -0.11706379 -0.24773094 2.3139171e-05 2.9562163e-05 1 0
-0.11650473 -0.11634143 -0.24773093 1.9418509e-05 1.785807e-05 1 0
-0.0970992 -0.11927993 -0.24773094 8.2542892e-06 7.7352879e-06 1 0
-0.085423797 -0.11833732 -0.24773093 1.5578456e-05 1.4080949e-05 1 0
-0.070364758 -0.11137547 -0.24773091 2.4801858e-07 9.4405286e-06 1 0
-0.065988235 -0.11391187 -0.24773093 2.7738092e-06 -1.2160252e-05 1 0
-0.057425007 -0.11777064 -0.24773093 8.5105754e-09 -9.7752263e-06 1 0
-0.043032084 -0.11845665 -0.24773093 -1.0627494e-05 -1.4761335e-05 1 1.6381871e-05
-0.0381791 -0.11467993 -0.24773094 2.0830294e-06 -1.2344316e-05 1 0
-0.024736136 -0.1169073 -0.24773093 0 0 1 1.863022e-05
-0.01596136 -0.11163139 -0.24773091 -2.7344402e-06 -2.7180729e-05 1 1.857618e-05
0.0018387195 -0.11334193 -0.24773093 -4.1437866e-06 -3.4935074e-05 1 3.2841923e-05
0.022142939 -0.11287951 -0.24773091 3.547719e-06 -1.1099482e-05 1 0
0.035227492 -0.11244263 -0.24773093 1.1049875e-05 4.9497644e-06 1 1.5143285e-05
0.049808778 -0.11679931 -0.24773093 4.691688e-06 -1.5094016e-05 1 2.9897918e-05
0.053843331 -0.11242184 -0.24773091 -7.0270526e-06 -1.941048e-05 1 0
0.06798403 -0.11748894 -0.24773094 9.0986205e-06 -1.2710953e-05 1 3.0547209e-05
0.09062244 -0.11135451 -0.24773093 1.1983279e-05 -5.594683e-06 1 0
0.12589751 -0.11266585 -0.24773093 -1.5012628e-05 1.5666783e-05 1 0
0.14502031 -0.1181286 -0.24773094 -0.11979026 0.046682082 0.99170113 0.02488579
0.15671876 -0.11679591 -0.24773094 -0.69724709 0.30765054 0.64745474 0.079962581
0.16758345 -0.11788053 -0.24402457 -0.75447595 0.3318373 0.5662598 0.079118513
0.23925322 -0.11727017 -0.24679737 -0.96814388 0.25039402 -0.00052752381 4.9852533e-05
-0.48432484 -0.10531434 -0.24541402 0.96183789 0.27361992 -1.8546127e-05 6.8299778e-05
-0.41517076 -0.10458425 -0.24544306 0.72361875 0.24323393 0.6459204 0.060079779
-0.38463596 -0.1067392 -0.24773093 0.065066122 -0.006008083 0.99786288 0.0044784942
-0.37799558 -0.10425818 -0.24773093 -4.9221529e-05 1.29883e-05 1 0
-0.36048019 -0.10863759 -0.24773094 -6.440634e-05 -9.9075269e-06 1 1.6681484e-05
-0.35329482 -0.10264631 -0.24773091 -8.9371046e-05 -3.9519815e-05 1 4.3623495e-05
-0.34230927 -0.10589572 -0.24773093 -0 -0 1 3.417339e-05
-0.33309901 -0.10675814 -0.24773094 -7.9050253e-05 3.4589223e-06 1 1.8946341e-05
-0.31599402 -0.10396248 -0.24773093 7.3871342e-07 -1.6384131e-05 1 4.637241e-05
-0.30726689 -0.10764863 -0.24773093 2.3282153e-06 -1.8375151e-05 1 3.420165e-05
-0.29299945 -0.1057376 -0.24773093 7.7702043e-07 -9.295286e-06 1 1.8320423e-05
-0.27206618 -0.1035443 -0.24773094 4.518986e-05 1.93328e-05 1 0
-0.26306072 -0.10475476 -0.24773091 2.9288187e-05 1.1356926e-05 1 1.4209661e-05
-0.25590369 -0.10523347 -0.24773091 -3.455608e-05 -1.9498075e-05 1 3.1686075e-05
-0.2364665 -0.10264191 -0.24773093 -1.473072e-05 -8.5320198e-06 1 3.0616386e-05
-0.21542403 -0.10374129 -0.24773093 -7.4027863e-05 -7.4495319e-06 1 2.9971719e-05
-0.20880254 -0.1017421 -0.24773091 -0 -0 1 1.6800783e-05
-0.19652019 -0.10306149 -0.24773093 0 0 1 0
-0.18489434 -0.10577673 -0.24773091 -1.8169399e-05 2.2081702e-05 1 0
-0.16256113 -0.10745453 -0.24773093 -1.9870664e-05 1.411512e-05 1 0
-0.15807594 -0.10108203 -0.24773094 3.1635478e-05 4.6177509e-05 1 0
-0.14510444 -0.10525285 -0.24773094 -2.0829681e-05 4.2378414e-07 1 0
-0.126984 -0.10423094 -0.24773091 2.0438045e-05 1.8512394e-05 1 0
-0.11527093 -0.10783045 -0.24773094 -0 -0 1 0
-0.073734954 -0.10899704 -0.24773094 9.2020255e-06 7.0242295e-06 1 0
-0.067015328 -0.10364042 -0.24773091 8.2503711e-06 7.0678952e-06 1 0
-0.047427699 -0.10485183 -0.24773093 8.0793379e-06 2.3885736e-05 1 0
-0.020421948 -0.10479352 -0.24773093 -5.6885988e-06 -2.7282196e-05 1 1.6870265e-05
-0.014561807 -0.10554776 -0.24773091 8.2602543e-07 -1.8997647e-05 1 0
-0.0034834947 -0.10900543 -0.24773093 -3.2292812e-06 2.0486121e-05 1 0
0.007106449 -0.10636736 -0.24773094 6.9997463e-07 6.7120261e-08 1 0
0.022272453 -0.10575873 -0.24773093 -3.5333306e-07 1.7549299e-05 1 0
0.037783779 -0.1083478 -0.24773093 0 0 1 0
0.045569744 -0.10713805 -0.24773093 -5.5694522e-06 4.5732624e-05 1 0
0.052705746 -0.10607225 -0.24773093 -3.8381401e-08 -1.958967e-05 1 0
0.062107526 -0.10046936 -0.24773094 2.6327896e-06 -1.7364619e-05 1 3.31829e-05
0.077219859 -0.10864143 -0.24773091 -8.5701322e-06 2.7431734e-05 1 1.6962273e-05
0.087447152 -0.10654128 -0.24773093 1.3691012e-05 1.5177365e-05 1 1.69223e-05
0.097488835 -0.10238953 -0.24773093 -1.5453925e-05 5.0433391e-06 1 0
0.10599937 -0.10915968 -0.24773094 -1.5949739e-05 -2.3156003e-06 1 0
0.12487442 -0.10103386 -0.24773093 -1.8612163e-05 1.166829e-05 1 0
0.14502615 -0.10414788 -0.24773093 -0.067346059 0.016458701 0.99759394 0.0057637477
0.15540683 -0.10337175 -0.24773094 -0.43817568 0.10371333 0.89288604 0.094331332
0.16987568 -0.10597925 -0.24773091 -0.68062586 0.30722934 0.6651004 0.074193686
0.17245185 -0.10604215 -0.24361192 -0.79507703 0.32091945 0.51464868 0.081696495
0.24251218 -0.10431666 -0.24336284 -0.96977371 0.24400593 -1.580857e-05 5.6463177e-06
-0.37647417 -0.098515436 -0.24773093 -4.1790579e-05 -3.1721407e-07 1 1.6333288e-05
-0.35999963 -0.091414548 -0.24773093 3.3574528e-05 -2.0785064e-05 1 1.7411607e-05
-0.3358613 -0.097403862 -0.24773091 -3.666454e-05 -5.2795158e-06 1 1.666752e-05
-0.32455212 -0.094585091 -0.24773093 3.7324382e-05 -8.0189056e-06 1 1.6030548e-05
-0.31524062 -0.091013603 -0.24773094 2.8523871e-05 -1.2126387e-05 1 1.6686759e-05
-0.30192953 -0.097258583 -0.24773091 -2.1433664e-07 -7.391443e-06 1 1.7505068e-05
-0.29124162 -0.096785009 -0.24773094 -3.2926026e-05 4.1742242e-06 1 0
-0.28780538 -0.094419025 -0.24773091 3.2091953e-05 -7.9774518e-06 1 0
-0.25800204 -0.099611267 -0.24773091 1.8797523e-06 1.4881993e-05 1 1.5584466e-05
-0.24160716 -0.094525367 -0.24773093 3.6568759e-05 -7.8661617e-07 1 0
-0.23349601 -0.09847869 -0.24773093 -1.5048473e-05 -1.0539291e-06 1 1.5933409e-05
-0.21358657 -0.094171338 -0.24773093 1.1445495e-06 1.6579725e-05 1 0
-0.19108981 -0.097054467 -0.24773093 -1.3553495e-06 1.644126e-05 1 0
-0.1829142 -0.096842922 -0.24773093 -1.0897752e-06 7.361657e-06 1 0
-0.17168868 -0.090948485 -0.24773091 -4.7280122e-05 -1.1785762e-05 1 1.677197e-05
-0.15577628 -0.092558585 -0.24773093 2.9146137e-05 1.3027645e-05 1 0
-0.14618555 -0.099814668 -0.24773094 2.5671437e-05 -1.5396483e-05 1 0
-0.10330231 -0.091007516 -0.24773093 2.5406293e-06 2.436726e-05 1 0
-0.088353202 -0.094967097 -0.24773094 3.9863862e-05 3.0266297e-05 1 0
-0.046179868 -0.090017647 -0.24773094 5.8096289e-06 1.1316303e-05 1 0
-0.031994805 -0.093809858 -0.24773093 3.7431691e-06 1.6591432e-05 1 0
-0.016302139 -0.099636033 -0.24773091 2.5714278e-06 -2.3035296e-05 1 0
-0.0064984011 -0.096938387 -0.24773091 -4.3773571e-06 1.8570066e-05 1 0
0.012609976 -0.093494087 -0.24773093 2.0323569e-06 -6.4809105e-06 1 1.3907081e-05
0.035487056 -0.09130913 -0.24773094 6.2204845e-06 -5.8238415e-06 1 1.4644987e-05
0.047462925 -0.097494721 -0.24773093 8.2826518e-06 1.6873117e-05 1 1.7873524e-05
0.056150272 -0.091750294 -0.24773091 5.3768495e-06 -5.6826769e-07 1 1.9791767e-05
0.065055855 -0.095087856 -0.24773091 7.8529629e-06 -1.0782521e-05 1 1.8082468e-05
0.074161515 -0.093759812 -0.24773094 9.8373866e-06 -2.685352e-05 1 3.5327128e-05
0.086137146 -0.094320774 -0.24773093 1.0850775e-05 -7.471948e-07 1 1.9940257e-05
0.093345985 -0.095144272 -0.24773091 -0 -0 1 0
0.1063138 -0.096740745 -0.24773091 -8.2241659e-06 7.9885349e-06 1 0
0.12461098 -0.096036136 -0.24773091 -9.0145801e-07 7.4416484e-06 1 0
0.16439879 -0.092849478 -0.24773094 -0.40969977 0.11832833 0.90451342 0.069860347
0.17469956 -0.095220357 -0.24718168 -0.84454012 0.24570027 0.47579753 0.046582773
0.24394709 -0.098613344 -0.24414688 -0.96977401 0.24400447 -4.9004651e-05 1.7711895e-05
-0.49022406 -0.084574945 -0.24413 0.96185023 0.27357659 8.9458597e-05 0
-0.48933029 -0.087716952 -0.2425535 0.96184325 0.27360123 -1.6093007e-05 0
-0.42301372 -0.086200476 -0.24396266 0.68093145 0.2052623 0.70299345 0.075848997
-0.40495121 -0.084267095 -0.24773091 0.31089664 0.16507569 0.93599856 0.054793008
-0.39391086 -0.084905058 -0.24773093 0.085128777 0.038222983 0.99563652 0.0097644394
-0.38585037 -0.083720855 -0.24773094 -6.114487e-05 -3.4746256e-05 1 1.7109942e-05
-0.37505805 -0.085054398 -0.24773093 2.7723037e-05 -1.3347623e-05 1 1.7030427e-05
-0.36154038 -0.089880064 -0.24773094 9.9083172e-07 -1.7449951e-05 1 1.7451319e-05
-0.35952526 -0.083170563 -0.24773091 -3.3144355e-05 -1.7063312e-05 1 3.218251e-05
-0.34599781 -0.08183267 -0.24773094 -3.2854841e-05 -5.2117326e-07 1 3.4119024e-05
-0.33827052 -0.084325455 -0.24773093 -7.1384449e-05 -5.4116304e-06 1 3.2081622e-05
-0.30554172 -0.088303067 -0.24773093 -4.2192649e-05 -9.2818091e-06 1 1.7102686e-05
-0.29993561 -0.08683566 -0.24773093 3.7762013e-05 5.0514855e-06 1 0
-0.28843865 -0.084620938 -0.24773094 -0.0001002596 1.4959457e-05 1 1.5695743e-05
-0.27825969 -0.081385761 -0.24773093 -0.00011534877 -5.3796123e-07 1 3.0607625e-05
-0.26417807 -0.08622127 -0.24773093 2.7523147e-05 2.4515946e-05 1 0
-0.25402397 -0.087380148 -0.24773091 8.4948311e-05 1.1056728e-05 1 0
-0.2350461 -0.08485873 -0.24773093 2.7662891e-05 -5.6497415e-06 1 0
-0.2127388 -0.081374191 -0.24773093 -1.4973868e-05 5.9104686e-06 1 0
-0.19418967 -0.087219737 -0.24773093 -4.9687031e-05 -1.6605924e-06 1 2.907377e-05
-0.17389719 -0.080120154 -0.24773093 3.6415157e-05 8.4319399e-06 1 0
-0.15360424 -0.088303372 -0.24773094 2.0793246e-05 1.1618263e-05 1 0
-0.14568731 -0.083764151 -0.24773093 2.8285052e-05 -1.2297493e-05 1 0
-0.13860688 -0.084968634 -0.24773094 1.5473142e-05 3.5176265e-05 1 0
-0.12573922 -0.08642216 -0.24773094 3.0243305e-05 1.322658e-05 1 0
-0.11477279 -0.086943522 -0.24773093 9.7003394e-06 7.0519109e-06 1 0
-0.094842523 -0.086089171 -0.24773091 8.912576e-06 9.6762396e-06 1 0
-0.083978012 -0.081981182 -0.24773091 1.1906705e-05 -2.3167358e-07 1 0
-0.075085953 -0.084312871 -0.24773093 1.3491212e-05 -6.1052124e-06 1 0
-0.047100049 -0.08266747 -0.24773093 5.1627188e-07 2.353118e-05 1 0
-0.024718024 -0.084042385 -0.24773094 1.3675135e-06 7.4957293e-06 1 0
0.0051304069 -0.084834129 -0.24773091 6.7533864e-07 -1.2024091e-07 1 0
0.010066717 -0.082965747 -0.24773093 -9.1053943e-07 1.7675598e-05 1 0
0.035949007 -0.083100379 -0.24773093 -1.0478529e-05 5.3029898e-06 1 0
0.066360831 -0.084035836 -0.24773094 9.7341899e-06 -1.3247157e-05 1 0
0.074199222 -0.089143574 -0.24773093 1.8318813e-05 -9.3159642e-06 1 3.5324632e-05
0.087011792 -0.086698055 -0.24773094 1.5355214e-05 -2.5960462e-05 1 3.419397e-05
0.092189059 -0.081326343 -0.24773093 9.1634593e-06 -1.6292379e-06 1 1.8375722e-05
0.11658631 -0.082811922 -0.24773094 1.7923705e-07 -8.3144705e-06 1 2.9944322e-05
0.12762702 -0.082751386 -0.24773093 -1.7002551e-05 7.7729019e-06 1 0
0.13647217 -0.085636862 -0.24773091 1.5431637e-05 1.2599882e-05 1 0
0.14185359 -0.087637387 -0.24773094 1.2311582e-05 1.9672849e-05 1 0
0.15847689 -0.089318112 -0.24773093 -0.29831493 0.084597155 0.95071107 0.060099926
0.16316171 -0.085976683 -0.24773091 -0.24429467 0.12055666 0.96217787 0.061966188
0.24806944 -0.082228199 -0.24542134 -0.96977669 0.24399436 6.4852188e-06 0
-0.49348491 -0.073110864 -0.24440435 0.96615964 0.25793549 -0.0021606006 0.00052409136
-0.42607784 -0.073198564 -0.24337231 0.67792678 0.30669454 0.66809714 0.077317394
-0.41085589 -0.078520611 -0.24773093 0.33938369 0.24261864 0.90882063 0.05508085
-0.40511 -0.073882803 -0.24773093 0.23333065 0.2041958 0.95071602 0.034670629
-0.39717194 -0.079009607 -0.24773093 0.09292341 0.10007562 0.99063116 0.010416208
-0.38642177 -0.071371868 -0.24773091 -2.7355301e-05 -1.1588428e-05 1 1.7802427e-05
-0.37491378 -0.075127095 -0.24773094 -7.1439856e-05 -9.5770647e-06 1 1.8585586e-05
-0.36263487 -0.077757537 -0.24773093 -3.1356492e-05 -6.5248878e-06 1 3.6268102e-05
-0.35552913 -0.072930932 -0.24773091 -4.1065494e-05 -1.6806916e-05 1 1.968276e-05
-0.33611467 -0.073841587 -0.24773093 -2.8973684e-05 -8.6873306e-06 1 1.6939704e-05
-0.32452968 -0.076839514 -0.24773093 -0 -0 1 0
-0.31620979 -0.074173428 -0.24773091 -0 -0 1 0
-0.28392243 -0.079551123 -0.24773093 -7.6895434e-05 8.6056207e-06 1 1.6929107e-05
-0.26762697 -0.076013669 -0.24773091 -0.00010069946 2.2058375e-06 1 0
-0.25563422 -0.077032678 -0.24773093 7.713111e-05 1.6715854e-05 1 0
-0.24909541 -0.075676925 -0.24773093 -4.7420814e-05 4.3395466e-06 1 1.4298864e-05
-0.23724584 -0.074897617 -0.24773093 6.6966793e-05 -2.130774e-06 1 0
-0.2122483 -0.076991305 -0.24773091 1.9444797e-05 1.9431443e-05 1 0
-0.19403319 -0.076875463 -0.24773093 -3.2688669e-05 -4.2671104e-06 1 0
-0.18328238 -0.07585679 -0.24773093 0 0 1 0
-0.1689077 -0.071795359 -0.24773091 3.8253482e-05 1.747942e-05 1 0
-0.12738435 -0.076690473 -0.24773091 0 0 1 0
-0.11847105 -0.079853848 -0.24773091 -1.5565982e-06 9.1518459e-06 1 0
-0.10238668 -0.077899471 -0.24773091 -6.7106043e-06 2.381662e-08 1 0
-0.094825312 -0.072721869 -0.24773093 -1.8961915e-06 9.3219824e-06 1 0
-0.062534355 -0.076763354 -0.24773091 1.0091864e-05 -9.1457014e-06 1 0
-0.046772555 -0.07323727 -0.24773091 1.3746913e-05 1.4960867e-05 1 0
-0.03250809 -0.078017607 -0.24773091 3.2007677e-06 2.6776859e-05 1 0
-0.014466895 -0.077444643 -0.24773091 -9.6751057e-07 5.0853306e-08 1 1.4665357e-05
-0.0061108414 -0.076491356 -0.24773091 5.7637294e-07 -7.8479751e-08 1 0
0.0031200033 -0.072714143 -0.24773093 9.8270569e-08 -1.0385983e-05 1 0
0.013606582 -0.071356133 -0.24773093 -0 -0 1 1.7623732e-05
0.024841208 -0.075328611 -0.24773093 -6.9987086e-06 1.211978e-05 1 0
0.045299217 -0.074960247 -0.24773091 5.206075e-06 8.9056784e-06 1 0
0.055269681 -0.073742032 -0.24773093 -9.1704151e-06 -9.7663258e-07 1 1.5782574e-05
0.061105467 -0.072504774 -0.24773093 2.6390817e-06 -1.5556532e-05 1 3.0458954e-05
0.07155174 -0.077749826 -0.24773094 9.9225181e-06 -1.8493589e-05 1 1.9382162e-05
0.089197159 -0.076230638 -0.24773094 1.5303645e-05 -9.2042665e-06 1 3.3940389e-05
0.1022305 -0.073275298 -0.24773093 0 0 1 1.7031884e-05
0.11497898 -0.073795706 -0.24773094 -2.7811277e-06 -1.7433478e-05 1 1.6351882e-05
0.13557746 -0.077144556 -0.24773094 -0 -0 1 0
0.15218408 -0.072426707 -0.24773094 -1.4810351e-05 8.5904985e-06 1 0
0.16512804 -0.073992491 -0.24773091 -0.27715012 0.14883573 0.949229 0.061216231
0.17367834 -0.076838516 -0.24773093 -0.62666219 0.09406051 0.7735936 0.065729886
-0.42634273 -0.065081798 -0.24559975 0.60560435 0.12750751 0.78548408 0.064256974
-0.41070372 -0.066943228 -0.24773094 0.27244738 0.10421256 0.95651048 0.044561416
-0.40749356 -0.066307671 -0.24773091 0.27106464 0.1061971 0.95668495 0.048953958
-0.39809805 -0.067329541 -0.24773091 0.039136346 0.017011523 0.99908906 0.0016133195
-0.38226593 -0.062175043 -0.24773093 -2.9708784e-05 1.4128018e-06 1 0
-0.37672189 -0.061994202 -0.24773093 -2.9369317e-05 -5.7100065e-06 1 1.5666474e-05
-0.36653513 -0.066161074 -0.24773094 -3.7125639e-05 5.4426882e-06 1 3.4579429e-05
-0.35032487 -0.066663228 -0.24773094 -3.5702942e-05 4.6327145e-06 1 3.7333411e-05
-0.34450999 -0.065292969 -0.24773093 -7.3241237e-05 1.7126769e-05 1 1.8754736e-05
-0.33697075 -0.062571593 -0.24773093 -6.0087332e-05 1.0687396e-05 1 1.7974475e-05
-0.32181597 -0.066291854 -0.24773091 -8.4413703e-05 -1.0241682e-05 1 2.9372894e-05
-0.31346679 -0.060015179 -0.24773094 -6.8149893e-07 4.8203297e-06 1 0
-0.30689532 -0.06794139 -0.24773094 3.6959922e-05 -2.3619446e-06 1 0
-0.29741859 -0.065387368 -0.24773091 0 0 1 1.6654214e-05
-0.28336039 -0.065821618 -0.24773093 -6.213653e-07 -7.439362e-06 1 3.1716154e-05
-0.27328989 -0.062431872 -0.24773094 3.555627e-05 4.3736732e-06 1 0
-0.26723635 -0.067698829 -0.24773093 -1.5604116e-06 1.0058166e-05 1 0
-0.22389796 -0.066352427 -0.24773093 -6.3785372e-08 8.9037549e-06 1 0
-0.21550575 -0.068206847 -0.24773093 3.5695168e-05 1.3968991e-05 1 0
-0.20588426 -0.064080082 -0.24773093 -0 -0 1 0
-0.18110323 -0.068223938 -0.24773091 3.9308114e-05 -1.2882399e-05 1 0
-0.17468449 -0.067599267 -0.24773091 6.8816022e-05 1.1890795e-05 1 0
-0.16186818 -0.067060225 -0.24773094 5.4562581e-05 2.7627169e-05 1 0
-0.15418585 -0.064849079 -0.24773093 1.0687233e-05 -6.7978533e-07 1 0
-0.12771353 -0.064908691 -0.24773094 4.2836327e-05 8.7756298e-06 1 0
-0.1068991 -0.060198836 -0.24773091 -4.3345156e-07 -1.1228719e-05 1 1.504108e-05
-0.093802422 -0.064846098 -0.24773091 1.4491054e-07 -8.0894542e-06 1 1.5946807e-05
-0.082794033 -0.066495292 -0.24773091 8.0896365e-07 -8.8026554e-06 1 0
-0.078498527 -0.060137212 -0.24773091 -1.4578376e-05 -4.2626684e-06 1 1.7334527e-05
-0.06880115 -0.061736643 -0.24773093 -7.9913561e-06 1.8529849e-05 1 1.6793654e-05
-0.05578202 -0.063925728 -0.24773094 1.3016951e-07 4.4065891e-06 1 1.806762e-05
-0.047611002 -0.060854726 -0.24773091 1.7322978e-06 1.3379882e-05 1 0
-0.039883591 -0.063496448 -0.24773094 2.6947194e-07 9.5610394e-06 1 1.6249593e-05
-0.016554343 -0.063313521 -0.24773093 9.7672319e-07 5.1232141e-06 1 0
-0.0079711638 -0.066860735 -0.24773094 4.7796829e-07 1.1382888e-07 1 0
0.0084038805 -0.06180843 -0.24773091 1.9576321e-06 -4.5474949e-06 1 1.7324313e-05
0.012298436 -0.065651029 -0.24773091 -8.8961576e-07 -1.2358184e-05 1 1.7232796e-05
0.020085735 -0.06543465 -0.24773094 1.2938569e-06 -9.2226583e-06 1 3.1054173e-05
0.033273615 -0.06777101 -0.24773093 -6.1428682e-07 1.1980857e-05 1 0
0.040853739 -0.063411422 -0.24773093 -8.7387734e-06 5.0256398e-07 1 0
0.072347403 -0.064541996 -0.24773093 1.6911163e-05 -1.9938776e-05 1 1.715144e-05
0.081818983 -0.068250068 -0.24773093 1.0405239e-05 -8.5316533e-06 1 3.4469092e-05
0.09272632 -0.067458317 -0.24773093 1.8711484e-06 -9.2198661e-06 1 1.7952145e-05
0.10422519 -0.065576784 -0.24773093 2.1486926e-07 1.184435e-05 1 0
0.1161038 -0.069418736 -0.24773091 3.0338149e-05 -2.9833018e-06 1 1.6541529e-05
0.13888198 -0.068982437 -0.24773093 -0 -0 1 0
0.15262048 -0.067835823 -0.24773094 -1.5168301e-05 3.0328829e-07 1 1.6524984e-05
0.16413286 -0.063651994 -0.24773094 -0.10985094 -0.061030339 0.99207264 0.020815758
0.17543887 -0.065741152 -0.24773091 -0.48699504 0.10174481 0.86745822 0.052733719
0.1809061 -0.06718795 -0.24773091 -0.54422802 0.17054829 0.821419 0.059070535
0.25194359 -0.066829436 -0.24616589 -0.96978271 0.2439703 2.1793767e-05 1.4647719e-06
-0.49746946 -0.059102725 -0.24321577 0.98465258 0.17387731 0.015032333 0.0024185199
-0.42498401 -0.053432744 -0.24515446 0.63372612 0.14937043 0.75899917 0.05672298
-0.41687068 -0.052957159 -0.24773093 0.50042576 0.065032795 0.86333352 0.076790653
-0.40227398 -0.055062711 -0.24773093 0.11309096 0.0039566364 0.99357677 0.014032823
-0.36515623 -0.055508398 -0.24773093 4.0995619e-07 -1.0428967e-05 1 0
-0.35208958 -0.052409574 -0.24773091 3.6110566e-07 -7.9794672e-06 1 1.6874428e-05
-0.3460654 -0.058655649 -0.24773093 -7.5953933e-05 -2.5011552e-05 1 1.9679735e-05
-0.33801496 -0.05839454 -0.24773091 -3.2234773e-05 -3.4600846e-06 1 1.7769011e-05
-0.2948758 -0.054060478 -0.24773094 -0 -0 1 0
-0.28649706 -0.055385679 -0.24773093 -7.2545372e-05 -9.7777047e-06 1 1.7474365e-05
-0.27587491 -0.054713752 -0.24773091 1.7698978e-06 -1.3147916e-05 1 1.7789826e-05
-0.26310953 -0.051894251 -0.24773093 3.3755365e-05 -5.4246339e-06 1 0
-0.25579965 -0.054244217 -0.24773093 3.4551955e-05 4.2923938e-07 1 0
-0.24183401 -0.056729421 -0.24773094 1.3334237e-05 4.8713291e-06 1 0
-0.23345631 -0.051643334 -0.24773093 1.6438875e-05 7.6610559e-07 1 0
-0.22790098 -0.055929609 -0.24773091 6.0170674e-05 5.0653698e-06 1 0
-0.21704622 -0.056150991 -0.24773091 -5.7795733e-05 1.6651231e-05 1 0
-0.19516239 -0.057363234 -0.24773094 1.5802772e-05 -2.5435402e-06 1 0
-0.1778664 -0.052406535 -0.24773091 2.5911213e-05 5.5590895e-06 1 0
-0.13203216 -0.051654562 -0.24773093 5.1558662e-05 5.8325368e-06 1 0
-0.12233152 -0.057412241 -0.24773093 1.0844497e-06 7.7072355e-06 1 0
-0.11428581 -0.057449628 -0.24773094 -2.4486884e-05 1.1184521e-06 1 1.5399639e-05
-0.094188578 -0.051828425 -0.24773094 7.1314571e-06 -1.6245031e-05 1 1.641352e-05
-0.085527375 -0.057188962 -0.24773094 9.8232767e-06 3.5180467e-06 1 0
-0.074552074 -0.052898593 -0.24773094 -1.5492073e-05 -1.7358274e-05 1 4.8621499e-05
-0.067491971 -0.059420601 -0.24773093 -1.5985457e-05 1.0799129e-05 1 3.2317468e-05
-0.050622933 -0.051921099 -0.24773093 -2.032613e-05 4.3737477e-06 1 1.9678992e-05
-0.044985771 -0.054569591 -0.24773093 3.9816264e-06 -8.4638114e-06 1 3.1957992e-05
-0.036165833 -0.05789984 -0.24773091 3.9690849e-07 8.6658674e-06 1 1.7178299e-05
-0.013634887 -0.059137344 -0.24773091 -0 -0 1 0
-0.00577976 -0.052922629 -0.24773093 -6.4465854e-07 -4.1633234e-06 1 1.705077e-05
0.019362569 -0.053900763 -0.24773091 4.0461646e-06 4.4858934e-06 1 0
0.022062961 -0.055348597 -0.24773094 -3.5054779e-07 4.8364391e-06 1 0
0.043358535 -0.050940011 -0.24773093 4.1728972e-06 -1.2346763e-07 1 0
0.053724468 -0.052433427 -0.24773094 -8.8499755e-06 4.6376186e-07 1 0
0.060574755 -0.054094054 -0.24773091 1.6864276e-05 5.2991895e-06 1 1.7140652e-05
0.0748614 -0.055227119 -0.24773093 8.5453812e-06 -3.2040427e-06 1 1.7235045e-05
0.08285971 -0.052804995 -0.24773091 -1.3574503e-06 -9.1199781e-06 1 1.6327092e-05
0.09427315 -0.056365564 -0.24773091 -1.5355183e-06 -9.7847224e-06 1 1.7845952e-05
0.10251471 -0.056524027 -0.24773094 -8.398154e-06 1.3244631e-05 1 0
0.1119851 -0.053896926 -0.24773094 1.116877e-06 -5.0829303e-06 1 0
0.12350451 -0.057463977 -0.24773093 1.6178496e-05 -5.1184998e-06 1 1.7247025e-05
0.13594317 -0.055457156 -0.24773093 1.6937355e-07 4.8416314e-06 1 0
0.1462338 -0.054737184 -0.24773094 2.2860822e-06 9.6758777e-06 1 0
0.17167182 -0.054668356 -0.24773091 -0.22778967 -0.0077963788 0.97367913 0.044069346
0.18606934 -0.055732507 -0.24011672 -0.85019624 0.19923194 0.48731193 0.051596932
-0.49865904 -0.043512776 -0.24423292 0.99877727 0.049435902 -0.00022147884 0.00062179088
-0.4303692 -0.040602587 -0.24212182 0.93285048 0.11528308 0.34132054 0.055144388
-0.42956144 -0.046738029 -0.24111694 0.89207619 0.14840548 0.42682067 0.079300635
-0.41578901 -0.04472952 -0.24773093 0.29174235 0.045651939 0.9554069 0.02537434
-0.40713736 -0.043660391 -0.24773091 0.17383695 -0.0023002757 0.98477173 0.021884454
-0.37276387 -0.045779381 -0.24773094 6.7081594e-08 -3.57869e-06 1 0
-0.35636434 -0.043677997 -0.24773093 8.1331666e-05 5.3599888e-06 1 0
-0.34791294 -0.043295704 -0.24773091 -1.0622216e-06 -7.8921394e-06 1 0
-0.33200866 -0.046756499 -0.24773094 4.3376502e-05 -8.3388941e-06 1 0
-0.3253198 -0.044165254 -0.24773093 2.2264917e-06 -8.7461021e-06 1 1.4812583e-05
-0.31555575 -0.042593691 -0.24773094 1.4694788e-07 -7.3438191e-06 1 1.6092134e-05
-0.30075824 -0.045931898 -0.24773093 -4.459983e-05 -1.8065755e-05 1 1.7099885e-05
-0.29735959 -0.048579253 -0.24773091 -1.1834268e-06 -5.9313056e-06 1 0
-0.28697908 -0.043226488 -0.24773093 -3.1248441e-05 -2.7492731e-06 1 1.6833905e-05
-0.26616657 -0.045149636 -0.24773094 2.1323518e-07 -4.5329016e-06 1 0
-0.25580299 -0.046737615 -0.24773091 -3.7539972e-05 6.4702031e-06 1 0
-0.23813918 -0.047482193 -0.24773094 -2.8096449e-07 -9.7207567e-06 1 0
-0.21655408 -0.042785764 -0.24773094 -3.2378259e-05 4.6223713e-06 1 1.7114642e-05
-0.20095915 -0.048880495 -0.24773094 -3.0900414e-05 -6.1673354e-06 1 1.4738446e-05
-0.18880932 -0.047077924 -0.24773094 1.5226591e-05 -2.6556031e-06 1 0
-0.17570773 -0.049882259 -0.24773093 2.1156438e-05 -4.4358776e-06 1 0
-0.13727018 -0.045935616 -0.24773094 3.1959091e-05 6.2115282e-06 1 0
-0.1297982 -0.04814665 -0.24773093 4.8585018e-05 1.1624201e-07 1 0
-0.11391888 -0.044126276 -0.24773091 -7.010126e-06 -9.1316142e-06 1 1.8121314e-05
-0.095979951 -0.04591867 -0.24773094 -1.4692079e-05 -4.8694251e-06 1 4.4827513e-05
-0.06605307 -0.047840647 -0.24773091 -1.5305126e-05 3.6494903e-06 1 3.4608369e-05
-0.055082612 -0.044887409 -0.24773091 -5.6404547e-06 -4.4697435e-06 1 2.0616559e-05
-0.039508168 -0.043678891 -0.24773093 -1.1132731e-06 5.4038737e-06 1 1.763098e-05
-0.024280608 -0.046454385 -0.24773093 -2.0686514e-06 2.6397225e-07 1 1.7230339e-05
-0.019385546 -0.047930647 -0.24773091 -2.0615496e-06 -4.2460483e-06 1 1.7230306e-05
-0.0027399368 -0.046227653 -0.24773093 -2.8531642e-07 -1.0877305e-07 1 1.7198909e-05
0.032802105 -0.046663381 -0.24773094 6.5575873e-06 2.8239435e-06 1 1.5014723e-05
0.042981118 -0.046645198 -0.24773093 -2.4453798e-06 -7.3510651e-06 1 0
0.067072034 -0.041979894 -0.24773093 -9.7142256e-06 8.3029945e-06 1 0
0.075937539 -0.040893801 -0.24773094 1.1246589e-05 -2.5152531e-07 1 0
0.098152697 -0.04577513 -0.24773093 -5.9744644e-07 -3.8635239e-06 1 1.6628144e-05
0.11229552 -0.046329558 -0.24773093 1.9242456e-05 -1.4430741e-05 1 1.7106528e-05
0.13774969 -0.046956327 -0.24773094 0 0 1 0
0.1406085 -0.046106182 -0.24773093 -4.1213389e-05 -4.3258719e-06 1 0
0.17086746 -0.048261739 -0.24773091 -0.28025523 0.0038901879 0.95991766 0.050999504
0.18294196 -0.04604435 -0.24773093 -0.8193056 0.27256081 0.50442934 0.058494654
-0.49879831 -0.034426238 -0.24483959 0.99939066 0.034709997 0.0036766576 0.00052360137
-0.41854957 -0.036795035 -0.24773091 0.3107782 0.02593329 0.95012861 0.058208086
-0.39472306 -0.038120147 -0.24773093 -0 -0 1 0
-0.38704509 -0.032487635 -0.24773094 8.0149228e-05 -9.9577255e-06 1 0
-0.37326971 -0.037623644 -0.24773094 3.5162346e-05 9.7078346e-06 1 0
-0.36529809 -0.032676399 -0.24773091 3.76055e-05 1.313509e-05 1 0
-0.3309778 -0.03219641 -0.24773091 -3.1445914e-05 1.4544354e-05 1 1.4897109e-05
-0.3155328 -0.037614439 -0.24773093 -0 -0 1 0
-0.30284473 -0.035702042 -0.24773093 -0 -0 1 1.7459284e-05
-0.29238746 -0.037735939 -0.24773093 -3.2376829e-05 -8.7613944e-06 1 3.052003e-05
-0.26739368 -0.032916814 -0.24773093 -8.8714456e-05 -9.0544299e-06 1 0
-0.25488603 -0.033591967 -0.24773094 7.589458e-09 -3.7039272e-06 1 1.6417182e-05
-0.22622454 -0.033546008 -0.24773091 3.1585194e-05 8.1744001e-06 1 0
-0.21628492 -0.035700426 -0.24773094 1.8756438e-05 -1.1501676e-05 1 0
-0.20747541 -0.030548893 -0.24773091 2.6393327e-05 -3.5426938e-06 1 0
-0.19378877 -0.035571117 -0.24773093 -1.8371109e-05 -1.1526294e-05 1 1.8260476e-05
-0.17361453 -0.035527352 -0.24773091 4.2718941e-05 4.0300442e-06 1 0
-0.16314991 -0.03546891 -0.24773093 2.9099396e-05 3.9241922e-06 1 0
-0.15484104 -0.031529412 -0.24773091 -1.3900656e-07 3.3277681e-06 1 0
-0.14317873 -0.032987148 -0.24773093 1.9328604e-06 1.0005612e-05 1 0
-0.13411798 -0.036726788 -0.24773093 -0 -0 1 0
-0.1234199 -0.034359396 -0.24773094 2.6468601e-07 4.324882e-06 1 0
-0.11741254 -0.03241175 -0.24773093 -8.5093307e-06 2.8741718e-08 1 3.3155087e-05
-0.10630248 -0.031550188 -0.24773091 -2.8247292e-05 -1.48967e-06 1 3.1113879e-05
-0.094322279 -0.037301548 -0.24773091 -1.719337e-05 -5.2537544e-06 1 3.2979508e-05
-0.085829318 -0.037349485 -0.24773094 -9.9474819e-06 -8.9984105e-06 1 3.332815e-05
-0.071039118 -0.030935019 -0.24773093 7.7430204e-06 5.6302579e-06 1 1.5636557e-05
-0.061737061 -0.035008997 -0.24773094 -9.9201243e-06 -4.2187094e-07 1 1.8614148e-05
-0.057699114 -0.032471836 -0.24773094 -4.4787157e-06 5.3840296e-07 1 0
-0.047552161 -0.039617419 -0.24773093 4.4793455e-06 -8.4358617e-06 1 3.2460823e-05
-0.02549661 -0.033384379 -0.24773091 -2.5056393e-06 -7.013783e-06 1 3.2073873e-05
-0.017888952 -0.036853805 -0.24773091 2.5529546e-06 3.7269031e-06 1 1.7651453e-05
-0.006370076 -0.03607608 -0.24773094 1.5054031e-06 3.8350345e-06 1 0
0.0053308997 -0.03465753 -0.24773094 -6.6679763e-07 3.9015399e-06 1 0
0.021256553 -0.035584617 -0.24773094 -1.9531283e-06 4.5013471e-06 1 0
0.036114011 -0.037714943 -0.24773091 -0 -0 1 0
0.055714987 -0.035371192 -0.24773091 0 0 1 0
0.061472088 -0.039973989 -0.24773094 4.2750607e-06 5.3467625e-06 1 1.8040953e-05
0.078552924 -0.034556039 -0.24773093 -7.8233352e-06 -4.7641177e-07 1 0
0.083310746 -0.033631653 -0.24773091 8.3291698e-06 1.5329045e-06 1 0
0.1084251 -0.034441367 -0.24773094 -8.3101468e-06 -4.4295024e-07 1 0
0.12990351 -0.039359342 -0.24773094 -8.64659e-07 5.8403416e-06 1 0
0.1303997 -0.039776184 -0.24773094 -2.3466757e-05 1.5139396e-05 1 0
0.1439673 -0.034768187 -0.24773094 -2.8391539e-06 4.4042586e-06 1 0
0.17465743 -0.034244347 -0.24773093 -0.335033 0.029490426 0.9417448 0.059754778
0.18764889 -0.036163449 -0.24436076 -0.92071086 0.17833024 0.34711641 0.066038087
0.25753289 -0.033599418 -0.24640407 -0.99903941 0.043646004 -0.003911641 0.00088888634
-0.49898586 -0.02219207 -0.24412398 0.99988258 0.015323289 -2.6117244e-05 0
-0.43267202 -0.023111053 -0.24079241 0.77755606 0.13500145 0.6141507 0.074945465
-0.42443675 -0.023647442 -0.24773091 0.40018156 0.10533249 0.91036248 0.062581934
-0.4193781 -0.02636878 -0.24773094 0.34731796 0.030230062 0.93726003 0.060992993
-0.39550161 -0.022220425 -0.24773094 2.6265712e-05 -1.8095407e-06 1 0
-0.38433111 -0.023282761 -0.24773094 0.00014652712 2.8225099e-05 1 0
-0.3687751 -0.021846853 -0.24773093 3.2078995e-05 2.0911202e-06 1 0
-0.35380426 -0.026095506 -0.24773091 3.5878482e-05 -5.3391132e-06 1 0
-0.3474077 -0.024612963 -0.24773091 -3.9009043e-07 -3.4210418e-06 1 0
-0.31643498 -0.021223856 -0.24773094 -4.6277983e-05 -1.7096792e-06 1 1.8167477e-05
-0.30577087 -0.026958279 -0.24773093 -3.9029783e-05 -7.5830603e-06 1 1.8009521e-05
-0.2852512 -0.023795493 -0.24773093 3.2230491e-05 -1.4949132e-06 1 0
-0.27140424 -0.028494781 -0.24773091 -5.2279239e-07 -2.2109361e-06 1 0
-0.25107709 -0.0273735 -0.24773094 -4.2925109e-05 -2.1917556e-06 1 1.5926098e-05
-0.24705076 -0.02638153 -0.24773093 -1.8030973e-05 -2.286974e-06 1 1.5746387e-05
-0.23729146 -0.026139632 -0.24773093 4.583253e-05 6.040043e-06 1 0
-0.22024354 -0.025970899 -0.24773093 -2.6555248e-05 -5.0617905e-06 1 3.0846659e-05
-0.21488339 -0.026587794 -0.24773093 -3.3842171e-05 -3.9309275e-06 1 1.7542088e-05
-0.20039959 -0.02567216 -0.24773094 1.9604711e-05 -5.5880059e-06 1 1.9720266e-05
-0.19657464 -0.026415801 -0.24773091 -8.6140695e-08 2.4993135e-06 1 1.9602303e-05
-0.1857278 -0.024935666 -0.24773093 -0 -0 1 3.2694777e-05
-0.17735903 -0.024493735 -0.24773094 -1.7936503e-05 1.37901e-06 1 3.3958047e-05
-0.16375323 -0.023690863 -0.24773094 -1.2163887e-06 8.3110308e-06 1 0
-0.15927592 -0.028566018 -0.24773094 -2.7257347e-05 -1.347317e-06 1 0
-0.13406682 -0.020414546 -0.24773093 -1.3904812e-05 -4.4970197e-06 1 2.9514866e-05
-0.11744604 -0.026472017 -0.24773093 -1.591911e-05 3.5701285e-06 1 3.1667656e-05
-0.10082449 -0.025861446 -0.24773093 -9.4407378e-06 -2.0628645e-06 1 1.8689932e-05
-0.093733519 -0.025575042 -0.24773093 8.825682e-06 7.9578876e-07 1 0
-0.08258225 -0.024532259 -0.24773094 -3.050858e-05 -7.350514e-07 1 0
-0.077617846 -0.025036007 -0.24773093 -8.4802532e-06 -2.3760431e-06 1 1.6450305e-05
-0.065268636 -0.029287219 -0.24773091 3.0553415e-06 -5.871264e-06 1 0
-0.046352059 -0.0250559 -0.24773091 -1.7651206e-05 1.3050732e-06 1 1.6952503e-05
-0.036020204 -0.023326337 -0.24773094 -1.1531836e-05 -7.1938139e-06 1 3.1846565e-05
-0.025681382 -0.024701018 -0.24773093 -5.1710317e-06 -2.4951428e-06 1 1.8716921e-05
-0.014961598 -0.029129203 -0.24773094 -0 -0 1 0
-0.005365815 -0.028098851 -0.24773093 1.2417037e-06 1.9886368e-06 1 0
0.021345114 -0.025548398 -0.24773091 -1.7908427e-06 -1.7763261e-07 1 0
0.0458836 -0.02519729 -0.24773093 1.3167652e-05 -1.1402541e-06 1 1.5451855e-05
0.063674539 -0.028105108 -0.24773094 1.0139169e-05 -5.434551e-06 1 1.6822942e-05
0.080924094 -0.024998317 -0.24773091 -6.7847586e-06 -1.3964415e-06 1 2.873535e-05
0.099043429 -0.025248356 -0.24773091 -8.8742499e-06 4.1412372e-06 1 0
0.10285795 -0.024760719 -0.24773093 -2.7472004e-05 9.6224003e-06 1 0
0.11418289 -0.027676255 -0.24773094 1.3719459e-05 -7.1538602e-07 1 0
0.13739657 -0.021485753 -0.24773093 -1.5788305e-07 3.7779726e-06 1 0
0.14540125 -0.026804108 -0.24773093 -6.2752784e-05 1.8102262e-05 1 0
0.15151879 -0.022736147 -0.24773093 2.4778372e-05 -1.152653e-05 1 0
0.18960172 -0.02608132 -0.24685514 -0.8620491 0.18081652 0.47347313 0.093149528
0.19014648 -0.024763634 -0.24724248 -0.87966019 0.10794683 0.4631905 0.10867449
0.25740847 -0.025479911 -0.24284728 -0.99998271 -0.0048906789 -0.0032545784 0.00012092508
-0.43128753 -0.011697927 -0.24773091 0.61675406 0.030025121 0.78658307 0.075171739
-0.42089105 -0.015015515 -0.24773093 0.29689389 0.093529969 0.95031893 0.074878156
-0.40657085 -0.01719128 -0.24773094 0.068012409 0.017462077 0.99753165 0.0083023319
-0.39529741 -0.012550384 -0.24773094 -1.7622453e-07 -4.5535357e-06 1 0
-0.38494015 -0.013467905 -0.24773091 0.00012924867 4.8714237e-06 1 0
-0.34767142 -0.014455314 -0.24773093 6.4769578e-05 5.235232e-06 1 0
-0.3397724 -0.011530034 -0.24773091 3.1983942e-05 6.1721366e-06 1 0
-0.32748443 -0.019289449 -0.24773093 -0.00010237812 -1.0993368e-05 1 3.2334232e-05
-0.31385335 -0.016996682 -0.24773091 -0.00010055918 -7.8065332e-06 1 3.3620574e-05
-0.30825382 -0.017827325 -0.24773093 -6.2871567e-07 -4.0798909e-06 1 1.777915e-05
-0.298123 -0.016125999 -0.24773094 2.7689146e-05 -3.1158772e-06 1 3.1274347e-05
-0.28516844 -0.012181208 -0.24773093 -3.1684642e-05 9.4178649e-06 1 1.6494458e-05
-0.27105701 -0.018683884 -0.24773091 -2.7130522e-05 -3.6598221e-06 1 1.5232507e-05
-0.26581532 -0.012407823 -0.24773094 -3.5090961e-05 -6.0726979e-06 1 3.4544119e-05
-0.24240963 -0.015880791 -0.24773093 2.1307449e-07 1.6836082e-06 1 0
-0.23593688 -0.017135255 -0.24773091 6.4425498e-05 8.2479946e-06 1 0
-0.20195007 -0.015359305 -0.24773094 -1.388261e-07 -5.0596254e-06 1 1.9477928e-05
-0.19784056 -0.010718687 -0.24773094 -1.8153818e-05 -3.8186572e-06 1 1.8378143e-05
-0.18452024 -0.016384959 -0.24773091 -2.8771121e-05 -2.671376e-06 1 3.4621746e-05
-0.17213763 -0.014880169 -0.24773093 -1.5153021e-05 1.0027283e-06 1 3.2028209e-05
-0.16201149 -0.016555874 -0.24773093 1.7632814e-05 -1.2068167e-06 1 0
-0.12530789 -0.015790269 -0.24773094 1.9208728e-05 6.0253988e-06 1 0
-0.11328291 -0.016977752 -0.24773093 -8.5683141e-06 -3.1286791e-06 1 1.7510118e-05
-0.096455351 -0.018222436 -0.24773094 -2.6079893e-05 -5.3118094e-07 1 1.7307124e-05
-0.085993029 -0.013740455 -0.24773093 1.1895875e-05 3.4613117e-07 1 0
-0.050997771 -0.012963802 -0.24773093 -4.881284e-06 4.0085324e-06 1 0
-0.042347059 -0.010660172 -0.24773094 -8.2498495e-08 1.0489706e-06 1 0
-0.033411987 -0.012783878 -0.24773093 -0 -0 1 1.9859712e-05
-0.025251519 -0.017305102 -0.24773091 -4.3680802e-07 -4.0472496e-06 1 3.5179946e-05
-0.017243778 -0.014655694 -0.24773094 -2.9160269e-06 -1.3770392e-07 1 1.9282563e-05
-0.0060751308 -0.013841009 -0.24773094 -2.4579083e-06 1.0318214e-06 1 1.6834325e-05
0.025096811 -0.012985557 -0.24773093 0 0 1 0
0.030138396 -0.019197524 -0.24773093 -5.9419322e-06 1.1827912e-06 1 0
0.047231525 -0.019794133 -0.24773093 -4.8469769e-06 -8.633441e-07 1 0
0.057295401 -0.015859677 -0.24773093 -1.2984529e-05 3.6142137e-07 1 0
0.064496383 -0.015129283 -0.24773091 1.1177135e-05 1.0334393e-06 1 1.7962759e-05
0.076202959 -0.01127255 -0.24773091 1.6114594e-05 -2.3145773e-07 1 1.5875214e-05
0.084055394 -0.012370571 -0.24773093 7.8166413e-06 -2.227443e-06 1 3.0441226e-05
0.10624757 -0.011737466 -0.24773094 1.398588e-07 -1.229902e-06 1 1.9620114e-05
0.11196013 -0.011370571 -0.24773094 -2.7017522e-05 3.6635577e-06 1 3.6516074e-05
0.12716384 -0.017170057 -0.24773093 1.4368989e-05 -7.1633754e-06 1 3.1291594e-05
0.15982383 -0.01789524 -0.24773093 -0 -0 1 0
0.16583058 -0.010862572 -0.24773094 -0.061532851 0.021011751 0.99788386 0.013444841
0.17349629 -0.013073727 -0.24773094 -0.24114631 0.057386354 0.96879059 0.058206309
0.18876365 -0.019471902 -0.24773093 -0.74472624 0.06390661 0.66430318 0.11399724
0.19127806 -0.016168321 -0.24369843 -0.88639343 0.090719543 0.45395669 0.084973596
-0.49921241 -0.0074082054 -0.24979883 0.99988264 0.015321033 0.0001120785 0
-0.43414328 -0.0014546812 -0.24377406 0.65958303 0.011655214 0.75154138 0.072020724
-0.42207208 -0.003965301 -0.24773093 0.36357594 0.058031723 0.92975533 0.071752094
-0.41464096 -0.0034308906 -0.24773093 0.14510293 -0.015447027 0.98929596 0.029217577
-0.40499067 -0.0047502331 -0.24773091 0.015363432 -0.00063407072 0.99988174 0.0012495756
-0.38496232 -0.0025570542 -0.24773094 2.5584055e-05 -2.9369594e-06 1 0
-0.37183961 -0.0073983497 -0.24773094 3.0700361e-05 -9.3512352e-07 1 0
-0.36739048 -0.0045095491 -0.24773093 6.3391013e-08 1.8319649e-06 1 0
-0.35440683 -0.0020266473 -0.24773094 -3.7191505e-05 2.0069457e-07 1 0
-0.33180282 -0.0069607347 -0.24773091 -3.4131688e-05 2.0480882e-06 1 1.8204551e-05
-0.32042474 -0.0043170676 -0.24773094 -3.8162329e-05 -2.0205989e-06 1 1.7602333e-05
-0.31461546 -0.0095815072 -0.24773093 -9.9031684e-05 -1.4543517e-05 1 3.3044507e-05
-0.29626068 -0.0076812305 -0.24773091 2.8093795e-05 6.6902544e-07 1 1.6130969e-05
-0.28777996 -0.0078969272 -0.24773093 4.296583e-08 -1.2181447e-06 1 1.6347869e-05
-0.27498287 -0.0084677488 -0.24773093 -0.00016172965 3.5599798e-05 1 0
-0.2665453 -0.0086709857 -0.24773091 -6.2982588e-05 -6.8645886e-06 1 4.743204e-05
-0.24321759 -0.0077846805 -0.24773091 -1.6338226e-05 -4.0797918e-06 1 1.6722706e-05
-0.23900843 -0.005297333 -0.24773094 4.0440636e-08 5.4023178e-07 1 0
-0.22592525 -0.0047853682 -0.24773093 -2.8263124e-05 -2.0140133e-07 1 0
-0.2140438 -0.0061058551 -0.24773093 -4.6890535e-05 3.3805829e-06 1 1.6072847e-05
-0.20486107 -0.0096265376 -0.24773091 -8.5216358e-05 -2.5920162e-06 1 1.8763149e-05
-0.19242196 -0.0030614659 -0.24773093 -1.8296099e-05 -1.5009477e-06 1 3.386808e-05
-0.17275025 -0.006884411 -0.24773093 2.4074109e-07 -1.9306583e-06 1 1.7225599e-05
-0.15597253 -0.0089423582 -0.24773093 0 0 1 3.0482895e-05
-0.14721629 -0.0014678538 -0.24773091 -1.3227918e-05 -5.1536784e-07 1 1.580732e-05
-0.13719992 -0.0099790543 -0.24773091 -6.8237886e-09 -7.961379e-07 1 2.7497221e-05
-0.12840174 -0.0020764768 -0.24773093 -1.5081035e-05 -3.3123149e-07 1 1.6164364e-05
-0.11707547 -0.0058852374 -0.24773093 1.1633118e-05 -3.2539449e-06 1 1.6665264e-05
-0.095338449 -0.0063993856 -0.24773094 -6.2270487e-08 -9.9894135e-07 1 0
-0.083123207 -0.0050778026 -0.24773094 -1.1189341e-05 1.7001903e-06 1 0
-0.038967341 -0.0034006613 -0.24773091 1.7270256e-08 7.986784e-07 1 1.9816898e-05
-0.028437091 -0.0045772642 -0.24773094 -1.4288e-05 -1.5572746e-06 1 5.3434949e-05
-0.0097514503 -0.0089748651 -0.24773093 -3.818076e-06 2.2552398e-07 1 4.1890209e-05
0.0067962771 -0.0040106913 -0.24773091 -4.4922871e-07 2.0701468e-07 1 0
0.012110701 -0.0044506788 -0.24773091 -9.3512296e-07 1.263472e-07 1 0
0.024804527 -0.0051904046 -0.24773093 1.3889721e-07 6.6216359e-07 1 0
0.047071461 -0.0042578205 -0.24773091 -5.9664018e-08 -2.8393771e-07 1 1.7175231e-05
0.057219222 -0.0068493709 -0.24773094 8.526294e-08 1.5529891e-06 1 1.5553247e-05
0.060213845 -0.0016364306 -0.24773094 -6.3149042e-09 -1.4039634e-07 1 1.6908672e-05
0.094778366 -0.0015587484 -0.24773093 9.7790635e-06 3.8619922e-07 1 3.5999696e-05
0.10455768 -0.0097550768 -0.24773094 -7.9206357e-06 -7.2653307e-07 1 1.7130873e-05
0.11397494 -0.0045503359 -0.24773094 3.984851e-05 -1.8357471e-07 1 3.4737615e-05
0.12653367 -0.0035960525 -0.24773094 1.8110144e-05 2.7860881e-06 1 1.7935989e-05
0.1373888 -0.0042831842 -0.24773094 1.4680621e-05 3.1326979e-06 1 1.7764816e-05
0.14508405 -0.0078348666 -0.24773091 2.0203139e-05 7.8386768e-07 1 1.9297875e-05
0.15314901 -0.0073441826 -0.24773094 4.1617306e-05 -1.4105739e-05 1 1.9180894e-05
0.16013162 -0.0086184368 -0.24773091 2.3607612e-05 -1.4892278e-06 1 0
0.19143 -0.0038026669 -0.24773093 -0.74494994 0.012358814 0.6670059 0.095074289
0.25713778 -0.0078194048 -0.24971637 -0.99988258 -0.015325509 -2.7372596e-05 6.5347899e-06
-0.43355936 0.0019738339 -0.24773091 0.65169048 0.0032763015 0.75847793 0.083316267
-0.42923868 0.0053641256 -0.24773094 0.5405947 -0.11768523 0.83301115 0.079971328
-0.4103142 0.0071264878 -0.24773094 0.13113087 -0.025074335 0.99104786 0.029465286
-0.3968212 0.0013686121 -0.24773093 6.6349181e-05 3.1651332e-06 1 0
-0.38255739 0.006634688 -0.24773091 -2.8456272e-05 -2.3050058e-07 1 0
-0.36617029 0.0074106976 -0.24773094 4.0720959e-05 -4.5152801e-06 1 0
-0.35599512 0.0051841214 -0.24773094 3.0672749e-05 -4.1472417e-06 1 0
-0.34121814 0.0026657581 -0.24773091 2.6716179e-08 3.4868324e-07 1 1.6660035e-05
-0.33540195 0.006348934 -0.24773094 -0 -0 1 3.2437416e-05
-0.32051468 0.0014531985 -0.24773093 -1.4365228e-08 -1.2074138e-07 1 1.8252977e-05
-0.31335187 0.0040806532 -0.24773093 -0.00010417693 -8.757178e-06 1 3.1009153e-05
-0.28550714 0.0076841675 -0.24773091 -2.9444056e-05 1.6788537e-06 1 3.0549381e-05
-0.27811256 0.0068225563 -0.24773091 9.227758e-05 1.0058661e-05 1 1.8984183e-05
-0.26776826 0.0079828016 -0.24773091 -4.4337656e-05 3.9871206e-06 1 1.9178975e-05
-0.254345 0.00045166165 -0.24773094 -3.6010933e-05 -4.1850544e-06 1 3.3271528e-05
-0.24622759 0.0018167645 -0.24773093 -7.405728e-05 -1.7290247e-05 1 1.703182e-05
-0.23375466 0.0044762287 -0.24773091 4.8606438e-05 -1.0100518e-05 1 0
-0.21567152 0.0075092688 -0.24773094 -4.0918942e-05 -2.380335e-06 1 1.6953198e-05
-0.20293185 0.00026831031 -0.24773093 2.6493243e-09 7.3905454e-08 1 0
-0.1854941 0.0027608145 -0.24773094 2.0818088e-05 -3.1907575e-06 1 1.6642345e-05
-0.17019439 0.009738028 -0.24773093 -3.0913765e-05 -2.1371634e-06 1 3.0596791e-05
-0.1688614 0.0031354725 -0.24773091 -2.1922941e-05 2.200873e-06 1 0
-0.14822118 0.0021343529 -0.24773091 2.7985501e-09 5.2758702e-07 1 1.5363757e-05
-0.13036855 0.0051722303 -0.24773091 -1.5598482e-05 1.7983853e-06 1 1.6544613e-05
-0.11798072 0.001164495 -0.24773091 -8.2545866e-06 6.7976828e-07 1 1.5869646e-05
-0.10134824 0.0035108253 -0.24773093 1.0161228e-05 1.7036957e-06 1 0
-0.092286013 0.0083665326 -0.24773093 -3.1429e-08 -1.0717694e-06 1 1.6366397e-05
-0.085084856 0.0018908493 -0.24773094 -1.1751262e-05 1.0477449e-06 1 0
-0.070089072 0.0027456582 -0.24773091 1.6162887e-05 -4.4936587e-06 1 0
-0.05963558 0.0092989653 -0.24773091 -4.5047521e-08 1.2889442e-06 1 0
-0.04494179 0.0024687294 -0.24773093 -1.1153692e-05 -7.5107602e-07 1 1.7855717e-05
-0.039222199 0.0026241262 -0.24773093 -4.5442516e-06 4.9168307e-07 1 4.8503876e-05
-0.02072175 0.0048158616 -0.24773094 -2.1798874e-06 1.0513685e-07 1 3.6102159e-05
-0.011843421 0.0033924766 -0.24773094 -1.9141596e-06 2.571478e-06 1 4.6949455e-05
-0.00929619 0.0026719794 -0.24773093 -1.9330466e-06 2.4282706e-06 1 3.2170621e-05
0.016127216 0.0068942709 -0.24773091 4.9212149e-06 6.3987116e-08 1 3.1564348e-05
0.025413025 0.0053614452 -0.24773091 2.5830473e-06 -1.293335e-06 1 0
0.038273316 0.00069692172 -0.24773094 9.7036318e-06 1.7583108e-06 1 1.7442881e-05
0.044567268 0.0051149921 -0.24773091 4.8767629e-06 1.3753051e-06 1 1.6562406e-05
0.069439955 0.0027547553 -0.24773091 0 0 1 1.654789e-05
0.078072973 0.0037327576 -0.24773093 -1.0155935e-05 1.9554957e-06 1 0
0.082804054 0.0026696548 -0.24773094 -8.267647e-06 1.3742548e-06 1 1.7144499e-05
0.095434368 0.0065571838 -0.24773091 2.5905647e-05 -2.6885091e-06 1 5.2444604e-05
0.10843507 0.0071421936 -0.24773094 8.7891103e-06 9.3991139e-07 1 3.9583068e-05
0.11736593 0.0037940163 -0.24773093 8.8999723e-06 -1.1961113e-07 1 3.9687813e-05
0.12746224 0.0086919218 -0.24773093 2.226005e-05 9.1573463e-07 1 4.6739849e-05
0.1355556 0.0041151941 -0.24773091 5.550055e-05 4.1094008e-06 1 3.3740966e-05
0.14623815 0.0042688772 -0.24773094 2.1621897e-08 8.1422388e-07 1 4.807346e-05
0.15599786 0.0058493544 -0.24773093 0 0 1 3.48543e-05
0.16355306 0.0016743522 -0.24773094 -0.01117346 0.00216484 0.99993527 0.00051686115
0.17325827 0.0024994854 -0.24773093 -0.29297245 -0.015721958 0.95599169 0.063302599
0.18537688 0.0081091421 -0.24773093 -0.42469341 0.0046213767 0.90532547 0.076037027
0.19220121 0.0034512526 -0.24532567 -0.80428749 -0.036509197 0.59311777 0.097740337
-0.49949181 0.010823036 -0.24554846 0.9998827 0.015316635 5.1911946e-05 0
-0.43333143 0.018102065 -0.24175584 0.89102256 -0.065305881 0.44923714 0.081512131
-0.42634121 0.015571062 -0.24773093 0.48130479 -0.085503899 0.8723731 0.088019483
-0.41506034 0.019450314 -0.24773094 0.30522779 -0.023621477 0.95198631 0.058527313
-0.37342846 0.015523727 -0.24773094 -1.1453484e-07 -1.692067e-06 1 0
-0.36119819 0.014750797 -0.24773094 -1.3636244e-07 2.1955659e-06 1 0
-0.34711072 0.019641133 -0.24773093 3.9838924e-05 -6.7962451e-06 1 0
-0.33551902 0.017024638 -0.24773094 -3.7612641e-05 -1.9320116e-06 1 1.7125314e-05
-0.32425576 0.015906304 -0.24773091 6.737739e-05 5.8474079e-06 1 1.7717844e-05
-0.31504154 0.010838091 -0.24773093 3.8869086e-08 9.046733e-07 1 1.6585576e-05
-0.30111629 0.014462955 -0.24773091 -8.0514656e-05 6.9289913e-06 1 1.5506559e-05
