# .PCD v0.7 - Point Cloud Data file format
VERSION 0.7
FIELDS x y z normal_x normal_y normal_z curvature
SIZE 4 4 4 4 4 4 4
TYPE F F F F F F F
COUNT 1 1 1 1 1 1 1
WIDTH 571
HEIGHT 1
VIEWPOINT 0 0 0 1 0 0 0
POINTS 571
DATA ascii
0.26165679 0.00064689852 -0.41397065 -0.87317115 -0.48741379 -4.3844593e-05 0.0028480394
-0.2542761 0.012319928 -0.41460216 0.8263163 -0.56320113 0.0024221644 0.0016264759
-0.24870408 0.019581534 -0.41580567 0.81176341 -0.58398223 -0.0022149459 0.00071736256
0.24938351 0.018696068 -0.41200024 -0.81061846 -0.58544141 0.012490076 0.0005180455
0.25429472 0.012295675 -0.41195029 -0.83319837 -0.55292881 0.0070808311 0.0014646346
-0.24835031 0.020042563 -0.41676268 0.81165153 -0.58413523 -0.002796984 0.0007720844
0.24507888 0.024305949 -0.41318926 -0.79724914 -0.6036458 0.0023721836 9.7607655e-05
-0.23721629 0.03455269 -0.41865689 0.7933442 -0.60877335 -2.7251668e-05 9.4282514e-06
0.23759134 0.03406385 -0.41245139 -0.79335421 -0.60876042 -1.9628524e-05 0
-0.22849987 0.045912124 -0.41390765 0.79265714 -0.6096676 0.0001327706 6.7855067e-06
0.22719646 0.0476107 -0.41794086 -0.79301196 -0.60920578 -0.00048166665 0
-0.21923453 0.05798693 -0.41506851 0.7589094 -0.65119606 -0.00036624196 0.0013834845
0.21968152 0.057404324 -0.4121055 -0.75820696 -0.65193737 -0.0099976351 0.0015094082
0.22127444 0.055328406 -0.41507673 -0.7712034 -0.63648772 -0.011345576 0.0009885045
-0.20930304 0.069413841 -0.41251618 0.69949448 -0.7146005 0.0073230313 0.0027342851
0.21424729 0.064486295 -0.41593114 -0.7163285 -0.69774896 0.0044690105 0.00227947
-0.20149055 0.075408593 -0.41361403 0.65057957 -0.75943565 0.001930007 0.0013215864
-0.1968054 0.079003632 -0.41133457 0.61113143 -0.79152858 0.00096281414 2.9007599e-05
0.19800143 0.07808584 -0.41214168 -0.63390261 -0.77340674 -0.0031122321 0.00076266733
0.20461121 0.073013961 -0.41605374 -0.66572475 -0.74616742 0.0066930661 0.0017577206
-0.18501714 0.088049099 -0.41851243 0.60878897 -0.79333222 1.997318e-05 0
0.18686563 0.086630665 -0.41246295 -0.60878283 -0.79333699 2.5434452e-05 0
-0.17055196 0.099148631 -0.41281986 0.60877073 -0.79334617 2.9198383e-05 0
0.17349914 0.096887156 -0.41585767 -0.60879511 -0.79332751 -2.030185e-05 0
0.1814878 0.090757214 -0.41449514 -0.60881114 -0.79331517 2.9375706e-05 0
-0.16256022 0.10528092 -0.41572651 0.59351891 -0.80481821 0.0017415049 0.00034649146
-0.15925044 0.1078206 -0.4175595 0.56296933 -0.82646573 0.0044552661 0.0013807591
0.15773644 0.10898234 -0.41670936 -0.55573124 -0.8312571 0.013205765 0.0018704927
0.16562325 0.10293056 -0.41481078 -0.60204363 -0.79846209 -0.0013467034 9.6313575e-05
-0.15239185 0.11308339 -0.41254038 0.50421512 -0.86357754 -0.00089013274 0.0023580238
-0.14402376 0.11739416 -0.41367543 0.45962462 -0.88811308 0.00062691089 0.0018436833
0.13866092 0.11961553 -0.41163847 -0.4205642 -0.90725631 0.0034318764 0.0009220108
0.14804044 0.11573039 -0.41510439 -0.48796445 -0.87283856 0.0065939832 0.0024874113
0.15271261 0.11283726 -0.41473967 -0.51845479 -0.8547622 0.024214366 0.0027082057
-0.13554387 0.12090665 -0.41208678 0.42367467 -0.90581387 0.00098077103 0.00090387353
-0.12904985 0.12359656 -0.41837323 0.39129287 -0.92026365 -0.0021784576 0.00014011128
-0.11654233 0.12877734 -0.4157376 0.38267985 -0.92388099 4.234798e-05 0
0.11624958 0.12889864 -0.41925678 -0.38269615 -0.92387426 2.9079106e-06 0
0.12745468 0.12425731 -0.4136492 -0.38736475 -0.92192626 -0.00077450898 4.7588903e-05
0.13490781 0.12117013 -0.41451162 -0.41174728 -0.91128683 0.0045370641 0.00079396518
-0.11173638 0.13076805 -0.41531292 0.38268256 -0.92387992 -3.1290404e-06 3.0264425e-06
-0.10474554 0.13366374 -0.41624728 0.38268533 -0.92387873 2.3180189e-06 0
-0.093308032 0.13840133 -0.41421616 0.34942171 -0.93694401 -0.0063523189 0.0007490571
0.096660532 0.13701271 -0.41653311 -0.37620112 -0.92653662 -0.0016620252 3.0482428e-05
0.1040782 0.13394019 -0.41286969 -0.38269588 -0.92387438 -9.0722217e-08 0
-0.084323078 0.14212301 -0.41499239 0.31037715 -0.95061082 -0.0022952969 0.0016304452
-0.072614521 0.14555126 -0.41615012 0.20406257 -0.97890139 0.010515883 0.0020383785
-0.065173768 0.14653085 -0.41367924 0.17677058 -0.98425162 0.00095559011 0.0015341102
-0.052499756 0.14819941 -0.41567397 0.13188902 -0.99126446 -0.00034057407 0
-0.045733806 0.14909016 -0.4161216 0.13052805 -0.99144465 -3.6680677e-07 9.7662473e-07
0.050399955 0.14847587 -0.41892737 -0.13267311 -0.9911598 -0.00027472072 7.0174156e-06
0.064340211 0.1466406 -0.4142471 -0.17697489 -0.98414272 0.011956912 0.0010684794
0.078425266 0.14456601 -0.41517973 -0.265724 -0.96399653 0.010077679 0.0020390009
0.084773041 0.14193667 -0.41600469 -0.32094342 -0.94709456 -0.0027092271 0.0011306085
-0.035418916 0.15044814 -0.41436625 0.1305299 -0.99144435 5.9708746e-05 0
-0.014714497 0.15317391 -0.41416475 0.090538017 -0.9958908 -0.0020790976 0.0012315466
-0.0041455356 0.15456532 -0.41082588 0.037140612 -0.99931002 0.000135635 0.0015260542
0.006656155 0.15423481 -0.41294497 -0.057294942 -0.99833101 -0.007245983 0.0016522239
0.015056733 0.15312886 -0.41652134 -0.082397304 -0.99657238 -0.0073677842 0.00099769759
0.03380511 0.15066059 -0.41426706 -0.13052461 -0.99144512 -1.6210321e-05 2.1002797e-06
-0.030204827 -0.44091237 -0.4094668 0.13055359 0.99144125 0.00016628149 0
-0.021389795 -0.44207293 -0.4080959 0.12089545 0.99266183 0.0025963616 7.917788e-05
-0.01572754 -0.44281837 -0.40465224 0.10042702 0.99494332 0.0014847338 0.00072403869
-0.00032653307 -0.44484594 -0.40172797 -0.0096372664 0.99991333 0.0089720162 0.002507027
0.005039617 -0.44422543 -0.40595117 -0.019486779 0.99966955 0.01676216 0.0022742792
0.015074839 -0.44290432 -0.40326586 -0.12132836 0.99261159 -0.0013114457 0.0002980018
0.035465226 -0.44021988 -0.40088302 -0.13051471 0.99144638 3.6289937e-05 1.0527605e-05
-0.074292429 -0.43510818 -0.40726572 0.21898687 0.97565484 -0.011937493 0.0023674564
-0.065086745 -0.43632013 -0.406573 0.17772357 0.98407656 -0.0027555909 0.0015734778
-0.05475419 -0.43768042 -0.40634835 0.13691995 0.99057919 -0.0023987468 0.00011380785
-0.046752602 -0.43873388 -0.40565661 0.13048092 0.99145079 -0.00026153988 4.4762168e-05
0.042493418 -0.43929458 -0.40513515 -0.13054577 0.99144232 -0.00025421707 0.00013792043
0.058062568 -0.43724486 -0.40418994 -0.13580927 0.99073201 -0.0024125951 4.0899216e-05
0.0647652 -0.43636248 -0.40249544 -0.15251566 0.98829466 -0.0035504024 0.00060539681
0.074386261 -0.43509582 -0.40712011 -0.24249972 0.97014433 0.0037084795 0.0023573502
-0.11101499 -0.42084464 -0.4096278 0.38276953 0.92384392 -5.8313995e-05 9.264968e-05
-0.10732493 -0.42237315 -0.40416035 0.38267204 0.92388427 4.626466e-05 0
-0.095091254 -0.42744049 -0.40826106 0.37509412 0.92698348 0.0024689906 7.9275262e-05
-0.089474358 -0.42976707 -0.40868956 0.34211454 0.93965131 -0.0036140031 0.0012860262
0.097122721 -0.42659909 -0.40821064 -0.37022448 0.92894197 0.00081853772 0.00017297815
0.10715023 -0.42244554 -0.4036839 -0.38265619 0.92389077 -4.0322808e-05 1.7652092e-05
-0.11879005 -0.41762412 -0.40316793 0.38271055 0.9238683 -5.0237581e-05 1.5295243e-05
-0.15368398 -0.40186971 -0.40815204 0.53789234 0.84301269 -0.0011830406 0.0020609326
-0.14435624 -0.40703425 -0.40656054 0.46747714 0.88399458 -0.0043207351 0.0019925144
0.1424242 -0.40783453 -0.40506664 -0.46575144 0.88489646 0.0058111707 0.0018217707
-0.1657401 -0.39261869 -0.40372914 0.59742415 0.8019222 0.0022719824 0.00027777854
-0.15848364 -0.3981868 -0.40254664 0.57678258 0.81689066 -0.0033829671 0.00086331624
0.16624637 -0.39223021 -0.40776443 -0.5982545 0.80130482 -0.0014966942 0.00030623001
-0.18041186 -0.38136068 -0.40598917 0.60882944 0.79330122 -0.00016559557 9.4178431e-05
-0.17507085 -0.38545898 -0.40456963 0.6087898 0.79333162 8.647162e-05 0
0.17924646 -0.3822549 -0.40708485 -0.60879886 0.79332459 6.2896819e-05 0
-0.18852112 -0.37513822 -0.40747684 0.6087743 0.79334342 0.00012389527 0
0.19309624 -0.37162754 -0.40606421 -0.61202896 0.79083526 -0.00017580492 0
-0.20469792 -0.36272529 -0.40471396 0.6674825 0.74461836 -0.0032724186 0.0014854226
-0.19877951 -0.36726665 -0.40761882 0.63653952 0.77124375 -0.00060232822 0.000902228
0.19958377 -0.36664951 -0.40000349 -0.63000089 0.7765941 -0.00062399136 0.00064220908
0.20638601 -0.36142993 -0.40337816 -0.6730355 0.73950988 0.012183345 0.0021162746
-0.21729571 -0.35029149 -0.40880316 0.74584174 0.66612315 0.00016640777 0.001608766
0.20882566 -0.3595579 -0.40644255 -0.67818284 0.73480701 0.011258455 0.0020914555
0.21318527 -0.35538396 -0.40782532 -0.71463305 0.69942909 0.0099188359 0.0029102103
-0.22222051 -0.34387338 -0.40997195 0.77924252 0.626719 0.0020670861 0.00043309864
0.21805732 -0.34929883 -0.40762708 -0.74747306 0.6642856 -0.0029212139 0.0015841543
-0.23109257 -0.33231106 -0.40569165 0.79333824 0.60878104 9.1862239e-05 0
0.23260701 -0.33033735 -0.40718085 -0.79339194 0.60871124 5.1293377e-05 0.00011091531
-0.23765586 -0.32375765 -0.40787196 0.79332256 0.6088016 5.2553863e-05 0
0.23658127 -0.325158 -0.40540114 -0.79338056 0.60872591 2.8602422e-05 5.6364406e-05
-0.24725708 -0.31124511 -0.40097097 0.79973763 0.60034889 0.00098102726 0.00016382665
0.24174011 -0.31843489 -0.40731347 -0.79356372 0.60848713 0.00010295696 1.1270365e-05
-0.25533873 -0.30071291 -0.401133 0.82841402 0.56011003 -0.0026554316 0.0014165799
-0.24884965 -0.30916965 -0.40682569 0.80612743 0.59173709 0.0023842917 0.00054752565
0.25102171 -0.30633891 -0.40550894 -0.81072801 0.585419 0.0021614532 0.00078237156
-0.26042652 -0.29339489 -0.40794674 0.87287486 0.48786384 0.0088543361 0.0023960429
-0.25677133 -0.29884589 -0.40606982 0.84690201 0.53174555 -0.0019182124 0.0018315384
0.25993103 -0.29459104 -0.40801567 -0.86214513 0.50616997 0.022310369 0.0029955895
0.2615554 -0.29066944 -0.40886387 -0.88302463 0.46932226 0.0020310185 0.0025216199
-0.26198268 -0.28963789 -0.40464422 0.88551116 0.4645882 0.0052736304 0.0026618626
0.26251721 -0.28834745 -0.40781522 -0.88690203 0.46160841 0.017955573 0.0021392608
-0.26868233 -0.27346361 -0.40484405 0.92143172 0.38854036 0.00012322016 0.00011150548
0.26856893 -0.27373737 -0.40540317 -0.92169923 0.38790378 -0.0010946708 0.00011959518
-0.2731083 -0.26277837 -0.40570006 0.92386985 0.38270682 -7.7377539e-05 1.5137128e-05
0.27110416 -0.26761678 -0.40703106 -0.92387444 0.38269567 -0.00012793318 3.3537526e-05
-0.27589697 -0.25604594 -0.40103945 0.92388487 0.38267067 -3.5479003e-05 7.5101918e-05
0.27547908 -0.25705484 -0.40633026 -0.92384779 0.38276002 -0.00019547193 0.0001074481
-0.28071845 -0.24440596 -0.40470889 0.92513025 0.37964869 -0.0010097758 4.7468562e-05
0.27901945 -0.24850759 -0.40134859 -0.9241451 0.38204166 6.0887662e-05 0
-0.28374651 -0.23709552 -0.4044579 0.93582594 0.35246083 0.0010620293 0.00060621562
0.28494409 -0.23420435 -0.4038496 -0.93519324 0.35408804 -0.0059303078 0.00056641729
-0.28899452 -0.22442576 -0.40388122 0.95737445 0.2888405 -0.002342294 0.0024073331
0.29004866 -0.22047749 -0.40802577 -0.96852148 0.24892998 -3.4345755e-06 0.002339788
-0.29122117 -0.21157117 -0.40454444 0.98334241 0.18166538 0.005947785 0.0018992678
0.29067433 -0.2157248 -0.40720719 -0.97540528 0.22025523 0.0084976191 0.0020559288
-0.29223782 -0.20384884 -0.40321007 0.98890394 0.14855498 -0.00061963865 0.0004970624
0.29262567 -0.20090324 -0.40627083 -0.99107844 0.1332766 -0.00098812918 7.1923809e-05
0.29342121 -0.1948604 -0.40703747 -0.99141175 0.13077764 0.0001098835 0
-0.29424989 -0.18856569 -0.40034699 0.99144441 0.13052973 3.4323446e-05 1.6625796e-05
0.29468471 -0.18526298 -0.40547332 -0.99144518 0.13052362 7.7126118e-05 2.6098496e-05
0.29582936 -0.17656842 -0.40420473 -0.99145079 0.1304816 -1.5445841e-05 0
-0.29882747 -0.1537956 -0.40342045 0.99886107 0.047576372 -0.0036081518 0.0016168908
0.29840398 -0.15701219 -0.4041822 -0.99601376 0.089167863 -0.0023819362 0.00095227803
-0.2993865 -0.14022861 -0.40493146 0.99948996 -0.031834569 -0.0025329918 0.0021585203
-0.29816699 -0.13096535 -0.40144879 0.99588841 -0.090522997 -0.0034211776 0.0010317743
0.2985014 -0.1335056 -0.40463829 -0.99773979 -0.066728875 0.0079068104 0.0010741962
-0.29720131 -0.12363055 -0.40486738 0.9926151 -0.12126118 0.0033278717 0.00030314884
0.29752883 -0.12611805 -0.40588713 -0.99360037 -0.11288512 0.0038826303 0.00029971544
0.29598123 -0.11436297 -0.403052 -0.99145085 -0.13048084 1.7587716e-05 0
-0.29459062 -0.10380016 -0.40524173 0.99143797 -0.13057825 -3.7013466e-05 3.2893244e-05
0.29487008 -0.10592291 -0.40624744 -0.9914462 -0.13051599 -4.20043e-05 2.488961e-05
-0.29338264 -0.094624892 -0.40737289 0.99144191 -0.13054864 -5.2753021e-05 3.3837241e-05
0.29315266 -0.092877813 -0.40598816 -0.99047661 -0.13767977 -0.00058098615 5.7489011e-05
-0.29254973 -0.08829812 -0.40601024 0.99020571 -0.13960288 0.0019132367 8.0525358e-05
0.29210928 -0.084952593 -0.40800577 -0.98990339 -0.14174254 0.00055463525 0.00013025239
-0.29057166 -0.073273279 -0.40266743 0.98019218 -0.19802889 0.0027817702 0.0014181505
0.29116249 -0.077761091 -0.40357959 -0.9827857 -0.1847201 0.0032576986 0.0018307326
-0.29000139 -0.068941422 -0.40260798 0.96551067 -0.26036343 0.00028772469 0.0026312303
0.28829578 -0.06366536 -0.40545821 -0.96084392 -0.27708843 -0.00097877206 0.0027835481
-0.28497466 -0.055647504 -0.40360925 0.94171232 -0.33641675 -0.0012597588 0.0011849758
0.2838518 -0.052936606 -0.40575492 -0.93619817 -0.35145026 0.0039627026 0.00085558422
-0.28055185 -0.044969864 -0.40864155 0.92482924 -0.38038221 -0.00049528515 1.4704051e-05
0.27944931 -0.0423081 -0.40878168 -0.92392015 -0.38258529 -4.4777367e-05 3.6030196e-05
-0.27741954 -0.037407763 -0.40742299 0.92390734 -0.38261634 8.0113416e-05 0
0.27820593 -0.039306343 -0.40435767 -0.9239313 -0.38255841 0.00014819839 2.2188824e-05
-0.27162719 -0.023423828 -0.40401056 0.92387789 -0.38268733 -4.4774664e-05 0
0.27168044 -0.023552369 -0.40441686 -0.92387414 -0.38269645 0.00012947315 2.8291157e-05
-0.27006757 -0.019658614 -0.40365648 0.92298311 -0.3848404 0.00030685303 5.8200944e-06
-0.26853794 -0.015965732 -0.40425727 0.92281818 -0.38523588 3.0757987e-05 2.8739127e-05
0.26722184 -0.0127884 -0.40809056 -0.9192155 -0.39374048 0.0033523967 0.00037371367
-0.26297554 -0.002536847 -0.40353942 0.88431495 -0.46679863 0.0092785386 0.0018933803
-0.26165405 0.00065350113 -0.40981802 0.8808288 -0.47343266 -0.0014597832 0.0019706164
-0.25841591 0.0069248443 -0.40149888 0.86443377 -0.50272316 0.0048764083 0.0023500633
0.25926882 0.0058133341 -0.40132141 -0.85460985 -0.51926988 0.00086868618 0.0022631008
0.26022506 0.0041033477 -0.40511322 -0.86401206 -0.50344437 0.0051925471 0.0028529521
-0.24884538 0.019397391 -0.40436995 0.80419821 -0.59435982 -0.0012248725 0.00034228808
0.24900764 0.01918589 -0.40360066 -0.80273789 -0.59629571 0.0065849093 0.00034094288
0.25187081 0.015454559 -0.40170848 -0.81321841 -0.58194482 0.0039943312 0.00095074461
-0.24629042 0.022727065 -0.40176862 0.79893386 -0.60141844 -0.00072243396 9.6606789e-05
0.24238008 0.027823053 -0.40166008 -0.79403841 -0.60786754 0.00012029476 6.2295967e-06
-0.24019329 0.030672992 -0.40150082 0.79334509 -0.60877222 8.3550021e-06 7.6258361e-06
-0.23737378 0.034347426 -0.40534225 0.79334396 -0.60877365 -3.5161189e-05 1.5293086e-05
0.23536272 0.03696822 -0.40227023 -0.79335392 -0.60876065 3.8721642e-05 0
-0.23119444 0.04240052 -0.40375364 0.79334426 -0.60877323 1.7180493e-05 1.1728858e-05
-0.22760113 0.047083382 -0.4073824 0.78997672 -0.6131357 0.0011755144 5.6091652e-05
-0.22110188 0.055553354 -0.40399498 0.76735735 -0.64121962 0.00034781106 0.001161368
-0.21924028 0.057979435 -0.40704429 0.75486434 -0.65588081 0.00040945684 0.0015684257
0.21846211 0.058993462 -0.40670791 -0.74739277 -0.66425645 -0.012942898 0.0016456686
0.22115628 0.055482365 -0.40419894 -0.7683509 -0.63999677 -0.0064083543 0.00074999838
-0.21174076 0.067543305 -0.40456074 0.70633042 -0.7078523 -0.00651483 0.002475881
0.20857 0.069976255 -0.4092654 -0.67663825 -0.73621672 0.012067193 0.0011871574
0.21425226 0.064261213 -0.40223429 -0.72889328 -0.68458867 -0.0072712731 0.001931424
-0.20333974 0.07398966 -0.40540585 0.65346265 -0.75683397 0.013748643 0.0014205445
-0.19780874 0.078233749 -0.40409145 0.62562072 -0.78011602 0.0042225784 0.00063115102
0.19775839 0.078272313 -0.40623188 -0.62606251 -0.77976847 -0.0026171247 0.000427853
0.20302741 0.07422924 -0.40508831 -0.64994818 -0.759965 0.0045363028 0.0014054978
-0.19217831 0.082554132 -0.40697974 0.60891491 -0.7932356 -0.00014612582 6.92811e-06
-0.18388337 0.088919081 -0.40409794 0.60876077 -0.7933538 -2.8964228e-05 2.097076e-06
-0.17114249 0.098695494 -0.40713155 0.60876304 -0.79335207 1.859385e-05 0
0.17731842 0.093956515 -0.40504894 -0.60876036 -0.79335409 2.8906241e-05 1.8165096e-06
0.18034577 0.091633536 -0.40194118 -0.60874712 -0.79336423 2.1278182e-05 0
-0.16436054 0.10389949 -0.40596932 0.59478539 -0.80388081 0.0024668132 0.00032960586
-0.15859027 0.10832717 -0.40245509 0.54809374 -0.83640891 -0.0036400526 0.001719248
0.16699384 0.10187886 -0.40153661 -0.60487282 -0.79632163 0.00090841687 5.0943134e-05
-0.15471065 0.11130413 -0.40706944 0.53005481 -0.84796292 0.00087155099 0.0019152374
-0.14575464 0.1166772 -0.40445471 0.47308815 -0.88100147 0.0049007009 0.0017146609
0.14952409 0.11511584 -0.40403983 -0.487984 -0.87282914 0.0063866898 0.0020841912
0.15131174 0.1139122 -0.40344131 -0.48796836 -0.8728382 0.0063592819 0.0020879437
-0.13306087 0.12193514 -0.4023625 0.41253707 -0.91093868 -0.0019692669 0.00072762137
-0.12549868 0.1250675 -0.40786293 0.38662267 -0.92223793 0.00029667854 6.2286177e-05
0.117543 0.12836289 -0.40454125 -0.38269153 -0.92387617 -4.938128e-05 0
0.12455849 0.12545696 -0.40615559 -0.38435528 -0.92318511 -0.00048344 7.7712266e-06
-0.10544665 0.13337335 -0.40573454 0.38268271 -0.92387986 -1.2462007e-05 6.8116924e-06
0.094674557 0.13783532 -0.40582982 -0.35698158 -0.93407178 -0.0086033382 0.00051610457
0.10749864 0.1325234 -0.4036251 -0.38266927 -0.92388541 2.3048291e-05 1.021859e-05
0.11095049 0.13109359 -0.40839785 -0.38267604 -0.9238826 2.9052919e-05 0
-0.085895099 0.14147186 -0.40407383 0.30481562 -0.95238632 -0.0069104466 0.0016809807
-0.076225765 0.14484905 -0.40549573 0.24111484 -0.97036201 -0.016161285 0.002108834
-0.057384111 0.14755638 -0.40522334 0.15120161 -0.98850232 0.0011501111 0.00053371937
-0.045498155 0.14912118 -0.40644503 0.13053033 -0.99144429 5.3565378e-05 0
-0.039307725 0.14993617 -0.40197992 0.13052697 -0.99144477 -5.3621266e-06 0
0.044773791 0.14921656 -0.40654406 -0.13052739 -0.99144471 -3.065752e-05 1.6132304e-05
0.066282816 0.14638487 -0.40365365 -0.18807825 -0.98212528 -0.0075127617 0.0017688824
0.075549729 0.14505552 -0.40327618 -0.25782406 -0.96615756 0.0081425617 0.0017165432
-0.033697002 0.15067482 -0.4050006 0.13053004 -0.99144435 -1.63952e-06 0
-0.023896312 0.15196511 -0.40297112 0.1305251 -0.991445 1.5831954e-05 0
-0.017465696 0.15281171 -0.4072395 0.11445264 -0.99342698 0.0018952688 0.00033375504
-0.0048087644 0.15447801 -0.40519297 0.04562613 -0.99888468 -0.012149463 0.0018249595
0.0056740753 0.15436411 -0.40915096 -0.048209045 -0.99878079 -0.010623102 0.0018217081
0.017432569 0.15281607 -0.40411028 -0.10997421 -0.99393427 0.00059489009 0.00025739006
0.026576664 0.15161225 -0.4049224 -0.13052355 -0.99144518 1.7381464e-05 0
0.033066988 0.15075779 -0.40144855 -0.13052918 -0.99144447 -4.7838785e-05 0
-0.03680915 -0.44004294 -0.39727879 0.13052227 0.99144542 0.00014779296 4.9128575e-05
-0.01589084 -0.44279689 -0.39569995 0.10653894 0.99430847 -0.00048309841 0.00048585789
-0.0053353505 -0.44418651 -0.39057115 0.050514877 0.99863064 0.013602907 0.0017879491
0.0088802706 -0.4437198 -0.39303288 -0.071916781 0.99737591 0.008321817 0.0019881832
0.017572615 -0.44257545 -0.39567482 -0.12217706 0.99250829 -9.4333227e-05 7.5809985e-05
0.025261238 -0.44156322 -0.39625278 -0.12888983 0.99165863 -0.00072798232 1.1987742e-05
0.034339067 -0.44036812 -0.39681143 -0.1305076 0.99144733 -3.0896281e-05 0
-0.081433922 -0.43309757 -0.39746016 0.29703611 0.95486581 -0.00092503254 0.0018766671
-0.078041911 -0.43440253 -0.39155903 0.27576146 0.96114361 -0.012597161 0.0016964385
-0.064439617 -0.43640533 -0.39360148 0.17692244 0.98422474 -0.00026731807 0.0012280087
-0.05892935 -0.43713078 -0.39507729 0.13683307 0.99059403 0.00056735106 8.3672763e-05
-0.047989409 -0.43857104 -0.39445078 0.13052575 0.99144495 -0.00013070824 7.4864615e-06
0.038780063 -0.43978342 -0.3954137 -0.13054472 0.99144244 7.6710443e-05 0
0.046973746 -0.43870473 -0.39458719 -0.13056415 0.99143988 -8.8247766e-08 7.8591795e-05
0.059736986 -0.43702444 -0.39143336 -0.13665679 0.99061662 -0.00187248 5.9325717e-05
0.063931048 -0.43647227 -0.39664304 -0.15075827 0.98857051 -0.00052283466 0.0007566656
0.076382242 -0.43483308 -0.39583576 -0.25164911 0.96779788 0.0063222959 0.0029915238
0.088526666 -0.43015966 -0.39908671 -0.33147007 0.94346517 -0.001081672 0.0016418261
-0.11282755 -0.42009389 -0.3933574 0.38280118 0.92383075 2.9635259e-05 7.1310504e-05
-0.10479861 -0.42341956 -0.39309508 0.38242257 0.92398751 -7.6692326e-05 7.5202748e-05
-0.099519864 -0.4256061 -0.39851105 0.37856781 0.92557275 0.0012574149 7.7419245e-05
0.094861612 -0.42753565 -0.39456683 -0.37307999 0.92776281 0.0082202461 3.9053397e-05
0.10143901 -0.42481121 -0.39401102 -0.3799935 0.92498887 0.00068355858 0
-0.13060057 -0.41273203 -0.393215 0.39179608 0.92004526 0.0035568795 0
-0.12498554 -0.4150579 -0.3957777 0.38455418 0.92310244 0.00016900827 0
-0.11537936 -0.41903687 -0.39820385 0.38276723 0.92384475 6.1876206e-05 7.917203e-05
0.11389074 -0.41965348 -0.39269066 -0.38271528 0.92386633 3.0198466e-05 4.760634e-05
0.12457258 -0.41522893 -0.39726365 -0.38478437 0.92300647 -0.00017202334 0
0.13560444 -0.41065937 -0.39672518 -0.41666129 0.90904427 0.0056635812 0.00084085303
-0.15147406 -0.40356547 -0.39344126 0.50390261 0.86374891 -0.0044761756 0.0023864189
-0.14493081 -0.40679625 -0.39558092 0.47146237 0.88188571 -0.00092041655 0.0019729214
-0.13819702 -0.40958548 -0.39628512 0.41767916 0.90859455 0.00013803586 0.00076611224
0.15127912 -0.40371504 -0.39558145 -0.51069206 0.85972637 0.008004657 0.0025843414
-0.16683383 -0.39177945 -0.3956677 0.59577096 0.80315387 -0.00090460142 0.00039644042
0.16524091 -0.39300174 -0.39555365 -0.59234732 0.8056826 0.00040844997 0.00042142172
-0.17623529 -0.38456547 -0.39321542 0.60876471 0.79335088 4.8920196e-05 0
0.16975893 -0.38953492 -0.39421552 -0.60879099 0.79333067 -7.0547641e-05 5.0360876e-07
0.17098083 -0.38859734 -0.39912671 -0.6088267 0.79330325 -9.7138487e-05 9.6131313e-05
0.18123379 -0.38072994 -0.39641547 -0.60877907 0.79333985 1.2624736e-05 3.9190465e-05
-0.19111559 -0.37314743 -0.39401662 0.60881573 0.7933116 5.3618834e-05 0
-0.18605827 -0.37702799 -0.39021802 0.60881305 0.79331374 0.00012278909 0
0.18389888 -0.37868497 -0.39235902 -0.60881454 0.79331261 -5.4588767e-05 2.6919392e-05
0.19862919 -0.36738196 -0.39439917 -0.62947524 0.77702016 -0.00083606911 0.00058383471
0.20603971 -0.36169565 -0.39466023 -0.65780568 0.75315416 -0.0071007344 0.0017499485
-0.21199752 -0.35711804 -0.39598003 0.69774151 0.7163465 0.0021216292 0.001889736
-0.20864005 -0.35970038 -0.39187795 0.67296016 0.73967642 0.0018302666 0.0014030347
0.21748787 -0.35004094 -0.39658052 -0.75518203 0.65551478 -0.00071200618 0.0016672764
-0.22176939 -0.34446126 -0.39120746 0.77972794 0.62610972 0.0033161705 0.00045982437
-0.21857801 -0.34862036 -0.39714107 0.74446326 0.6675365 0.013022623 0.0014542941
0.22150716 -0.34480292 -0.39340863 -0.77820128 0.62798256 0.0063848384 0.00047341298
-0.23091507 -0.33254242 -0.39251509 0.79297495 0.6092543 -0.00022602016 2.3383362e-05
-0.22771761 -0.33670941 -0.39662492 0.79275769 0.60953665 -0.00045733605 1.681436e-05
0.22687641 -0.3378056 -0.3936213 -0.79249084 0.60988373 1.215244e-05 1.8907899e-06
0.23541676 -0.32667562 -0.39586014 -0.79333252 0.60878855 -7.9756479e-05 2.8554216e-05
-0.24614573 -0.31269345 -0.39616036 0.79946154 0.60071462 0.0017888875 0.00015230781
0.24691749 -0.31168765 -0.39360738 -0.79938632 0.60081494 0.0017206237 0.00011224596
-0.25138548 -0.3058649 -0.39391413 0.81272739 0.58263445 0.0033634116 0.00080404076
0.24873504 -0.30931896 -0.39763278 -0.80369115 0.59500557 0.0069896826 0.00021512641
0.25440347 -0.3019318 -0.39133346 -0.82679975 0.56249344 0.0018346624 0.0010719713
-0.26090631 -0.29223651 -0.39413509 0.87377959 0.4862977 -0.0048725195 0.0025876109
0.25814337 -0.29705784 -0.3982192 -0.84927529 0.52778518 0.013204279 0.0024505681
0.26083279 -0.29241404 -0.39607343 -0.86616129 0.49962229 0.011927225 0.00253029
0.26444274 -0.28369886 -0.39522117 -0.90840054 0.41809949 -0.0011089247 0.001138097
-0.2689445 -0.27283067 -0.39235491 0.92189139 0.38744625 -0.0012773953 0.00010115729
-0.2714465 -0.26679036 -0.39281505 0.92389399 0.38264853 -0.00011820635 5.5422544e-05
0.27398223 -0.26066852 -0.39713797 -0.92384869 0.38275802 -2.7310467e-05 0
-0.27612886 -0.2554861 -0.39508185 0.92386639 0.38271523 0.00010162398 0
-0.28050554 -0.2449199 -0.39733368 0.92522049 0.37942889 -0.00090571231 5.1082924e-07
-0.279347 -0.24771687 -0.39650911 0.92504787 0.37985048 -0.00032321096 3.3061777e-05
0.27853128 -0.24968615 -0.39889592 -0.92416614 0.38199082 2.0549311e-05 0
0.28133395 -0.24291994 -0.3924554 -0.92901498 0.37004051 0.0011049866 0.00014908549
-0.28604379 -0.23154943 -0.39365208 0.9443382 0.32891062 -0.0065704505 0.0016794826
0.28309956 -0.23865737 -0.39293745 -0.93337917 0.35888964 0.001261148 0.00051552599
-0.29010478 -0.22005126 -0.39391047 0.96211344 0.27243432 -0.010830311 0.0025914833
-0.28920496 -0.22357194 -0.3973974 0.96063012 0.27744794 -0.014574315 0.0026674899
0.28899992 -0.22409569 -0.39673737 -0.96057487 0.277964 0.0056527965 0.0025797214
-0.29075444 -0.21511647 -0.39605081 0.98086405 0.19468398 -0.0019680059 0.0014552547
0.29063553 -0.21601969 -0.39616096 -0.97550392 0.21993694 -0.004467621 0.002377104
0.29258949 -0.20117791 -0.39955023 -0.99111068 0.13303983 -0.00026200849 0
-0.2933861 -0.19512695 -0.39736161 0.99110758 0.13306256 1.4085063e-05 2.5661335e-05
0.293282 -0.19591767 -0.39529151 -0.99114597 0.13277663 -2.9892296e-06 2.027498e-05
0.29439172 -0.1874886 -0.39738366 -0.99144167 0.13055056 -8.4700032e-06 0
-0.29655939 -0.17102323 -0.39684862 0.99144089 0.13055585 -3.5757643e-05 1.0843231e-05
0.29598618 -0.17537746 -0.39567709 -0.99145222 0.13046996 8.4362306e-05 7.3954834e-06
-0.29741275 -0.1645413 -0.39961484 0.9931401 0.11692999 0.00036641469 0.0002079815
0.29682282 -0.16902241 -0.39449269 -0.99207008 0.12567711 -0.0015082899 4.1345957e-05
-0.29848754 -0.15637746 -0.39380026 0.99747264 0.07100863 0.0024695869 0.0011604065
0.29851124 -0.15619758 -0.39486834 -0.99805152 0.061992623 -0.0070832414 0.001253849
0.2998035 -0.14339595 -0.39678231 -0.99943835 -0.033388641 0.0028758319 0.0018412354
-0.29866058 -0.13471469 -0.39644134 0.99799985 -0.062583074 -0.0089279562 0.0015917929
0.29858747 -0.13415945 -0.3943077 -0.99831522 -0.058022816 0.00016366306 0.0017007793
-0.29751635 -0.12602331 -0.39643574 0.99506897 -0.09911868 0.003648673 0.00081156893
0.29744238 -0.12546137 -0.39091516 -0.99202031 -0.12607731 -0.0004415827 2.2857748e-05
-0.29625574 -0.11644799 -0.39525381 0.99144733 -0.13050734 3.2004351e-05 1.9822188e-05
0.2959573 -0.11418116 -0.39201769 -0.99144435 -0.13053001 -6.4895459e-05 0
-0.29470327 -0.10465576 -0.39341247 0.99144042 -0.1305602 -7.4321692e-06 7.5878364e-05
0.29439962 -0.10234954 -0.39991581 -0.99144793 -0.13050258 -6.4824462e-06 0
-0.29319674 -0.093212776 -0.39336115 0.99093628 -0.13433273 0.00017310775 9.8934484e-05
0.29347628 -0.095335931 -0.39488819 -0.99132842 -0.13140729 -0.00035726692 0
-0.2919333 -0.083615854 -0.39936686 0.98526108 -0.17104684 -0.00190422 0.0011137368
0.29216236 -0.085355677 -0.39550525 -0.98988879 -0.14180255 0.0034977398 0.00014042102
-0.29071176 -0.074337341 -0.39685705 0.98102355 -0.19388381 0.0013511227 0.0014146968
0.29082891 -0.075227275 -0.39576426 -0.97805977 -0.20815931 -0.0082935002 0.0020318993
-0.28864896 -0.064517997 -0.39727414 0.96083134 -0.27706558 0.006145101 0.002101456
0.28893602 -0.065239392 -0.39591721 -0.95919389 -0.28271717 0.0042456212 0.0027126153
-0.2854276 -0.056740981 -0.3966105 0.94332993 -0.33185419 0.001223492 0.0011674828
0.28424042 -0.053874895 -0.39492565 -0.9368065 -0.34980756 0.0053210603 0.0006924746
-0.27937821 -0.042136397 -0.39703119 0.92461777 -0.38089618 0.00010799135 2.3071525e-05
0.27999672 -0.043629646 -0.39150462 -0.92477411 -0.3805162 -0.00042854904 2.3319099e-05
0.28201729 -0.048507735 -0.39369288 -0.93111694 -0.36472085 -0.00012869852 0.00043864007
-0.2762922 -0.034686148 -0.39380684 0.92387736 -0.3826887 7.1453309e-05 3.0048293e-06
0.27466232 -0.030751199 -0.39772063 -0.92388141 -0.38267887 -4.2723251e-08 0
-0.27033719 -0.020309458 -0.39737797 0.92387557 -0.38269299 0.00012875236 0
0.27232754 -0.025114587 -0.39638257 -0.9238736 -0.38269782 3.3554999e-05 1.1952698e-05
-0.26915529 -0.017456114 -0.39322585 0.92304581 -0.3846893 0.00070310401 5.0814506e-06
0.26755875 -0.013601691 -0.39116979 -0.92347562 -0.3836568 0.00037455771 3.9582392e-05
-0.26508892 -0.0076390766 -0.3929162 0.91520119 -0.4029904 -0.0023577386 0.00037852596
0.26484048 -0.0070392382 -0.39470792 -0.90215117 -0.43141797 0.0013584372 0.0017169771
-0.26088175 0.0025179929 -0.39891249 0.87735921 -0.479763 0.0082559576 0.0022428548
0.2604101 0.0036566467 -0.39432782 -0.86216503 -0.50662744 0.00012090016 0.0023402586
-0.25566044 0.010515832 -0.39579993 0.83550292 -0.5494507 0.0062297247 0.0012434705
-0.24941576 0.018654041 -0.39526379 0.8104772 -0.58576143 -0.0031862911 0.00067845877
0.24998312 0.017914645 -0.39514184 -0.81092405 -0.58513147 -0.0048148949 0.00080842339
0.25324532 0.013663269 -0.39573169 -0.82214373 -0.56927013 -0.0033595853 0.0010250327
0.24586615 0.023279963 -0.3959119 -0.79520667 -0.60633826 -0.00056353235 0
-0.23631467 0.035727687 -0.39561176 0.79333931 -0.60877985 -5.5484979e-05 2.4875419e-05
0.23625469 0.035805784 -0.39447078 -0.79334915 -0.60876691 -6.0747476e-05 9.5543728e-06
-0.23193669 0.041433148 -0.3916477 0.79333323 -0.60878778 -5.4937829e-07 2.4756717e-05
-0.2258653 0.049345545 -0.39226401 0.79042518 -0.61255735 -0.0012269123 3.9522743e-05
0.22959794 0.044481032 -0.39280242 -0.7922951 -0.610138 -0.00013994351 0
0.23188666 0.041498303 -0.39437944 -0.7930246 -0.60918963 5.6683042e-05 0
-0.22299626 0.053084563 -0.39588207 0.78118366 -0.62430125 0.00027136772 0.00052869745
-0.21226425 0.06707076 -0.39801407 0.69733375 -0.71672314 0.0057927603 0.0023532424
-0.20301461 0.074239127 -0.3975226 0.66272938 -0.74885798 -0.0011992825 0.0019056
0.19799909 0.078087635 -0.39557523 -0.61816883 -0.78604525 6.491079e-05 0.00013236731
0.20518404 0.072574407 -0.39271557 -0.66019815 -0.75109148 0.00022391259 0.0011496721
-0.19001724 0.084212378 -0.39376175 0.60923052 -0.79299313 -6.8538495e-05 0
0.18516968 0.087932013 -0.39088672 -0.60875964 -0.79335469 -5.0187547e-05 0
-0.17349422 0.096890964 -0.39476714 0.60873914 -0.79337054 -5.7950445e-05 8.8619854e-06
0.17586389 0.095072605 -0.39577347 -0.608769 -0.7933476 -5.4072843e-06 0
0.18092297 0.091190636 -0.39595073 -0.6087597 -0.79335469 2.7821763e-05 2.4515809e-06
-0.16709559 0.10180081 -0.39024603 0.59892714 -0.80080301 -0.00090745749 0.00026432361
-0.15666649 0.10980335 -0.39683223 0.53375882 -0.84563154 0.0029863396 0.0019624755
0.15936452 0.10773307 -0.39904624 -0.57966918 -0.81485182 -0.00052920054 0.0009302182
0.162844 0.10506316 -0.39871249 -0.60019255 -0.79985225 -0.0023100909 0.00019869352
-0.15429769 0.11162098 -0.39641625 0.52658397 -0.85012281 -0.00066794123 0.0022513627
-0.14683175 0.11623104 -0.39215741 0.48606995 -0.87391734 0.0020947626 0.0024755683
0.14682357 0.11623444 -0.39624485 -0.48057273 -0.87694079 -0.0049710339 0.0023357433
0.15319896 0.11246408 -0.39368272 -0.52417243 -0.85154611 -0.010609402 0.002701516
-0.1312173 0.12269878 -0.39460859 0.40399104 -0.91475254 0.0043744431 0.0004668546
-0.11811287 0.12812681 -0.39717928 0.38269106 -0.9238764 -3.8821941e-05 0
0.12632598 0.12472483 -0.39603457 -0.38766646 -0.92179948 0.00053471292 6.7542824e-05
-0.094265535 0.13800471 -0.39181274 0.35739642 -0.93395114 0.0017387897 0.0004541573
0.097221151 0.13678049 -0.39161462 -0.36828008 -0.92971408 0.0012173444 0.000193425
0.10635191 0.13299838 -0.39491159 -0.38269785 -0.92387354 1.5532276e-05 0
0.11074562 0.13117844 -0.39488763 -0.38268647 -0.92387825 -1.0213816e-05 0
-0.07148546 0.1456999 -0.39762002 0.22173308 -0.97508115 -0.0071605989 0.0020257432
-0.068067931 0.14614983 -0.39579058 0.19864006 -0.97995001 -0.015492574 0.0017474203
-0.054074977 0.14799203 -0.39755237 0.13303456 -0.99111146 -0.00022390275 8.2748875e-06
-0.042259298 0.14954758 -0.39182562 0.13053362 -0.99144393 4.5959678e-05 0
0.039335638 0.1499325 -0.39335668 -0.13053477 -0.99144375 4.9615846e-05 0
0.043701272 0.14935777 -0.39855108 -0.13053705 -0.9914434 5.8119935e-05 0
0.063919581 0.14669597 -0.39334482 -0.17047788 -0.98533481 -0.0072462778 0.0012148864
0.07298854 0.14550203 -0.39353514 -0.22639346 -0.97402829 0.0038494747 0.0021776131
-0.035393219 0.15045153 -0.39343724 0.1305304 -0.99144429 -4.4326913e-05 6.9244157e-07
-0.021293344 0.15230778 -0.39649075 0.11664226 -0.99317402 -0.00018890308 0.00023421265
-0.01210169 0.15351789 -0.39341509 0.083046466 -0.99654543 -0.00061903591 0.00128442
-0.0043673669 0.15453613 -0.39583051 0.0099170627 -0.99983191 -0.015423486 0.0017460762
0.011201485 0.15363641 -0.39504066 -0.093533054 -0.99557513 -0.0090379789 0.00069237547
0.028178139 0.1514014 -0.39252731 -0.13051496 -0.99144632 -6.2382685e-05 1.0990646e-05
0.03540137 0.15045045 -0.39936587 -0.13052671 -0.99144483 -5.1533648e-06 1.9352633e-07
-0.030330414 -0.44089586 -0.38945621 0.13053054 0.99144429 -0.00013732327 0
-0.021635409 -0.44204056 -0.38453001 0.12443668 0.99222678 -0.0012286926 3.6644e-05
-0.013989086 -0.44304726 -0.38401237 0.094909102 0.9954828 0.0025045429 0.0009231416
-0.0010694787 -0.4447481 -0.38699186 0.012553941 0.99987745 0.0093490537 0.0032069599
0.0033343022 -0.44444993 -0.38427967 -0.025492387 0.99964821 0.0073197726 0.0030209022
0.01277997 -0.4432064 -0.38488325 -0.10395797 0.99458039 0.0015946006 0.00080517487
0.025285378 -0.44156003 -0.38981336 -0.12812071 0.99175829 -0.00069814583 0.00011752353
0.030642467 -0.44085479 -0.38296908 -0.13054013 0.99144298 1.1699125e-06 0
-0.086591281 -0.43096131 -0.38447055 0.33817282 0.94108373 0.00074181723 0.0011242381
-0.066765554 -0.43609911 -0.38683903 0.20204785 0.97922707 -0.017062169 0.0016807019
-0.046743087 -0.4387351 -0.38513666 0.13054623 0.9914422 5.836644e-05 0
0.038821056 -0.43977806 -0.38121882 -0.13057438 0.99143845 -0.00018242479 8.5211526e-05
0.044921678 -0.43897489 -0.385701 -0.1305082 0.99144715 -0.00033299648 0.00011959109
0.056873329 -0.43740144 -0.38850707 -0.13668053 0.99061322 -0.0019863388 0.0001289737
0.063469529 -0.43653306 -0.3854413 -0.15697551 0.98759186 0.0045922073 0.00075044774
0.076618567 -0.43480197 -0.38401431 -0.27230677 0.96217352 0.0084340246 0.0026207247
0.081303149 -0.43315178 -0.3862834 -0.29425117 0.95566595 0.010905381 0.0021153567
-0.10053422 -0.42518592 -0.38244087 0.38024801 0.9248845 -0.00023040526 0
-0.095072195 -0.42744839 -0.38595673 0.36496568 0.93102086 -0.00042129064 0.00051555911
-0.089341782 -0.42982203 -0.38278383 0.33805308 0.94112128 0.0032832371 0.0010887894
0.094197556 -0.42781073 -0.38599956 -0.37278095 0.92791814 0.0015154901 5.2664536e-06
0.10422647 -0.42365658 -0.38397816 -0.38156459 0.92434216 0.00031767917 0
-0.12447336 -0.41527003 -0.38827509 0.3844054 0.92316437 0.00031388676 3.0664054e-05
-0.11725724 -0.41825905 -0.38395879 0.38267159 0.92388445 4.1231957e-05 0
0.11770882 -0.41807199 -0.3858344 -0.38265294 0.92389214 -3.5941906e-05 6.8130435e-06
0.12411605 -0.41541803 -0.38257408 -0.3841784 0.9232589 7.5112359e-05 2.0749845e-05
-0.15227 -0.4029547 -0.38650361 0.5253045 0.85089642 -0.0055234977 0.0017762268
-0.144325 -0.40704718 -0.38346162 0.46235758 0.88669282 -0.0010970831 0.0020351324
-0.13777424 -0.40976059 -0.38086891 0.42976633 0.90293938 0.0011684182 0.0015191331
0.1374782 -0.4098832 -0.38167053 -0.41548336 0.90958154 0.0059153866 0.00093654502
0.14083351 -0.4084934 -0.38503981 -0.4277733 0.90388548 0.0010009784 0.0011572139
0.15418047 -0.40148869 -0.38462767 -0.5409618 0.84097898 -0.010700786 0.0016525052
-0.16557123 -0.39274833 -0.38545895 0.59426683 0.80426675 0.0014077511 0.00030673153
-0.15955816 -0.39736229 -0.38929784 0.57000846 0.82162654 -0.0044985311 0.00096664648
0.15900917 -0.39778355 -0.38659102 -0.5580619 0.82977653 -0.0061467187 0.001532713
-0.17160293 -0.38812 -0.38502982 0.60888922 0.79325515 -0.00026002846 0.00012080889
-0.16980174 -0.38950211 -0.38614148 0.60886174 0.79327637 -8.9078807e-05 0.00014779081
0.17397107 -0.38630283 -0.38487348 -0.60882074 0.79330784 9.5513067e-05 0
-0.19407392 -0.37087736 -0.38364616 0.61425841 0.78910363 -0.0014884191 0.00015937944
-0.18407513 -0.37854972 -0.38578713 0.60878551 0.7933349 4.8600705e-05 0
0.18656291 -0.37664077 -0.38206625 -0.60875571 0.79335773 -2.8635684e-06 5.2560103e-05
-0.20071033 -0.36578506 -0.3893733 0.64538372 0.76385748 -0.0012995626 0.00084017636
-0.19768807 -0.36810416 -0.38378924 0.6334042 0.77377421 -0.0085242037 0.00068740116
-0.21407656 -0.35424149 -0.38464263 0.72470063 0.68906379 -0.00030602457 0.0021312456
0.21334459 -0.35544056 -0.38219953 -0.71502364 0.69909936 0.0011211757 0.0022572021
-0.22197807 -0.34418932 -0.38618174 0.78110105 0.62438524 -0.0049079005 0.00041476908
-0.2185166 -0.34870037 -0.38436565 0.74898273 0.66258854 -0.0011815339 0.0016783767
0.22377507 -0.34184733 -0.38148367 -0.78415692 0.62055641 0.0027753729 0.00034895318
0.22732455 -0.33722159 -0.38353896 -0.79252684 0.6098367 -0.00069154159 0
-0.23678426 -0.32489356 -0.3876369 0.79329932 0.60883194 -2.4563462e-05 0
0.23507757 -0.32711765 -0.38467777 -0.79343098 0.60866016 -2.761748e-05 3.1499734e-05
-0.24674894 -0.31190732 -0.3847647 0.79813194 0.60248274 -0.00015119524 0.00014168734
0.24513248 -0.3140139 -0.38456616 -0.79757386 0.60322112 0.00038779399 7.5676362e-05
-0.25373447 -0.30280358 -0.38559943 0.82732075 0.56160724 -0.011729495 0.0012606488
0.25375536 -0.3027764 -0.38409072 -0.82822186 0.56035012 -0.0075058234 0.0011776317
-0.25725406 -0.29821682 -0.38416463 0.85543722 0.51779723 -0.010632164 0.0020581216
0.25852075 -0.29656604 -0.38780817 -0.84913099 0.52791029 -0.016949527 0.0017699017
0.26048863 -0.29324484 -0.38363826 -0.85151666 0.52406788 -0.016498512 0.0018561928
-0.26354185 -0.28587377 -0.38641992 0.89709938 0.44166958 -0.01186186 0.0012193377
0.26416942 -0.28435865 -0.38193715 -0.90376431 0.42780787 -0.013807096 0.0015597355
-0.26643756 -0.27888289 -0.38647002 0.9124043 0.40925595 -0.0052892705 0.00053727737
-0.27325815 -0.26241657 -0.3808974 0.92386442 0.38271984 -1.7567731e-05 1.8222976e-05
0.27247432 -0.26430893 -0.3874847 -0.92384303 0.38277158 9.0988193e-05 0
-0.27664855 -0.25423151 -0.38477185 0.9238658 0.38271672 3.6774421e-05 0
0.27478948 -0.25871968 -0.38355178 -0.92385751 0.3827365 -5.2738284e-05 0
-0.28128022 -0.24304965 -0.38397568 0.9280684 0.37240735 -0.0013380949 0.00023650005
0.28063655 -0.24460366 -0.38566238 -0.92492819 0.38014168 0.00047978389 2.2429176e-05
-0.28528103 -0.23339087 -0.38194656 0.94134617 0.33737478 -0.0067614508 0.0012414752
0.28463843 -0.23494226 -0.38351712 -0.94128567 0.33760113 0.0025980573 0.0010263792
-0.28950542 -0.22319229 -0.38907909 0.9611488 0.27602449 -0.0018658717 0.0024500424
0.28996846 -0.22108646 -0.38417801 -0.96615905 0.25790322 0.0047629406 0.0022145913
-0.29057482 -0.21648073 -0.38691646 0.97363567 0.22794023 -0.0087600276 0.0019888475
0.29091823 -0.21387239 -0.38554034 -0.98044574 0.19678847 -0.0007281744 0.0018654066
-0.29248038 -0.2020067 -0.38445935 0.99081212 0.13522288 0.0024941361 4.1828702e-05
0.29160401 -0.20866358 -0.38387641 -0.98717958 0.15940374 -0.0081838975 0.00080272421
0.29337496 -0.19521169 -0.38497856 -0.99144274 0.13054265 0.00013141618 0
0.29464337 -0.18557696 -0.38326684 -0.99145103 0.13047983 -7.9697584e-06 3.2597072e-05
-0.29592785 -0.1758204 -0.38176066 0.99144179 0.13054943 1.0615316e-05 2.1753762e-05
0.2960214 -0.17510962 -0.38299757 -0.99144471 0.13052744 -3.3342854e-05 3.1485877e-05
-0.29754236 -0.16355693 -0.38857678 0.9954651 0.095116027 -0.0014873059 0.0006264628
0.2979387 -0.16054651 -0.38860375 -0.99558306 0.093789481 -0.00422457 0.00093166746
-0.29874933 -0.15438899 -0.38700485 0.99831021 0.057322673 0.0095294733 0.0017207589
0.29865077 -0.15513758 -0.38535139 -0.99849212 0.054805841 0.0031170456 0.0015041658
-0.29970697 -0.14266276 -0.38651195 0.99910378 -0.039597187 0.014958858 0.0018592187
0.29952443 -0.14415944 -0.3845914 -0.99991804 -0.012183657 0.0039430545 0.0022884163
-0.29895434 -0.13694593 -0.38131279 0.9978407 -0.064918973 0.0099735344 0.0014223995
0.29870105 -0.13502198 -0.38256067 -0.99795115 -0.063530423 0.0075726951 0.0013821436
0.29803216 -0.1299414 -0.38394332 -0.99675536 -0.080488995 -0.00041072108 0.0010847016
-0.29570991 -0.11230222 -0.38775259 0.99144506 -0.13052496 -1.3944997e-05 5.7123842e-05
0.29651323 -0.11840401 -0.38379446 -0.99182904 -0.12757349 -0.00043308057 4.5734461e-05
-0.29472613 -0.10482962 -0.38582873 0.99144763 -0.13050483 3.9335169e-05 0
0.2946974 -0.10461134 -0.38239735 -0.99144524 -0.13052335 0.00012604251 0
-0.29357302 -0.096070707 -0.38466954 0.99144924 -0.13049302 6.4703294e-05 7.358004e-06
0.29324788 -0.093600921 -0.38353065 -0.99134552 -0.13127847 1.9984625e-05 0
0.29221645 -0.085766673 -0.38672763 -0.98932266 -0.14574213 -2.6213789e-05 0.00017310146
-0.29076555 -0.074745968 -0.38290238 0.98199201 -0.18889298 0.0033243017 0.0011593339
0.29080242 -0.075025871 -0.38485116 -0.97789317 -0.20909336 -0.0022111561 0.001918503
0.28953061 -0.066646509 -0.38765219 -0.96791303 -0.25127858 -0.0018360462 0.0024837947
-0.28559613 -0.057147805 -0.38868752 0.94185907 -0.33600667 -0.0010077382 0.0011477126
0.28415489 -0.053668328 -0.38526618 -0.93256658 -0.36097822 0.0037895446 0.00049121241
-0.28045121 -0.04472689 -0.38838738 0.92466259 -0.38078532 0.0012593196 2.305919e-05
-0.27857426 -0.040195502 -0.38146192 0.92387199 -0.38270167 2.2323949e-05 2.1004553e-05
0.28044438 -0.044710442 -0.38338798 -0.92489076 -0.38023296 -0.00018282456 5.1173403e-05
-0.27301183 -0.026766656 -0.38857999 0.92387843 -0.38268602 3.3305496e-05 0
-0.26795769 -0.014564853 -0.38397789 0.91849619 -0.39542374 -0.0022063416 0.00019695981
0.26722723 -0.012801368 -0.3833093 -0.91798252 -0.39662087 6.7193287e-05 0.00057081296
-0.26396897 -0.0049352162 -0.38412514 0.89407289 -0.4478569 0.0076049687 0.0018500993
0.26359731 -0.004037986 -0.38094598 -0.88869244 -0.45833948 -0.012275586 0.0021407539
-0.26047313 0.0035044707 -0.3897686 0.87377816 -0.48625579 0.0081946449 0.0024741588
0.26008028 0.0044528916 -0.38484061 -0.85721695 -0.51484823 -0.010509296 0.0018512052
-0.24912709 0.019030254 -0.38805065 0.81036252 -0.58592677 -0.0015562853 0.00075872336
0.24998666 0.017910017 -0.38617525 -0.80544686 -0.59262729 -0.0069529354 0.00044319549
0.25395206 0.012742229 -0.38452423 -0.83328855 -0.55268013 -0.01321717 0.0017454396
-0.24592313 0.023205739 -0.3865214 0.79580355 -0.60555315 0.0014469973 4.0328843e-05
0.24582668 0.023331366 -0.38552424 -0.79844296 -0.6020605 -0.0034625437 0.00011779447
-0.23839946 0.033010732 -0.38583755 0.79332989 -0.60879195 -0.00010763606 2.6566684e-05
0.23549132 0.036800649 -0.38650289 -0.79334468 -0.6087727 -0.00014079233 1.7852713e-05
-0.23149116 0.042013798 -0.38463035 0.79332846 -0.60879385 2.8527505e-05 2.763356e-05
-0.22755703 0.047140826 -0.38088131 0.78993779 -0.61318672 -0.00065136544 5.7024517e-05
0.2278115 0.046809148 -0.38379398 -0.79073179 -0.61216217 0.00083505554 2.4028039e-05
0.23194131 0.041427083 -0.38561034 -0.79335213 -0.6087631 1.1177543e-05 4.2173165e-06
-0.2207849 0.055966452 -0.38633966 0.76806235 -0.64035177 -0.0054580891 0.001049909
-0.21834837 0.059141792 -0.38404688 0.76416266 -0.64500427 -0.0049973973 0.0011761514
0.22012401 0.056827631 -0.38235474 -0.77188396 -0.63573503 0.006015793 0.00070840004
-0.21235442 0.066948652 -0.38593224 0.70512462 -0.70906329 -0.0053417906 0.0028456917
-0.20937599 0.069357865 -0.38174284 0.68961632 -0.72417486 0.00036965671 0.002319095
0.21335287 0.065213241 -0.38780653 -0.71963978 -0.69434053 -0.0031247798 0.0017760039
-0.20147491 0.075420588 -0.38251376 0.63973504 -0.76859504 -0.00085697451 0.0010364515
-0.19568552 0.079862952 -0.38644558 0.61354434 -0.78965628 -0.0025172799 6.5767854e-05
0.19661851 0.079146981 -0.3873831 -0.61675215 -0.78715557 0.0017307594 0.00011743652
0.20253649 0.074605942 -0.38103724 -0.64710087 -0.7623896 -0.0047480543 0.001256445
-0.19398078 0.081171051 -0.38617605 0.61352056 -0.7896747 -0.0025296828 8.146929e-05
-0.18511015 0.087977722 -0.38533583 0.60876495 -0.79335064 -3.7229376e-05 0
0.18551545 0.087666698 -0.38661113 -0.60873878 -0.79337072 -1.6839132e-06 1.3515493e-05
-0.18110955 0.091047488 -0.38931829 0.60874563 -0.79336548 2.6098335e-06 1.6923013e-05
0.17459337 0.096047521 -0.38732693 -0.60874021 -0.79336959 -1.011184e-05 1.0354608e-05
0.18014836 0.091785014 -0.384354 -0.60875112 -0.79336119 8.0725185e-06 4.6783657e-06
-0.16731179 0.1016349 -0.38314992 0.5978834 -0.80157882 -0.0026146129 0.00024506732
-0.15858313 0.10833266 -0.38228512 0.57469398 -0.81836528 -0.0022965795 0.0011192556
0.15668096 0.10979225 -0.38160557 -0.55785966 -0.82992357 -0.0044064382 0.0021089176
0.16694741 0.1019145 -0.38442424 -0.5986979 -0.80097163 -0.0023019707 0.00023838924
-0.15045294 0.11457118 -0.38823724 0.51731402 -0.85577589 0.0058097891 0.002625131
-0.14450359 0.1171954 -0.38531095 0.48410216 -0.87490195 -0.013844142 0.0022309655
0.13855562 0.11965916 -0.38847181 -0.42028397 -0.90737808 -0.0051378645 0.00098777039
0.14444745 0.11721867 -0.3836368 -0.47138909 -0.88191843 -0.0034832745 0.002548184
0.15506533 0.11103197 -0.38309014 -0.55227345 -0.83364892 -0.0048430571 0.0021188161
-0.13145788 0.12259912 -0.38494506 0.39272186 -0.91965687 -0.00088269601 0.00017069036
0.11657196 0.12876509 -0.38700327 -0.38269943 -0.92387295 1.7115695e-05 0
0.12440813 0.12551925 -0.38620335 -0.38269332 -0.92387545 4.3366722e-07 0
0.13327666 0.12184577 -0.38404682 -0.40670928 -0.91354609 -0.0045994897 0.00061795744
-0.11220259 0.13057494 -0.38878202 0.38269097 -0.9238764 7.0078763e-06 0
-0.10477822 0.13365021 -0.38527244 0.38268715 -0.92387801 1.7853872e-05 0
-0.093771629 0.13820928 -0.38850462 0.35733947 -0.93397313 0.0016407757 0.00049453223
0.090889588 0.1394031 -0.38885739 -0.34260485 -0.93947953 0.00030799015 0.00094266993
0.1064276 0.13296704 -0.38384548 -0.382705 -0.92387056 -2.0810432e-05 0
0.11119209 0.13099352 -0.38145486 -0.38267204 -0.92388421 -2.1041196e-05 0
-0.076898023 0.14468488 -0.38889569 0.22815949 -0.97359824 -0.0070434515 0.0016564222
-0.064716056 0.1465911 -0.38602796 0.17497408 -0.98457301 -0.00020841078 0.0012528526
-0.055849027 0.14775847 -0.38430882 0.13275892 -0.99114746 0.001320881 1.6265254e-05
-0.049673595 0.14857149 -0.38352799 0.13181372 -0.99127448 0.00029827087 3.1508143e-06
0.043925643 0.14932822 -0.38647684 -0.13052462 -0.99144512 -1.0708992e-05 0
0.055439744 0.14781238 -0.38720018 -0.13183005 -0.99127233 -4.339969e-05 1.8507433e-06
0.066525117 0.14635296 -0.38684827 -0.17565317 -0.98444945 -0.0023116055 0.0012976467
0.071326859 0.14572081 -0.38837579 -0.20706989 -0.97831929 -0.0036781256 0.0022168085
0.088872999 0.14023842 -0.3805486 -0.3331759 -0.94279593 0.01138648 0.0012892677
-0.03354105 0.15069537 -0.38612419 0.1305313 -0.99144417 9.5262221e-05 0
-0.020919342 0.15235704 -0.38376462 0.1232395 -0.99237692 0.0002545137 0.00018167004
-0.0050039855 0.15445232 -0.38441175 0.023486316 -0.99971175 0.0049876953 0.0018865139
0.0056631654 0.15436554 -0.38360503 -0.029432269 -0.99956381 -0.0024225269 0.0017575214
0.015281315 0.15309928 -0.38551378 -0.099956922 -0.99498767 0.0028510313 0.00055550947
0.024194399 0.15192588 -0.38868958 -0.11819948 -0.9929896 -0.00072308903 0.00016455459
-0.032823235 -0.44056767 -0.37229657 0.13055648 0.99144083 -0.00023776214 0.00017287029
