# .PCD v0.7 - Point Cloud Data file format
VERSION 0.7
FIELDS x y z normal_x normal_y normal_z curvature
SIZE 4 4 4 4 4 4 4
TYPE F F F F F F F
COUNT 1 1 1 1 1 1 1
WIDTH 577
HEIGHT 1
VIEWPOINT 0 0 0 1 0 0 0
POINTS 577
DATA ascii
0.0089444779 -0.49882242 -0.34158427 -0.064921886 0.99778879 0.014236981 0.0017038439
0.019907707 -0.49737909 -0.34539464 -0.11141761 0.99364638 0.015903858 0.00083278841
0.025221994 -0.49667946 -0.34510961 -0.12945001 0.9915033 0.012804106 0.00053329859
0.037207663 -0.49510148 -0.34867239 -0.13412683 0.9895854 0.052255269 0.0047807312
0.056790084 -0.49252343 -0.34838316 -0.11647341 0.98476624 0.12911032 0.016281473
0.068139307 -0.49102926 -0.34146449 -0.13602722 0.99070507 -0.00042020323 0.0001955996
-0.10337324 -0.48278704 -0.34427547 0.33863196 0.94082171 0.013528252 0.00084966357
-0.097634412 -0.48516414 -0.34190273 0.29602256 0.95503247 0.016842945 0.0014208123
-0.08698418 -0.48854828 -0.34728658 0.24655077 0.96910918 0.0063350261 0.0025012544
0.084598288 -0.4888624 -0.34541529 -0.21082944 0.97751236 -0.0045248852 0.0014923404
0.093572363 -0.48684669 -0.34490782 -0.28374252 0.95889395 -0.0035447965 0.0021049075
0.10284291 -0.48300669 -0.34888661 -0.33741757 0.94092703 0.028385296 0.0044712736
-0.12710561 -0.47295678 -0.34658629 0.38139069 0.92395252 0.029203689 0.0038739969
-0.11706788 -0.47711453 -0.34491321 0.38278145 0.92383891 0.00011764552 7.1379312e-05
0.12379707 -0.47432721 -0.34502906 -0.38727203 0.9217627 0.019338958 0.00080643006
-0.15703258 -0.46056062 -0.34094256 0.39195293 0.91997927 0.003330335 0.00016940461
-0.13788724 -0.46849084 -0.34732139 0.38272741 0.92386132 0.00014705224 0
0.13802335 -0.46843451 -0.3450827 -0.38272232 0.92386341 1.8986429e-05 0
-0.17567472 -0.45262325 -0.34011891 0.50282925 0.86434221 -0.0086778114 0.0022224064
-0.16320561 -0.45800367 -0.34458444 0.43413383 0.90084606 0.0020355307 0.0013910934
-0.18381089 -0.44638014 -0.34446338 0.55886191 0.82923633 0.0063566328 0.0017099109
-0.062576972 -0.44156918 -0.34507099 0.22596803 0.9741348 2.8029353e-05 0
-0.056341462 -0.44301531 -0.34024957 0.2137102 0.97689688 0.00062224519 0.00018846996
-0.032032177 -0.44759002 -0.34461728 0.056370724 0.9984051 0.0030962094 0.002612334
-0.026072325 -0.44738787 -0.34625077 0.0096398583 0.99994624 -0.0038228643 0.00058658223
-0.01393847 -0.4469763 -0.34277427 -0.023088701 0.99973339 -0.00033416864 9.0846952e-06
-0.0033260297 -0.44661629 -0.34354958 -0.034254324 0.99941194 0.0015735696 0
0.0039069224 -0.44637099 -0.34698877 -0.019104484 0.99843055 -0.052644745 0.006493933
0.032710005 -0.44539398 -0.34211525 -0.10417935 0.99449611 0.011145264 0.0014331279
0.04409153 -0.44448826 -0.34213898 -0.17363045 0.98475552 0.010449227 0.0023017973
0.051996998 -0.44223288 -0.34600297 -0.24047592 0.97051573 -0.016447172 0.0025683921
0.17982264 -0.44944042 -0.34733647 -0.54010558 0.84026206 0.047389306 0.0086497441
0.18897747 -0.44241571 -0.34203264 -0.60766476 0.79419357 -0.00020270167 7.6496661e-05
-0.20323476 -0.4314757 -0.34110099 0.60894465 0.79321277 -5.6333785e-05 0
-0.19773005 -0.43569961 -0.34473386 0.60780007 0.79362923 0.027051479 0.0015565442
-0.10417506 -0.43192172 -0.34866115 0.27231753 0.96098429 -0.04850078 0.023742164
-0.094364032 -0.43419707 -0.34452599 0.24441196 0.96965736 0.005234431 0.00032138312
-0.085037895 -0.43636 -0.34689295 0.23228063 0.97228825 -0.026479751 0.0059737139
0.059367169 -0.43998766 -0.34009784 -0.25680292 0.96637452 0.013138136 0.0007927785
0.063010484 -0.43887773 -0.34413648 -0.29047394 0.95688289 0.00028851849 7.0382695e-05
0.080436729 -0.43356904 -0.34997493 -0.2777068 0.95853347 -0.063971691 0.035575591
0.2025094 -0.4320322 -0.34344798 -0.60877025 0.79334658 -4.8795384e-05 0
-0.12498568 -0.42342865 -0.34542662 0.42846677 0.90355396 -0.0025356305 0.001275533
0.096906252 -0.42855179 -0.34612343 -0.30221927 0.95323491 0.0025861706 0.00015596398
0.10525946 -0.42600712 -0.34650823 -0.32967928 0.94274437 0.050445355 0.0047521382
0.12121393 -0.42016339 -0.3464767 -0.43197665 0.90188122 0.0025464583 0.0053471774
-0.23033832 -0.41067839 -0.34950244 0.58831155 0.79327154 0.1568751 0.032394547
0.12822323 -0.41579321 -0.34705529 -0.48122573 0.87659216 0.0028253887 0.0091137737
0.22514807 -0.41466099 -0.34715232 -0.61244786 0.78823054 0.060001325 0.0037936249
-0.24024196 -0.403079 -0.34994045 0.63600785 0.76674098 0.087191336 0.016673544
-0.16111095 -0.40417418 -0.34115648 0.48298603 0.87562233 0.003148586 0.00011507712
-0.15417117 -0.40787303 -0.34486994 0.47033125 0.88248998 -0.00011913816 3.5293197e-05
0.1389365 -0.40911371 -0.34411684 -0.52913201 0.84853959 6.155514e-05 6.4386761e-05
0.14377151 -0.40609914 -0.34279904 -0.52912176 0.84854591 -3.0459756e-05 0
0.23715419 -0.40544838 -0.34907651 -0.62672204 0.77540833 0.077210248 0.008544636
-0.25225079 -0.39136037 -0.34258321 0.74372584 0.66848338 -0.0014047419 0.0020231695
-0.18300174 -0.39207649 -0.34435138 0.58595991 0.8101936 -0.015404215 0.0023884682
-0.17680985 -0.39580679 -0.34284562 0.54510158 0.83824044 0.01473532 0.001848263
0.16742633 -0.39135087 -0.34376228 -0.53511739 0.84477633 -0.0015269602 0.00015139037
-0.1936726 -0.38227767 -0.3474896 0.6480636 0.76134163 -0.019298486 0.012101866
-0.18625331 -0.38921019 -0.34299627 0.60090774 0.79916883 -0.015459098 0.0024603873
0.26013136 -0.38109016 -0.34006935 -0.78483284 0.61970729 0.00068461389 8.4883621e-05
-0.20112278 -0.37531635 -0.34178683 0.68230647 0.73106629 -2.7852038e-06 2.3756062e-05
-0.19638428 -0.37974393 -0.34808868 0.66570812 0.74587768 0.022340195 0.026457407
0.18821117 -0.37696147 -0.34189564 -0.67014444 0.74210876 0.013451309 0.0023631589
0.26382288 -0.37627932 -0.34999096 -0.77840322 0.59817177 0.19047059 0.035489082
-0.2757158 -0.36078015 -0.34136599 0.79339319 0.60870951 3.9056311e-05 2.899392e-05
-0.21050788 -0.36654699 -0.34621301 0.67937464 0.73337042 -0.024859449 0.00092728506
0.19906384 -0.36534673 -0.34860167 -0.72182268 0.69037151 0.048570864 0.0042721825
0.20781088 -0.35598543 -0.34572527 -0.72859341 0.68488634 0.0090756435 0.0012892019
0.27888456 -0.35665059 -0.34490681 -0.7933929 0.60870987 -1.7932616e-05 7.282134e-06
0.28188562 -0.35273951 -0.34222537 -0.79328543 0.60885 -3.443614e-05 1.4200418e-05
-0.23458721 -0.34404764 -0.3425926 0.74301833 0.6690343 0.017798001 0.0017306227
0.21841994 -0.34463143 -0.34481263 -0.73096615 0.6824137 -0.00030028852 7.5323085e-05
-0.29450086 -0.33629897 -0.34563699 0.80312717 0.59536827 0.02287898 0.0014037038
-0.24390543 -0.33268955 -0.34536487 0.79649872 0.60390544 0.029798517 0.0017032193
0.22358428 -0.33910441 -0.34262735 -0.73353046 0.67965603 -0.00086546846 6.8280111e-05
0.23206222 -0.33003116 -0.34956837 -0.78184366 0.62339753 0.009797235 0.00189054
0.29461223 -0.33615386 -0.34894991 -0.81567836 0.57652801 0.047792993 0.0074534388
-0.30424774 -0.32245496 -0.34110376 0.87355983 0.48656932 -0.01197812 0.0020209216
-0.248226 -0.32575977 -0.34692249 0.8361848 0.54617369 -0.049894199 0.0035668742
0.23879971 -0.32282057 -0.34201044 -0.80523443 0.59294081 0.0043263114 0.0025245631
0.30278754 -0.32499462 -0.34746051 -0.8546325 0.5190677 0.013118389 0.0019973661
-0.25344557 -0.31738812 -0.34021842 0.84855276 0.52911079 5.9517017e-05 0
0.24297751 -0.31499651 -0.34530586 -0.84594095 0.53315192 -0.011528197 0.0022780953
0.30763346 -0.3142812 -0.34853739 -0.90507281 0.42289317 0.044773985 0.0036751935
-0.31086868 -0.30647075 -0.34095657 0.92207509 0.38701108 -0.0001096654 8.0794314e-05
-0.26050845 -0.30605996 -0.34218836 0.84854174 0.52912837 -9.3315786e-05 0
-0.25903043 -0.30843055 -0.34714955 0.85496283 0.51593012 0.053429671 0.0080518499
0.24634182 -0.30868435 -0.34329379 -0.85986036 0.51052058 0.0029961774 0.00099352794
-0.3174789 -0.29051226 -0.34886351 0.9244588 0.37750104 0.053561699 0.0043548327
-0.26500252 -0.29885188 -0.34983066 0.82455027 0.56538218 -0.02144577 0.032055791
-0.31900764 -0.28682151 -0.34577018 0.92449772 0.38112167 0.0070851906 0.00013166119
0.25653401 -0.28956181 -0.34331924 -0.88247514 0.47035903 -5.3131007e-06 8.5715646e-07
-0.32503018 -0.27228189 -0.34672427 0.9238252 0.38264114 0.011518062 0.00019088693
-0.27952942 -0.27555218 -0.34692737 0.90330619 0.42800078 -0.02921091 0.0096829422
0.26506346 -0.27355888 -0.34761921 -0.88333589 0.46873754 0.0016564792 0.012751611
0.32222897 -0.27904451 -0.34270173 -0.92384779 0.38275999 3.8662543e-05 0
-0.32732049 -0.26675248 -0.34168988 0.92389387 0.38264871 5.8736485e-05 0
-0.28330079 -0.26672113 -0.34047559 0.93981439 0.34166342 0.0038823271 0.0012693106
0.2680676 -0.26792249 -0.34318501 -0.89320213 0.44965529 0.00038247506 0.00033496312
0.32778752 -0.265625 -0.3457669 -0.92384219 0.38277361 3.1262782e-05 1.6415766e-05
-0.33156723 -0.25649998 -0.34250903 0.93248057 0.36121947 0.00072503946 0.00047394846
-0.2867496 -0.25539994 -0.34612465 0.95230728 0.30502379 0.0084484126 0.0001337557
0.33155203 -0.25653666 -0.34390017 -0.93650872 0.35060775 -0.005063951 0.00098560448
-0.33695117 -0.24350198 -0.34992638 0.96051109 0.25907114 0.10149235 0.015771691
-0.29067093 -0.2425279 -0.34447548 0.9565745 0.29148787 6.1670653e-05 0
-0.28925312 -0.24718207 -0.34827188 0.95174253 0.30688334 -0.0029629213 0.02091288
0.27666983 -0.24987821 -0.3444646 -0.94224966 0.33486077 -0.005818008 0.0022563839
0.33697924 -0.24343416 -0.34497678 -0.94840938 0.3170374 0.0026431752 0.0018144994
-0.33865041 -0.23705633 -0.3491292 0.96575528 0.24198605 0.093592674 0.014196899
-0.29403481 -0.23148569 -0.34842116 0.94651341 0.32226178 0.016115241 0.032967042
0.33897614 -0.23458235 -0.3448377 -0.97898799 0.20359835 -0.011414284 0.0023277435
0.28315264 -0.22192571 -0.34321281 -0.97414809 0.22591029 0.00011147026 0
0.33975428 -0.22867185 -0.34504926 -0.9826895 0.18525945 0.00056546793 0.0017513261
-0.34156331 -0.21493061 -0.34370801 0.99078965 0.13538668 0.002503938 1.3634606e-05
0.28456336 -0.21584302 -0.34878707 -0.97862369 0.2046721 -0.020126238 0.015598614
0.3417798 -0.21328665 -0.34790969 -0.98830777 0.12091835 0.09287855 0.013442622
-0.34289232 -0.2048361 -0.34364507 0.99144244 0.13054414 -9.8588689e-06 0
-0.30093557 -0.2088334 -0.34080932 0.97119695 0.23827167 0.0017676033 0.0010730561
0.34257913 -0.20721497 -0.34535241 -0.99144417 0.13053149 -0.00011008431 0
-0.34474427 -0.19076906 -0.34961304 0.98811352 0.13298525 0.077114068 0.0068762382
-0.30449381 -0.19715302 -0.34432876 0.98964643 0.14337695 0.006563128 0.0023948876
0.28899845 -0.19671972 -0.34654933 -0.97452998 0.22418894 -0.0055485046 0.00042407378
-0.3456009 -0.18426234 -0.34514663 0.99144292 0.13054103 4.3526807e-06 1.0278078e-05
-0.30500144 -0.18525554 -0.34013948 0.99655282 0.081998751 0.012593559 0.0011814425
0.29211903 -0.18326448 -0.34711385 -0.98965853 0.1386842 -0.036643125 0.0046902839
0.34542346 -0.18561028 -0.34367749 -0.99144626 0.13051537 4.109458e-05 0
-0.34648886 -0.17751746 -0.34298769 0.9914422 0.13054642 -7.7049561e-05 4.1668754e-05
-0.30536082 -0.17465985 -0.34625715 0.99953479 0.019731838 -0.02325662 0.0030842186
0.2930688 -0.17916918 -0.34296796 -0.9934833 0.11366709 0.008403114 0.002539376
0.34697866 -0.17379713 -0.34465718 -0.99154198 0.12978567 0.0003916898 7.1429081e-06
-0.34854972 -0.16186385 -0.3457059 0.99720961 0.066842884 0.033241581 0.0030303372
-0.3058266 -0.16092794 -0.34141767 0.99942476 0.033914 0.00018015457 0
0.293302 -0.16492485 -0.34528914 -0.99999505 0.0015124989 -0.0027529621 0.00077368302
0.3482998 -0.16376224 -0.34179023 -0.99581712 0.088930525 0.020968551 0.0011337994
-0.34980792 -0.15230682 -0.34879848 0.99940175 0.0086434996 0.03348735 0.0031206468
-0.30590561 -0.15859877 -0.34599274 0.99922842 0.036038708 0.015615815 0.00042028111
0.29286921 -0.15216567 -0.34836975 -0.99809265 -0.025527811 -0.056208972 0.016348617
0.3495599 -0.15419075 -0.34376466 -0.99968022 0.008855097 0.023684915 0.0021012984
0.29261702 -0.14473085 -0.34668785 -0.99933153 -0.032859661 -0.016018953 0.00029514331
-0.34778273 -0.13205314 -0.34261277 0.99482405 -0.10151658 0.0044154366 0.00077155535
0.34829715 -0.13596065 -0.34715989 -0.99478787 -0.099114604 0.023945248 0.0022026214
-0.34629881 -0.1207817 -0.34926051 0.98565066 -0.14481315 0.086729579 0.010967338
0.29202485 -0.12727295 -0.34593138 -0.99916947 -0.036075141 0.018948974 0.0015031319
0.34746677 -0.12965307 -0.34614161 -0.99272996 -0.11784106 0.024509273 0.0019767697
0.2917237 -0.11839411 -0.34941918 -0.99949706 -0.028866012 0.013128297 0.020632042
0.29133677 -0.10698663 -0.34963793 -0.99213558 -0.11643898 -0.045921881 0.022145517
0.28889567 -0.09072639 -0.3488864 -0.97027487 -0.23442766 0.060087007 0.017524641
0.29077059 -0.09688089 -0.34838465 -0.97719324 -0.21139547 -0.02013257 0.020156384
0.34283513 -0.094472483 -0.3430312 -0.99144804 -0.13050207 7.9624369e-06 0
-0.3413763 -0.083391771 -0.34706414 0.99100918 -0.13369985 0.0050060363 4.2041112e-05
-0.29956204 -0.084710427 -0.34868109 0.97976661 -0.20006548 0.0055871634 0.0035964681
-0.34060138 -0.07750544 -0.34827974 0.98934007 -0.14547201 -0.0066430457 0.00050087948
-0.3396433 -0.070228241 -0.34816545 0.98224378 -0.18753888 0.0051407418 0.0018021089
-0.2975491 -0.076031044 -0.34599239 0.97333139 -0.22894162 -0.014550705 0.00069035811
0.2832557 -0.072212622 -0.34262139 -0.95659173 -0.2914314 0.00011080653 0
0.34092319 -0.079949886 -0.34362203 -0.991382 -0.13100299 -5.253225e-05 1.8889003e-05
-0.33873597 -0.06333632 -0.3446947 0.97464746 -0.22371885 -0.0035094197 0.0018285756
-0.29511619 -0.065540835 -0.34574884 0.97391218 -0.22692537 -7.8884637e-05 0
0.28132227 -0.065865993 -0.34587666 -0.9555155 -0.29380921 -0.025810523 0.0041435757
0.33947882 -0.068978697 -0.34482104 -0.98059046 -0.19604723 0.0028117327 0.0014243184
0.27855223 -0.056773059 -0.34192273 -0.95658273 -0.2914609 -8.632565e-05 0
0.33476311 -0.050958488 -0.34988776 -0.93320781 -0.31061065 0.18067694 0.025951242
-0.33143777 -0.042930432 -0.34982917 0.92425978 -0.37217683 0.085018791 0.014123674
0.27448148 -0.043410461 -0.34481084 -0.95659685 -0.29141444 1.3654981e-05 0
0.33213517 -0.044614151 -0.34521127 -0.93211353 -0.36216536 -0.00077085185 0.00053811481
-0.28570572 -0.034149364 -0.34417784 0.90772396 -0.41954494 0.0043883836 0.0013508863
0.32852697 -0.035903178 -0.34278435 -0.92388314 -0.38267493 0.00013343517 0
-0.32399768 -0.024968402 -0.34282029 0.92386365 -0.38272193 -4.7355217e-05 3.6118392e-05
-0.28141087 -0.026091464 -0.34135526 0.88974547 -0.4564451 -0.0033157687 0.00031732701
-0.27968502 -0.022853455 -0.34929731 0.89302385 -0.4496755 0.017332893 0.044266775
0.32437199 -0.025872096 -0.34459034 -0.92388254 -0.38267633 -2.9721456e-05 0
-0.3207241 -0.017065328 -0.34834591 0.92408359 -0.37341678 0.081420742 0.01253245
-0.31854883 -0.011813749 -0.34293163 0.92388201 -0.38267756 -4.2412423e-05 0
0.26149112 -0.011786327 -0.3437615 -0.87729222 -0.47988719 -0.0081651472 0.0017056164
-0.27245072 -0.009280418 -0.34611902 0.88239729 -0.47046477 0.0061510089 7.4892749e-05
0.25599542 -0.0029717684 -0.34560975 -0.84997088 -0.52646893 -0.01949225 0.00045999311
0.26023203 -0.0097668357 -0.34263825 -0.85525018 -0.51816034 -0.0075556245 0.00015935869
-0.31323346 0.0010187123 -0.34795558 0.91843104 -0.37975037 0.110788 0.012394438
-0.26464069 0.0053727156 -0.34387794 0.88006097 -0.47486064 0.00028385047 0.0001005275
0.25241476 0.0027712188 -0.34487581 -0.84857035 -0.52908254 -5.6807861e-05 0
-0.25775886 0.01828439 -0.34835282 0.83816338 -0.54217958 -0.059358034 0.013113834
0.24392541 0.016387343 -0.34286621 -0.84857529 -0.52907479 2.9541839e-05 0
0.30745459 0.014970139 -0.34243569 -0.90448451 -0.42648622 0.0041540656 0.0010503959
-0.30345023 0.024085518 -0.34351683 0.87622172 -0.48164609 0.015888132 0.0019850789
-0.25460547 0.024200782 -0.34589577 0.82405072 -0.56646222 -0.0078036827 0.0026778721
0.23650344 0.028291423 -0.34857473 -0.84475815 -0.53395647 -0.035694696 0.018608175
0.3031126 0.024526516 -0.34516114 -0.8727473 -0.48813227 -0.0062475111 0.0014754812
-0.29769838 0.032389004 -0.3451325 0.82248455 -0.56871629 0.0089901108 0.0012886327
-0.25004783 0.030850863 -0.34598213 0.79276299 -0.60951596 -0.004145721 0.0037673977
-0.24151525 0.039982606 -0.34132731 0.74734813 -0.66435462 0.010177198 0.00061702315
0.23398232 0.032335058 -0.34809172 -0.86670011 -0.49747798 -0.036695588 0.019393334
0.29660001 0.033820424 -0.34558856 -0.8193531 -0.57328564 0.0020116526 0.00074960658
-0.23553523 0.046382554 -0.34353596 0.7361868 -0.6767751 0.0021023261 0.0001126335
-0.27968499 0.055864498 -0.34725922 0.79658526 -0.59960049 0.077014819 0.007542802
-0.23112313 0.051104486 -0.34292015 0.73066723 -0.68273383 6.1170067e-05 0
-0.22414163 0.058576252 -0.34372389 0.73067164 -0.68272907 -4.699178e-05 0
0.21431476 0.055817775 -0.34797835 -0.66206473 -0.74854904 0.036669925 0.0328288
0.27986503 0.055629894 -0.34291762 -0.79334533 -0.60877192 -4.0873481e-05 1.4080037e-05
-0.27316374 0.064363159 -0.34180835 0.79335546 -0.60875863 3.9478591e-06 0
-0.21646011 0.066797152 -0.34634304 0.72424757 -0.68936414 -0.015577136 0.0020505546
0.20171419 0.067591578 -0.3446891 -0.68272501 -0.7306754 4.1769319e-05 2.0842278e-06
0.27520376 0.061704539 -0.34257782 -0.79332912 -0.60879296 -2.5864492e-05 2.4485716e-05
-0.20769584 0.076176859 -0.34734479 0.70647943 -0.7071656 0.028346803 0.014174975
0.18946932 0.079033002 -0.34988785 -0.69839329 -0.71066618 0.084856339 0.013438379
0.19249095 0.076209657 -0.34252778 -0.68275231 -0.73065001 -1.6500857e-05 0
0.26486406 0.075179487 -0.34241763 -0.79334855 -0.60876769 6.4248146e-05 0
-0.26103866 0.08016485 -0.34677428 0.78987205 -0.61289161 0.021590114 0.0017490445
-0.25628462 0.086360455 -0.34383518 0.76395184 -0.64517736 -0.011119131 0.0013079452
-0.20296271 0.081242368 -0.34584963 0.67888898 -0.73174316 -0.060511582 0.0048804427
-0.19730145 0.086720884 -0.34534132 0.62364292 -0.78144097 0.020480463 0.0029519496
0.18466055 0.083526269 -0.34414601 -0.67413151 -0.73847014 -0.014439204 0.0010187587
-0.24535847 0.099410117 -0.34380925 0.69939065 -0.71454763 -0.016562445 0.0022401104
-0.17777848 0.098894097 -0.34828427 0.53640461 -0.84190249 0.058908407 0.007469207
0.1696756 0.097527996 -0.34297547 -0.59957546 -0.80027407 -0.0084077045 0.0028798271
0.25077021 0.093546964 -0.34324235 -0.73777258 -0.67477781 0.019144837 0.0018708621
-0.23611978 0.10649922 -0.34585428 0.64283556 -0.76599365 -0.0040231082 0.0014555133
0.14923429 0.10878672 -0.34546524 -0.48629814 -0.87307441 -0.035429932 0.0015862538
0.24211942 0.10189553 -0.34790227 -0.6837067 -0.72610021 0.072963156 0.0076289806
-0.23108859 0.11035978 -0.34961414 0.6101923 -0.78536528 0.10424298 0.017928552
-0.21986771 0.11896988 -0.34845659 0.62367064 -0.77631897 0.091453582 0.0099818418
-0.15174808 0.11512354 -0.34460965 0.52149564 -0.85325211 0.0017403257 0.00011630326
0.12833893 0.11992379 -0.34351668 -0.47034055 -0.88248497 -8.2553952e-06 0
0.14150225 0.11290783 -0.3438563 -0.46924967 -0.8829031 -0.016941054 0.00087420922
0.22997576 0.11121368 -0.34852079 -0.61174989 -0.78875619 0.060213853 0.0072092786
-0.12762699 0.12885797 -0.34469518 0.39551604 -0.91842824 0.0075274114 0.0020536869
0.118066 0.12539919 -0.34391385 -0.4662554 -0.88465017 -0.00010520112 5.1058516e-05
0.12167966 0.12347314 -0.34177274 -0.46598762 -0.88479078 0.00087900891 5.2671141e-05
0.21436134 0.12319507 -0.34667718 -0.60321069 -0.79525554 0.060873192 0.0082255239
-0.19896701 0.13500753 -0.34559467 0.6088829 -0.79323745 0.0060096183 5.762111e-05
-0.12263448 0.13037887 -0.34088758 0.35532647 -0.93467462 0.011246691 0.0021159118
-0.11667511 0.13219431 -0.34523311 0.3285009 -0.94449371 0.0043340316 0.0011651872
-0.096478142 0.13834707 -0.34500575 0.29142082 -0.95659488 4.806272e-05 0
0.097017206 0.13588053 -0.34486493 -0.35835877 -0.9335838 0.00055485859 0.0020890965
0.10726328 0.13115697 -0.34347928 -0.40700203 -0.91333443 0.013022866 0.0015031651
-0.18300191 0.14725801 -0.34440473 0.56195843 -0.82715166 0.0047750771 0.00087605312
-0.070362233 0.14630298 -0.34380698 0.24485065 -0.9695608 0.00021260345 0.0017204337
0.038300816 0.14957294 -0.34946927 -0.23434195 -0.97140235 0.03822843 0.041622594
0.047623381 0.14741084 -0.34678507 -0.22546217 -0.97406363 -0.019154383 0.011775432
0.06444557 0.1435094 -0.34390759 -0.22593726 -0.97414184 -5.7313904e-05 1.1640074e-05
0.18586269 0.14506285 -0.34621161 -0.59433043 -0.80403054 0.01750087 0.0019041015
-0.17850152 0.15071127 -0.34684384 0.55298096 -0.83255661 0.032581657 0.0026541532
-0.16743957 0.15650702 -0.34195212 0.44755408 -0.8942216 0.007943226 0.0018175279
-0.041272674 0.15108961 -0.34359315 0.075990722 -0.99708134 -0.0073626977 0.0011768589
-0.03762345 0.15121339 -0.34320247 0.045090109 -0.99897754 -0.0032606118 0.00029493688
-0.015344628 0.15196908 -0.34276819 0.033899277 -0.99942529 -3.0565137e-05 1.0092879e-05
-0.000736563 0.15246457 -0.34535968 0.032195281 -0.99944687 -0.0083338702 0.00020106307
0.00012643449 0.15249385 -0.34882176 0.037010092 -0.99873561 0.034019168 0.0080952989
0.018693026 0.15312363 -0.34422833 -0.077668458 -0.99696428 -0.0054576653 0.0022012407
0.032816995 0.15084475 -0.34927377 -0.18421519 -0.98216951 -0.037520349 0.054707732
0.17327006 0.15409194 -0.34705487 -0.45620915 -0.88940883 0.028727332 0.0034721843
-0.15121737 0.16322646 -0.34217006 0.38368917 -0.92346227 -7.3219169e-05 0
0.13555495 0.16971405 -0.34658968 -0.38271305 -0.92384601 0.006271604 0.00011139669
-0.12809841 0.17280263 -0.34678009 0.38116214 -0.9236052 0.040851824 0.0036527589
-0.11638805 0.17765322 -0.34482938 0.38267547 -0.92388284 1.9335679e-05 1.3120379e-05
0.13248529 0.17098553 -0.341793 -0.38269851 -0.92387331 2.8183215e-06 0
-0.10558295 0.18212883 -0.34618223 0.35430354 -0.93479806 0.024932195 0.0030552938
-0.093691006 0.18705463 -0.34308153 0.28179255 -0.95910537 -0.026644725 0.0017351925
-0.088554367 0.18859865 -0.34794977 0.2554127 -0.96677923 0.010111053 0.0050860946
-0.079436354 0.18979906 -0.34222367 0.18247855 -0.98320985 -4.3462554e-05 0.0012619637
0.096397907 0.1859334 -0.34841546 -0.28949359 -0.95274013 0.092085391 0.0121542
-0.076240614 0.1902198 -0.34418291 0.1559651 -0.98776042 0.0020562196 0.00047567915
-0.0643076 0.19179082 -0.34579992 0.13502708 -0.99084187 0.00021384223 4.1243671e-05
-0.054814 0.19304067 -0.34481236 0.13051128 -0.99144679 -6.540586e-05 1.1270537e-06
-0.045845274 0.19422142 -0.34391263 0.13051826 -0.9914459 -7.3852614e-05 0
-0.031224702 0.19614625 -0.34371904 0.13194397 -0.99120039 0.010606622 0.00040232483
-0.01111092 0.19879431 -0.34504288 0.072390467 -0.99734229 0.0082497792 0.001192058
-0.0088928733 0.19908631 -0.34358883 0.072622739 -0.99729776 0.011093518 0.0011171532
0.013389876 0.19849429 -0.34562927 -0.091826893 -0.99572289 0.010182579 0.001020906
0.05039062 0.19362304 -0.34737068 -0.12200513 -0.99212945 0.028176675 0.0022494923
0.068688028 0.1912141 -0.34517321 -0.14822486 -0.98893112 0.0066767447 0.00021785978
0.076442398 0.19019324 -0.34464014 -0.17299049 -0.98492306 0.00092276518 0.00069385872
-0.0001928588 0.2002317 -0.34806421 -4.8209331e-05 -0.99955237 0.029919963 0.0025106494
-0.065793768 -0.49133807 -0.33584213 0.13053167 0.99144405 0.00019321353 0
-0.04072902 -0.49463791 -0.33583248 0.13052911 0.99144453 -0.00011021753 2.264553e-05
-0.023963304 -0.49684516 -0.33420444 0.12258244 0.99245763 -0.0012019366 0.00020584432
-0.01404902 -0.49815041 -0.33509362 0.090557531 0.9958809 -0.0045319069 0.0011453055
-0.00031687593 -0.49995828 -0.33952293 0.0036089867 0.99999207 0.0016898072 0.0026209124
0.0057328767 -0.49924526 -0.3337903 -0.031019274 0.99950981 0.0042367396 0.0024351776
0.01867572 -0.49754125 -0.33168378 -0.11842741 0.9929626 -0.00052175228 0.00027697691
0.024945421 -0.49671587 -0.33898205 -0.1299987 0.99151415 -1.5324524e-05 2.3313394e-05
0.034561537 -0.49544987 -0.33230036 -0.13054672 0.99144214 6.0998489e-05 0
0.044620629 -0.49412557 -0.33023369 -0.13054106 0.99144286 -2.7748216e-05 0
0.063401632 -0.491653 -0.33642745 -0.13053755 0.9914434 -7.547906e-05 5.4524022e-05
-0.10976761 -0.48013839 -0.33936799 0.36773893 0.92992824 -0.0012341765 0.00018608403
-0.097209595 -0.48534009 -0.33753031 0.3030777 0.95294183 0.0067703133 0.0016346993
-0.080045447 -0.48946178 -0.33248445 0.19694869 0.98041373 -0.00020867254 0.0013977982
0.078083873 -0.48972005 -0.33861172 -0.20012069 0.97977126 9.2992697e-05 0.0012206243
0.084542893 -0.4888697 -0.33205453 -0.22668739 0.9739635 -0.0028362628 0.0014798781
0.097039893 -0.48541039 -0.33506247 -0.32815036 0.94462061 -0.0030260086 0.0010750539
0.10256471 -0.48312193 -0.33668721 -0.3444548 0.93880284 -0.00036210334 0.00077525451
-0.13254881 -0.47070214 -0.33447352 0.38266847 0.9238857 5.7662255e-05 0
-0.12951717 -0.47195786 -0.33292192 0.38257653 0.92392379 -4.6899939e-05 8.2314036e-06
-0.11277908 -0.47889099 -0.33722648 0.3777903 0.92588955 0.0017393827 0.00011925928
0.11326201 -0.47869098 -0.33391678 -0.38265973 0.92388934 1.8289018e-05 0
0.12542513 -0.4736529 -0.33239195 -0.38267457 0.9238832 2.5952728e-05 6.9303869e-06
0.13307163 -0.47048557 -0.3384656 -0.38276681 0.92384499 0.00017557229 0
0.13924745 -0.46792746 -0.33550644 -0.38268742 0.92387778 -0.00019490317 5.82541e-05
0.14348635 -0.46617168 -0.33849257 -0.38268885 0.9238773 1.8464983e-05 5.1029172e-05
0.15259831 -0.46239734 -0.33792341 -0.38474649 0.92302215 0.0005666333 7.3047151e-05
-0.16527531 -0.45714638 -0.33343166 0.43684661 0.89947373 -0.010584794 0.00089132477
-0.15999219 -0.4593347 -0.33208469 0.42279443 0.90622455 0.0013528591 0.0011056758
0.16341197 -0.45791823 -0.33215296 -0.42544949 0.90494221 0.0085034668 0.00079490081
0.17513412 -0.45281971 -0.33488917 -0.50935113 0.86053616 -0.0062418575 0.0020275465
-0.1909859 -0.44087452 -0.33310375 0.60721624 0.79453641 -0.00052090746 0
-0.18467678 -0.44571573 -0.33137485 0.549766 0.83529502 0.0062850961 0.0017801151
-0.065499589 -0.44089136 -0.33433425 0.22595811 0.97413701 6.1170125e-05 1.9976824e-05
-0.044508435 -0.44575965 -0.33464962 0.15245058 0.98801154 -0.024333524 0.0010435353
-0.01298745 -0.446944 -0.33356923 -0.025295157 0.99967998 -5.5935543e-05 0
-0.0086891996 -0.44679821 -0.33684504 -0.03391289 0.99942476 0.00011230618 0
0.016216708 -0.44595343 -0.33581838 -0.039167698 0.99923199 0.0011245681 9.4671823e-06
0.024134377 -0.44568485 -0.33579281 -0.055310115 0.99842614 0.0092763323 0.00041756238
0.044748761 -0.44444096 -0.33240426 -0.16804595 0.98572105 0.010706311 0.0022590822
0.055665221 -0.44111538 -0.33386475 -0.25525221 0.96687102 -0.0026095004 0.00095358974
0.18330608 -0.44676748 -0.33596253 -0.54958802 0.83541107 -0.0064242724 0.0017338884
-0.20116793 -0.43306163 -0.33520231 0.60881221 0.7933144 -0.00017875123 5.3154305e-05
-0.10442136 -0.43186456 -0.33022782 0.29055503 0.956855 0.0025112014 0.0012200315
-0.098489083 -0.43324035 -0.33785984 0.28032017 0.95990652 4.2924894e-05 0.0012013478
0.06549906 -0.43811965 -0.33668923 -0.29072076 0.95680797 0.0001193881 9.3342125e-05
0.083428696 -0.4326576 -0.33219358 -0.29141578 0.95659649 -3.0751587e-05 4.4336198e-06
0.090584606 -0.43047762 -0.33350933 -0.29144859 0.95658654 -2.2791171e-05 8.5909887e-05
0.19470102 -0.43802384 -0.33338791 -0.60790116 0.79401267 0.00017903143 0
-0.21488656 -0.42253494 -0.3351469 0.60876232 0.79335266 -4.3971511e-05 0
-0.20738162 -0.42829368 -0.33811846 0.60888064 0.79326183 -0.00015192403 0
-0.11488202 -0.42881387 -0.33862165 0.33423576 0.94245529 0.0080343094 0.0013558969
0.2101053 -0.42620373 -0.33524814 -0.60880584 0.79331934 1.806531e-06 2.0783584e-06
-0.22385448 -0.41565359 -0.33531827 0.60873741 0.7933718 9.7896782e-06 0
-0.14468686 -0.4129281 -0.33651185 0.47041416 0.88244575 0.00014394849 0
0.13717437 -0.41021237 -0.33914509 -0.5290879 0.84856707 -0.00011540683 6.3294225e-05
-0.16479784 -0.4022091 -0.33606169 0.48304027 0.87557662 0.0061431965 0.00017724483
-0.15734017 -0.40618399 -0.33531207 0.47038001 0.88246393 -3.9992443e-05 5.7755758e-05
0.15131558 -0.40139562 -0.33284092 -0.52902257 0.84860778 0.00011002013 0
0.23981422 -0.40340728 -0.33588341 -0.64553857 0.76368308 -0.008246976 0.0010286956
-0.18441707 -0.39092594 -0.33374211 0.58955562 0.80772233 -0.0029591143 0.0021084887
-0.17718385 -0.39560747 -0.33829209 0.54365098 0.83919674 0.013872629 0.002194385
0.1595208 -0.39627984 -0.33554435 -0.52914006 0.84853446 0.000181639 0
0.16038784 -0.39573926 -0.33340406 -0.52908927 0.84856617 0.00012806719 0
0.24430892 -0.3999584 -0.33932301 -0.68288803 0.73052138 -0.0015844946 0.0020449401
0.17284282 -0.38797385 -0.3353678 -0.55259281 0.83342558 -0.0065605803 0.00061835878
0.18464893 -0.38061297 -0.33202544 -0.61801559 0.78595227 0.018323664 0.0027608548
-0.26743203 -0.3715758 -0.33125067 0.79333645 0.60878336 0.00011291585 0
-0.20057574 -0.37582749 -0.33367556 0.68233448 0.73104 7.1817108e-06 7.0276343e-05
0.19216432 -0.37273073 -0.33230782 -0.69832492 0.71576715 0.0044411235 0.0013524304
-0.21073964 -0.36633044 -0.33599746 0.68279624 0.73060882 0.0001260721 0
-0.20862123 -0.36830986 -0.3331238 0.68270975 0.73068964 -5.425527e-05 0
0.19736744 -0.36716223 -0.33891925 -0.72578758 0.68791527 0.0022228453 0.00012267481
0.20367789 -0.36040863 -0.33632281 -0.73031229 0.6831134 -0.00032328302 5.6381192e-05
0.2716285 -0.36610681 -0.33201456 -0.79326427 0.60887754 1.2059373e-05 0
-0.22147286 -0.35630152 -0.33289206 0.68296522 0.73045087 -6.0903085e-06 0
-0.21882249 -0.35877797 -0.33537582 0.68296677 0.7304495 -2.0941027e-06 0
0.2064642 -0.35742667 -0.33738261 -0.73065948 0.682742 -0.00011153224 0
0.28146863 -0.35328293 -0.33256397 -0.79323763 0.60891217 5.5453263e-05 0
-0.28795794 -0.34482592 -0.33094025 0.80132502 0.59821141 0.0046150326 5.2876869e-05
-0.23395351 -0.34463978 -0.33025637 0.73617536 0.67661583 0.015393343 0.0017950734
0.22154291 -0.34128913 -0.33059666 -0.73430026 0.67882448 0.00065150444 4.363765e-05
0.28860354 -0.34398454 -0.33300343 -0.79649907 0.60463923 0.00080455828 0.00010056227
0.29095417 -0.34092116 -0.33301738 -0.80578369 0.59220976 0.00052190927 0.00048551566
-0.24007976 -0.33882555 -0.33021677 0.77085418 0.63699192 -0.0050204466 0.0030254645
0.22829603 -0.3340618 -0.33610731 -0.75086147 0.66045344 0.002892633 0.00055149355
0.23120683 -0.33094659 -0.33244529 -0.78172016 0.62356436 -0.0090070255 0.0018777755
-0.30477506 -0.32118204 -0.3331916 0.87989324 0.47514743 -0.004763321 0.0024391944
-0.24814047 -0.32589692 -0.33342955 0.83559728 0.54934078 0.0013546216 0.00051918306
0.23673932 -0.32482117 -0.33293092 -0.79789168 0.60279554 -0.0025345134 0.0020919223
0.29986295 -0.32931095 -0.33565462 -0.83569396 0.54919505 0.00057098531 0.0010573855
0.30459049 -0.32162756 -0.33453041 -0.86912161 0.49453834 -0.0077005783 0.0022871071
0.24068755 -0.31929293 -0.33637661 -0.81568784 0.57843739 -0.0079734381 0.0023189527
0.30687997 -0.3161003 -0.33537343 -0.88788396 0.46005306 0.0036308514 0.001988889
-0.31184655 -0.30410993 -0.33535647 0.92261368 0.38572457 -0.00082083215 7.121262e-05
-0.26334167 -0.30151573 -0.33536512 0.8485356 0.52913821 -4.0861989e-05 0
-0.25840774 -0.30942929 -0.33144921 0.84856224 0.52909553 5.7273566e-05 0
0.24746478 -0.3065775 -0.33099553 -0.867275 0.49782735 0.001419545 0.00069747417
-0.31366557 -0.29971838 -0.33062252 0.92275125 0.3853949 -0.00094824482 9.207565e-05
0.25211012 -0.29786187 -0.33707845 -0.88242346 0.47045603 3.5681594e-05 0
0.31633455 -0.29327491 -0.33481684 -0.9238596 0.38273144 4.5159918e-06 1.9103682e-05
-0.32040513 -0.28344768 -0.33907908 0.92386091 0.38272834 -0.00013305643 0
-0.27229077 -0.2871623 -0.33487323 0.85801727 0.51355773 0.0080606919 0.00039591009
0.31869087 -0.28758627 -0.33680683 -0.92384374 0.38276982 8.9269543e-06 0
-0.32365942 -0.27559108 -0.33267605 0.92388612 0.38266754 0.00022824807 0
-0.28171331 -0.27193218 -0.33379486 0.92592812 0.37763953 -0.006748308 0.0026090862
-0.27691597 -0.27974397 -0.33057564 0.88392192 0.46761775 0.003963165 0.0022413651
0.26530302 -0.27310944 -0.33430818 -0.88745171 0.46089983 -0.00091061468 9.3281444e-05
-0.32928526 -0.26200908 -0.33647847 0.92805225 0.37244824 -0.0011213534 0.00019934929
-0.28406414 -0.26421535 -0.33430937 0.9406938 0.33904788 0.011899519 0.0013801177
0.26736653 -0.26923785 -0.33566251 -0.88963079 0.45668036 0.00047475961 0.00010149802
-0.33375579 -0.25121626 -0.33873406 0.94580245 0.32469586 -0.0055028028 0.0012579963
-0.28556919 -0.25927493 -0.33497262 0.94807744 0.31803316 0.0020126121 0.00048921857
0.2751132 -0.25390178 -0.33279139 -0.92501456 0.37971252 0.012907115 0.0015968237
0.33032393 -0.25950152 -0.33255085 -0.92989695 0.36780813 0.0029580852 0.00030109385
-0.29044077 -0.24328345 -0.33541575 0.95660138 0.29139951 8.8393077e-05 0
0.27893868 -0.24009545 -0.33867303 -0.9685874 0.24844934 0.010559191 0.0003888206
0.33802295 -0.24091436 -0.33096749 -0.96802491 0.25030112 -0.016649511 0.0022781619
-0.29188263 -0.23855038 -0.33315659 0.95659208 0.29143029 -1.3578666e-05 0
0.28010669 -0.23505917 -0.33107963 -0.97334176 0.22935978 4.5725201e-06 2.8599814e-05
0.33878362 -0.23604444 -0.33619747 -0.97805601 0.20826207 -0.0057714125 0.0023304317
-0.34034657 -0.2241728 -0.33465695 0.98526049 0.17105009 0.0019163087 0.0010888134
-0.33981478 -0.22821216 -0.3307097 0.98352265 0.18078448 -0.0004349025 0.0013270796
0.28265953 -0.22405186 -0.3336885 -0.9741298 0.22598901 4.4783712e-05 0
0.34056589 -0.22250697 -0.33345449 -0.99073672 0.13579106 0.0012630492 7.4414471e-05
-0.34163138 -0.21441367 -0.3324413 0.99143815 0.13057671 8.8851921e-05 0
-0.29850307 -0.2168182 -0.33412954 0.9583382 0.28563556 0.00046154967 8.5529617e-05
0.34164175 -0.21433495 -0.33127239 -0.99133217 0.13137926 -1.6579297e-05 3.6908534e-06
-0.34344116 -0.20066729 -0.33799174 0.99145311 0.13046345 -0.00017865124 6.6506349e-05
-0.30163416 -0.20654023 -0.33661887 0.97325599 0.22972289 -0.00030704599 0.0015215072
0.28724274 -0.20429006 -0.33441478 -0.97411817 0.22603938 9.7810174e-05 0
0.34266409 -0.20656955 -0.3374356 -0.99144334 0.13053776 1.7982871e-05 0
-0.34446177 -0.19291484 -0.3360939 0.99144 0.13056287 1.9856614e-05 0
-0.30470139 -0.1941011 -0.33185178 0.99045742 0.1372457 -0.012557412 0.0020937528
0.34387681 -0.19735804 -0.33442199 -0.99144757 0.1305057 5.2776373e-05 4.6977275e-06
-0.30506074 -0.1835065 -0.33215892 0.99704576 0.076688729 0.0043291231 0.0011308671
0.29125434 -0.18699281 -0.33450171 -0.98584831 0.16763052 0.0017320717 0.0013526895
0.34492451 -0.18939999 -0.33877525 -0.99144727 0.13050802 0.00014830919 0
-0.30531627 -0.17597359 -0.33598259 0.99939865 0.034674633 0.00018372625 0
-0.34820971 -0.1644465 -0.33304453 0.9954654 0.094847307 -0.0072535137 0.00098580949
-0.30578166 -0.16225331 -0.33838952 0.99942458 0.033917565 0.000115038 5.1439852e-06
0.3475244 -0.1696519 -0.33688971 -0.99213368 0.12515523 -0.0026364981 5.8646852e-05
-0.34965342 -0.15348049 -0.33603075 0.99956554 0.020915415 -0.020766731 0.002216323
-0.30603504 -0.15478277 -0.33533812 0.99942392 0.033939395 -2.2777218e-05 3.1723081e-05
0.29296407 -0.15496202 -0.33572653 -0.99957883 -0.028988892 0.0013715501 5.4731761e-05
0.34932742 -0.15595669 -0.33699155 -0.99971128 0.018921729 0.014808618 0.0018818262
0.35009304 -0.15014131 -0.33484647 -0.999924 -0.002349173 0.012100024 0.0024751127
-0.34947953 -0.14494152 -0.33617887 0.99890363 -0.044326223 -0.015054289 0.0017301369
0.29261583 -0.14469515 -0.33713406 -0.99942607 -0.03387592 5.948032e-05 0
-0.3483761 -0.13656014 -0.33353227 0.9969697 -0.07536868 -0.019258825 0.0018005449
-0.30680048 -0.1322163 -0.33784509 0.99991661 0.0066182395 -0.011084162 0.00068393373
0.34788668 -0.13284269 -0.33749017 -0.99509603 -0.098410264 -0.0099626761 0.00087503868
-0.34695116 -0.12573679 -0.33579719 0.99259996 -0.12142808 -0.00076718512 0.00016259158
-0.30705637 -0.12467228 -0.33527857 0.99951041 -0.023838984 -0.020266503 0.00090463291
0.29204339 -0.127819 -0.33765513 -0.99942523 -0.033899978 -1.2897912e-05 0
-0.34489125 -0.11009034 -0.33770013 0.99144918 -0.13049401 -3.2710577e-05 0
-0.30724102 -0.1192283 -0.33944339 0.99303383 -0.1173709 0.010388193 0.0021827219
0.2915675 -0.11378905 -0.33238721 -0.99768728 -0.067958452 0.0013589475 0.00058601116
0.34503269 -0.11116469 -0.33456981 -0.99144661 -0.13051283 2.5354753e-05 0
-0.34415972 -0.10453369 -0.33862895 0.99144667 -0.13051216 5.295554e-05 0
-0.30509382 -0.10856254 -0.33895242 0.98542255 -0.17010336 0.0026651935 0.001397005
0.29115778 -0.10170978 -0.33175614 -0.99083138 -0.13489258 -0.0075606606 0.0030118802
-0.34325129 -0.097633421 -0.3352268 0.99144483 -0.1305262 -4.4358781e-05 4.1459734e-05
-0.3015655 -0.09334904 -0.3300544 0.97461289 -0.22389245 0.0013710943 8.0427899e-06
0.28952682 -0.092798278 -0.33273211 -0.97511464 -0.22099362 -0.017696304 0.0016129292
0.34298754 -0.095630065 -0.3372677 -0.99144328 -0.13053828 -0.00010145297 3.6260953e-06
-0.29849762 -0.080120951 -0.3361938 0.97413158 -0.22598125 -7.1750073e-05 5.9096998e-05
0.28834632 -0.088923112 -0.33432585 -0.9714883 -0.23627131 -0.01965433 0.0014804293
-0.34073523 -0.078522034 -0.33874279 0.98879868 -0.14918427 -0.004602999 0.000401364
-0.29682589 -0.072912738 -0.33185887 0.97414523 -0.2259229 4.0821069e-05 0
0.28378722 -0.073957413 -0.33601731 -0.95805347 -0.28657588 -0.0027771152 3.9409348e-05
-0.33848417 -0.061423603 -0.33981648 0.96930057 -0.24586423 0.0026770381 0.002310636
-0.29509234 -0.065437935 -0.3366845 0.97397983 -0.22663483 -5.9586291e-05 0
0.28077602 -0.064072944 -0.33687782 -0.9565959 -0.29141775 3.9005678e-05 1.2413078e-05
0.33884248 -0.064145468 -0.3325502 -0.97767597 -0.2085453 0.025660653 0.0011473165
-0.33523089 -0.052087836 -0.33503824 0.94711488 -0.32023826 0.020514611 0.0024486189
0.27756611 -0.053536031 -0.33413553 -0.95659614 -0.29141697 -5.7555453e-06 0
0.33810225 -0.059019949 -0.33270624 -0.96830577 -0.24836814 0.026404601 0.002331553
-0.29072469 -0.046605647 -0.33548576 0.94337016 -0.33134949 0.016132351 0.002454605
-0.28921872 -0.040740535 -0.33009315 0.93713361 -0.34834415 0.020904345 0.00199022
0.27520734 -0.04579325 -0.33126214 -0.95652854 -0.29163867 -7.7527839e-05 0
0.32773739 -0.033996884 -0.33509278 -0.92387277 -0.38269967 -7.4639887e-05 9.0077901e-06
-0.32392853 -0.024801552 -0.33608133 0.92387724 -0.38268897 2.1288357e-05 0
-0.28309298 -0.029247358 -0.33183795 0.89728791 -0.44144529 -0.00061440089 0.00057147781
-0.27948046 -0.022469562 -0.33914006 0.88736564 -0.46106604 -0.00060286775 0.00018367579
0.32221013 -0.020652946 -0.33300263 -0.92388511 -0.38267007 -7.5609372e-05 3.2821536e-06
-0.3211793 -0.018164292 -0.33486217 0.92387956 -0.38268325 -1.9057288e-05 0
-0.31792521 -0.010308265 -0.3380807 0.92387944 -0.38268366 0.00010249233 0
-0.27505171 -0.014160388 -0.3335942 0.88246858 -0.47037148 -7.1205809e-06 1.5345422e-05
0.3213352 -0.018540585 -0.33956265 -0.92385054 -0.38275349 0.0001725523 1.0746118e-06
0.31689763 -0.0078274356 -0.33217263 -0.92388046 -0.3826811 -1.2746274e-05 0
-0.26475245 0.0051630833 -0.33263278 0.88240361 -0.47049308 -7.4822725e-05 0
0.25206819 0.0033271341 -0.33363259 -0.84856832 -0.52908576 -7.9910656e-05 1.0152492e-05
0.31149417 0.0052177529 -0.33549964 -0.92199671 -0.38718948 0.0025163202 4.0813273e-05
-0.30803907 0.013559083 -0.33514944 0.91078168 -0.41284069 -0.0062683919 0.00057124346
0.30690533 0.016296152 -0.3373405 -0.90279138 -0.43005165 0.0048337239 0.0014257744
-0.30313084 0.025309309 -0.3370297 0.86251229 -0.50601584 0.0045270836 0.0025606281
-0.2996254 0.029877696 -0.33114049 0.84896863 -0.52810681 -0.018854622 0.0028172319
-0.25314483 0.026941229 -0.33980191 0.82459134 -0.56571722 0.0036222453 0.0026948734
0.23624833 0.02870062 -0.33600155 -0.84841299 -0.52933472 -0.00010720302 1.2432753e-05
0.24141882 0.020407666 -0.3362256 -0.84844339 -0.52928615 -4.4422613e-05 2.7158833e-06
0.30405933 0.023167063 -0.33388555 -0.86277533 -0.5054934 -0.0097583579 0.0018847333
-0.24803805 0.033001766 -0.33036399 0.77309453 -0.63428462 0.0028091427 0.002023845
-0.29090887 0.04123725 -0.33980006 0.79661125 -0.604491 0.0010953727 0
-0.28509271 0.048817046 -0.33937165 0.79333359 -0.60878712 2.0233081e-05 1.4703461e-05
-0.23598123 0.045905247 -0.33801249 0.734523 -0.6785807 0.0020559665 9.9028948e-05
0.22695008 0.043614082 -0.33697724 -0.78517115 -0.61926007 -0.0048143412 0.0021266984
0.2848689 0.049108692 -0.33878371 -0.79334784 -0.60876852 0.00010371707 0
-0.28144133 0.053575639 -0.33836752 0.79335248 -0.60876256 5.2375908e-06 0
-0.23107618 0.051154729 -0.33114582 0.73066944 -0.68273139 5.0326147e-05 0
0.21595918 0.054281257 -0.33524072 -0.70533562 -0.70886558 0.0033487191 0.00094404636
0.27698973 0.059377033 -0.3344954 -0.79334998 -0.6087659 2.901978e-05 1.0824324e-05
0.28319296 0.051292866 -0.33510017 -0.79329771 -0.60883391 -3.6285175e-05 5.2723473e-05
-0.2713123 0.066776015 -0.33263052 0.79334193 -0.60877633 4.5031891e-07 0
-0.21672748 0.066511013 -0.33105728 0.73066002 -0.68274146 1.1522575e-05 8.4439462e-06
0.20520684 0.064328104 -0.33294693 -0.68270797 -0.73069131 -7.8916739e-05 1.0493813e-05
0.27277648 0.064867876 -0.33405361 -0.7933346 -0.60878587 3.0739622e-05 7.4651138e-07
-0.20801169 0.075838834 -0.33581448 0.69826239 -0.71567595 -0.015413471 0.00087205874
0.18949537 0.079008691 -0.33734089 -0.68168944 -0.73164159 7.5038411e-06 7.4481018e-06
0.19046129 0.078106135 -0.33148459 -0.68272299 -0.73067731 6.1142739e-05 0
0.26829028 0.070714422 -0.33413959 -0.79333001 -0.60879177 5.520718e-05 7.1033496e-06
-0.26108828 0.080100186 -0.33406481 0.78908688 -0.61428177 -3.0295394e-05 6.369286e-05
-0.2549094 0.088152707 -0.33149561 0.75533748 -0.65532446 0.0039091618 0.0016355215
-0.1955058 0.087841488 -0.33544859 0.59470975 -0.80386764 -0.010822046 0.0013728826
0.17948613 0.088361174 -0.33795238 -0.66524869 -0.74661374 -0.0034971598 0.00045190443
0.18666753 0.08165098 -0.33798429 -0.68159753 -0.73172724 -0.00029729382 1.4031076e-05
0.25500932 0.088022456 -0.33628088 -0.76943982 -0.63865775 0.0088711297 0.00071521814
0.2601487 0.081324674 -0.33927819 -0.78295356 -0.62207365 0.0028250304 0.00038719675
-0.18689328 0.093211204 -0.33195862 0.5588823 -0.82924402 0.0022033898 0.0010719514
-0.17839481 0.098509833 -0.33091664 0.52908301 -0.84857005 -1.4628417e-05 0
0.1682117 0.098435804 -0.33398187 -0.57717347 -0.81657225 -0.0089766122 0.0023092444
0.1740185 0.093470052 -0.33953747 -0.62160748 -0.78331274 -0.0050359294 0.0021369252
0.2463989 0.098611765 -0.3314482 -0.70458812 -0.70944631 0.01554197 0.0023029821
0.25294808 0.090708718 -0.33885905 -0.7606523 -0.64907968 0.010182064 0.00087151764
-0.2371413 0.10571538 -0.33333126 0.64906174 -0.76073241 0.0022061572 0.0014275017
-0.16681024 0.10573258 -0.33366114 0.52908742 -0.84856731 -1.9416226e-05 0
0.14764994 0.10963115 -0.33866858 -0.47231051 -0.88143218 0.00022583347 1.1200772e-05
0.15188497 0.10737392 -0.33656755 -0.48623744 -0.87382621 -0.00097358797 0.00035336707
0.16231941 0.10181244 -0.33917901 -0.53998077 -0.84162492 -0.0093901688 0.0018695326
0.23765337 0.10532244 -0.33373806 -0.65522063 -0.75540036 0.0075007058 0.0015069692
0.24248838 0.10161241 -0.33120295 -0.67285287 -0.73969352 0.011063658 0.0021583401
-0.22124599 0.11791228 -0.3376973 0.60881943 -0.79330879 4.9298669e-05 0
-0.21910197 0.11955745 -0.33334976 0.60875475 -0.7933585 1.9365676e-05 2.2357401e-06
-0.15422228 0.11358093 -0.3357473 0.52894634 -0.84865522 -3.7206129e-05 7.6875849e-06
-0.14650333 0.11839353 -0.33070543 0.50255889 -0.86454022 0.00216084 0.00067828142
0.13866216 0.11442159 -0.33157542 -0.47034246 -0.88248396 1.4816022e-05 7.6188862e-06
0.14223281 0.11251846 -0.33804992 -0.47134885 -0.8819468 -0.00020426213 8.2909337e-06
0.2242064 0.11564067 -0.33741504 -0.60875779 -0.79335618 -4.9681412e-06 1.6996127e-06
-0.2136479 0.12374249 -0.3300586 0.60881656 -0.79331106 -1.4032612e-05 0
-0.14076401 0.12197188 -0.33200869 0.47460988 -0.88019532 0.0013328844 0.0014190101
-0.1318507 0.12749664 -0.33184567 0.42852959 -0.90350848 0.0058951727 0.0023271767
0.11569005 0.12666555 -0.33328709 -0.45618671 -0.88987952 0.0028506736 0.00016397677
0.21206424 0.12495767 -0.33480641 -0.60873568 -0.79337305 -2.7708011e-05 1.1549671e-05
-0.20351294 0.13151935 -0.33646929 0.60878199 -0.79333752 1.1461562e-05 0
-0.19647451 0.13692012 -0.33807254 0.60729468 -0.79447669 -6.2983665e-05 2.5302321e-05
-0.10755564 0.13497245 -0.33963636 0.2930685 -0.95609128 0.00054185925 1.8010575e-06
-0.095041625 0.13878471 -0.33456287 0.29142597 -0.95659339 -3.3368724e-05 3.1258005e-06
0.082440898 0.13933589 -0.33521938 -0.25224301 -0.9676398 0.0068277186 0.00072206819
0.1974967 0.13613574 -0.33524609 -0.6088019 -0.79332221 4.4410055e-05 0
0.20495273 0.13041455 -0.33749667 -0.60878497 -0.79333532 4.5357534e-05 0
-0.18752944 0.1437839 -0.33731925 0.57371557 -0.81905454 -0.00051154202 0.00092406839
-0.086202472 0.14147745 -0.33741632 0.29141924 -0.95659548 -1.9431665e-05 0
-0.073137552 0.14545751 -0.33669308 0.26821411 -0.96335751 0.0018659396 0.00081867352
-0.062993668 0.14854771 -0.33540392 0.17913814 -0.98358941 0.021481173 0.0022452476
0.038643312 0.14949352 -0.330744 -0.20382822 -0.97900128 0.0032418505 0.00050821324
0.05678349 0.14528641 -0.33174121 -0.22592784 -0.97414404 -2.3086734e-06 0
0.066014409 0.14314556 -0.33531088 -0.22593562 -0.97414225 1.1290567e-05 0
0.077608496 0.14045663 -0.33317509 -0.23878928 -0.97107017 -0.0015455779 0.00032129034
0.18435742 0.14621788 -0.33079699 -0.58495814 -0.81105584 0.0035356083 0.00059028371
-0.17463008 0.15330318 -0.33771294 0.50822216 -0.86121881 -0.0035399066 0.0022373172
-0.16906251 0.15583478 -0.33498493 0.44521016 -0.89542317 0.0023105287 0.0017173471
-0.044744827 0.15097184 -0.33147731 0.093537785 -0.99558145 0.0082562771 0.0019882333
-0.0365039 0.15125138 -0.33641133 0.054352801 -0.99851614 -0.0033476457 0.00047960554
-0.014866898 0.15198529 -0.33794823 0.033902463 -0.99942511 -4.6955691e-05 4.5427646e-06
-0.00045595504 0.15247411 -0.33978823 0.030793061 -0.99952453 -0.0015597566 1.5503165e-05
0.0084590465 0.15277649 -0.33656964 0.006964691 -0.99997544 -0.00083380676 0.00087151484
0.015926447 0.15302978 -0.33800316 -0.052497521 -0.99860954 0.004792334 0.0020246424
0.02297136 0.15308511 -0.33163971 -0.089921996 -0.99592292 0.0071893437 0.0023977312
0.1672107 0.15660182 -0.33394682 -0.44106847 -0.89744693 0.0068891547 0.0012908578
-0.15462686 0.1618142 -0.33099508 0.38494658 -0.92293888 -0.00019075758 2.4704254e-05
-0.14665917 0.16511452 -0.33505055 0.3826991 -0.92387301 -1.40996e-05 1.0416125e-05
0.13514787 0.16988266 -0.33796695 -0.38265833 -0.92388988 -2.3028542e-05 1.140771e-05
0.14811775 0.16451037 -0.33605832 -0.38269904 -0.92387307 -3.3724616e-06 0
-0.1311778 0.17152713 -0.3349981 0.38268322 -0.92387962 3.2302672e-05 1.8353541e-06
-0.11187208 0.1795238 -0.33624095 0.37891716 -0.92543054 0.00044672194 3.9493912e-05
0.11537229 0.17807397 -0.33581004 -0.38268268 -0.92387986 -9.8118953e-06 0
0.12204494 0.17531006 -0.33586189 -0.38266689 -0.92388642 -1.7295275e-05 2.2844928e-05
0.13337362 0.17061758 -0.33349705 -0.38273919 -0.92385644 0.00012511556 0
-0.1086451 0.18086044 -0.33569074 0.37840229 -0.92564076 0.00092560804 3.1508393e-05
0.10255626 0.18338254 -0.33472192 -0.32820556 -0.94460595 0.00087912672 0.0017150862
-0.071241736 0.19087791 -0.33132246 0.15026332 -0.98864335 -0.002289427 0.00057854119
-0.055203378 0.19298939 -0.33299896 0.13053416 -0.99144381 2.1591661e-05 0
-0.039662953 0.19503534 -0.33003092 0.13052854 -0.99144453 3.2086915e-05 5.2812493e-06
-0.025338486 0.1969212 -0.33895734 0.12843505 -0.99171746 -0.00095724955 1.5428472e-05
-0.0038233947 0.19975373 -0.33684409 0.032702312 -0.99944705 0.0060099997 0.0032710538
0.0065768836 0.19939123 -0.33672005 -0.065398119 -0.99785399 -0.0032376063 0.0016048681
0.023497641 0.19716355 -0.33243692 -0.12529042 -0.99211907 0.0014107294 7.9756312e-05
0.037406564 0.19533241 -0.33245444 -0.13052925 -0.99144447 -2.35304e-05 2.8006856e-05
0.043988463 0.19446589 -0.33324707 -0.13052623 -0.99144483 -3.6426762e-05 1.073924e-05
-0.00033760982 0.20021264 -0.33953157 0.0056071999 -0.99997169 -0.0050232187 0.0024752989
-0.067772366 -0.49107757 -0.3241905 0.13053088 0.99144423 -3.5294372e-05 3.19192e-05
-0.055663411 -0.49267179 -0.32899711 0.13053186 0.99144411 -9.1273359e-05 0
-0.04230804 -0.49443007 -0.32020596 0.13054186 0.99144274 -8.8720764e-05 2.7541655e-05
