# .PCD v0.7 - Point Cloud Data file format
VERSION 0.7
FIELDS x y z normal_x normal_y normal_z curvature
SIZE 4 4 4 4 4 4 4
TYPE F F F F F F F
COUNT 1 1 1 1 1 1 1
WIDTH 599
HEIGHT 1
VIEWPOINT 0 0 0 1 0 0 0
POINTS 599
DATA ascii
-0.28105947 -0.31521842 0.15735167 -0.33013201 0.89625686 -0.29620364 0.23934722
-0.27781865 -0.31688514 0.15802911 0.7229479 -0.27020136 -0.63587546 0.28479099
-0.22134238 -0.31106889 0.15592426 0.19089349 0.94877046 0.25178227 0.24051951
-0.20676628 -0.31469882 0.15091026 0.21026081 0.9761318 -0.054379661 0.22196139
-0.1954104 -0.3170628 0.15204665 0.074957684 0.99718553 -0.0015289043 0.1828561
-0.18419808 -0.31929636 0.15208203 0.21316284 0.97569907 0.050723735 0.1377306
-0.050765529 -0.31474558 0.1512168 -0.48526901 0.71584994 0.50206852 0.21621129
-0.046421375 -0.31433046 0.156482 -0.8447336 0.45956522 0.27427173 0.21349461
0.016202565 -0.31846237 0.1532605 0.19291349 0.97423196 -0.11686115 0.24796544
-0.30750871 -0.30152103 0.15676185 0.40764335 0.90844774 0.09246397 0.23385262
-0.29598892 -0.30738437 0.15268996 0.60159671 0.79744714 -0.046469856 0.23629881
-0.25322276 -0.30042335 0.15784989 0.42440796 0.8925693 0.15230851 0.14311254
-0.24388093 -0.30338633 0.15559298 0.35695511 0.91357768 0.19483027 0.16355352
-0.23224625 -0.30749789 0.15728505 0.47019273 0.85896111 0.20274276 0.19726437
-0.22909154 -0.30865192 0.1581526 0.2939088 0.94404137 0.14967814 0.19898526
-0.033073924 -0.30956519 0.15094149 -0.43146273 0.8748138 -0.22031966 0.24276814
-0.014931525 -0.30364558 0.15343451 -0.49819997 0.8658101 -0.046580467 0.19625543
-0.0078367461 -0.30165684 0.15781344 -0.2701866 0.95415968 -0.12875804 0.1622792
0.040550858 -0.30642432 0.15295619 -0.6273399 0.77470791 -0.079197295 0.21166086
-0.31964648 -0.29334408 0.15614998 0.76506835 0.62305981 -0.16268614 0.28927344
-0.26673397 -0.2935133 0.15540765 0.26301175 0.94707882 0.18402857 0.21584897
-0.25570238 -0.29853392 0.15126072 0.27170458 0.95965546 0.072374664 0.1075186
-0.0020650013 -0.29930997 0.15733297 -0.11842039 0.97870439 0.16767335 0.21291716
0.00062583585 -0.29752508 0.15280689 -0.58396918 0.75352031 -0.30197218 0.21136791
0.014892986 -0.29047173 0.15263297 -0.49335405 0.86555356 -0.086132541 0.16028853
0.056182962 -0.29735371 0.15600812 -0.2221072 0.88097203 -0.4177998 0.23895264
-0.33716154 -0.28123268 0.15240975 0.35079333 0.93095773 0.10130032 0.2401337
-0.32552865 -0.2891596 0.15382142 0.35339352 0.38614833 0.85205781 0.25352287
-0.28286356 -0.28528106 0.15265983 0.51106888 0.85948294 -0.0098833051 0.23373842
-0.27594337 -0.28928488 0.15850338 0.44994846 0.8914085 0.054196656 0.23119701
0.033190105 -0.28181726 0.15627679 -0.46254185 0.88599086 0.032792855 0.24537523
0.069690228 -0.28875738 0.15993875 -0.40321007 0.91490263 0.019359974 0.2412048
0.073302552 -0.28618386 0.15847391 -0.38411096 0.92205477 -0.047684547 0.21186054
0.08046639 -0.28116867 0.15638043 -0.4953852 0.79734898 -0.34471467 0.18619414
-0.3446584 -0.27628726 0.15749604 0.42144239 0.87247229 0.24734275 0.17083502
-0.30655617 -0.27102751 0.15392619 0.49433836 0.85765707 0.14161161 0.2333874
-0.29834747 -0.2761265 0.15039019 0.50677389 0.84133059 0.18799768 0.22737825
0.037095599 -0.27887201 0.15220565 -0.57747751 0.81331223 0.071013749 0.22489399
0.081930272 -0.27973276 0.15218568 -0.53349096 0.84539169 0.026461264 0.21229182
0.091777861 -0.27238542 0.15829329 -0.84316576 0.53762645 0.0054241722 0.25269687
-0.35732043 -0.26448134 0.15168262 0.88209492 0.35943824 0.30448759 0.23399134
-0.32022309 -0.26198858 0.15477815 0.44290659 0.89642459 0.016020732 0.1932805
-0.31295416 -0.2664915 0.15153421 0.5512774 0.83008254 0.084001593 0.2162852
0.051971603 -0.26975074 0.15970646 -0.39817491 0.91142774 -0.10371161 0.25588059
0.062866025 -0.26207536 0.15607797 -0.19971359 -0.055057324 -0.97830629 0.24939093
0.098495118 -0.26627702 0.15649083 -0.65485156 0.60356492 0.45483941 0.21028206
0.10186986 -0.26320171 0.15553211 -0.48770839 0.75972807 0.43006262 0.19234426
-0.33104107 -0.25349045 0.15207653 0.66868252 0.69936037 0.25250491 0.19985358
-0.32416674 -0.25918603 0.15324356 0.62967122 0.7564044 0.1771064 0.23493673
0.075207077 -0.25228971 0.1537932 -0.41525045 0.79690689 0.43875548 0.24492738
0.10724163 -0.25782639 0.15002672 -0.47206512 0.79837984 0.37382364 0.18726744
-0.34297818 -0.24361184 0.15696478 0.67152131 0.73752922 0.071483023 0.14663057
0.079747207 -0.24809027 0.151988 -0.33187884 0.89616024 0.29453903 0.23400095
0.083530515 -0.24501944 0.15403503 -0.94191533 0.2619212 0.21022099 0.24895675
0.11897117 -0.24824674 0.15588382 -0.73753637 0.67526174 0.0078521902 0.14232081
0.12212538 -0.24451584 0.15434186 -0.84824812 0.52675974 0.054765575 0.20213632
-0.38577867 -0.23733032 0.15361497 0.19777787 0.98016393 0.012747519 0.25708157
-0.35800672 -0.23055865 0.15801282 0.29400459 0.95493174 -0.0408266 0.1921868
-0.34855622 -0.23865113 0.15639395 0.85803807 0.3431671 0.38210875 0.21975736
0.13405718 -0.23130873 0.15723753 -0.5935747 0.71753472 0.36443529 0.20666599
-0.35915679 -0.22955298 0.15893827 0.40686083 0.91154391 0.05959826 0.23844825
0.10531098 -0.2250479 0.1559784 -0.66384548 0.74331445 -0.0824183 0.26920751
0.13567953 -0.22961676 0.15838549 -0.77903765 0.58795792 0.21772887 0.21965453
-0.40362033 -0.21743506 0.15688001 0.70312208 0.66973466 0.23890339 0.15976475
-0.37191105 -0.21444954 0.15486895 0.87110794 0.4869886 0.063348249 0.21877013
-0.36809272 -0.21870117 0.15412536 0.79235709 0.565961 0.22772461 0.22811596
0.11536171 -0.21329424 0.15384899 -0.75340015 0.57360059 -0.32151282 0.23696297
0.1459603 -0.21783245 0.15793978 -0.88235128 0.4153173 0.22128655 0.19636409
0.15104569 -0.21125832 0.15620932 -0.8937577 0.30424851 0.32959089 0.21792234
-0.41263703 -0.20491742 0.15543082 0.72672665 0.67192328 0.14278455 0.18282872
-0.38367891 -0.2010635 0.15510598 0.3315289 0.90910143 0.2522364 0.23829313
-0.37781909 -0.2075851 0.15394165 0.7938593 0.60802585 0.0095905541 0.20826468
0.12315221 -0.20410441 0.15162215 -0.88250607 0.42931119 0.19202875 0.2376778
0.15391879 -0.20603271 0.15054119 -0.99442077 0.081182927 0.067355104 0.25925753
-0.42251319 -0.19084649 0.15977676 0.89674181 0.392277 0.20487276 0.2000908
-0.41799918 -0.19720258 0.15733026 0.82759768 0.55270272 0.097988382 0.18112364
-0.38926688 -0.19383359 0.15583764 0.38331774 0.67436481 0.63110989 0.20895155
0.12920272 -0.19751829 0.15482205 -0.98071843 0.094869114 -0.17085426 0.29048744
0.13401017 -0.19075838 0.15701003 -0.89103508 0.45219478 -0.0397043 0.23855443
0.161265 -0.19539981 0.15275466 -0.82817543 0.56032974 -0.0124911 0.22257562
-0.39239728 -0.18879199 0.15365425 0.45421171 0.30738151 0.83618689 0.20882128
0.13873561 -0.18399014 0.15887067 -0.86739087 0.48483217 0.11211976 0.15827809
0.16931207 -0.1835238 0.15377897 -0.95391786 0.18330725 -0.23756956 0.23006411
0.1714002 -0.18092066 0.1569747 -0.59607399 0.64719594 0.47521907 0.22840309
-0.43263176 -0.17424703 0.15363677 0.76908183 0.56831169 0.29246357 0.17761241
-0.40290809 -0.17260663 0.15086895 0.85441846 0.44290686 0.27166626 0.21699059
0.14440162 -0.17461541 0.15339105 -0.48780361 0.86943108 -0.07834024 0.21266396
0.17364185 -0.17758138 0.15707017 -0.69933105 0.69798553 0.15411794 0.23319946
-0.43860283 -0.16319108 0.15751022 0.8791374 0.46639132 0.097962014 0.2022782
-0.40675914 -0.16727564 0.15351722 0.87017369 0.37341112 0.32149938 0.19006357
0.14959253 -0.16720609 0.15559162 -0.21565326 -0.62481368 -0.75040096 0.23127593
0.15164649 -0.16350408 0.15228072 -0.22771177 -0.51530594 -0.82620031 0.2118172
0.17996776 -0.16511962 0.15509218 -0.86129588 0.49734417 0.10401001 0.13949481
-0.44189149 -0.15570369 0.15351905 0.90201414 0.4016512 -0.15826133 0.25944126
-0.41220382 -0.15853745 0.15631454 0.8211205 0.56689817 0.066238746 0.23868597
0.18489358 -0.15508515 0.15486842 -0.88601476 0.15867214 0.43566144 0.20631467
-0.44674405 -0.14575891 0.15300858 0.9209221 0.38818389 -0.034869481 0.22451666
-0.42057198 -0.14173733 0.15713716 0.89147133 0.45285591 0.014157265 0.24463876
-0.41929191 -0.14439802 0.15745427 0.87834144 0.47643381 0.039078306 0.23394522
0.16223107 -0.14414892 0.15998217 -0.5127449 0.75760043 -0.40389895 0.25660032
0.18948448 -0.14631844 0.15751368 -0.89931393 0.43681964 0.020566279 0.23575188
0.1923158 -0.14082423 0.15871865 -0.93648314 0.33189327 -0.11334056 0.22533655
-0.45026135 -0.13832229 0.15152586 0.94853264 0.25616542 0.18618552 0.2060315
0.16872045 -0.13094835 0.15978019 -0.77481359 -0.58466983 0.24046871 0.2202998
-0.42696351 -0.12781014 0.15242656 0.97260869 0.22263356 0.066831119 0.19483152
0.16938023 -0.12882267 0.15594029 -0.99075896 -0.10541976 -0.08534234 0.27402303
0.19797772 -0.12512267 0.15173188 -0.9575007 0.27558008 0.085134946 0.14833809
0.17559955 -0.1118436 0.15357645 -0.92170465 0.38748512 -0.017770045 0.22915137
0.20035017 -0.11779184 0.15052082 -0.98399353 0.17609346 0.027345946 0.19743042
-0.46261761 -0.10446438 0.1536926 0.86495394 0.49272516 0.095271423 0.17347017
-0.43578964 -0.10429133 0.15552804 0.88000321 0.46803686 0.080843978 0.14912218
0.17874336 -0.10290877 0.15473303 -0.78074628 -0.17932121 0.59856427 0.27281922
0.2040136 -0.10808667 0.15437157 -0.42934442 0.88392723 -0.18529962 0.3016015
-0.46672261 -0.09331093 0.15757561 0.96163577 0.26193258 0.081535123 0.14854154
0.17937911 -0.099845305 0.15051526 -0.98411411 -0.15586041 0.085011534 0.24957857
0.18088399 -0.095560573 0.15104131 -0.75763148 -0.65188688 0.03221776 0.26155612
0.2087172 -0.093952253 0.15338646 -0.99910706 0.015679257 0.039233245 0.25879821
-0.46813589 -0.086976081 0.1548571 0.9559679 0.28256121 0.079274669 0.077386543
-0.44168723 -0.087715 0.15835279 0.80591172 0.52954441 -0.26474351 0.27181435
0.18462405 -0.084256642 0.15002804 -0.86979431 0.43994045 0.22340588 0.23900293
0.21037424 -0.089938074 0.15774266 -0.97050452 0.20480278 0.1271883 0.20442435
-0.47044498 -0.0755665 0.15528487 0.97605413 0.21026407 0.055743858 0.12312003
-0.44402286 -0.079021439 0.15953808 0.9289794 0.10470503 -0.35501269 0.24198073
0.18689878 -0.075461492 0.15529279 -0.9575485 0.11262362 0.26536149 0.21458954
0.21231043 -0.076846898 0.15052453 -0.90721494 0.031449337 0.41949019 0.20232069
-0.47271615 -0.063960761 0.15488096 0.96883422 0.18563178 -0.16401537 0.22072314
0.18879303 -0.065347463 0.1540224 -0.88187534 0.42015138 0.21393639 0.18415703
-0.4744463 -0.05443801 0.15310796 0.93092048 -0.32944444 0.15764971 0.19995935
-0.44792822 -0.055779703 0.15178038 0.87843037 -0.34526286 -0.33038419 0.21528246
0.19064797 -0.056204814 0.15441522 -0.84657907 0.053123306 0.52960527 0.21847756
0.21744938 -0.052490786 0.15370482 -0.94931132 0.30108139 0.090321712 0.19298595
0.1921407 -0.04881477 0.15466119 0.51863301 0.10738049 -0.84822714 0.24514084
0.21904449 -0.042155035 0.15391079 -0.9954586 -0.078611411 0.053686935 0.22792757
0.47623196 -0.042851441 0.15213542 -0.37642577 -0.92479849 0.055238809 0.08552365
0.48573574 -0.042804688 0.15601535 -0.5362404 0.81771618 0.20925215 0.12948403
-0.45154655 -0.038378194 0.15936929 0.99090534 0.05451525 0.12302341 0.19506091
0.19417211 -0.033502772 0.15657037 -0.93318707 -0.16977255 0.31676376 0.22849968
0.21983802 -0.037107147 0.15899907 -0.97732103 0.034923177 0.20886333 0.15054949
0.22016104 -0.03299265 0.15958549 -0.99226797 0.0071695833 0.123907 0.16280106
0.46784568 -0.03454002 0.15093845 -0.83149958 -0.55460697 0.031930361 0.082943238
0.49462491 -0.032070458 0.15765125 -0.76936549 0.63779366 -0.035998795 0.090358131
-0.47755381 -0.024416564 0.15289038 0.79094607 0.5913834 -0.15706648 0.24660927
-0.4520402 -0.025745651 0.15569283 0.96734118 0.2527478 0.019223263 0.23648208
0.19412079 -0.029925134 0.15342721 -0.89152318 -0.10430142 0.44080335 0.22814892
0.46571472 -0.021616202 0.15114357 -0.97467232 -0.21739168 -0.052484609 0.051446512
0.49630108 -0.020434875 0.15609306 -0.97784662 0.18711121 -0.093836203 0.043710448
-0.47839692 -0.014143517 0.15475735 0.95599091 0.24230143 0.16544297 0.20593518
-0.45302588 -0.010804255 0.15576267 0.93051267 -0.34323496 -0.12781225 0.26628295
0.19530405 -0.014665728 0.1554409 -0.97132736 -0.18168855 -0.15333734 0.13358724
0.46425328 -0.012263566 0.15854025 -0.99571794 0.061281197 -0.069213063 0.070333347
0.49710852 -0.015924256 0.15098219 -0.99178964 -0.041855879 -0.12083647 0.08284054
0.19588836 -0.0040716515 0.15423042 -0.96132916 0.19523998 -0.19423586 0.1734923
0.46406636 -0.0067929528 0.15845194 -0.99616581 0.049093284 -0.072412528 0.080703691
0.47419739 -1.0440367e-08 0.15491903 -0.12950234 -0.074374691 -0.98878592 0.27218625
0.4948945 -1.0440367e-08 0.15137291 -0.95572734 -0.044271432 -0.29090419 0.1444052
-0.47929272 0.0049199336 0.15796036 0.96770865 -0.1807057 0.1757426 0.14207128
-0.45342413 0.0050283121 0.15597916 0.98491418 0.10033506 0.14098567 0.203438
0.19578135 0.008132549 0.15598086 -0.90386832 0.42751428 -0.015926002 0.19897658
0.22164387 0.0067748898 0.15699457 -0.9423207 0.12949194 0.30864778 0.24838126
0.46454221 0.0017620472 0.15395382 -0.99993265 -0.0099696256 0.0059390161 0.068439469
0.49748555 0.0066282731 0.15118314 -0.97327298 0.043115556 -0.22556752 0.10764194
-0.47813743 0.017187342 0.15409791 0.99363339 0.10588595 0.038481332 0.21081243
-0.45261037 0.016016923 0.15495047 0.9780097 -0.045051415 0.20363544 0.21373782
0.19496492 0.012518785 0.15016389 -0.9940201 -0.10919762 0.00013319164 0.24775133
0.2209007 0.019454224 0.15796097 -0.96196872 0.26921269 0.046266116 0.21418568
0.46483067 0.016110638 0.15546884 -0.99944127 0.010010813 -0.031890005 0.054890621
0.49735558 0.013027322 0.15003999 -0.95551866 0.14168766 -0.25866717 0.10486726
-0.47775584 0.025750287 0.15607347 0.98166698 -0.015226882 -0.18999512 0.19872962
0.19456077 0.02634944 0.15568864 -0.96991253 -0.20244725 0.13522115 0.23155135
0.46567434 0.027039267 0.15584794 -0.93676072 0.34687656 -0.046432577 0.087729491
0.49582946 0.026927799 0.15474369 -0.90813148 -0.40987685 -0.085429437 0.081287414
-0.47666138 0.03410168 0.15005703 0.98337269 -0.1672869 0.070661984 0.13303447
-0.45151332 0.034055408 0.15588769 -0.16668087 -0.67521715 -0.71853966 0.27037528
0.19390404 0.038254987 0.15704772 -0.97069895 -0.20335549 0.12802324 0.23083812
0.22011031 0.03331678 0.15926133 -0.96619779 -0.097210452 0.23877172 0.1131155
0.46844071 0.037085362 0.15496321 -0.60715902 0.79114664 -0.073789664 0.11721813
0.49334198 0.036176443 0.15719353 -0.68865097 -0.72316635 0.052821737 0.11548395
-0.47611773 0.044270828 0.15140803 0.9195013 -0.31569862 -0.23420456 0.25898689
-0.44972733 0.047606736 0.15365498 0.89707452 -0.25407839 -0.36152664 0.2006409
0.21949574 0.042686313 0.15925635 -0.93923813 -0.32216683 -0.11849146 0.209471
0.4734996 0.042347878 0.1564658 -0.486305 0.8697257 -0.084170811 0.11219276
0.48698884 0.04260435 0.15422666 -0.25004292 -0.96817178 -0.011043811 0.14374113
-0.47499537 0.051537551 0.15280674 0.9621346 -0.088392898 0.25784436 0.24128807
0.19076696 0.054612514 0.15227804 -0.94990456 -0.27352628 0.15121078 0.18047459
0.21704283 0.057033844 0.15907814 -0.98623443 0.093902089 -0.13610274 0.24528994
-0.44658241 0.061971765 0.15054673 0.96257925 -0.094102241 -0.25413784 0.2067216
0.21514623 0.064771384 0.15521385 -0.9566741 -0.051375955 0.28659216 0.1773846
-0.47133976 0.071281776 0.15574431 0.96310318 -0.24044633 -0.12090428 0.20504813
-0.44546634 0.070461169 0.15673554 0.99938124 0.011505407 -0.033236824 0.18914302
0.18624556 0.077403218 0.15240704 -0.96481812 0.16506436 0.2046452 0.18775074
-0.4683055 0.085105255 0.15266818 0.921076 0.33267546 -0.20235138 0.23265547
-0.44168952 0.087228775 0.15665422 0.93484634 0.09489926 -0.34213513 0.25848848
0.21034029 0.087024599 0.15111157 -0.99440002 -0.061319388 0.086072542 0.17466749
-0.46685165 0.091637969 0.15244089 0.95996463 -0.26626736 -0.087003298 0.18967809
-0.43708184 0.099247426 0.15114501 0.87167537 -0.47971883 -0.1002589 0.2067042
0.20973164 0.091397226 0.1549219 -0.96972233 0.010248827 0.24399507 0.14127283
-0.46319547 0.10357558 0.15657488 0.92742604 -0.33077475 0.17455369 0.19709332
-0.43442187 0.10899489 0.15791641 0.8128472 -0.46264237 0.35389471 0.26312333
0.17850125 0.10320733 0.15326397 -0.97236288 -0.17504264 0.15450089 0.21090536
-0.45931199 0.11409445 0.15331051 0.97061872 -0.22989668 0.071041301 0.15392144
0.17560066 0.11342259 0.15918165 -0.68862945 -0.72353089 0.047882024 0.24945186
0.19990522 0.1191355 0.1506376 -0.92833036 -0.37171862 -0.0053006611 0.22828057
-0.45391744 0.12974447 0.15245388 0.90225607 -0.43014362 0.030175174 0.17786023
-0.42836726 0.12641224 0.15948746 0.76375437 -0.63934249 0.088996477 0.2354753
0.17124468 0.12465951 0.15547289 -0.66947144 -0.69756103 0.2553753 0.24635814
0.19766344 0.12672378 0.15412416 -0.92773408 -0.35893407 0.10235138 0.23179772
-0.45292738 0.13380641 0.15651114 0.87120646 -0.49088132 0.0058998014 0.15986003
-0.42204857 0.13923904 0.15955505 0.82687062 -0.56026238 0.048897315 0.17724073
0.1651262 0.13704187 0.15395606 -0.87824196 -0.35886189 0.31608388 0.21558581
-0.44711268 0.14495045 0.15271169 0.61279404 -0.57692492 -0.54003805 0.23408504
-0.42065406 0.14186466 0.15856931 0.81966281 -0.5692848 0.063779116 0.15292953
-0.41723546 0.14760055 0.15273815 0.8429836 -0.53681445 0.034769762 0.20333375
0.1589846 0.14947017 0.15383106 -0.91007191 -0.3983863 0.11426951 0.19889855
0.16023561 0.14669344 0.15266155 -0.85444742 -0.51087415 0.094483763 0.15246418
0.19129038 0.14201836 0.15440381 -0.82491887 -0.5649094 0.01965341 0.22518338
-0.4427461 0.15428314 0.15504238 0.85258764 -0.44357619 -0.27628687 0.25413641
-0.41454935 0.15398726 0.15731896 0.99077821 -0.098020494 0.093543984 0.21576744
0.15669073 0.15404153 0.15344028 -0.91893095 -0.31298268 0.24001618 0.19147502
0.18418169 0.15666512 0.15553355 -0.80649167 -0.43044117 0.40532887 0.25585386
-0.41069299 0.16054124 0.1511483 0.98942405 0.1196515 0.081996292 0.20642345
-0.40901315 0.16353969 0.15129717 0.94443524 -0.31276301 -0.10110143 0.21911196
0.14947924 0.16648446 0.15013528 -0.95276833 -0.20049478 0.22811042 0.23144226
0.1822098 0.1607834 0.15611683 -0.85851616 -0.1778537 0.48095542 0.26301649
-0.43430102 0.17150959 0.15553695 0.8602773 -0.48663393 -0.15202074 0.22835399
-0.4294194 0.17903906 0.15076658 0.97195512 -0.23494601 -0.010176402 0.20352972
0.14683405 0.17145532 0.15633178 -0.84014845 -0.49361891 0.22470161 0.20832396
0.17655253 0.17259452 0.15777066 0.53999293 0.18717903 -0.82059228 0.21874557
-0.42339119 0.18942815 0.15913823 0.84156734 -0.53861976 0.040660016 0.12298049
0.16823855 0.18527381 0.15465678 -0.73083228 -0.4211072 0.53717107 0.23540816
-0.39106071 0.19087696 0.15417227 0.55988616 -0.82220399 0.10250849 0.21854725
-0.38771161 0.19577539 0.15431845 0.38128915 -0.91972733 -0.093382441 0.19990316
0.12854701 0.19788811 0.15234065 -0.3013854 -0.92769182 0.22035132 0.24546231
0.13015738 0.19631997 0.15575767 -0.80054617 -0.5363853 0.26723927 0.25770751
0.16334987 0.19341591 0.15971236 -0.84481347 -0.34088877 -0.41241366 0.1905598
-0.41479486 0.20125897 0.15280443 0.60028023 -0.79628468 -0.07479506 0.16524348
-0.38317198 0.201846 0.15659153 0.9809444 -0.19263811 0.025269123 0.26890635
-0.37802279 0.20699237 0.15132248 0.92910779 -0.14833303 -0.33875647 0.24247491
0.11910408 0.20905866 0.1540799 -0.5420354 -0.82811397 0.1429151 0.25783908
0.15644446 0.2026757 0.15313095 -0.54221088 -0.53731173 0.64599031 0.16938126
-0.40379727 0.21675754 0.15342309 0.90957105 -0.40982571 -0.068726391 0.23040488
-0.37190944 0.21430859 0.15383136 0.96419173 -0.24082629 0.11107166 0.22639108
0.11219534 0.21705739 0.15495783 -0.69232047 -0.5448795 0.47307372 0.23927416
0.14757879 0.21567576 0.15567899 -0.82152188 -0.32998371 0.4649865 0.18339609
-0.39266533 0.22957861 0.15434961 0.8959142 -0.32606223 0.30169713 0.2274553
-0.35942107 0.22827074 0.15181026 0.66732597 -0.74448639 -0.020395337 0.23054658
0.10420229 0.22593516 0.15323898 -0.60141212 -0.7629711 0.23702021 0.18346527
0.13790849 0.22667891 0.15550658 -0.74548489 -0.66039395 0.090178207 0.15612486
0.14059007 0.22329688 0.15315038 -0.86173457 -0.4551366 0.22419688 0.22602937
-0.39199701 0.23076156 0.15740782 0.73292488 -0.67866576 0.047265019 0.21840528
-0.38523939 0.2379445 0.15361024 0.71849823 -0.67329204 -0.17446536 0.21887544
-0.353903 0.23356757 0.15312448 0.64402831 -0.76322788 0.052065611 0.15342449
0.09308286 0.23645383 0.15247396 -0.42647949 -0.90217602 -0.064758696 0.21811928
0.12791178 0.23822138 0.15654883 -0.53882962 -0.83698756 0.095469616 0.16279045
-0.37543592 0.249073 0.15564747 0.47419968 -0.8331579 0.28457448 0.16148356
-0.34224686 0.24424419 0.15689014 0.24479623 -0.87329066 0.42123419 0.20415823
-0.33984676 0.24566531 0.15122491 0.50420684 -0.8634252 -0.01650675 0.20058285
0.0795874 0.24890642 0.15758961 -0.68271232 -0.72927421 -0.045419108 0.21119058
0.085808612 0.24356985 0.15857798 -0.63562882 -0.77030277 -0.051085081 0.13124932
0.12199277 0.24436215 0.15212649 -0.59760505 -0.80159748 0.017600371 0.21456814
-0.36527628 0.25734162 0.15033509 0.57373816 -0.79358929 0.20258485 0.21074794
-0.3323184 0.25291827 0.15661715 0.61117423 -0.77179384 0.17550021 0.20306304
-0.32705113 0.25731757 0.15605332 0.78922999 -0.60974425 -0.072992876 0.18904911
0.066988535 0.25914115 0.15443185 -0.63012922 -0.77262998 0.077330433 0.23494639
0.074955888 0.25312203 0.15886448 -0.75034875 -0.66084152 0.016286489 0.1972805
-0.36002946 0.2628178 0.15758404 -0.28288382 -0.43121177 -0.85675746 0.25352514
-0.30941868 0.26881838 0.15120995 0.51421303 -0.85757446 -0.012288823 0.1573102
0.0536195 0.26795703 0.15335964 -0.47348174 -0.68547642 0.55311584 0.23862582
0.062831856 0.26187539 0.15403619 -0.52935886 -0.84837908 0.0056804302 0.20257796
0.096367858 0.26765025 0.15241176 -0.5730837 -0.66752881 0.47537395 0.23066549
0.1053225 0.26019198 0.15568246 -0.71056706 -0.70359546 0.0069173295 0.23892266
-0.34547114 0.27503237 0.15300429 0.71924573 -0.65878516 0.22065295 0.21484147
-0.30396694 0.27307788 0.15686128 0.41860682 -0.90501475 0.075608343 0.20509088
0.039497659 0.27721769 0.15175352 -0.36108363 -0.90924108 0.20712152 0.19404629
0.050297868 0.27071062 0.15825388 -0.48026374 -0.82850724 0.28796259 0.23753808
0.087475888 0.27554655 0.15322596 -0.55575866 -0.81625593 0.15766591 0.2480821
-0.33876464 0.28000355 0.15096243 0.68750149 -0.71443754 0.13007921 0.16776244
-0.32856452 0.28688774 0.15159178 0.6957047 -0.69712007 -0.17325854 0.25467804
-0.29078466 0.28130123 0.15193249 0.55456996 -0.81861836 -0.14938577 0.22093913
-0.28386918 0.28529748 0.15772419 0.4113605 -0.8929531 -0.18280385 0.20851733
-0.27480555 0.28903496 0.15048647 0.32395965 -0.94133657 0.094529331 0.243174
0.031976297 0.28253663 0.15747091 -0.68968952 -0.63523912 0.34756243 0.19585456
0.072909109 0.28606892 0.15501177 -0.55552107 -0.79131246 0.25538394 0.23575354
-0.32165176 0.29231334 0.15898296 -0.21406704 -0.96181309 0.17056011 0.25057906
-0.27250642 0.29090565 0.15776984 0.41784406 -0.90687156 -0.054682828 0.16011278
-0.26812583 0.29281315 0.15527159 0.21746251 -0.97601032 0.010667079 0.1518812
-0.25771338 0.29800636 0.15584876 0.54677415 -0.82781595 0.12553434 0.12930416
0.055130087 0.29791248 0.1546815 -0.52072012 -0.84663701 0.10980166 0.20313108
0.06317661 0.29304841 0.15937763 -0.25393909 -0.91582137 0.31110474 0.22187215
-0.30781627 0.30136856 0.15724796 0.66644162 -0.715518 0.20949852 0.22620828
-0.24717245 0.30205378 0.15334681 0.57538325 -0.72291332 0.38253146 0.22440283
-0.23310809 0.30687431 0.15383032 -0.19121261 -0.97675949 0.096843176 0.19907342
-0.22567505 0.30921733 0.15195039 0.22453314 -0.958794 0.17406574 0.20952897
-0.031230139 0.30931363 0.1548478 -0.24372371 -0.94890583 0.20044078 0.2260091
-0.024743848 0.30728671 0.156673 -0.69952995 -0.69904172 -0.14831917 0.2419502
-0.0065608677 0.30100217 0.15550128 -0.35320467 -0.90254444 0.24629241 0.27198362
0.043934647 0.30477294 0.1531274 -0.43235633 -0.83062834 0.35089111 0.20446377
-0.28553128 0.31280532 0.1552978 -0.24131249 -0.96018332 0.14077024 0.26672
-0.21284091 0.31384507 0.15572149 0.25438419 -0.95812976 0.13143839 0.1497502
-0.20513535 0.31554452 0.1565446 0.22716114 -0.96320415 0.14365104 0.12898839
-0.19100669 0.31821495 0.15503249 0.20107058 -0.92673862 0.31737381 0.25346625
-0.07738705 0.31992882 0.15000516 0.035550043 -0.98451352 -0.17166612 0.17183132
-0.066257581 0.31793374 0.15236893 0.099082097 -0.99504429 0.0083419187 0.18905072
-0.054816399 0.31610289 0.15717876 0.21758372 -0.97602415 -0.0058477465 0.21597399
0.014253604 0.31994215 0.15838693 -0.37390253 -0.92617548 -0.048949212 0.15556647
0.031036559 0.31143588 0.15611508 -0.60036761 -0.77453935 0.19911712 0.17863716
-0.26444781 0.32287526 0.15391766 0.46398786 -0.86973476 -0.16815698 0.14487934
-0.25442567 0.32689318 0.15584084 0.97982621 0.045039751 0.19470985 0.21439651
-0.18205686 0.32020515 0.15730166 -0.20812133 -0.97750831 -0.034104239 0.22823547
-0.17609818 0.32107025 0.15384132 -0.15452796 -0.93356186 0.32339367 0.25346616
-0.16550021 0.32257515 0.15545034 0.094273791 -0.81412369 0.57298785 0.23205978
-0.15650322 0.32295573 0.15315033 0.24215016 -0.94270593 0.22949667 0.18435876
-0.14312685 0.32387835 0.1536551 0.023899958 -0.95740998 0.28774104 0.16622548
-0.13931775 0.32467583 0.15967956 0.12198517 -0.81273448 0.56972122 0.21494068
-0.12559369 0.32455653 0.15298218 -0.16639231 -0.77134627 0.61427885 0.24229819
-0.118629 0.32398719 0.15174086 -0.1778661 -0.87327635 0.4535991 0.23852654
-0.10107686 0.32301921 0.15374738 -0.070170686 -0.83408755 0.54715079 0.20222501
-0.094466485 0.3229858 0.15814462 -0.21110119 -0.92225885 0.32384384 0.2332107
-0.089274347 0.32230198 0.15436709 -0.30998904 -0.77111793 0.55613291 0.23245303
-0.076436922 0.32060137 0.15931787 -0.3464267 -0.88769025 0.30330604 0.2114428
-0.012293774 0.32994521 0.15481694 -0.1450517 -0.9346571 -0.32461685 0.19923687
-0.0078468826 0.32845309 0.1549989 -0.10531614 -0.96742046 -0.23023069 0.16938302
0.0058986819 0.32355934 0.15341496 -0.3968724 -0.91776371 0.014214324 0.18583892
0.01219251 0.3207716 0.15653902 -0.34009066 -0.94039172 -0.0013779576 0.11948825
-0.24273849 0.3306126 0.15325402 0.27197999 -0.90162623 0.33629912 0.26684299
-0.043756269 0.33970505 0.15365252 -0.17055655 -0.98520374 -0.016852686 0.13810147
-0.030188827 0.3356317 0.15076697 -0.39672795 -0.91728985 -0.034442417 0.16056858
-0.20855843 0.34080338 0.15450603 0.55966073 -0.82618624 0.064778484 0.24588501
-0.1963065 0.34307587 0.15272686 0.21286878 -0.97310543 -0.088049367 0.26170734
-0.18384409 0.34553337 0.15249573 -0.5572567 -0.81608111 -0.15322056 0.24468939
-0.1759901 0.34728888 0.15470418 0.00060350203 -0.99756938 0.069676667 0.24583285
-0.15368795 0.34904248 0.15558003 -0.17553522 -0.81283194 0.55542022 0.23680335
-0.1459671 0.34962165 0.1563843 0.013153003 -0.71159929 0.70246238 0.20159847
-0.13881402 0.34980631 0.15325862 0.22745745 -0.55016112 0.80348355 0.16001675
-0.10206844 0.34858608 0.15177429 -0.26712486 -0.90921724 0.31932455 0.23997957
-0.095478758 0.34818539 0.15211742 -0.08653003 -0.987993 0.12799394 0.23545575
-0.08663246 0.34810793 0.15764219 -0.083595894 -0.91619909 0.39190692 0.251793
-0.077295184 0.34661487 0.15623063 0.14727694 -0.73868614 0.657763 0.21408799
-0.052727349 0.34143829 0.15309872 0.018594852 -0.99111062 0.13173436 0.20538133
-0.046647776 0.34071958 0.1584013 0.36523962 -0.90758526 -0.20709637 0.1849722
-0.12720329 0.3505033 0.15474059 0.4368476 -0.7254591 0.53185833 0.20636374
-0.11756444 0.35001031 0.156267 0.23402919 -0.83448541 0.49886331 0.23712164
-0.14353532 -0.35076195 0.1671713 0.14681339 0.98769182 -0.053950954 0.21585675
-0.13438067 -0.35107529 0.16401821 -0.14870569 0.98885703 -0.0069574863 0.15707545
-0.12332884 -0.35136133 0.16696936 -0.19477943 0.97464585 -0.11012032 0.23655501
-0.10625435 -0.35034993 0.16815388 -0.28210136 0.9415161 0.18429936 0.23437923
-0.19608992 -0.34436941 0.16624317 0.22800259 0.97132659 0.067375615 0.20426171
-0.17565383 -0.34851497 0.16711396 0.0067328489 0.99873179 0.049894128 0.17087978
-0.16273773 -0.34888113 0.16032808 0.27897862 0.95355386 0.11360474 0.20356904
-0.15468682 -0.34957349 0.16213927 0.15958157 0.98272628 -0.093717054 0.1920877
-0.0956439 -0.34951058 0.16657162 -0.3413637 0.89815855 0.27709568 0.26604524
-0.082658626 -0.34838235 0.16380329 -0.14306228 0.98099393 0.13108832 0.1836001
-0.075141788 -0.34667623 0.1615231 -0.1351445 0.98970449 -0.047126718 0.18626297
-0.062540367 -0.34491014 0.16952735 -0.12608519 0.98899102 0.07745453 0.13740437
-0.055686004 -0.3429507 0.16308481 -0.29626411 0.94639248 0.12872033 0.13266554
-0.24036857 -0.33269024 0.16654122 0.80787212 0.041507635 0.58789432 0.17872211
-0.23479456 -0.33439088 0.16454276 0.72799206 0.34505534 0.5924226 0.19978133
-0.22622795 -0.3374511 0.16613114 0.31336856 0.92052841 -0.23329698 0.22341195
-0.21827805 -0.3395223 0.1615565 0.30772191 0.95088995 -0.033399049 0.21928726
-0.032968812 -0.3382358 0.16809538 -0.12342641 0.98517972 0.11910869 0.23305835
-0.028782165 -0.3366645 0.16652849 -0.51656425 0.85164708 0.088649504 0.23976479
-0.017070109 -0.33260074 0.16560969 -0.38565144 0.92263466 -0.0042726407 0.24905612
-0.2541866 -0.32802081 0.16676159 0.59374666 0.74802113 0.29652867 0.1911902
-0.18396839 -0.32018608 0.16120496 0.25696006 0.96636754 -0.010262772 0.17084607
-0.17320907 -0.32286555 0.16703458 0.36623472 0.92289954 -0.11886398 0.22444744
-0.160459 -0.32411239 0.16872133 0.29659879 0.94644517 -0.1275562 0.20568463
-0.15505376 -0.32448825 0.16895896 0.10890424 0.98053372 -0.16338152 0.21632032
-0.14845812 -0.32447213 0.1640276 -0.011227341 0.99611354 0.087360315 0.20998913
-0.1346897 -0.32545066 0.16486454 0.15543863 0.91147661 0.38085335 0.24351576
-0.12079339 -0.32500395 0.16136207 -0.38998136 0.75721622 0.52396393 0.24985598
-0.11901367 -0.32480529 0.1604601 -0.18046619 0.92415142 0.3367137 0.24207391
-0.10588488 -0.32463792 0.16808252 0.015609826 0.9988147 0.0461041 0.18464801
-0.098213874 -0.32361406 0.16235235 0.21273993 0.95101196 0.22431675 0.23520112
-0.077585898 -0.32142857 0.16578805 0.077620238 0.99470288 -0.067389585 0.2368387
-0.29136679 -0.31117511 0.16762851 0.81289285 -0.34469196 0.46946004 0.25379255
-0.28814179 -0.31222898 0.16232532 -0.53898925 0.80418581 -0.25055116 0.2288247
-0.27393013 -0.31979698 0.16785617 0.021729482 0.98870999 0.14825782 0.27491626
-0.22374298 -0.31096983 0.16339482 0.27007905 0.87750971 0.39627516 0.20999831
-0.20633775 -0.31566256 0.1604059 0.239208 0.96678144 -0.090073138 0.15851097
-0.19706947 -0.3176443 0.1618994 0.30189574 0.94776595 0.10295033 0.16402531
-0.060769357 -0.31817663 0.1667944 -0.36691034 0.92914087 0.045540139 0.17619382
-0.052366905 -0.31600884 0.1614285 -0.42783794 0.88732702 -0.17206238 0.1638716
-0.04687202 -0.31525242 0.16506676 -0.87607926 0.47968566 0.048854206 0.22875147
-0.035030112 -0.31146735 0.16386236 -0.37218603 0.87381887 0.31291881 0.25051159
0.017191041 -0.3194595 0.16793467 -0.47404701 0.79646742 0.37539193 0.2251128
0.025868589 -0.31503472 0.16649656 -0.46831429 0.83420795 0.29116794 0.19581319
-0.30581719 -0.30338031 0.16547 0.58825278 0.80377197 0.088934273 0.19316427
-0.25130224 -0.30177563 0.16507393 0.34551972 0.91300529 0.21688123 0.10748965
-0.22954789 -0.30901238 0.16353072 0.31591475 0.92974347 0.18914253 0.19447173
-0.026667688 -0.30849224 0.16243842 -0.42183429 0.89343441 0.15437247 0.21161067
-0.011963414 -0.30365938 0.16409345 -0.38562566 0.92029285 0.065985009 0.11129278
-0.0018034342 -0.30007362 0.16615622 -0.27740523 0.94095224 0.19404918 0.19080292
0.036713094 -0.30944705 0.16412663 -0.58098471 0.77982861 0.23307529 0.25173441
0.046676651 -0.3043938 0.16450647 -0.76393902 -0.15734132 -0.62581223 0.27518436
-0.32587191 -0.29015592 0.16505326 0.49319783 0.86169028 0.11935548 0.21046889
-0.27275527 -0.29115674 0.16146521 0.2818976 0.92659771 0.24889843 0.197317
-0.26688188 -0.29454118 0.16628852 0.25617841 0.91286027 0.31789738 0.2112769
0.0060051861 -0.2962108 0.16603717 -0.41060209 0.80354315 0.43095747 0.19754705
0.016509304 -0.2908009 0.16376522 -0.588642 0.75215316 0.29625341 0.15448123
0.056685541 -0.2977246 0.16248374 -0.22271711 0.97367311 -0.048556458 0.21931891
-0.29274869 -0.28145602 0.16494645 0.57389826 0.72678202 0.37739718 0.19329572
-0.2863934 -0.28492668 0.16636267 0.46943423 0.74442327 0.47483209 0.22777636
0.024686927 -0.28673875 0.16347468 -0.43434027 0.88656157 0.15923895 0.15902467
0.033876829 -0.28205925 0.16364168 -0.50173354 0.84122014 0.20152465 0.23113558
0.06885612 -0.28967243 0.16321637 -0.56433868 0.8227154 0.068272725 0.24175064
0.075532705 -0.28509402 0.16214225 -0.51080734 0.8596909 -0.0027202878 0.22447553
-0.35242042 -0.27077872 0.16825588 0.59551722 0.7947244 0.11735544 0.15102874
-0.34905416 -0.27294916 0.1617786 0.61714655 0.77083641 0.15792862 0.15099625
-0.30167052 -0.27553004 0.16527116 0.40710413 0.90340328 0.13464285 0.20198062
0.044561896 -0.27559853 0.16792396 -0.40466183 0.90590519 0.12483826 0.21093935
0.050449267 -0.27167737 0.1680399 -0.26374358 0.96454954 -0.0091352277 0.2324284
0.086935587 -0.27749157 0.16541591 -0.52246934 0.85235739 -0.022641504 0.16746405
0.094429232 -0.27106395 0.16660996 -0.63456249 0.76762223 0.089925542 0.19123051
-0.31582966 -0.26613668 0.16588891 0.64981121 0.75693923 0.069198698 0.20368609
0.056785483 -0.26713392 0.16520159 -0.22833991 0.96802348 0.10388193 0.19507571
0.060489729 -0.26454794 0.16418564 -0.020658147 0.65363801 0.75652528 0.25228155
0.098822497 -0.26656622 0.16126625 -0.70625395 0.68478119 0.17966649 0.25656414
0.10238434 -0.2634756 0.1615399 -0.75011933 0.6298157 -0.2016262 0.23519605
0.071764089 -0.25692654 0.16719493 -0.65842462 0.7520299 -0.030464536 0.22766338
0.11505026 -0.25230089 0.16098453 -0.75848508 0.58000904 -0.29713649 0.20150982
-0.38405609 -0.24092823 0.16548657 0.19430698 0.94127953 0.27611181 0.25283596
-0.37733546 -0.24839829 0.1640819 0.70612901 0.65346724 0.2726948 0.22478394
-0.3432065 -0.24432006 0.16449204 0.75348711 0.65746254 -0.00028033051 0.19889399
0.084255397 -0.24579604 0.16573726 -0.80242151 0.36729801 0.47033176 0.25329047
-0.39143926 -0.23181883 0.16046903 0.63739765 0.674137 0.37318045 0.22914596
-0.38517272 -0.238985 0.16061842 0.26694635 0.82260644 0.50205415 0.24796192
-0.35337111 -0.23503466 0.16141599 0.83265179 0.52877873 0.1645724 0.15159111
0.096237294 -0.2355729 0.1680963 -0.74392235 0.66820723 0.0088574328 0.18007053
-0.39750251 -0.2252384 0.16289149 0.7366026 0.59657937 0.31860566 0.22362415
-0.36422384 -0.22466561 0.16540904 0.50270224 0.86053294 0.082302295 0.22626407
0.10472596 -0.22708172 0.16590959 -0.85220069 0.52318108 -0.0059550288 0.20009686
0.110154 -0.22129624 0.16884521 -0.72437841 0.68923157 0.015354852 0.19011237
-0.40903905 -0.21245742 0.16862696 0.77991879 0.61445159 0.11906303 0.097378932
-0.372307 -0.2150555 0.16255282 0.75386995 0.33147871 0.56727594 0.21542239
0.11622644 -0.21349923 0.16250375 -0.83493179 0.54227084 0.093974486 0.18013604
0.14791736 -0.21650615 0.16451804 -0.8092553 0.56829804 0.14880572 0.18358099
0.15164781 -0.21105826 0.16050182 -0.87597489 0.43171078 0.2151598 0.21755828
-0.41432157 -0.2041406 0.16611078 0.76965296 0.57744455 0.2723825 0.12178638
-0.37911019 -0.2077471 0.16581659 0.78134656 0.52966481 0.33007979 0.21479066
0.12691943 -0.20139396 0.16314135 -0.86240429 0.43708608 0.25537124 0.23221184
0.15632284 -0.20459738 0.16378233 -0.70819831 0.60459042 0.36458957 0.23935397
-0.42279437 -0.19153783 0.16658624 0.85585707 0.48381776 0.18283576 0.1606034
0.12921897 -0.19932984 0.16719607 -0.77422673 0.55669796 0.3010987 0.2405701
0.13447636 -0.19156127 0.16619781 -0.92779183 0.11137708 0.35608637 0.25253609
0.16176492 -0.19666839 0.16510293 -0.80033314 0.58515561 -0.13061279 0.25711533
-0.4276869 -0.18429831 0.16709247 0.86195016 0.50694305 0.0071200379 0.18602264
-0.39427197 -0.18736765 0.16211183 0.61812627 0.73900223 0.26794711 0.20062542
0.1378952 -0.18612239 0.16422501 -0.91733062 0.35916692 0.17176612 0.22685696
0.16959453 -0.18509005 0.16595685 -0.88819945 0.45819381 -0.034061573 0.24524954
0.17168117 -0.18182087 0.16506107 -0.77569717 0.63054305 0.026633449 0.22041129
-0.43217638 -0.17722762 0.1656812 0.67202073 0.55981034 0.48476857 0.22002217
-0.40253294 -0.17581345 0.16706669 0.84235615 0.52968895 0.099326752 0.24420765
0.14291397 -0.17897558 0.16645554 -0.37500632 0.85417187 0.36022305 0.23836273
-0.43676484 -0.16776587 0.16164157 0.9487679 0.31503618 0.024325525 0.18218239
-0.40678844 -0.16920638 0.16560739 0.98276681 0.11138365 0.14752316 0.21400347
0.14960793 -0.16909996 0.16732875 -0.14265782 0.81140405 0.56680882 0.19400226
0.15174305 -0.16503282 0.16199142 -0.43090278 0.65975398 0.61566824 0.23847529
-0.44185001 -0.1574062 0.16140807 0.93521094 -0.13721427 -0.32642427 0.19937631
-0.41582242 -0.15288624 0.1645354 0.90938824 0.39468956 -0.13127562 0.22523825
0.18557826 -0.15587023 0.16546282 -0.93456614 0.35334679 0.041620128 0.16208883
-0.45035675 -0.14180797 0.16945931 0.57271928 0.43769124 -0.69312268 0.19048798
-0.44778818 -0.14561531 0.16262922 0.94120049 0.054652475 -0.33339876 0.26362565
-0.41890043 -0.14686748 0.16562176 0.83714366 0.49135783 -0.24032886 0.22972788
0.18958248 -0.14854743 0.16934736 -0.79159737 -0.60189629 0.10533023 0.2627295
0.19272685 -0.14170456 0.16707231 -0.99030298 -0.11966413 -0.070572235 0.26232177
-0.42421341 -0.13599139 0.1651222 0.95122027 0.17401676 -0.25475091 0.23988315
0.16824622 -0.13297677 0.16498019 0.528943 0.77794367 -0.33915022 0.17220339
0.19687681 -0.13330509 0.16922912 -0.87176174 0.48186225 -0.088545188 0.20076561
-0.45778918 -0.12213954 0.16591848 0.8208968 0.51371819 -0.24944362 0.18751337
-0.43005866 -0.1251165 0.16989011 0.89157325 0.44791117 0.066878416 0.18835756
-0.42772669 -0.1292024 0.16675623 0.87733334 0.47888052 -0.030977018 0.2200872
0.19920239 -0.12619773 0.16832063 -0.90405279 0.42299917 -0.061320614 0.13082796
-0.45988715 -0.11661501 0.16824129 0.95084888 0.3068682 -0.041453131 0.24848996
0.20335814 -0.11293572 0.16470921 -0.82492834 0.51960033 0.22250552 0.25797129
-0.46370691 -0.10530068 0.16802344 0.91667336 0.37936786 0.12565777 0.25943813
-0.43700162 -0.10397104 0.1670415 0.89632452 0.43392104 0.091186561 0.22579792
0.17885016 -0.10431778 0.16083916 -0.88714468 0.21299776 0.40939742 0.26581082
0.18040815 -0.10182542 0.16826884 -0.1285347 0.90546006 0.40450081 0.22257771
0.20546919 -0.10604201 0.16231853 -0.94178897 0.29480913 0.16161983 0.27173412
-0.46690723 -0.095226638 0.16623342 0.94433028 0.30151215 0.13164614 0.19018508
-0.44108787 -0.091912501 0.16696762 0.55566418 0.66525072 -0.49867696 0.24738821
0.18254437 -0.094650306 0.16514429 0.07952974 0.92017281 -0.38334972 0.29208624
0.208526 -0.097632043 0.1644268 -0.86972451 0.48079249 -0.11143521 0.20979452
-0.46942908 -0.085146621 0.16490138 0.95852107 0.27279559 0.082582563 0.21000668
0.18463273 -0.088921726 0.16664466 -0.98314536 -0.044304609 0.17737629 0.25110602
0.21130142 -0.087520868 0.16256735 -0.96176684 0.25627622 0.096576571 0.20616414
-0.4737373 -0.064569041 0.16722628 0.97610587 0.019260464 -0.2164401 0.19396272
-0.44754624 -0.065500639 0.16855201 0.85198474 0.34842214 0.39079911 0.28595093
0.21676016 -0.060081895 0.16257609 -0.88273102 0.25452805 0.39497 0.1855163
-0.47580943 -0.054487001 0.16794711 0.983895 0.038833823 -0.17447796 0.20227875
0.19320841 -0.050009333 0.16877066 -0.78649533 -0.22136514 0.57656097 0.23223595
0.21696033 -0.059365768 0.16320008 -0.95207036 0.18614322 0.24271961 0.17209187
-0.47753423 -0.044153821 0.16690134 0.90599209 0.18905041 -0.37873235 0.22205065
-0.4507404 -0.049609646 0.16891116 0.34432876 0.63979262 0.68709761 0.27224809
0.46927285 -0.041211717 0.16633943 -0.53301907 -0.84295475 -0.072923996 0.10486348
0.47793496 -0.043189194 0.16170691 0.029152391 0.99950141 -0.012125799 0.1537818
0.48198345 -0.043165557 0.16406274 -0.25016803 0.96805942 0.016639985 0.16750868
-0.47767517 -0.037436441 0.16360962 0.94821727 0.056088354 0.3126311 0.15228222
-0.45179716 -0.036310937 0.16063552 0.98408329 -0.025997076 0.17579623 0.23095883
0.22053859 -0.032710198 0.16353403 -0.99787068 -0.027022988 0.059362706 0.19741525
0.46715635 -0.036840141 0.16369997 -0.71807986 -0.69592071 0.007463193 0.10795139
0.4924109 -0.03503387 0.16718329 -0.70611155 0.70810062 8.1306956e-05 0.085335359
-0.47853589 -0.021355236 0.16148412 0.98668134 0.096054867 0.13127564 0.21024881
-0.45294443 -0.023539133 0.16404648 0.9840585 0.16544271 0.065250531 0.26184016
0.19533283 -0.029425025 0.16639584 -0.91521376 -0.25576231 0.31139919 0.21663384
0.46373373 -0.024443585 0.16866764 -0.97390574 -0.22524646 -0.027777947 0.082946651
0.49493089 -0.02298593 0.1652029 -0.96653563 0.24031132 -0.089773826 0.034693826
-0.47946203 -0.014310573 0.16659114 0.98415422 0.16191584 -0.072275102 0.26224762
-0.45342538 -0.015424818 0.16348648 0.31103161 0.76900524 -0.55847144 0.24911426
0.2223046 -0.01471425 0.16998354 -0.97065806 -0.18594629 0.15246932 0.15908395
0.46365452 -0.011383158 0.16255181 -0.99247873 0.058109242 -0.10774618 0.069154851
0.49589691 -0.014576575 0.16264758 -0.96001357 -0.20315354 -0.19262013 0.074474074
-0.48029837 -0.0051578796 0.16919151 0.98120397 0.15782523 -0.11104005 0.22075318
-0.47977272 -0.0041969256 0.16271798 0.98671931 0.049470048 0.15471816 0.20260729
0.19676831 -0.0051871603 0.16471145 -0.9553194 -0.026621185 0.29437417 0.15722375
0.22249267 -0.0098320702 0.16853249 -0.97816372 -0.1700955 0.11942896 0.18591347
0.46332756 -0.0061658495 0.16374558 -0.99303985 0.11672977 -0.015683308 0.095921606
0.47554976 -1.0440367e-08 0.16550693 -0.24400108 0.96058226 0.13321196 0.23719354
0.48463741 -1.0440367e-08 0.1651457 -0.095169701 -0.99418366 0.050414249 0.22693428
0.49578571 -0.0041653113 0.16366009 -0.99096406 -0.08680018 -0.10225481 0.094682381
-0.47993124 0.0094935708 0.16827856 0.97252595 -0.13834667 0.18722534 0.24863662
-0.45456389 0.00099543785 0.16560635 0.76976377 -0.043637641 0.63683552 0.24327703
0.19701457 0.0035440489 0.16623543 -0.96353292 0.1649379 0.21071269 0.23043372
0.46322748 0.0024649396 0.16399732 -0.99926358 -0.0080044242 0.037525661 0.091675155
0.49530867 0.0098143239 0.16878738 -0.98308951 0.064041696 -0.17156249 0.082476147
-0.47936967 0.013806954 0.16521245 0.97663981 -0.16660129 0.13571566 0.19785281
-0.4536584 0.017263845 0.16737455 0.94011259 -0.22569636 -0.25543979 0.25867778
0.19617014 0.015265326 0.16539778 -0.99945188 0.00058787712 -0.033099785 0.23477817
0.22155194 0.018204361 0.16422206 -0.87686354 0.3191385 0.35952881 0.24132264
0.4641251 0.018532492 0.16192144 -0.99558491 -0.011980967 -0.093096934 0.063116707
0.4951984 0.018017961 0.16638459 -0.98318005 0.027346849 -0.18057978 0.064138606
-0.47817454 0.027726516 0.16210221 0.98521662 0.12361063 0.11861112 0.24643852
-0.45316732 0.022689372 0.16588502 0.88662893 -0.25338942 0.38688883 0.26376182
0.22082302 0.026313737 0.16205111 -0.99218839 -0.047827784 0.11521544 0.20467372
0.4646371 0.026034739 0.16315669 -0.93016803 0.33436921 -0.15160698 0.0929856
-0.47812185 0.034402438 0.16633497 0.92559528 0.21380353 0.31234828 0.26374114
-0.45205459 0.032597035 0.16078937 0.84749699 0.28700528 0.44651625 0.25309899
0.2203664 0.034637254 0.16302943 -0.98167038 -0.18973938 -0.017952356 0.1995014
0.46685642 0.035012145 0.16218062 -0.67091864 0.73350412 -0.10881088 0.08817704
0.49039501 0.039366927 0.16805798 -0.50884002 -0.85867035 0.061376236 0.15039641
-0.4774403 0.043548711 0.16543216 0.93006992 -0.26588586 0.25352439 0.20292501
-0.45094916 0.046091814 0.16360441 0.95532131 -0.29330534 0.036511075 0.18403634
0.19302638 0.047519639 0.16145033 -0.97142667 0.19949341 0.12857883 0.25804415
0.2193161 0.04846517 0.16522676 -0.92112219 -0.37910432 -0.088396393 0.23719551
0.48710853 0.041504301 0.16421133 -0.076063558 -0.99710059 0.002172013 0.13870303
-0.44977707 0.051776879 0.16315843 0.90019345 -0.31268689 0.30311504 0.19890127
0.19193734 0.053833093 0.16325286 -0.86672169 -0.29692987 0.40078193 0.23931688
0.21759954 0.056636378 0.16424108 -0.71937484 0.15952413 -0.67605615 0.24152368
-0.44652516 0.069022879 0.16508824 0.86803997 -0.31025288 0.38762072 0.22320218
0.21525258 0.068914026 0.16527 -0.9813835 -0.142597 -0.12865646 0.19112737
-0.4455131 0.073567837 0.16392083 0.90663898 -0.087852173 0.41265956 0.22236374
0.18774499 0.073888481 0.16105765 -0.99608064 0.072939828 0.050032072 0.21846336
-0.46909055 0.086252548 0.16362004 0.94704068 0.28490651 0.14812903 0.21593547
-0.44310418 0.085009925 0.16355725 0.94791543 -0.012117372 0.31829134 0.27155986
0.18656029 0.080874756 0.16327287 -0.99245858 -0.090691984 0.082466528 0.23501505
0.21212235 0.085659027 0.16743791 -0.93871003 -0.24952699 0.23782304 0.17844537
-0.46735299 0.092746295 0.1615992 0.98271853 -0.17891225 0.047484126 0.17963645
-0.43956232 0.095147736 0.1625078 0.89991415 -0.30023345 0.31625053 0.25516218
0.20951299 0.096221626 0.16973054 -0.98365623 -0.17947565 0.014454632 0.16738176
-0.46352714 0.10438908 0.16291788 0.76291341 -0.3695299 0.5304817 0.25360861
0.17802043 0.10890289 0.16842301 -0.9012022 -0.42927727 0.059629317 0.22854075
0.20517072 0.10803792 0.16627443 -0.93268144 -0.35616708 0.057012293 0.10902009
-0.46179977 0.1108803 0.16788666 0.93735427 -0.26168907 0.22996937 0.17532772
-0.45874488 0.11901446 0.16482151 -0.20569533 -0.12724671 -0.97030807 0.23625675
-0.43491518 0.11018641 0.1672855 0.8474887 -0.51600724 0.12449659 0.21144591
0.17512846 0.11636803 0.16468808 -0.59995043 -0.78885204 -0.13331144 0.24245884
0.20266926 0.1139084 0.1609658 -0.88536292 -0.42362151 0.19151302 0.1730089
-0.45614478 0.12700576 0.16599573 0.54090083 -0.094087161 0.83580738 0.24561763
-0.43092254 0.12143045 0.16545084 0.83396864 -0.55124927 0.024910798 0.21093738
-0.42995757 0.12421911 0.16525945 0.77696306 -0.61320513 -0.14250559 0.24300405
0.17028338 0.12785821 0.16016608 -0.82468873 -0.54861617 -0.13750957 0.24253778
0.19802858 0.12866274 0.1648034 -0.72065842 -0.19445349 0.66546172 0.26094455
-0.45307273 0.13476026 0.16195148 0.81548065 -0.57197696 -0.088508613 0.19198127
-0.42567 0.13229799 0.16151682 0.84068769 -0.47144166 -0.26643386 0.2628791
0.16926967 0.13097955 0.16536106 -0.78234828 -0.56554466 0.26094168 0.23528619
0.19377163 0.13864362 0.16247925 -0.87682724 -0.47788614 -0.052903082 0.23973468
-0.4472197 0.14713436 0.16441435 0.86702621 -0.49817708 0.0092370687 0.25879508
-0.42028219 0.14456992 0.16807988 0.89842945 -0.43550181 0.056237906 0.15462185
-0.41926208 0.14572236 0.16361479 0.87777346 -0.42742321 0.21638644 0.21083757
0.16336444 0.14263889 0.16382435 -0.78181481 -0.58374023 -0.21911801 0.22359563
0.18948688 0.14821704 0.16679196 -0.9250682 -0.25690651 0.27972826 0.20774907
-0.44542694 0.15168092 0.16885632 0.72479129 -0.63954306 0.25624618 0.22292025
-0.41601494 0.15312409 0.16759765 0.89428377 -0.41106877 0.17685859 0.23861587
0.18623011 0.15485154 0.16694027 -0.79013389 -0.43063438 -0.43616787 0.25755158
-0.43709809 0.16788363 0.16551 0.99011731 -0.11712311 -0.077135615 0.22775666
-0.40934932 0.16517854 0.16441225 0.96410376 -0.26254866 0.039650079 0.21963245
0.14966136 0.16844445 0.16380486 -0.97037411 -0.2415608 0.0047342535 0.19346684
-0.43572861 0.1706527 0.1654712 0.96983659 -0.24332397 0.014504222 0.19536959
-0.40303838 0.17413521 0.16142234 0.88665342 -0.45924252 -0.054240581 0.19058788
0.17610478 0.17426266 0.16265638 -0.86119837 -0.50676674 0.039049305 0.17854664
-0.42814404 0.18307242 0.16377591 0.90312225 -0.42836639 0.029536679 0.13964029
-0.39633667 0.18500039 0.16653723 0.69031608 -0.57292253 -0.44184098 0.19338436
0.16785663 0.18827929 0.16955914 -0.84997308 -0.50813717 0.13907678 0.23659497
-0.42113847 0.19410306 0.16711886 0.61218661 -0.78367507 0.10526643 0.19241473
-0.41903964 0.19692543 0.16516769 0.8149901 -0.57642007 -0.059422977 0.17591561
-0.38853234 0.1960333 0.16257513 0.39473873 -0.79914021 -0.45338306 0.20424482
0.12987563 0.1987758 0.16861114 -0.91919416 -0.25034654 0.30398789 0.22289197
0.16266969 0.195066 0.16358265 -0.93789393 -0.2503351 -0.24018195 0.19891232
-0.38370419 0.20261428 0.16658443 0.81003767 -0.55366969 0.19310294 0.21798624
-0.37857571 0.20849907 0.16685224 0.92748547 -0.17010869 -0.33291703 0.22114526
