# .PCD v0.7 - Point Cloud Data file format
VERSION 0.7
FIELDS x y z normal_x normal_y normal_z curvature
SIZE 4 4 4 4 4 4 4
TYPE F F F F F F F
COUNT 1 1 1 1 1 1 1
WIDTH 591
HEIGHT 1
VIEWPOINT 0 0 0 1 0 0 0
POINTS 591
DATA ascii
-0.021657085 -0.21177182 -0.20158207 -0.59788275 -0.079315692 0.79764986 0.00027322464
-0.42258373 -0.20941581 -0.20101704 0.79056621 0.080105446 0.60711467 0.00010457087
-0.41836461 -0.20439066 -0.2071142 0.78918636 0.070849381 0.61005348 3.0884319e-05
-0.28442201 -0.20991591 -0.20405586 0.55395263 -0.062402062 0.83020622 0.00084893458
-0.2791999 -0.20682181 -0.2078483 0.53586626 -0.050153062 0.84281188 0.00070961635
-0.026364446 -0.20287073 -0.20452055 -0.57174861 -0.077690572 0.81674218 0.0014979454
0.10981236 -0.20500776 -0.20584518 -0.79358393 0.077099562 0.60355633 6.2172359e-05
-0.023908654 -0.19298974 -0.20195077 -0.57502955 -0.064717345 0.81556892 0.0013151182
-0.42170134 -0.18439378 -0.20458713 0.79199767 0.054863971 0.60805398 0
-0.28296965 -0.18878153 -0.20370421 0.55361021 -0.057062358 0.83081865 0.0013909488
-0.27760017 -0.18303423 -0.20726372 0.5115425 -0.063984901 0.85687232 0.0023922573
-0.023415901 -0.18517905 -0.20103088 -0.56921685 -0.059380163 0.82004035 0.0012804271
0.11244716 -0.1840573 -0.20423919 -0.79223466 0.053111114 0.6079008 8.4607482e-06
-0.42052847 -0.17785192 -0.20668623 0.79221606 0.053311866 0.60790747 0
-0.28606293 -0.17431688 -0.20032725 0.57160211 -0.060929723 0.81826562 0.0012002006
-0.27339375 -0.17448485 -0.20941025 0.489207 -0.04951356 0.8707611 0.0030067
-0.029211223 -0.17869264 -0.2050278 -0.5196085 -0.071304224 0.85142392 0.0019974667
0.11542631 -0.17721215 -0.20095392 -0.79222465 0.053120833 0.60791302 8.7901599e-06
-0.42494708 -0.16729562 -0.2018486 0.7922653 0.05290528 0.60787892 3.3891421e-05
-0.41998959 -0.16574016 -0.20844489 0.79224819 0.052970942 0.60789543 0
-0.28137076 -0.16402954 -0.20321411 0.551588 -0.060129676 0.83194655 0.0017339913
-0.27559146 -0.16855985 -0.20730555 0.4896329 -0.047395989 0.87063956 0.0028182797
-0.029220855 -0.1674774 -0.20425725 -0.52975309 -0.055656254 0.84632391 0.001144686
0.11353782 -0.16241495 -0.20470592 -0.79224616 0.053021051 0.60789371 2.0605768e-05
-0.42243788 -0.15545517 -0.20615137 0.792184 0.052996136 0.60797691 6.4581174e-05
-0.27826309 -0.15228093 -0.20478377 0.51032639 -0.056049507 0.85815233 0.002097185
-0.025564037 -0.15238318 -0.20040426 -0.55655158 -0.051161949 0.82923633 0.0012107865
0.11306074 -0.15721023 -0.20578168 -0.79225755 0.0530238 0.60787863 2.1760725e-05
-0.42366785 -0.14183006 -0.20573691 0.79221714 0.053078532 0.60792655 1.0454557e-05
-0.27565864 -0.14559114 -0.20623232 0.49647036 -0.050989598 0.8665548 0.0024595789
-0.026961444 -0.14120407 -0.20070106 -0.55066061 -0.050758157 0.83318454 0.0017335457
-0.27667952 -0.13512151 -0.20480859 0.53810596 -0.043668114 0.84174526 0.0018720482
-0.034567185 -0.13379192 -0.20582834 -0.53487939 -0.038802989 0.84403694 0.0013636006
-0.028378187 -0.13440381 -0.20131643 -0.54270989 -0.045461074 0.83868903 0.0016337368
0.11509013 -0.13526283 -0.20505126 -0.7922104 0.053045746 0.60793823 0
-0.42282674 -0.12567246 -0.20824248 0.79231274 0.052961133 0.60781217 3.6829504e-05
-0.28140002 -0.12530991 -0.20050579 0.57195485 -0.053131443 0.81856263 0.001074367
-0.27535173 -0.12268835 -0.20480716 0.54535055 -0.050889626 0.83666182 0.0013660475
-0.26775005 -0.12308317 -0.20868604 0.46019402 -0.050757229 0.88636625 0.0019304939
-0.043502979 -0.12370169 -0.20943078 -0.44784412 -0.043366786 0.89305931 0.0014323562
-0.028322153 -0.12842622 -0.2008588 -0.54315704 -0.036372539 0.83884293 0.0015409496
0.11221614 -0.12168711 -0.20998091 -0.79326946 0.050466917 0.60677558 3.6160731e-05
-0.42774761 -0.11802338 -0.20249672 0.79229373 0.045207776 0.60846269 0.00011933877
-0.27261767 -0.11979496 -0.20647395 0.49991405 -0.056473948 0.86423177 0.0022774853
-0.045498099 -0.11641305 -0.20982306 -0.44790238 -0.039131988 0.89322573 0.0013698316
-0.038894586 -0.11556183 -0.20703708 -0.46505952 -0.033264272 0.88465428 0.0018594059
0.11591658 -0.11341558 -0.20587981 -0.79081577 0.042452689 0.61058015 5.0925133e-05
-0.42672038 -0.10955767 -0.20457388 0.79284161 0.039289434 0.60816002 9.8869539e-05
-0.28026569 -0.10830762 -0.20029846 0.54510874 -0.054221578 0.83661008 0.0013392473
-0.27983952 -0.10319782 -0.20050946 0.53670949 -0.040587794 0.84279037 0.0018657906
-0.26509306 -0.10735592 -0.20897524 0.43886968 -0.032733239 0.89795429 0.0022296354
-0.044829972 -0.10894171 -0.20916319 -0.44123757 -0.028832434 0.89692706 0.0012352357
-0.033089288 -0.10463659 -0.20313942 -0.51495826 -0.025658842 0.85683113 0.0018109302
-0.029562073 -0.10394882 -0.20041728 -0.53169292 -0.02316168 0.8466205 0.00087981793
0.11718787 -0.10716499 -0.20476821 -0.79042131 0.036570594 0.61147106 4.6044803e-05
-0.43008846 -0.092405751 -0.20089594 0.79192811 0.022718729 0.61019146 5.4381781e-05
-0.27294412 -0.093590125 -0.2050131 0.524786 -0.029039888 0.8507387 0.002067043
-0.26951638 -0.096821293 -0.20693746 0.48445919 -0.026695544 0.87440646 0.0024482107
-0.03371821 -0.096079431 -0.20332494 -0.47235632 -0.033722971 0.88076234 0.0011768762
-0.044265199 -0.080785394 -0.20837998 -0.42900258 -0.0046273633 0.90329146 0.0008751796
-0.032003544 -0.084470093 -0.20184819 -0.52817672 -0.039514497 0.84821457 0.0020588371
0.11724672 -0.081403166 -0.20548943 -0.79332453 0.016855361 0.60856563 0
-0.425033 -0.078677535 -0.20785291 0.79326028 0.016325217 0.60866374 4.4775323e-05
-0.27688318 -0.075220227 -0.20214224 0.53836942 -0.032632899 0.8420769 0.001562323
-0.26973838 -0.072523192 -0.20637144 0.49637848 -0.027978841 0.86765522 0.0020105315
0.12012085 -0.073489457 -0.20195617 -0.79326427 0.016337864 0.60865819 2.191312e-05
-0.43047136 -0.06771072 -0.20105991 0.79322702 0.016361121 0.60870618 6.3101797e-05
-0.42859182 -0.061008457 -0.20368934 0.79323035 0.016344108 0.60870224 3.206767e-05
-0.27438703 -0.067945726 -0.2035801 0.50932723 -0.031660918 0.8599903 0.0021598847
-0.26464391 -0.064697996 -0.20832898 0.4159033 -0.0031803381 0.9094032 0.00088478083
-0.045691721 -0.063895762 -0.20864141 -0.41342986 -0.015797766 0.9103989 0.00044666781
-0.037970029 -0.062860265 -0.20542274 -0.49109089 -0.016845975 0.87094539 0.0015415607
-0.43055519 -0.056647085 -0.20124774 0.79322332 0.016302073 0.60871267 8.633994e-05
-0.42691553 -0.0563416 -0.20599921 0.79324096 0.016329996 0.60868883 3.7314312e-06
-0.26398134 -0.057323445 -0.20845956 0.44162798 -0.018279241 0.89701205 0.001988963
-0.046975467 -0.05443107 -0.20898853 -0.43417341 -0.02622843 0.90044743 0.0016649256
0.11506974 -0.058989972 -0.20892817 -0.79322386 0.016340846 0.60871083 0
0.12152423 -0.056653325 -0.20057926 -0.79326057 0.016343176 0.60866284 1.6931193e-05
-0.42750913 -0.04782673 -0.20545426 0.79324275 0.016339088 0.60868621 0.00010899123
-0.27462089 -0.04144052 -0.20311055 0.51743734 -0.020274039 0.85548091 0.0024293575
-0.26384735 -0.044901956 -0.2082727 0.43040392 -0.023866383 0.90232086 0.001396195
-0.04306398 -0.041187022 -0.20710997 -0.45741948 -0.022443093 0.88896775 0.0021758119
-0.034888647 -0.045731936 -0.20318206 -0.5182175 -0.021690894 0.85497373 0.00255268
0.11463737 -0.04067488 -0.20998339 -0.79324651 0.016348489 0.60868114 0
-0.42651948 -0.034046259 -0.20711409 0.79321063 0.016363529 0.6087274 0
-0.27402928 -0.036996331 -0.20346349 0.5032925 -0.022760658 0.86381626 0.0017780107
-0.26505971 -0.034545697 -0.20756847 0.44148368 -0.01120833 0.89719933 0.0019278522
-0.043234944 -0.037889641 -0.20711648 -0.46436405 -0.029993322 0.88513643 0.0023695074
-0.032250792 -0.032581694 -0.20085925 -0.53114676 -0.022454448 0.84698218 0.0020552739
0.11777089 -0.035761867 -0.20603175 -0.79324645 0.01634689 0.6086812 1.1330911e-05
-0.26960117 -0.0220531 -0.20544356 0.47431511 -0.026231766 0.87996423 0.0023210109
-0.044689309 -0.022693856 -0.20742248 -0.42775649 -0.022219909 0.9036209 0.001072192
-0.033557363 -0.027002076 -0.20173508 -0.52922314 -0.015073252 0.84834874 0.0022830267
-0.42606735 -0.019802794 -0.20808572 0.79356194 0.014845412 0.60830826 0
-0.25926405 -0.015159586 -0.20959087 0.42779914 -0.0074795773 0.90384287 0.0012250887
0.1193758 -0.018545602 -0.20440269 -0.79352748 0.014645422 0.60835814 0
-0.42784214 -0.0034170952 -0.20621285 0.79227978 0.0021148196 0.61015433 0
-0.26357311 -0.0021816567 -0.2075903 0.44707024 -0.00092290371 0.89449835 0.0017590828
-0.04487624 -0.00470143 -0.20714891 -0.43201509 0.012700962 0.90177697 0.00099214539
0.11999645 -0.0025560379 -0.20402333 -0.79335427 0.0073623895 0.60871559 3.5570753e-05
0.12207755 -0.0032435588 -0.20129277 -0.79347962 0.0077230204 0.60854787 2.4547116e-05
-0.43063551 0.0077035688 -0.20258467 0.79344702 -0.0038424006 0.60862726 0
-0.42808267 0.0057492503 -0.20596947 0.79343867 -0.0038382036 0.60863817 0
-0.27453038 0.00053200894 -0.20236342 0.51087707 0.024274888 0.85931093 0.0018356818
-0.26525795 0.0045210314 -0.20699027 0.44538543 0.015873685 0.89519823 0.0017378707
-0.037546944 0.0021741225 -0.20406368 -0.52065843 0.00019260797 0.85376507 0.0020325908
0.12119512 0.0011550242 -0.20256087 -0.79306036 0.0030344019 0.60913545 4.8208865e-05
-0.42753929 0.017047741 -0.20634316 0.793782 -0.013262915 0.60805774 2.4828347e-05
-0.26613787 0.013140244 -0.20677832 0.44201031 0.019643078 0.89679486 0.0014630563
-0.04695835 0.01090687 -0.2082106 -0.42167273 0.011701277 0.9066726 0.0010183046
-0.034637321 0.018272063 -0.2024409 -0.52508378 0.0098643014 0.85099339 0.0020358227
0.11532133 0.016799929 -0.20983601 -0.79192984 -0.012753076 0.61047894 2.7544846e-05
-0.43210649 0.027223794 -0.20008981 0.79316765 -0.018037554 0.60873622 0
-0.42900786 0.022917209 -0.20425554 0.79346174 -0.015442186 0.60842419 2.1314878e-05
-0.27688295 0.027047968 -0.20110476 0.49078834 0.013041367 0.87118125 0.0012086222
-0.26200336 0.023351541 -0.20867163 0.42166564 0.016835405 0.90659511 0.00096321548
-0.041247111 0.029586218 -0.20617542 -0.46372181 0.019091649 0.88577509 0.0019645328
0.12242159 0.027909469 -0.20025408 -0.79317796 -0.017724063 0.60873187 0
-0.2720792 0.037106119 -0.20474149 0.47274566 0.0051890281 0.88118356 0.0012052509
-0.26749891 0.033775188 -0.20657977 0.44108704 0.015301294 0.89733386 0.0012761385
-0.049318314 0.032175254 -0.20956451 -0.42142671 0.019642593 0.90664971 0.0010115616
0.11823672 0.033531979 -0.2055414 -0.7932263 -0.018018274 0.60866028 3.9116378e-07
-0.43098226 0.048859514 -0.20091446 0.79320854 -0.018017352 0.60868341 0
-0.27584174 0.041782718 -0.20220739 0.4988569 -0.015201307 0.8665511 0.0020813688
-0.26206785 0.043311119 -0.20899817 0.42964917 0.01451138 0.9028793 0.00093683077
-0.044983029 0.045042414 -0.20799643 -0.440954 0.024433598 0.89719707 0.0016061544
0.11838213 0.046637706 -0.204964 -0.79322195 -0.018022923 0.60866582 1.13323e-05
0.12106557 0.041852936 -0.20160855 -0.79318196 -0.01804775 0.60871726 0
-0.42434567 0.053988088 -0.20941162 0.79321003 -0.017998289 0.60868204 0
-0.041620798 0.055120826 -0.20678204 -0.4654552 0.0018631978 0.88506943 0.0025548718
-0.035047028 0.05459924 -0.20350374 -0.52372181 0.025191002 0.85151678 0.0021164326
0.11777275 0.0549757 -0.20551136 -0.79321879 -0.018032528 0.6086697 0
-0.26361293 0.060699303 -0.20866592 0.44822425 0.0066334191 0.89389652 0.0013843271
-0.045723874 0.061732039 -0.20859861 -0.4377366 0.019176016 0.89889872 0.0015642822
-0.038345322 0.067562759 -0.20564543 -0.50130373 0.022862783 0.86496931 0.0029367299
0.12015358 0.061929565 -0.20220277 -0.79320985 -0.018024364 0.6086815 0
-0.2710999 0.071759403 -0.20576046 0.48825124 0.041262157 0.87172717 0.0013860074
-0.048082788 0.074088499 -0.20979437 -0.43928105 0.0099979062 0.89829403 0.0016744955
-0.033837795 0.075176693 -0.20299986 -0.54583496 0.015487157 0.83774948 0.0019242265
0.11629202 0.07423041 -0.20687108 -0.79322326 -0.018010622 0.60866445 2.3004195e-05
-0.42745566 0.084382758 -0.20445892 0.79320383 -0.018001951 0.60868996 9.8528319e-05
-0.2771509 0.086173348 -0.20211776 0.52194518 0.021260448 0.852714 0.0015383228
-0.26297033 0.084153213 -0.2093472 0.44662535 0.023472622 0.89441317 0.0016158577
-0.039032754 0.088009298 -0.20629197 -0.49757066 0.019570228 0.86720264 0.0025834758
0.1150699 0.086218134 -0.2081089 -0.79321402 -0.01803221 0.6086759 1.018466e-05
0.12075622 0.086107805 -0.20070165 -0.79323888 -0.018030314 0.60864353 1.2127671e-05
-0.43028939 0.097846486 -0.20036742 0.79337221 -0.026325097 0.60816729 0
-0.42488316 0.093059808 -0.20755471 0.79323405 -0.020686561 0.60856539 0.00010461619
-0.2768133 0.096915886 -0.20252064 0.5308786 0.037438791 0.84662044 0.0018520128
-0.26524165 0.094503455 -0.2085896 0.46095106 0.029144244 0.88694686 0.0021213337
-0.043242101 0.094794691 -0.20815565 -0.46517873 0.018170515 0.88503033 0.0026138329
-0.036734592 0.095163964 -0.20546664 -0.51703 0.035489365 0.85523129 0.0027850489
0.11620036 0.092497237 -0.20644978 -0.7931658 -0.021430507 0.60862851 3.1079482e-05
-0.27098131 0.10580473 -0.20642817 0.48871359 0.048123747 0.87111604 0.0022691349
-0.26600018 0.10076725 -0.20838623 0.44809201 0.013310945 0.89388835 0.0019072039
-0.040363532 0.10799181 -0.20729984 -0.4856877 0.043575339 0.87304562 0.002793838
-0.036484301 0.1042271 -0.20513701 -0.50968033 0.023884915 0.86003226 0.0032584369
0.12062585 0.10959645 -0.20017621 -0.79262263 -0.033206988 0.60880756 3.156899e-05
-0.2743237 0.11618731 -0.20514578 0.51350069 0.049021285 0.85668778 0.0023786391
-0.033915777 0.11568063 -0.20437047 -0.5212025 0.0391257 0.85253572 0.0020820862
0.11378481 0.11752222 -0.20842914 -0.7929076 -0.042826921 0.60783494 2.1755115e-05
-0.42863116 0.12559035 -0.20078881 0.79228061 -0.048115321 0.60825682 6.8474401e-05
-0.28129083 0.12454984 -0.20061907 0.54720849 0.052756555 0.83533198 0.0016305165
-0.27523792 0.12310914 -0.20459302 0.50287884 0.042196997 0.86332631 0.0020391436
-0.030179657 0.12325373 -0.20201063 -0.53850222 0.052599251 0.84098083 0.0022506693
-0.027855497 0.12319373 -0.20022328 -0.57056791 0.048584655 0.81981212 0.00096044387
0.11643383 0.12456453 -0.20434025 -0.79255807 -0.050723676 0.60768312 2.3951428e-05
-0.27255857 0.13380307 -0.20738415 0.49710241 0.053440709 0.86604458 0.0023325724
-0.042134661 0.13539286 -0.20960848 -0.45044881 0.065281063 0.89041239 0.0019835504
-0.035182141 0.13695703 -0.20626387 -0.4992207 0.059669968 0.86441779 0.0024929042
-0.027121693 0.13695022 -0.20058101 -0.58104789 0.054885052 0.81201661 0.0006845087
0.11389834 0.1366277 -0.20655397 -0.79214829 -0.054248985 0.6079129 0
-0.42430502 0.14301875 -0.20485109 0.79215777 -0.055029552 0.60783035 3.6953039e-05
-0.28325489 0.14937599 -0.20077376 0.55261314 0.051000245 0.83187604 0.0016065838
-0.2786046 0.14052972 -0.20374992 0.5303905 0.044278409 0.84659636 0.0020350481
-0.041514065 0.1430261 -0.20979019 -0.45118678 0.058878217 0.89048517 0.0020997815
-0.036066715 0.14876693 -0.20786373 -0.49314696 0.054406747 0.8682431 0.0022783512
0.11307672 0.14796913 -0.20659935 -0.79216164 -0.054918475 0.60783541 3.5243877e-06
-0.42716157 0.15149002 -0.20036244 0.79213595 -0.054960657 0.6078651 9.2431794e-05
-0.03599149 0.15694246 -0.20830248 -0.48434728 0.043628875 0.87378734 0.0025317362
-0.029003538 0.15257481 -0.20307082 -0.53823584 0.055205345 0.84098428 0.0018749958
0.1134236 0.15531412 -0.20548326 -0.79214138 -0.054965053 0.60785764 0
-0.27441779 0.16177835 -0.20822202 0.50864077 0.052189074 0.85939562 0.0017894804
-0.030124655 0.16097562 -0.20449337 -0.52017921 0.051259223 0.85251755 0.0020753979
-0.42424482 0.17644341 -0.20190763 0.79215771 -0.054948539 0.60783774 5.1002724e-05
-0.28087351 0.17368571 -0.20422824 0.53184319 0.057315171 0.84490103 0.0018438143
-0.033193484 0.1764265 -0.20753244 -0.48945418 0.061040483 0.86989003 0.0021680281
-0.42073289 0.18337052 -0.20585825 0.80077279 -0.11925019 0.58697736 0.0067049242
-0.28224325 0.1825016 -0.20376733 0.5558148 0.011110494 0.83123189 0.0047036144
-0.030154979 0.1819998 -0.2059239 -0.5134055 0.051449534 0.85660243 0.0020214783
-0.02521885 0.18681166 -0.20245843 -0.56398416 -0.0083079729 0.82574385 0.067408979
-0.42177171 0.19809866 -0.20317292 0.83184683 -0.22419235 0.50770926 0.072519943
-0.41986904 0.19572946 -0.20586675 0.82211083 -0.14425012 0.55075008 0.044113386
-0.28099462 0.197335 -0.20571829 0.48014131 -0.076271243 0.87386894 0.18390289
-0.025785733 0.19214368 -0.20325029 -0.57318521 0.066314146 0.81673819 0.15210468
0.10775588 0.19720918 -0.20908183 -0.70978111 -0.33822769 0.61791009 0.086337373
0.11254144 0.19123638 -0.20338517 -0.76412833 -0.27059335 0.58556557 0.054115124
-0.28660059 0.20370105 -0.20184274 0.41530746 -0.08282584 0.90590262 0.17262791
-0.27848563 0.202024 -0.20795734 -0.19454895 -0.93116575 -0.3083522 0.26527116
-0.031842895 0.2054368 -0.20878777 -0.44013786 0.093516484 0.89304721 0.19389465
-0.021339266 0.20763811 -0.20095524 0.26654884 -0.96253604 0.049759433 0.22062236
0.10734157 0.20958205 -0.20850313 -0.73989731 -0.22390884 0.63436347 0.18347779
-0.42129683 0.21847919 -0.20136455 0.81401843 -0.0036630426 0.58082753 0.076155491
-0.41511565 0.210812 -0.2039448 0.78726053 -0.097157493 0.60891819 0.17439909
-0.3850362 0.210812 -0.20292364 -0.017271029 -0.99982971 -0.0064958967 0.010839473
-0.37542504 0.210812 -0.20372882 5.269617e-05 -1 1.4160347e-05 0
-0.36307785 0.21081202 -0.20481491 3.5946538e-05 -1 2.7739054e-05 0
-0.34207937 0.210812 -0.20754477 7.5107295e-05 -1 2.5336923e-05 0
-0.33083063 0.210812 -0.20238334 0.0093752397 -0.9999553 0.0012229211 0.0047216285
-0.32485074 0.210812 -0.2009595 -0.017826371 -0.99704283 -0.074751392 0.03213609
-0.29797041 0.21081202 -0.20455687 0.067982391 -0.98238033 -0.17409018 0.2222802
-0.28871682 0.21366341 -0.20228899 0.56152058 0.50016761 0.65918666 0.24380544
-0.27233887 0.21081202 -0.20397629 0.54746884 0.15730199 0.82190871 0.22139376
-0.2644687 0.21081199 -0.20461164 -0.12915263 -0.9899106 0.058280613 0.20433398
-0.25544155 0.210812 -0.20435856 0.25043768 -0.96806741 -0.01124485 0.14087059
-0.24440181 0.210812 -0.20559882 0.080005467 -0.99592686 0.041579619 0.087835893
-0.22966044 0.210812 -0.20011592 -0.0045537362 -0.99972296 -0.023094213 0.0011694859
-0.21760927 0.210812 -0.20967613 0.053446982 -0.9976666 0.042483453 0.049273234
-0.20700687 0.210812 -0.20738646 0.0054607647 -0.99993473 0.010036733 0.0019184365
-0.19419193 0.210812 -0.20535417 4.3975859e-05 -1 -9.4499492e-06 0
-0.18534088 0.210812 -0.20230895 4.7352711e-05 -1 3.5554869e-05 0
-0.17468895 0.210812 -0.20120005 5.5093064e-05 -1 4.8959023e-06 0
-0.16755815 0.210812 -0.20930606 6.1187362e-05 -1 8.0143196e-05 0
-0.14526129 0.210812 -0.20838299 3.2697619e-05 -1 3.2968364e-05 0
-0.13331905 0.210812 -0.20481484 4.0118426e-05 -1 4.875828e-05 0
-0.12491769 0.210812 -0.20390694 5.4941549e-05 -1 7.5724049e-05 0
-0.11612013 0.21081202 -0.20279996 2.4165329e-05 -1 1.4402046e-05 0
-0.10497741 0.210812 -0.20421305 3.4912267e-05 -1 6.0508413e-05 0
-0.070810869 0.210812 -0.20107004 -0.073587053 -0.99652368 0.039058831 0.063909374
-0.05584953 0.210812 -0.2018238 -0.030995073 -0.99200153 -0.12236107 0.14656006
-0.041621953 0.210812 -0.20500647 -0.064970791 -0.98743707 -0.14403783 0.19503637
-0.032955676 0.21193521 -0.20699091 -0.38809153 0.50152397 0.77321327 0.19769511
-0.028333798 0.21853492 -0.20768017 -0.42369208 0.16009265 0.89154667 0.17185901
-0.014012302 0.21081202 -0.20492066 0.29675999 -0.93242502 -0.20619652 0.22005567
-0.003309831 0.210812 -0.2044099 -0.058654793 -0.99816602 -0.014972802 0.14693591
0.0074718837 0.210812 -0.20671931 -0.092591964 -0.99523342 -0.030613033 0.1026633
0.027482748 0.210812 -0.20819879 -7.0246465e-06 -1 1.6157075e-05 0
0.045183182 0.210812 -0.20602891 -2.7679363e-05 -1 5.3715426e-05 0
0.069404379 0.210812 -0.2029621 -9.4644301e-06 -1 2.1637314e-05 0
0.073833682 0.210812 -0.20287651 0.014030628 -0.99978262 -0.015421589 0.0010007331
0.094114438 0.210812 -0.20410138 -0.17980778 -0.98365808 -0.0092711309 0.19378752
0.10378307 0.210812 -0.20621951 -0.70977896 -0.16471805 0.6848954 0.20279871
0.11353102 0.21130069 -0.20024425 -0.77224654 -0.24340028 0.58684886 0.15811494
-0.41842473 0.2245473 -0.20409629 0.79950041 -0.0014497417 0.60066384 0.050014753
-0.28368208 0.22231597 -0.20625456 0.97248715 0.21605182 -0.087122373 0.23239025
-0.026617289 0.22917993 -0.20768946 -0.54260427 0.149661 0.82654828 0.20104128
0.10793152 0.22578613 -0.20512709 -0.81369877 0.17847109 0.55321097 0.16721834
-0.42055333 0.2321606 -0.20005339 0.80677116 -0.027213624 0.59023708 0.005701263
-0.41932046 0.23730938 -0.20080192 0.8015362 -0.040697105 0.59655976 0.0045666741
-0.2824176 0.23191148 -0.20842049 0.046217419 0.42794853 0.90262061 0.19975744
-0.017149558 0.23777552 -0.20149565 0.59978634 -0.59362328 -0.53653312 0.29720759
-0.41581112 0.24318217 -0.20439672 0.78925472 -0.10094302 0.60571229 7.572984e-05
-0.36245516 0.24483708 -0.20049289 0.55416667 0.70465243 0.44313002 0.069747217
-0.34822226 0.24236099 -0.20748335 0.31925136 0.83630466 0.44572762 0.074042015
-0.33629882 0.24236098 -0.20349462 -0.18104923 -0.95075947 -0.25155032 0.054229964
-0.31072983 0.24236098 -0.2058652 0.082054682 -0.99612725 -0.031584293 0.076390482
-0.30473322 0.24236099 -0.20283258 -0.13203116 -0.99055201 -0.037074439 0.11218929
-0.2947 0.24430239 -0.20510352 -0.070640467 -0.997361 -0.016759055 0.13562335
-0.28711262 0.24601892 -0.20680445 -0.08656875 -0.99343437 -0.074792922 0.22853936
-0.26315591 0.24236101 -0.2052466 0.070047386 -0.99331999 -0.091699608 0.11380108
-0.2577225 0.24236099 -0.20545381 0.019596141 -0.98277318 -0.18377396 0.12760454
-0.24154057 0.24236099 -0.20510298 -0.082115695 -0.99654371 -0.012558487 0.065758571
-0.22273585 0.24236099 -0.20798087 0.055414408 -0.99760407 0.041416958 0.041788567
-0.21189727 0.24236101 -0.20834652 0.0012504123 -0.99940521 0.034464963 0.003527862
-0.20759475 0.24236098 -0.20380361 3.4289562e-05 -1 -6.4150677e-06 0
-0.19667496 0.24236099 -0.20398726 2.8544695e-05 -1 2.5216548e-05 0
-0.16755116 0.24236101 -0.2064279 2.7443088e-05 -1 1.6256055e-05 0
-0.15684736 0.24236101 -0.20180468 -2.3281227e-06 -1 1.9689498e-05 0
-0.13519491 0.24236099 -0.20238781 -1.9462299e-05 -1 -1.4599908e-07 0
-0.1255447 0.24236099 -0.20376739 4.5333778e-05 -1 4.8545084e-05 0
-0.11560269 0.24236099 -0.20340255 2.8117069e-05 -1 5.2955493e-05 0
-0.1050428 0.24236101 -0.20696706 1.3769749e-05 -1 2.256444e-05 0
-0.098645516 0.24236099 -0.20551974 7.5379562e-06 -1 -1.1738354e-06 0
-0.066670582 0.24236101 -0.20567782 -0.1585314 -0.98735327 0.0011220446 0.14199552
-0.048616968 0.24236099 -0.20056599 0.083960772 -0.99171382 0.097233392 0.15937893
-0.015210401 0.24604982 -0.20497727 0.21752562 -0.97173041 -0.091775008 0.24306248
0.005365815 0.24236101 -0.20883051 0.27063459 -0.95455027 0.12486308 0.11764755
0.028957738 0.24236099 -0.20756328 0.3688336 -0.76768237 -0.5240472 0.070516884
0.042866107 0.24236099 -0.20424083 0.49510852 -0.69923764 -0.51568824 0.074554496
-0.41488147 0.25177372 -0.20417637 0.78927183 -0.10094371 0.60569 3.9489616e-05
-0.3619585 0.25586516 -0.20253749 0.65716076 0.25886491 0.70790434 0.049646862
-0.023439232 0.25174525 -0.2080626 0.18610719 -0.95551693 -0.22880459 0.23338664
-0.40945256 0.26389074 -0.20923156 0.78925467 -0.10093793 0.60571331 0
-0.2963261 0.26228422 -0.20153265 0.61753249 -0.053353008 0.78473377 0.14450514
-0.013327955 0.26658428 -0.20215297 -0.63478315 0.093544342 0.76700711 0.065033436
0.053196132 0.26590818 -0.20152009 -0.72443718 0.13717963 0.67555338 0.018699987
0.099308059 0.26411244 -0.20997679 -0.78928 -0.10100135 0.60566974 0
0.10417439 0.26394862 -0.20366229 -0.7892912 -0.10098375 0.60565811 0
-0.35425055 0.27767915 -0.20953372 0.66556615 -0.00069192139 0.74633855 0.0013300095
-0.29365945 0.27512497 -0.2051789 0.57773048 0.10698088 0.80918646 0.00087185838
-0.28917083 0.27655435 -0.20880125 0.57009661 0.11919159 0.8128857 0.00087577756
-0.011433479 0.27579686 -0.2018473 -0.60558724 0.10925244 0.78824359 6.1559367e-05
-0.0099094184 0.27320495 -0.20035487 -0.61460519 0.089259803 0.78376865 0.00116342
0.04849346 0.2764903 -0.20662862 -0.69381988 0.019551981 0.71988314 0.0022940442
0.05251199 0.27390236 -0.20241168 -0.7201367 0.014873019 0.69367278 0.0025092768
-0.40834397 0.28844708 -0.2065831 0.78547186 -0.12094276 0.60696524 6.2403349e-05
-0.012667894 0.28220534 -0.20359308 -0.60733914 0.11403616 0.78621554 5.982646e-05
0.049217612 0.28206903 -0.20607299 -0.70367563 0.010319071 0.71044648 0.0017419272
0.099868566 0.28294525 -0.20610741 -0.78873473 -0.11697538 0.60350174 9.4759525e-05
-0.40573895 0.29483023 -0.20891398 0.78224164 -0.13870588 0.60733742 2.2037177e-05
-0.36285213 0.29270273 -0.20137291 0.71843207 0.029113755 0.69498754 0.001743247
-0.29881316 0.29377732 -0.20361185 0.60086447 0.1343237 0.78798419 0.00019839757
0.046031632 0.29554784 -0.20851767 -0.66795272 0.0093319286 0.74414521 0.0019412208
-0.40722147 0.30393341 -0.20463061 0.78360254 -0.15485524 0.60165334 2.7899261e-05
-0.29465288 0.30237013 -0.20862263 0.58207238 0.14902154 0.79936498 0.00066997384
-0.014593083 0.30003849 -0.20790078 -0.57591176 0.14737442 0.80411839 0.00092423835
-0.0058174534 0.30122879 -0.20141903 -0.5983001 0.14040639 0.78887457 0.00015687714
0.044647168 0.30269948 -0.20958 -0.65101409 -0.0036781759 0.75905669 0.0019167168
0.051482946 0.30127022 -0.20375276 -0.72923672 -0.01252667 0.68414688 0.0026279765
0.093210131 0.30711505 -0.20955178 -0.78252512 -0.14934352 0.60444272 0.00011193872
-0.36092001 0.31517783 -0.20389085 0.71006536 0.0015897091 0.70413399 0.0024519095
-0.35928473 0.31906199 -0.2056708 0.7100026 0.0016756244 0.70419705 0.0025276053
-0.30455667 0.31815743 -0.20436412 0.60042346 0.16561826 0.78234404 0
-0.29812792 0.31026751 -0.20762739 0.59297609 0.16506837 0.78811914 0.00016282912
-0.0058125546 0.31236061 -0.20377111 -0.5995819 0.16247591 0.7836473 4.0093382e-06
0.044897564 0.31026086 -0.20938787 -0.63521421 -0.002929064 0.77233046 0.00091792044
0.093114935 0.3120279 -0.20828499 -0.78333551 -0.16212894 0.60008311 8.8786059e-05
-0.36314175 0.32630843 -0.20099546 0.73578668 0.007053663 0.67717659 0.0021278688
-0.35659209 0.32131413 -0.20773695 0.67942822 0.00091750786 0.7337414 0.0022390571
-0.30778646 0.32279229 -0.20286664 0.60037631 0.1655957 0.78238505 0
-0.0082708662 0.32245311 -0.20779333 -0.6003567 0.16562559 0.78239375 0
0.048536707 0.32131299 -0.20659545 -0.67529243 -0.008853524 0.73749685 0.002262901
-0.39813483 0.33711356 -0.20707867 0.7816329 -0.16975926 0.60019308 0
-0.36213866 0.33137941 -0.20230268 0.72802413 0.0026365586 0.68554646 0.002805691
-0.35605201 0.33540848 -0.20815139 0.6752153 -0.0003581614 0.73762059 0.0022526379
-0.31208956 0.33461797 -0.20206743 0.60077 0.16584072 0.78203088 7.8859657e-06
-0.30929226 0.33267888 -0.20380349 0.60039574 0.16564554 0.78235966 0
-0.0030111177 0.33133399 -0.20563695 -0.6003598 0.16558561 0.78239989 7.082193e-06
0.0025362633 0.33675361 -0.20252731 -0.6003502 0.16559964 0.78240424 1.8395956e-07
0.051714096 0.33472437 -0.20345153 -0.70588541 0.01184314 0.70822704 0.0030708862
0.087850668 0.33967876 -0.20731719 -0.77932072 -0.17479987 0.60175097 6.8703193e-05
-0.40043002 0.34681308 -0.20134148 0.78661269 -0.21951205 0.57710922 0.090435535
-0.3951948 0.34159377 -0.20964172 0.77999407 -0.17921478 0.59957588 8.2923369e-05
-0.31138408 0.3411653 -0.20399439 0.59906065 0.17134535 0.78215539 4.9615013e-05
-0.30732369 0.34215093 -0.20731859 0.59933621 0.17780624 0.78050059 0.00017943968
-0.0016710889 0.34355974 -0.20719609 -0.59958029 0.18301605 0.77910757 0.00023889252
0.049110424 0.34748071 -0.20615523 -0.74437892 0.033116475 0.66693574 0.18189305
0.05321376 0.34267253 -0.20149711 -0.72270739 0.0073569855 0.69111496 0.095986269
0.091374494 0.34113091 -0.20231378 -0.78046733 -0.17511906 0.60016996 3.9019254e-05
-0.36150551 0.35201314 -0.2031278 0.36459193 0.08685822 0.92710751 0.2863
-0.35696989 0.35673332 -0.20744707 0.86462629 0.070852697 0.49739453 0.24024615
-0.31639007 0.35200793 -0.20244786 0.55923855 0.27553466 0.78187782 0.061747033
-0.00057011191 0.35689351 -0.20917314 -0.66473442 0.21327779 0.71598935 0.13629414
0.00090081152 0.35528195 -0.20770341 -0.58738166 0.19043995 0.78658462 0.15801595
0.049613055 0.35192019 -0.20576954 -0.63197744 0.24052191 0.73671812 0.21695718
0.05119627 0.35544074 -0.20412637 0.6680851 -0.67690223 -0.30897519 0.24743123
0.085397273 0.35537606 -0.2060703 -0.78690088 -0.23657134 0.56993067 0.063942634
-0.39185226 0.36957908 -0.20434925 0.86050916 -0.24964994 0.44407079 0.1542951
-0.36121953 0.36721253 -0.20350051 0.75782555 -0.55011564 -0.3508178 0.27761325
-0.31686318 0.36644047 -0.20631212 0.58120674 0.35073081 0.73429328 0.12136921
0.0070945751 0.36830816 -0.20721403 0.54400092 -0.42454851 -0.72375518 0.15685615
0.049612943 0.36255419 -0.20576963 0.69080907 -0.63547724 -0.3448936 0.24826887
0.084580101 0.36591467 -0.20332004 -0.83265686 -0.46280265 0.30413213 0.20752753
-0.38699174 0.37744299 -0.20653917 0.53654784 -0.56334317 0.62830001 0.17879955
-0.36213776 0.37566972 -0.20230387 0.75434971 -0.49682489 -0.42909393 0.2722142
-0.35551473 0.37613219 -0.20856367 -0.51842111 -0.66129977 0.54214597 0.3062394
-0.32116118 0.37775359 -0.20742877 0.55740005 0.47474906 0.68111569 0.20076594
-0.31749627 0.37074161 -0.2075047 0.53766263 0.37317267 0.75608277 0.15301566
0.0096265785 0.3789947 -0.20944127 -0.49450108 0.33487508 0.80207694 0.16642953
0.016105825 0.37614405 -0.20335713 -0.26910236 0.31747949 0.90928024 0.18064179
0.046276562 0.37180686 -0.20832971 0.35358903 -0.65853858 0.66430545 0.27021253
-0.35909891 0.38283566 -0.20581336 -0.10487323 -0.90451133 0.41335329 0.24734333
-0.33512709 0.38962513 -0.20134476 0.46731988 0.15988639 0.86951053 0.19438583
-0.32505396 0.38668454 -0.20792668 0.83301926 0.14718738 0.53330553 0.19039774
0.0165613 0.3843503 -0.2062097 -0.3014873 0.055759523 0.95183831 0.1831684
0.046915781 0.3824439 -0.20783922 -0.11410176 -0.91576403 0.38517138 0.28596839
0.053404085 0.38885328 -0.20124908 -0.20991935 -0.32842591 0.92090732 0.26231176
0.076395385 0.38083941 -0.20612124 -0.64046073 -0.5782122 0.50545114 0.18262264
-0.38251403 0.3929207 -0.20421799 0.61574483 -0.43093982 0.65965843 0.12995456
-0.37999547 0.3907572 -0.20864046 0.5806219 -0.40749854 0.70485681 0.11992509
-0.36213961 0.39358863 -0.20230143 0.74594188 0.27886271 0.60481918 0.2908231
-0.33461136 0.39845425 -0.20518565 0.57909721 0.32565808 0.74739093 0.1985846
0.023836648 0.39254087 -0.20382291 -0.56819278 0.17260282 0.80459005 0.18080451
0.073298886 0.39511704 -0.20263237 -0.69196707 -0.49556977 0.5249688 0.14455335
-0.37238878 0.40816909 -0.20388579 0.2853041 -0.86138529 0.42025834 0.15812851
-0.36770755 0.40962026 -0.20750199 0.33909899 -0.79719633 0.4994894 0.17370969
-0.35767692 0.40170866 -0.20690453 0.40141216 -0.76507944 0.50350934 0.24135624
-0.34167185 0.40395403 -0.20376272 0.45731238 0.59236771 0.6632992 0.21867287
0.023468871 0.40259147 -0.20839128 0.48473138 -0.76906371 -0.41662511 0.20339367
0.046601638 0.40432125 -0.20808028 -0.25170571 -0.96231163 0.1029586 0.18537542
0.065458722 0.40602887 -0.20414399 -0.70043331 -0.60544872 0.37792206 0.14191116
-0.36634958 0.41357934 -0.20249332 0.17769593 -0.9516145 0.25070694 0.14829436
-0.35781679 0.41434085 -0.20273185 -0.021925995 -0.99154091 0.12792963 0.1272727
-0.34368816 0.41253701 -0.20455843 0.0082485797 -0.99995571 -0.0045375903 0.14611065
-0.33617988 0.41253701 -0.20397682 -0.22225548 -0.92246473 -0.31569198 0.18162246
-0.32353032 0.41253698 -0.20194145 0.15697229 -0.97771597 0.13939543 0.127665
-0.316515 0.41253701 -0.20605451 0.20499435 -0.97097516 0.12322555 0.1489118
-0.30778545 0.41253701 -0.20940222 0.16681749 -0.98173279 0.091502503 0.11822832
-0.26534361 0.41253704 -0.2043805 2.7732978e-05 -1 0.00011389411 0
-0.25433955 0.41253701 -0.20017928 0.00010135743 -1 3.6087255e-05 0
-0.23578179 0.41253701 -0.20491101 0.00012550024 -1 8.07338e-05 0
-0.22842214 0.41253704 -0.2074967 3.0297895e-05 -1 3.8654316e-06 0
-0.21417896 0.41253704 -0.20663986 3.2874297e-05 -1 3.5474393e-05 0
-0.20012803 0.41253701 -0.20688397 -3.5686549e-05 -1 -1.5280973e-06 0
-0.19242138 0.41253698 -0.20492411 4.1868945e-05 -1 8.6874541e-05 0
-0.18553579 0.41253704 -0.2047087 6.3745138e-05 -1 0.00011198969 0
-0.16366087 0.41253698 -0.20738159 7.0142749e-05 -1 6.9419628e-05 0
-0.15932433 0.41253701 -0.20303592 2.9548946e-05 -1 0.00011129861 0
-0.14478524 0.41253701 -0.20083258 0.00011714906 -1 4.4333888e-06 0
-0.13161913 0.41253698 -0.2054348 5.1943029e-05 -1 4.8959733e-05 0
-0.10000667 0.41253698 -0.20981731 4.3928449e-06 -1 -3.736994e-05 0
-0.098584972 0.41253698 -0.20541884 7.3004903e-06 -1 7.254885e-05 0
-0.080208302 0.41253698 -0.20428482 2.0855896e-05 -1 4.2873209e-05 0
-0.073366053 0.41253698 -0.20207 2.2324504e-05 -1 -4.7516776e-05 0
-0.062650323 0.41253704 -0.20443806 6.5684571e-06 -1 4.156047e-05 0
-0.041421812 0.41253701 -0.20607577 -2.0792006e-05 -1 -5.6054821e-05 2.8944554e-05
-0.036322944 0.41253701 -0.20324481 -1.3855416e-05 -1 -2.8497845e-05 0
-0.021812312 0.41253701 -0.2093437 -0.047995429 -0.99581283 0.077801816 0.025916608
-0.012646929 0.41253701 -0.20723167 -0.12365448 -0.99058437 0.05875431 0.03546197
0.0069449083 0.41253701 -0.20371027 -0.16588975 -0.98197198 0.09061759 0.15462367
0.025193233 0.41253698 -0.20465091 0.032043461 -0.99942428 -0.011154052 0.17312069
0.048458494 0.41531569 -0.20873179 -0.23974536 -0.96123135 0.13622172 0.11762265
-0.37441266 -0.4109149 -0.19669676 0.17245249 0.98494667 -0.011841024 0.1036713
-0.36836559 -0.41518405 -0.19180654 -0.17094316 0.95758998 -0.23194791 0.058514655
-0.35673022 -0.41104633 -0.19988593 -0.22335574 0.93668216 -0.26970109 0.097763129
0.064278908 -0.41429856 -0.19221175 -0.030100308 0.96785069 0.249718 0.10616206
-0.3852506 -0.40380359 -0.19333042 0.50279862 0.79273599 0.34462041 0.12157904
-0.35422426 -0.40660593 -0.19536731 -0.23927137 0.90738398 -0.34554818 0.094314732
0.036698848 -0.40346897 -0.19852157 0.45516551 0.69070035 -0.56192303 0.065624736
0.044249654 -0.40194049 -0.19001384 0.5817619 0.68559903 -0.43761531 0.077863425
0.064842314 -0.40888906 -0.19987752 -0.19598292 0.92491573 0.32576287 0.12506881
-0.34865206 -0.39513546 -0.19312702 0.61685121 -0.50702578 0.60201287 0.022233261
-0.33971801 -0.39326704 -0.19940218 0.55321187 -0.48724735 0.67568231 0.021991875
0.03173779 -0.39151648 -0.19749479 -0.6226542 -0.36315623 0.6931228 0.0054713814
0.080275051 -0.39763823 -0.19250011 -0.6281116 0.64402562 0.43669993 0.062123112
-0.39304405 -0.38800934 -0.19319348 0.7254684 0.368788 0.58111185 0.0024181495
0.02387785 -0.38239485 -0.19983721 -0.61334926 -0.31516612 0.72420502 0.0017953865
0.032059964 -0.38384315 -0.19414449 -0.63184094 -0.29881564 0.71518272 0.0020302837
0.030902494 -0.37892216 -0.19304264 -0.63184565 -0.2988126 0.7151798 0.0020380709
0.083456099 -0.37962925 -0.19751316 -0.75753158 0.29698366 0.58133173 0.00021593408
-0.39974779 -0.36091831 -0.19823356 0.76728213 0.25030679 0.59044445 0.0007757835
-0.33219317 -0.36620283 -0.19423193 0.64595199 -0.25890473 0.71813256 0.0033297427
0.024130557 -0.36413246 -0.19225803 -0.60917324 -0.25442952 0.75111485 0.00096556114
0.088400126 -0.36658749 -0.19770236 -0.7647745 0.26576623 0.58693123 0.00050147442
0.09544225 -0.36292675 -0.1903865 -0.76703441 0.25547576 0.58854944 0.00052303408
-0.40425074 -0.35963896 -0.19296128 0.77372426 0.23943962 0.58653176 0.00081010605
-0.33250913 -0.35496354 -0.1908557 0.67899138 -0.22704285 0.6981563 0.0025897135
-0.3252455 -0.35480109 -0.196394 0.59857666 -0.20636547 0.774028 0.00043442959
0.017266672 -0.35827333 -0.19594745 -0.60968465 -0.24012583 0.75539684 0.00088862394
0.094470307 -0.35350466 -0.19496259 -0.77398539 0.21286079 0.59635305 0.00064692332
-0.40463421 -0.34837145 -0.19556943 0.78361356 0.19125704 0.59107572 0.00053569762
-0.33146009 -0.34862065 -0.19028276 0.66915101 -0.18856293 0.71880525 0.0020718658
-0.31694925 -0.34026015 -0.19960099 0.60018909 -0.17620938 0.78020722 4.7210393e-05
0.0084087569 -0.34506667 -0.19987543 -0.59994382 -0.18521714 0.7783072 0.00021022453
0.015202363 -0.34531659 -0.19471675 -0.61289227 -0.17396782 0.77077776 0.00031777893
0.096350491 -0.3433283 -0.19531897 -0.7799803 0.1777357 0.60003388 9.5756201e-05
-0.32456696 -0.33058631 -0.19165424 0.62817109 -0.16881247 0.75954169 0.0011585703
-0.31660956 -0.33745515 -0.19925228 0.60004824 -0.16974789 0.78174657 0
0.10159856 -0.33082497 -0.19192797 -0.78237784 0.16561671 0.60037994 0
-0.4097023 -0.32805055 -0.19456962 0.78238589 0.16568726 0.60035002 1.8618359e-05
-0.32110769 -0.32765606 -0.19367206 0.6061582 -0.17285483 0.77633333 0.0001607906
-0.31527415 -0.32558241 -0.19769777 0.60125101 -0.16973276 0.78082526 2.310835e-05
0.004485677 -0.32666546 -0.19888826 -0.59992498 -0.16979155 0.78183168 3.3256138e-06
0.10405853 -0.3226172 -0.19098584 -0.78242117 0.1655626 0.60033834 1.5626005e-05
-0.32123262 -0.31587857 -0.19101766 0.61211014 -0.16388388 0.77360415 0.00021775298
-0.31416246 -0.31633776 -0.1965425 0.6017502 -0.16501176 0.78145224 3.5220164e-05
-0.00044321269 -0.31073606 -0.19920973 -0.60014939 -0.1582893 0.78406966 7.645096e-05
0.0086260401 -0.31116548 -0.19234398 -0.6103844 -0.16047774 0.77567893 0.0002154073
0.010468001 -0.31687504 -0.19217095 -0.60830957 -0.1685255 0.77560216 0.00010506028
-0.41613692 -0.3075639 -0.19183427 0.78313446 0.15782845 0.60149026 2.218434e-05
-0.31436935 -0.30236721 -0.19334888 0.60706747 -0.14696263 0.7809425 0.00021469408
-0.0021060803 -0.30119583 -0.19841312 -0.60092062 -0.14205213 0.78658479 0.00013802247
0.0020695394 -0.30780232 -0.19664431 -0.6018793 -0.15602513 0.78319693 7.3360083e-05
0.10386288 -0.30568334 -0.19591136 -0.78335458 0.15359633 0.6022988 7.3488751e-05
-0.41732603 -0.29812682 -0.1928874 0.78539991 0.14094284 0.60272884 0.00018469588
-0.30770558 -0.29294005 -0.19675645 0.59980398 -0.12703489 0.78999829 0.00017040668
-0.0027250946 -0.29200357 -0.19731705 -0.60355353 -0.12677622 0.78717905 0.00014340669
0.10766703 -0.29236469 -0.19450253 -0.78986084 0.12314121 0.60079628 0.00015860835
-0.41788432 -0.28394869 -0.19503811 0.78619194 0.11598109 0.60700125 0
-0.31408292 -0.28432927 -0.1907616 0.61022854 -0.11576339 0.7837218 0.00020471161
-0.30471739 -0.28268707 -0.19773798 0.60515672 -0.10598502 0.78901994 7.9172831e-05
-0.006728074 -0.28792095 -0.19986644 -0.60592574 -0.12020277 0.7863875 0.00010884276
0.0050623836 -0.28375721 -0.19028679 -0.60527682 -0.11723845 0.7873342 0.00013950643
0.10632852 -0.28540897 -0.19742325 -0.78940022 0.11396055 0.60320836 0.00012026219
-0.41737917 -0.27570379 -0.19703528 0.78907293 0.10507225 0.60524684 0.00011324033
-0.31333652 -0.27643397 -0.19032452 0.6108036 -0.10412903 0.78490508 0.00010496198
-0.30337703 -0.27858829 -0.19824219 0.60567486 -0.10461963 0.78880459 1.5762662e-06
-0.0020670819 -0.27789617 -0.19500776 -0.60585064 -0.10614388 0.78846592 4.3822361e-05
0.10645077 -0.27331042 -0.19922847 -0.78945875 0.099870607 0.6056242 1.1495752e-05
-0.42133069 -0.26781756 -0.19316626 0.78961986 0.099115185 0.60553825 2.7212671e-05
-0.30088389 -0.26236051 -0.19807968 0.60579735 -0.10094147 0.78918976 0
0.0015629949 -0.26772574 -0.19092146 -0.611965 -0.10000642 0.78453654 9.1931113e-05
0.10796893 -0.2609036 -0.1992645 -0.78948277 0.098382078 0.60583657 0
0.11080442 -0.26750153 -0.19449784 -0.78950262 0.098469771 0.6057964 5.9866443e-06
-0.29926962 -0.25296322 -0.19811636 0.60434198 -0.10126064 0.79026389 0
-0.0095532397 -0.25201562 -0.19744183 -0.60565084 -0.10095108 0.78930086 1.4567225e-06
0.11143333 -0.2512221 -0.19632167 -0.78950483 0.098399073 0.60580504 0
-0.42143768 -0.2466796 -0.19645938 0.78946084 0.098402269 0.60586184 3.4955588e-05
-0.30482978 -0.24847621 -0.193276 0.60567391 -0.10096371 0.78928161 0
-0.0038884135 -0.24503286 -0.19220194 -0.6056478 -0.10090843 0.78930867 1.40547e-06
-0.42533702 -0.23325604 -0.19355749 0.78950113 0.098344415 0.60581869 1.6272583e-05
-0.30284464 -0.23133242 -0.19260651 0.60647619 -0.10130528 0.78862149 1.3544701e-05
-0.29582727 -0.23339297 -0.19825469 0.59980369 -0.099297464 0.79396194 0.00011326458
-0.013311892 -0.23925567 -0.1986939 -0.59559941 -0.10047465 0.79697305 0.00018166083
-0.42488253 -0.22516933 -0.195463 0.78940475 0.097574018 0.60606879 0
-0.29410985 -0.22025989 -0.19789273 0.60435057 -0.089498654 0.79167575 2.3495269e-05
-0.0061617037 -0.22379556 -0.19122997 -0.60699683 -0.091729775 0.78939241 5.4760654e-05
0.11658143 -0.22891775 -0.19323456 -0.78937501 0.096660808 0.6062538 0
-0.29089287 -0.21726966 -0.19997874 0.58444273 -0.071239829 0.80830169 0.00057821628
-0.018295143 -0.21674237 -0.19963813 -0.59684718 -0.083640367 0.79798353 0.00027457386
-0.008202821 -0.21970743 -0.19227327 -0.6044901 -0.089372292 0.79158342 4.4644446e-05
0.11345641 -0.21923162 -0.19888003 -0.78937632 0.090676948 0.60717595 3.8612583e-05
-0.43037611 -0.20960401 -0.19083132 0.79285616 0.081924498 0.60387707 9.3514209e-05
-0.4275884 -0.20683239 -0.19491436 0.79249716 0.078197025 0.60484165 8.6190419e-05
-0.012369409 -0.20805331 -0.1941413 -0.60618657 -0.068895102 0.79233283 5.6148379e-05
0.11730424 -0.20306467 -0.19622363 -0.79073405 0.073393613 0.60774428 7.1861185e-05
-0.42667687 -0.1941362 -0.19725323 0.79185718 0.057198416 0.6080218 0
-0.29379588 -0.19580498 -0.19588412 0.60654682 -0.063476659 0.79250968 0
-0.01716635 -0.19666457 -0.19703214 -0.60134524 -0.064186938 0.79640681 0.00017997576
0.12250851 -0.19375744 -0.19028091 -0.79456031 0.061123539 0.60410088 6.5794979e-05
-0.43007836 -0.18985419 -0.19319384 0.79194361 0.056094442 0.60801208 6.2649749e-05
-0.29547253 -0.1840957 -0.19378531 0.60423595 -0.056007944 0.79483455 4.3747244e-05
-0.012385745 -0.18400726 -0.19248588 -0.60783911 -0.05495492 0.79215628 0
0.11974031 -0.18372189 -0.19476396 -0.79221886 0.053091913 0.60792315 1.4361519e-05
-0.42625692 -0.17550802 -0.19942528 0.79224521 0.052956 0.60790062 3.7341724e-05
-0.018490933 -0.17474547 -0.19652811 -0.5927307 -0.05373564 0.80360621 0.00039199149
0.11939893 -0.17060837 -0.19635287 -0.79223979 0.053002551 0.60790366 0
0.12297472 -0.17021468 -0.19172713 -0.79224497 0.052987248 0.60789824 2.1181709e-06
-0.4282918 -0.16038875 -0.19809213 0.79216439 0.0529771 0.60800409 0.00014138482
-0.29135394 -0.16509627 -0.19562767 0.59867799 -0.051341448 0.79934263 0.00016470745
-0.28631413 -0.16486563 -0.19947889 0.57004899 -0.056495957 0.81966597 0.00095643487
0.11908333 -0.16651213 -0.1971215 -0.79223013 0.053064991 0.60791081 0
-0.4313817 -0.154419 -0.19458605 0.79220933 0.053034954 0.6079405 7.7532306e-05
-0.42966032 -0.15656918 -0.19664183 0.79218578 0.053096715 0.60796589 8.7903842e-05
-0.29272935 -0.15785432 -0.19406991 0.60259926 -0.050990246 0.7964133 4.5452649e-05
-0.020329993 -0.15065192 -0.19626796 -0.60692775 -0.055130158 0.79284263 0
0.11808573 -0.15478548 -0.19944444 -0.79220814 0.053039022 0.60794169 0
0.12162337 -0.15664357 -0.19467199 -0.79221916 0.053029411 0.60792816 0
-0.43290406 -0.14956066 -0.19302583 0.79223937 0.053103585 0.60789543 3.6410947e-05
-0.29320884 -0.14254555 -0.19264004 0.6071834 -0.05528168 0.79263628 3.3397526e-05
-0.016905785 -0.1471606 -0.19339833 -0.60717094 -0.0552001 0.79265147 0
0.11894906 -0.14455974 -0.19921124 -0.79219711 0.053061556 0.60795408 0
-0.29282141 -0.13732564 -0.19257522 0.60713136 -0.055271078 0.79267687 3.4675937e-05
-0.28733596 -0.13588946 -0.19668479 0.58049226 -0.050163396 0.81271917 0.00066011853
-0.023420045 -0.13300499 -0.19741492 -0.57708406 -0.047451396 0.81530505 0.0011806663
-0.018968772 -0.13499337 -0.19413731 -0.60704887 -0.055068456 0.79275411 0
0.12286327 -0.13675089 -0.1947912 -0.79225111 0.053022768 0.60788709 1.2962212e-05
-0.43060571 -0.12425621 -0.19822831 0.79227906 0.052804895 0.60786957 0
-0.29276848 -0.12557457 -0.19180074 0.60443169 -0.047299575 0.79525167 0
-0.28360951 -0.12250964 -0.1986161 0.58050668 -0.057938833 0.81219149 0.00075616926
-0.024400072 -0.12559922 -0.1976532 -0.57975215 -0.056544211 0.81282854 0.0010355429
-0.017232539 -0.12358982 -0.19201401 -0.60601223 -0.050274197 0.79386503 0.00010021185
-0.43406579 -0.11118974 -0.19485879 0.79213554 0.04096581 0.60896885 3.8040791e-05
-0.2854493 -0.11384761 -0.19660354 0.58217645 -0.046292789 0.81174362 0.00060445792
-0.025384951 -0.11776584 -0.19786555 -0.57331121 -0.040294249 0.81834626 0.0013255102
0.12511452 -0.11843488 -0.19345486 -0.79336071 0.050746132 0.60663295 1.8090193e-05
-0.43497518 -0.10602114 -0.19410232 0.79191065 0.033862375 0.60969734 0
-0.28639531 -0.1044464 -0.19550729 0.58473337 -0.031711586 0.81060553 0.00059308705
-0.29236662 -0.092996247 -0.19066525 0.60192531 -0.020274421 0.79829496 0.00013642714
-0.28694025 -0.091303118 -0.19479065 0.5978536 -0.021150686 0.80132622 0.00016038798
-0.027873339 -0.096564747 -0.19895373 -0.5385074 -0.031494759 0.84203196 0.0010579898
0.12308865 -0.098060347 -0.1974289 -0.78995061 0.027749596 0.61254221 1.5062195e-05
-0.43468708 -0.089000657 -0.19499433 0.79314196 0.019826461 0.60871404 0.0001456974
-0.28968751 -0.083952606 -0.19251564 0.59939575 -0.016966196 0.80027306 0.00011086467
-0.025917631 -0.085505888 -0.19720185 -0.56528473 -0.039957602 0.82392752 0.001501738
0.12605606 -0.085449316 -0.19390014 -0.7934444 0.018282229 0.6083681 1.7960485e-05
-0.43194973 -0.076969191 -0.19888473 0.79317737 0.016722238 0.60876107 9.8315984e-05
-0.28150398 -0.076181203 -0.19861847 0.55849487 -0.026970321 0.8290695 0.0011983009
-0.29094124 -0.063948095 -0.19109921 0.60282576 -0.018674882 0.79765427 0.00011561951
-0.27974936 -0.060494922 -0.19960839 0.52003062 -0.0075422674 0.85411429 0.0020088742
-0.43759155 -0.057339951 -0.19205919 0.79322165 0.016346188 0.60871363 5.2345968e-05
-0.2882075 -0.054035313 -0.19297162 0.59369737 -0.013322326 0.80457813 0.0005142123
-0.030192927 -0.051011514 -0.19969884 -0.53767234 -0.0015069986 0.84315246 0.0023622015
-0.021650599 -0.053391621 -0.19319816 -0.57892805 -0.012418441 0.81528407 0.00068877998
0.12524815 -0.05819387 -0.19568485 -0.79324514 0.016343702 0.60868311 0
-0.28680366 -0.046911493 -0.19388691 0.58000708 -0.014298212 0.81448585 0.00092200359
-0.020047456 -0.045951199 -0.191799 -0.59294963 -0.02098358 0.80496615 0.00044180593
0.12536703 -0.048160411 -0.19579943 -0.79322118 0.016331682 0.60871452 0
-0.43523633 -0.038403153 -0.19563702 0.79323864 0.01635818 0.6086911 0
-0.2801249 -0.033216447 -0.19870041 0.54663777 -0.025561156 0.83697903 0.0013011186
0.1254209 -0.032757498 -0.19614294 -0.79324621 0.016344691 0.60868168 7.0271591e-07
-0.29022282 -0.021712264 -0.19069077 0.60627669 -0.01373378 0.7951352 5.5022716e-05
-0.28096056 -0.028641509 -0.19795525 0.54179877 -0.028840451 0.84001333 0.0015096093
-0.026593979 -0.020253455 -0.19623858 -0.5842554 -0.016040679 0.81141132 0.00058928062
-0.018801443 -0.026026944 -0.19039032 -0.60866845 -0.017638549 0.79322857 0
0.12402484 -0.027601982 -0.19810078 -0.79323 0.016349329 0.60870278 0
0.1300115 -0.027030934 -0.19031428 -0.79753333 0.014912362 0.60309052 0.00016198872
-0.43617615 -0.015648773 -0.19502324 0.79310137 0.014924503 0.60890687 1.4917158e-06
-0.28462988 -0.011734885 -0.19475558 0.56487066 -0.01580051 0.82502824 0.0015337804
-0.028322019 -0.011874869 -0.19737422 -0.58150208 -0.0098728696 0.81348503 0.00084000616
-0.019010616 -0.011963379 -0.19023137 -0.60821897 -0.0092712566 0.79371512 3.9394436e-05
-0.43596476 -0.0088322517 -0.19548172 0.79335809 0.0096069295 0.60867941 0.00010887572
-0.29048258 -0.009435215 -0.19021246 0.60573608 -0.0074932608 0.79563028 6.5646556e-05
-0.28088233 -0.009899593 -0.19758943 0.55154514 -0.015353405 0.83400369 0.001914295
-0.018904958 -0.0085927676 -0.19007373 -0.60845095 -0.0087503139 0.79354328 3.5524121e-05
-0.28683218 0.0071058869 -0.19305959 0.57319534 0.019629978 0.81918365 0.00091328018
-0.27836239 0.0039095399 -0.19949268 0.52429509 0.024329768 0.8511889 0.0013573914
0.12710504 0.0063998946 -0.1947872 -0.79398006 -0.0057468484 0.60791665 4.9922874e-05
-0.43280166 0.019810405 -0.19940335 0.79358715 -0.014178583 0.60829133 0
-0.28219205 0.010502297 -0.19669004 0.53552699 0.029067632 0.8440178 0.00075995451
-0.021679088 0.016037595 -0.19245166 -0.60080719 0.0065417001 0.79936719 0.0001279955
