# .PCD v0.7 - Point Cloud Data file format
VERSION 0.7
FIELDS x y z normal_x normal_y normal_z curvature
SIZE 4 4 4 4 4 4 4
TYPE F F F F F F F
COUNT 1 1 1 1 1 1 1
WIDTH 575
HEIGHT 1
VIEWPOINT 0 0 0 1 0 0 0
POINTS 575
DATA ascii
0.032957017 -0.21723151 -0.098973639 -0.61212766 0.79075885 0.00043820959 9.1342663e-05
0.11284422 -0.21883178 -0.093167037 -0.79334676 0.60877007 -1.2545343e-05 0
-0.42735422 -0.20760502 -0.095852703 0.79334152 0.60877687 9.7133061e-06 2.2793198e-05
0.049415171 -0.20460272 -0.094928764 -0.66608495 0.74583668 -0.0076461234 0.0013188693
0.12239251 -0.20638821 -0.091453142 -0.79335964 0.6087532 4.2177473e-07 1.0089101e-05
-0.4334465 -0.19966538 -0.094644696 0.79329389 0.60883892 -1.5801486e-05 4.2773849e-05
-0.35989165 -0.19931164 -0.094802365 0.73191553 0.68109757 0.020138584 0.0019436824
0.057475924 -0.19477692 -0.094715104 -0.75803167 0.65219629 -0.0052923048 0.0014972948
0.12987138 -0.19664156 -0.096628994 -0.7940222 0.60788852 0.00049527007 5.2145961e-06
-0.44460833 -0.18511903 -0.093974471 0.81125027 0.58468235 -0.0044153081 0.00084817701
-0.3714031 -0.18430966 -0.093891665 0.78840572 0.61515379 0.0014859813 0.0001192194
-0.36828899 -0.18836805 -0.09966138 0.78806728 0.61558872 0.00067039375 0.00013205374
0.1355321 -0.18926436 -0.098049492 -0.79784048 0.60286868 -8.1556987e-05 0.00011439952
-0.45309696 -0.17405638 -0.099915326 0.8668893 0.49847755 -0.004794518 0.0027165103
-0.38220534 -0.17023197 -0.096378006 0.79334581 0.6087712 6.6649241e-06 6.798812e-05
-0.3760545 -0.17824787 -0.094100431 0.79329449 0.60883814 8.0422651e-05 0
0.069332659 -0.17932494 -0.092115313 -0.79336101 0.60875148 -6.0394168e-06 7.0389578e-06
0.070302978 -0.1780604 -0.093599379 -0.79336387 0.6087476 -3.8078974e-06 6.7814881e-06
0.14768772 -0.17333475 -0.090632826 -0.85249591 0.52269912 -0.0060367109 0.0023231278
-0.45509759 -0.16967851 -0.090940893 0.88097441 0.47316298 0.00091965514 0.0025257273
-0.38314742 -0.16900423 -0.094055891 0.79336876 0.60874134 -2.205692e-05 0
0.083804443 -0.16046499 -0.092060573 -0.80335939 0.5954935 -0.0010464323 0.00022981888
0.14950055 -0.1689582 -0.096732378 -0.87516183 0.48380893 0.0045386413 0.0021666044
-0.46194661 -0.15314345 -0.091089301 0.92312598 0.38449746 0.00027919433 0
-0.39401984 -0.154835 -0.092355244 0.81403619 0.58080935 -0.002344508 0.0012560624
0.085552968 -0.15818626 -0.090537019 -0.80368412 0.5950551 0.0011604956 0.00023061443
0.091390595 -0.15057853 -0.0929849 -0.84322739 0.53754228 -0.0039899568 0.0015698784
0.15372172 -0.15876736 -0.097960241 -0.91554379 0.40221819 0.00016104765 0.00048801178
-0.40108851 -0.145623 -0.09379945 0.84805286 0.52989537 -0.0041686781 0.0029340917
-0.39774001 -0.14998683 -0.099000186 0.8347562 0.55049223 -0.011850007 0.0027779145
0.092961311 -0.14853156 -0.093205169 -0.85162926 0.52413392 -0.0033530067 0.0019417997
-0.47137254 -0.13038725 -0.096153378 0.92384529 0.38276616 -0.00010629973 8.6538465e-05
-0.46925795 -0.1354923 -0.097623013 0.92386991 0.38270661 7.1597797e-06 5.2277221e-05
-0.40758127 -0.13134158 -0.093110517 0.90586472 0.42356464 0.0014794345 0.0010076371
0.10109434 -0.13276972 -0.095226906 -0.91597378 0.40123302 0.0020182296 0.00048674451
0.16380616 -0.13442138 -0.097013652 -0.92387861 0.38268563 3.0132262e-06 0
-0.47381538 -0.12448967 -0.090846486 0.92386913 0.38270858 2.2546374e-05 0
-0.40912157 -0.12762296 -0.098873295 0.91691053 0.3990925 -0.00054548273 0.000417059
0.10306843 -0.12800384 -0.097312517 -0.91694725 0.39900807 -0.00066749757 0.000421412
0.16923699 -0.12131012 -0.094825096 -0.92387748 0.38268822 -8.0767059e-06 1.0516341e-05
-0.47833246 -0.11358448 -0.093980446 0.92565709 0.37836361 -6.0143408e-05 0.00020281537
0.1091957 -0.11321129 -0.099841982 -0.92387724 0.382689 8.490677e-07 0
-0.48347864 -0.10116047 -0.099899501 0.94576883 0.32481453 -0.0041063991 0.0011169981
-0.41944042 -0.1027111 -0.099677026 0.92387223 0.38270089 1.6933989e-05 0
0.11193071 -0.10660841 -0.095251724 -0.92388511 0.38267007 8.0939453e-06 9.8297078e-06
0.17596981 -0.10505559 -0.095707305 -0.92858541 0.37110904 -0.002687437 0.0002947241
-0.48809344 -0.090019271 -0.091642715 0.96461064 0.26361746 0.0056645446 0.0028515528
-0.42254674 -0.095211744 -0.094714165 0.92387301 0.38269934 -1.5306483e-06 0
0.11731476 -0.093610115 -0.091939837 -0.92854691 0.37121171 0.0015673568 0.00036641568
0.180988 -0.092940599 -0.098200433 -0.96441889 0.26437694 0.0010205068 0.0019691051
-0.48900944 -0.08348126 -0.094066173 0.97901851 0.20367436 -0.0062805568 0.0017424336
-0.42828584 -0.081356376 -0.096323118 0.95230627 0.30513272 0.0026130702 0.0018551808
0.11973464 -0.087768033 -0.090777606 -0.93374449 0.35792425 -0.0033754976 0.00068079442
0.12169307 -0.083039925 -0.097791672 -0.95012516 0.31180578 -0.0062666866 0.0017875972
-0.49078241 -0.070014417 -0.095409922 0.98981798 0.14222376 -0.0057340246 0.00042171654
-0.48966712 -0.078485951 -0.091471843 0.97940421 0.20174251 -0.00821329 0.001924913
0.12522899 -0.074438184 -0.097847514 -0.9690935 0.24666724 0.0036042598 0.0024765597
0.18476397 -0.070949033 -0.096359834 -0.98923218 0.14634797 -0.0014294451 0.00025782461
-0.49161819 -0.063665867 -0.094017111 0.99141264 0.13077074 -5.5231914e-05 0
-0.43247217 -0.064200521 -0.096628025 0.98541945 0.17013948 0.0010623448 0.0013265145
0.12638667 -0.065644816 -0.097194046 -0.97773761 0.20955388 -0.010790967 0.0020956353
0.18515347 -0.067990474 -0.098014191 -0.99035054 0.13858409 0.00055216346 8.0732534e-05
0.40690488 -0.060160697 -0.097262576 -0.18331203 -0.97672665 0.11136272 0.0077594216
0.41529727 -0.061161183 -0.096905008 0.098876551 0.99508882 -0.0046602078 0.0061668777
0.42406857 -0.0614115 -0.094484136 -0.089713193 0.99547893 0.031196177 0.0045964578
0.43221462 -0.060581267 -0.091259331 -0.18128289 0.97993398 0.082860485 0.004550437
-0.43389782 -0.053371802 -0.093067266 0.98915774 0.1468548 -0.00075096084 0.00037036478
0.1274683 -0.057428997 -0.094531275 -0.98708671 0.16006777 -0.0061647505 0.00063594186
0.38810351 -0.054103576 -0.097309679 -0.44934693 -0.86727166 0.21430634 0.0091851186
0.40228438 -0.058880098 -0.093422219 -0.23115958 -0.95665812 0.17711684 0.008792324
0.4448722 -0.057586312 -0.092014454 -0.3508693 0.9284972 0.12158783 0.0064975834
0.45497912 -0.053140532 -0.09446311 -0.50879073 0.82793045 0.23593037 0.0071042511
-0.43443555 -0.049287505 -0.097301126 0.99117351 0.13256389 -0.0013920692 8.9678051e-06
0.12895869 -0.046108447 -0.094038554 -0.99144465 0.13052745 -1.7914621e-05 9.3688386e-06
0.18833332 -0.043837298 -0.097726122 -0.99144405 0.13053226 5.0413155e-07 2.1663111e-06
0.37470305 -0.045154925 -0.096987441 -0.67019868 -0.70187372 0.24126141 0.0067189145
0.47173464 -0.041531757 -0.09002994 -0.69520807 0.68812895 0.20776047 0.0093530165
-0.49549255 -0.034237411 -0.095590755 0.99144393 0.13053317 -3.1156505e-05 1.5293203e-05
-0.43606764 -0.036890466 -0.092581794 0.99144411 0.1305314 5.2179617e-05 2.3786521e-05
0.12992579 -0.038762562 -0.095974408 -0.99144518 0.13052338 -2.4770177e-06 0
0.18954577 -0.034627695 -0.093336195 -0.99144471 0.13052735 -2.0744183e-06 0
0.36034843 -0.030454537 -0.099818975 -0.7570743 -0.46364081 0.46029964 0.010225959
0.47545248 -0.034535613 -0.094571456 -0.78440011 0.556723 0.27345186 0.012608791
0.4802773 -0.030940332 -0.090167582 -0.8195281 0.51403517 0.25326186 0.0085679144
-0.43703032 -0.02957798 -0.09423545 0.99144399 0.13053235 5.2406998e-05 0
0.19082677 -0.024897562 -0.096853442 -0.99144375 0.13053477 8.8642355e-06 6.9421276e-06
0.3599034 -0.023080045 -0.092580147 -0.86558336 -0.2788392 0.4159497 0.046415646
0.47962764 -0.029684827 -0.09309487 -0.87822461 0.38583329 0.28258488 0.023500532
-0.49787921 -0.016108898 -0.095101908 0.99505997 0.099275455 0.00018354802 0.00097019819
-0.43893093 -0.015141696 -0.095886484 0.99413902 0.1081065 0.00070926204 0.00077560236
0.13278374 -0.017054239 -0.096322894 -0.99324977 0.11584184 -0.005974296 0.00024356038
0.19225608 -0.014040953 -0.096170619 -0.99604404 0.088377252 -0.0092661679 0.00090944872
0.35643476 -0.016492879 -0.09352845 -0.91047406 -0.1400259 0.38913965 0.093124576
0.48329061 -0.015410502 -0.09758836 -0.96784514 0.069993041 0.24161305 0.053261608
-0.49918938 -0.0061574038 -0.095899865 0.99959487 0.027619237 -0.0068762773 0.0025512327
-0.44042909 -0.0037621767 -0.095796958 0.99978065 0.020390734 0.0047770487 0.0021435621
0.35366637 -0.0049089999 -0.095331058 -0.9100247 -0.13557638 0.39175764 0.13253675
-0.49946156 0.0040898705 -0.095000595 0.99924004 -0.038827594 -0.0034157359 0.0016731687
-0.44063663 0.0021856495 -0.090900108 0.99960017 -0.025830174 0.01150221 0.0020478438
0.35517731 0.0027707994 -0.093768902 -0.88413644 -0.061563101 0.46315509 0.14523599
0.39624837 0 -0.094119824 0 -1 0 0
0.42822245 0 -0.092319928 0 -1 0 0
0.43787408 0 -0.094632924 0 -1 0 0
0.44305906 0 -0.096246541 0 -1 0 0
0.45324796 0 -0.093534917 0 -1 0 0
0.46313307 0 -0.090492949 -0.0015857264 -0.97281784 0.23156616 0.044334922
0.47645026 0 -0.09085647 -0.90296328 -0.070951477 0.42381978 0.19757533
0.48565435 0.0027647954 -0.092510268 -0.95756543 0.041910935 0.28515252 0.15376019
-0.49773514 0.017203281 -0.097034052 0.99405718 -0.10884985 -0.0014130082 0.00035548469
-0.43958586 0.010166872 -0.094466932 0.99734044 -0.072884068 -0.00013695999 0.0015931865
0.19216317 0.014746623 -0.095026746 -0.99725455 -0.074031271 -0.0016610383 0.00098963559
0.35531327 0.014368134 -0.093743689 -0.86553663 0.065168642 0.49658781 0.08888384
-0.49713472 0.021763923 -0.099184871 0.99322951 -0.11616537 0.0008700444 0.00027657457
-0.43719208 0.028349705 -0.093157887 0.99144441 -0.13052948 2.5622699e-05 1.1786684e-05
0.13181578 0.024406658 -0.093167514 -0.99251461 -0.12211342 -0.0017570892 0.00010075481
0.19043669 0.027860526 -0.097993776 -0.99144429 -0.1305308 1.0864727e-05 0
0.47858417 0.02497869 -0.098253265 -0.90327156 -0.30013511 0.30662578 0.038342107
-0.49555194 0.033786554 -0.093105435 0.99144238 -0.1305452 3.5453813e-05 8.6348027e-06
-0.43663478 0.032582786 -0.09622173 0.99144369 -0.13053501 2.4773006e-05 0
0.1301652 0.036944002 -0.094192676 -0.99144441 -0.13052924 -3.5180403e-06 2.0961172e-06
0.18927035 0.036719594 -0.096498139 -0.99144405 -0.13053264 -8.7468752e-06 0
0.19002779 0.030966435 -0.090866268 -0.99144459 -0.13052864 2.3787472e-05 0
0.3635045 0.031902462 -0.091910698 -0.78416771 0.48723662 0.38429362 0.0064243991
0.47163814 0.03752619 -0.094744459 -0.72398484 -0.64900202 0.23375697 0.0059637441
0.12870872 0.048007067 -0.091466635 -0.99073505 -0.13580342 0.0012274835 3.3494223e-05
0.37504089 0.045548964 -0.09360791 -0.60425436 0.74760294 0.27562031 0.0091234529
0.45757401 0.049359001 -0.096473739 -0.49531502 -0.85142463 0.17245044 0.0040304521
0.46383038 0.046195861 -0.092283614 -0.6070165 -0.77022785 0.19565283 0.0072973897
-0.49267432 0.055644136 -0.093064748 0.99144578 -0.13051897 -3.3183642e-06 0
-0.4336946 0.054915518 -0.094693929 0.98841548 -0.15176962 -0.00086117751 0.00021964757
0.18738747 0.051021881 -0.096834771 -0.99144465 -0.13052787 1.7557833e-06 0
0.40343919 0.059802424 -0.093398891 -0.22613701 0.97133452 0.073288254 0.0099475542
0.44019473 0.058298998 -0.093606867 -0.25237569 -0.96264994 0.098038174 0.0061403774
-0.4910633 0.067880973 -0.093558639 0.9892363 -0.14632611 0.00051191577 0.00042955726
-0.4325189 0.063845783 -0.093312219 0.98195451 -0.18898048 -0.0071913148 0.00066473143
0.18514147 0.06808193 -0.094314978 -0.99082899 -0.13512075 0.0005665393 3.0842439e-05
0.40800512 0.06038823 -0.093709633 0.11053683 -0.99386364 0.0040862202 0.0073774443
0.41248998 0.060955271 -0.094111696 0.062541619 -0.99797225 -0.011828091 0.0081328414
0.42647272 0.060781926 -0.095689043 -0.11401763 -0.99217051 0.050968278 0.0056467354
0.43177766 0.060095564 -0.096535832 -0.14259757 -0.98786646 0.061528903 0.0067725391
-0.4906005 0.071396001 -0.09539897 0.98825711 -0.15276939 0.0030676504 0.00044081028
-0.48991585 0.076596573 -0.097434901 0.98460567 -0.17477238 0.0025145924 0.00094731594
0.12424575 0.076877221 -0.093692638 -0.96164048 -0.27431256 0.00052161928 0.002221545
0.18456113 0.072489858 -0.094039261 -0.98888874 -0.14865683 0.00052149344 0.00030802182
-0.48878738 0.085168131 -0.094763756 0.9754371 -0.22018617 -0.0063641365 0.0019705107
-0.42836091 0.081175059 -0.096221656 0.95747125 -0.28776675 -0.020952964 0.0024617224
0.12166336 0.083111681 -0.094680615 -0.93737328 -0.34828719 -0.0052224617 0.00054471532
0.18291491 0.084993966 -0.093045667 -0.97289652 -0.2311119 -0.0077282046 0.0019076775
-0.48526701 0.096843027 -0.097087622 0.95615047 -0.29267991 0.010714267 0.0018501442
-0.42126685 0.098301657 -0.097500488 0.92389423 -0.38264796 -1.0292107e-05 8.5993006e-06
0.11704367 0.094264597 -0.096481524 -0.92903513 -0.36999077 -0.00082488189 0.00024066545
-0.48230237 0.1040002 -0.098597333 0.94007254 -0.34090418 0.0069206934 0.00095265504
-0.42045742 0.10025586 -0.09152858 0.92385441 -0.3827441 2.5033516e-05 0
0.11267458 0.10481255 -0.097863004 -0.92387891 -0.3826851 3.8940552e-06 8.4855919e-06
0.1770194 0.10252166 -0.096365228 -0.93874663 -0.34441456 -0.011548173 0.00084720168
-0.47822538 0.11384288 -0.093342774 0.92551816 -0.37870279 -0.00053407287 0.00018196792
0.10738762 0.11757638 -0.095378414 -0.9238776 -0.38268813 5.8157752e-06 0
0.11015202 0.11090252 -0.095874459 -0.9238736 -0.38269776 1.0888665e-05 0
0.17043918 0.11840775 -0.091306627 -0.92387688 -0.3826898 -1.0434469e-05 0
-0.47486615 0.12195294 -0.094054416 0.92386043 -0.38272962 -3.1732514e-05 0.00012318851
0.10625616 0.12030797 -0.091096736 -0.9238773 -0.38268885 -2.1711953e-06 9.1276057e-08
0.16599421 0.12913892 -0.095985696 -0.92387569 -0.38269266 -4.1921876e-06 1.2738837e-05
-0.47083238 0.13169129 -0.099557132 0.92387265 -0.38269997 2.8714481e-05 0
-0.46982706 0.13411838 -0.091977298 0.92386377 -0.38272154 -1.7785227e-05 4.1881718e-05
-0.40651891 0.13390632 -0.096186712 0.89957243 -0.43670577 -0.0075781718 0.0010646918
0.16432437 0.13317025 -0.092763096 -0.92387313 -0.38269886 -1.4588609e-05 7.6461847e-06
-0.40280497 0.14271347 -0.093444936 0.87243503 -0.48870835 -0.0046200925 0.0019344926
0.092615485 0.14898223 -0.09244296 -0.85261911 -0.52251649 0.0041408506 0.0021832804
0.15847754 0.14728579 -0.090696946 -0.92387789 -0.38268742 8.5985102e-06 0
0.16066222 0.14201148 -0.096005253 -0.92389435 -0.38264769 -6.5653112e-06 7.519925e-06
-0.4615224 0.15416756 -0.095342532 0.91913539 -0.39393944 -0.0013366013 0.0001952134
-0.45953059 0.15897621 -0.092115223 0.91249675 -0.40905797 0.0046148393 0.00045982952
-0.39361286 0.15536541 -0.09376733 0.81146055 -0.58440471 -0.0017068608 0.00086879666
0.086534224 0.15690747 -0.096882589 -0.81450772 -0.58010644 0.0073312824 0.00086104823
0.15392195 0.15828398 -0.091319501 -0.91158819 -0.41110072 0.0017610986 0.00055723061
-0.3843987 0.16737354 -0.093133539 0.79335153 -0.60876375 -3.9057279e-05 3.2841363e-05
0.081546463 0.16340764 -0.092823051 -0.79675066 -0.60430527 -0.0018519445 5.6376881e-05
0.15196654 0.16300476 -0.091501862 -0.89873117 -0.43846706 0.0053885956 0.00096186751
-0.45142815 0.17623127 -0.095124841 0.86569941 -0.50050604 -0.0076237083 0.0022071355
-0.3767373 0.17735802 -0.099727623 0.79327971 -0.60885727 3.1041367e-05 0
0.14603288 0.17557946 -0.098258972 -0.85078937 -0.52550644 0.00069818622 0.0015066845
-0.4418301 0.18873966 -0.091584593 0.79480803 -0.60686082 -0.0002956872 1.6472817e-05
-0.37122971 0.18453568 -0.090177491 0.78713995 -0.61677372 0.00093093852 0.00010023286
-0.36826003 0.18840578 -0.095893487 0.77764273 -0.62870002 -0.0028230811 0.00031360789
0.054697871 0.19839732 -0.092304379 -0.73225236 -0.68055928 -0.025410406 0.001973365
0.12927736 0.19741565 -0.094730601 -0.79345983 -0.60862261 6.1084487e-05 0
-0.43125087 0.20252687 -0.091688186 0.79336625 -0.60874462 -2.0540994e-05 3.8927792e-05
-0.35496536 0.20475583 -0.09470468 0.70470184 -0.70937937 0.01327218 0.0021625184
0.11984529 0.20970783 -0.097162127 -0.79337311 -0.60873562 -2.0134958e-05 2.8936136e-05
-0.42148528 0.21525364 -0.094674401 0.79332787 -0.60879463 -2.2915798e-05 8.9768611e-05
-0.34198025 0.21483144 -0.094273046 0.61944824 -0.78503615 0.0014808264 0.00028587884
-0.33679003 0.21881403 -0.097286165 0.6096158 -0.79269695 -0.00025644904 1.0616404e-06
0.036865082 0.21423274 -0.096908018 -0.63514102 -0.77239162 -0.0026464094 0.00062811974
0.041871838 0.21039093 -0.09221144 -0.64531142 -0.76391673 -0.0021201468 0.00067323772
0.11250362 0.21927568 -0.090372317 -0.79335308 -0.60876185 -8.4994626e-06 3.1889208e-06
-0.41727349 0.22074243 -0.096719705 0.79332995 -0.60879195 1.023448e-05 4.5740162e-05
-0.32607481 0.22703612 -0.090664476 0.60888386 -0.79325932 -1.5397549e-05 0
0.022667037 0.22512731 -0.098463386 -0.60878265 -0.79333717 -7.1631839e-06 2.5612113e-05
-0.32198232 0.2301764 -0.093422033 0.60887772 -0.79326409 3.051557e-05 0
-0.31284618 0.23718682 -0.095770493 0.5923183 -0.80570292 -0.0013717718 0.00038753779
0.0073456732 0.23688382 -0.095492318 -0.59476388 -0.80389386 -0.0032729248 0.0003759673
-0.30252492 0.24510661 -0.090488456 0.54409099 -0.83899373 0.0073890397 0.0021372889
-0.29829669 0.24835107 -0.098690204 0.50786144 -0.86141282 0.0066864728 0.0016343523
-0.39100236 0.25104168 -0.096284412 0.6484639 -0.76122612 0.0054182457 0.001088489
-0.3889696 0.2526015 -0.094999656 0.64836079 -0.76131421 0.0053806291 0.0011648025
-0.37934861 0.25998393 -0.09994816 0.61561394 -0.78804719 -0.0010125645 0.00012543757
-0.29279104 0.25111204 -0.095138781 0.46991047 -0.88267237 0.0085746357 0.0020851444
-0.27722251 0.25756073 -0.093631119 0.39500463 -0.91867906 -0.00046845901 0.00027179936
-0.020985458 0.2543765 -0.098565131 -0.42079267 -0.90715516 -0.0017650379 0.00084316905
-0.014209323 0.25156975 -0.097868308 -0.46794838 -0.88349378 -0.021517912 0.0021379883
0.076562062 0.25759843 -0.094249055 -0.61342824 -0.78974986 -0.00099763181 8.1907441e-05
-0.37801862 0.26100448 -0.096643463 0.60886276 -0.79327559 5.963934e-05 4.2292475e-05
-0.26723316 0.26169845 -0.095636658 0.38271424 -0.92386675 1.4587989e-05 0
-0.25454992 0.26695201 -0.095269114 0.38270438 -0.92387086 -5.7434445e-06 1.2641847e-06
-0.052692041 0.26750979 -0.099203743 -0.38270432 -0.92387092 1.2093697e-05 2.0035452e-05
-0.034654442 0.26003835 -0.091888227 -0.38268059 -0.92388076 5.6798949e-06 0
0.066265017 0.26549962 -0.098326638 -0.6087696 -0.793347 1.2735237e-05 0
0.071539432 0.26145241 -0.096006334 -0.60877103 -0.79334599 2.269681e-05 0
-0.36130753 0.27382734 -0.096310481 0.60875785 -0.793356 3.9181591e-06 0
-0.35544318 0.2783272 -0.098371319 0.60889155 -0.79325348 -4.7843219e-05 0
-0.24644952 0.2703073 -0.093602687 0.36796588 -0.9298327 0.0035135301 0.00023194548
-0.23164177 0.27644089 -0.090090953 0.28346184 -0.95893145 0.0099930931 0.0019017087
-0.22276287 0.27878532 -0.093776099 0.22973767 -0.97325253 -0.00025084251 0.0023073072
-0.21693072 0.27955315 -0.090465799 0.17903483 -0.98378789 -0.010390128 0.0014628592
-0.085430518 0.27908784 -0.095071793 -0.21504477 -0.97658271 -0.006484434 0.0016449859
-0.073141254 0.27598011 -0.096553989 -0.28960252 -0.95713818 -0.0041163936 0.0018937946
-0.065827951 0.27295086 -0.091333531 -0.353872 -0.9352932 -0.0010904165 0.00027250903
-0.05957295 0.27035996 -0.093680672 -0.36295453 -0.93180329 -0.0025685856 0.00032860012
0.049022693 0.27873012 -0.097003892 -0.60876399 -0.79335147 0 1.2682838e-05
0.051769182 0.27662265 -0.091214009 -0.60879892 -0.79332453 -1.1274205e-05 5.3950727e-05
0.0601964 0.27015623 -0.093577199 -0.60877168 -0.79334545 -4.200956e-05 1.2824426e-05
-0.34595549 0.28560737 -0.091757171 0.6041255 -0.79688883 0.00072132866 7.2736482e-05
-0.20765471 0.28077435 -0.094569623 0.14068884 -0.99005359 0.00069152901 0.00016185026
-0.19275507 0.28273594 -0.094632015 0.13050151 -0.9914481 -7.2579023e-06 0
-0.18770728 0.28340048 -0.091844141 0.13048953 -0.99144971 -3.901348e-06 3.0209259e-05
-0.15547732 0.2875216 -0.094268799 -0.0013736404 -0.99992573 -0.01211396 0.0026992613
-0.14326528 0.28670198 -0.094408616 -0.077904068 -0.99695319 0.0039153951 0.0012969248
-0.12685466 0.28454146 -0.09768372 -0.12519912 -0.99213153 -0.00036045079 3.8873182e-05
-0.1169801 0.28324142 -0.096784845 -0.1305586 -0.99144065 -1.4510271e-05 3.3861485e-05
-0.10511993 0.28168002 -0.0959839 -0.13054104 -0.99144292 -2.7398717e-05 1.157187e-05
0.037989859 0.28719592 -0.099817559 -0.60096204 -0.79927689 -0.0010503477 0.00021644487
0.040334366 0.28539693 -0.090944208 -0.60624301 -0.7952792 -0.00062852819 3.6207846e-05
-0.33345968 0.29519576 -0.091370225 0.53742152 -0.84331131 0.0020369315 0.0022944147
-0.32841206 0.29906893 -0.095821604 0.49752367 -0.86739039 -0.010206221 0.0021506341
0.022788975 0.29885995 -0.091511272 -0.51841313 -0.85506588 0.010494519 0.0022960135
0.032586716 0.2913419 -0.095120952 -0.59710521 -0.80216277 0.00057241297 0.00031560959
-0.32232887 0.30227309 -0.096178211 0.47004429 -0.8826285 -0.0050360258 0.0021926814
-0.31520456 0.30522403 -0.098532945 0.42903352 -0.90328604 0.002170271 0.0011009919
-0.30544382 0.30926704 -0.095818438 0.38653353 -0.92227525 0.00045493498 9.198489e-05
0.0058025364 0.30667651 -0.095098555 -0.4149313 -0.90984476 -0.0038217176 0.00069330912
-0.29448277 0.31380725 -0.090761043 0.382678 -0.92388177 8.5474312e-06 0
-0.28739339 0.31674376 -0.091736026 0.38259166 -0.92391753 -4.4163862e-05 8.393194e-05
-0.022150794 0.31825513 -0.095689394 -0.38268489 -0.92387897 9.1268703e-06 0
-0.013145545 0.31452504 -0.09512236 -0.38268465 -0.92387909 1.6005824e-05 0
-0.0033816425 0.31048074 -0.097492725 -0.38881961 -0.92131358 -0.00073585153 5.2637646e-05
-0.27378398 0.32238096 -0.095956773 0.38264722 -0.92389452 -8.0673881e-06 0
-0.26404813 0.32641366 -0.097325705 0.3745513 -0.92720449 0.001816429 0.00023173905
-0.25573736 0.3298561 -0.09490677 0.35482675 -0.93490666 0.0068952627 0.00088696741
-0.04525419 0.32782483 -0.096024886 -0.37410092 -0.92738014 0.0038008611 0.00011285997
-0.25202236 0.33139488 -0.097626515 0.33969393 -0.94049001 0.0093050916 0.0012064032
-0.24802257 0.33305162 -0.098970369 0.28632984 -0.95789802 -0.02113311 0.0024119923
-0.23650958 0.33605114 -0.097461 0.21799701 -0.97594881 0.0010772713 0.0023912787
-0.22238219 0.33791107 -0.097101159 0.14161699 -0.98992151 0.00021200515 0.00011922266
-0.21571593 0.33878869 -0.093130231 0.13048081 -0.99145085 -1.3826836e-05 5.550194e-05
-0.093638673 0.3392441 -0.09424033 -0.13058192 -0.99143755 -1.0501734e-05 7.1530718e-05
-0.088652447 0.33858764 -0.093016505 -0.13261175 -0.99116802 -0.00012359119 4.2637897e-05
-0.062748991 0.33497086 -0.093194485 -0.2315339 -0.9727512 -0.012125263 0.0025752983
-0.054993771 0.33185911 -0.093624085 -0.36189929 -0.93212831 0.012871961 0.00030456018
-0.19321531 0.34175095 -0.095564038 0.13055848 -0.99144059 -3.223055e-05 0
-0.18487287 0.34284925 -0.097982682 0.13052465 -0.99144506 1.0021048e-06 0
-0.17253172 0.34447402 -0.093424849 0.11252266 -0.99364877 -0.00078191288 0.00022042076
-0.15193711 0.34691924 -0.091111436 0.011137842 -0.9999367 -0.0016098355 0.0029241287
-0.14884423 0.34651208 -0.095935337 -0.012376656 -0.99991673 -0.0036523417 0.0028709401
-0.12081656 0.34282213 -0.096185461 -0.13050643 -0.99144745 -1.8045934e-05 3.5468714e-05
-0.11749611 0.34238496 -0.091358595 -0.13049234 -0.99144936 1.6857693e-05 0
-0.10994837 0.34139132 -0.09608151 -0.13055108 -0.99144155 -2.6680416e-05 8.5328298e-05
-0.20143545 -0.34066877 -0.085785598 0.13056153 0.99144024 2.5848034e-05 0
-0.1985437 -0.34104946 -0.085986607 0.13049194 0.99144936 5.9611557e-06 3.4881024e-05
-0.18345109 -0.34303644 -0.086056277 0.12908426 0.99163365 3.1969565e-05 9.2452749e-05
-0.17661597 -0.34393629 -0.082488403 0.1290914 0.99163264 0.00021806733 0
-0.16692576 -0.34521204 -0.082972504 0.099636614 0.99501967 0.0029068796 0.00065986847
-0.15392081 -0.34660286 -0.087966695 0.014275268 0.99989295 0.0032069674 0.0025143193
-0.14516011 -0.34602705 -0.083354346 -0.053774044 0.9985472 0.0034540317 0.0015215564
-0.13555662 -0.34476271 -0.085416414 -0.11621013 0.9932245 0.00055748178 0.00025909868
-0.10101777 -0.34021556 -0.089808144 -0.13054568 0.99144226 5.4691122e-06 0
-0.24170789 -0.33536676 -0.089330241 0.21844438 0.97574514 0.014261786 0.0022734313
-0.23406684 -0.33637273 -0.082549036 0.19708632 0.98033786 0.0097284019 0.0020825369
-0.22869639 -0.33707976 -0.084389597 0.13571195 0.99074835 0.00029172236 7.6852804e-05
-0.21271379 -0.33918393 -0.088219672 0.13058487 0.99143714 1.4449591e-05 0
-0.097050413 -0.33969325 -0.080244936 -0.13054012 0.99144298 -2.3034099e-06 5.1986899e-05
-0.085699484 -0.33819887 -0.080995366 -0.13737825 0.99051815 -0.00094379607 8.86993e-05
-0.074566774 -0.33673322 -0.084478006 -0.18196531 0.98330432 0.001173608 0.000995234
-0.052710522 -0.33091334 -0.088905863 -0.33388865 0.9425357 -0.01203537 0.00085990306
-0.27400541 -0.32228923 -0.08315473 0.38266507 0.92388707 1.5541038e-05 0
-0.25947115 -0.32830948 -0.082499646 0.36202404 0.93216646 0.0020436798 0.00065239397
-0.050378192 -0.32994726 -0.08103659 -0.33443186 0.94241983 0.00042012331 0.00097156852
-0.0341281 -0.32321629 -0.083987266 -0.38268116 0.9238804 1.5011943e-05 0
-0.028485756 -0.32087916 -0.083170697 -0.38268387 0.92387933 1.379393e-05 0
-0.29657188 -0.31294191 -0.083511196 0.3825399 0.92393899 -5.6629746e-05 8.2426952e-05
-0.28587928 -0.31737089 -0.086928241 0.38268405 0.92387927 -2.0267892e-06 0
-0.020124391 -0.31741577 -0.087035626 -0.38267943 0.92388117 -9.2069113e-06 0
-0.014012534 -0.31488419 -0.084103681 -0.38268334 0.92387962 1.5924255e-05 0
-0.31299904 -0.30613759 -0.085510135 0.41386905 0.91033572 -0.0011227076 0.00068967132
0.0067148521 -0.30629864 -0.085779466 -0.40593612 0.91389602 0.0031563535 0.00078821537
-0.33254841 -0.29589498 -0.082009405 0.56167901 0.82717037 -0.01748899 0.0017128256
-0.32735819 -0.29987758 -0.083118804 0.49603805 0.86791372 -0.025922822 0.0027174086
0.029146885 -0.29398137 -0.087283269 -0.56134009 0.82756752 0.0054285242 0.0015055153
-0.3530007 -0.28020141 -0.088804752 0.60887653 0.79326499 7.4838363e-06 0
-0.34812903 -0.28393954 -0.086286128 0.60860145 0.79347605 9.1671885e-05 2.5349693e-05
-0.20690036 -0.28087366 -0.083472043 0.14220802 0.98983681 0.00020606609 0.00034265805
-0.17392065 -0.28521553 -0.085670568 0.11901681 0.99289215 0.00054970349 0.00025381669
-0.16747171 -0.28606457 -0.087210864 0.096365146 0.99534577 -0.00075676758 0.00080519047
-0.15119547 -0.28774598 -0.08874929 0.025628241 0.99966419 0.0038430588 0.0017922213
-0.14284459 -0.2866466 -0.084561676 -0.058857732 0.99800825 0.0227009 0.0021682831
-0.13594934 -0.28573883 -0.087943986 -0.12811369 0.99175906 -0.00088029692 7.0339283e-06
-0.12159613 -0.28384918 -0.085610643 -0.13054676 0.99144208 -1.666553e-05 1.8473515e-05
-0.11324012 -0.28274909 -0.084498219 -0.13052782 0.99144465 -2.7886033e-06 0
-0.10708758 -0.28193909 -0.084019892 -0.13053483 0.99144369 -1.2220281e-05 2.9356377e-05
0.037033893 -0.28792945 -0.086315967 -0.5972271 0.80207211 -0.00022746084 0.00024054035
0.040537748 -0.28524086 -0.084801108 -0.60879487 0.79332769 -1.8521481e-05 3.9694558e-05
-0.3589735 -0.27561831 -0.082421832 0.60894388 0.79321331 -1.434538e-05 0
-0.23428829 -0.27534467 -0.082812831 0.28799686 0.95762599 0.0031969266 0.0020794857
-0.22125679 -0.27898359 -0.080977455 0.22082107 0.97531092 0.0025721043 0.0016411926
-0.21566179 -0.27972019 -0.081988007 0.16839664 0.9857114 0.0039533051 0.00063583371
-0.091957144 -0.2799471 -0.08608444 -0.15396649 0.98807114 -0.0031315775 0.00053530739
-0.077451192 -0.27776536 -0.089123823 -0.27479178 0.96127427 -0.021004416 0.0019523366
-0.069510318 -0.27447614 -0.083330296 -0.31603307 0.94874817 -0.0003235832 0.0017926669
-0.05994305 -0.27051324 -0.086758912 -0.37700173 0.92621255 0.00030420805 8.536932e-05
0.049030539 -0.27872413 -0.083184354 -0.60876238 0.79335254 -5.3071622e-06 0
0.058609508 -0.2713739 -0.080527544 -0.60878116 0.79333812 1.6248459e-05 2.923986e-05
-0.376057 -0.2625097 -0.084443726 0.61031711 0.79215705 -0.00039534195 3.8342536e-05
-0.36879522 -0.26808184 -0.084409371 0.60879403 0.79332829 -1.0105554e-06 1.1081738e-06
-0.26392153 -0.2630702 -0.081776768 0.38265273 0.9238922 -5.6303275e-06 3.1155472e-05
-0.25365967 -0.26732075 -0.085882187 0.38278043 0.92383939 -9.294522e-06 3.4165754e-05
-0.050873514 -0.26675653 -0.082297601 -0.38266841 0.92388576 -1.3333038e-05 0
-0.044885803 -0.26427636 -0.085170187 -0.38269317 0.92387545 -4.5307338e-06 7.3082792e-06
0.064391628 -0.26693714 -0.082202524 -0.60875225 0.79336035 1.5055164e-05 5.469295e-06
-0.39084157 -0.25116506 -0.089213364 0.63473183 0.77272499 0.0034149096 0.00096378615
-0.38384861 -0.25653094 -0.086410016 0.61966574 0.78486311 0.0020694255 0.00026282383
-0.29102716 -0.25184265 -0.08469829 0.47673002 0.8788498 -0.018750696 0.0022320482
-0.025137911 -0.25609648 -0.083898351 -0.391637 0.92011976 -0.00036036369 0.00010507545
-0.015153337 -0.25196075 -0.089218795 -0.46149749 0.88714093 -0.001040175 0.0017389234
0.075901084 -0.25810564 -0.089129344 -0.6184454 0.78582776 8.585622e-05 0.0002347143
-0.39773592 -0.24538 -0.086015254 0.69100428 0.72263551 -0.017637763 0.0022841084
-0.30323958 -0.24455823 -0.083755448 0.54960275 0.83542335 -0.0021507295 0.0014680796
-0.29909581 -0.24773788 -0.086648606 0.54795295 0.83629751 -0.01881694 0.0014200942
0.087219596 -0.24942061 -0.083488159 -0.66573185 0.74619055 0.00086192624 0.0017444943
0.095826842 -0.24100927 -0.08369001 -0.73327017 0.6799348 -0.0018610343 0.0020762992
-0.40267414 -0.23976874 -0.088878483 0.74003285 0.67241675 -0.014390702 0.0021000132
-0.32100207 -0.23092857 -0.088803798 0.60880876 0.79331708 4.4585038e-05 1.6012002e-05
-0.31472507 -0.23574512 -0.08451841 0.60058427 0.79956025 -0.0013628062 0.00021858494
0.0062642419 -0.23771363 -0.087288134 -0.59956312 0.80032694 0.00094026764 0.00025046573
0.10300837 -0.23165011 -0.081778333 -0.78046429 0.62520039 -5.8546408e-05 0.00029347287
-0.41371459 -0.22538058 -0.086222395 0.79134905 0.6113646 1.5250806e-05 0
-0.33454061 -0.22054008 -0.082037687 0.60892183 0.79323024 5.2015948e-05 4.8211114e-05
0.018861672 -0.22804727 -0.085654229 -0.60876429 0.79335117 -2.8847639e-06 0
0.021466797 -0.22604828 -0.087632269 -0.60876447 0.79335099 -1.2981365e-06 0
0.10699041 -0.22646061 -0.084974423 -0.79094714 0.61188281 -0.0014240207 2.5122272e-05
-0.42032528 -0.21676531 -0.080400705 0.79329383 0.60883892 1.5719843e-05 8.9714587e-05
-0.41935381 -0.21803132 -0.086427227 0.79327035 0.60886955 -5.0076284e-05 0.00018536032
-0.34479517 -0.21267144 -0.084066868 0.64201391 0.76665616 -0.0075146533 0.00063212885
-0.33592814 -0.2194754 -0.081957884 0.6090107 0.79316211 3.7562215e-05 6.2016719e-05
0.029442001 -0.21992867 -0.081468023 -0.60876054 0.79335403 8.1826747e-06 0
0.03823524 -0.21318138 -0.089173876 -0.63344389 0.7737754 -0.0045267949 0.00085375947
0.041190907 -0.21091342 -0.085502088 -0.63377869 0.77351439 0.00012195882 0.00083667878
0.11502067 -0.21599537 -0.084930681 -0.79335642 0.60875732 -3.3980048e-06 1.6287697e-05
-0.43173233 -0.20189936 -0.088501178 0.79330367 0.60882616 -1.585091e-05 0
-0.35405797 -0.20549935 -0.087044053 0.69276315 0.72116256 -0.0019465399 0.0023980243
0.045602363 -0.20752838 -0.083967671 -0.64904046 0.76074243 -0.0041698567 0.00088220427
0.12371535 -0.20466425 -0.085125238 -0.79334003 0.60877877 2.447937e-06 0
-0.4404777 -0.19050218 -0.088520281 0.79797542 0.60268986 -0.00042835012 0.00016099314
-0.43776989 -0.19403107 -0.087946057 0.79328036 0.60885644 5.5406432e-05 0
-0.36081997 -0.19810186 -0.082548521 0.74011654 0.67244226 -0.0070001502 0.0020399152
0.056830578 -0.19561794 -0.082663588 -0.76273978 0.64643949 0.018548539 0.001457355
0.13314247 -0.19237858 -0.086257577 -0.79416054 0.60770798 0.00041532776 2.4073584e-05
-0.44311976 -0.18705896 -0.085561261 0.80937195 0.58720368 -0.010433368 0.00053935341
-0.37174565 -0.18386327 -0.088259637 0.79044354 0.61253458 0.0007467586 0.00010835788
-0.36720008 -0.18978721 -0.086677879 0.78658587 0.61747479 0.0027474915 0.00015313376
0.13511312 -0.1898104 -0.08852455 -0.79914582 0.60112804 0.0033210141 0.00013393203
0.14090414 -0.18226336 -0.084511355 -0.82014614 0.5720228 0.012253508 0.0012067554
-0.45277643 -0.17447416 -0.087017216 0.85955626 0.51098621 -0.0075012469 0.0023161129
-0.38086987 -0.17197238 -0.084754065 0.79335487 0.60875946 -1.8341472e-05 6.6382522e-06
-0.37894726 -0.17447799 -0.089899123 0.79332107 0.60880351 1.6664246e-05 0
0.072587878 -0.17508267 -0.086184971 -0.79334569 0.60877132 8.8452034e-06 0
-0.45693767 -0.16523618 -0.084862493 0.88581109 0.46403217 0.0035793346 0.0024406544
-0.38608891 -0.16517079 -0.088019475 0.79366297 0.60835761 -0.00020409253 4.1034789e-05
-0.46053049 -0.15656233 -0.080841035 0.92294419 0.38493338 0.00063276524 1.1951955e-05
-0.39624861 -0.15193045 -0.08221893 0.82313955 0.56777442 -0.0085747084 0.001436554
0.084400147 -0.15968865 -0.089630254 -0.80368167 0.59505826 0.0011586491 0.00022772441
0.1550802 -0.1554877 -0.089059725 -0.92175364 0.38777196 0.001777999 5.1225052e-05
-0.46516567 -0.14537188 -0.081585087 0.92386705 0.38271362 -2.2962622e-05 0
-0.40195531 -0.14429429 -0.083315141 0.86464185 0.50226361 -0.011212136 0.002487567
0.096191399 -0.14432202 -0.085206822 -0.85594314 0.51699263 0.00893775 0.0015491024
-0.40655288 -0.13382435 -0.084788799 0.9022938 0.4310312 -0.0088292006 0.0013175234
0.098366253 -0.13935591 -0.083328798 -0.86854118 0.49549183 0.0111321 0.0021729004
-0.47299704 -0.12646526 -0.086389139 0.92386127 0.38272738 -1.1116319e-05 3.0167323e-05
0.10460556 -0.1242929 -0.086266465 -0.92056024 0.39059883 0.0011716604 0.0001607062
0.1694244 -0.12085767 -0.084988415 -0.92387956 0.38268346 -9.6900112e-07 8.1817088e-06
-0.41473442 -0.11407232 -0.086341873 0.92386222 0.38272521 -1.2822293e-06 1.1922155e-05
0.10854969 -0.11477089 -0.08347404 -0.92388093 0.38268006 5.0401136e-06 4.9900796e-06
-0.48201698 -0.10468915 -0.087218635 0.93743736 0.34813425 0.0036999225 0.00083142763
0.17765674 -0.10098299 -0.088776127 -0.94348049 0.33131695 -0.0085766558 0.0015825687
-0.48523927 -0.09690991 -0.083824612 0.95017892 0.31154597 0.0099548353 0.001625347
-0.42146671 -0.097819187 -0.081583872 0.92429245 0.38168514 -9.5790914e-05 7.3389972e-05
0.11805788 -0.091816068 -0.086734354 -0.93325847 0.35920489 -0.00062677526 0.00067382539
0.17984655 -0.095696338 -0.081832811 -0.95407313 0.29957283 0.00076083653 0.0024336514
0.18120067 -0.092427149 -0.083931811 -0.96647465 0.25670877 0.005222023 0.002150537
-0.48862806 -0.086378194 -0.089807071 0.97061384 0.24025786 -0.013599264 0.0024268841
0.11985622 -0.087474488 -0.087324724 -0.9338125 0.35773012 -0.0048435633 0.00068084046
0.12171276 -0.08299242 -0.083219893 -0.94829738 0.31731048 0.0067967763 0.0018087316
0.18325475 -0.082412615 -0.083282024 -0.97970086 0.20038284 0.0057445862 0.0015298303
-0.48973444 -0.077974454 -0.084131025 0.97997046 0.19903198 -0.0066474471 0.0014254397
-0.43073303 -0.075448304 -0.084653042 0.96448666 0.26412439 0.0019729359 0.0022912261
0.12445864 -0.076363266 -0.083029337 -0.95824355 0.28594589 -0.002065358 0.0018110683
0.18414268 -0.075668178 -0.086048365 -0.98383009 0.17909177 0.0021177398 0.00097102422
-0.49189693 -0.061548773 -0.085197248 0.99140918 0.13079666 -1.7410619e-05 0
0.12649691 -0.06480743 -0.081759959 -0.97864854 0.2053639 0.0085238982 0.0017224357
0.18598276 -0.061691333 -0.089217961 -0.99144405 0.1305324 -1.1253562e-05 0
0.42722708 -0.061395787 -0.086550534 -0.097805038 0.99373657 0.054053299 0.005605978
0.12744638 -0.057595454 -0.087756947 -0.98711139 0.16002601 -0.0016736349 0.00072784961
0.38902959 -0.051614836 -0.084689334 -0.52867496 -0.82527035 0.19857405 0.0047988086
0.39384517 -0.054426879 -0.085502185 -0.44937676 -0.87691134 0.17054902 0.0066033672
0.44665205 -0.057983886 -0.085227154 -0.33112451 0.93952167 0.087495804 0.0060978057
0.45050168 -0.05661653 -0.084498242 -0.38396171 0.91325253 0.13617314 0.0063832691
-0.43561617 -0.040319715 -0.087055378 0.99144447 0.13052911 3.3732398e-05 5.0837181e-05
0.12945852 -0.042311791 -0.086418688 -0.99144506 0.13052458 2.0209541e-06 2.0398302e-05
0.18827869 -0.044252083 -0.082148328 -0.9914453 0.1305224 2.901133e-06 0
0.37697753 -0.042289078 -0.083706245 -0.69719839 -0.66345996 0.27154258 0.0044564968
0.38403884 -0.048016202 -0.084321439 -0.55222338 -0.806638 0.21067642 0.0058791451
0.46716055 -0.046919253 -0.085961685 -0.62209034 0.7511453 0.22087178 0.0049761771
0.47166866 -0.043453835 -0.086300567 -0.6682266 0.72010994 0.1868553 0.0068093366
-0.43590122 -0.038154598 -0.088340171 0.99144179 0.1305493 -1.5603023e-06 8.0781865e-05
0.18956368 -0.034491733 -0.083698452 -0.99144369 0.13053447 -9.3870909e-07 0
0.36969596 -0.036547154 -0.089350075 -0.73363972 -0.59423286 0.32963613 0.008229183
0.37145272 -0.037683696 -0.087438844 -0.73809361 -0.60236871 0.30392402 0.0086745359
0.47893655 -0.035349589 -0.08387652 -0.79494375 0.58103752 0.17452715 0.0059321034
0.48078755 -0.033352442 -0.081294894 -0.82124656 0.54800195 0.15889576 0.0084890015
-0.49713477 -0.021763539 -0.085614011 0.99323905 0.11608326 0.00091681315 0.00038210739
0.19047618 -0.027560595 -0.083925471 -0.99144489 0.1305261 -8.3788282e-06 0
0.36387858 -0.024860891 -0.084990703 -0.86471575 -0.33692396 0.37249014 0.0439036
0.48228654 -0.029139586 -0.087241367 -0.88047469 0.40364292 0.24866982 0.027259778
-0.49853253 -0.011146475 -0.080317877 0.99717885 0.07502199 -0.0024632353 0.0012105479
-0.43861625 -0.017532011 -0.086659975 0.99410832 0.10814319 0.0073281978 0.00077139837
0.19238752 -0.013042513 -0.085490569 -0.99757409 0.069599211 0.001402403 0.0013821446
0.35840923 -0.010856541 -0.086193949 -0.94175869 -0.11115464 0.317388 0.11412663
0.48786139 -0.016814485 -0.083606325 -0.9685325 0.051122252 0.24357997 0.068552658
-0.49892008 -0.0082028881 -0.082835183 0.99864113 0.052105874 -0.00099448801 0.0017626362
-0.44021836 -0.005363083 -0.080687046 0.99918228 0.040398985 -0.0016138195 0.0018539439
0.1344742 -0.0042139743 -0.084752597 -0.99994981 0.010000518 0.00057119934 0.0025274754
0.35867703 -0.0073200669 -0.084171958 -0.91287053 0.042329114 0.40604877 0.14276814
-0.49917749 0.0062475568 -0.085873269 0.99843878 -0.055225879 0.0083694058 0.0017901557
-0.44089562 0.00021803964 -0.088772222 0.99953556 -0.028673528 0.010322583 0.0020522347
0.13409212 0.0071161366 -0.08797922 -0.99799091 -0.062986605 0.0068504452 0.0011425387
0.19307664 0.0078082476 -0.084686987 -0.99835736 -0.056505106 0.0094781695 0.0011769772
0.35872895 0.0018543948 -0.081754372 -0.88421929 -0.045604993 0.46484023 0.11540275
0.37479621 0 -0.089575283 -0.078880355 0.99174219 0.10112 0.19812012
0.38475367 0 -0.086113594 -0.092802405 0.99564278 0.0091121299 0.05541027
0.39777106 0 -0.085024282 0 -1 0 0
0.4073928 0 -0.081204779 0 -1 0 0
0.41528055 0 -0.085500218 0 -1 0 0
0.43196175 0 -0.087728716 0 -1 0 0
0.44548663 0 -0.089314304 0 -1 0 0
0.45158958 0 -0.086753882 0 -1 0 0
0.46048912 0 -0.082318179 -0.05037057 0.99872082 0.0044241706 0.0030900207
0.47224292 0 -0.086584352 -0.15875222 0.96798182 -0.19444501 0.21095951
0.48942506 0.0062478161 -0.08209952 -0.90159631 0.054573484 0.42912227 0.13708378
-0.49793568 0.015679974 -0.086851388 0.9959113 -0.089905404 -0.0088174427 0.00097882189
-0.43905172 0.014224291 -0.086817935 0.9954266 -0.094811566 -0.011691371 0.00054437458
0.13272887 0.017471118 -0.080073357 -0.99334735 -0.1151355 -0.0021957636 0.00022985964
0.19203541 0.015717156 -0.086896427 -0.9961853 -0.08651448 0.011408492 0.00071689166
0.36052844 0.012322393 -0.080541208 -0.91883683 0.080947541 0.38624635 0.10209279
0.48821858 0.013591335 -0.082889818 -0.8620556 0.072804727 0.50155711 0.10918756
-0.49678615 0.024411792 -0.083682768 0.99175191 -0.12815945 -0.0018458752 9.5057985e-05
0.1317766 0.024704218 -0.084077321 -0.99223173 -0.12440336 -0.00022536844 8.0731719e-05
0.19083017 0.024871718 -0.085142493 -0.99144518 -0.13052402 8.6129648e-06 0
0.36321446 0.025708323 -0.085240491 -0.87559736 0.32859689 0.35405266 0.04873912
0.48328325 0.025732012 -0.085432656 -0.88629359 -0.31870836 0.3360188 0.041092314
-0.49527341 0.035901915 -0.085104644 0.99144387 -0.13053384 -4.831832e-06 0
-0.43656003 0.033150546 -0.082431659 0.99144208 -0.13054694 1.3190951e-05 0
0.12990925 0.038888231 -0.083531506 -0.99144512 -0.13052392 -1.5583236e-06 0
0.18993692 0.031656582 -0.089118324 -0.99144405 -0.13053189 1.9627376e-05 0
0.19002497 0.030987725 -0.08365573 -0.99144518 -0.13052386 1.2764936e-05 0
0.37205434 0.038319733 -0.083848804 -0.75426853 0.60073483 0.26494643 0.010044542
0.47760302 0.035689823 -0.082653269 -0.78991747 -0.58294296 0.19028378 0.0045645325
-0.49416196 0.044344328 -0.087625273 0.99144411 -0.13053182 5.3601389e-06 0
0.18773782 0.048360474 -0.082390279 -0.99144554 -0.13052115 -1.2231646e-05 2.0157506e-05
0.37879205 0.045854989 -0.085413173 -0.6363439 0.73838586 0.2232774 0.013810351
0.46757451 0.046549704 -0.081731468 -0.63028353 -0.75617135 0.17591937 0.0057811732
-0.49322897 0.051430978 -0.082668051 0.99144381 -0.13053408 8.1146005e-05 0
-0.4338921 0.053415403 -0.083404362 0.99144417 -0.13053186 1.169071e-05 0
0.38962159 0.052321911 -0.081000932 -0.45151439 0.87782365 0.15987636 0.0076628467
0.40667284 0.059431259 -0.080991969 -0.20839959 0.97421414 0.086466447 0.011352766
0.4466044 0.057860073 -0.080921397 -0.29820907 -0.95020747 0.090427436 0.0094845239
0.45122463 0.055014119 -0.0878492 -0.43508491 -0.88616979 0.15938689 0.0068466361
-0.49190044 0.061522126 -0.08658094 0.99144351 -0.13053647 -6.7867666e-05 4.0900926e-05
0.12642717 0.065337211 -0.084027641 -0.9818632 -0.18942834 -0.0078462046 0.0013090357
0.1857599 0.063384071 -0.081004485 -0.991445 -0.1305251 6.8113713e-06 6.0285138e-06
0.41757876 0.060982764 -0.082370728 0.08193104 -0.9961521 -0.03111844 0.0094417538
0.42201555 0.061434373 -0.080602899 0.0055081863 -0.99988371 -0.01421965 0.0056366012
0.43412369 0.060380917 -0.085195407 -0.13171618 -0.98767281 0.084576696 0.0061361496
-0.49074152 0.070324972 -0.080093369 0.99057704 -0.13688821 -0.0043204161 0.00012419074
0.12579617 0.070130102 -0.087141514 -0.97007716 -0.24268959 -0.0072189276 0.0024788443
0.18443039 0.073482931 -0.084132373 -0.99070722 -0.13598423 0.0027372392 6.2859843e-05
-0.48861742 0.086459056 -0.088798188 0.96981597 -0.24381243 -0.003541888 0.0018580699
-0.4270117 0.084432364 -0.08475554 0.93906534 -0.34373412 0.0018068257 0.0010160764
0.11914697 0.089186788 -0.082622439 -0.93128449 -0.36428022 0.0030176474 0.00039388298
-0.42319483 0.093647189 -0.088030294 0.92384672 -0.3827627 1.4309984e-05 0
0.11626686 0.096140012 -0.083998561 -0.92617989 -0.37707901 0.0014967341 8.524194e-05
-0.48082241 0.1075732 -0.086525239 0.93006229 -0.3673963 0.002019509 0.00020839873
-0.41703141 0.10852697 -0.082858473 0.92386997 -0.38270661 -7.4473905e-06 0
0.11224099 0.10585931 -0.082370102 -0.92387891 -0.38268489 -2.3096719e-08 6.4315477e-06
0.17459568 0.10837305 -0.085079163 -0.92985606 -0.36792162 -0.0011884733 0.00017758095
0.10841461 0.11509703 -0.0850401 -0.92387885 -0.38268504 1.0657675e-06 0
-0.4718473 0.12924099 -0.084962107 0.92385906 -0.38273284 -7.600659e-06 1.3392625e-05
0.10447941 0.12459743 -0.086569853 -0.91958416 -0.39289132 0.0011403963 0.00017413138
0.16764754 0.12514734 -0.084360629 -0.92388654 -0.38266644 -4.0523441e-06 2.4749852e-07
-0.46883261 0.13651922 -0.085542336 0.92387044 -0.38270539 -7.5582147e-06 0
0.10173352 0.1312266 -0.084511414 -0.90736288 -0.42026779 -0.0082217008 0.0010700764
0.16504343 0.13143429 -0.0820788 -0.92387944 -0.38268366 4.890233e-06 0
-0.46487999 0.14606169 -0.08448559 0.92385983 -0.38273117 3.905463e-05 5.0746443e-05
-0.40116102 0.14552848 -0.088737294 0.85863423 -0.5123136 -0.016795503 0.0023728856
0.097680941 0.1410104 -0.083462805 -0.88307154 -0.46923152 0.0025453682 0.0020148319
-0.46132651 0.15464053 -0.083976537 0.91721159 -0.39834017 0.0069359918 0.00017383053
-0.39633512 0.15181768 -0.085506037 0.83316332 -0.55295885 -0.0086874338 0.0018518622
0.087189853 0.15605304 -0.084195212 -0.81575751 -0.57837468 0.0047325497 0.0011522379
0.15331304 0.15975399 -0.086974099 -0.90870899 -0.4174189 -0.003074371 0.00065676891
-0.45781243 0.16312432 -0.0893462 0.9037199 -0.42812306 0.00096027995 0.0012453221
0.076690972 0.16973542 -0.08537852 -0.79334652 -0.60877037 6.0387697e-06 0
0.15187606 0.16322315 -0.084172294 -0.90461481 -0.42620227 -0.0048751519 0.00069476402
-0.4501583 0.17788617 -0.085505232 0.86118925 -0.50793982 0.018714564 0.0019841969
-0.44961661 0.17859212 -0.081612326 0.85279828 -0.5222165 0.0049982732 0.0020423497
-0.38094407 0.17187564 -0.0850541 0.7933355 -0.60878468 1.0100258e-05 0
-0.37803939 0.17566109 -0.08169432 0.79331797 -0.60880744 -4.4713761e-05 9.897416e-05
0.069335915 0.17932069 -0.083409324 -0.7933436 -0.60877407 7.3227452e-06 0
0.07120917 0.17687942 -0.087296426 -0.79335779 -0.60875565 -7.9963338e-06 4.2162947e-06
0.14380333 0.17848507 -0.084026374 -0.85088181 -0.52533716 0.0045794705 0.00154374
-0.44396722 0.18595454 -0.084721535 0.80735844 -0.59006071 0.00081050006 0.00081046874
-0.36825752 0.18840908 -0.080187559 0.78233677 -0.62285197 0.0021437882 0.000448053
0.066199951 0.18340755 -0.082094312 -0.79334444 -0.60877305 1.1277319e-05 0
-0.36413878 0.19377676 -0.086081706 0.76767993 -0.64083308 0.00075396313 0.0010119179
0.056863137 0.19557551 -0.084851377 -0.73893207 -0.67360616 -0.015301873 0.0018447414
0.13277702 0.19285484 -0.088269085 -0.79344511 -0.60864174 0.00013103279 0
-0.43117684 0.20262329 -0.082024701 0.79337925 -0.60872757 2.8247694e-05 0
-0.4256095 0.20987885 -0.08910808 0.79331863 -0.60880667 -1.0623808e-05 0
-0.35408074 0.20541 -0.085953593 0.69442165 -0.71954924 -0.0052545653 0.0021793696
-0.34967181 0.20892948 -0.084443003 0.67671341 -0.7362144 -0.0068813735 0.0019471485
0.043501433 0.20914048 -0.080973744 -0.6678344 -0.74430943 0.00084944558 0.0010108333
0.052735582 0.20095463 -0.086132228 -0.72291023 -0.69037616 -0.02795461 0.001699292
0.11962348 0.20999688 -0.081272677 -0.79336578 -0.60874528 6.2693521e-06 7.0110077e-06
0.12522292 0.20269953 -0.082273923 -0.79335636 -0.60875756 1.2211835e-05 0
-0.42348674 0.2126452 -0.08587493 0.79336637 -0.6087445 -8.3031262e-07 3.1249099e-05
-0.34406456 0.21323209 -0.085837185 0.62854064 -0.7777698 -0.0032940966 0.00070323155
-0.33787966 0.21797791 -0.085967168 0.60989028 -0.79248571 -0.00034914969 3.4300767e-05
0.036042605 0.21486385 -0.082341887 -0.63881028 -0.76934624 0.0052798036 0.00076459552
0.041758895 0.21047758 -0.082688294 -0.66002905 -0.75122255 0.0051383632 0.0010933216
0.11678374 0.21369773 -0.083099708 -0.79331577 -0.60881042 1.3672972e-05 0
-0.33174241 0.22268718 -0.086754262 0.60946298 -0.79281449 2.8969491e-05 0
0.025899153 0.2226472 -0.08604335 -0.60876513 -0.79335052 -1.1976252e-06 3.347006e-06
0.10578664 0.2280294 -0.084815741 -0.7880677 -0.61557591 0.0039403592 8.674807e-05
0.11079174 0.22150663 -0.084071577 -0.79338712 -0.60871732 -1.8711955e-05 1.7595428e-05
-0.40532115 0.23631911 -0.086775213 0.76128209 -0.64840573 0.0044287769 0.0012252965
-0.31205574 0.23779336 -0.086419344 0.59297365 -0.80522013 -0.0017069859 0.00043129316
0.0079417927 0.2364264 -0.084973939 -0.59067911 -0.80686241 0.0084322197 0.00027664591
0.012448709 0.23296814 -0.083770722 -0.60861462 -0.79346597 -2.6067175e-05 0
-0.40062577 0.24243826 -0.089772053 0.73216033 -0.68105984 0.0099420631 0.0020059035
-0.39446935 0.24838138 -0.087214582 0.66660899 -0.74539322 0.0046101604 0.001423517
-0.30555651 0.24278039 -0.083156325 0.57453609 -0.81847578 0.0023702774 0.0011249918
-0.29802746 0.2485331 -0.086293362 0.49524862 -0.86867243 -0.011703261 0.0025662885
-0.0054616234 0.24671122 -0.084175602 -0.52151936 -0.8532322 -0.0035019109 0.0021242218
0.0032016779 0.24006364 -0.081421226 -0.57310128 -0.81934464 0.015139734 0.00082512369
0.088753402 0.24824369 -0.082481645 -0.6843043 -0.7291348 0.0094899964 0.0020832866
0.094764046 0.24239433 -0.082202464 -0.730304 -0.6831215 0.0010512377 0.0022460306
-0.39035237 0.25154045 -0.08134032 0.64881432 -0.76091766 -0.006643171 0.0011253471
-0.38791567 0.25341022 -0.08281564 0.63769478 -0.77028358 -0.0029127137 0.00067457242
-0.29154062 0.25163001 -0.088997692 0.46192858 -0.88691479 -0.0020087627 0.0023630052
