# .PCD v0.7 - Point Cloud Data file format
VERSION 0.7
FIELDS x y z normal_x normal_y normal_z curvature
SIZE 4 4 4 4 4 4 4
TYPE F F F F F F F
COUNT 1 1 1 1 1 1 1
WIDTH 592
HEIGHT 1
VIEWPOINT 0 0 0 1 0 0 0
POINTS 592
DATA ascii
0.39000997 -0.12960549 -0.20051794 -0.90640831 0.2456319 0.34364074 0.087441497
-0.25269157 -0.11408487 -0.20310363 0.83692414 0.38903078 0.38498455 0.085481353
0.38143486 -0.11234805 -0.20194983 -0.81298655 0.35769072 0.45946732 0.089135997
-0.27240819 -0.10100427 -0.20355353 0.87678468 0.3141332 0.36410004 0.072103247
-0.26746836 -0.1056104 -0.20968011 0.83515543 0.35313645 0.42167532 0.0704166
-0.2565403 -0.10406435 -0.20363769 0.84704477 0.35994193 0.39109716 0.083063759
0.37955081 -0.10778985 -0.20978153 -0.85038412 0.34360653 0.39847377 0.087762423
0.3843936 -0.10022688 -0.20613882 -0.83955806 0.31393397 0.44338223 0.090322226
0.39618021 -0.10452835 -0.2087492 -0.82305694 0.28673258 0.49026701 0.090152889
-0.2749956 -0.093910359 -0.20419274 0.91924608 0.18163233 0.34927961 0.070840359
-0.25856683 -0.096053913 -0.2062571 0.83552802 0.33597818 0.43475449 0.084609963
0.38592368 -0.096044406 -0.20652124 -0.81792557 0.34523189 0.46023104 0.098743938
0.39906424 -0.097798459 -0.20849365 -0.78034872 0.38639271 0.49168751 0.097418927
0.4005723 -0.092738949 -0.20962626 -0.84329098 0.18816435 0.50344259 0.091206297
-0.27631995 -0.083974808 -0.20525536 0.91480887 0.20016792 0.3507956 0.081825376
-0.26178825 -0.088250495 -0.20604533 0.88506842 0.2141059 0.4132947 0.092773117
0.38816252 -0.085416526 -0.20963234 -0.86866015 0.15867899 0.4693087 0.09241277
0.38994658 -0.075287484 -0.2085897 -0.86403793 0.074863099 0.49782929 0.083131574
0.39176625 -0.074259192 -0.20481284 -0.83242834 0.095877342 0.54577529 0.081127778
-0.28039172 -0.061871003 -0.20268345 0.96098351 0.11078782 0.25344944 0.076082461
-0.26375622 -0.067915015 -0.2078523 0.94048917 0.098911025 0.32511023 0.075886898
0.39343095 -0.066615112 -0.20331281 -0.89646697 0.047492985 0.44055802 0.079374656
-0.27890721 -0.054485157 -0.20795089 0.94696397 -0.029393071 0.31999266 0.075494885
0.3933273 -0.052980464 -0.20752209 -0.85402608 0.22096761 0.47097006 0.084842026
0.40701711 -0.055570334 -0.20699003 -0.87099606 0.25644889 0.41904628 0.084924892
-0.28272432 -0.044064537 -0.20265216 0.94738591 0.084737256 0.3086738 0.084942169
-0.26743793 -0.044240896 -0.20650899 0.91478044 0.065517172 0.39860296 0.08224953
0.39585292 -0.044437379 -0.20435554 -0.89859909 0.28014192 0.33769858 0.099123672
0.40917528 -0.048100948 -0.20443669 -0.94159144 0.18284155 0.28279766 0.10240667
-0.28346223 -0.038013503 -0.20275941 0.94476849 0.072577432 0.3196013 0.087635726
-0.27089411 -0.031274598 -0.20254755 0.89776832 0.1484748 0.41468945 0.090703011
-0.26755273 -0.033133943 -0.20949167 0.93233752 0.085683636 0.3512904 0.085897192
0.3966662 -0.039902233 -0.20385626 -0.93025494 0.19322349 0.31191409 0.093512863
0.41002613 -0.032735512 -0.20691234 -0.95486581 0.11765317 0.27274334 0.090686366
-0.28354043 -0.021983294 -0.20708486 0.90249991 0.1859238 0.38849238 0.085544787
0.40985149 -0.029923983 -0.20807676 -0.95453292 0.10448008 0.27919644 0.086069711
0.41189173 -0.027578643 -0.2043407 -0.92095554 0.11805877 0.37135294 0.094460085
-0.27218989 -0.015773473 -0.20416601 0.90421683 0.18673834 0.38408422 0.072524562
0.41455388 -0.017429926 -0.20145319 -0.88428885 0.15275186 0.44124845 0.081209891
-0.2865434 -0.0014404346 -0.20637724 0.94395846 -0.051017314 0.32609758 0.085940294
-0.27162951 0.0093610063 -0.20739344 0.9052586 -0.09607996 0.41385451 0.076124154
0.39848092 0.0060858261 -0.20975561 -0.88067371 -0.093021363 0.46450067 0.077560052
-0.28527519 0.011993818 -0.20614986 0.89728177 -0.17152117 0.40677497 0.085158929
-0.27001962 0.017262828 -0.20869547 0.90741879 -0.13461761 0.39808187 0.094620429
-0.26990381 0.015523072 -0.20946243 0.89593446 -0.16682103 0.41166997 0.08607737
0.39767829 0.019063618 -0.2077684 -0.89518464 -0.20490591 0.39580056 0.10552932
0.40079629 0.017557327 -0.20122208 -0.89556587 -0.19519813 0.39982426 0.10316609
0.4136675 0.01444581 -0.20419879 -0.91176057 -0.13464208 0.38802612 0.10238648
-0.28579414 0.026998946 -0.20082547 0.91342634 -0.091524228 0.39657992 0.086661831
-0.27266064 0.02351748 -0.20095374 0.9234978 -0.085885234 0.37386551 0.08417096
0.39913493 0.029697603 -0.20140293 -0.9013533 -0.18566062 0.39127022 0.10355467
0.40944564 0.027905863 -0.20951697 -0.91260791 -0.080229215 0.40088657 0.10794305
0.41231018 0.022072185 -0.20498364 -0.87047887 -0.23846936 0.43057975 0.10972313
-0.28259683 0.036117092 -0.20515484 0.91487086 -0.064438701 0.39857125 0.092578448
-0.26784739 0.035243437 -0.20831749 0.923298 -0.072177723 0.37724137 0.081474043
0.39733082 0.036504939 -0.20345952 -0.9209761 -0.16240957 0.35415554 0.092635527
0.40971535 0.031603377 -0.20789936 -0.91585398 -0.083634451 0.3927044 0.10182
0.41211981 0.032247119 -0.20254076 -0.89071649 -0.20530058 0.40555602 0.099725924
-0.28308392 0.048558969 -0.20061773 0.94239432 -0.074124113 0.32618767 0.093672186
-0.27949548 0.049633984 -0.20804434 0.91428852 -0.04717404 0.40230715 0.079669848
0.3942304 0.048488561 -0.20691028 -0.93523258 -0.092928998 0.34161988 0.081468277
-0.28043276 0.052164674 -0.20531638 0.90189016 -0.15782559 0.40210107 0.084159747
-0.26474509 0.057786502 -0.20869252 0.92607117 -0.11709562 0.35872108 0.081429869
-0.27651617 0.06963522 -0.2088531 0.90120339 -0.24910872 0.35465077 0.079085395
0.40537024 0.06753771 -0.20718154 -0.92779964 -0.073020943 0.36586297 0.077476747
-0.27672127 0.072069667 -0.20772895 0.88705307 -0.28329477 0.36452821 0.077405952
0.3892521 0.078839511 -0.20921083 -0.92113107 -0.12365396 0.36908975 0.090247698
0.40275368 0.079969428 -0.20933084 -0.9139601 -0.063221484 0.4008491 0.085506238
-0.27629444 0.086063765 -0.20472479 0.85905814 -0.3346025 0.38737616 0.087484747
-0.26235667 0.087429382 -0.20539697 0.86586195 -0.27457097 0.4182032 0.078968592
0.38854453 0.088848956 -0.20749985 -0.87000149 -0.25709268 0.4207145 0.0894683
0.40464628 0.086433724 -0.20344254 -0.93377835 -0.18461323 0.30655494 0.10489265
-0.26205096 0.091402769 -0.20325752 0.84830582 -0.31808099 0.42332226 0.078072272
-0.25955328 0.09059497 -0.20916311 0.88921016 -0.30030194 0.34514368 0.076973133
0.38713565 0.09575671 -0.20453377 -0.83108604 -0.40398008 0.38222519 0.093694545
0.40227765 0.095999226 -0.20352414 -0.8514424 -0.39523941 0.34471974 0.08465527
-0.27304286 0.10217168 -0.20132035 0.86176413 -0.33446938 0.38143504 0.087951995
-0.25491059 0.10969115 -0.20252503 0.87265056 -0.26873413 0.40775353 0.080974706
0.39509895 0.10681447 -0.20903981 -0.82145399 -0.44100717 0.36156049 0.087207563
0.40112057 0.10053557 -0.20211723 -0.81242847 -0.48312032 0.32642716 0.094141483
-0.26576424 0.11520729 -0.205211 0.92060715 -0.19920862 0.3358548 0.08446078
-0.2515544 0.11338186 -0.2063757 0.86033827 -0.29860473 0.41310206 0.073194548
0.37712142 0.11722845 -0.20707852 -0.80776238 -0.40464023 0.42870292 0.07119526
0.39381349 0.1164229 -0.20372134 -0.85513234 -0.36366895 0.36945051 0.085235015
-0.2638486 0.1245432 -0.20138079 0.87176448 -0.31806868 0.37263778 0.091017298
-0.25088796 0.12162372 -0.20071895 0.82639176 -0.38404521 0.41180816 0.080031648
-0.24637224 0.12927672 -0.20360208 0.84510744 -0.34659496 0.40701997 0.077064574
-0.24331412 0.13729812 -0.203127 0.83945799 -0.34534714 0.41957802 0.077514499
0.37251043 0.1337897 -0.20254165 -0.81429124 -0.37934244 0.43935061 0.075400032
-0.23792398 0.14885576 -0.2044965 0.84218913 -0.33707553 0.42082956 0.07696557
-0.23467064 0.15527257 -0.20580122 0.83835667 -0.33633071 0.42899853 0.071461923
0.3610369 0.15949854 -0.20450944 -0.88489705 -0.28095952 0.37150902 0.078324422
0.37552464 0.15977022 -0.20479098 -0.89631832 -0.26269746 0.35721636 0.087794818
-0.23101786 0.16327037 -0.20658782 0.83531743 -0.34907103 0.42472827 0.081847601
-0.22963531 0.16547245 -0.20759115 0.82613385 -0.39270332 0.40408787 0.080576174
0.358437 0.16600385 -0.20437393 -0.83288133 -0.38795772 0.39471185 0.098284811
0.36013561 0.16468433 -0.201956 -0.87262225 -0.33188918 0.35830152 0.092518575
0.3736946 0.16441679 -0.20464388 -0.89950794 -0.34544727 0.26749161 0.09298978
-0.24318796 0.17426978 -0.2019648 0.86197042 -0.42539427 0.2757656 0.094889015
-0.22369306 0.17910722 -0.20271681 0.74890101 -0.52047515 0.41018638 0.093566529
0.3498005 0.17816541 -0.2064558 -0.80261695 -0.45475885 0.38600567 0.092956521
0.35593078 0.17129204 -0.2048059 -0.81739235 -0.40922236 0.40547109 0.094718635
0.36757696 0.17673002 -0.20679903 -0.84273958 -0.4090293 0.34997854 0.097706422
-0.23176117 0.18757863 -0.20668937 0.7581194 -0.55096459 0.34884527 0.093643203
-0.21712528 0.18629801 -0.20470899 0.75721371 -0.51676154 0.39948094 0.074360602
0.35937223 0.18588525 -0.20923907 -0.79420638 -0.48302007 0.36868393 0.091729328
0.36650375 0.18252589 -0.20134267 -0.81603736 -0.45020199 0.36249304 0.092510283
-0.21038461 0.19781739 -0.20112255 0.76676399 -0.55008101 0.33088341 0.081028953
0.33914593 0.19343406 -0.20478556 -0.70620924 -0.62809455 0.32675034 0.072101012
-0.21312736 0.20984161 -0.20968831 0.71284926 -0.56224597 0.41919604 0.079592921
-0.20348182 0.20456801 -0.2043142 0.71734762 -0.56158 0.41235945 0.079069234
-0.19815405 0.20790206 -0.2093302 0.76262444 -0.52160418 0.3825351 0.075515047
0.32796228 0.20558381 -0.20830697 -0.82580596 -0.45161363 0.33777148 0.075557157
0.33165619 0.20472565 -0.2028518 -0.79693645 -0.45562866 0.39660412 0.080987461
0.34737879 0.20132619 -0.20971562 -0.66912562 -0.65455127 0.35189989 0.071281016
0.32174283 0.21326837 -0.20900306 -0.764247 -0.52801794 0.37030202 0.085633576
-0.19205855 0.22078566 -0.20273107 0.73771614 -0.56929827 0.36286971 0.08846695
-0.1866993 0.227809 -0.20278449 0.70767391 -0.59124625 0.38681465 0.085214838
0.31511366 0.22469646 -0.2053407 -0.77968258 -0.49530444 0.38310385 0.089009866
-0.19660515 0.23461482 -0.20576581 0.71420747 -0.579144 0.39306468 0.086929232
-0.18270993 0.23242369 -0.2036587 0.72775561 -0.60227913 0.3280727 0.084539711
0.30871415 0.23257633 -0.20609388 -0.74093699 -0.61449218 0.27094615 0.090999514
0.3236801 0.23238544 -0.20994018 -0.79062945 -0.44195071 0.4237743 0.079740897
-0.17299832 0.24569453 -0.20048754 0.67146087 -0.62482226 0.39841864 0.094460674
-0.1689889 0.24636345 -0.20481735 0.68750143 -0.58269346 0.43337062 0.080902345
0.29614919 0.24508721 -0.20751752 -0.58898586 -0.73272628 0.34089291 0.092576742
0.31676161 0.247068 -0.20266312 -0.7443617 -0.60425693 0.28425211 0.085341655
-0.18452515 0.25063902 -0.2056289 0.67365265 -0.6040104 0.42586803 0.079352975
-0.1763484 0.25974455 -0.20115179 0.60347503 -0.69478762 0.39126465 0.089680374
-0.15540563 0.25600159 -0.20641564 0.5724678 -0.70925349 0.41138795 0.085908249
0.27997762 0.25636199 -0.20977521 -0.4681004 -0.73641527 0.4884409 0.078893192
0.28514594 0.25574446 -0.20375986 -0.57263505 -0.6691069 0.47369292 0.080093369
0.3067708 0.25356808 -0.20821723 -0.56788933 -0.73058635 0.37913734 0.085621983
-0.17183082 0.26115644 -0.20471935 0.64015573 -0.62656766 0.44453752 0.073112085
-0.16993396 0.26149234 -0.20665514 0.63270617 -0.64467293 0.42904505 0.062562488
0.27153102 0.26489347 -0.20626934 -0.50321692 -0.65398866 0.56486422 0.069192886
0.29478577 0.26602909 -0.20282988 -0.56164819 -0.67491347 0.47858453 0.08774747
-0.15124063 0.27604324 -0.20657659 0.44595519 -0.80442208 0.39246535 0.07005325
-0.14799149 0.27849522 -0.20669439 0.50811028 -0.7692166 0.38746586 0.075529732
-0.13479176 0.27406499 -0.20274797 0.58657789 -0.72301757 0.36492735 0.085418269
-0.12537193 0.27801135 -0.20871012 0.51210463 -0.79068351 0.33551225 0.072409302
0.25512522 0.27791482 -0.20575255 -0.62908679 -0.64965057 0.42685366 0.074136958
0.28011635 0.27791625 -0.20196997 -0.54931831 -0.66117251 0.51097983 0.080329984
-0.14773853 0.28105026 -0.20267469 0.54292756 -0.76458657 0.34732842 0.079381756
-0.13689652 0.28999582 -0.2017667 0.53315806 -0.7479369 0.39538956 0.072604507
-0.12317757 0.28376052 -0.20153567 0.53501683 -0.73351896 0.41917408 0.080087349
0.24726734 0.28229448 -0.20879786 -0.60783041 -0.704346 0.36665908 0.072569467
0.26189291 0.2892102 -0.20682019 -0.63377994 -0.68126625 0.36633211 0.08222878
0.2707015 0.28462601 -0.20298471 -0.47720209 -0.73706228 0.47855765 0.084690802
-0.11240567 0.29218495 -0.20141827 0.47893217 -0.74076265 0.47105703 0.086843073
-0.10467282 0.29424378 -0.20840612 0.3701584 -0.78893459 0.49047425 0.082320623
0.23213306 0.29693499 -0.20301592 -0.45197129 -0.83580458 0.31169316 0.082464375
0.25503838 0.29657221 -0.20333824 -0.53453255 -0.80361301 0.26168886 0.086936787
-0.11478108 0.30600286 -0.20326921 0.41886255 -0.78431815 0.45760164 0.081744716
-0.10993554 0.30609143 -0.20953421 0.36566341 -0.79498768 0.48402983 0.093273252
-0.087640695 0.30236423 -0.20663175 0.33548778 -0.8434217 0.4196282 0.077531323
-0.074114814 0.30745065 -0.20782728 0.40104896 -0.82311875 0.40203887 0.077248015
0.20625372 0.30565193 -0.20751114 -0.34138143 -0.87909752 0.33263528 0.074023798
0.21496624 0.30278295 -0.20590013 -0.28424212 -0.88737607 0.36300161 0.085278787
0.22615154 0.30039442 -0.20115875 -0.41667864 -0.85662556 0.30425593 0.083388425
0.23243272 0.30881101 -0.20854986 -0.38456309 -0.86075336 0.33348915 0.079186566
0.24352637 0.30384198 -0.20617187 -0.53291231 -0.80538988 0.25952172 0.074464187
-0.10767981 0.31104648 -0.20157599 0.3253794 -0.8502242 0.41382009 0.091215476
-0.092650734 0.31601304 -0.2042124 0.35224679 -0.87980443 0.31916499 0.086095154
0.17848307 0.31635681 -0.20942502 -0.36510429 -0.86201644 0.35160562 0.081104279
0.1824204 0.31734478 -0.2039803 -0.34699267 -0.85088623 0.39444727 0.083484657
0.19454311 0.31305438 -0.20235485 -0.36596027 -0.86428005 0.34509876 0.078210816
0.20499888 0.31461176 -0.20520538 -0.27607092 -0.8878774 0.36804697 0.070909269
0.21759275 0.31488287 -0.20883569 -0.40245643 -0.86186469 0.3085742 0.082327537
0.22664447 0.31107607 -0.20886622 -0.28257149 -0.88252658 0.37589917 0.078607455
-0.082183793 0.32144931 -0.20212455 0.38455179 -0.86813599 0.31378326 0.087389581
-0.068839401 0.32359323 -0.20896214 0.41516328 -0.83708334 0.35627362 0.081139989
-0.050243646 0.32083839 -0.20083001 0.38562268 -0.82719862 0.4087024 0.10187005
-0.041847859 0.32264748 -0.2043556 0.3338258 -0.82855672 0.44950432 0.074541703
-0.035795789 0.32679245 -0.20103157 0.28092706 -0.87159085 0.4017579 0.084263548
-0.014637502 0.32987821 -0.20783643 0.2372459 -0.91029459 0.33923164 0.077244714
0.15983947 0.32797793 -0.20155419 -0.31411681 -0.86840683 0.38366675 0.098233745
0.16883788 0.32114017 -0.20789002 -0.41286051 -0.80357689 0.42873111 0.094561279
0.17534548 0.32024211 -0.20411652 -0.46233663 -0.78669262 0.40909597 0.083562225
0.19691794 0.32718703 -0.20160358 -0.36208957 -0.86366493 0.35067657 0.081813477
0.2065767 0.32068413 -0.20647994 -0.25259146 -0.89038444 0.37869933 0.076146178
-0.061330922 0.33077431 -0.20095256 0.41791388 -0.81299627 0.40544441 0.085808679
-0.05583676 0.33272135 -0.20165554 0.34225819 -0.83163196 0.43731874 0.094804086
-0.01307822 0.33290038 -0.20160025 0.16342595 -0.89927167 0.40571225 0.093534179
0.0084691709 0.33321294 -0.20726342 0.14883263 -0.89214933 0.42651898 0.08187978
0.016621385 0.33382696 -0.20830758 0.063335277 -0.91037655 0.40890476 0.082624391
0.022244878 0.33740491 -0.20203891 0.11565448 -0.90525335 0.40882787 0.091059655
0.034229472 0.33791581 -0.20444191 0.048735593 -0.86009884 0.50779408 0.08628466
0.041508857 0.33717483 -0.20823082 0.070293352 -0.91170055 0.40479755 0.083538748
0.076366231 0.33794978 -0.20934671 0.0065349909 -0.85119373 0.52481097 0.074828364
0.10489795 0.33549139 -0.20637763 -0.19528438 -0.88592136 0.42072237 0.088663489
0.11975314 0.33228984 -0.20908934 -0.29121476 -0.83975774 0.45825854 0.079272009
0.13125534 0.33237863 -0.20549986 -0.157221 -0.87745064 0.45316881 0.076672599
0.16961007 0.3351779 -0.20844477 -0.41012532 -0.78693879 0.46100378 0.096951663
-0.021885829 0.34347743 -0.20566884 0.20783035 -0.89701909 0.39008135 0.093718328
-0.0066662356 0.34478688 -0.20719521 0.11589722 -0.9378137 0.32722068 0.087413557
0.0074574761 0.34827185 -0.20377783 0.20705536 -0.90707052 0.36653945 0.087618403
0.025074037 0.34831795 -0.20867409 0.08778464 -0.89908892 0.42887411 0.088419743
0.05922221 0.3402909 -0.20655154 0.047604673 -0.86974329 0.49120307 0.078988403
0.08125633 0.34097725 -0.20119657 -0.027401743 -0.91580796 0.40068069 0.076235272
0.096097514 0.3490203 -0.20905897 -0.17542699 -0.88378638 0.433759 0.080383874
0.11243917 0.34965354 -0.2030775 -0.34327567 -0.82793748 0.44348764 0.070163846
0.14797029 0.34593385 -0.20092562 -0.065750495 -0.93604904 0.34567195 0.078839809
0.15955882 0.3419874 -0.20328616 -0.11112055 -0.9170211 0.38304627 0.098345593
0.16325136 0.34038135 -0.20340407 -0.32178155 -0.8475343 0.42206895 0.099534757
0.02055699 0.35090643 -0.20188096 0.074729525 -0.88391834 0.46163157 0.080439091
0.041046839 0.35140717 -0.2066237 0.1345371 -0.89209127 0.43136173 0.097696654
0.054777302 0.35490257 -0.20307267 0.025526492 -0.9016065 0.43180349 0.090179525
0.063526474 0.35409641 -0.20627916 0.064765349 -0.89061195 0.45012867 0.076152772
0.087014273 0.35316408 -0.20280945 -0.031433892 -0.91746312 0.39657685 0.076044016
0.090292402 0.35175726 -0.20487607 -0.068621829 -0.92375267 0.37679192 0.076042019
0.10223103 0.35017535 -0.20486031 -0.13355152 -0.90934056 0.39403519 0.083077967
0.0049614334 -0.3514528 -0.19541726 0.10546628 0.92247677 0.37136701 0.097283512
0.016222656 -0.35334623 -0.19427229 0.048369993 0.92396194 0.37941363 0.089127071
0.02250253 -0.35283649 -0.19818106 0.057332825 0.91822916 0.39187768 0.093893923
0.043460701 -0.35732123 -0.19325902 0.094766237 0.87040406 0.48313147 0.076605409
0.0730915 -0.35758734 -0.19683714 -0.13632312 0.9129318 0.38467064 0.11981049
0.080588482 -0.35881835 -0.19036268 -0.16575252 0.91196263 0.37530032 0.09695749
0.1046201 -0.35454011 -0.19349664 -0.066899531 0.92913914 0.36362743 0.088360347
0.11719729 -0.35150564 -0.19740719 -0.13355771 0.90454543 0.40491962 0.10389508
0.12018292 -0.35294765 -0.1921044 -0.19303888 0.83915734 0.50847906 0.091591388
-0.030444555 -0.34485829 -0.19866431 0.2653352 0.92254466 0.28019392 0.08146023
-0.020765018 -0.34930104 -0.19171932 0.18217529 0.94539338 0.27026561 0.081166767
-0.010523956 -0.34890959 -0.19681628 0.12207195 0.94346511 0.30817544 0.092339627
-0.0050647655 -0.34887975 -0.19892092 0.098369204 0.94507039 0.31171381 0.095024072
0.022433667 -0.34043917 -0.19310793 0.083674923 0.92322922 0.37502852 0.096540093
0.036691885 -0.34244692 -0.19277667 0.12434086 0.87690085 0.46431056 0.092964925
0.058124762 -0.34408832 -0.19643903 0.032420792 0.91509444 0.40193415 0.088824838
0.060127161 -0.34343353 -0.19908649 0.047721166 0.9293524 0.36609659 0.083021134
0.082837418 -0.34253681 -0.19570333 -0.14809281 0.94523656 0.29085457 0.08107812
0.11219822 -0.34049249 -0.19006909 -0.032688703 0.90074044 0.433126 0.094061732
0.14692299 -0.348957 -0.19335565 -0.2029462 0.88925964 0.4099147 0.092745356
0.15216622 -0.34939885 -0.19004492 -0.15443239 0.89005798 0.42889088 0.092504568
0.16899073 -0.34287828 -0.19184707 -0.15682085 0.91123706 0.38085982 0.076062076
-0.06834048 -0.33218575 -0.19000144 0.39867222 0.87282372 0.28149453 0.084647238
-0.056085944 -0.33672047 -0.19162072 0.43628606 0.86341625 0.25331175 0.074645482
-0.047230311 -0.33781374 -0.19870126 0.37371185 0.84731406 0.37735701 0.065398075
-0.0035745539 -0.33734953 -0.19198146 0.098143861 0.95641094 0.27503827 0.099646628
0.00019630603 -0.33661842 -0.19570769 0.060345165 0.94339275 0.32614207 0.096649006
0.013446485 -0.33943251 -0.19253439 0.042284772 0.92312014 0.38217956 0.091303222
0.021336792 -0.33997068 -0.19408238 0.093740381 0.9233253 0.37240195 0.092171595
0.10771954 -0.33788633 -0.19947001 -0.08082699 0.94318026 0.32230112 0.098980218
0.11031417 -0.33996794 -0.19241227 -0.0047401274 0.90212035 0.43145838 0.084939972
0.1255426 -0.33766603 -0.19324178 -0.08457043 0.88929611 0.44944444 0.090337045
0.13372965 -0.33582765 -0.19550352 -0.22471635 0.89212215 0.39194453 0.089676023
0.14292783 -0.33552018 -0.1927322 -0.20254862 0.91202903 0.35661903 0.098044619
0.15823768 -0.33051452 -0.19635792 -0.13406955 0.92517382 0.35507572 0.098751277
0.16224098 -0.33084375 -0.19070899 -0.17850465 0.90117133 0.39500168 0.10421771
0.17398737 -0.33861706 -0.19771591 -0.33922634 0.84914374 0.40482146 0.077619731
0.18221369 -0.33480871 -0.19864607 -0.36652792 0.83876336 0.40265793 0.076934531
0.19295952 -0.33200112 -0.19411412 -0.4771162 0.84317887 0.24780928 0.064940915
-0.082932971 -0.3225365 -0.19934428 0.39278147 0.85604686 0.33601576 0.10473192
-0.07904923 -0.32712561 -0.1915569 0.41211256 0.84713781 0.3354412 0.10278957
-0.044894982 -0.32548302 -0.19385345 0.35462147 0.87565273 0.32783511 0.095575936
0.20833147 -0.32579005 -0.19349806 -0.41939721 0.8678925 0.2662116 0.094438277
0.21942183 -0.32051542 -0.19520128 -0.32837778 0.91829234 0.22115003 0.091629334
-0.10402664 -0.3145023 -0.19740668 0.45293304 0.83321774 0.31717479 0.10276648
-0.076165415 -0.31244522 -0.19368383 0.40771732 0.86616755 0.28899878 0.10663515
-0.066393115 -0.315685 -0.19608724 0.43320039 0.87304336 0.22390333 0.085599251
0.18964836 -0.31904143 -0.19161737 -0.3644309 0.87776679 0.31099144 0.093470022
0.19361426 -0.31691191 -0.1929363 -0.48095149 0.81672788 0.31881222 0.08239197
0.22594264 -0.31780323 -0.1951496 -0.42414662 0.88217849 0.20459917 0.096380167
0.23444894 -0.31415242 -0.19538735 -0.41157073 0.84751004 0.3351661 0.096610725
-0.12040728 -0.30662107 -0.19397546 0.53379351 0.7536186 0.38356677 0.094382942
-0.1153474 -0.30899712 -0.19757824 0.48622444 0.77854645 0.39680123 0.11322443
-0.091846488 -0.30425563 -0.19824958 0.34078237 0.8669911 0.36358446 0.085877754
0.21557915 -0.30550981 -0.19902314 -0.35108885 0.89652413 0.27015004 0.085183501
0.22329664 -0.30411756 -0.19395487 -0.37178072 0.88093847 0.29279083 0.097841449
0.25453371 -0.30132431 -0.19488741 -0.59900248 0.71863341 0.35321653 0.086722776
-0.11261527 -0.29556346 -0.19300079 0.51110405 0.75710583 0.40689477 0.10208037
0.23820162 -0.29766205 -0.19147824 -0.56124163 0.74831975 0.35358939 0.085408531
0.25855738 -0.29580688 -0.19998927 -0.5594731 0.73340935 0.38613546 0.10006625
-0.15393724 -0.28127089 -0.19242539 0.58234733 0.74560022 0.3239629 0.095516339
-0.14489104 -0.28760409 -0.19401996 0.58519208 0.71957421 0.37384906 0.088327408
-0.12066977 -0.28717119 -0.19818187 0.53988862 0.7567209 0.36863771 0.085337572
-0.11716942 -0.28896451 -0.19995876 0.55119026 0.76129073 0.34150523 0.082188919
0.27891052 -0.2823514 -0.19502234 -0.5189814 0.76916295 0.37288964 0.094469488
0.28245941 -0.28111368 -0.19149874 -0.60290557 0.74938703 0.27372235 0.085405372
-0.15495715 -0.27760118 -0.19900715 0.62992495 0.67006469 0.39269319 0.091058373
-0.1318672 -0.27965206 -0.19535457 0.5641883 0.75698179 0.32965139 0.083332121
0.25988656 -0.27976978 -0.19405608 -0.60498774 0.72689164 0.32498991 0.097701855
0.26915786 -0.27337945 -0.19211286 -0.55295563 0.75185949 0.35909262 0.099643059
0.27038687 -0.27216706 -0.19273862 -0.55410379 0.75829583 0.34344774 0.09979964
0.28311905 -0.27695543 -0.1996367 -0.57102901 0.73024136 0.37506455 0.095118023
-0.18069997 -0.26095501 -0.19137874 0.5644474 0.70923591 0.42235473 0.097320877
-0.17597751 -0.26363695 -0.193662 0.6082176 0.71505928 0.34461811 0.10388298
-0.15358134 -0.26325735 -0.19425707 0.51747787 0.76771057 0.377938 0.09558031
-0.14756274 -0.26842174 -0.19306152 0.57717258 0.73793572 0.3497467 0.09032844
0.2767652 -0.2669501 -0.19338608 -0.55263281 0.75262398 0.35798612 0.1070653
0.28073916 -0.26316717 -0.19507712 -0.60123658 0.727898 0.32966527 0.094829217
0.29472297 -0.26926208 -0.19692774 -0.67682999 0.70012319 0.22743951 0.089898579
0.30116481 -0.26417619 -0.19704959 -0.65353382 0.71581972 0.24595895 0.096139684
-0.18548626 -0.25538501 -0.19569264 0.62241483 0.6980505 0.35401312 0.090313882
-0.16758287 -0.25282323 -0.19321725 0.58477038 0.71137309 0.38986149 0.099475443
-0.15838823 -0.25996125 -0.1932084 0.54854906 0.71592635 0.43190676 0.09630727
0.31292412 -0.25527674 -0.19578612 -0.7041319 0.60699308 0.36845282 0.10008322
-0.18143673 -0.24021393 -0.1934735 0.65519542 0.6497938 0.38534001 0.091362149
-0.17099929 -0.24760599 -0.1992328 0.56511533 0.6874786 0.45608976 0.080905147
0.29579949 -0.24941489 -0.19971003 -0.63156104 0.70502031 0.32260981 0.090119801
0.30495632 -0.24612862 -0.19083951 -0.66293257 0.70612544 0.24881181 0.095147088
0.31926262 -0.24777357 -0.19696489 -0.67273891 0.66414911 0.3260805 0.094133161
0.32655576 -0.24045855 -0.19286999 -0.65374523 0.72511697 0.21638538 0.091757648
-0.19898459 -0.23652588 -0.19916618 0.76740706 0.56810969 0.29721668 0.088098444
-0.18228181 -0.23850091 -0.19458562 0.67904478 0.6472367 0.34638545 0.089940548
-0.21402401 -0.22090524 -0.19184388 0.81253386 0.51749533 0.26830459 0.094858751
-0.19361998 -0.2237135 -0.19429922 0.70443428 0.64516211 0.29586861 0.073020235
0.31728041 -0.2296461 -0.19262676 -0.76333797 0.54452586 0.34757245 0.087464713
0.33525547 -0.22732551 -0.19584516 -0.74627578 0.55647528 0.36525014 0.10266554
-0.21536414 -0.21727265 -0.19513781 0.74710405 0.58759117 0.31076074 0.092463054
-0.20239241 -0.21090046 -0.19662327 0.77099031 0.51948571 0.36838666 0.096011057
0.34749076 -0.21197413 -0.19446725 -0.80582482 0.50563687 0.30818459 0.11360738
-0.22506723 -0.2038966 -0.1962231 0.68716371 0.60459721 0.40282536 0.099357091
-0.2102275 -0.20226198 -0.19349328 0.75286227 0.59709299 0.2769084 0.095218286
-0.20709147 -0.20617202 -0.19390655 0.74597842 0.56789154 0.3478725 0.098785341
0.33426684 -0.20739391 -0.19237994 -0.84255058 0.48405677 0.23621531 0.081367888
0.34825897 -0.2093166 -0.1974012 -0.79024535 0.52704811 0.31262213 0.10550283
0.35084397 -0.20660131 -0.19616835 -0.77584976 0.53307849 0.33746803 0.11811076
-0.23517779 -0.19185443 -0.193937 0.73479396 0.55090594 0.39570248 0.088772148
-0.22776286 -0.19998711 -0.1968599 0.71080297 0.56732047 0.4158203 0.093886457
-0.21424152 -0.19569592 -0.19585037 0.76552641 0.52560353 0.37109327 0.099641748
0.33871886 -0.19854683 -0.19790944 -0.80218023 0.52762693 0.27949375 0.10133497
0.34520844 -0.19115523 -0.19575615 -0.77550155 0.57824814 0.25342914 0.096874513
0.36274332 -0.19317855 -0.19214034 -0.72865576 0.60191542 0.32673931 0.1055225
-0.24186464 -0.18179488 -0.19616161 0.85443056 0.39214239 0.34084135 0.083669476
-0.23852086 -0.18563168 -0.19708572 0.81760198 0.46809238 0.33528578 0.088994399
-0.22575998 -0.1825289 -0.19212744 0.78605449 0.50906134 0.35067776 0.094770119
0.34947294 -0.18476231 -0.19697659 -0.8154034 0.51183546 0.27044731 0.08871796
0.35295677 -0.18321212 -0.19154818 -0.77302432 0.51771432 0.36661312 0.097366884
0.37123632 -0.18007338 -0.19555159 -0.77093214 0.47868505 0.4201481 0.10054889
-0.2321247 -0.17250805 -0.19405456 0.81133324 0.44562167 0.37836441 0.084611394
0.35856631 -0.17160273 -0.19901881 -0.85487169 0.48437285 0.1859495 0.079288632
0.36045831 -0.17246613 -0.19273651 -0.81856489 0.48388696 0.30952385 0.089603312
-0.25096533 -0.16040021 -0.19741258 0.80385488 0.43718216 0.40334743 0.096405886
0.36329681 -0.16191873 -0.19674097 -0.81285864 0.48949122 0.31568855 0.10513883
0.37679318 -0.16712146 -0.19529016 -0.82977241 0.41438234 0.37385163 0.093645908
-0.25338498 -0.15558732 -0.19618604 0.85343313 0.38298547 0.35351673 0.10103815
-0.23791951 -0.15388432 -0.19990873 0.8193059 0.38435185 0.42545459 0.098277926
0.36471108 -0.15899688 -0.19633737 -0.86403108 0.44745302 0.23072921 0.10344922
0.37054992 -0.15009762 -0.19009134 -0.86646724 0.36734223 0.33807439 0.10042886
0.38420224 -0.15145627 -0.1925744 -0.87732899 0.35833603 0.31920093 0.096751913
-0.25950751 -0.14102942 -0.19575045 0.91233957 0.28223357 0.29661548 0.08695887
-0.24222831 -0.14561902 -0.19771595 0.82685089 0.38489944 0.4100855 0.097592495
0.37125367 -0.14342543 -0.19587004 -0.85141963 0.39036411 0.35028628 0.098611787
0.38656339 -0.14547357 -0.19281919 -0.84704834 0.36608598 0.38534439 0.10458629
-0.26324138 -0.13410006 -0.1932247 0.87384063 0.31710255 0.36857641 0.092423514
-0.24804324 -0.13588953 -0.19250621 0.89942968 0.35029063 0.26138607 0.08909373
0.37519971 -0.13679409 -0.1923686 -0.85904217 0.39702976 0.32313144 0.097710721
-0.26776057 -0.12124267 -0.19534598 0.84706438 0.44736305 0.28696373 0.083094172
-0.25284266 -0.12265004 -0.19428195 0.88879246 0.3774206 0.26000306 0.086734168
0.39208281 -0.12641302 -0.19898255 -0.86791778 0.30409399 0.39274105 0.094468869
-0.26824301 -0.11646844 -0.19920011 0.87212062 0.39716244 0.28577554 0.084856205
-0.25637662 -0.11286516 -0.1956318 0.87126666 0.42843357 0.239456 0.082850665
0.38298067 -0.11493653 -0.19570744 -0.86291826 0.39924192 0.30980307 0.092577077
0.39989397 -0.11136961 -0.19456807 -0.82542211 0.41868743 0.37865445 0.083510779
-0.27451307 -0.10461335 -0.19550875 0.8500905 0.42401439 0.31234249 0.084720664
0.38773352 -0.10340759 -0.19562122 -0.82560378 0.37874123 0.41825062 0.099383272
0.40254506 -0.10227919 -0.19741593 -0.83560979 0.36858678 0.40730834 0.081355833
-0.27793169 -0.095013231 -0.19691521 0.92132831 0.20928797 0.32764727 0.074309006
-0.26253676 -0.095638365 -0.19798096 0.92058444 0.23114616 0.31479499 0.088276148
-0.28107899 -0.084236369 -0.19355913 0.92039883 0.12805444 0.36941591 0.081919603
-0.27995786 -0.081326202 -0.19796471 0.94162893 0.13015911 0.31047305 0.074814014
0.40822887 -0.087504372 -0.19423248 -0.91143584 0.15554842 0.38090622 0.098834194
-0.26884598 -0.078605011 -0.19137263 0.95316035 0.10198994 0.28475159 0.086820483
0.40892845 -0.074503191 -0.19714323 -0.93798888 0.011518219 0.34647384 0.07470081
0.41034675 -0.072670497 -0.19368438 -0.95861256 0.019220533 0.28406447 0.088943675
-0.26859492 -0.06803298 -0.19634578 0.96642262 0.082399189 0.24338771 0.076724499
-0.27130583 -0.053213228 -0.19395773 0.94340354 0.093064137 0.31832179 0.090025723
0.41237617 -0.054825544 -0.19454765 -0.96246469 0.10388059 0.25074014 0.090928465
-0.28638715 -0.040595174 -0.19465485 0.93412495 0.10994622 0.33959159 0.09619873
-0.27304253 -0.043898907 -0.19235632 0.92679739 0.14198816 0.34768668 0.096510507
0.39855048 -0.041813593 -0.1990771 -0.93037868 0.28596604 0.22938815 0.090538181
0.40000635 -0.044053759 -0.19387066 -0.94175816 0.24690613 0.22831759 0.082267612
0.41356403 -0.042199939 -0.19588676 -0.93460697 0.21687472 0.28191343 0.091959246
-0.28671432 -0.0356366 -0.19558249 0.90966773 0.1190477 0.39790982 0.086705759
-0.27264243 -0.031971116 -0.19826552 0.93332696 0.14080885 0.33026302 0.088235475
0.39965653 -0.036820639 -0.19781724 -0.95572144 0.20677038 0.2093862 0.094185553
0.40039787 -0.032966819 -0.19708504 -0.94586164 0.16624221 0.27876386 0.096376963
0.41458899 -0.03322465 -0.19615512 -0.93706995 0.26302621 0.22960202 0.096049242
-0.27506024 -0.022679998 -0.19463232 0.90311033 0.16776785 0.39527938 0.084551521
0.40255335 -0.011636818 -0.19882871 -0.91684115 0.087789573 0.38948083 0.090266295
-0.29255387 -0.00086748105 -0.19173247 0.947281 0.028161731 0.31916401 0.087124616
-0.29073882 0.0011524418 -0.19695444 0.94174689 -0.025273867 0.33537135 0.078242719
0.40351117 0.00945176 -0.19706476 -0.93570524 -0.092011549 0.34057227 0.087978609
0.41879758 0.0010205427 -0.19614351 -0.91587901 -0.077109121 0.3939794 0.079856418
-0.27661699 0.017392194 -0.19211708 0.9360379 -0.12837863 0.32764617 0.085974984
0.4026511 0.017109586 -0.19664641 -0.91819143 -0.1618575 0.36156136 0.10200892
0.41879869 0.01289326 -0.19171864 -0.92934442 -0.22241196 0.29470646 0.079319105
-0.28861439 0.027389435 -0.19316229 0.93993813 -0.044113562 0.33848238 0.084523641
-0.27498621 0.023720071 -0.19458294 0.95062077 -0.080472119 0.2997407 0.087795474
0.40129307 0.026913065 -0.19689606 -0.89757973 -0.20622987 0.38964069 0.10369281
0.41581318 0.025810001 -0.1955481 -0.95466751 -0.097059935 0.28140602 0.097499892
-0.28602836 0.031451792 -0.19907275 0.91534746 -0.029109268 0.4016113 0.097702347
-0.27354932 0.035452858 -0.19430605 0.9311291 -0.097617157 0.3513822 0.092208616
0.40020955 0.03985301 -0.19505903 -0.94601923 -0.1659884 0.27837998 0.097069301
0.41409039 0.031543385 -0.19841567 -0.90582359 -0.23446015 0.35286269 0.098570861
-0.28675184 0.045805845 -0.19159123 0.9340483 -0.15315621 0.32264051 0.093221322
-0.27353382 0.045877568 -0.19020599 0.91225749 -0.17586355 0.36994368 0.088472284
0.40017301 0.042267304 -0.19421023 -0.95397335 -0.14771894 0.26098642 0.090793774
0.4142336 0.045664217 -0.19259526 -0.9265393 -0.2250291 0.30147448 0.096362755
-0.28552821 0.055002175 -0.1916689 0.93642998 -0.17847775 0.30206716 0.08360742
-0.27032441 0.05275799 -0.19727594 0.9458586 -0.074341021 0.31595066 0.083419077
0.3969171 0.05934814 -0.19736415 -0.95234025 -0.00030534691 0.30503771 0.076253816
0.41309351 0.052544136 -0.19331312 -0.94608945 -0.13291812 0.29537675 0.095143527
-0.28261602 0.066414952 -0.19585876 0.95349687 -0.16347505 0.25321838 0.1073599
-0.26879549 0.066091731 -0.19664326 0.8912943 -0.24179554 0.38357446 0.092540853
0.39778137 0.06203476 -0.19365413 -0.95405942 -0.020810563 0.29889402 0.079758182
0.41122353 0.066182017 -0.19359031 -0.94380903 -0.06221772 0.32458207 0.084235109
-0.28146505 0.072334468 -0.19689827 0.9214012 -0.21585417 0.32315126 0.10415138
-0.27017209 0.070731431 -0.19059092 0.92369092 -0.21518989 0.31699905 0.09247373
-0.26858371 0.074905679 -0.19378391 0.89425606 -0.1919014 0.40432653 0.094526596
-0.28234816 0.080586933 -0.19122677 0.92435461 -0.27196395 0.26758951 0.10202111
-0.27896982 0.084968813 -0.1992702 0.87893748 -0.32153222 0.35225847 0.089920245
-0.26777893 0.083494037 -0.19282635 0.91049355 -0.29080433 0.29399732 0.085166298
0.39492422 0.089416347 -0.19149132 -0.93762273 -0.27681112 0.21033137 0.089924589
0.40702927 0.085557222 -0.19838147 -0.95602596 -0.18732801 0.2256604 0.088300161
-0.26360184 0.09668003 -0.19434059 0.9091844 -0.23863357 0.34122983 0.073168784
0.3938581 0.093081072 -0.19063129 -0.93103498 -0.25921082 0.25687289 0.10513096
0.40779769 0.094230615 -0.19103768 -0.91498983 -0.2932854 0.27708715 0.094693586
-0.26131898 0.10250378 -0.19404849 0.91260153 -0.31687114 0.2583625 0.074448138
-0.25909603 0.10524267 -0.19706091 0.87224936 -0.35803831 0.33315086 0.078804657
0.38842964 0.10307704 -0.19442946 -0.85926795 -0.38141868 0.34084946 0.098794423
0.40116048 0.1087224 -0.19406959 -0.83742648 -0.3943269 0.37844852 0.099444449
-0.27108979 0.11138481 -0.19728623 0.89551312 -0.25861099 0.36218315 0.07909216
0.38492462 0.11374322 -0.19196869 -0.84727335 -0.35829818 0.39211005 0.084396265
-0.26724249 0.12444315 -0.19317566 0.90310109 -0.33647963 0.26681426 0.091466941
-0.25350949 0.1215485 -0.19407274 0.87393957 -0.36680129 0.318883 0.080274455
0.38108635 0.12391314 -0.19103587 -0.86882782 -0.34899801 0.35119602 0.083666593
-0.26388672 0.1343893 -0.19120908 0.86632276 -0.28375909 0.4110544 0.085041411
0.37565443 0.13732322 -0.19086143 -0.8617025 -0.35708222 0.36050117 0.077394605
0.38854873 0.13904482 -0.19459258 -0.86500549 -0.37126639 0.33753034 0.08008232
-0.25847757 0.1459299 -0.19307497 0.83985609 -0.32198349 0.43699938 0.082881093
-0.24265248 0.14570577 -0.1966397 0.82415783 -0.36331326 0.43447366 0.070310682
0.3706916 0.14432095 -0.196831 -0.79868013 -0.4117938 0.43878919 0.07245218
-0.25282601 0.1595106 -0.19331723 0.80252761 -0.47694343 0.35843328 0.082291864
0.36641991 0.15926082 -0.19156836 -0.88693863 -0.33810145 0.31468606 0.084793404
0.38044667 0.15695029 -0.19669361 -0.87030804 -0.34303144 0.35340229 0.092388853
-0.24869615 0.1688433 -0.19415712 0.87770087 -0.33627963 0.34140474 0.091596089
-0.23588434 0.16570868 -0.19275315 0.87806576 -0.3548927 0.32101667 0.094630159
0.36328894 0.16447833 -0.19439811 -0.89348978 -0.28702638 0.34538656 0.096482195
-0.24257612 0.17848383 -0.19972853 0.82712179 -0.4569678 0.32718483 0.10061368
-0.2326574 0.17160931 -0.19490704 0.85281909 -0.44556549 0.27234331 0.093904108
-0.22889113 0.17751725 -0.19441438 0.80480278 -0.50424808 0.31309181 0.094030939
0.35608047 0.17726812 -0.19558311 -0.83316368 -0.47059453 0.29048067 0.090865791
0.37323835 0.1718784 -0.19942608 -0.87888527 -0.3248603 0.34932286 0.10035247
-0.24242562 0.18443435 -0.19013596 0.83960253 -0.42949972 0.33256215 0.11521063
-0.2369712 0.18786108 -0.19684386 0.77092516 -0.53695595 0.34256765 0.10800328
-0.23298913 0.19413026 -0.19502224 0.78345507 -0.55716169 0.27526158 0.07626605
0.33923507 0.19845667 -0.19745868 -0.74281132 -0.54735029 0.3855373 0.082196668
0.3457756 0.19090158 -0.19548412 -0.73465884 -0.61546135 0.28545329 0.08313816
0.35867804 0.19921057 -0.19093721 -0.74001521 -0.59543794 0.31277984 0.090012163
0.36351728 0.19146577 -0.19337593 -0.73616821 -0.56623024 0.37072852 0.09740673
-0.20944238 0.20488088 -0.19119793 0.76214403 -0.49661049 0.4153488 0.091767162
0.33855063 0.20263001 -0.19138882 -0.70216787 -0.62010622 0.34989774 0.089817144
-0.21762656 0.21298918 -0.1974948 0.72916418 -0.50225919 0.46481755 0.087415986
-0.2033104 0.21252227 -0.19201341 0.69241923 -0.59714168 0.40494117 0.081615224
0.32794055 0.21501851 -0.19434607 -0.78217226 -0.54811329 0.29627404 0.08201573
0.34381112 0.21710499 -0.19396508 -0.79426694 -0.41393578 0.4447439 0.083809212
-0.21324041 0.22157615 -0.19248921 0.70873809 -0.57161766 0.41345334 0.096139178
-0.20738794 0.22684877 -0.1968407 0.71465999 -0.52462161 0.46263734 0.084883258
0.33706796 0.22501433 -0.19568157 -0.76872861 -0.52182835 0.36979926 0.079474442
-0.20353267 0.23450217 -0.19225237 0.72030509 -0.60779124 0.3342908 0.092390895
0.3080653 0.23916231 -0.19814675 -0.58292848 -0.7420615 0.33096707 0.10164021
0.31245148 0.23376042 -0.1974448 -0.75068808 -0.59432185 0.28852898 0.085533865
-0.19311652 0.24596041 -0.19629811 0.72182405 -0.58187169 0.3746936 0.074549757
0.30275518 0.24781686 -0.19172683 -0.68157309 -0.63768739 0.35890517 0.089773923
0.32130748 0.24556443 -0.19609909 -0.63489139 -0.694233 0.33904785 0.089327887
-0.18502006 0.25730968 -0.19206052 0.68061358 -0.67308331 0.2893509 0.098821342
0.31542042 0.25321925 -0.19628346 -0.70276684 -0.62553602 0.33885619 0.081826799
-0.17308851 0.26512325 -0.19535309 0.61647719 -0.69510067 0.36985254 0.078997731
0.27592459 0.2652387 -0.19961284 -0.56831867 -0.65026802 0.5041483 0.078069746
0.29688835 0.26805112 -0.19583736 -0.57895714 -0.71142453 0.39835125 0.087536708
-0.16041753 0.27571064 -0.19366196 0.53950667 -0.82432711 0.17151491 0.069938332
-0.14346521 0.2721839 -0.19249204 0.64946187 -0.68000698 0.34027892 0.084943064
-0.13317686 0.27891481 -0.19551964 0.57443875 -0.734115 0.36207071 0.089088246
0.26551962 0.27411827 -0.19799232 -0.5408563 -0.72029716 0.43433455 0.079002462
0.28547934 0.27568814 -0.19856985 -0.5943343 -0.64847684 0.47565165 0.093493767
0.29286987 0.27253756 -0.19265705 -0.55286705 -0.72597307 0.40902472 0.081807375
0.24676524 0.28967029 -0.19557491 -0.5634408 -0.80187684 0.19881643 0.089260265
0.25246713 0.28653288 -0.19246301 -0.52324367 -0.80693924 0.27398029 0.098117888
0.27345017 0.28585559 -0.19672537 -0.43534467 -0.79240537 0.42728066 0.076393828
-0.11529102 0.29383597 -0.19299737 0.48877606 -0.7258414 0.48399612 0.085229039
-0.10887384 0.29651353 -0.19856319 0.36497506 -0.81972843 0.44140509 0.080584072
0.2321704 0.29933316 -0.19793907 -0.43962064 -0.84667307 0.29979721 0.086261041
0.26154363 0.2974371 -0.19128016 -0.61969054 -0.73950523 0.26289842 0.095566086
-0.1222496 0.30411544 -0.19644219 0.49370515 -0.74505043 0.44850311 0.091146372
-0.10076451 0.30131841 -0.19697978 0.3375527 -0.84429836 0.41619527 0.090242691
-0.094232351 0.30562276 -0.19256353 0.26766571 -0.83935255 0.47311971 0.086287297
-0.083878763 0.30905774 -0.19510274 0.41802841 -0.84988886 0.32084456 0.087402046
0.21392551 0.30779505 -0.19543535 -0.41656983 -0.85897124 0.29772136 0.090603724
0.22883126 0.30105221 -0.19703668 -0.44373927 -0.82876241 0.34095195 0.085958742
0.24648641 0.30885941 -0.19188704 -0.57802379 -0.78622329 0.21849816 0.081831805
-0.11396823 0.31096494 -0.19549191 0.36104989 -0.81578916 0.45180869 0.099382192
-0.109552 0.31238994 -0.19686003 0.31856778 -0.85357738 0.41221383 0.094321638
-0.096048974 0.31897241 -0.19426826 0.22715832 -0.87781703 0.42170656 0.096201554
-0.076552093 0.31158713 -0.19654286 0.35949922 -0.87810725 0.31573406 0.078644589
-0.069334745 0.31451651 -0.19686103 0.34830844 -0.89606243 0.27523318 0.078957126
0.18752709 0.31810403 -0.19773671 -0.3662084 -0.86611122 0.3402099 0.081396036
0.20870186 0.31126341 -0.19202451 -0.36462036 -0.88051254 0.30290216 0.085918702
0.22545393 0.31803668 -0.19507171 -0.30381721 -0.88467985 0.35360527 0.089487374
-0.092264153 0.3202717 -0.19512627 0.30334407 -0.91087198 0.27981186 0.090126872
-0.0735071 0.32747921 -0.19676678 0.40605557 -0.86342198 0.29936844 0.086270958
-0.054135446 0.32087338 -0.19680248 0.39440686 -0.84434342 0.36266717 0.094131529
-0.035264455 0.32904318 -0.19616488 0.26132178 -0.88628674 0.38236991 0.080251619
0.17485501 0.32551885 -0.19180328 -0.38523814 -0.83488798 0.39313316 0.092706673
0.18069276 0.32225034 -0.19412184 -0.37084189 -0.81819528 0.43935499 0.080842502
0.20427118 0.32686844 -0.19518232 -0.32101998 -0.87870109 0.35331351 0.087624758
0.22198716 0.320755 -0.19164452 -0.3792586 -0.84843117 0.36922544 0.085437499
-0.065253228 0.33197239 -0.19407919 0.42823571 -0.79948801 0.42122796 0.092044048
-0.048732609 0.33849788 -0.19514641 0.36171359 -0.85458302 0.37262741 0.070838638
-0.015692454 0.3350094 -0.19522695 0.18467185 -0.91441363 0.36019987 0.10061452
-0.0065719313 0.33543706 -0.19760366 0.081394583 -0.90873867 0.4093518 0.090646379
0.005168295 0.33828345 -0.19372533 0.34994295 -0.84159404 0.41141143 0.064070895
0.11618435 0.33854109 -0.19541126 -0.31363985 -0.81302321 0.49053377 0.075418532
0.12083643 0.33883339 -0.19265638 -0.24537809 -0.86886311 0.42996088 0.096397996
0.13656409 0.33461607 -0.19897655 -0.1593457 -0.91425586 0.3724851 0.084113553
0.14034036 0.3363398 -0.19234534 -0.0094529279 -0.93473476 0.35522041 0.07367298
0.15409057 0.3346951 -0.19045445 -0.18532187 -0.90860075 0.3743 0.08565633
0.17127076 0.33959329 -0.19815341 -0.4397918 -0.82206583 0.36165035 0.095395014
0.18347459 0.33578122 -0.19457005 -0.38852662 -0.81512183 0.42967847 0.08979784
-0.030304527 0.34721696 -0.19243896 0.06917052 -0.92327845 0.37785235 0.085958704
-0.029572621 0.3468684 -0.19421211 0.077951938 -0.92973697 0.35987872 0.092204548
0.0034886531 0.3495633 -0.19990222 0.32644233 -0.86356169 0.3843132 0.076681569
0.036951143 0.34127736 -0.1974642 0.11882059 -0.89728975 0.42515033 0.096455216
0.040346056 0.34278274 -0.19428092 0.095235713 -0.91266429 0.39745939 0.08642704
0.05462338 0.34362364 -0.19748351 0.074315324 -0.93287945 0.35243887 0.090931691
0.124411 0.34992984 -0.19909491 -0.17266311 -0.87343997 0.4552913 0.092695311
0.16465168 0.34207612 -0.19887686 -0.30023631 -0.84669983 0.43926936 0.11310768
0.0087045692 0.35159224 -0.19645962 0.28270438 -0.87798417 0.38629261 0.083311394
0.023734119 0.35460946 -0.19350761 0.14918379 -0.90257299 0.40386403 0.08527074
0.044605348 0.35729527 -0.19377702 -0.035189971 -0.90711635 0.41940627 0.080208607
0.052135531 0.35901517 -0.19169325 0.046662901 -0.91621411 0.39796263 0.085018836
0.077505179 0.35617629 -0.19909063 0.00031160749 -0.94000781 0.3411527 0.079061262
0.084263094 0.3573257 -0.1932773 -0.12771751 -0.97746217 0.16809474 0.087766483
0.10433012 0.35393062 -0.19515339 -0.12150817 -0.95550877 0.26877272 0.074170165
0.11387124 0.35187456 -0.19766168 -0.28664029 -0.86316168 0.41567925 0.071135581
0.12423141 0.35126814 -0.19535558 -0.25017267 -0.84210676 0.47777596 0.081453174
0.1332888 0.35146832 -0.19133349 -0.20069398 -0.88629347 0.41737983 0.085814893
0.034792278 -0.36038449 -0.18100964 0.13694809 0.94098431 0.30950567 0.10226409
0.054657403 -0.36131275 -0.18599486 0.13474347 0.88708085 0.44151092 0.098695204
0.06665305 -0.36367154 -0.18165481 -0.12364861 0.96117556 0.24668296 0.087294243
0.076888278 -0.36099282 -0.18547755 -0.089793697 0.94260097 0.32162184 0.1030599
-0.024103405 -0.35218811 -0.18204273 0.29983968 0.92217439 0.24431646 0.092342116
-0.006134022 -0.35364988 -0.18474531 0.21353282 0.94640303 0.24233223 0.08172296
0.0054018376 -0.35383093 -0.18868019 0.14669336 0.93342483 0.32741296 0.10308703
0.017255846 -0.35539061 -0.18873364 0.076027483 0.91693538 0.39172596 0.094917268
0.021507883 -0.35683274 -0.18618922 0.096268028 0.91348583 0.39531782 0.10202239
0.036573738 -0.35764921 -0.18964326 0.087582856 0.88694423 0.45349663 0.08379712
0.078646682 -0.3592644 -0.18981795 -0.076799013 0.93855041 0.33648926 0.1046938
0.11253281 -0.35577697 -0.18684462 0.050091982 0.89863795 0.43582177 0.081147678
0.12965214 -0.35451525 -0.18388969 -0.17058778 0.87618005 0.45078638 0.10003198
0.13140824 -0.35465717 -0.18279836 -0.15550147 0.91578603 0.37034467 0.10273406
0.14482649 -0.3523367 -0.18434991 -0.27878836 0.8766008 0.39223465 0.10105734
-0.053209662 -0.34111357 -0.18299089 0.40344656 0.87855917 0.25566512 0.084194154
0.010237611 -0.3414399 -0.18517724 0.071983188 0.94606596 0.31587601 0.10390462
0.034207292 -0.34441161 -0.18584004 0.11809072 0.89083928 0.43870252 0.095042609
0.042561837 -0.34479827 -0.18803272 0.094778083 0.92108625 0.37764701 0.094994783
0.057164311 -0.3471401 -0.18683039 0.030505633 0.90443939 0.42550999 0.089827135
0.06450326 -0.3475022 -0.18807437 0.01198006 0.90904725 0.41652092 0.093096763
0.075776473 -0.34632701 -0.1870904 -0.2764923 0.93286532 0.23089907 0.089472689
0.086194828 -0.34503406 -0.1868062 -0.12961173 0.94028258 0.31475303 0.088843808
0.090070963 -0.34552637 -0.18375912 -0.19714363 0.94069242 0.27610192 0.1017271
0.10443494 -0.34169614 -0.18955496 -0.03145146 0.93445474 0.3546901 0.088594727
0.15654369 -0.34949267 -0.18805555 -0.16501185 0.89579618 0.41269884 0.09098281
0.16488627 -0.34609133 -0.18780378 -0.13413058 0.91337514 0.38438895 0.085586153
0.17595303 -0.34210595 -0.18604438 -0.27181041 0.91460675 0.29935518 0.08354716
-0.072147191 -0.33124322 -0.18823694 0.46134606 0.82631975 0.32304084 0.092475072
-0.021077402 -0.33863401 -0.18105839 0.17208803 0.959351 0.22367688 0.097749785
-0.015454158 -0.33734471 -0.1872168 0.10231113 0.96876091 0.2259085 0.089268237
0.13584095 -0.33867356 -0.18605407 -0.27104977 0.82765442 0.49144694 0.083805509
0.14391819 -0.33824262 -0.18410675 -0.26469627 0.86045319 0.43538055 0.10078772
0.16279307 -0.33291364 -0.18422908 -0.089083932 0.93386561 0.34635106 0.088242166
0.18619148 -0.33751407 -0.18686554 -0.43960592 0.83336782 0.33502927 0.081326358
0.19383007 -0.33657277 -0.18075353 -0.55056667 0.78430539 0.28590447 0.066893511
-0.10169259 -0.32057622 -0.18361291 0.37662724 0.83327031 0.40473768 0.090955265
-0.090930991 -0.32478315 -0.18442672 0.37096351 0.82080078 0.43436417 0.098006599
-0.085097477 -0.3285076 -0.18095934 0.3301841 0.87483478 0.35446104 0.094821513
-0.067708775 -0.32056585 -0.18079109 0.43766165 0.86320877 0.25164044 0.10542563
-0.057656027 -0.32370508 -0.18380834 0.4029476 0.88923955 0.21653239 0.096897222
0.20502779 -0.32862931 -0.1895586 -0.40829995 0.88458127 0.22540432 0.10121317
0.21195345 -0.32698774 -0.18615007 -0.4036487 0.88012242 0.24990448 0.089690261
-0.1121629 -0.31535432 -0.18587664 0.38907361 0.82832372 0.4031148 0.09620811
-0.10661019 -0.31892031 -0.18251985 0.39387903 0.81964701 0.41597861 0.087804705
-0.090531446 -0.31035087 -0.18263672 0.37726068 0.8590132 0.34607893 0.099745408
-0.086485952 -0.31237563 -0.18170676 0.36209977 0.89707547 0.25325745 0.11034256
-0.075029567 -0.31635725 -0.18400748 0.46222985 0.83493173 0.2987183 0.099398784
0.19645083 -0.31908777 -0.18346347 -0.48712945 0.85094666 0.19645551 0.10805517
0.20024014 -0.31808564 -0.18181622 -0.50047678 0.82493985 0.26267344 0.093184806
0.21201044 -0.31359395 -0.18058169 -0.36004943 0.91161716 0.19828889 0.093102872
0.2381165 -0.31583333 -0.18668002 -0.42680594 0.87782902 0.2173775 0.093640827
0.2431096 -0.31271428 -0.18836132 -0.51587981 0.81331623 0.26904383 0.09473481
-0.13320571 -0.30052218 -0.18506959 0.56835103 0.75100958 0.33609796 0.096656069
-0.12762538 -0.30595165 -0.18251419 0.59559393 0.70148373 0.39139289 0.081639528
