# .PCD v0.7 - Point Cloud Data file format
VERSION 0.7
FIELDS x y z normal_x normal_y normal_z curvature
SIZE 4 4 4 4 4 4 4
TYPE F F F F F F F
COUNT 1 1 1 1 1 1 1
WIDTH 568
HEIGHT 1
VIEWPOINT 0 0 0 1 0 0 0
POINTS 568
DATA ascii
-0.19714487 -0.16876924 -0.058610193 0.54902828 0.82806879 0.1134459 0.00031316496
0.2036965 -0.16898407 -0.052509509 -0.56783652 0.81734705 0.097496808 0.0024447627
-0.22319253 -0.15228157 -0.055733759 0.56532073 0.81551194 0.12390659 0.00072691828
-0.061858192 -0.15183187 -0.053410932 0.24941067 0.96837038 0.0072838636 0.0013179351
-0.053260863 -0.15412648 -0.052420959 0.1667254 0.98587805 -0.015719242 0.0020255302
-0.04501839 -0.1548489 -0.057108708 0.12602927 0.99182487 -0.020002181 0.0016093799
-0.02357637 -0.15604956 -0.051101688 0.057849143 0.99832529 -0.00025629837 8.6673963e-06
-0.018515667 -0.15633294 -0.054606028 0.055911575 0.99843574 3.7388738e-06 0
-0.0059255278 -0.15703794 -0.054487549 0.053859103 0.99854833 -0.00065975502 9.78771e-06
0.0072527863 -0.15777586 -0.055338908 0.022931289 0.99973166 -0.0032815987 0.00067582738
0.026216518 -0.15768823 -0.057195138 -0.1384373 0.99034888 -0.0066477605 0.0013476764
0.03289938 -0.15629272 -0.057005826 -0.16104117 0.98694593 -0.0018623206 0.0011534094
0.051593605 -0.15238898 -0.053337663 -0.20440766 0.97888583 -3.9521155e-06 3.6662714e-06
0.22026131 -0.15442687 -0.054625101 -0.65768218 0.74523252 0.10992063 0.00029981683
-0.23476332 -0.14444786 -0.057078913 0.62134534 0.77253628 0.13083443 0.0024080202
-0.085262515 -0.14413466 -0.051946223 0.31242371 0.94994283 1.4153005e-06 0
-0.073804498 -0.14790297 -0.053914547 0.2948226 0.95554435 0.003826539 0.00042523863
-0.067810729 -0.14987421 -0.055181384 0.28053698 0.95983928 -0.0027518321 0.0006754208
0.063547738 -0.14989272 -0.058666829 -0.20440403 0.97888654 -4.7248389e-07 7.7934819e-06
0.084946111 -0.14542431 -0.053732798 -0.25011271 0.96821105 -0.0033120171 0.0013275166
0.09831316 -0.14210132 -0.0537434 -0.35136655 0.93619293 0.0091841985 0.0023734311
0.2262731 -0.14962846 -0.051699281 -0.66237313 0.74233449 0.10100166 0.00036527318
0.23053643 -0.14511287 -0.055209663 -0.66562122 0.73836458 0.10847141 0.00038824181
-0.24317044 -0.13588859 -0.058045987 0.69624758 0.70782739 0.11924637 0.0017900604
-0.11897226 -0.13304821 -0.053655267 0.38494202 0.92293489 -0.0032917669 0.0017964398
-0.10465844 -0.13775574 -0.052418623 0.32330814 0.94629335 -0.00084139028 0.00020916843
0.11668605 -0.13282253 -0.055222537 -0.45080188 0.89262408 3.0131405e-06 0
0.12123626 -0.13052455 -0.055398505 -0.45079991 0.89262503 -1.2243951e-06 1.5814359e-05
0.2384288 -0.13761845 -0.057205562 -0.6666193 0.73498672 0.12415019 0.00033482208
0.24031252 -0.13546699 -0.05933097 -0.66613328 0.73416388 0.1314145 0.00026678879
-0.25513515 -0.12337016 -0.054527648 0.7388941 0.66375077 0.11606143 0.0002263046
-0.13784255 -0.12321168 -0.057849795 0.51962423 0.85439491 0.00028274066 0.0005336891
0.12418284 -0.12903644 -0.050680384 -0.45079818 0.89262587 3.5908322e-06 0
0.13201793 -0.12507953 -0.055997487 -0.45080194 0.89262396 -5.036482e-06 2.3573523e-06
0.14365587 -0.11920205 -0.054924458 -0.45277852 0.89162302 -0.0002760179 6.6211387e-06
0.15463296 -0.11365832 -0.051059052 -0.51339304 0.85810685 0.0089588044 0.0015276003
-0.16703378 -0.10410585 -0.054006997 0.54762739 0.83672237 -7.0384494e-06 1.0006977e-05
0.26996875 -0.10948553 -0.056922954 -0.69958436 0.70442653 0.11985409 0.0009484801
0.27352178 -0.10629332 -0.056995921 -0.73371196 0.6688357 0.1196886 0.0020995236
-0.27681941 -0.098687403 -0.05625898 0.73785734 0.66518128 0.11445713 0.00032098839
-0.17337453 -0.099955782 -0.056121357 0.55493993 0.83188868 -0.0017444392 0.0001835116
0.17655429 -0.097931676 -0.053248525 -0.6400637 0.76832139 0.00085202215 0.00086716842
0.27945498 -0.09876354 -0.056295007 -0.77628654 0.61746675 0.12694132 0.0026421074
0.28269497 -0.094277993 -0.054743055 -0.80971301 0.57473272 0.11852013 0.0013298258
-0.29316834 -0.081472844 -0.05135639 0.7641511 0.63753933 0.098063923 0.0010850488
-0.28749424 -0.086863026 -0.055784129 0.74936748 0.65164787 0.117488 0.00063862221
-0.19002534 -0.089057729 -0.052563012 0.65498751 0.75524938 0.024284944 0.0024358756
0.19207026 -0.084061228 -0.057124704 -0.66646892 0.74553275 -5.4938082e-06 8.1371462e-07
0.28844309 -0.084069066 -0.059506834 -0.83050716 0.54028332 0.13546921 0.00026095822
-0.29841161 -0.075056702 -0.054133233 0.80286425 0.58626539 0.10817534 0.0024927685
0.201179 -0.075918518 -0.05901663 -0.66808164 0.74408793 1.8829147e-05 0
0.29397926 -0.077499345 -0.053101171 -0.83393037 0.54126316 0.10767715 0.00043797132
-0.30328482 -0.068337001 -0.050525598 0.83747536 0.53613138 0.10582119 0.0021777607
-0.21557589 -0.060694091 -0.051579766 0.74552327 0.66647953 5.6629542e-06 8.1465159e-06
0.21229836 -0.065978378 -0.054883864 -0.70373178 0.71043473 0.0066381437 0.00098628271
0.30373916 -0.063102834 -0.05008965 -0.83022332 0.54841465 0.099853538 0.00056314998
-0.22056027 -0.055118393 -0.05580299 0.74553114 0.66647083 1.2216561e-05 0
0.22196618 -0.056860946 -0.055185422 -0.76229697 0.6472128 0.0043455693 0.0024048428
0.30689231 -0.056637615 -0.056980342 -0.82923132 0.54447681 0.12617601 0.00035896664
0.31129652 -0.050624549 -0.054589264 -0.82721281 0.54966021 0.11658788 0.00047384924
-0.31480789 -0.043991059 -0.05582526 0.8856023 0.4488475 0.11934977 0.0004417875
-0.22699937 -0.04791538 -0.055665314 0.7565316 0.65394592 0.0038159264 0.0003799948
0.22729659 -0.048853181 -0.059235796 -0.80852777 0.58845025 0.0030380667 0.0010088587
0.31712157 -0.040405583 -0.058994211 -0.83205289 0.53924787 0.1299991 0.00041193559
-0.32068419 -0.033294994 -0.053242531 0.88562626 0.45023772 0.11380767 0.00053677696
-0.24203996 -0.030466052 -0.051603831 0.83551693 0.5494647 5.9450522e-05 0.0026091116
-0.23462504 -0.039385077 -0.057385858 0.76574749 0.64313436 -0.0029937862 0.0005947852
0.23555346 -0.036237758 -0.056251727 -0.83650857 0.54795396 5.6563844e-05 1.7298265e-06
0.31922632 -0.039250545 -0.052019373 -0.8430655 0.5266757 0.10887234 0.0010537964
-0.32639039 -0.022441659 -0.05160382 0.88853365 0.44617823 0.10692516 0.00049478648
-0.24427859 -0.026033342 -0.056589931 0.84580767 0.53348571 -0.0015513772 0.0025959557
0.24125619 -0.027524743 -0.055377487 -0.83670312 0.54765671 -1.1359075e-05 2.0301799e-05
0.32541233 -0.02949588 -0.053125046 -0.87375617 0.47214672 0.11673746 0.0024287933
-0.33041212 -0.014435042 -0.052093491 0.89403015 0.43775386 0.095297419 0.00039313291
-0.25057232 -0.013571199 -0.054574739 0.88535535 0.46491155 0.001794831 0.00038640096
0.25146455 -0.011927683 -0.055314116 -0.83999914 0.54258019 0.0028583461 7.0001828e-05
0.33149472 -0.013847804 -0.055274405 -0.92558968 0.35857376 0.12127882 0.0012268061
-0.2551043 -0.0045974171 -0.054742247 0.89262515 0.45079976 1.5705868e-05 0
0.25798038 -0.0019723901 -0.05600854 -0.86554551 0.50082695 0.0018132648 0.0012999398
-0.26153418 0.0081342924 -0.055490077 0.8926248 0.45080039 7.101582e-06 0
0.26382655 0.0079218373 -0.057327677 -0.91198695 0.41020942 0.0028463418 0.0024714442
0.33568305 0.00089183613 -0.059457179 -0.94268101 0.31087697 0.12127662 0.00024211244
-0.34374303 0.014900438 -0.056201212 0.94624466 0.3002542 0.12028493 0.0016305962
0.26676747 0.016863765 -0.056493733 -0.93135369 0.36410925 0.002189046 0.0012400751
-0.34579808 0.023943627 -0.055185966 0.96203196 0.25269961 0.103138 0.0011890412
-0.26945212 0.023812536 -0.056023195 0.90367067 0.42821297 -0.0036138077 0.00034416909
0.26792026 0.02036896 -0.055466257 -0.93760651 0.34768158 0.0034145652 0.00093157333
-0.34834635 0.035458647 -0.054335445 0.97252798 0.20440854 0.1113848 0.00048443291
-0.27370602 0.032235652 -0.05701571 0.9249298 0.38011622 -0.0040731169 0.0013926635
0.27253973 0.034414988 -0.057889156 -0.94994187 0.31242654 5.037457e-06 0
0.34642515 0.032724556 -0.057876065 -0.94168645 0.31505629 0.11817864 0.00029947137
-0.3503004 0.042569958 -0.050808109 0.97441322 0.20184705 0.098876879 0.00037574567
0.27655265 0.04661683 -0.058323182 -0.94993579 0.3124451 -2.1374841e-05 3.2739277e-05
0.35031283 0.043485347 -0.055856328 -0.94482881 0.30591705 0.11710382 0.0003451409
-0.3520686 0.052475072 -0.053506032 0.97297204 0.20329753 0.10952336 0.00052437861
0.27830088 0.051932622 -0.052536607 -0.9499442 0.31241956 -5.7486891e-06 7.1645895e-06
0.28045052 0.058468893 -0.055075038 -0.9523136 0.30511099 0.0024577954 0.0001493915
0.35318917 0.052654523 -0.056662627 -0.95124865 0.27628013 0.13709569 0.00026411127
-0.35447499 0.062924676 -0.052167237 0.97409892 0.20187472 0.10187133 0.00030598676
-0.2814858 0.06391976 -0.053310603 0.97888613 0.20440623 6.0362613e-06 0
0.28255606 0.064871036 -0.053101886 -0.95323855 0.30220309 0.0030816665 0.00011856297
0.35802481 0.069538489 -0.053718477 -0.97654915 0.17052321 0.13142921 0.0015951602
-0.35743275 0.076676019 -0.050620276 0.97404069 0.20007432 0.10590083 0.0003946833
-0.28370279 0.074536443 -0.05446253 0.97888392 0.20441696 1.4968643e-07 0
-0.35895711 0.085327618 -0.05333776 0.97544599 0.18848711 0.11391948 0.00068748585
0.35847548 0.089220516 -0.057684802 -0.99000794 0.063387834 0.12596151 0.00032161287
-0.35931805 0.090483598 -0.057609998 0.97499579 0.18439332 0.12402564 0.00059538923
-0.28810674 0.095626213 -0.052557912 0.98491561 0.17300899 -0.0030075863 0.00070749328
0.35905942 0.096474729 -0.056173373 -0.99131715 0.054250844 0.1197798 0.00036975052
-0.36280251 0.10358607 -0.053142745 0.98905295 0.083866291 0.12141148 0.0020506929
-0.29110643 0.10999127 -0.058106273 0.99537486 0.0960318 -0.0026067926 0.0023606082
-0.28965151 0.10302377 -0.05380059 0.9887315 0.14952695 0.0071886983 0.0015578644
0.35986352 0.10949135 -0.05614458 -0.99135983 0.057613533 0.11784034 0.00045164267
0.36019152 0.10227762 -0.050729331 -0.99261254 0.056079734 0.10758882 0.00039262371
-0.36139977 0.1248085 -0.05738182 0.99106109 -0.036313608 0.12837112 0.00049778342
0.28964445 0.12540954 -0.057928193 -0.99843621 0.05590314 -5.0474187e-06 1.1379649e-05
0.36166885 0.12931688 -0.051409911 -0.9931407 0.051934045 0.10475818 0.00056060695
-0.36147812 0.13980389 -0.051045749 0.99392277 -0.051845759 0.097106457 0.00033759759
0.36093134 0.13518935 -0.058404528 -0.98909378 0.052218709 0.13772014 0.00033693074
-0.36148497 0.14037806 -0.050323673 0.99393457 -0.051063579 0.097398214 0.00048405249
-0.35984883 0.14614081 -0.059551775 0.99092925 -0.054944467 0.12263908 0.0003530189
-0.2895638 0.14139485 -0.054815806 0.99843854 -0.055861402 2.025582e-06 0
0.29081312 0.14628042 -0.055697035 -0.99995476 -0.0090445094 0.0029303383 0.0011564427
0.36230844 0.14595298 -0.053445652 -0.9932012 0.012338783 0.11575487 0.0011469146
-0.28885642 0.15402797 -0.054076791 0.99843633 -0.055900153 -1.933488e-06 3.0820785e-05
0.2907826 0.15692361 -0.056339089 -0.99462056 -0.10307131 0.010303861 0.0024122917
0.36307397 0.15330486 -0.050263226 -0.99556649 -0.020201541 0.091865413 0.0014417121
-0.35975599 0.16714026 -0.052483201 0.99224293 -0.062391829 0.10752326 0.0003753388
0.2885778 0.16748193 -0.05518898 -0.98435497 -0.1761861 -0.0019064003 0.00079575076
0.29010016 0.16019145 -0.05273407 -0.99093038 -0.13410814 0.0084827626 0.0019118956
-0.28751799 0.17793033 -0.052777492 0.99073493 -0.13441633 0.019404314 0.0020736493
0.28608996 0.17939578 -0.05632636 -0.97887129 -0.20447718 8.1493372e-06 0
-0.28729829 0.18185383 -0.055226155 0.98950273 -0.14393173 0.012961274 0.002188019
0.28489292 0.1851282 -0.05604656 -0.97888654 -0.20440423 2.4557878e-06 0
0.35756537 0.18686803 -0.053129435 -0.97329307 -0.20356613 0.10611983 0.00037202216
-0.35741353 0.19907911 -0.05633115 0.9824478 -0.1494766 0.11159361 0.0017410216
-0.28478807 0.19370626 -0.059629321 0.96643555 -0.2569015 -0.0020059894 0.0010229081
0.28367719 0.19094992 -0.056248065 -0.97887963 -0.20443755 5.9167933e-06 0
-0.35421124 0.20868543 -0.058408219 0.95579648 -0.26333141 0.13080354 0.0017831421
-0.28133968 0.20419158 -0.059916921 0.95594102 -0.29354778 -0.0025379241 0.00045471897
0.35371339 0.20205933 -0.057186782 -0.97178364 -0.20118627 0.12312877 0.00027425514
-0.35305589 0.21255881 -0.057721861 0.94715816 -0.29650542 0.12237641 0.00064375653
0.27816325 0.21735527 -0.052759066 -0.96535575 -0.26089165 -0.0048750336 0.00098776538
0.35125548 0.2134333 -0.057681084 -0.97081494 -0.20209363 0.12913758 0.00025836335
-0.34584016 0.23553054 -0.055757001 0.94358611 -0.31078774 0.11426371 0.00041154097
-0.27073011 0.23645122 -0.056374386 0.94898647 -0.31531635 0.00058364432 2.6994945e-05
0.27049884 0.23947874 -0.054365382 -0.92644268 -0.3763856 -0.0061437702 0.0012852799
0.34707198 0.23476058 -0.056069024 -0.96731561 -0.2172357 0.13080184 0.00047952402
-0.34267053 0.24475449 -0.056545123 0.94620836 -0.29909021 0.12342907 0.0003700185
-0.26914638 0.24126686 -0.052658893 0.94728398 -0.32039061 -0.0017396266 6.4448053e-05
0.2675142 0.24538855 -0.055288196 -0.90910244 -0.41657263 0.00016986662 0.00059971976
0.34531593 0.24358538 -0.055551153 -0.95078981 -0.28322896 0.12561868 0.0015955834
-0.33894649 0.2579056 -0.053063199 0.94388551 -0.30955002 0.11514734 0.00044138968
0.34111655 0.25641632 -0.058148663 -0.92439795 -0.36429444 0.11303959 0.0018045995
-0.33604088 0.26752612 -0.050357953 0.94451153 -0.31544274 0.091617778 0.00026022253
-0.25654006 0.26953688 -0.052569754 0.86857325 -0.495446 0.010674159 0.0015283463
0.33663166 0.26647145 -0.054919541 -0.90003604 -0.41978362 0.1171186 0.00073625456
-0.3329629 0.27662376 -0.051873244 0.93087685 -0.35047776 0.10311937 0.00093380542
-0.25462633 0.27246076 -0.058910765 0.83999908 -0.54257536 0.0036714685 4.4518169e-05
0.25285494 0.27441522 -0.053947598 -0.8894558 -0.45702103 0.00030228469 5.2649135e-05
-0.33051765 0.28085297 -0.058172099 0.92277813 -0.36303434 0.12917636 0.00083458034
-0.24644405 0.28496227 -0.055205692 0.83665711 -0.54772693 1.9565134e-05 0
0.24774724 0.28452897 -0.059414804 -0.87039202 -0.4923529 0.0025154639 0.0010465229
0.32891455 0.28288603 -0.051075015 -0.88637513 -0.45142591 0.10273191 0.00034783923
-0.32351729 0.29727513 -0.054563947 0.87812793 -0.46803948 0.099148564 0.0017272417
-0.24031144 0.29433212 -0.059957262 0.83667767 -0.54769564 3.354477e-06 0
-0.23846892 0.29714724 -0.055697672 0.8367216 -0.54762852 -1.427492e-05 7.963833e-06
0.24014705 0.29857177 -0.052733529 -0.81947964 -0.57310623 0.0015147295 0.0029590309
0.32279465 0.29358894 -0.055378761 -0.88856226 -0.4425692 0.12078751 0.00041255786
-0.3206799 0.30255103 -0.050420895 0.85529184 -0.5080108 0.10198517 0.001038466
-0.23395772 0.30403978 -0.057287108 0.83295071 -0.55334419 0.0017904219 6.7394263e-05
0.23293535 0.30663908 -0.054874107 -0.7704609 -0.63719714 0.01922735 0.0013937101
-0.31184509 0.31587905 -0.052152619 0.83114862 -0.54571128 0.10672916 0.00047397791
-0.30970293 0.31887847 -0.053069659 0.82935631 -0.54730052 0.11238444 0.00043775159
-0.22584175 0.31643993 -0.053036168 0.80053151 -0.5992499 -0.0069949375 0.0013208842
0.22365597 0.31701937 -0.054543782 -0.74550921 -0.66649526 -7.3472002e-06 4.2743618e-06
0.30991569 0.31843531 -0.057492811 -0.88199097 -0.45485628 0.12327855 0.00039309642
0.31351727 0.31342083 -0.050683774 -0.88749266 -0.44837591 0.10637619 0.00035869004
-0.30281645 0.32974589 -0.051418446 0.83481842 -0.54066336 0.10373708 0.00045320363
-0.22351095 0.32000107 -0.05778262 0.77425826 -0.63283581 -0.0065584835 0.0021198429
0.21558729 0.32604527 -0.057306342 -0.74554074 -0.66646004 -4.7521544e-06 2.3421106e-05
0.30588856 0.32629856 -0.057797499 -0.87041897 -0.47634456 0.12436554 0.00081485102
-0.301285 0.33176178 -0.052764304 0.83552951 -0.53954011 0.10386014 0.00054503093
-0.29521716 0.33941209 -0.058408525 0.82876551 -0.54357457 0.13294521 0.00035288176
-0.21061245 0.33284944 -0.057810873 0.69308341 -0.72085047 0.0031654572 0.00088539574
-0.20476349 0.33807811 -0.05627472 0.67196035 -0.74058616 -0.0011616917 9.4775321e-05
0.21191636 0.33015168 -0.056154102 -0.74554777 -0.66645229 -2.5765673e-06 1.5080228e-05
0.30232179 0.33489057 -0.053592958 -0.8411839 -0.52844846 0.11468143 0.0019340242
-0.28968078 0.34974784 -0.05210619 0.82738405 -0.55214983 0.10279229 0.00032571444
-0.19304962 0.34854972 -0.054125272 0.66649103 -0.74551302 3.088552e-05 0
0.29704621 0.34118912 -0.057216983 -0.81291676 -0.5676434 0.13018231 0.0024806135
-0.28670695 0.35397077 -0.052853208 0.82383966 -0.55692661 0.10545561 0.00047706996
-0.18522435 0.35554507 -0.058994781 0.66603327 -0.74592197 -0.00035869025 4.3408254e-06
0.18620376 0.35692295 -0.056629509 -0.60487509 -0.79628605 -0.0073901988 0.0011467247
-0.28154683 0.36074358 -0.056922331 0.79567498 -0.5925346 0.12571406 0.001496934
-0.27974576 0.36342636 -0.057152994 0.79078662 -0.59910601 0.12541339 0.001420735
-0.17549564 0.36424202 -0.055631556 0.64777583 -0.76183021 -0.001091785 0.00052009209
0.17239803 0.36595887 -0.056317419 -0.54985964 -0.8352567 0.00078093243 7.5581724e-05
0.1553123 0.37714159 -0.054260049 -0.54767287 -0.83669257 2.6503403e-05 0
0.26858521 0.37246263 -0.059508897 -0.73947787 -0.66007829 0.13217087 0.00019148458
0.2705746 0.37194943 -0.05218308 -0.74267668 -0.6617626 0.10247722 0.00043675365
-0.14349353 0.38464797 -0.054138675 0.45444509 -0.89077467 0.00041962438 4.9490474e-05
0.14528014 0.38370767 -0.058397576 -0.54118019 -0.8409006 -0.0031849542 7.9382567e-05
0.25514284 0.38861954 -0.054957926 -0.73696947 -0.66527873 0.11949993 0.00045043914
-0.12452739 0.39422637 -0.057678208 0.45081496 -0.8926174 -8.3510222e-06 0
0.11833166 0.39862281 -0.052680075 -0.37606665 -0.92652327 0.011337618 0.0017613581
0.12687132 0.39574307 -0.055813238 -0.46808398 -0.8835814 -0.013465183 0.0025395183
0.1341241 0.39100936 -0.052702792 -0.51806074 -0.85524529 -0.012983913 0.00076167838
-0.23204543 0.4099268 -0.050390918 0.66540498 -0.7394833 0.10198408 0.00039055553
-0.10667781 0.40324086 -0.058487043 0.39133146 -0.92024982 -0.00018674319 0.0015715491
0.095699355 0.40606612 -0.052649289 -0.31243825 -0.94993806 5.5198184e-06 4.1343174e-05
0.10189082 0.40402988 -0.05306603 -0.31275973 -0.94983226 0.00014013672 0
0.2422289 0.40272671 -0.056334846 -0.68368095 -0.71976185 0.12051219 0.0012048336
-0.081420034 0.41152453 -0.053649709 0.23865582 -0.97110134 0.0023362569 0.00096861238
-0.064282462 0.41510326 -0.056836497 0.20442764 -0.97888166 2.4069156e-09 7.6390716e-05
-0.055435374 0.41695067 -0.056372982 0.2044242 -0.97888237 9.6729946e-06 3.5145575e-05
-0.044483293 0.41923767 -0.057917386 0.19753511 -0.98029459 0.0015710223 8.5340187e-05
0.049773369 0.41994658 -0.054812267 -0.18729234 -0.98230261 -0.0017866325 0.0019068235
0.056042254 0.41902256 -0.054526679 -0.21358168 -0.97691882 -0.0035322621 0.0021574805
0.066456921 0.41568339 -0.055467039 -0.27564898 -0.96125835 -0.00017976358 0.0008636564
0.077848472 0.41193691 -0.051614389 -0.30448627 -0.95251471 0.0019500914 0.00017112632
0.22310239 0.41808957 -0.053181816 -0.57427359 -0.81190026 0.10501329 0.00055442151
-0.2150441 0.42409292 -0.056192499 0.63650101 -0.76137847 0.12316344 0.00079192489
-0.20973857 0.42919391 -0.054280072 0.5945732 -0.79695225 0.10653578 0.0021365681
-0.03031563 0.42219621 -0.050866723 0.1295228 -0.9915759 -0.0010354206 0.0016210459
-0.021507911 0.42393804 -0.054580778 0.057894804 -0.99829239 0.007776631 0.0015874668
-0.012734301 0.42344674 -0.057936631 0.002729719 -0.99999547 0.001276716 0.001096583
-0.0083495583 0.42320123 -0.058057837 -0.016796773 -0.99984205 0.0057949424 0.00082071067
0.014237723 0.42193642 -0.057833411 -0.055914231 -0.99843556 1.2242403e-05 1.5120756e-06
0.034623131 0.42079496 -0.054103598 -0.061338741 -0.99811697 -0.00012721783 0
0.042165518 0.42037258 -0.053624999 -0.09795177 -0.99516666 -0.0069833044 0.0011335091
0.20730129 0.42886078 -0.050442304 -0.54383743 -0.83240658 0.10648955 0.00057010795
0.21752468 0.42201167 -0.051852893 -0.55332184 -0.82741094 0.096052527 0.00045206887
-0.20136766 0.43482244 -0.056891721 0.51984364 -0.84629399 0.11640016 0.0014779096
0.19753072 0.43520918 -0.051164694 -0.53872919 -0.83502299 0.11183678 0.00039462993
0.20181283 0.43231153 -0.051863529 -0.53830242 -0.83551252 0.11022385 0.00061644008
-0.18943048 0.4416717 -0.052424926 0.46787548 -0.87716573 0.10804056 0.00064709253
-0.17141393 0.45059425 -0.053384442 0.44624913 -0.88775092 0.11296074 0.00042464523
-0.16389821 0.45408666 -0.055035114 0.44483382 -0.88828719 0.11431915 0.00045124799
-0.15431996 0.4581472 -0.059262909 0.44457385 -0.88641399 0.12893561 0.00035475942
0.16752481 0.45404759 -0.055591155 -0.49972543 -0.85755157 0.12198284 0.00098762487
0.17000692 0.4521811 -0.057151079 -0.49969178 -0.85757297 0.12197015 0.00096285291
-0.14650762 0.46278805 -0.055133969 0.44263455 -0.88986039 0.11055856 0.00035734687
-0.1322608 0.469293 -0.059233993 0.40028211 -0.90788108 0.12460437 0.0013853631
0.1343049 0.46816036 -0.055751368 -0.30620536 -0.94506514 0.11441223 0.00041254875
0.14477703 0.46489602 -0.054811202 -0.37590414 -0.91760135 0.1292433 0.0015351673
0.15482464 0.46193311 -0.052832708 -0.40206513 -0.90887856 0.11083093 0.0010800934
-0.12436303 0.47394064 -0.05564703 0.3628507 -0.92497998 0.11292237 0.0018993154
-0.10680957 0.47894794 -0.054694001 0.24435085 -0.96108758 0.12885374 0.00087195431
0.10607966 0.47784355 -0.053532224 -0.31311792 -0.94271374 0.11509986 0.00041305335
0.12454177 0.47144562 -0.054738708 -0.30231279 -0.94487882 0.12574171 0.00035954959
-0.087638587 0.48263997 -0.056841414 0.19872487 -0.97006834 0.13955605 3.1647851e-05
-0.074748561 0.48621953 -0.050282255 0.20826359 -0.97277695 0.10164311 0.00046811989
-0.063324951 0.48742214 -0.058602143 0.20523213 -0.97015816 0.12912388 0.00049974374
-0.054793574 0.48941576 -0.057336006 0.20183805 -0.97198802 0.12041929 0.00039788013
0.064556882 0.48960763 -0.059928775 -0.17270325 -0.97664642 0.12780997 0.002472207
0.076360881 0.48663768 -0.059207551 -0.25437358 -0.9570471 0.13912164 0.0015017847
0.084686927 0.4839578 -0.058869474 -0.29363364 -0.9453429 0.14179592 0.0003741642
0.092323504 0.48233637 -0.053713486 -0.31041196 -0.94353807 0.11567383 0.00051074085
-0.052186206 0.49070674 -0.052796811 0.19940233 -0.97370994 0.11012565 0.00017610799
-0.038607184 0.49263546 -0.058293261 0.13543665 -0.98307598 0.12336393 0.0016369863
-0.0075278352 0.49463904 -0.053870879 -0.029727444 -0.99355215 0.10940909 0.00039138863
0.013434677 0.49307266 -0.056260984 -0.053686261 -0.99124205 0.12065232 0.00044828132
0.020592175 0.49331084 -0.052370694 -0.059568807 -0.99078655 0.12162867 0.00040298942
0.036145642 0.49250731 -0.051557023 -0.061904915 -0.99227846 0.10747713 0.00038179444
0.042403597 0.49144995 -0.056264509 -0.060151733 -0.99124432 0.11754375 0.00031997601
0.066357329 0.49084064 -0.05109261 -0.18212448 -0.9773854 0.10746379 0.0023240806
-0.021827362 -0.48203456 -0.043008674 0.23289283 0.94024318 0.24840224 0.0095390566
-0.010722198 -0.48556948 -0.040476751 0.076142184 0.96960789 0.23251428 0.0069143544
-0.0028439758 -0.48297036 -0.042799663 0.0092971185 0.9680692 0.25051063 0.0070320312
0.006065879 -0.48580512 -0.042214781 -0.02201312 0.96758264 0.25159356 0.0057274434
0.014182185 -0.48287013 -0.046632756 -0.085498326 0.96363705 0.25316718 0.0057757385
0.027897287 -0.48134139 -0.047332145 -0.28289241 0.91713542 0.28077459 0.011022016
-0.043162711 -0.47216132 -0.044151083 0.58519977 0.79063565 0.18010105 0.0095060896
-0.034567676 -0.47754967 -0.046232894 0.44864875 0.86128527 0.23854148 0.016889028
0.038492158 -0.47788197 -0.044370256 -0.41974157 0.87436241 0.24353111 0.007463919
0.043138415 -0.47490931 -0.044721909 -0.55256128 0.79853213 0.23879375 0.0090807676
-0.051577725 -0.46068853 -0.046153367 0.93067646 0.35166702 0.10085437 0.032126237
-0.047534518 -0.46829373 -0.041125074 0.75636089 0.637308 0.14750183 0.038236193
0.052263234 -0.46552449 -0.045647644 -0.82487822 0.53822619 0.17288312 0.023818029
-0.053913619 -0.44135508 -0.043123122 -0.99072343 0.12828021 -0.044847872 0.033434141
0.057956506 -0.44407001 -0.047511656 -0.99670875 -0.057711452 -0.056930371 0.040016215
-0.051530458 -0.43269601 -0.049421337 -0.89075136 0.43285331 0.13856448 0.038744565
0.056596797 -0.43850374 -0.043369614 0.9731878 0.21847452 0.071933113 0.031605415
-0.047186594 -0.42753714 -0.045211177 -0.6889022 0.68314165 0.24234551 0.01150413
-0.039352488 -0.42129526 -0.04053371 -0.606516 0.72596556 0.32421026 0.018935369
0.043885306 -0.42102772 -0.044194207 0.67546201 0.6903109 0.25927225 0.01720147
-0.031077901 -0.41385108 -0.047406178 -0.41476208 0.8467043 0.33326298 0.021867901
-0.024357161 -0.41328928 -0.045291614 -0.33630237 0.87629688 0.34497038 0.015858397
0.0091575775 -0.41392505 -0.043929599 0.040778141 0.93587935 0.34995279 0.0024754421
0.013267313 -0.4125928 -0.046546042 0.037509706 0.92895889 0.36827761 0.0020968406
0.029549018 -0.41349548 -0.044773247 0.26881045 0.89704603 0.35078385 0.017556172
0.033400524 -0.41265175 -0.048634518 0.36259949 0.85678566 0.36666039 0.022807136
0.043339174 -0.41801569 -0.049347863 0.6725949 0.67941558 0.29327536 0.015955761
-0.085155755 -0.2202743 -0.040243372 0.28858191 0.95504296 0.067922823 0.00044981786
-0.077257663 -0.2224291 -0.04804673 0.2584365 0.96097237 0.098704726 0.0012469781
-0.045589931 -0.22686042 -0.04700207 0.07029862 0.99370414 0.087236322 0.00034179437
-0.034109909 -0.22761056 -0.045014091 0.058581602 0.99499965 0.08089453 0.00027224346
-0.025416961 -0.22805293 -0.04583681 0.055692304 0.99538529 0.078144871 0.00025538259
-0.014103824 -0.22876975 -0.044292759 0.054265227 0.99516559 0.081857286 0.00027938423
-0.0050455639 -0.22921097 -0.045515254 0.055456884 0.99418819 0.092272446 0.00032594879
0.0095768403 -0.22994384 -0.047106743 0.02909671 0.99496865 0.095868222 0.000781101
0.03532204 -0.22946686 -0.043412529 -0.13076034 0.98828 0.078768425 0.0010900338
0.046288781 -0.22689223 -0.048580438 -0.18215752 0.9781462 0.10024348 0.00061873277
0.052543774 -0.22590066 -0.042866498 -0.20263748 0.97607952 0.078782961 0.0002833583
0.061386127 -0.22384755 -0.046620447 -0.20275865 0.97495186 0.091421261 0.00025879615
0.072307423 -0.22180608 -0.042277113 -0.20356883 0.97552371 0.083145328 0.00028793173
0.080000117 -0.2201411 -0.043341577 -0.20434383 0.97606307 0.074460603 0.00012776921
-0.10312913 -0.2139875 -0.046865344 0.31014952 0.94574791 0.09678933 0.00034099029
-0.097305164 -0.21586956 -0.047452975 0.31344756 0.94415492 0.10159797 0.00043846917
-0.085758895 -0.21982239 -0.044712376 0.29568157 0.95127422 0.087463491 0.00072674896
0.089492984 -0.21804971 -0.045323148 -0.20913249 0.97494024 0.07586275 0.00017449996
0.091137618 -0.21782058 -0.043246914 -0.20914648 0.97511691 0.073517993 0.00019375574
0.10530853 -0.21464953 -0.047095586 -0.23406415 0.96763951 0.094275072 0.00047358766
-0.14244539 -0.20106266 -0.046769395 0.33247656 0.93856019 0.092543118 0.00057363178
-0.13455842 -0.20385896 -0.043201022 0.31470579 0.94627631 0.074306339 0.00028291933
-0.12756903 -0.20586267 -0.04839994 0.31255189 0.94470263 0.099238344 0.00040467596
-0.11868121 -0.20907441 -0.043311119 0.31349406 0.94583404 0.084376492 0.00032883216
0.12678301 -0.20850849 -0.043661851 -0.37192386 0.92419851 0.086773999 0.0017029712
0.13438682 -0.20455404 -0.04555545 -0.44285321 0.89223379 0.088316441 0.00031630509
-0.16647072 -0.19066077 -0.04361137 0.498999 0.86337233 0.074754924 0.0016258558
-0.15476842 -0.19728804 -0.041866466 0.39771286 0.91308755 0.089976199 0.0026350846
0.15204538 -0.19582658 -0.042398937 -0.45042419 0.88957375 0.076003075 0.00022619427
-0.17719826 -0.18352437 -0.045399264 0.54188269 0.83669484 0.079402871 0.00020756996
0.16657674 -0.18829688 -0.045561329 -0.44643897 0.89116555 0.08072336 0.00020793726
-0.19213895 -0.17348883 -0.049385637 0.55651683 0.82508802 0.097564504 0.00031723271
-0.18816987 -0.17663181 -0.040921565 0.54693741 0.83392233 0.073708981 0.00018859423
0.18841136 -0.17727837 -0.045419782 -0.465536 0.88127071 0.081474319 0.00059457769
0.19616067 -0.17341344 -0.044612963 -0.50683063 0.8584764 0.078364335 0.0018040515
0.2038973 -0.16943462 -0.045798916 -0.56265056 0.82176512 0.09014675 0.0022983935
0.21173382 -0.16328061 -0.042641502 -0.60639417 0.79101801 0.081095964 0.0017553568
-0.22509734 -0.15215777 -0.045653045 0.56544507 0.81896478 0.097818919 0.00089033367
-0.060584687 -0.15225069 -0.040876992 0.23750463 0.9713825 0.0027449774 0.002267296
-0.046972964 -0.15473945 -0.040489502 0.12620491 0.99200344 0.0011909067 0.0016300908
-0.033311564 -0.15550444 -0.044549827 0.074217796 0.99723899 -0.0024688002 0.00029478435
-0.025540009 -0.15593959 -0.04573546 0.057882834 0.99832326 0.00046994089 8.4494769e-07
-0.019321911 -0.1562878 -0.042274781 0.055907466 0.99843597 -2.2230686e-06 0
0.011435758 -0.1580101 -0.045050271 -0.038140371 0.99924642 -0.0071975728 0.0021995706
0.022911053 -0.15837848 -0.049471736 -0.091720156 0.99572909 -0.010537447 0.0025214141
0.038085338 -0.15520978 -0.045082331 -0.18636538 0.98248029 -0.00065076631 0.00070671493
0.040823877 -0.15463792 -0.041473735 -0.18696491 0.98236567 0.0013188741 0.00058926159
0.06025726 -0.15057984 -0.046274573 -0.20441493 0.97888434 -8.3817253e-07 8.8627939e-06
0.22046104 -0.15507121 -0.048281468 -0.65970409 0.74502534 0.098629333 0.00036249502
-0.24011382 -0.14153124 -0.042578686 0.66925389 0.73976749 0.069592789 0.0022202514
-0.23398809 -0.14629082 -0.046396546 0.6223076 0.77709609 0.094100311 0.0021717281
-0.093698658 -0.14136018 -0.047561578 0.31241995 0.94994408 -2.3983268e-06 2.0196082e-06
-0.083759837 -0.14462887 -0.049260795 0.31241736 0.94994491 3.2029568e-06 0
-0.068916075 -0.14951067 -0.048208211 0.2847763 0.95859194 -0.0019815348 0.00055839226
0.073929071 -0.14772488 -0.044964716 -0.20857349 0.97800654 0.00052120409 3.2762993e-05
0.085566536 -0.14529474 -0.044754811 -0.25109932 0.96789891 0.010991749 0.0015152475
0.22884481 -0.14753407 -0.048869483 -0.66256356 0.74223465 0.10048535 0.000471359
0.23479843 -0.14246206 -0.045408327 -0.66714996 0.73884195 0.09499155 0.0003876769
-0.24471453 -0.13643025 -0.042015877 0.7050885 0.70563495 0.070210055 0.0012111386
-0.12633914 -0.13062538 -0.040783048 0.42384493 0.90573144 -0.0024469642 0.0019996846
-0.10264827 -0.13841683 -0.044423923 0.3124193 0.94994426 -9.4272895e-07 0
-0.099031568 -0.1396063 -0.049073119 0.31241959 0.9499442 2.1846743e-06 0
0.10957672 -0.13641292 -0.045608833 -0.40832847 0.91274315 0.012956842 0.0011062205
0.11727872 -0.13252321 -0.049458325 -0.44507727 0.89547628 -0.005338165 7.4675489e-05
0.24520808 -0.13333088 -0.042993892 -0.66836876 0.73951781 0.079978801 0.00028254915
-0.25780103 -0.12179197 -0.042007063 0.7442742 0.66311586 0.079582468 0.00020846761
-0.14221399 -0.12035055 -0.046809886 0.53118563 0.84724611 0.0039836359 0.00040894607
-0.13179505 -0.12716979 -0.04654872 0.46028945 0.88766265 -0.013735985 0.0023350986
0.12727891 -0.12747286 -0.04519375 -0.45080367 0.89262319 -2.5267871e-06 1.3873142e-05
0.13728601 -0.12241899 -0.043306857 -0.45080003 0.89262497 -6.1711271e-06 4.5728998e-06
0.25447533 -0.12512429 -0.041917592 -0.66656303 0.74195719 0.072065495 8.5257365e-05
-0.26412311 -0.11432334 -0.046910658 0.73995823 0.66548806 0.097915433 0.00023700741
-0.15694228 -0.11071079 -0.045500264 0.54764557 0.83671039 -4.3990349e-06 3.2520618e-06
-0.1457236 -0.11805349 -0.045531336 0.54715103 0.83703387 -9.302816e-05 2.7049387e-06
0.15415442 -0.11390001 -0.045579385 -0.52150249 0.8530947 0.016266961 0.0017730149
0.26066899 -0.11919438 -0.047354907 -0.67322552 0.73296058 0.097652949 0.00050314906
-0.27383351 -0.10389164 -0.041584596 0.74350768 0.66403019 0.079120927 0.00023113069
-0.17125861 -0.10134066 -0.048382416 0.55488771 0.83192265 -0.0020774244 0.00015692793
-0.1650486 -0.10540515 -0.044558741 0.54764509 0.83671075 -2.7875433e-06 3.6178853e-06
0.16555236 -0.10776682 -0.04510133 -0.58231485 0.81255811 0.025666635 0.0016395164
0.27778006 -0.10349215 -0.042700682 -0.7602008 0.6449005 0.078727432 0.002298543
-0.28359365 -0.09266451 -0.045406803 0.7435559 0.66365618 0.081762984 0.00027604736
-0.27847517 -0.098522939 -0.043765739 0.73906207 0.66869843 0.081422888 0.00024134923
-0.18312562 -0.09357363 -0.045842633 0.59107614 0.80658901 0.0065722787 0.0015622914
-0.17837386 -0.096683703 -0.04618527 0.55963767 0.82873195 -0.0030202246 0.00023748774
0.17837107 -0.096307576 -0.045303382 -0.63677555 0.77103901 0.0039748289 0.00082901778
0.18298784 -0.092180431 -0.047445413 -0.66645575 0.74554455 -2.1796241e-06 2.3832658e-06
0.28137398 -0.097836882 -0.044369351 -0.797759 0.59845555 0.07369858 0.001655702
-0.29161373 -0.084091999 -0.040472649 0.76076376 0.64513421 0.070995256 0.00073129503
-0.19391093 -0.084929228 -0.047204249 0.67578709 0.73680586 0.020709688 0.0019390853
0.18605016 -0.089442864 -0.046938598 -0.66646862 0.74553305 8.0326445e-06 6.8614156e-07
0.19092961 -0.085080922 -0.042520188 -0.66651547 0.74549127 -3.4951095e-06 0
0.28741449 -0.08888144 -0.04158834 -0.82607436 0.55911326 0.070664369 0.00032003323
-0.29719147 -0.077296354 -0.047350366 0.79266024 0.60302907 0.089697838 0.0020829607
-0.20091332 -0.077096142 -0.040056534 0.73164713 0.68167353 0.0036968549 0.00040950163
0.19762103 -0.079099119 -0.049829025 -0.66649729 0.74550754 -2.6491928e-06 0
0.20664969 -0.071027987 -0.046914279 -0.67425299 0.73849142 -0.0036537405 8.017951e-05
0.29591751 -0.075824559 -0.042252868 -0.83434552 0.54760188 0.063243955 6.3785214e-05
-0.30384016 -0.067808196 -0.045750812 0.84400249 0.53018004 0.08104901 0.0024410428
-0.20792466 -0.069253013 -0.049691401 0.74494791 0.66712266 6.8856389e-05 8.4685953e-06
0.21419047 -0.064286932 -0.04592067 -0.72136807 0.69254893 0.0020087324 0.0012677625
0.29966348 -0.06992501 -0.04404309 -0.83401042 0.54711813 0.07133314 0.00018232771
0.30419797 -0.063018203 -0.043827012 -0.83425707 0.54707104 0.068763822 0.00018393739
-0.31090897 -0.05413973 -0.043004639 0.88357091 0.45961717 0.089747459 0.00036885715
-0.2167905 -0.059335403 -0.044900253 0.74553114 0.66647071 1.6208318e-06 0
0.22284457 -0.055655286 -0.041189831 -0.77403969 0.63303113 -0.011581976 0.0022235936
0.30765468 -0.058107756 -0.040057354 -0.8353346 0.5456481 0.066965133 0.00017973113
0.31145862 -0.051942665 -0.0436459 -0.8325516 0.54796416 0.081198186 0.00036952956
-0.31721872 -0.041188087 -0.04683309 0.88559741 0.45402288 0.097880155 0.00042933438
-0.22550574 -0.049586244 -0.046326011 0.75099564 0.66030711 -0.00018779677 6.4663262e-05
0.22917518 -0.045982935 -0.042166866 -0.80826169 0.58881539 0.0030938291 0.0011281905
0.2302158 -0.044393007 -0.043806255 -0.82298136 0.56806421 0.0021714591 0.0006159044
0.31523776 -0.045920249 -0.046169408 -0.83451837 0.54404408 0.087149769 0.00034330122
-0.3207556 -0.03402029 -0.048208572 0.88630891 0.45271343 0.097503945 0.00052771176
-0.24046555 -0.032851666 -0.048718601 0.81686062 0.57683361 0.0012477768 0.0020778128
-0.23784967 -0.035777885 -0.043080483 0.80235922 0.59674686 0.010616638 0.0020856697
0.23740265 -0.03341243 -0.045198128 -0.83657086 0.54785866 0.0001258171 0
0.32049793 -0.037899256 -0.046008136 -0.84645408 0.52480608 0.089966536 0.0011858291
-0.32329971 -0.029301487 -0.045542065 0.88783544 0.45063066 0.093167096 0.00051163213
-0.24480635 -0.024988361 -0.045471288 0.85875142 0.51230353 -0.0095455507 0.0020514308
0.32657552 -0.028225703 -0.049948502 -0.88232774 0.46328565 0.082849614 0.0022848826
-0.32839 -0.01962484 -0.042174865 0.89153135 0.44662553 0.075481348 0.00028491218
-0.25099462 -0.01273501 -0.045376629 0.8892327 0.45745164 -0.0018048114 0.00013538159
0.24868312 -0.016177347 -0.041916292 -0.8367148 0.54763877 2.1044241e-06 0
0.25259581 -0.010199283 -0.045620061 -0.84612608 0.53298235 0.00063524407 0.00054951129
-0.33566925 -0.0049871858 -0.044049427 0.8934164 0.44038028 0.088726029 0.00033405673
-0.25398761 -0.0068086423 -0.041751362 0.89262497 0.45080006 7.4299755e-06 0
0.25676841 -0.0038240817 -0.04548971 -0.865246 0.50111747 0.015186839 0.0013528622
-0.3402181 0.0037660315 -0.041924931 0.91751784 0.39133331 0.070846096 0.0013998772
-0.33871543 0.00093699712 -0.043149453 0.91180533 0.40188071 0.084278695 0.0012330649
-0.25943083 0.0039694486 -0.042761572 0.89262146 0.45080712 8.0838305e-07 5.8231267e-06
0.26180321 0.0038684211 -0.045386404 -0.88357824 0.46828064 -0.0016662346 0.0020430542
0.3382014 0.0035638027 -0.045469057 -0.94988012 0.29801446 0.094419755 0.00020091726
-0.34512004 0.01724671 -0.048853241 0.95363832 0.28993437 0.080697313 0.0019867595
-0.26595637 0.016890641 -0.046460215 0.89860553 0.43875676 -0.00083785603 0.00022364635
0.2661173 0.014886822 -0.044133395 -0.92763311 0.37348524 0.0023647596 0.0018037795
-0.3478854 0.029247113 -0.044140439 0.96783209 0.24016295 0.074985512 0.00099704438
-0.27083218 0.026545152 -0.047962829 0.91180956 0.41057983 -0.0052375831 0.0010806224
-0.2678304 0.020601381 -0.048161887 0.89892524 0.43809536 -0.0024127071 0.00024249802
-0.34916192 0.035123631 -0.043243941 0.97460032 0.20982341 0.078283601 0.00031205147
0.27306399 0.036009125 -0.046694722 -0.94994467 0.31241819 -1.4086763e-05 7.2327009e-07
0.34973365 0.038052224 -0.042125653 -0.94573885 0.31370309 0.084667027 0.00021941823
-0.35095903 0.043625932 -0.042850107 0.97554183 0.20493889 0.079486728 0.00029836645
-0.27703023 0.042582877 -0.049278118 0.95415491 0.29895434 -0.014655326 0.0021827957
0.27578944 0.044296179 -0.044956904 -0.94994235 0.31242508 -6.1558153e-06 1.0576706e-05
0.3519491 0.045447808 -0.045946371 -0.94763523 0.30400568 0.097816072 0.00032043437
-0.27873942 0.050767869 -0.044453666 0.97201848 0.23482929 0.0059408159 0.00060358603
0.27886361 0.053643696 -0.047357835 -0.94993103 0.31245971 -1.3291302e-05 4.7004982e-05
0.35418952 0.051724453 -0.04284199 -0.95369536 0.28727713 0.089089982 0.00067490409
-0.35508564 0.063656613 -0.043870948 0.9757027 0.20447034 0.078715928 0.00030800025
-0.28102422 0.061709344 -0.042991377 0.97888339 0.20441969 7.7573677e-06 0
0.28400141 0.069265805 -0.047972478 -0.96774727 0.25147417 -0.015032532 0.0016635073
0.35841107 0.066752851 -0.044018775 -0.98101342 0.17097457 0.091544986 0.0019488545
-0.28415444 0.076699398 -0.045803409 0.97888696 0.20440239 3.7282923e-06 0
0.28521833 0.07296595 -0.047367036 -0.97095448 0.23892325 -0.012766752 0.0014860112
-0.35874596 0.081670269 -0.045710877 0.97562659 0.20024365 0.089750811 0.00043542709
-0.28615525 0.086280897 -0.043899029 0.97993869 0.19929649 -0.0010552516 3.9325376e-05
0.35961756 0.088039771 -0.046591826 -0.99261129 0.072157279 0.097551055 0.00049567001
-0.36042798 0.090290569 -0.047856014 0.97710997 0.18642963 0.10246986 0.00064940465
-0.28899986 0.099903099 -0.040470682 0.98986262 0.14201693 0.0018024262 0.0016331128
0.28792685 0.094735838 -0.044954784 -0.99616492 0.0872894 0.0060065859 0.0006376509
0.36040741 0.09762302 -0.041900784 -0.99544728 0.054101977 0.07847096 0.00030482697
-0.36355475 0.10463476 -0.0454688 0.99426222 0.072803177 0.078373134 0.0019149674
0.28852159 0.10535727 -0.042855881 -0.99843645 0.055898856 -2.9489556e-06 0
-0.2911272 0.11347445 -0.044809036 0.99877316 0.049413837 -0.0032456205 0.0028178294
0.28914183 0.11643404 -0.044324331 -0.99843788 0.055872846 9.0747362e-06 0
0.36126328 0.11730708 -0.046465065 -0.99479222 0.055961099 0.085186914 0.00022754914
-0.36244431 0.1264025 -0.047049142 0.99465328 -0.05002832 0.090343811 0.00035253473
-0.29062581 0.12242909 -0.043433316 0.9999584 0.0025762548 0.0087462328 0.0013224256
0.28959557 0.12453707 -0.045227889 -0.99843585 0.055909604 -1.5657769e-06 4.7015574e-06
0.3619855 0.1285619 -0.044760641 -0.99416482 0.056198001 0.092077158 0.00045327726
-0.36239618 0.13335049 -0.040732473 0.99581903 -0.054196652 0.073533334 0.00019471436
-0.28973603 0.13831857 -0.040508442 0.99843419 -0.055939566 1.5415755e-05 0
0.29021487 0.13559641 -0.045480084 -0.99946839 0.032525573 0.0022692683 0.00034744063
0.36229464 0.13390331 -0.044574618 -0.99392039 0.060629312 0.091903634 0.00046983809
-0.36156008 0.14500153 -0.044135742 0.99437219 -0.059687153 0.087529726 0.00041573762
-0.28960878 0.14059216 -0.049501903 0.99843681 -0.055890922 -7.3213946e-06 6.062503e-06
0.29090846 0.14798334 -0.048352078 -0.99977237 -0.021165136 -0.0026984713 0.0019388432
0.36296034 0.14549826 -0.044270366 -0.99671805 0.0063109468 0.080704987 0.0012673895
-0.36085969 0.15427051 -0.047495417 0.99432427 -0.057308011 0.089638643 0.00042240616
0.29081917 0.15674843 -0.049593806 -0.994201 -0.10730246 -0.0071087144 0.0021150729
0.28972545 0.16198598 -0.047040045 -0.99151856 -0.12950706 -0.010903083 0.0023094504
0.36267936 0.16510913 -0.04475598 -0.9869476 -0.13530797 0.087327637 0.0012480112
-0.35966891 0.17518854 -0.047855966 0.99414206 -0.053673889 0.093812108 0.00038989566
-0.28772473 0.17423773 -0.043476846 0.99494529 -0.10032289 0.0043726023 0.0013266363
0.28692988 0.17537338 -0.044787928 -0.98061782 -0.19593021 0.00010458134 0.00028369291
0.36066955 0.17440906 -0.045987815 -0.98432237 -0.15314737 0.087495454 0.0010621077
-0.28698027 0.18704064 -0.042848378 0.98200607 -0.18879041 -0.0047196676 0.0018642412
0.28441197 0.18743117 -0.042489782 -0.97888005 -0.20443574 5.4956041e-07 0
-0.28353706 0.19751018 -0.04724348 0.96350473 -0.26742691 -0.011898128 0.001007032
0.28183535 0.19977021 -0.047012046 -0.97890317 -0.20432448 -3.640456e-06 5.9266647e-05
0.35657537 0.1949497 -0.042443853 -0.97585171 -0.20370761 0.078845724 0.00032624183
-0.35674965 0.20626791 -0.040448677 0.97439539 -0.21787488 0.055534862 0.0014745712
0.28117904 0.20291305 -0.04488124 -0.97888851 -0.20439473 -1.6578617e-05 3.6740683e-05
0.35382569 0.20835081 -0.041558124 -0.97555894 -0.20523861 0.078497387 0.00025434932
-0.35346067 0.21472423 -0.04940097 0.95098108 -0.29568371 0.090587713 0.00050784857
-0.27761242 0.21552478 -0.041312221 0.9499501 -0.31240162 -5.3577278e-06 1.2832837e-05
0.2780174 0.2180537 -0.046194974 -0.96557975 -0.25997698 -0.0082234396 0.0011451135
0.35193947 0.21688625 -0.043444198 -0.97553092 -0.20412005 0.081697218 0.00025395362
-0.27462414 0.22461103 -0.043894529 0.94990546 -0.31253752 -5.2065539e-06 0
0.27759969 0.22005391 -0.048596293 -0.95775747 -0.28702149 -0.017869391 0.0014378951
-0.27187932 0.23295692 -0.045847494 0.94980586 -0.31284016 -1.2371683e-05 2.265989e-05
0.27130488 0.23788273 -0.047747947 -0.93159205 -0.36284441 -0.021911059 0.00096752995
0.34775591 0.23728028 -0.042079873 -0.96852148 -0.23617312 0.078666218 0.00081826135
-0.34467074 0.24160975 -0.048480757 0.94620317 -0.30823547 0.098439813 0.00036861884
-0.26750028 0.24627197 -0.045809448 0.93199146 -0.36247897 0.00090919173 0.0010501381
0.26949587 0.2414647 -0.048533477 -0.92026526 -0.39113817 -0.011074255 0.00098656211
0.34577107 0.24653669 -0.04302289 -0.95345974 -0.2908147 0.079632744 0.0013133225
-0.34060347 0.25438508 -0.046114847 0.94716781 -0.30602044 0.096044339 0.00033531274
-0.26308843 0.25953177 -0.048063472 0.91168875 -0.41086698 0.0034692488 0.0022607381
0.34423196 0.25273871 -0.047454268 -0.93843931 -0.33548009 0.08236973 0.0016871978
-0.33496279 0.27098781 -0.049294002 0.93724519 -0.33325803 0.10252095 0.00064477656
-0.2549834 0.27191526 -0.048676942 0.85361677 -0.52088994 0.0034659072 0.0011074579
-0.24984923 0.27975965 -0.043312389 0.83669603 -0.54766762 -1.063224e-05 2.4568844e-06
0.25242168 0.27527311 -0.043345876 -0.89089382 -0.45421162 -0.00010461552 4.0950334e-05
0.33365825 0.27445066 -0.043065414 -0.89314288 -0.4425019 0.080547132 0.00031038019
-0.24543864 0.2864984 -0.046138268 0.83669424 -0.54767025 -4.2345132e-06 0
0.32869434 0.2845495 -0.040807813 -0.89037353 -0.44932789 0.073071085 0.00010696184
-0.32722127 0.29307026 -0.044425029 0.88704658 -0.45116958 0.097950973 0.0015886339
-0.24075131 0.29366007 -0.041003548 0.83672547 -0.5476225 -2.085425e-06 5.0428283e-05
-0.23828825 0.29742327 -0.040790357 0.83674246 -0.54759651 2.5058736e-07 2.1711368e-05
0.32339153 0.29420307 -0.047888398 -0.88995618 -0.44408309 0.1037698 0.00040814723
-0.23308553 0.30537239 -0.04500987 0.8366617 -0.5477199 1.5572017e-05 0
0.23365782 0.3058309 -0.049492903 -0.77718377 -0.62923121 0.0073128282 0.0014894787
0.31741264 0.3063747 -0.045103908 -0.88624895 -0.45622134 0.080155544 0.00028765391
0.22735149 0.3128854 -0.045494508 -0.7470476 -0.66476965 -0.0010895513 0
0.3149302 0.31148645 -0.043461598 -0.88865155 -0.45120883 0.081908397 0.00037911418
-0.30630478 0.32490689 -0.046432018 0.83343261 -0.54576731 0.08676374 0.00051658758
0.21509263 0.32659861 -0.048633676 -0.74550945 -0.66649497 2.6487171e-06 1.3168122e-05
0.22079039 0.32022488 -0.045566067 -0.74544954 -0.66656208 1.246467e-05 0
-0.21241853 0.3312349 -0.04268983 0.69935811 -0.71476328 -0.0034115254 0.0007910282
-0.20592713 0.33703786 -0.04159943 0.67378169 -0.73892516 0.0028041389 0.00010019554
-0.29312742 0.34486026 -0.048260167 0.83504647 -0.54278791 0.089881301 0.00031910714
-0.19790398 0.34421015 -0.04513476 0.66650891 -0.74549705 2.1469584e-06 0
0.19711912 0.34670442 -0.045492128 -0.73136169 -0.68193883 0.0083339931 0.00030919732
0.20132975 0.34199429 -0.044994541 -0.73473716 -0.67833269 0.0050999848 0.00022075234
0.29673898 0.34356081 -0.042472996 -0.78070176 -0.61839271 0.089973807 0.0013750178
-0.28712392 0.35477829 -0.040685467 0.82894081 -0.55455589 0.07297197 0.00034096441
-0.18782535 0.35321993 -0.041585892 0.66647583 -0.74552667 1.1718428e-05 0
0.28833237 0.35306966 -0.041175589 -0.75304914 -0.6534996 0.076519892 0.00031412108
-0.1757143 0.36404657 -0.045999061 0.64694291 -0.76252508 -0.0045148097 0.00061254215
-0.16927238 0.36980531 -0.047941737 0.59847486 -0.80111623 -0.0063780025 0.0020341054
0.17330235 0.365367 -0.045016453 -0.5515281 -0.83415562 -0.0010506853 2.9779114e-05
0.27824527 0.36372334 -0.048966981 -0.74493474 -0.65880412 0.10511621 0.00032889342
-0.27404881 0.37262467 -0.04697977 0.73384637 -0.67312068 0.091532208 0.0017415972
-0.16545977 0.37306204 -0.045700863 0.55606002 -0.83109617 0.0087391958 0.0020649193
-0.15649708 0.37808084 -0.041612849 0.51105493 -0.85954028 0.003637718 0.0016538223
0.15509014 0.377287 -0.045916624 -0.54767931 -0.83668834 7.5747839e-06 3.5332028e-05
0.26598454 0.37761518 -0.046784259 -0.74166751 -0.66430157 0.092912398 0.00043535416
0.27085876 0.37219259 -0.046413913 -0.74016535 -0.66565567 0.095171757 0.00042898583
-0.14387387 0.38445589 -0.042648483 0.46391863 -0.88587719 0.0010282518 0.00014706622
-0.13422215 0.38933024 -0.046063311 0.45083705 -0.89260626 2.1688007e-05 0
0.1440831 0.38449112 -0.044732314 -0.53312832 -0.84602696 -0.0035604807 0.00035787409
0.2572937 0.38732803 -0.046895236 -0.74480289 -0.66056812 0.094437905 0.00041783627
-0.25416312 0.3904922 -0.045723747 0.66889536 -0.73883009 0.081909291 0.00021317659
0.11875549 0.39848346 -0.040724486 -0.38902938 -0.92048073 -0.037031341 0.0025005222
0.12278023 0.39715976 -0.046246372 -0.41621482 -0.90921599 -0.0095667867 0.0027558894
0.13414532 0.39099544 -0.048077002 -0.51340848 -0.85802281 -0.014443762 0.00072914979
0.24624716 0.39981449 -0.045295436 -0.70611495 -0.70362109 0.079492711 0.001568531
0.25270569 0.39269796 -0.043956839 -0.73786783 -0.67070299 0.075555295 0.00035041018
-0.24186057 0.40188849 -0.040211454 0.6649285 -0.74294895 0.076790974 0.00031929769
-0.23672152 0.40617952 -0.044403207 0.66206926 -0.74484837 0.082856432 0.00035226136
-0.10476896 0.40420491 -0.046642125 0.37201902 -0.92819685 0.0072389473 0.0015087363
-0.094228059 0.40868157 -0.042178042 0.28802854 -0.95757914 0.0090464735 0.0010889252
0.087997764 0.40859902 -0.046334125 -0.31240657 -0.94994849 -6.3793873e-06 1.0681813e-06
0.2451781 0.40132442 -0.041411061 -0.70192063 -0.70805389 0.077247262 0.0014825575
-0.22907545 0.41304329 -0.044007249 0.66717869 -0.74005604 0.084791981 0.00037355855
-0.080993727 0.41161352 -0.047271743 0.24145126 -0.97036928 0.0092087686 0.00081660383
-0.077062279 0.41243452 -0.045041714 0.22202808 -0.97503281 0.003823336 0.0005201326
-0.061471213 0.41569027 -0.041770499 0.20440048 -0.97888726 -8.8341167e-06 4.3333799e-05
0.055267334 0.41936338 -0.046377778 -0.2062919 -0.97848988 0.0011002799 0.0018124793
0.064928204 0.41618618 -0.0441304 -0.25364262 -0.96722168 0.012151398 0.0014568755
0.072808996 0.41359431 -0.04297515 -0.30121523 -0.953556 0.00058815279 0.00028488625
0.22341837 0.41888186 -0.041595906 -0.58086091 -0.81002069 0.080417469 0.00075344107
