# .PCD v0.7 - Point Cloud Data file format
VERSION 0.7
FIELDS x y z normal_x normal_y normal_z curvature
SIZE 4 4 4 4 4 4 4
TYPE F F F F F F F
COUNT 1 1 1 1 1 1 1
WIDTH 585
HEIGHT 1
VIEWPOINT 0 0 0 1 0 0 0
POINTS 585
DATA ascii
0.19399022 0.046041131 0.25571409 -0.99114597 0.086694106 0.10056712 0.071156427
0.36637563 0.04889036 0.25992131 -0.18480672 -0.49498287 -0.84902203 0.013657461
0.37655163 0.048133623 0.25789315 -0.22234035 -0.49102965 -0.8422913 0.015290216
0.38560969 0.046369653 0.25578225 -0.31442988 -0.44850174 -0.83664811 0.014207129
0.39410153 0.048013143 0.25176907 -0.33098957 -0.48536277 -0.80923969 0.0081400061
-0.45164755 0.058110964 0.25877699 0.98692405 -0.16118573 3.1267344e-05 0
0.19407493 0.054338709 0.2539112 -0.98598522 -0.07264182 0.15018746 0.084968098
0.20683821 0.054541145 0.25991085 -0.43997568 -0.72798222 -0.52579778 0.23793645
0.21130159 0.056194685 0.25779203 -0.026857775 -0.69279915 -0.72063035 0.21541429
0.23642623 0.057167366 0.25651786 0.017556649 -0.83162463 -0.55506057 0.018714003
0.2480945 0.057553321 0.25601226 0.046380799 -0.7746864 -0.63064229 0.017953197
0.25642315 0.055549402 0.25863734 0.030337468 -0.72526354 -0.68780267 0.023537595
0.26385361 0.057687931 0.25583592 0.015655885 -0.78097296 -0.62436855 0.029104039
0.27813929 0.05962947 0.25329256 0.013911407 -0.77987587 -0.62577957 0.020486398
0.28677601 0.056325629 0.25762051 0.014006911 -0.73474813 -0.67819542 0.015331239
0.342307 0.058624409 0.25384316 -0.032105889 -0.81959516 -0.5720427 0.017222572
0.35234484 0.059295446 0.25196746 -0.067292444 -0.86726516 -0.49327767 0.011929105
0.36541975 0.055812795 0.25401813 -0.13847595 -0.702788 -0.69779176 0.018846549
0.37633198 0.052890964 0.25394669 -0.21582435 -0.65700042 -0.72233665 0.021867013
0.38238186 0.054490939 0.25073692 -0.21407071 -0.69661885 -0.68475968 0.025038591
-0.49130455 0.064131081 0.2564469 0.98692435 -0.16118418 1.2362292e-05 0
0.15459341 0.064154662 0.25378436 -0.98485428 -0.17311227 0.0097075393 0.0011802923
0.19507617 0.062420949 0.25746557 -0.98808885 -0.13115701 -0.080487408 0.079765908
0.20405218 0.060162924 0.25259376 -0.93508232 -0.26167211 -0.23905803 0.19276033
0.26602256 0.060781188 0.25176564 0.029907085 -0.85105658 -0.52422166 0.022808541
0.27716586 0.060552821 0.25204811 -0.018217046 -0.85196114 -0.52328795 0.028141895
0.28131709 0.0605257 0.25211853 -0.013698647 -0.82788706 -0.5607276 0.025446657
0.32673097 0.060948275 0.2513454 -0.028590208 -0.8779878 -0.47782841 0.015669942
-0.48990288 0.072714105 0.25874457 0.98692125 -0.16120307 9.2332222e-05 5.0806002e-06
-0.44835255 0.078284085 0.25891405 0.9808507 -0.19474988 -0.0020963191 0.00076608156
0.15168546 0.076968975 0.25073105 -0.95350766 -0.30091482 -0.016536176 0.0015515013
0.19381326 0.07501708 0.25574493 -0.94877464 -0.31422228 -0.033029735 0.03377758
-0.48741558 0.087945566 0.25567377 0.97713947 -0.21246892 0.0074429675 0.0013972808
-0.44679064 0.087846726 0.25905639 0.95481616 -0.29715657 -0.0048980433 0.0020078202
0.14946948 0.082825609 0.25310791 -0.94285959 -0.33314919 -0.0052265879 0.00039485944
0.15026645 0.08071927 0.25399294 -0.94337392 -0.3316977 -0.0047182534 0.00042341242
0.18983078 0.089490548 0.2529633 -0.95613688 -0.29291683 0.0014508537 0.0020261342
0.14313546 0.099565953 0.25019488 -0.93529052 -0.35388094 -4.154439e-06 7.2022215e-07
-0.48398414 0.103915 0.25741187 0.95545363 -0.29497239 -0.0099831158 0.0023502992
0.14174892 0.10323042 0.25533152 -0.93529099 -0.35387966 -2.3023718e-05 0
0.1846894 0.10307914 0.25894845 -0.93853998 -0.34517005 -0.00050373614 0.00015748365
-0.47884482 0.11554226 0.25571322 0.92427671 -0.38162306 -0.0087361159 0.00090008212
-0.43462974 0.11601949 0.2581746 0.91157639 -0.4111307 -0.00010827627 0
0.13722506 0.11518664 0.25819996 -0.93528724 -0.35388955 -2.3261378e-05 0
0.18022801 0.11487047 0.25762218 -0.93528885 -0.35388535 3.2054297e-05 1.6159909e-05
-0.4761079 0.1216112 0.25204778 0.91172343 -0.41080445 -0.00018117818 0.0002260301
-0.428514 0.12958123 0.25152731 0.91160315 -0.41107133 1.7842818e-05 6.6574488e-05
0.13355279 0.12489216 0.25288364 -0.93263716 -0.36080331 -0.0029712138 0.0001328666
0.17643178 0.12490381 0.2520985 -0.93529361 -0.3538726 4.2859447e-05 2.5046431e-06
-0.42788601 0.13097377 0.25181085 0.91160905 -0.41105822 5.3803091e-05 0
0.12950909 0.13557929 0.25681689 -0.91863626 -0.39505318 -0.0063497359 0.00090117526
0.17358252 0.13243434 0.25541306 -0.93528622 -0.35389227 7.9096199e-06 0
-0.46698254 0.14184618 0.25710297 0.91160387 -0.41106987 -4.2882784e-05 0
-0.42255372 0.14279823 0.25801525 0.90785432 -0.41928229 0.0017202265 4.6879127e-06
0.12702031 0.14215691 0.2576502 -0.90092659 -0.43397143 -0.00035479467 0.0019092942
0.16899726 0.14455304 0.25358513 -0.93528283 -0.35390109 -3.9005649e-06 0
-0.46184579 0.15323666 0.25280142 0.91156852 -0.41114834 -0.0001019735 0
0.12073654 0.15321185 0.25428864 -0.85211927 -0.52333319 0.003887526 0.0017636503
0.16482259 0.1555866 0.25681621 -0.92612982 -0.37720039 0.0018522633 0.00057618215
-0.45456246 0.16938703 0.25782907 0.9007172 -0.43440163 0.0019462142 0.00061519141
0.10925463 0.16917565 0.25906295 -0.8118242 -0.58390194 4.3457669e-05 1.2406313e-05
0.16158096 0.1641541 0.25216824 -0.89393401 -0.44816518 -0.0054823677 0.0022007888
-0.45206648 0.17492168 0.25313932 0.88323897 -0.46891108 0.003340729 0.0018984099
-0.44992614 0.17966768 0.25300074 0.86874723 -0.49500516 0.015753169 0.0021840017
0.10376151 0.17681298 0.25296563 -0.81182021 -0.58390749 -1.5983254e-05 0
0.15529141 0.17385985 0.25562191 -0.85191703 -0.52358264 -0.0099261394 0.0014868591
-0.44647267 0.18629727 0.25601733 0.83484417 -0.55010641 0.020449992 0.0021820813
-0.39473024 0.18621033 0.2581206 0.77467215 -0.63236308 -0.00027349746 2.0647951e-06
0.096651345 0.18669853 0.25562102 -0.81181514 -0.58391446 3.3775199e-05 0
0.14472672 0.18854889 0.25735298 -0.81184363 -0.583875 2.0897032e-05 1.2774754e-05
-0.44113952 0.19281873 0.25237304 0.81108022 -0.58486348 0.0091405287 0.0013137328
-0.43799627 0.19666232 0.25581685 0.80019301 -0.59971571 0.0056750858 0.0010122096
-0.38579908 0.19713168 0.25927192 0.77409571 -0.63306856 -6.4207365e-05 0
0.088653684 0.19781801 0.25033975 -0.80380774 -0.5948891 0.00022912673 0.00010985443
0.093685806 0.19082165 0.25403848 -0.81181782 -0.58391076 3.6226604e-05 0
0.14352447 0.1902205 0.25173926 -0.81183916 -0.58388114 -3.6755406e-05 0
-0.43408757 0.20144197 0.25029075 0.78355998 -0.62131393 0.0016429239 0.0001698378
-0.42953554 0.2070083 0.25672355 0.77404141 -0.63313502 4.6592773e-05 5.4204214e-05
0.080331095 0.20938927 0.25709119 -0.75741178 -0.65292007 0.0047879666 0.0022529382
0.13482361 0.20231812 0.25397596 -0.81180882 -0.58392334 -6.3838088e-05 0
-0.42355147 0.21432571 0.2563808 0.77419144 -0.6329515 -9.3913783e-05 4.3126744e-05
-0.37266445 0.21319315 0.25260872 0.75861388 -0.65153575 0.0024733371 0.00048939645
-0.36950141 0.21706104 0.25833791 0.72913623 -0.68431872 -0.0082575297 0.001583796
0.069208741 0.21994862 0.25679883 -0.6560241 -0.75449669 0.019161439 0.00071498158
0.075257987 0.21500161 0.25316212 -0.72117382 -0.6926915 -0.0093191294 0.0026339288
0.12687744 0.21336639 0.25636002 -0.81184626 -0.5838713 1.7888166e-05 2.4112669e-05
-0.41539901 0.22429463 0.25644171 0.77412874 -0.63302815 -7.4414682e-05 9.5447267e-06
-0.36332148 0.22461814 0.25449342 0.6948728 -0.71912384 0.0035632199 0.0020482359
-0.3592025 0.22838184 0.25072089 0.66449124 -0.7472958 -0.00064975733 0.0013331325
0.059730195 0.22770002 0.25582173 -0.63782245 -0.77018327 -0.00047218462 6.8008987e-05
0.06561444 0.22288798 0.25525466 -0.6474216 -0.76209754 0.0072546857 0.00036128468
0.11565638 0.22896808 0.25421435 -0.79142696 -0.61125952 -0.0022884135 0.00079851784
0.12204476 0.22008574 0.25341439 -0.80714995 -0.59034479 0.0014105596 0.00010222998
-0.40764141 0.23378086 0.25549355 0.77408051 -0.6330871 -5.9630849e-05 0
-0.35402003 0.23210928 0.25129694 0.648287 -0.76134998 0.0083769169 0.0015206228
-0.34799448 0.23644309 0.25605673 0.60460222 -0.79652333 0.0025899627 0.00073437445
0.047100931 0.23802806 0.25621715 -0.633057 -0.77410519 -2.0895121e-05 0
0.051473729 0.23445204 0.25154424 -0.63305247 -0.77410883 -1.9515461e-05 0
0.11271169 0.23306237 0.25768933 -0.76581037 -0.64306408 -0.0017613726 0.0022174413
-0.40178633 0.24094048 0.25554055 0.75594294 -0.6546222 -0.0044868756 0.00066611957
-0.3348631 0.2458877 0.25612354 0.5838728 -0.81184512 7.9837941e-05 6.1299754e-05
-0.3296417 0.24964313 0.25688106 0.58405852 -0.81171161 3.8629674e-05 0
0.038884871 0.24474704 0.2578702 -0.63308746 -0.77408022 4.0182807e-05 3.2429292e-05
0.040929355 0.24307509 0.25074261 -0.63305193 -0.77410924 1.7754102e-06 0
0.097129099 0.24892962 0.25587499 -0.67729485 -0.7356078 -0.012366118 0.0010719388
0.10403259 0.24328434 0.25717402 -0.7191413 -0.69486368 -0.0003905292 0.0023757787
-0.38460439 0.2595177 0.2595726 0.65422672 -0.75629836 -0.00037339726 0.0018932793
-0.32586971 0.25235611 0.25658077 0.58396143 -0.81178135 1.464551e-05 0
0.024931628 0.25615782 0.25856271 -0.61471903 -0.78874612 5.1159641e-05 0.00037209774
0.030709986 0.25143236 0.25720945 -0.62117714 -0.7836538 -0.0050641345 0.00032556895
0.087328821 0.25694376 0.2530877 -0.6330564 -0.77410567 1.5878577e-05 2.5029496e-05
0.094542071 0.25104517 0.25187701 -0.65417457 -0.75629145 -0.0088781351 0.0004671941
-0.38142535 0.26180422 0.25648701 0.65561032 -0.75490063 -0.017325433 0.001741058
-0.37254947 0.26818824 0.25566661 0.58933699 -0.80788428 -0.0022314759 0.00013922683
-0.31214809 0.26222527 0.25234389 0.57832652 -0.81578183 0.0061920229 0.00012751922
0.017536063 0.26220581 0.25358671 -0.54559773 -0.83776063 -0.021913655 0.0029475321
-0.36307985 0.27499938 0.25285894 0.58402705 -0.81173426 6.406421e-05 0
-0.35683203 0.27949315 0.2506102 0.58396196 -0.81178099 1.6155615e-05 0
-0.30132186 0.27001193 0.25470608 0.48844859 -0.87258166 -0.004389598 0.0021390954
-0.29494429 0.27413601 0.25256985 0.476473 -0.87917316 0.0053082057 0.0020970698
-0.28318208 0.27874497 0.25248006 0.38414705 -0.92323315 -0.0084622893 0.00086063967
-0.018555172 0.27943328 0.25458187 -0.41112173 -0.9115805 2.4710055e-06 9.1380352e-06
-0.0080290902 0.27468625 0.25415224 -0.41741827 -0.90871441 0.00028405557 6.7036679e-05
0.065555118 0.27474907 0.25587329 -0.63303638 -0.774122 6.7609981e-06 0
0.070832796 0.27043328 0.25423548 -0.63304037 -0.77411878 6.3465115e-05 1.399493e-05
-0.34689042 0.28664374 0.25799644 0.58386827 -0.8118484 2.984156e-05 4.9528203e-06
-0.27442765 0.28205737 0.25444904 0.36193031 -0.9322046 -0.001043583 0.0002328939
-0.26497075 0.28563562 0.25461259 0.35393205 -0.93527108 1.1414604e-05 0
-0.25642395 0.28886944 0.25887048 0.35378352 -0.93532735 1.2127226e-05 3.7187885e-05
-0.041737393 0.28988799 0.25106981 -0.39635098 -0.91809869 -0.00081604777 0.00039568677
-0.034775753 0.28674844 0.2538304 -0.41112873 -0.91157734 2.2421884e-05 2.2165601e-05
-0.022200327 0.28107718 0.25435373 -0.41114986 -0.91156781 -2.6092623e-05 4.8495698e-05
-0.33682352 0.2938844 0.25597125 0.58279574 -0.81261843 0.00069488905 0
-0.25214189 0.29048961 0.25259084 0.35396647 -0.93525809 -0.00012328908 0
-0.24720064 0.29235926 0.25782847 0.35387331 -0.93529332 -2.0101936e-05 0
-0.064972885 0.29866317 0.25778767 -0.26468512 -0.96433198 -0.0023851853 0.0017281517
-0.055871122 0.296262 0.25519633 -0.28685424 -0.95797402 0.00066169468 0.0019448532
-0.048963867 0.29314697 0.25040042 -0.34066591 -0.94013286 -0.0098474827 0.0022742499
0.037855234 0.29736421 0.2545664 -0.54330665 -0.83953053 0.0025082447 0.0021116456
-0.32797214 0.30025083 0.25512716 0.57087278 -0.82102782 -0.0041923998 0.00032274632
-0.31443694 0.30980438 0.25533313 0.47041023 -0.8824479 -5.0490176e-05 0.0033093491
-0.22212514 0.3018471 0.25522974 0.25084102 -0.96796745 0.010851201 0.0026502919
-0.20487353 0.30418941 0.25114951 0.14244585 -0.98977149 -0.0078409771 0.0010061375
-0.19481644 0.3051976 0.25847864 0.10418078 -0.99455833 -0.00034725273 6.6336142e-05
-0.17674027 0.30700973 0.25282013 0.099738069 -0.99501377 -3.0044592e-05 4.1887313e-05
-0.15754864 0.30893362 0.25214577 0.080308087 -0.99676925 -0.0013000016 0.00015489639
-0.13436727 0.30999526 0.25741756 -0.072624743 -0.99716425 0.019726615 0.0020378423
-0.11374513 0.30662766 0.25395676 -0.16114797 -0.98693025 -2.7110227e-05 0
-0.10595234 0.3053551 0.2542164 -0.16120228 -0.98692137 -0.0001182173 0
-0.098025098 0.30406058 0.25509831 -0.16115551 -0.98692906 2.4187613e-05 0
-0.081330985 0.30133444 0.25270158 -0.17117922 -0.98523962 0.00072511192 0.00016231915
-0.074707985 0.30025288 0.25655088 -0.18805762 -0.98215777 -0.00068670441 0.00070742244
0.015592046 0.30803198 0.25331682 -0.41686702 -0.90896696 -0.00094920717 6.7165129e-05
0.022431377 0.30494741 0.25467682 -0.44229081 -0.89687157 0.00052628928 0.00064971566
-0.29609066 0.31674576 0.25095746 0.35622549 -0.9343999 -0.00045323576 0
-0.28773111 0.31990862 0.25166655 0.35393092 -0.93527156 -4.570403e-05 0
-0.14636242 0.31005502 0.25058249 0.039624471 -0.99919844 0.0056997067 0.00086193398
-0.010005688 0.31957647 0.25329503 -0.41113129 -0.91157615 -4.4086326e-05 9.3942917e-06
-0.0036133265 0.31669351 0.2567088 -0.41114509 -0.91156995 -1.0310619e-05 3.090614e-05
0.0081790658 0.31137517 0.25929672 -0.41112369 -0.91157955 -6.1151484e-05 0
-0.28227234 0.32197398 0.25419936 0.3537949 -0.935323 -0.00015146937 0
-0.27553618 0.32452264 0.25333542 0.35395506 -0.9352625 1.8123726e-05 0
-0.26424348 0.32879531 0.25022855 0.35388461 -0.93528914 -2.8548928e-05 4.4876884e-05
-0.032733969 0.32982683 0.25014383 -0.3711223 -0.92856288 -0.0062705725 0.0009964169
-0.022981565 0.32542855 0.254639 -0.41112435 -0.91157931 -1.6021952e-05 1.2043908e-05
-0.012866469 0.32086667 0.2551375 -0.41116965 -0.91155887 3.1210424e-05 5.7403111e-05
-0.25816289 0.33109593 0.25165778 0.3538627 -0.93529731 1.2949733e-05 0
-0.24908897 0.33452907 0.25744215 0.34041783 -0.94026655 0.0038077903 0.00011286018
-0.066429719 0.33954129 0.25532636 -0.18983199 -0.98180491 -0.0047771651 0.00046394617
-0.055208147 0.33770859 0.25186056 -0.23537639 -0.97187096 -0.008052472 0.0012997158
-0.038813744 0.33256882 0.25501955 -0.33695427 -0.94136691 -0.017036231 0.00163032
-0.2179382 0.3431901 0.25484988 0.11715456 -0.9931137 1.7752782e-05 0.00033015214
-0.19344184 0.34564614 0.25326344 0.099797256 -0.99500775 -6.0236496e-05 0
-0.18530054 0.3464624 0.25143903 0.099638738 -0.99502367 -5.3017586e-05 0
-0.17285441 0.34771025 0.25275207 0.099771954 -0.99501038 1.1189157e-05 4.0937806e-07
-0.16419098 0.34857881 0.25587577 0.099782415 -0.9950093 -7.3087518e-05 0
-0.11473768 0.34743091 0.25738662 -0.16117769 -0.98692536 6.5649469e-06 0
-0.096019395 0.34437385 0.25734046 -0.1612038 -0.98692107 -3.1887714e-05 0
-0.083947435 0.34240228 0.25291985 -0.16117617 -0.98692566 1.7395767e-05 0
-0.16049612 -0.35107952 0.26964164 0.048456509 0.99876106 -0.011332302 0.0015761483
-0.22796401 -0.34006074 0.26934218 0.16665949 0.98601431 -0.0006178327 0.00012928165
-0.21723394 -0.34181318 0.26611188 0.16115209 0.98692966 9.5060213e-06 4.6118301e-05
-0.20524098 -0.34377185 0.26308987 0.16123341 0.98691624 -1.3479181e-05 0
-0.19249016 -0.34585428 0.2677021 0.16121991 0.98691845 -4.9262228e-05 1.5846462e-06
-0.18569398 -0.34696424 0.26502952 0.16120288 0.98692131 -2.5948129e-05 0
-0.13889912 -0.34913182 0.26317474 -0.086209565 0.99627656 0.00095657248 0.00022644298
-0.12460931 -0.34769914 0.26627016 -0.099744372 0.99501306 7.7732417e-05 0
-0.11064754 -0.34629932 0.26349032 -0.099782526 0.99500924 9.4642339e-05 4.710332e-05
-0.10477985 -0.34571105 0.2634393 -0.099770874 0.99501044 -1.7914608e-05 3.2873009e-05
-0.092433855 -0.34447324 0.26345506 -0.10266054 0.99471641 0.0001097398 0
-0.085372984 -0.34376529 0.26686734 -0.12528472 0.99212086 -0.00010309132 0.00051454903
-0.076681003 -0.34289384 0.2643069 -0.16789769 0.98576432 -0.0088904919 0.0012582019
-0.067129217 -0.34158304 0.26688415 -0.21846634 0.97581631 -0.0074097677 0.0019782064
-0.26210219 -0.33106178 0.26505044 0.37576717 0.92670602 -0.0038722521 0.00064459321
-0.25412273 -0.3346605 0.2671012 0.31890997 0.94778484 0.00056353898 0.0019176459
-0.24735169 -0.33689439 0.26774323 0.25865775 0.96596783 -0.0015201643 0.0021161553
-0.061749879 -0.33954757 0.2682611 -0.27970731 0.96005058 -0.0081591895 0.0016523835
-0.025429245 -0.32580432 0.26922339 -0.35389555 0.93528497 3.9002301e-05 4.8924749e-06
-0.0107066 -0.32023349 0.26976401 -0.3539359 0.93526965 7.470086e-05 2.3444321e-05
-0.30667967 -0.31095746 0.26285011 0.41111374 0.91158408 6.061677e-05 5.4808701e-05
-0.29446629 -0.31646565 0.26160994 0.41118041 0.91155404 -1.0644089e-05 0
-0.15208277 -0.31014234 0.26420727 -0.020185867 0.99973899 0.010698003 0.0020316606
-0.010037245 -0.31998017 0.26463085 -0.35389671 0.9352845 6.0496184e-08 0
-0.0090958336 -0.31962398 0.26132333 -0.35395437 0.93526274 3.2911306e-05 6.5719643e-05
0.0056651062 -0.31403863 0.26524779 -0.38833079 0.92148733 0.007767322 0.0009177131
-0.32547092 -0.3024826 0.26587927 0.4816584 0.8760156 0.024531886 0.00136271
-0.2211605 -0.30053186 0.26882449 0.17956597 0.98374432 0.0018067588 0.00038258862
-0.21713328 -0.30118951 0.26470536 0.16881406 0.9856475 0.0008984367 0.00016222338
-0.19902536 -0.30414641 0.26473135 0.16115192 0.98692966 -1.9909063e-05 0
-0.16344894 -0.30995578 0.26590279 0.047387954 0.9988181 0.010803847 0.0025398824
-0.14514935 -0.30944726 0.26580822 -0.052368548 0.99862754 -0.00079382269 0.0010051366
-0.1364461 -0.30857477 0.26525763 -0.079820476 0.99680871 0.0010475803 0.00036643536
-0.11492479 -0.30641732 0.26008159 -0.099725753 0.99501491 1.8826842e-05 0
-0.10398211 -0.30532035 0.26326221 -0.099775821 0.99500996 -6.2450628e-05 0
-0.097301781 -0.30465066 0.26430932 -0.12339102 0.99235308 0.0031552531 0.00066849118
-0.081709504 -0.30308759 0.26601774 -0.21176594 0.97725034 -0.011707111 0.0021237663
-0.079499528 -0.30286601 0.26025781 -0.21966149 0.97554147 -0.0082262428 0.002609964
0.028119015 -0.30188641 0.26300952 -0.56252551 0.82677823 0.0016581749 0.00073182379
-0.34282744 -0.29135093 0.2670989 0.59545636 0.80328685 0.012725222 0.0012839212
-0.2432154 -0.29558137 0.26297292 0.31527352 0.94899809 0.0023151771 0.0021936249
-0.23465981 -0.29832754 0.26867524 0.26578176 0.96402574 0.0038069631 0.0019372448
-0.068622276 -0.29926383 0.262986 -0.28554076 0.95836371 0.0023324378 0.0016629613
-0.35481271 -0.28155005 0.2649402 0.63253623 0.77453071 0.00028088962 1.4368846e-05
-0.34477997 -0.28975427 0.26698953 0.60832971 0.79368067 0.0024332239 0.00074055692
-0.27589485 -0.28084296 0.26130223 0.4111931 0.91154826 8.3126351e-06 0
-0.26698565 -0.28486103 0.26778841 0.41119179 0.91154879 -2.0476715e-07 0
-0.2560665 -0.28978553 0.26505679 0.39401186 0.91908503 0.0061202687 0.00020012757
-0.035654906 -0.28678948 0.26651928 -0.35390401 0.93528175 -4.9317041e-05 1.7468261e-05
-0.027493916 -0.28370151 0.26837698 -0.35389966 0.93528342 -3.1796841e-05 0
-0.018585354 -0.2803306 0.26086545 -0.383645 0.92346847 -0.0047495193 0.00072713621
0.048190199 -0.28745064 0.26680499 -0.58390337 0.81182319 3.1861964e-05 1.1050024e-06
0.057012007 -0.28110579 0.26420891 -0.58392435 0.81180805 2.062099e-05 3.3185759e-05
-0.36149749 -0.27608362 0.26376244 0.6330266 0.77413005 3.835771e-05 5.5636618e-05
-0.29662311 -0.27149454 0.2609973 0.43421349 0.90080643 -0.0025521941 0.0004056021
-0.28349638 -0.27741468 0.26718706 0.411046 0.9116146 2.0751086e-06 1.3885798e-05
-0.013071373 -0.2782442 0.26273531 -0.40409318 0.9146657 -0.0097696157 0.0014779879
-0.0038956695 -0.27477226 0.2653206 -0.43754244 0.89912963 -0.011065225 0.0020399282
0.063942648 -0.27612105 0.26533872 -0.58388847 0.81183392 2.8129032e-05 0
-0.31480193 -0.26245806 0.26751971 0.5122304 0.85883188 0.0052708052 0.0013549511
-0.30448312 -0.26794973 0.26314667 0.48113251 0.87663585 -0.0045908168 0.0015353697
0.0071898135 -0.26753414 0.26784688 -0.53153944 0.84696513 -0.010757198 0.0018623301
0.012189638 -0.26393825 0.26684833 -0.56428385 0.8255778 -0.002231196 0.0008022816
0.075509094 -0.26780218 0.26049179 -0.59362978 0.80473334 0.0028127297 0.00020740351
-0.39279872 -0.25048715 0.26056638 0.65218782 0.75801444 -0.0080682449 0.00051812804
-0.32245758 -0.25619742 0.26119286 0.59327543 0.80484623 0.015713943 0.00085157476
-0.31799778 -0.25984457 0.26254699 0.55360043 0.83277905 0.0023918699 0.0017268613
0.023847945 -0.25555348 0.26208228 -0.58388644 0.81183529 2.6522333e-05 0
-0.4035008 -0.24173564 0.26949546 0.72009754 0.69384843 -0.0058215698 0.0020547716
-0.39528316 -0.24845558 0.26795077 0.66946554 0.74270999 -0.014061972 0.00088533608
0.032180376 -0.24956077 0.26507849 -0.5838834 0.81183755 -3.4672565e-05 0
-0.40748602 -0.23695546 0.26065016 0.75960171 0.65036082 0.0060006427 0.0018672473
-0.35400316 -0.23039985 0.26665434 0.63320476 0.77398431 -8.0139063e-05 0
-0.34775126 -0.23551254 0.264979 0.63314724 0.77403134 4.0763116e-05 0
0.048668001 -0.23770274 0.26413491 -0.58755159 0.80918562 -0.0013111848 4.5067703e-05
-0.41849941 -0.22164255 0.2637718 0.80998033 0.58645689 -0.00045243045 6.7314002e-05
-0.36309206 -0.22296706 0.26639387 0.66752714 0.74456263 0.0058290819 0.0010344326
0.06216203 -0.22799778 0.26309887 -0.6676119 0.74442858 0.010966246 0.0028149062
0.11653884 -0.22586611 0.26572299 -0.77409476 0.63306981 -4.9946289e-06 0
0.12035267 -0.22120258 0.26219836 -0.77408332 0.63308376 -7.0704133e-05 0
-0.42328003 -0.21499558 0.26439443 0.81182247 0.58390427 9.8247554e-05 0.00014051687
-0.37200484 -0.21567833 0.26331481 0.71937573 0.69454789 0.010094778 0.002594698
-0.36867943 -0.2183978 0.26325011 0.68729997 0.72636533 -0.0034990408 0.002015227
0.12569244 -0.21467316 0.26522663 -0.77411205 0.63304859 -1.848234e-06 2.8361194e-06
-0.43134809 -0.20377783 0.2645832 0.81184834 0.58386827 -8.5544772e-05 0
-0.38263819 -0.20280913 0.26599702 0.77702338 0.62947047 0.0012829823 0.0015639967
0.077869743 -0.20979312 0.2610707 -0.76924229 0.63894945 -0.003146701 1.9725005e-05
0.13170689 -0.20731875 0.26219821 -0.7740798 0.63308799 -9.7663005e-06 1.0487815e-05
-0.43578926 -0.19760287 0.26311529 0.8118366 0.58388472 -1.5576648e-05 2.7509446e-05
-0.39036179 -0.19207066 0.26115429 0.80765122 0.58965898 -0.0013554459 0
0.091810554 -0.19274475 0.26830545 -0.77412844 0.63302857 5.5050014e-06 1.5477141e-06
0.14226095 -0.19441336 0.2697008 -0.78999782 0.61309689 0.0039647031 0.00058631669
-0.44764748 -0.18111528 0.26276588 0.821473 0.57024741 0.00017204008 0.00053137902
-0.39892793 -0.18016082 0.26840383 0.81179845 0.58393776 -5.8578851e-05 0
0.096846379 -0.18658638 0.26427215 -0.77452296 0.63254577 7.8139783e-05 0
0.1049647 -0.17665839 0.26074964 -0.7896297 0.61358315 0.00077690382 0.00037615822
0.15342748 -0.17728235 0.26675636 -0.88166475 0.47187546 -0.00087904988 0.0020122908
-0.45757452 -0.16698302 0.26622865 0.86672044 0.49879369 -0.00076791609 0.0022302861
-0.40717909 -0.16868886 0.26081988 0.81180853 0.58392376 2.2797765e-05 0
0.11566764 -0.16344023 0.26457325 -0.84607768 0.53305972 0.00016073554 0.0026850027
0.16047147 -0.16166238 0.2688061 -0.91082519 0.41279227 9.3669405e-05 5.2531477e-06
-0.46162617 -0.15762448 0.26395929 0.90982527 0.41454852 0.019172138 0.0017782742
-0.41705289 -0.15496089 0.2688756 0.84775519 0.53038138 -0.0025883345 0.0014303996
0.11840796 -0.15736406 0.26939216 -0.88118953 0.47274616 0.0040112156 0.0021193104
0.12146017 -0.15059642 0.26973081 -0.9023279 0.43105039 8.2342565e-05 0.00080908183
0.16535148 -0.15084109 0.26757103 -0.91159207 0.41109598 1.458867e-05 3.041685e-06
-0.46557575 -0.14718686 0.26681691 0.93360215 0.35831079 0.00070229342 6.3461302e-05
0.16653413 -0.14821857 0.26550215 -0.91159743 0.41108406 2.8670549e-05 0
-0.46954429 -0.13669907 0.26057518 0.93526173 0.35395685 -8.5440923e-05 9.345539e-05
0.12687238 -0.13859594 0.2644183 -0.91158366 0.41111472 -7.6972094e-05 0
0.13068716 -0.13013741 0.26617652 -0.91159165 0.41109687 9.6146559e-06 1.5474487e-05
0.17190287 -0.13631348 0.2649416 -0.91158688 0.41110742 1.1077619e-05 0
-0.47221267 -0.1296473 0.26343608 0.9352771 0.35391641 6.9347356e-05 1.6316355e-05
-0.43126178 -0.12453629 0.26175487 0.935278 0.35391393 -4.5902438e-05 0
0.13265809 -0.12576723 0.26614755 -0.91157538 0.41113284 -2.099198e-05 1.9385184e-06
0.17533319 -0.12870684 0.26500109 -0.91160005 0.41107842 -2.3041839e-06 1.2530755e-05
-0.4355495 -0.11320423 0.26795855 0.93529308 0.35387409 1.4895822e-05 0
0.13645491 -0.11734856 0.2615453 -0.91158479 0.41111216 2.6241138e-05 1.5069984e-05
0.18265222 -0.11247702 0.26457402 -0.93495327 0.35450354 0.01376967 0.0010644292
-0.43902946 -0.10400695 0.26641276 0.93526596 0.35394558 -0.00012877371 0
0.18693635 -0.10297704 0.26854214 -0.95574176 0.29419035 0.0031210275 0.0021159726
-0.48480639 -0.09636572 0.26548052 0.94766068 0.31899399 0.01349269 0.00098398328
-0.44293731 -0.093678795 0.26480001 0.93876612 0.34453493 0.0037128087 0.00031922257
-0.4883076 -0.087112904 0.26710981 0.95935273 0.28220251 -0.0020396782 0.001551219
0.1898925 -0.087630302 0.26629773 -0.97950757 0.20130649 0.0063692029 0.00082224864
0.19105554 -0.080508582 0.26716718 -0.9857015 0.1684919 0.0017570808 0.00012592238
-0.49166685 -0.072260201 0.26288274 0.98383451 0.17903472 -0.0040251832 0.0021401544
-0.44846231 -0.0790767 0.26875165 0.95721471 0.2893756 0.0013500319 0.0012497623
0.15148129 -0.073979542 0.26462984 -0.98094982 0.19426137 -0.00021490185 0.00087950053
-0.45196953 -0.066131271 0.26413387 0.9798606 0.19944948 0.0096424744 0.0019553436
0.15303561 -0.06446334 0.26868179 -0.9869225 0.16119519 2.6533191e-05 1.2029112e-05
-0.49329165 -0.056049105 0.26686224 0.99478406 0.1020013 -0.0005489699 1.5109606e-05
0.15407814 -0.058080576 0.26746655 -0.98692274 0.1611938 -3.4949557e-05 3.4374484e-06
0.1958552 -0.051117703 0.2662757 -0.98692602 0.16117409 1.0867905e-05 1.2856736e-05
-0.4941375 -0.047609612 0.26131573 0.99501032 0.099771872 0.00022383269 6.7906381e-05
0.15565355 -0.048435371 0.2677007 -0.98692226 0.1611972 3.5972927e-05 0
0.19762579 -0.040275484 0.26795825 -0.9869259 0.16117479 1.3209959e-05 0
-0.49526441 -0.036365867 0.26629391 0.99501276 0.099747613 3.5788307e-05 0
0.15766639 -0.036112022 0.26430088 -0.98692167 0.16120036 1.8774783e-05 0
0.19852555 -0.034765735 0.26547465 -0.98825043 0.15283953 -0.0011080126 0.00010633357
-0.49675494 -0.021494038 0.26588324 0.99501395 0.099735908 -5.519962e-05 0
-0.45572013 -0.028726261 0.26183236 0.99500853 0.099789277 -0.00019285994 0
0.15957737 -0.02441225 0.26245689 -0.99310625 0.11701187 -0.0069400542 0.00085167593
0.16018711 -0.02067917 0.26379412 -0.99310529 0.11701754 -0.0069801603 0.00086026237
-0.49707729 -0.018277839 0.26911116 0.99501354 0.099739894 -0.00012622539 0
0.20141913 -0.017046781 0.26147848 -0.99473411 0.092366628 -0.044411391 0.067736335
-0.4581041 -0.0049506063 0.26487944 0.99826378 0.05886532 -0.0020905128 0.00078980275
0.16125795 -0.0023120821 0.26357958 -0.99944299 -0.033370323 -0.0004766146 0.0013317053
0.20211339 -0.0077686696 0.26342827 -0.99617845 0.064619049 -0.058760721 0.12803033
-0.49950257 0.0059200935 0.26272488 0.99979287 0.020194849 0.0025337592 0.0024253973
0.16075683 0.0026857988 0.26820815 -0.99899894 -0.044227656 -0.0067157182 0.0012672528
0.19399022 0.0064334134 0.262903 -0.98823899 -0.11879761 0.096285842 0.056894917
0.20176455 0.003230677 0.26295811 -0.96700746 -0.25397891 0.019781495 0.15211198
0.21454746 0.0045363386 0.26324809 -0.093759231 0.61618704 -0.78199917 0.21121375
0.22609921 0.0050465963 0.2637229 -0.071984671 0.60337001 -0.79420573 0.039243784
0.23411766 0.0043531694 0.26318818 0.053456672 0.56758302 -0.82157886 0.014896287
0.24383703 0.0019550133 0.2613388 -0.045251612 0.65488553 -0.75437206 0.020288484
0.25606549 0.0011910029 0.26074964 -0.0042716581 0.65322882 -0.7571485 0.022010723
0.26290831 0.0051597599 0.26381019 -0.013116678 0.57421935 -0.81859654 0.022832688
0.27735001 0.0049580028 0.26365459 -0.0024155998 0.60259914 -0.79804039 0.015282129
0.29542929 0.0055584167 0.26411766 -0.02427021 0.5347243 -0.84467798 0.01918466
0.30550221 0.0047545815 0.26349771 0.018770946 0.5793891 -0.81483489 0.017392766
0.32577932 0.0045244703 0.26318473 -0.072301745 0.62732095 -0.77539718 0.019330565
0.33114454 0.0028120037 0.2619811 -0.074362911 0.6352787 -0.76869452 0.019912636
0.34157741 0.0045621311 0.26264358 -0.095151678 0.63502717 -0.76660722 0.016512448
0.35836887 0.0072145099 0.26266235 -0.15287524 0.53844661 -0.82867634 0.020214619
-0.45841593 0.016672347 0.26886228 0.9979316 -0.063777894 0.0080566313 0.0014084706
0.15903917 0.01981619 0.2617299 -0.9950105 -0.099769615 -4.7674781e-05 0
0.19986428 0.014664011 0.26543033 -0.98691618 -0.039733905 0.15626179 0.14042465
0.23485506 0.014675163 0.26877829 0.013853136 0.40688333 -0.91337508 0.0094375527
0.24253407 0.01564488 0.26918793 -0.017275285 0.32204479 -0.94656676 0.018504508
0.25374684 0.010081259 0.26687178 -0.055254016 0.46738443 -0.88232577 0.014302795
0.28374869 0.011578116 0.26749492 0.0044318205 0.34460342 -0.93873793 0.016334608
0.29320198 0.012531295 0.26789176 0.022043567 0.36755764 -0.92973942 0.014245076
0.31968549 0.012895175 0.26804322 -0.039304037 0.33832389 -0.94020855 0.013312321
0.32384723 0.016082002 0.26936993 -0.040644992 0.33352813 -0.94186354 0.017449332
0.33595961 0.013201767 0.26784992 -0.025935145 0.35413072 -0.93483621 0.016773472
0.35492992 0.014482182 0.26671132 -0.12156619 0.30727553 -0.94382381 0.0092835119
0.36797485 0.012998259 0.26349553 -0.24261615 0.34825087 -0.90546054 0.019753262
0.38148767 0.013852584 0.26000851 -0.29581866 0.34211946 -0.89187753 0.017013581
-0.49699324 0.029295549 0.26337105 0.98997045 -0.14127253 -0.00070774375 0.00023588866
-0.45768046 0.021175142 0.26788926 0.99443042 -0.10537393 0.0021308409 0.0014411481
0.15843645 0.025827382 0.26586801 -0.99501061 -0.099769287 6.3996254e-06 1.8957845e-06
0.19658479 0.023669612 0.26270634 -0.98280776 0.010843253 0.18431322 0.082038619
0.34538329 0.024669945 0.26988357 -0.085255913 0.050962392 -0.9950549 0.015129552
0.35797498 0.027755896 0.26861218 -0.15330131 -0.019071231 -0.98799545 0.015696414
0.36548641 0.021164678 0.26634583 -0.19867183 0.12679818 -0.97182906 0.016342115
0.37630925 0.022738671 0.26405016 -0.25102144 0.052882273 -0.96653593 0.020923959
0.38038194 0.027354192 0.26330376 -0.27611899 -0.068725944 -0.95866317 0.019767405
0.19523366 0.033306476 0.26675972 -0.98486918 0.10900611 0.13472316 0.096822299
0.20979655 0.036698733 0.26996988 0.076884858 -0.59331548 -0.80128986 0.21017444
0.26597565 0.037962347 0.26961917 0.045607165 -0.39292955 -0.91843688 0.016173743
0.27643532 0.038459003 0.26941243 -0.0022642231 -0.38566166 -0.92263752 0.022398427
0.28424186 0.037563384 0.26978523 -0.039780933 -0.33730999 -0.94055271 0.027861489
0.3284353 0.039506413 0.26897645 -0.032681353 -0.32127661 -0.94642127 0.025313528
0.34298241 0.034812011 0.26944268 -0.067748897 -0.23569147 -0.96946353 0.012524045
0.35979742 0.031459589 0.26774988 -0.19932416 -0.1069639 -0.9740783 0.018553082
0.36565271 0.033271283 0.26634067 -0.23298769 -0.11768372 -0.96533275 0.02017465
0.37566146 0.034674864 0.26387942 -0.27336723 -0.19284768 -0.94238007 0.014784511
-0.49424592 0.046118993 0.2664845 0.98692501 -0.1611803 3.5456422e-05 2.9466706e-05
-0.45365462 0.045822877 0.26292732 0.98691577 -0.16123672 3.8954007e-05 6.6296983e-05
0.15628329 0.047301218 0.26533264 -0.99416476 -0.1078711 0.00032588243 0.00010645171
0.19549417 0.04583377 0.26577687 -0.99989492 -0.0058506592 0.013263749 0.092244938
0.20612225 0.048552297 0.26452926 -0.98537433 -0.1291552 0.11115918 0.18179533
0.21387748 0.040538784 0.26854673 0.013846963 -0.5483883 -0.83610916 0.19084096
0.22669549 0.043627415 0.26721382 -0.057149317 -0.45852014 -0.88684458 0.016654482
0.24625964 0.043631002 0.26725963 0.041551545 -0.34852389 -0.93637842 0.014143776
0.25950027 0.046970166 0.26574934 0.024101101 -0.48631525 -0.87345099 0.013022735
0.26756752 0.045562439 0.2660839 -0.0015005117 -0.48334393 -0.87542927 0.014115089
0.27592611 0.044574309 0.2668511 0.004117704 -0.45038596 -0.89282447 0.015348831
0.28360331 0.048501305 0.26456857 0.0066058529 -0.5258022 -0.85058117 0.019692402
0.29468358 0.043640453 0.26725569 0.00362904 -0.45958364 -0.88812709 0.017450292
0.30495688 0.046077635 0.26624048 -0.0079674991 -0.54581964 -0.83786488 0.020663973
0.31310147 0.048596725 0.26449499 0.0090421773 -0.57056177 -0.8212049 0.019528842
0.3293913 0.049835641 0.26353958 -0.029204844 -0.58932436 -0.80736852 0.014568659
0.33749217 0.048781484 0.2639229 -0.091734365 -0.54487813 -0.83348221 0.015308752
0.34379262 0.045586638 0.26549536 -0.096535221 -0.52644026 -0.84471393 0.014005886
0.35149837 0.049520455 0.26238549 -0.097062297 -0.5667277 -0.81816787 0.012801043
0.36399737 0.043925215 0.26329967 -0.17530274 -0.4822256 -0.85832828 0.015584704
0.37639564 0.040892232 0.26169246 -0.27864558 -0.35110849 -0.89391249 0.023176361
-0.49343383 0.05109214 0.26289713 0.98692679 -0.16116914 -4.9325616e-05 0
-0.45255938 0.052528214 0.26137999 0.98691976 -0.16121215 7.59701e-05 6.9993883e-05
0.15567786 0.05333937 0.26507878 -0.99313068 -0.11689129 0.0052732551 0.00023556227
0.20389825 0.052003071 0.26186815 -0.99484342 -0.10096003 -0.0096798614 0.18227002
0.29764098 0.052816652 0.26124072 -0.0073597752 -0.65940297 -0.75175363 0.018836228
0.30874869 0.052045014 0.26183575 0.032016728 -0.62752908 -0.77793449 0.022454908
0.31387767 0.053459998 0.2607446 0.01539386 -0.69700748 -0.71689868 0.022791203
0.32396662 0.052565075 0.2614347 -0.021783769 -0.66643316 -0.74524653 0.023055876
0.33411747 0.051909447 0.26172677 -0.066108309 -0.6669063 -0.74220324 0.021546554
-0.45097691 0.062216599 0.26549768 0.98672587 -0.16239476 0.00012875551 2.5995705e-06
0.15438834 0.066199951 0.26499656 -0.97754955 -0.21021675 -0.014343211 0.0022356128
0.19498079 0.063372336 0.26377815 -0.98022604 -0.17604373 -0.090363063 0.056036353
-0.4887346 0.079868577 0.26773542 0.98434621 -0.17623618 0.0018443437 0.00036691607
0.15226324 0.075441949 0.26457652 -0.96657324 -0.25595295 -0.014970833 0.0024284446
0.19341382 0.079001278 0.26003936 -0.93890506 -0.33867651 -0.061282281 0.027400276
-0.48785129 0.085277319 0.26784122 0.98187095 -0.18954945 0.00060662202 0.00050855509
-0.44734481 0.084453702 0.26275718 0.96763003 -0.2523407 -0.0040167398 0.0021986319
0.14731303 0.088524908 0.260766 -0.9420529 -0.33544242 -0.0038456856 0.00041087851
0.19236645 0.082788855 0.2690126 -0.96135402 -0.27528277 0.0042311666 0.0022588449
-0.48646879 0.09374322 0.26648584 0.97584158 -0.21791786 0.015652129 0.0012647476
-0.44603899 0.090719387 0.26458174 0.95124948 -0.30837947 0.0051488997 0.002588717
0.14381383 0.097773015 0.26351511 -0.93529022 -0.35388151 -8.4595658e-06 8.8814004e-06
0.18587938 0.099933982 0.26706189 -0.93933225 -0.34300593 0.0013987783 0.00014677864
-0.48478609 0.10236789 0.26443326 0.96193415 -0.27262759 0.018892266 0.0018222012
-0.44111335 0.10164207 0.26158345 0.93103212 -0.36493611 -0.00089142064 0.00096828851
-0.43854803 0.10733066 0.26499015 0.91664219 -0.39970854 0.00042537754 0.00017094801
0.14048839 0.1065619 0.26617295 -0.93528903 -0.35388482 -1.9555499e-05 9.7855163e-06
0.18399599 0.1049118 0.26393878 -0.93603235 -0.35191372 0.00019630743 0
-0.43507886 0.11502363 0.26352885 0.91257203 -0.40891603 0.00025737693 0
0.13614133 0.11805087 0.26318258 -0.93528819 -0.35388696 -3.791173e-05 3.0064277e-06
0.18109751 0.11257241 0.26336679 -0.93528837 -0.3538866 -4.2688866e-05 0
-0.47573435 0.1224395 0.26081428 0.91175878 -0.41072601 -3.0645839e-05 0
0.13308074 0.12613975 0.26505423 -0.93044275 -0.36643004 -0.0023041386 0.00022393075
0.1775728 0.12188811 0.26818478 -0.93528336 -0.35389975 -2.3320972e-05 0
-0.47093442 0.13308315 0.2605423 0.91157901 -0.411125 -8.1335766e-06 7.1630697e-05
-0.46905565 0.13724914 0.26176298 0.91154426 -0.41120201 -9.6767515e-05 0
0.13128477 0.13088632 0.26527444 -0.92501342 -0.37992781 -0.0022278097 0.00062379951
-0.46405599 0.14833562 0.26509613 0.9115696 -0.41114572 -3.5409368e-05 0
-0.42246318 0.14299902 0.26308107 0.91019058 -0.41418958 -0.00016104562 4.8490696e-05
-0.41979024 0.14892623 0.26378709 0.9023571 -0.43098876 0.00043628254 0.00010706626
0.12462067 0.14781158 0.26374549 -0.88684899 -0.46200854 0.0068556513 0.0026060962
0.16812274 0.14686432 0.26999873 -0.93451446 -0.35592023 -0.0018667771 3.4452074e-05
-0.46144041 0.1541355 0.26592997 0.91157579 -0.41113207 -0.00014772237 0
-0.41693324 0.15526178 0.2634418 0.88151759 -0.47212124 0.0053185881 0.0012850675
0.11817046 0.15677957 0.26343852 -0.84297484 -0.53787875 0.0089432308 0.0013955405
0.12208726 0.1513339 0.26106545 -0.87566501 -0.48256797 0.018409157 0.0026297651
0.16479 0.15567267 0.2628513 -0.92612618 -0.37719801 0.0034569828 0.00048098483
-0.45626625 0.1656089 0.26434916 0.90584576 -0.42360759 -0.00013934108 0.00035039429
-0.41199207 0.16483609 0.2652173 0.84162337 -0.53988969 0.013757449 0.002294831
0.11317027 0.16373158 0.26511988 -0.81942308 -0.57318687 0.0016348505 0.00026160272
-0.4522754 0.1744584 0.26094118 0.89065289 -0.45462584 0.0072715632 0.0013802357
-0.40225181 0.17701268 0.26334903 0.79189944 -0.61064732 -0.0022519163 0.00071398285
-0.44788325 0.18419775 0.26991859 0.84753597 -0.5306921 0.0069757421 0.0020111636
-0.39522645 0.1856036 0.26523331 0.77460551 -0.63244474 0.0002609251 0
-0.44254148 0.19110437 0.26061049 0.82324898 -0.56768006 0.00063651567 0.0020125466
0.08788754 0.19888322 0.26775199 -0.80083489 -0.59885299 -0.0062176036 0.00014745003
0.091719493 0.19355549 0.26608622 -0.8061012 -0.59177518 -0.0016971248 7.4092961e-05
0.13986085 0.19531435 0.26441944 -0.81181252 -0.58391815 2.7740292e-05 0
-0.42904261 0.20761099 0.26276892 0.77409136 -0.63307393 -0.00013446674 0
-0.38138241 0.20253256 0.2647323 0.77412802 -0.63302904 8.8796851e-06 1.2192334e-05
-0.37807783 0.20657349 0.26773036 0.77407211 -0.63309747 -0.00011925693 2.2504564e-05
0.12931372 0.20997903 0.26735711 -0.81184649 -0.58387095 -6.800662e-06 4.4959174e-06
0.13594821 0.20075446 0.26278877 -0.81180185 -0.58393306 7.406747e-06 0
-0.42587823 0.21148047 0.26265681 0.77412522 -0.63303238 -1.8779446e-06 3.1326821e-05
-0.36940917 0.21717383 0.26757863 0.73583263 -0.67708671 -0.010197314 0.0013764132
0.077343561 0.21329606 0.2661486 -0.73411494 -0.67891544 -0.01221205 0.002541844
0.12524511 0.21563599 0.26579779 -0.81183141 -0.58389181 2.3594772e-05 3.995327e-06
-0.4148396 0.22497873 0.26693502 0.77409554 -0.63306874 0.00018892325 0
0.065409392 0.22305566 0.26986885 -0.64449614 -0.76460254 -0.0027641114 0.00029477011
0.11534789 0.22939701 0.26759908 -0.7868579 -0.61711347 0.0050587184 0.00078724796
-0.41010028 0.23077407 0.2658444 0.7739628 -0.6332311 -0.00016574662 0
-0.40695801 0.23461649 0.2648111 0.77400869 -0.63317502 1.3362662e-05 0
-0.35327387 0.23264593 0.26613447 0.63336909 -0.77371538 -0.014425466 0.0012038423
-0.34903416 0.2356953 0.26107079 0.61483687 -0.78863567 -0.0054301815 0.0010216744
0.046893496 0.2381977 0.26405293 -0.63305891 -0.7741037 3.1097716e-05 3.77233e-06
0.055210341 0.2313963 0.26573581 -0.63401353 -0.77332181 -0.00054233283 0
0.10959021 0.23740244 0.26818463 -0.74669069 -0.66510475 0.0094164312 0.0024178489
0.11096201 0.23549509 0.26982576 -0.75543052 -0.65518653 0.0074321348 0.0018951702
-0.40028492 0.24277647 0.26683867 0.75337225 -0.65756822 0.0058538644 0.00071782811
-0.39688188 0.24693772 0.26319984 0.73838735 -0.67437625 0.00088161882 0.0014957269
-0.34211534 0.24067159 0.266628 0.58726013 -0.80939656 0.0016954138 4.7943846e-05
0.10346204 0.2437509 0.26119542 -0.6939376 -0.72002494 -0.0038363943 0.0014322873
-0.39158219 0.25341827 0.26430583 0.71401811 -0.70009404 0.0068106772 0.0017263339
-0.38649902 0.25815496 0.26463461 0.65993077 -0.75114101 0.016688511 0.0021155879
-0.32720876 0.25139302 0.26083502 0.58387029 -0.81184691 1.2549423e-06 2.0848047e-05
0.027443254 0.25410384 0.2673831 -0.61123937 -0.79139322 -0.009127507 0.00056808488
0.08767093 0.25666401 0.26851153 -0.63791126 -0.77010906 -0.001174862 7.9494879e-05
0.091917202 0.25319165 0.26402244 -0.64994091 -0.75998253 -0.0018320216 0.0004339125
-0.374863 0.26652426 0.26537433 0.60357183 -0.79728043 0.0067011733 0.00092342467
-0.31192243 0.26238751 0.26468438 0.57990241 -0.8146857 -0.00065762526 0
-0.30546588 0.26703137 0.2622782 0.52573568 -0.8506282 -0.0058032898 0.0019010247
0.0075597339 0.267656 0.26397595 -0.48803154 -0.87281185 -0.0049735629 0.0023793739
0.014204198 0.26436138 0.26539469 -0.52439225 -0.85144812 -0.0069863372 0.0024095408
0.074057959 0.26779592 0.26493207 -0.63303179 -0.77412581 2.3997307e-05 0
-0.3665368 0.27251291 0.26559272 0.58399272 -0.81175882 8.1951403e-05 1.4959706e-05
-0.29926383 0.27149212 0.26765877 0.49546385 -0.8686204 -0.0037615234 0.0011129521
-0.2803742 0.27980739 0.269389 0.38776138 -0.92174089 0.0059074368 0.00086230843
-0.019492935 0.2798562 0.26537913 -0.41113895 -0.91157269 3.08487e-05 3.4998571e-05
0.060911581 0.2785463 0.26822177 -0.63303006 -0.77412724 1.8716477e-06 0
-0.34259632 0.28973228 0.262766 0.58379155 -0.81190354 2.0580421e-05 1.9168242e-06
-0.2549125 0.28944135 0.26707464 0.35377783 -0.93532944 2.8024831e-05 2.3073213e-05
-0.041513696 0.28978711 0.26488882 -0.39673701 -0.91793078 -0.0016640474 0.00031968308
-0.022635864 0.2812736 0.26263368 -0.41111556 -0.91158319 -4.2607768e-05 0
0.05403829 0.28416693 0.26355752 -0.63168085 -0.77522838 -0.00049347547 2.7374492e-05
-0.33726838 0.29356444 0.26448318 0.58333111 -0.81223428 0.00055070611 0
-0.24556665 0.29297754 0.26547787 0.35388368 -0.93528944 -2.6682672e-05 1.4335537e-05
-0.23951191 0.29526845 0.26523548 0.35391685 -0.93527693 0.00013654803 4.1943211e-05
-0.22939983 0.29909456 0.26531082 0.31691214 -0.94840378 0.0098429089 0.0012520858
-0.055712234 0.29619035 0.266395 -0.29814753 -0.95451981 -0.00011353617 0.0018813672
0.04493466 0.29161131 0.26562893 -0.59241134 -0.8056255 -0.0040467619 0.0012317472
-0.32298493 0.30383793 0.2635749 0.54926884 -0.83564073 0.0029047518 0.0012003391
-0.31848702 0.30707312 0.26946014 0.51392466 -0.85782808 -0.0035132936 0.0024578711
-0.22005893 0.30262887 0.26768026 0.22161807 -0.97511691 -0.0056895884 0.0028708004
-0.1923964 0.30544022 0.26519242 0.10002808 -0.99498463 -7.1096234e-05 0
-0.18663132 0.30601814 0.26773441 0.099755645 -0.99501204 -5.254077e-05 0
-0.17054118 0.30763116 0.26693851 0.099763855 -0.99501115 -4.3040083e-05 0
-0.1650514 0.30818149 0.2631495 0.096749954 -0.99530822 0.0010039293 0
-0.15269682 0.30941999 0.26449478 0.057809439 -0.99832445 -0.0025208746 0.00113221
-0.14734235 0.30995679 0.26601243 0.03430872 -0.999394 -0.0058771893 0.0020002022
-0.13399506 0.30993447 0.26267827 -0.069554634 -0.99745011 0.015977891 0.002010715
-0.1214916 0.30789265 0.26952964 -0.14717893 -0.98910958 0.00080457126 0.00029711711
-0.10217158 0.30473772 0.26309142 -0.16115579 -0.986929 2.6195703e-05 0
-0.095432214 0.30363718 0.26051179 -0.16117328 -0.98692608 -4.5168017e-06 1.1868612e-05
-0.084514894 0.30185437 0.26223999 -0.16755493 -0.98586029 -0.0021954575 7.0548231e-05
-0.073268302 0.3000178 0.26309973 -0.1877515 -0.98218358 0.0080525056 0.00060861435
-0.30804762 0.3122218 0.26538551 0.41789648 -0.90849131 -0.0024719557 0.0019689174
-0.28980586 0.31912366 0.26049542 0.35392869 -0.9352724 5.5241439e-05 2.8696526e-05
-0.1371109 0.31044328 0.26399654 -0.02056803 -0.99969828 0.013430433 0.0024470766
-0.0030461578 0.31643772 0.26687565 -0.41112572 -0.91157866 -1.4921343e-05 6.6504099e-06
0.0045031733 0.31303298 0.26313061 -0.41113245 -0.91157556 8.2656534e-06 1.3672777e-05
-0.27792382 0.32361931 0.26200405 0.35395145 -0.93526381 -4.4431807e-05 0
-0.26820168 0.32729769 0.26778895 0.35393065 -0.93527168 -6.9453876e-05 3.9102051e-05
-0.030298382 0.32872841 0.26173252 -0.38799182 -0.92165899 -0.0026349041 0.0006110759
-0.017010801 0.32273576 0.26371047 -0.41114697 -0.91156906 5.3910429e-05 2.0239779e-05
-0.25462192 0.33243567 0.26066443 0.35403845 -0.93523091 -7.8988625e-05 0
-0.24766216 0.33506891 0.26060817 0.33977574 -0.94049734 0.0041497359 2.246471e-05
-0.23540479 0.33970657 0.26667666 0.24601401 -0.96899629 0.022875967 0.0020815283
-0.057091516 0.33801618 0.2644082 -0.23422128 -0.97218323 -0.0003627158 0.0013852732
-0.042185016 0.33408928 0.26885042 -0.32242534 -0.94658494 -0.0043450315 0.0013107493
-0.03687549 0.33169469 0.26566219 -0.35477629 -0.93475139 -0.019330477 0.0011565868
-0.22557507 0.34242445 0.26499528 0.21708153 -0.97615266 -0.0012587982 0.0017914376
-0.20915467 0.34407076 0.26565641 0.11577127 -0.99326825 -0.0038877488 0.00038581406
-0.19456482 0.34553355 0.26652908 0.099768326 -0.99501067 3.9700688e-05 0
-0.18581903 0.34641039 0.26178104 0.099752575 -0.99501222 5.6208632e-05 3.2780987e-05
-0.17272612 0.34772313 0.26713061 0.099846289 -0.99500287 -2.6685941e-05 0
-0.15646368 0.34935355 0.26221025 0.084476419 -0.99642426 0.0015408017 0.0002705963
-0.12362672 0.34888265 0.26616198 -0.12421619 -0.99224371 -0.0047788583 0.0011023089
-0.10004845 0.34503186 0.26634243 -0.16116704 -0.98692709 9.1929913e-05 0
-0.090761296 0.3435151 0.26477563 -0.16119364 -0.9869228 2.8018834e-05 0
-0.084046051 0.34241837 0.26390803 -0.16118982 -0.9869234 4.0755142e-05 0
-0.14843383 0.35015866 0.26810235 0.053689517 -0.998528 0.0076949988 0.0010368926
-0.13440375 0.35064274 0.26459396 -0.046841338 -0.99886924 -0.0081317304 0.0016573413
-0.22339904 -0.34080628 0.27613947 0.16126297 0.98691148 5.8712281e-05 0
-0.21136342 -0.34277195 0.27021706 0.16110727 0.98693687 2.8748562e-05 3.1459251e-05
-0.20248619 -0.34422177 0.27646556 0.16115206 0.9869296 1.7219583e-05 2.4344774e-05
-0.18431064 -0.3471902 0.27683601 0.1611934 0.98692286 -9.2683033e-05 0
-0.17635942 -0.34848878 0.27287593 0.15295629 0.98823142 0.0017355029 0.00026404395
-0.16742241 -0.34994832 0.27904049 0.08253067 0.99655634 -0.0080184294 0.0020155995
-0.1387334 -0.34911525 0.27847227 -0.073715381 0.99727374 -0.0033395351 0.00033479641
-0.1259644 -0.347835 0.27466953 -0.099785298 0.99500901 -6.7741094e-05 0
-0.093117155 -0.34454173 0.27772614 -0.10287035 0.99469471 0.00037315048 2.9430708e-05
-0.076091111 -0.34283471 0.27450785 -0.16782063 0.98581457 -0.0023968169 0.0011785846
-0.26382503 -0.33028477 0.27627349 0.37110537 0.92857873 -0.0047089104 0.00061179308
-0.25629446 -0.33368102 0.27790582 0.35734949 0.93394285 -0.007225432 0.00065130967
-0.24527474 -0.33723357 0.2753036 0.24625775 0.96920431 -0.00026899014 0.0016931733
-0.23872542 -0.33830321 0.27932447 0.22441758 0.97448313 0.0044052028 0.0015136003
-0.056139484 -0.33742467 0.27161065 -0.32845974 0.9445169 -0.0014280453 0.00059326884
-0.041254111 -0.33179224 0.27277821 -0.3539252 0.93527377 2.6313746e-05 4.3886812e-05
-0.039965946 -0.33130485 0.2772646 -0.35389647 0.93528461 9.3875124e-06 0
-0.27582103 -0.32487461 0.27591386 0.41118237 0.91155308 -1.2750178e-05 0
-0.26491126 -0.32979488 0.27083293 0.37704796 0.92618459 -0.0041128565 0.00063867628
-0.033840902 -0.32898718 0.27657661 -0.35390005 0.93528324 -9.6435006e-06 0
-0.025422644 -0.32580182 0.27365702 -0.35389251 0.93528605 7.8993531e-07 0
-0.013510109 -0.32129428 0.27517515 -0.35388765 0.93528795 -0.00011903773 0
-0.29726946 -0.3152014 0.27951211 0.41113719 0.91157347 -3.9191866e-05 0
-0.16205642 -0.3101832 0.27814242 0.036239468 0.99930364 0.0088787191 0.0021002686
-0.1582765 -0.31076321 0.27630043 0.0037350105 0.99999303 -0.00013965144 0.0020092765
-0.0028681434 -0.31726751 0.278743 -0.36191046 0.93220639 0.0034664855 0.00015877391
0.0023703855 -0.31528533 0.27638367 -0.38183296 0.92422938 0.0019180275 0.00064493628
-0.3266384 -0.30195606 0.27578431 0.48754534 0.87297302 0.014753531 0.0020041696
-0.31687057 -0.30636138 0.27231753 0.43337873 0.90120524 -0.0034575937 0.00054541929
-0.21970496 -0.30076957 0.27436885 0.17687595 0.98423225 0.0012916191 0.00030868856
-0.1937321 -0.30501074 0.2719436 0.16117737 0.98692542 4.8241104e-06 1.0248695e-05
-0.18800741 -0.30594555 0.27115497 0.16115312 0.98692942 2.2900203e-05 1.6991424e-05
-0.17380944 -0.30826402 0.27308303 0.11695223 0.9931373 0.00072286569 0.0013698062
-0.16502 -0.30969927 0.27293226 0.067469627 0.9976967 0.0070066783 0.0025951369
