# .PCD v0.7 - Point Cloud Data file format
VERSION 0.7
FIELDS x y z normal_x normal_y normal_z curvature
SIZE 4 4 4 4 4 4 4
TYPE F F F F F F F
COUNT 1 1 1 1 1 1 1
WIDTH 585
HEIGHT 1
VIEWPOINT 0 0 0 1 0 0 0
POINTS 585
DATA ascii
-0.35230708 0.1604282 -0.088865981 0.96648818 -0.23100448 -0.11197081 0.21044381
0.35173717 0.1629393 -0.083727494 -0.96597016 -0.22539519 0.12688039 0.21496578
0.37777591 0.1619107 -0.08255437 -0.99954426 -0.029575055 0.0060534361 0.22192819
-0.37592921 0.1747441 -0.082596615 0.99810958 -0.010338307 0.060584232 0.21482264
-0.3499577 0.17267148 -0.082402445 0.98654521 -0.1262566 -0.10386366 0.16842571
0.37692136 0.17372409 -0.087273568 -0.98153812 -0.17283601 0.081918143 0.20236504
-0.37371179 0.18629962 -0.088053875 0.71631324 -0.6925956 0.084891632 0.28347906
-0.34699816 0.18809466 -0.0848663 0.97412866 -0.21485245 0.070083924 0.20640874
0.34995514 0.18757422 -0.087019764 -0.99871129 -0.017256727 0.047728427 0.24996598
0.35005617 0.18617754 -0.080794089 -0.70512354 0.10739931 0.70090377 0.27995756
0.37614381 0.18447275 -0.085206211 -0.96980506 -0.20296845 0.13521068 0.18323603
-0.34575334 0.19458149 -0.084712625 0.97209495 -0.23365308 -0.020917809 0.20677817
0.34718239 0.19702742 -0.085347623 -0.91293561 0.081148326 0.39995435 0.22864367
-0.37051255 0.20297155 -0.088595994 0.54691941 -0.83279359 -0.085638702 0.22709405
-0.36920571 0.20978194 -0.085725188 0.41450512 -0.23833683 0.87828302 0.19264291
0.37160626 0.20563726 -0.082466029 -0.99628401 0.016433971 0.084546424 0.20751981
-0.36729383 0.21974531 -0.085881799 0.64818019 -0.15080746 0.74640447 0.15830825
-0.34142464 0.21713981 -0.087238662 0.99847978 -0.051314406 0.020125939 0.17687604
0.34210354 0.21166348 -0.088279046 -0.93805635 -0.31809625 0.13734977 0.15536569
0.36751497 0.21742728 -0.087199822 -0.90133053 -0.31389117 0.29845527 0.23037496
-0.33975512 0.22584012 -0.08897575 0.87272578 -0.4483667 0.19317602 0.18912897
0.3660993 0.22150698 -0.087450951 -0.70502156 -0.11610046 0.69961792 0.2511341
-0.3646445 0.23329659 -0.084155492 0.98548448 0.14101557 0.09452413 0.18469408
0.33526397 0.23137367 -0.085952029 -0.98902875 -0.14480735 0.029205557 0.21214044
-0.35903716 0.24787995 -0.082951024 0.95072716 -0.29410785 -0.098073915 0.21833517
0.33037817 0.24545334 -0.089872092 -0.91442609 -0.34703425 -0.20830777 0.18354551
0.35945129 0.24066478 -0.086510904 -0.93548983 -0.26809335 -0.2301839 0.26775199
-0.3543458 0.25755748 -0.084371805 0.71150261 -0.69619226 -0.095291413 0.1744785
0.32772654 0.25309479 -0.085561819 -0.48976609 0.12948474 0.86218494 0.21423686
-0.35184848 0.26270899 -0.088245548 0.8719964 -0.42720258 -0.2389982 0.23403646
0.32298476 0.26675949 -0.082129367 -0.97593713 -0.16370898 0.14403488 0.21982832
0.34991077 0.26815829 -0.086827978 -0.89997584 -0.41562694 -0.13152045 0.18984388
0.35237861 0.26104659 -0.084961288 -0.99351835 -0.10740621 -0.037215989 0.20333672
-0.31758612 0.27402014 -0.085771516 0.86160946 -0.47011289 -0.19137146 0.216204
0.32111567 0.27214566 -0.08229731 -0.98521113 -0.15316908 0.076800041 0.23855202
-0.33912078 0.28896421 -0.080130152 0.96530938 -0.083706155 -0.24732815 0.23969515
0.31716362 0.28059241 -0.087737322 -0.35712546 -0.28753048 0.88869989 0.2757479
0.34395549 0.28531992 -0.085185796 -0.90938139 -0.4159517 0.0031061692 0.20396869
-0.33385605 0.29982457 -0.08591859 0.84020054 -0.54227561 -0.00055404106 0.13924168
-0.30678508 0.29630101 -0.084518023 0.75897455 -0.55084616 -0.34716892 0.22815308
0.30692792 0.29568917 -0.082282826 -0.98277175 -0.15800267 -0.095889434 0.22582075
0.34172988 0.2905058 -0.088275477 -0.88983798 -0.44739431 0.089592293 0.21211962
-0.30218431 0.30579165 -0.083714589 0.36689401 -0.88741541 -0.27907476 0.25774181
0.33080748 0.30661556 -0.082687348 -0.83122087 -0.49070838 -0.26129881 0.20944685
-0.32635394 0.31530008 -0.086683467 0.76109594 -0.64841276 0.017141616 0.24304341
0.32551143 0.31442681 -0.088027775 -0.81258053 -0.56095147 -0.15826005 0.097049974
-0.32379213 0.32058468 -0.086869955 -0.51624441 -0.85422355 0.061593845 0.26194161
-0.29110318 0.32211867 -0.086381316 0.82368165 -0.55994219 0.089517258 0.14214225
-0.28731087 0.32650241 -0.080801368 0.909226 -0.41508064 0.031877439 0.19587345
0.2872088 0.32477313 -0.083716482 -0.8411057 -0.53167832 0.099294335 0.21884511
0.3193078 0.32357669 -0.087076269 -0.83293545 -0.54864305 -0.072176464 0.11189459
0.32006419 0.3224611 -0.080135554 -0.8931495 -0.38885805 -0.22599435 0.17319371
-0.31376803 0.33550143 -0.084413961 0.79541808 -0.58707082 0.15052542 0.19780104
-0.28105652 0.33373219 -0.085729353 0.82027519 -0.5663119 -0.080246285 0.27097526
0.28044921 0.33474287 -0.086599872 -0.69044697 -0.7043848 0.16469663 0.2298284
0.30912858 0.33859032 -0.084106132 -0.78704858 -0.54609042 0.2869491 0.20923385
-0.30397367 0.34682325 -0.089207292 0.8237282 -0.16115236 -0.54360074 0.24514629
0.273996 0.34426078 -0.085792005 -0.81652904 -0.5767163 0.02605035 0.19417658
0.30439982 0.34556487 -0.085380256 -0.85911041 -0.46675348 0.20992984 0.20508876
-0.30112797 0.35011274 -0.080175929 0.69339979 -0.67074132 -0.26325443 0.23314634
-0.29734415 0.3544867 -0.082785562 0.94948053 -0.31381637 0.0024490256 0.21606961
-0.26436141 0.35303098 -0.084522553 0.90126199 0.0061262515 0.43323112 0.29184729
-0.25972787 0.35838714 -0.080910772 -0.46535456 -0.87315559 0.14506736 0.27146918
0.26344207 0.3576991 -0.080902368 -0.86759669 -0.49009275 -0.08417318 0.19939321
0.2970562 0.35639614 -0.084643289 -0.79533672 -0.60432303 0.047256026 0.17244704
-0.28713959 0.36628264 -0.08981733 0.6307143 -0.76146704 -0.14955775 0.23060906
-0.25628513 0.3623668 -0.08495415 0.23006988 -0.93599069 -0.26643783 0.29741058
-0.28124115 0.37310103 -0.088724598 0.74106705 -0.67114437 0.019615559 0.2400903
-0.27746752 0.37746316 -0.080457672 0.99878377 -0.042259354 0.025398975 0.22175106
0.23983775 0.37811887 -0.084348232 -0.60359669 -0.74557024 -0.28248212 0.21650031
0.24534294 0.37335646 -0.082640052 -0.605039 -0.7748301 0.18321015 0.1997662
0.27983138 0.37776342 -0.080320477 -0.68418545 -0.72738528 -0.052922763 0.12410183
-0.27314344 0.38246161 -0.082027465 0.69054383 -0.72137344 0.052627016 0.20170647
-0.23752195 0.38405624 -0.085101277 0.7731114 -0.22757852 0.59203613 0.26799795
0.26803064 0.38797206 -0.081506014 -0.64694262 -0.75653934 -0.095464796 0.15593883
-0.26537555 0.39144093 -0.081970826 0.66845119 -0.74366111 0.011881751 0.15984568
-0.22081009 0.3954908 -0.088640019 0.8220365 -0.56324428 -0.083737478 0.25666893
-0.21836537 0.39714837 -0.083129592 0.67995906 -0.7220645 0.12758777 0.22477154
0.22113405 0.39429921 -0.085492194 -0.58902854 -0.80601805 -0.058139998 0.17587069
0.25628847 0.39813003 -0.081960201 -0.66809851 -0.73988748 0.078808457 0.15994003
-0.25321364 0.40476486 -0.084671378 0.56961524 -0.57155961 0.59064209 0.23132405
-0.24810967 0.40826929 -0.088561863 0.74277329 -0.62914854 0.22904135 0.21467654
-0.20421557 0.40674192 -0.084820755 0.19185528 -0.9524647 -0.23664841 0.21657476
0.20382786 0.40927055 -0.086620659 -0.67378968 -0.73499781 -0.076063305 0.22738101
0.24868925 0.404704 -0.088193119 -0.36381426 -0.9203105 -0.1437633 0.222409
-0.24114415 0.41299194 -0.080933094 0.55833322 -0.76725352 0.31557235 0.19592544
-0.23510921 0.41708368 -0.089105129 0.65484136 -0.7539022 -0.05304971 0.14291769
-0.19197828 0.41503882 -0.083774179 0.12554274 -0.98758596 -0.094408475 0.18687028
0.19613251 0.41573781 -0.085379645 -0.35116938 -0.56832331 0.74410254 0.2602849
0.20133953 0.41142321 -0.08654011 -0.66185409 -0.74420267 -0.090064324 0.2334155
0.23311687 0.41817543 -0.081451923 -0.74685442 -0.64199764 0.17334177 0.20496358
-0.22560342 0.42352861 -0.087631091 0.60665137 -0.79257882 0.061586984 0.16572329
-0.18035865 0.42291695 -0.088354781 0.9580605 -0.26931435 0.097928055 0.21446779
-0.175641 0.42611551 -0.086563371 0.90526199 -0.32130095 0.27796835 0.27025837
0.16773769 0.42958444 -0.080632627 0.15185709 -0.84302038 -0.51600009 0.20765151
0.17551389 0.42581481 -0.083341151 -0.51289964 -0.5271365 -0.67754048 0.26162824
0.22413804 0.42594284 -0.08335802 -0.65412164 -0.75397897 0.060338575 0.2096221
-0.21050063 0.43376839 -0.086009502 0.60141301 -0.79554063 -0.073603936 0.14969027
-0.16867031 0.43084168 -0.086759821 0.29177627 -0.95627421 -0.02015374 0.25366664
0.16246432 0.43214083 -0.08950682 0.33263946 -0.90891343 -0.25145039 0.2408933
0.20673566 0.4394587 -0.083897553 -0.60903442 -0.79303038 0.01340966 0.14895163
0.21691476 0.43219161 -0.084400415 -0.59273022 -0.80529529 0.013055895 0.1910933
-0.19966328 0.44111615 -0.082019389 0.48038688 -0.87184381 0.095481373 0.18868499
-0.18804622 0.44899255 -0.081810474 0.53456914 -0.84503555 0.012275872 0.1882879
-0.15022191 0.44006979 -0.088563666 0.43534711 -0.88579839 0.16072975 0.22774614
-0.14223765 0.4428404 -0.089407779 0.32625079 -0.93925411 0.10659354 0.1898984
-0.12828749 0.44768131 -0.0827659 0.45715886 -0.85255784 0.25328013 0.23091006
0.13518542 0.4453648 -0.087534249 -0.57091701 -0.81446332 -0.10345568 0.28572387
0.14136314 0.44237006 -0.085374415 -0.87375855 -0.44941306 0.18594077 0.26020801
0.18850261 0.4482975 -0.085194767 -0.45600969 -0.88046837 -0.12973322 0.20522334
0.19433053 0.4454723 -0.084912904 -0.46527112 -0.8666752 -0.17999123 0.18982561
-0.18647942 0.45005488 -0.08835265 0.60476214 -0.79636586 -0.0080113159 0.19836634
-0.11852401 0.45106936 -0.086737022 0.67232144 -0.73139125 0.11423976 0.20741312
0.10564701 0.45767197 -0.083730087 0.16510028 -0.98623651 0.0089165866 0.22367373
0.11148137 0.45655239 -0.085844658 -0.25323319 -0.96660733 -0.039285015 0.27131537
0.16476883 0.45980287 -0.080738783 -0.38942468 -0.91585088 -0.09780407 0.19428518
0.17984721 0.45249334 -0.086958557 -0.38549802 -0.90151334 -0.19663414 0.17449656
0.18420307 0.45038179 -0.081069648 -0.33619815 -0.93976736 -0.061710019 0.22200607
-0.163221 0.46297058 -0.087205261 0.30006292 -0.95389807 -0.006379284 0.14653401
-0.15703732 0.46511638 -0.085752845 0.30830881 -0.95103765 0.021751294 0.2183416
-0.051196236 0.46870604 -0.083848216 -0.37495741 -0.92643648 -0.033501737 0.24139872
-0.035712197 0.4698261 -0.08138296 0.38729009 -0.87675077 -0.285157 0.23196872
0.047095943 0.46890748 -0.088682786 -0.66572869 -0.73104906 0.14957468 0.22749107
0.067216083 0.46504655 -0.086437255 -0.31637624 -0.90017593 -0.29931507 0.23176849
0.070181713 0.46447748 -0.08664839 -0.21268557 -0.91930622 -0.33112094 0.22113501
0.14694558 0.46844301 -0.085943349 -0.43633053 -0.89909279 -0.035326004 0.20066901
0.15639646 0.46386153 -0.083824784 -0.38223597 -0.92221791 -0.058393713 0.14744298
-0.14189638 0.47037047 -0.085083395 0.25416926 -0.95739043 0.13711849 0.20230074
-0.13814916 0.47167081 -0.082114309 0.19258361 -0.98020732 -0.04588132 0.1576886
-0.12522694 0.47615495 -0.085479729 0.14931156 -0.93030238 -0.33502769 0.26033497
-0.031890225 0.47010255 -0.080078557 0.11619882 -0.99313879 -0.013158699 0.17241107
-0.029368691 0.470285 -0.085263528 0.1889486 -0.9809463 -0.045198042 0.22471617
-0.019296588 0.47101355 -0.088754058 -0.11464811 -0.9902333 0.079333104 0.18542966
-0.0043010497 0.47209829 -0.087098122 0.17369775 -0.96504903 0.19623822 0.1519015
0.0042634681 0.47271782 -0.085779846 0.36281255 -0.92459011 0.11619052 0.15905684
0.01562636 0.47353977 -0.086648472 0.50684518 -0.86200231 0.0077457759 0.25168324
0.12481175 0.47917277 -0.083161518 -0.14432941 -0.98746598 -0.063874766 0.12057459
0.13497798 0.47424451 -0.088925332 -0.4165808 -0.90875524 0.024988186 0.1828655
0.14044377 0.47159487 -0.089381814 -0.53226626 -0.83823049 0.1185844 0.17657846
-0.11153515 0.48090622 -0.089978904 0.40585756 -0.91330868 -0.033866983 0.16066116
-0.10732844 0.48236597 -0.083243556 0.34789738 -0.93137038 -0.10731578 0.10573775
-0.094339862 0.48687315 -0.087841481 0.45761836 -0.87731773 -0.14456482 0.22416696
0.081897035 0.48859859 -0.086568266 -0.1752924 -0.96253544 -0.20687726 0.2270844
0.1060696 0.48396006 -0.087549865 -0.30572888 -0.8685438 -0.39007887 0.22842027
0.11237335 0.48275036 -0.082038894 -0.023369631 -0.92199522 -0.38649538 0.22425188
-0.081106611 0.49146524 -0.085775256 0.23979591 -0.96769291 0.077899463 0.066852428
-0.067876987 0.49346375 -0.082304269 0.070629731 -0.99701208 0.031278033 0.17785813
-0.045030426 0.49511641 -0.084594905 -0.21104771 -0.9771288 -0.026040621 0.23479672
-0.02537743 0.49653801 -0.082191885 0.27734649 -0.96069926 0.011656983 0.24519476
-0.01727055 0.49712446 -0.087530613 -0.08345367 -0.9963218 0.019453274 0.22577676
0.0037182842 0.49864271 -0.08418534 0.42154256 -0.65278828 0.6294198 0.24712275
0.017573554 0.49964496 -0.088504165 0.15061791 -0.86323398 0.48181048 0.2156433
0.035070773 0.49758422 -0.081682742 -0.24122763 -0.96772224 0.072958916 0.10297756
0.049015656 0.4949083 -0.085677028 -0.11051577 -0.98579669 0.12645608 0.19755094
0.056252692 0.49351957 -0.087025732 -0.060882062 -0.99547094 0.073013999 0.18549199
-0.015873615 -0.4977859 -0.074164607 -1.0944247e-05 1 4.6682446e-05 0
-0.0022309239 -0.49778593 -0.074483544 -8.3456553e-07 1 -1.4146426e-05 0.00019103609
0.0036181244 -0.4977859 -0.076989979 -0 1 -0 0.00018730454
0.014926526 -0.4977859 -0.076936133 -0.14727488 0.98906195 -0.0081545487 0.020722263
0.033632517 -0.4970201 -0.075042807 -0.70174909 0.71123803 0.041092921 0.081615441
0.034605406 -0.4877463 -0.072016284 -0.94403231 0.32515201 -0.055489469 0.070805311
0.03460541 -0.47411945 -0.074435256 0.96357447 0.26324481 0.047184542 0.097260751
-0.01617093 -0.46287358 -0.074151233 0.027776919 0.93096256 0.36405665 0.011626636
-0.0068128668 -0.46148095 -0.077513441 0.026704591 0.91210485 0.40908626 0.010874792
0.015089669 -0.46164596 -0.077114984 0.26298419 0.88647515 0.38079005 0.057050824
0.034605406 -0.46699849 -0.074324287 0.88892299 0.44458723 0.11026498 0.085360959
-0.047208786 -0.26050237 -0.076229095 0.17520264 0.97151709 0.15955755 0.19688796
-0.036327172 -0.26259047 -0.074385889 0.1703507 0.95086372 0.25853214 0.20723017
-0.014371933 -0.26466078 -0.072792664 -0.11308723 0.99072206 -0.075373262 0.1628553
-0.002168675 -0.26377803 -0.072707385 -0.098075159 0.99364853 -0.055170402 0.14211537
0.00034277886 -0.26359636 -0.074166551 -0.032462627 0.99809641 -0.052436907 0.14749004
0.014469641 -0.26257446 -0.073838279 -0.18573007 0.97860926 -0.088477045 0.14260371
0.021618482 -0.26205733 -0.073901683 -0.24538323 0.96501499 -0.092374556 0.18305181
0.040865216 -0.26066509 -0.071121037 -0.007198737 0.99986076 -0.015057414 0.1753443
-0.10035116 -0.2503047 -0.07654871 0.19446076 0.97247583 0.12835796 0.14491667
-0.097067453 -0.25093481 -0.074226372 0.05110826 0.99861628 0.012387426 0.16704328
-0.083689682 -0.25350192 -0.075972751 -0.070234098 0.99164057 -0.10824145 0.21043192
-0.074886143 -0.25519127 -0.072151154 0.089629389 0.99322855 -0.073916815 0.17277245
-0.017667742 -0.25440097 -0.077682041 0.33699876 0.92799795 -0.15890734 0.25775394
-0.0024007754 -0.25440097 -0.072347745 -0.17357899 0.96810967 -0.18064888 0.21983646
0.0049674516 -0.25440097 -0.078339882 -0.20524125 0.96468174 -0.1651216 0.18663773
0.018970277 -0.25440097 -0.079582617 -0.18223608 0.94342124 -0.27703136 0.18985602
0.034309961 -0.25311664 -0.075257264 0.28520212 0.95004278 -0.1268006 0.21164346
0.054924335 -0.25964808 -0.079028845 0.038673695 0.99740148 -0.060783036 0.20961422
0.060281731 -0.25926057 -0.074495137 0.0095182182 0.99430215 -0.10617232 0.20478544
0.086260997 -0.25492403 -0.075721271 -0.2696034 0.94329321 -0.19367994 0.23681813
-0.12204038 -0.24576348 -0.073877469 0.41870186 0.90726858 0.039402291 0.16610987
-0.11067991 -0.2483227 -0.07943961 0.35946691 0.92857361 0.092382923 0.12394317
-0.10964625 -0.24852103 -0.078505903 0.27831531 0.95631939 0.089408375 0.1346242
0.034605406 -0.24757808 -0.072726525 -0.018037522 0.99831539 -0.05514466 0.24202882
0.11652509 -0.24442205 -0.071933091 -0.34655267 0.91602027 0.20201014 0.19260776
0.12074356 -0.24295822 -0.079786271 -0.29040051 0.94682813 0.13850592 0.18886557
-0.14537792 -0.23445021 -0.075994037 0.36074337 0.90015477 0.24410163 0.14435609
-0.13811955 -0.23796882 -0.073775321 0.42369553 0.88654864 0.18577844 0.13168478
-0.067375943 -0.23026326 -0.075683415 -0.58416754 0.41648808 0.6966247 0.29299933
-0.055319697 -0.23257677 -0.075585112 0.27594715 0.93122387 0.23806553 0.17868645
-0.034368977 -0.23659706 -0.072899342 0.31699067 0.94491446 -0.081569977 0.21370108
-0.022896022 -0.23879865 -0.074880093 0.44231418 0.88455385 0.14806329 0.25359938
-0.010374308 -0.23840722 -0.078501001 0.17081252 0.97756726 0.12322892 0.23887105
-0.0054643457 -0.23805207 -0.074104704 -0.02231006 0.99917555 -0.03391749 0.23025794
0.01847193 -0.2363206 -0.079478323 0.024939742 0.96815723 -0.24909744 0.20661061
0.022844054 -0.23600431 -0.075216338 -0.089081444 0.91425252 -0.39523 0.21235541
0.03310613 -0.23526198 -0.072927147 -0.15464067 0.98245108 -0.10428805 0.25720823
0.045825101 -0.23434192 -0.072085336 -0.27652135 0.96100622 0.0017261093 0.19450678
0.057074368 -0.23352821 -0.076923281 -0.3424274 0.93801111 0.053652868 0.17169574
0.13182811 -0.23911172 -0.071045727 -0.60391086 0.034612026 -0.79630005 0.23105909
0.14648849 -0.23402441 -0.078991532 -0.18417849 0.97834563 0.094436124 0.21323042
0.15174538 -0.23220021 -0.072921962 -0.20917723 0.96480787 0.1593444 0.19835851
-0.17409846 -0.22052741 -0.075395763 0.48196945 0.84634161 -0.22674072 0.22055741
-0.15546615 -0.22955972 -0.075443506 0.38558808 0.92222542 -0.028674772 0.17579152
-0.10936096 -0.22220664 -0.072110236 0.55029696 0.61920726 -0.56013888 0.31565616
-0.073607333 -0.22906752 -0.073180512 0.27791223 0.95948052 0.046496302 0.23195682
0.083941035 -0.2283175 -0.07486178 -0.033299971 0.99808818 0.052068137 0.19793268
0.16452548 -0.22776538 -0.074487507 -0.52404755 0.84744614 0.084906749 0.1867663
-0.19367243 -0.21103857 -0.07586582 0.42791069 0.88752496 -0.17085648 0.1882737
-0.18834403 -0.21362162 -0.070776597 0.45300132 0.88652802 0.094116628 0.19771259
-0.17531908 -0.21993569 -0.071706235 0.38743165 0.91882634 0.075198591 0.20507513
-0.13257077 -0.21187961 -0.078175917 0.28909713 0.95086074 0.11084574 0.17630963
-0.11784165 -0.21901982 -0.079653069 0.057947192 0.9792673 0.19410755 0.21681614
0.11785642 -0.21654847 -0.073449597 -0.67106712 0.73772043 -0.07373891 0.21232899
0.12795435 -0.21304438 -0.071490467 0.065786496 0.98174781 -0.17844708 0.22871141
0.13389379 -0.21098331 -0.078185111 -0.19305436 0.97612768 -0.099522449 0.24645744
0.18614233 -0.21553099 -0.075027928 -0.44175935 0.88889205 -0.1213242 0.11786254
0.19151184 -0.21189043 -0.07437931 -0.61152869 0.79110861 -0.013407686 0.16065694
-0.21202175 -0.20167163 -0.073183894 0.58845145 0.80196297 -0.10286014 0.13948314
-0.20336425 -0.2063403 -0.072738975 0.35550869 0.91368133 -0.19697733 0.18087076
0.14093551 -0.20853977 -0.072462961 -0.21143867 0.9561944 -0.20245007 0.21839345
0.1561197 -0.20327066 -0.074158445 -0.38312888 0.86972368 -0.31111586 0.25970784
0.1611771 -0.20116967 -0.071866751 -0.004059888 0.84589994 -0.53332621 0.26553142
0.19723874 -0.20800756 -0.073907249 -0.624888 0.7768026 0.078055903 0.23503093
-0.21749023 -0.19694093 -0.076129496 0.70399684 0.66150385 -0.2584593 0.17219712
-0.16196045 -0.19763242 -0.073930182 0.2531426 0.94565076 -0.20411645 0.24865733
-0.15858421 -0.19926915 -0.076620355 0.40658662 0.89994204 0.15745367 0.21324143
0.17435651 -0.19223399 -0.075385004 -0.43735623 0.89210933 -0.11340329 0.2245788
-0.23114276 -0.18513034 -0.074097157 0.79599094 0.59936059 0.084647894 0.23531868
-0.22955126 -0.18650714 -0.07669422 0.67125696 0.73070288 -0.12444882 0.19971858
-0.19476022 -0.18173215 -0.070154458 0.66231197 0.73949701 -0.12036201 0.22679031
-0.18003014 -0.18887281 -0.070047244 0.37713173 0.92611176 -0.0094121508 0.24616475
0.18701704 -0.18365014 -0.074790113 -0.74886072 0.51428998 0.41798732 0.22323686
0.22707447 -0.18777883 -0.074628055 -0.35134813 0.92789394 0.12476902 0.19366863
0.23141281 -0.18483745 -0.074080616 -0.63455391 0.76577467 -0.10454871 0.19545759
-0.24496996 -0.17316866 -0.07612782 0.64514959 0.75818294 -0.094554886 0.18578708
-0.20322299 -0.17504121 -0.076011613 0.38936663 0.89586955 0.21403605 0.21671852
0.19871765 -0.17571712 -0.076005608 -0.71025842 0.68011206 0.18160558 0.22306909
0.20375703 -0.17230041 -0.077675447 -0.5578329 0.76826847 -0.31398416 0.23799968
0.2508156 -0.17168225 -0.078121811 -0.77324873 0.63038242 -0.068589315 0.20437039
-0.25561357 -0.16396101 -0.074248187 0.58805734 0.79480046 0.14993557 0.26056892
-0.24966055 -0.16911088 -0.072403044 0.61481655 0.78717428 0.048551083 0.1370195
0.21251744 -0.16636083 -0.076777101 -0.58002836 0.77434963 -0.25288302 0.2556985
0.25471443 -0.1690124 -0.07964427 -0.79484183 0.60612845 -0.028893594 0.18948148
0.26031023 -0.16254389 -0.07445538 -0.64487624 0.67335308 0.36156628 0.24101645
-0.27011061 -0.15141986 -0.078410506 0.61938846 0.75161475 0.22678882 0.19672456
-0.26257467 -0.15793909 -0.07520318 0.57955897 0.81433731 0.031083778 0.26443288
-0.22531262 -0.15593177 -0.07537543 0.71781427 0.68574834 -0.12038202 0.17257228
0.22680221 -0.15667574 -0.075718559 -0.23344249 -0.086370513 0.96852714 0.23676448
0.23585221 -0.15053982 -0.07276541 -0.2363333 0.70003134 -0.6738714 0.22874886
0.26930827 -0.15214257 -0.07653828 -0.75300848 0.6574744 -0.02656322 0.24829602
-0.28143084 -0.14162692 -0.075821161 0.66270399 0.66430354 0.34572259 0.23614904
-0.27622452 -0.14613083 -0.074040785 0.71857768 0.64232498 0.26657984 0.13369432
0.23754767 -0.14927416 -0.07239867 0.049636662 0.68528986 -0.72657692 0.24998064
0.24279904 -0.14320378 -0.076572046 -0.65834421 0.75250822 -0.017727133 0.25733295
0.27771366 -0.14242634 -0.071443073 -0.78067058 0.54709953 -0.30205217 0.22363533
-0.28785998 -0.13520686 -0.074933305 0.75110251 0.54568887 0.37157604 0.26101783
-0.24707644 -0.13710418 -0.076174937 0.76194853 0.64737505 0.018439572 0.23898965
0.24686162 -0.1385076 -0.077484258 -0.69944191 0.71219409 0.059670214 0.19811079
0.28441519 -0.13467968 -0.076091796 -0.31038105 0.89704841 -0.31459144 0.23070729
-0.29322052 -0.12730052 -0.075286739 0.77462637 0.62674397 0.084534042 0.19371027
0.2557708 -0.12820897 -0.072081164 -0.72101659 0.61447531 -0.32024232 0.16221714
0.29220629 -0.1256735 -0.077700831 -0.296289 0.89974946 -0.32041192 0.19544899
-0.30134451 -0.11531826 -0.075870827 0.85310084 0.52124107 -0.02294958 0.16827779
-0.27200833 -0.1124398 -0.070677616 0.075933188 0.9738552 0.21410348 0.23543082
0.26805103 -0.11401346 -0.075501561 -0.7215848 0.68934232 -0.06420622 0.23715264
0.27076983 -0.11087063 -0.073809698 -0.47122085 0.87537318 -0.10804059 0.23061892
0.30205873 -0.11428452 -0.075001508 -0.78071839 0.61717963 0.097816333 0.19904317
-0.30914891 -0.10380744 -0.071175367 0.86897212 0.49374029 -0.033284903 0.18387927
-0.27951989 -0.10136087 -0.07769908 0.75585592 0.65373176 0.036284275 0.18724018
0.27459964 -0.10644355 -0.073659055 -0.7470423 0.59488183 -0.29672128 0.23490593
0.30900431 -0.10625574 -0.074718341 -0.80675125 0.51451063 0.29057062 0.17376086
-0.31608811 -0.093572699 -0.075732671 0.92393261 0.38231331 -0.013600801 0.18906736
-0.28178197 -0.09802448 -0.076793581 0.43116954 0.89433062 0.11943828 0.22474974
0.31537527 -0.098891184 -0.07405898 -0.95438957 0.29609412 0.038325291 0.22666417
-0.32387984 -0.082080543 -0.0736157 0.7390123 0.67364597 0.0078754239 0.166733
0.29116118 -0.087299064 -0.076303869 -0.79623604 0.47919723 0.36929438 0.2107956
-0.32979342 -0.073358476 -0.072331771 0.76420826 0.64194793 0.062357601 0.19043137
-0.29448923 -0.079282284 -0.072845533 0.88917631 0.45746437 0.0095818071 0.22168756
0.33054554 -0.071901299 -0.071256511 -0.9568572 -0.23234539 -0.17446996 0.24854092
-0.33532515 -0.065199591 -0.0778969 0.8948155 0.44620973 -0.014212005 0.16932404
-0.30141026 -0.069074377 -0.074162975 0.84405136 0.52422649 0.11297739 0.20532651
-0.34303704 -0.052703451 -0.073798291 0.87131065 0.49024376 0.021880398 0.12303736
0.30956209 -0.055819824 -0.074316278 -0.90215564 0.42532051 -0.072233289 0.18478663
0.3110944 -0.052658852 -0.076249942 -0.91679162 0.39894146 0.018407088 0.18235317
-0.34648898 -0.043266285 -0.076702669 0.90771759 0.41134727 0.082717799 0.10731454
-0.3175486 -0.044980194 -0.073594093 0.10750549 0.99184561 0.06844452 0.27691716
0.31411064 -0.046436906 -0.074236833 -0.91378903 0.37863663 -0.14705065 0.10379776
-0.34940881 -0.034852132 -0.075870931 0.96313608 0.24723379 0.10603886 0.16937009
0.31936073 -0.035606701 -0.074836299 -0.88335931 0.46174502 0.080423273 0.20235449
-0.35365182 -0.022624884 -0.075304121 0.83819455 0.11957987 -0.5321002 0.24657375
0.32629696 -0.021298395 -0.075826511 -0.88769209 0.46041915 0.0041084378 0.15525571
-0.32916901 -0.014184751 -0.079803191 0.97750986 -0.16155681 0.13555048 0.18404832
0.35731891 -0.01667187 -0.073278897 -0.92788255 0.30153653 0.21933913 0.22022372
-0.35887522 -0.007572392 -0.074162185 0.98172849 -0.1730406 0.0791585 0.25943318
-0.33204657 -0.0058923848 -0.076695338 0.97205007 0.1782746 0.15276411 0.19201921
0.33379847 -0.0058239624 -0.074856862 -0.85841048 0.51290089 0.0080066845 0.2153693
0.36379072 -0.0032483549 -0.07193397 -0.91218525 0.38964415 0.12686789 0.11515965
-0.33742321 0.0096017495 -0.079548679 0.96077341 0.27647254 0.021850837 0.14288938
0.33848995 0.0038538435 -0.071153142 -0.86854386 0.34133387 -0.3593365 0.21664561
0.36562449 0.0063080387 -0.074890986 -0.94714826 0.3186537 -0.037014227 0.21777287
-0.36699185 0.015817765 -0.075196728 0.89343649 0.38072047 0.23837619 0.16618855
-0.33819151 0.011815775 -0.074523479 0.74810511 0.44625828 0.49111325 0.24832153
0.36786547 0.017986368 -0.072232507 -0.97116816 -0.0090536876 -0.2382234 0.21137553
-0.37126723 0.028138403 -0.076830022 0.95090878 0.29096735 0.10540672 0.16654195
0.34259474 0.023710197 -0.078482091 -0.90221667 -0.27819893 -0.32956091 0.26156956
0.36988771 0.028524576 -0.074877188 -0.97807133 0.20611531 -0.029883655 0.17227149
-0.34519166 0.031988516 -0.079985797 0.83538187 0.51408261 0.19456679 0.20242488
0.34475061 0.034945015 -0.079267137 -0.83702344 -0.41307664 0.35883051 0.30805463
0.37024564 0.030390058 -0.076178357 -0.53964686 0.40122327 -0.74013585 0.24099736
-0.37541193 0.040161274 -0.076009005 0.99045521 0.1038737 -0.090601936 0.16807994
0.34727085 0.048078582 -0.077406719 -0.97298253 0.14983761 -0.17565227 0.23726641
0.37281233 0.043765761 -0.076339073 -0.80233681 0.52185655 -0.28969175 0.282469
-0.3761355 0.050164361 -0.075076818 0.98472124 0.094763748 -0.14609572 0.20967983
-0.35049149 0.054593258 -0.075760677 0.86875939 -0.3635357 -0.33630183 0.26857871
0.34816718 0.052749585 -0.072746783 -0.62182224 0.77153951 0.13440238 0.23560971
0.37414992 0.050736327 -0.07592573 -0.98951876 0.14197126 0.026397403 0.2541208
-0.3773686 0.06721098 -0.077167757 0.91565484 0.14507559 -0.3748723 0.23370594
-0.35120711 0.064485975 -0.074895538 0.91243356 -0.40157679 -0.078746215 0.21128711
0.35067716 0.065829575 -0.075839147 -0.96942425 0.24470493 -0.018333651 0.20077662
0.3774845 0.068113625 -0.075646251 -0.97996694 0.12580034 -0.15439871 0.18954027
-0.37824368 0.079308517 -0.076376475 0.99234951 0.05594052 -0.11005908 0.18786244
-0.35164344 0.070518553 -0.078352444 0.9842748 0.15582764 0.083192065 0.12568064
0.35165671 0.070934325 -0.070614465 -0.97180271 0.19286774 -0.13565248 0.12630479
0.37950498 0.078642733 -0.079652436 -0.99474466 0.043186419 -0.092833661 0.11885015
-0.37871456 0.085818522 -0.074925371 0.97857982 0.18799284 -0.083906509 0.16576275
-0.35237548 0.080638252 -0.077649847 0.99150199 -0.062061805 0.11433377 0.28119507
0.35507768 0.088761657 -0.074612997 -0.89482898 0.15283501 0.41943115 0.24604264
0.38054344 0.084054552 -0.071900174 -0.9970296 -0.053190883 -0.055702664 0.21453474
0.38242689 0.09761399 -0.074488059 -0.95018935 0.2665866 -0.16146784 0.1327159
-0.38039279 0.10901821 -0.078362018 0.99654222 0.049740855 0.066554479 0.05233822
-0.37990761 0.10231114 -0.072625048 0.99367636 0.10962192 -0.024294615 0.100898
0.38185909 0.10546322 -0.076421268 -0.98327279 -0.17656869 -0.04470028 0.18022802
-0.38050479 0.11056699 -0.075513065 0.99539739 0.095003821 -0.01257639 0.10407651
0.35547346 0.11128897 -0.079890072 -0.99775809 0.020386556 0.063743584 0.22527425
0.38120902 0.11445048 -0.07598646 -0.96889681 -0.1943263 0.15321989 0.20329098
0.35453141 0.12431213 -0.070693292 -0.96215636 -0.25038162 0.10753702 0.22728261
0.38079748 0.12013929 -0.071920387 -0.99039739 -0.11774486 -0.07245148 0.22109608
-0.38212106 0.13291043 -0.073493145 0.90785956 -0.20394014 0.36633232 0.23432414
-0.35621765 0.13375433 -0.074858226 0.70153141 -0.42141739 0.57468337 0.23683111
0.3535375 0.13805136 -0.071341187 -0.98793852 0.06757205 -0.13932498 0.17634438
0.37944865 0.13878597 -0.078755565 -0.91225016 -0.20748818 -0.35319728 0.20791923
-0.38182959 0.14399557 -0.075028047 0.94887495 0.27032831 0.16296922 0.23906198
-0.35567269 0.14288892 -0.079741701 0.37393779 -0.87401217 -0.31027919 0.24093542
0.3529726 0.14586075 -0.073046848 -0.9343881 0.118395 -0.33600816 0.23283826
0.37868249 0.14937757 -0.070591077 -0.96721596 0.17194192 0.18689369 0.17900814
-0.37978637 0.15464336 -0.07371448 0.97138011 -0.22812681 -0.06617292 0.25886446
-0.35332352 0.15513125 -0.074578166 0.93102413 -0.10087513 0.35073978 0.20017757
0.37857968 0.15079919 -0.076420993 -0.99139142 0.064015806 -0.11421462 0.16468892
-0.37777674 0.16511604 -0.072043903 0.9948712 -0.097155139 0.028145362 0.15594073
-0.35234076 0.16025253 -0.079358503 0.99306995 -0.024086431 0.11502945 0.2004393
0.3514007 0.16759071 -0.074264169 -0.96353877 -0.21006821 -0.16572383 0.24630186
0.37750944 0.16559421 -0.076082133 -0.98510152 -0.020304056 -0.17077127 0.2018778
-0.37543145 0.17733791 -0.076747879 0.99617642 0.012000071 0.086537227 0.19063035
-0.34874541 0.17898908 -0.07345061 0.9106127 -0.39188272 0.13119599 0.22385013
0.35076067 0.17643864 -0.070750348 -0.81162995 -0.51995766 0.26627207 0.28246859
0.37698874 0.17279242 -0.076426595 -0.99221992 0.06471546 -0.10635532 0.21448785
-0.37319839 0.18897501 -0.071324386 0.65382022 -0.75284499 -0.075786896 0.19491914
-0.34667563 0.18977526 -0.078864798 0.91420943 -0.39376357 0.09576688 0.19205309
0.34997109 0.18735375 -0.078609623 -0.28630897 -0.28831479 -0.91372961 0.29204455
0.37608784 0.18524709 -0.074659273 -0.9682743 -0.2190496 0.12025885 0.17942147
-0.37237683 0.1932563 -0.077101201 0.70540458 -0.66667229 -0.24073319 0.21142548
-0.34528831 0.19700506 -0.074446499 0.90719163 -0.41584814 -0.063825175 0.23586895
0.3755334 0.19291148 -0.072236702 -0.9924168 -0.087819599 0.08600308 0.19811307
0.34380201 0.20676893 -0.078560263 -0.91564202 -0.20996884 0.34280145 0.24021232
0.37041941 0.20905747 -0.076640725 -0.97905219 -0.19938844 -0.041243155 0.2069198
0.34025371 0.21699417 -0.070162669 -0.9388113 -0.33800119 0.066245228 0.13069238
0.36928824 0.21231724 -0.077327445 -0.94206733 -0.32091212 0.097593665 0.13980974
-0.33959323 0.22668391 -0.074669987 0.897762 0.41609597 0.14452533 0.2395546
0.33640873 0.22807458 -0.076105401 -0.92718738 -0.3558127 0.11713564 0.19358207
-0.33544922 0.23717143 -0.070761688 0.97371453 0.13922775 0.18026544 0.29355565
0.33495957 0.23225072 -0.074442551 -0.96266526 -0.27015522 -0.017079383 0.17506802
0.36031634 0.23817202 -0.071512006 -0.90753549 -0.35399282 -0.22598317 0.24374081
-0.36021346 0.24545345 -0.07816942 0.90431035 -0.4169946 -0.091314711 0.20758942
-0.35830939 0.24938126 -0.071683586 0.94873154 -0.30889958 -0.067004852 0.26350513
-0.33175293 0.24479626 -0.077481888 0.68920159 -0.53343391 -0.49035636 0.26548034
-0.32968974 0.24905232 -0.073277242 0.85054958 -0.48604655 -0.20080881 0.19880418
0.3302713 0.24576136 -0.077207774 -0.94573367 -0.32405677 0.023979552 0.25660315
0.35721409 0.24711189 -0.07440763 -0.89188951 0.38406888 0.23879769 0.2617425
-0.35498744 0.25623387 -0.078341469 0.79897368 -0.59539193 0.084553815 0.1951621
-0.32452247 0.25971159 -0.073712818 0.92429757 -0.37817279 0.051567417 0.071112402
0.32709932 0.25490221 -0.074642271 -0.96384335 -0.21849377 -0.15253374 0.16351278
0.35428074 0.25556508 -0.073626488 -0.040948056 -0.86020142 0.5083077 0.26317605
-0.32217982 0.26454404 -0.073598944 0.98635525 -0.16245511 0.026675345 0.20066692
0.32400358 0.26382342 -0.072006091 -0.98171651 -0.17656738 0.071110599 0.22629966
0.35121173 0.26440918 -0.077900544 -0.91884923 -0.31541553 -0.23712699 0.20071547
-0.31592762 0.27744147 -0.0760203 0.88693535 -0.37362286 0.27157256 0.2562184
0.34700617 0.27652854 -0.072198443 -0.99249685 0.026187368 0.11943287 0.19181788
-0.33998448 0.28718254 -0.076483876 0.9844386 0.10711417 -0.13930969 0.21220809
-0.31007519 0.28951398 -0.079392187 0.84942478 -0.52755201 0.012900229 0.17549463
0.31335127 0.28621528 -0.073340952 -0.94640934 -0.23945893 -0.21672311 0.18179613
0.34370345 0.28604621 -0.075275436 -0.94300741 -0.31007195 0.12079892 0.15191254
-0.33575827 0.29590046 -0.071795449 0.97870374 -0.1328761 -0.15646978 0.20681119
0.30555734 0.29771063 -0.073035851 -0.74741495 -0.509628 -0.42620435 0.20924868
0.33726689 0.29708838 -0.073425792 -0.85233748 -0.52195078 0.032985717 0.10678981
-0.33106109 0.30558997 -0.075796381 0.78185213 -0.62335503 0.011651363 0.21330377
-0.30125788 0.30770266 -0.075235903 0.034993939 -0.64758235 -0.76119155 0.29337817
0.30206594 0.30286014 -0.074514985 -0.82217413 -0.34575284 -0.45219988 0.19240998
0.33518636 0.30015698 -0.073616564 -0.70161688 -0.71105993 -0.046124522 0.12327278
-0.32469743 0.31871718 -0.075494483 0.78117937 -0.61692113 0.095745385 0.20806162
-0.30001554 0.31026554 -0.078243241 0.89279741 -0.4353058 0.11585222 0.26986343
0.29232943 0.31722066 -0.073368922 -0.75577939 -0.54821199 -0.35813573 0.22792435
0.32429042 0.31622773 -0.073890522 -0.66699672 -0.22345401 -0.71076274 0.20280297
0.28505233 0.3279537 -0.077446729 -0.053614732 -0.99525505 0.081197016 0.20946485
0.31817478 0.32524779 -0.079951674 -0.86105466 -0.49960011 -0.094786622 0.14938074
-0.31696427 0.33180672 -0.072798625 0.86306375 -0.49994856 0.071919374 0.12199687
-0.28333154 0.33110237 -0.079376727 0.82827199 -0.56013882 -0.014492826 0.17383192
-0.2756823 0.33994454 -0.071278498 0.77406287 -0.57331544 -0.26858142 0.21379431
0.28156564 0.33309627 -0.073391244 -0.77380735 -0.63251162 -0.033929318 0.244633
-0.30497199 0.34566921 -0.074863695 0.83624709 0.1505422 0.52728337 0.24233399
0.27312741 0.34554192 -0.075169489 -0.80471641 -0.5919072 -0.045577634 0.2417914
0.30344379 0.34697494 -0.074089564 -0.91586858 -0.4010717 -0.018059002 0.24935676
-0.26610416 0.35101646 -0.076039553 0.85478961 -0.15470813 0.49537873 0.23845571
0.26506543 0.35629475 -0.075374633 -0.71562737 -0.68948168 -0.11177037 0.20641717
0.29796189 0.35506034 -0.079701856 -0.85232741 -0.52187401 0.034432992 0.21947813
-0.29024315 0.36269513 -0.07338877 0.83091259 -0.55595154 0.022410525 0.1727736
-0.28731182 0.36608362 -0.07605622 0.74732423 -0.66432178 -0.013532414 0.14905269
-0.25351763 0.36556587 -0.077336937 0.5324145 -0.70026577 0.47556552 0.28037012
0.25464666 0.3653079 -0.078164443 -0.84050196 -0.53156215 0.10487164 0.23444539
0.29407775 0.36078918 -0.077498615 -0.70896703 -0.70042962 -0.082243845 0.18017273
-0.28115064 0.37320566 -0.072018117 0.78204346 -0.622558 -0.028801901 0.20879987
-0.27827048 0.37653494 -0.078131877 0.77870005 -0.612593 0.13548438 0.24563681
-0.24555451 0.37477088 -0.075919069 0.088682257 -0.78578508 0.61210889 0.26635486
0.24885741 0.37031612 -0.07307376 -0.63271916 -0.77180618 -0.063101761 0.25041693
0.28338003 0.37469357 -0.074434139 -0.71346366 -0.69951391 0.040618658 0.095060751
-0.27144262 0.38442767 -0.076079041 0.79535198 -0.60499281 0.037402783 0.1823166
-0.26679593 0.38979906 -0.07238517 0.64170641 -0.76595455 -0.039070126 0.18395443
-0.2376276 0.38393399 -0.072477669 -0.1499368 -0.94531125 -0.28966466 0.24078645
-0.22952682 0.38958088 -0.079061687 0.97442818 0.17612156 -0.13953806 0.22703917
0.22800267 0.38835728 -0.077869326 -0.61513793 -0.78836924 0.0089059835 0.099696539
0.26847935 0.38758391 -0.076443806 -0.66072756 -0.72862577 -0.18039832 0.17972282
0.27250612 0.38410041 -0.075154729 -0.8637802 -0.32734773 -0.38304994 0.23895279
-0.2623834 0.39489973 -0.079760894 0.65005827 -0.75892407 0.038192224 0.15517581
0.21466842 0.39989257 -0.072247773 -0.76985317 -0.63279045 -0.08308021 0.18676907
0.26244602 0.39280319 -0.07532724 -0.54087514 -0.8175987 -0.19745027 0.24666156
-0.25171322 0.40582609 -0.072664529 0.63442612 -0.76879478 0.080361918 0.16219281
-0.2485382 0.40797877 -0.076952517 0.65450126 -0.75528353 0.034277197 0.14837044
-0.23898321 0.41445708 -0.079560041 0.59520453 -0.80012691 0.074353404 0.19548434
-0.19760373 0.41122475 -0.071142212 0.067371972 -0.96549183 0.25156832 0.25471771
0.19564424 0.41590524 -0.075543575 -0.55475587 -0.80927271 0.19319303 0.27953398
-0.22959965 0.42081916 -0.070693642 0.63040966 -0.75200909 -0.19252521 0.16851157
-0.21998084 0.42734078 -0.073802918 0.56806982 -0.79278415 -0.22088432 0.16006523
-0.18188301 0.42188343 -0.071804509 0.94695741 -0.31871277 0.041157942 0.22873637
0.18319049 0.42209345 -0.076214612 -0.23894098 -0.8532688 0.46350777 0.28403205
0.22220087 0.42761868 -0.0780451 -0.32881907 -0.86861682 0.37065184 0.25410333
-0.21235183 0.43251327 -0.079541445 0.54963005 -0.8350296 -0.025146201 0.18254346
-0.16706741 0.43192843 -0.077716582 0.21758784 -0.97168612 0.09209501 0.21330054
-0.15575455 0.43814987 -0.073768571 0.99743605 0.010852505 -0.07073614 0.23283388
0.1569801 0.43479943 -0.075435095 -0.33493039 -0.84589249 -0.41507539 0.21705046
0.16447042 0.43116832 -0.074620984 -0.44130066 -0.79012901 -0.42538196 0.19849283
0.21297991 0.4355956 -0.078334779 -0.64668816 -0.75764322 0.088154458 0.18623729
-0.1972243 0.44276977 -0.07346312 0.5411911 -0.80593163 -0.23997183 0.14916566
-0.1872279 0.44954741 -0.076164156 0.50713509 -0.86037385 0.050703295 0.15601726
-0.14371102 0.44232914 -0.073866114 -0.017391047 -0.99845064 -0.052857697 0.22935103
-0.12540707 0.44868085 -0.075124942 0.93340671 -0.35881814 -0.0012113047 0.24975544
0.128324 0.44869098 -0.074124396 -0.19582291 -0.98061818 0.0064259949 0.19361021
0.13369633 0.44608667 -0.07481093 -0.38626319 -0.92080081 0.054097638 0.23498352
0.14187688 0.44212097 -0.070058495 -0.52342099 -0.52756649 -0.6691069 0.22925568
0.18947873 0.4478243 -0.070561171 -0.38957644 -0.78285611 -0.48514596 0.19050495
0.1929245 0.44615388 -0.076051265 -0.40532219 -0.88300222 -0.2366876 0.176342
0.2001918 0.44263095 -0.074850515 -0.66048658 -0.52073741 0.54091591 0.21895072
-0.11494477 0.45231137 -0.072672121 -0.87501031 -0.48265848 0.03738644 0.29985255
-0.10516299 0.45570582 -0.077556998 0.3785165 -0.92239892 -0.076847158 0.23515348
0.10578219 0.45764601 -0.070755392 0.12190183 -0.92471522 -0.36061296 0.19126756
0.11222902 0.45640892 -0.076675221 -0.19025783 -0.97858709 -0.078544073 0.26733637
0.16530152 0.4595446 -0.07286945 -0.43112618 -0.89393067 -0.12254883 0.18923539
0.17999896 0.45241976 -0.078208625 -0.26044166 -0.95175904 0.16224945 0.21196111
-0.16127443 0.46364605 -0.075779498 0.36244455 -0.93199092 0.0051922877 0.20167425
-0.15421787 0.46609476 -0.075952709 0.28584507 -0.90781057 0.30687559 0.24596925
-0.14360806 0.46977651 -0.075590819 0.35992217 -0.89322084 -0.26946706 0.26471701
-0.09234269 0.46015459 -0.074465148 0.50951046 -0.65344125 -0.55983359 0.24532998
-0.086274713 0.46226025 -0.075797051 -0.73686606 -0.67547321 -0.027647888 0.23459959
-0.054988619 0.46843171 -0.076673642 0.21183404 -0.69330788 0.68880367 0.20102616
-0.043139085 0.46928886 -0.076325446 -0.24069482 -0.90119082 0.36044586 0.17337239
0.044005286 0.46950054 -0.076372549 -0.71917522 -0.55025434 -0.42427233 0.1931615
0.050626718 0.46822995 -0.070109546 -0.42967558 -0.90271914 0.021838997 0.21849516
0.075006999 0.46355158 -0.072188437 -0.11632779 -0.99149305 -0.058390446 0.17771541
0.083662681 0.46189058 -0.077238619 -0.19780378 -0.98023605 -0.0033153533 0.12816161
0.093083918 0.46008274 -0.077050865 -0.06941472 -0.99758047 0.0038445683 0.16448201
0.14957923 0.4671663 -0.07761088 -0.57163429 -0.7851156 -0.23838566 0.2265933
0.16006795 0.46208167 -0.07604453 -0.47059536 -0.88234758 -0.0016625834 0.20957924
-0.13591003 0.47244778 -0.071131706 -0.010170212 -0.98741043 -0.15785165 0.24470046
-0.12423712 0.47649845 -0.076032758 0.51963156 -0.85439026 0.00051792967 0.24663657
-0.030984351 0.47016808 -0.079215601 0.035305455 -0.99793279 -0.053699285 0.19447006
-0.027961805 0.47038671 -0.07114014 0.053859871 -0.99230337 0.11150423 0.20874214
-0.014992304 0.47132492 -0.075753346 0.10597934 -0.99328256 0.046455905 0.2203228
0.0033262037 0.47264999 -0.076826751 -0.083686456 -0.98784518 0.13099031 0.20828643
0.12481409 0.4791716 -0.077448823 0.098320648 -0.9835338 -0.15163869 0.18420118
0.13697618 0.47327584 -0.075348273 -0.36763835 -0.92327315 -0.11139453 0.1615198
-0.11032802 0.48132503 -0.074598745 0.30857226 -0.94963056 -0.054634638 0.17417142
-0.097826466 0.48566326 -0.075841799 0.29399329 -0.92060602 -0.25700697 0.19112167
-0.086955972 0.48943543 -0.078944027 0.28540769 -0.95502484 -0.080436058 0.15175858
0.095377713 0.48601174 -0.077817805 -0.88872623 -0.28058845 -0.36254078 0.22578767
0.10525147 0.48411703 -0.076234758 -0.25563663 -0.85719812 -0.4470585 0.2357143
-0.075672328 0.49278879 -0.076117396 0.14249834 -0.98207378 -0.12339105 0.10799695
-0.058055364 0.49417418 -0.073423505 -0.12171239 -0.97882944 0.16455677 0.18501987
-0.049062148 0.49482477 -0.071502805 0.078609206 -0.99432224 0.071720563 0.17203756
-0.026101224 0.49648565 -0.075343825 -0.51551622 -0.78746724 0.33784375 0.2678408
-0.011852392 0.49751636 -0.072451413 -0.34723678 -0.93632615 0.052154034 0.26424685
-0.0087334318 0.497742 -0.073902756 -0.0031118351 -0.44585857 0.89509803 0.23845534
0.0076437215 0.49892664 -0.07565131 0.013305264 -0.99364072 -0.11180891 0.21888377
0.018133057 0.49968544 -0.079431266 0.006454214 -0.99938869 0.034359928 0.083677046
0.02696681 0.49913934 -0.072502613 -0.076048017 -0.98320168 -0.16592541 0.11123554
0.038158722 0.49699166 -0.078503817 -0.26256651 -0.95494431 -0.13834833 0.12221456
0.048813332 0.49494714 -0.079713985 -0.294379 -0.94214809 -0.16030596 0.17869745
0.052313428 0.49427551 -0.073845416 -0.013604312 -0.98751903 -0.15691093 0.21782297
0.063697562 0.49209094 -0.074087411 -0.25044918 -0.94823861 -0.19524023 0.19357224
0.073267885 0.49025446 -0.07657215 -0.52257198 -0.85232681 0.021389216 0.23138668
-0.012078315 -0.49778587 -0.063941374 -1.1988382e-06 1 -1.5591331e-05 0
-0.0041562654 -0.4977859 -0.066328585 -0 1 -0 8.0014062e-05
0.0037263199 -0.49778587 -0.063306727 1.1777612e-06 1 -1.6332033e-05 0.00015885757
0.014664826 -0.4977859 -0.065643124 -0.13576153 0.99073184 -0.0043874723 0.025036601
0.024747163 -0.4977859 -0.067181326 -0.33739093 0.94037539 -0.043146025 0.066129766
0.034605406 -0.48354656 -0.062138356 -0.98974699 0.11428472 0.085673697 0.13254423
0.034605406 -0.47462955 -0.062197287 0.9472928 0.32001907 0.014975904 0.10843818
-0.014988795 -0.46543637 -0.065019637 0.046021286 0.97547448 0.21524785 0.0088906325
-0.0038907949 -0.46556693 -0.064027935 0.031543296 0.98548603 0.16680008 0.010362905
0.011602762 -0.46516049 -0.06711515 0.1428172 0.93899381 0.31287977 0.033912752
0.025820175 -0.4652558 -0.066391319 0.45301807 0.86109149 0.23085932 0.080014139
-0.025224911 -0.26472092 -0.062231749 -0.046445213 0.99855387 0.027073666 0.16613357
-0.012141686 -0.26449943 -0.065873526 -0.020837951 0.99925911 -0.032356113 0.18518415
-0.0025305594 -0.2638042 -0.06496872 -0.13362665 0.98759156 -0.082503691 0.1722225
0.02618262 -0.26172718 -0.064452097 -0.13253394 0.99097663 0.020001069 0.13123223
0.03646823 -0.26098317 -0.0620085 0.032960355 0.98915225 0.14314795 0.16675182
0.048757222 -0.2600942 -0.068965733 0.11416397 0.97678554 0.18126433 0.15475589
-0.095606834 -0.2512151 -0.063609913 0.24022265 0.95564067 -0.17042254 0.15481132
-0.084764637 -0.25329566 -0.065074027 0.0096643865 0.99991727 0.0084875999 0.18120883
-0.078029267 -0.2545881 -0.065092213 -0.037429545 0.99805069 0.049939707 0.22075567
-0.062995002 -0.25747308 -0.066895857 0.14161851 0.98478526 0.10070905 0.15416801
-0.055315696 -0.25894672 -0.062817439 0.35704285 0.92802894 0.10621991 0.20208533
-0.013569471 -0.25440097 -0.062657878 -0.18624665 0.95253831 -0.24079654 0.22773266
-0.0050005736 -0.25440097 -0.063984111 -0.20298308 0.90220535 -0.38055667 0.23443803
0.0059355218 -0.25440097 -0.068266973 -0.26995954 0.95589703 -0.11568355 0.19289799
0.014493803 -0.25440097 -0.067014635 -0.19529319 0.97580785 -0.098283611 0.176934
0.022925926 -0.25440097 -0.060057893 -0.060015682 0.99737906 -0.04041075 0.18025205
0.031181984 -0.25440097 -0.06718906 0.51433957 0.84774917 -0.12952316 0.21292885
0.07998839 -0.2571007 -0.060453296 -0.15243259 0.97135216 0.18231654 0.19704509
0.099433839 -0.25035292 -0.065403633 -0.1661545 0.95276666 0.25422108 0.15112166
-0.12873478 -0.24251823 -0.064880162 0.11899953 0.89920783 -0.42102781 0.23955414
-0.11277656 -0.24792036 -0.065040953 0.38409051 0.90408021 -0.18738562 0.18414107
-0.10589813 -0.24924028 -0.068261877 0.30231184 0.93414021 -0.18970937 0.14741643
0.03460541 -0.24402858 -0.0637201 0.2202348 0.97423923 -0.048522584 0.23648146
0.1084298 -0.24723122 -0.067279696 -0.53080386 0.81155193 -0.24419419 0.19875179
0.11745062 -0.2441009 -0.067723557 -0.39050648 0.71627766 -0.57831746 0.23448466
0.12314294 -0.2421256 -0.065272219 -0.49669009 0.76998472 -0.40052775 0.26733756
-0.15122885 -0.23161386 -0.063623965 0.52356464 0.79796004 -0.29856265 0.18708606
-0.14849964 -0.23293689 -0.061904758 0.25729746 0.76878208 -0.58546752 0.2180544
-0.13802385 -0.2380152 -0.067380548 0.36967787 0.92650372 -0.070208363 0.17292294
-0.061185606 -0.23145115 -0.06463255 -0.0765334 0.96133858 0.26451993 0.23849699
-0.044406939 -0.23467085 -0.063760959 -0.019264819 0.99771762 0.064717464 0.19981465
-0.031750508 -0.23709954 -0.064497828 0.32562658 0.90790457 0.26396334 0.20733196
-0.024436507 -0.23850304 -0.064599484 0.47914886 0.85608965 0.19371851 0.25100332
-0.0043165246 -0.23796904 -0.066606879 -0.36565021 0.91502702 -0.17036863 0.22441839
0.0062559 -0.23720425 -0.062851004 -0.2595365 0.92320418 -0.28343433 0.17417757
0.015820602 -0.23651236 -0.066371545 -0.051983543 0.99583465 -0.07490664 0.19038679
0.025164159 -0.23583649 -0.065218225 0.29004401 0.95463943 -0.067364186 0.20315894
0.044109713 -0.23446603 -0.067107156 -0.21361679 0.97685671 -0.010897391 0.20536299
0.066110164 -0.23287457 -0.0653653 0.24986449 0.94521934 0.21006678 0.18691851
0.074924327 -0.2314464 -0.067068085 0.2869705 0.85899252 0.42400464 0.20859453
0.13815078 -0.2369177 -0.062065467 -0.26486591 0.96078962 -0.082033016 0.20070325
0.14309767 -0.23520106 -0.068603575 -0.30413124 0.91325343 0.27105796 0.19345303
0.1550981 -0.2310368 -0.066365987 -0.56483829 0.82003415 -0.092204228 0.21234922
-0.16073045 -0.22700778 -0.067147732 0.52294314 0.83223754 0.18414967 0.24236651
-0.15883723 -0.22792554 -0.062604651 0.5581094 0.82960457 0.016438266 0.23103744
-0.10496572 -0.22305004 -0.063081197 0.64170563 0.75143731 0.15347929 0.23709959
-0.097623542 -0.22445896 -0.060929775 0.18111573 0.96243352 -0.2022839 0.24875553
-0.083544672 -0.2271606 -0.064509049 0.59251493 0.56586719 0.57334137 0.25249785
-0.073063537 -0.22917186 -0.064407662 0.031994488 0.7885505 0.61413723 0.27286431
0.082314983 -0.22888176 -0.066539109 -0.32948449 0.3599872 0.87283975 0.22155112
0.10507435 -0.22098401 -0.062977672 -0.15097241 0.90751261 -0.39195442 0.24562009
0.16471623 -0.22769919 -0.067411169 -0.66502935 0.66154832 -0.34653971 0.22776683
0.17520148 -0.22294891 -0.063516155 -0.32634619 0.92697358 -0.18498145 0.2283441
-0.19574058 -0.21003601 -0.06900689 0.54037243 0.84123969 -0.017706539 0.19379805
-0.18552691 -0.21498725 -0.067882642 0.34454802 0.93806654 0.036301963 0.20818371
-0.1167164 -0.21956529 -0.061972499 0.5740217 0.70550215 -0.41565102 0.26538077
0.11281575 -0.21829763 -0.069215149 -0.77860665 0.47825211 -0.40625915 0.20330481
0.12207991 -0.21508288 -0.064381003 -0.2825869 0.93765426 -0.20235914 0.23454061
0.18186942 -0.21842802 -0.060619712 -0.41283801 0.90467936 -0.10545131 0.19446005
-0.1506951 -0.20309351 -0.068095431 0.66681814 0.7448408 -0.023786996 0.18245478
