# .PCD v0.7 - Point Cloud Data file format
VERSION 0.7
FIELDS x y z normal_x normal_y normal_z curvature
SIZE 4 4 4 4 4 4 4
TYPE F F F F F F F
COUNT 1 1 1 1 1 1 1
WIDTH 581
HEIGHT 1
VIEWPOINT 0 0 0 1 0 0 0
POINTS 581
DATA ascii
-0.30771202 -0.0385378 -0.10589319 0.92081547 0.3899985 -2.7157663e-05 5.3473897e-05
0.31018925 -0.032557387 -0.10587941 -0.92386973 0.382707 1.2696064e-05 0
-0.3529073 -0.029072218 -0.10903635 0.92387193 0.38270181 -1.3245604e-05 3.464214e-05
0.35571107 -0.022303259 -0.10002369 -0.92387998 0.38268247 1.2314221e-05 0
0.36007065 -0.011778259 -0.1007787 -0.92386734 0.38271278 -2.6059748e-05 4.9414473e-05
-0.3629823 -0.0047488119 -0.10962805 0.92387575 0.38269252 -4.7030107e-06 1.6083888e-05
-0.32283986 -0.002016353 -0.10064036 0.92388028 0.3826817 9.1924685e-06 0
-0.31976619 -0.0094367787 -0.10460573 0.92387784 0.38268748 7.122193e-06 0
0.36297596 -0.0047641285 -0.10880263 -0.92386049 0.38272944 6.0401003e-06 4.729634e-05
-0.36533445 0.00092977751 -0.10286756 0.93972784 0.34161991 -0.014405257 0.0011082634
-0.32613942 0.0059493817 -0.1038243 0.92387348 0.38269812 -1.0419136e-06 1.241025e-05
0.32439002 0.0017259978 -0.10776543 -0.92405981 0.38224781 -0.00023594068 0
-0.37112939 0.014920124 -0.10673377 0.9672991 0.25363034 0.0020201004 0.0028818925
-0.32968992 0.014521008 -0.10098454 0.94016451 0.3407208 0.00021788148 0.0010153316
-0.37318495 0.02856203 -0.10925589 0.9844265 0.17578754 0.0017777497 0.0015120024
0.33339339 0.023644913 -0.10339741 -0.95177996 0.30671316 0.0064802566 0.001931438
-0.3747856 0.040720623 -0.10629246 0.99088067 0.13474257 -5.29624e-07 4.6908008e-05
0.33666605 0.043317012 -0.105763 -0.98798651 0.1543352 0.0079626394 0.00023858565
-0.37730828 0.059882961 -0.10837047 0.9914428 0.13054226 -2.69517e-05 4.4843069e-05
0.33855107 0.057635218 -0.10670488 -0.99144566 0.1305203 -3.4514589e-05 0
0.37695083 0.057167932 -0.10655314 -0.99143749 0.13058206 -2.1736059e-05 9.0426329e-05
-0.37907076 0.073270902 -0.10643595 0.99145001 0.13048714 3.6099904e-05 0
0.3413285 0.078731902 -0.1017684 -0.99144149 0.13055156 -1.0569145e-06 1.8632085e-05
0.37931976 0.075162165 -0.10389797 -0.99144059 0.13055857 -3.2368665e-05 8.717212e-05
-0.38064966 0.085264154 -0.10342885 0.99144942 0.13049193 -7.9486472e-06 0
0.34207875 0.084430158 -0.10100688 -0.99144024 0.13056144 1.5911857e-05 2.9497396e-06
0.38115481 0.089101382 -0.1073239 -0.99144393 0.13053335 -4.2672211e-05 9.572158e-06
-0.38194698 0.095118672 -0.10335154 0.99317414 0.11655882 0.0043868767 0.00014906903
-0.34304434 0.091764629 -0.10917488 0.99383682 0.11083462 -0.0019959842 0.00020058443
0.34384638 0.097856984 -0.10178745 -0.99345028 0.11421141 -0.0035136847 0.00010140853
0.3818537 0.094409928 -0.10711869 -0.99360466 0.11290245 0.0016798419 0.00051675743
-0.38388008 0.10980257 -0.1024287 0.99945229 0.032838136 0.0040966859 0.0028125921
-0.34464926 0.10395513 -0.10205825 0.99785709 0.06522195 -0.0052333246 0.00095047813
0.3444722 0.10261042 -0.10483868 -0.99717671 0.075058348 -0.0022232216 0.0013440434
0.38345975 0.10660936 -0.10114115 -0.99834383 0.055255055 -0.016014254 0.0018566028
-0.38430354 0.11747736 -0.10318592 0.99975014 -0.021927916 -0.0043425439 0.0029678401
-0.34554851 0.11998396 -0.10211093 0.9994874 -0.024002718 -0.02118301 0.0018099453
0.34560931 0.11465724 -0.10430719 -0.99993342 -0.0097194957 0.0062176404 0.0017234818
0.3444134 0.12860584 -0.10502177 -0.99667847 -0.081317708 0.0044127395 0.00086305081
0.38349861 0.12386498 -0.10835023 -0.99896669 -0.044218075 0.010505503 0.0019093256
-0.38144186 0.13948807 -0.10438471 0.99264336 -0.12105914 0.0019925567 0.00023362777
-0.34310839 0.13851851 -0.10475086 0.99143803 -0.13057779 1.8686253e-05 0
0.34283102 0.14062543 -0.10973486 -0.99201268 -0.12613809 0.0001945871 0
0.38036335 0.14768028 -0.10852519 -0.99144524 -0.13052362 5.2336623e-06 0
-0.37945467 0.15458265 -0.1061925 0.99144512 -0.13052437 3.0517989e-05 0
-0.34144178 0.15117744 -0.10220765 0.99144304 -0.13054007 -9.8080536e-06 5.434599e-05
-0.37812412 0.16468945 -0.10726348 0.99144298 -0.13054033 1.1286839e-05 0
-0.34000885 0.16206177 -0.10103039 0.99144894 -0.13049528 -5.6064828e-06 0
-0.3397907 0.16371846 -0.10339724 0.99144405 -0.13053207 6.4727915e-06 0
0.33912015 0.16881195 -0.10332139 -0.99144715 -0.13050874 2.1190481e-06 3.3410011e-05
0.33837768 0.17445137 -0.10276243 -0.99144459 -0.13052818 4.9568421e-06 5.7581539e-05
0.37675488 0.17509025 -0.1089243 -0.99143863 -0.1305733 1.8334596e-05 0
-0.33762789 0.18014659 -0.10375008 0.98952627 -0.14434417 -0.0015974878 0.00011341499
0.3368113 0.18634892 -0.10845454 -0.99071449 -0.13595884 6.4404521e-05 5.5577406e-05
0.37575907 0.18265399 -0.10809013 -0.99144089 -0.13055648 -1.1550454e-05 0.00011349146
-0.37464935 0.19108352 -0.10314421 0.99055004 -0.13715136 -0.00040063672 0.00011509251
-0.33602917 0.19228987 -0.10375589 0.98371142 -0.17908725 -0.015478223 0.001215382
0.33624643 0.19063967 -0.10706787 -0.99017882 -0.13979815 0.0015622003 6.1557999e-05
-0.37266955 0.20612222 -0.10612638 0.97976232 -0.20001383 0.0077638947 0.0021478147
-0.33272421 0.20892268 -0.10216019 0.96494365 -0.26174465 -0.019325303 0.0019489988
0.33483756 0.20134091 -0.10744108 -0.97739333 -0.20965838 -0.027307771 0.0023213299
0.37247777 0.20757882 -0.10410009 -0.98096842 -0.19409466 0.0053199846 0.0020275973
-0.37155098 0.21461868 -0.1040335 0.96558487 -0.26008812 0.0003554135 0.0027795017
-0.3699457 0.21870656 -0.108395 0.95722806 -0.28930095 -0.0044104625 0.0030774593
-0.33221838 0.21014392 -0.10865712 0.94933182 -0.31398168 -0.013586692 0.0021025108
-0.32930654 0.21717374 -0.10416579 0.94459856 -0.32796955 -0.013018614 0.0014779132
0.37169042 0.21355951 -0.10803022 -0.97900224 -0.20366994 -0.0085590621 0.0019293454
-0.36680686 0.22628453 -0.10262764 0.93609321 -0.35175163 0.00047263654 0.00071797892
-0.36227188 0.23723295 -0.10398179 0.92594099 -0.37766227 0.0020927009 3.6788992e-05
-0.32103354 0.23714654 -0.10583686 0.92390573 -0.38262013 -3.4619192e-05 0
0.36484379 0.23102379 -0.10069911 -0.93474752 -0.35526985 0.0055074482 0.00037930609
-0.36098894 0.2403302 -0.1044419 0.92426002 -0.38176343 -0.00026295063 0
-0.35737842 0.24904683 -0.10638919 0.92386347 -0.38272217 9.3781482e-06 0
-0.31714743 0.24652839 -0.10686459 0.92387736 -0.38268876 -3.5365163e-05 3.5603352e-05
0.31572646 0.24995895 -0.10159868 -0.92386317 -0.38272303 -1.9961144e-06 0
0.35775128 0.24814671 -0.10024472 -0.92381811 -0.38283184 -1.3937332e-05 0
-0.35485685 0.25513461 -0.10656212 0.92385304 -0.38274732 -1.5082306e-05 0
-0.3127923 0.25704268 -0.10884713 0.92391056 -0.3826085 -2.9017687e-05 0
0.31477678 0.25225168 -0.10704175 -0.92386281 -0.38272375 -2.0675488e-05 5.2684223e-05
0.35652187 0.25111485 -0.10103013 -0.9238019 -0.38287085 -1.7780381e-05 0
-0.35047415 0.26571539 -0.10733053 0.92388409 -0.38267216 -1.1908925e-05 0
-0.30879074 0.26670325 -0.10579301 0.92079246 -0.39003134 0.0040870514 0.00016650472
0.30962157 0.26469752 -0.10567187 -0.9219377 -0.38733053 -0.0024322243 3.6887228e-05
0.31077003 0.26192483 -0.10740265 -0.92356294 -0.38344684 -1.0344483e-05 0
0.35275069 0.26021928 -0.10098743 -0.92385411 -0.38274479 -2.1111948e-06 0
-0.3476555 0.27252021 -0.10882209 0.92390507 -0.38262174 -4.2739077e-05 5.7738711e-05
-0.30677542 0.27156878 -0.10452923 0.91668636 -0.39960212 0.0020812391 0.00020229717
0.30442119 0.27725244 -0.10812905 -0.91602069 -0.40111348 0.0037481561 0.00035652303
-0.34307972 0.28356728 -0.10810401 0.92389089 -0.38265592 6.5314462e-06 3.2762233e-05
0.30117747 0.28508338 -0.10606249 -0.88367623 -0.4674477 -0.024676038 0.0026803121
-0.33969945 0.29172802 -0.10575521 0.91115201 -0.41198137 0.0085643018 0.00050750864
0.29825237 0.29045025 -0.1003206 -0.86185598 -0.50670779 -0.021248238 0.0031878876
0.28613797 0.30623794 -0.10302842 -0.79722238 -0.60368323 0.0017546501 6.0091559e-05
-0.32716528 0.31540933 -0.10683192 0.84004718 -0.542512 0.0012052065 0.0012955711
0.27780661 0.31709555 -0.10352715 -0.79317582 -0.6089927 -6.8355752e-05 0
0.32953158 0.31232551 -0.10459419 -0.84461498 -0.53536999 -0.0021184736 0.0016467699
0.33083802 0.3106229 -0.10536914 -0.8515712 -0.52422166 0.0042522545 0.0018642745
-0.3219023 0.32226813 -0.10136224 0.80634922 -0.59143078 -0.0032594602 0.00046830511
-0.27554449 0.32004356 -0.10210218 0.79335147 -0.60876381 -1.7746826e-05 5.5779768e-05
-0.26948908 0.3279351 -0.10401584 0.79340607 -0.60869277 -5.6977348e-07 3.2071144e-05
0.31821734 0.32707047 -0.10303049 -0.79621023 -0.60501468 -0.0025481479 8.7249449e-05
-0.26567793 0.33290184 -0.10646266 0.79330599 -0.608823 3.9766903e-05 0
0.26589641 0.3326171 -0.10543398 -0.79337001 -0.60873967 -2.4432961e-07 0
0.30987719 0.33793962 -0.1022521 -0.79330355 -0.6088264 -1.9012332e-05 4.8715552e-05
-0.3073996 0.34116846 -0.10693339 0.79324996 -0.60889614 3.4900775e-06 0
0.2549786 0.34684539 -0.10655504 -0.7710765 -0.63670975 0.006460641 0.0010107474
0.30566502 0.34342897 -0.10411973 -0.79324138 -0.60890734 -1.809565e-05 0
-0.25105095 0.35196397 -0.10707214 0.76136911 -0.64831716 0.0013861058 0.001198187
0.25035098 0.35287616 -0.10370153 -0.73633832 -0.67633504 0.019413011 0.0016753871
0.30046666 0.35020363 -0.10305478 -0.7933507 -0.60876483 -2.4394931e-05 6.4254338e-05
-0.2871272 0.36758798 -0.1031516 0.79182583 -0.61074567 -0.0012614031 4.8033191e-05
-0.24430254 0.36050919 -0.10486364 0.69241601 -0.72140408 -0.011667954 0.001984586
0.2342965 0.36818713 -0.10678591 -0.65397036 -0.7565186 -0.0015340282 0.0011027592
0.24153686 0.36263138 -0.10232408 -0.69203961 -0.72185361 -0.0029174904 0.0012980036
0.29141569 0.36199909 -0.10064583 -0.79331446 -0.60881215 7.5435478e-06 6.2434352e-05
-0.22706899 0.37373304 -0.1051827 0.6154108 -0.78820187 0.0026988343 0.00011455793
0.2242718 0.37587947 -0.10313143 -0.60876358 -0.79335165 -6.8633126e-06 2.6879015e-06
0.27948308 0.37754998 -0.10031158 -0.77256626 -0.63493341 -0.00099209731 0.00066300191
0.28303447 0.37292168 -0.10837073 -0.77617788 -0.63048387 -0.0061487672 0.00068338861
-0.27166712 0.38757682 -0.10036689 0.69271904 -0.72118616 -0.0055531533 0.0024320639
0.2176747 0.38094163 -0.10427944 -0.60881156 -0.79331481 -1.7312957e-05 0
0.26943481 0.38928974 -0.1011115 -0.70732498 -0.70675856 0.013551063 0.0021878476
0.27399319 0.3847045 -0.10426614 -0.73670524 -0.67599648 0.017146967 0.0024722731
-0.26134104 0.3955003 -0.10994103 0.62184638 -0.78309846 -0.0079852184 0.00033626289
-0.20378718 0.39159799 -0.10378626 0.6087656 -0.79335016 -1.9399082e-05 4.5355901e-06
-0.19708428 0.39674139 -0.10445583 0.60823327 -0.79375833 -1.1920702e-05 0
0.19747002 0.39644539 -0.10791852 -0.60883582 -0.79329628 -3.7587706e-05 5.9671816e-05
0.25692859 0.39888605 -0.10806085 -0.6145944 -0.78884315 -0.00032138397 0.000125669
0.26305503 0.3941851 -0.10210758 -0.65736735 -0.75357032 -0.00014453844 0.0022636633
-0.25461423 0.40066192 -0.10607724 0.61667013 -0.78721768 -0.0025170471 0.00011347082
-0.19268809 0.40011474 -0.10332313 0.60347831 -0.797378 0.0014917618 3.3826498e-05
0.18966262 0.40243629 -0.10874988 -0.60879278 -0.79332924 1.5644643e-07 4.9473711e-05
0.24366312 0.40906495 -0.10139199 -0.60873425 -0.79337412 -3.2947752e-05 0
-0.24074014 0.41130787 -0.10078159 0.60883576 -0.79329628 -3.2267923e-05 0.00010054096
-0.23680991 0.41432363 -0.10921702 0.60879076 -0.79333079 -1.5343848e-06 0
0.16224098 0.41965145 -0.10988967 -0.42523634 -0.90499872 0.012301724 0.00060375221
0.17527995 0.41347259 -0.1049235 -0.51500279 -0.85718429 -0.0026684995 0.0027100069
0.2296492 0.41981816 -0.10259049 -0.60881704 -0.79331064 -1.04865e-05 7.1157338e-05
-0.22650737 0.42222899 -0.10222083 0.60874391 -0.79336679 -2.925324e-05 1.4206597e-05
-0.15346642 0.42328596 -0.10860416 0.38785934 -0.92171675 -0.0018418287 2.3103776e-05
-0.14279386 0.42770669 -0.10582745 0.3826836 -0.92387944 -9.4113775e-06 0
0.14922339 0.42504352 -0.10087566 -0.38745901 -0.92188561 0.001521463 0.00012258002
0.15476529 0.42274797 -0.10823939 -0.39429829 -0.91898137 -0.0014837501 0.00017294531
0.22238377 0.42539316 -0.10832003 -0.60876387 -0.79335141 -3.2869925e-06 0
-0.21302815 0.43257192 -0.1077012 0.60879213 -0.79332983 3.9308884e-06 3.9107057e-05
-0.20478189 0.43889952 -0.10733628 0.6088804 -0.793262 1.1342716e-05 9.1306232e-05
-0.13180172 0.43225977 -0.10737929 0.3827464 -0.92385346 3.7957361e-05 5.2470379e-05
-0.1254153 0.43490508 -0.10231446 0.38275182 -0.92385125 3.0729445e-06 6.1039616e-05
0.11911264 0.43751574 -0.10748956 -0.38270259 -0.92387158 2.0628702e-05 0
0.13273777 0.43187204 -0.10405456 -0.38265669 -0.92389059 5.3802387e-06 0
0.20634168 0.43770263 -0.10806519 -0.60066229 -0.79950279 4.0062754e-05 7.1349554e-05
0.21051081 0.43450356 -0.10839994 -0.60190392 -0.79856849 0.00016422466 3.1842468e-05
-0.20093112 0.44185427 -0.10145173 0.58298081 -0.81243789 -0.0088345818 0.00065019855
-0.19448802 0.44679821 -0.10815828 0.52128452 -0.85324031 -0.015601371 0.0015548344
-0.099775717 0.44552535 -0.10424018 0.32045928 -0.94725949 0.0022969963 0.001832097
0.098068811 0.44623235 -0.10461622 -0.32833472 -0.94450331 0.010477699 0.0019766628
0.10380171 0.44385773 -0.10568852 -0.36065841 -0.93269789 -0.00045551913 0.00068299664
0.19059202 0.4491818 -0.10500992 -0.50877482 -0.86089188 0.0036639809 0.0019544913
0.20009547 0.44249547 -0.10352574 -0.55760807 -0.83007658 0.0067998115 0.0013180638
-0.075715274 0.45157063 -0.10856196 0.17581958 -0.98441648 0.0034068008 0.00099838898
-0.034248531 0.4570294 -0.10126606 0.13053682 -0.99144346 2.2522214e-05 3.9108414e-05
-0.026868248 0.45800096 -0.10178232 0.13054168 -0.9914428 -4.1302724e-06 0.0001058011
-0.018932296 0.45904568 -0.10505503 0.11037453 -0.99388587 0.002881757 0.0003598507
0.011773572 0.45998809 -0.10555155 -0.099950194 -0.99497658 -0.0056142365 0.00057643809
0.034783553 0.45695898 -0.1000808 -0.13053988 -0.99144304 -3.2821838e-05 3.5818008e-05
0.049373671 0.45503828 -0.1008091 -0.13058428 -0.9914372 -2.4165742e-05 0.00017300781
0.053103492 0.45454729 -0.10534514 -0.13053593 -0.99144357 2.5282356e-05 5.7809691e-05
0.079399392 0.45108563 -0.1000213 -0.19256052 -0.98124331 0.0090523856 0.0015397961
0.16705084 0.45893306 -0.1059335 -0.38267487 -0.92388308 -3.3314878e-05 2.0063946e-05
-0.16327199 0.46049833 -0.10822219 0.38280341 -0.92382985 4.236857e-06 0
-0.15363809 0.46448889 -0.1027351 0.38268623 -0.92387831 -1.3301526e-05 6.665002e-05
-0.0061635538 0.46072656 -0.10325707 0.044322152 -0.99873996 0.02353975 0.0015161677
0.14536266 0.46791679 -0.10418894 -0.38282654 -0.92382026 2.5003403e-06 0.00016834632
0.15516734 0.46385548 -0.10417453 -0.38279316 -0.92383409 -4.9529153e-05 0
-0.13543238 0.4720301 -0.10841608 0.38270712 -0.92386973 8.2160886e-06 2.3150773e-05
-0.12715253 0.47545978 -0.10605542 0.38274002 -0.92385608 -2.1247077e-05 0.00016507784
0.12780318 0.47519028 -0.10908121 -0.38267937 -0.92388123 -2.5976549e-06 0.0001056073
0.1362547 0.47168946 -0.10570128 -0.38266978 -0.92388523 1.7698409e-05 0
-0.11167855 0.48186946 -0.10825047 0.36083534 -0.93262571 0.0026967754 0.00050618086
-0.10839467 0.4832297 -0.10997954 0.35847509 -0.93353754 0.0018052142 0.00060786598
-0.094586894 0.48754787 -0.10310239 0.22094679 -0.97526085 -0.0069801509 0.0017689053
0.078014202 0.48972961 -0.10756759 -0.14731172 -0.98908567 0.0029553799 0.00021835635
-0.064003512 0.49157408 -0.10457263 0.1305199 -0.99144572 1.9746972e-06 0
-0.042341977 0.49442577 -0.10250284 0.13052773 -0.99144465 1.9328309e-05 0
-0.039496228 0.49480039 -0.10113231 0.13052124 -0.99144548 3.6456058e-05 0
-0.024418054 0.4967854 -0.10720994 0.12162719 -0.99256724 -0.004146026 0.00025766119
-0.013050821 0.4982819 -0.10190697 0.1182051 -0.99297214 -0.0058259126 0.00012453515
0.0035964064 0.4995265 -0.10577911 -0.021487115 -0.99969983 0.011775437 0.0020244375
0.028166059 0.49629173 -0.10506938 -0.13055283 -0.99144131 1.0947164e-07 8.3145991e-05
0.055680901 0.49266964 -0.10339198 -0.13053432 -0.99144381 -1.4115369e-05 3.4012879e-05
0.064047016 0.49156839 -0.10836878 -0.1305715 -0.99143893 -4.3489276e-06 0
-0.070668757 -0.5 -0.09972997 0.66756004 0.74439645 0.015410362 0.089063071
-0.069114923 -0.5 -0.091579668 0.66692024 0.74447572 0.031198133 0.073544689
-0.057083238 -0.5 -0.094372854 0.15523101 0.98785037 -0.0074200993 0.02855085
-0.038302749 -0.5 -0.094841972 -0 1 -0 0
-0.021190692 -0.5 -0.096324146 -0 1 -0 0
0.0099362917 -0.5 -0.096456639 -0 1 -0 0
0.032304652 -0.5 -0.096084818 -0 1 -0 0
0.041936565 -0.5 -0.096477643 -0 1 -0 0
0.064241558 -0.5 -0.097662084 -0.47426894 0.87916982 0.046145219 0.080463894
-0.076922998 -0.48216999 -0.094783738 0.97550476 0.21265349 0.056294102 0.040290229
0.076922998 -0.47557154 -0.09561827 -0.99149084 0.12965514 0.011638895 0.02346739
0.076922998 -0.46600258 -0.095658235 -1 3.3875767e-05 3.2120129e-06 0
-0.076922998 -0.44480532 -0.094473854 -0.96343982 0.26755434 -0.014083014 0.038218606
-0.059873402 -0.42307699 -0.09468127 -0.16896841 0.98409647 -0.054808032 0.043087378
-0.035170864 -0.42307699 -0.092389569 1.3400324e-05 1 2.2362761e-05 0
-0.028317677 -0.42307699 -0.095453314 1.9950876e-05 1 4.1001487e-05 0
0.005563241 -0.42307699 -0.093289062 7.3222745e-06 1 1.6859403e-05 0
0.039364349 -0.42307699 -0.093106426 -3.7201855e-05 1 2.4064782e-05 0
0.076089516 -0.42307699 -0.092406318 0.58042836 0.81430882 0.0020016967 0.085040174
-0.045700513 -0.26321417 -0.093937382 0.13052483 0.99144506 7.4775534e-07 0
-0.035880785 -0.26450703 -0.094565235 0.13051945 0.99144578 6.555606e-06 0
-0.020717952 -0.2665033 -0.09678746 0.112727 0.99361002 -0.0056377938 0.00041302771
-0.010737238 -0.26781735 -0.091439098 0.08450716 0.99642259 -0.0006583411 0.0012835333
-0.0045637786 -0.26863015 -0.099797256 0.013191063 0.99987507 0.0087086158 0.0024585119
0.0086010331 -0.26809859 -0.093568146 -0.060569633 0.99816328 0.0010980136 0.0020848811
0.022019722 -0.26633194 -0.094888106 -0.11558014 0.9932915 0.0036479223 0.00020420059
0.036123153 -0.26447511 -0.090196393 -0.13053873 0.99144328 1.35609e-06 0
0.04665577 -0.26308841 -0.097921982 -0.13053329 0.99144393 -3.1182975e-05 2.1192409e-05
0.054687701 -0.26203096 -0.098530665 -0.13053215 0.99144405 -2.5384297e-05 2.8561581e-05
-0.10496268 -0.25388134 -0.093758211 0.27644834 0.96101499 0.0051494911 0.0021713541
-0.088021502 -0.2576423 -0.093016505 0.19577648 0.98047984 0.018191019 0.0011464598
-0.075803265 -0.25925091 -0.094158694 0.15016709 0.98865247 0.004005915 0.00014085822
0.072542012 -0.2596803 -0.098563783 -0.1305514 0.99144155 2.1498719e-05 0
0.083030701 -0.25829935 -0.094412103 -0.17229417 0.98504448 0.0014659314 0.00088057527
0.10655692 -0.25322101 -0.098832071 -0.31177458 0.95002317 -0.015896743 0.0013921862
-0.12153678 -0.24701619 -0.092877105 0.38269654 0.92387408 7.2065455e-07 0
0.11917165 -0.24799585 -0.098312981 -0.37947488 0.92520094 0.0014090509 0
0.13465598 -0.2415821 -0.092902705 -0.38267982 0.92388105 1.0972206e-05 0
-0.15153888 -0.23458901 -0.099214859 0.3826915 0.92387623 5.6145609e-06 3.3223062e-06
-0.1497601 -0.23532578 -0.090893924 0.382709 0.92386895 4.1522617e-06 0
-0.0056816712 -0.23002099 -0.093811572 0.061402693 0.99811268 -0.00094435562 0.0018870243
0.0018102687 -0.23053066 -0.098366365 -0.028416559 0.99958348 0.0050425017 0.0030294766
0.13980272 -0.23945025 -0.095954478 -0.38265356 0.92389184 -2.7511824e-05 2.4343703e-06
0.14123031 -0.23885889 -0.094241597 -0.38269168 0.92387611 -2.3703611e-05 0
0.15836668 -0.23176086 -0.091196284 -0.38267121 0.92388457 -1.3166804e-05 0
0.16054273 -0.23085952 -0.099606186 -0.38267633 0.92388242 -7.0758038e-06 1.1498691e-05
-0.18651369 -0.22010204 -0.097685233 0.47430041 0.88036144 -0.0017160276 0.0025027364
-0.17626812 -0.22434589 -0.092999384 0.403166 0.91512644 -0.00090357114 0.00091500249
-0.072799847 -0.22118461 -0.099111646 0.16334294 0.98656684 0.0022335132 0.00052613195
-0.052674994 -0.22383413 -0.093080506 0.13051981 0.99144572 2.5623319e-06 1.0917089e-05
-0.022563595 -0.2277984 -0.09163852 0.12172681 0.99256361 -0.00035192177 5.2622279e-05
-0.0066188034 -0.22989759 -0.091093391 0.079161331 0.99685663 -0.0031982723 0.0015647404
0.011265061 -0.2292859 -0.09568537 -0.10175952 0.99476308 -0.0095555158 0.00055380963
0.031135835 -0.22666985 -0.099860162 -0.13053425 0.99144381 -1.7063725e-06 1.9715422e-05
0.046338879 -0.22466831 -0.094115615 -0.13052601 0.99144489 -1.8514879e-06 8.126297e-06
0.062280253 -0.22256956 -0.092693083 -0.13253357 0.99117798 0.0010843222 3.9753181e-06
0.072401576 -0.22123705 -0.090794548 -0.15464285 0.98796189 0.0041081929 0.00076899113
0.16705096 -0.22816373 -0.096088335 -0.38270766 0.92386949 -1.4423184e-05 2.3475515e-05
0.17200521 -0.22611162 -0.096476912 -0.38914809 0.92117453 -0.0011401294 5.7597139e-05
0.18082803 -0.22245711 -0.091840267 -0.43385857 0.90079963 -0.018075718 0.0013679233
-0.096202463 -0.21623544 -0.097971156 0.3086921 0.95115083 0.0046130815 0.0022394632
0.083027571 -0.2198381 -0.099413641 -0.16812745 0.9857583 -0.00371355 0.0010091132
0.09104228 -0.21837285 -0.099750988 -0.27887043 0.96032822 0.0010103298 0.0031324702
0.10031165 -0.21453336 -0.092953414 -0.33629185 0.94171524 -0.008950362 0.0014818101
0.11086462 -0.21016219 -0.092213362 -0.3752698 0.92690569 -0.0042915209 6.0582195e-05
0.20118019 -0.21089417 -0.098387882 -0.56206954 0.82707202 0.0054541654 0.0012174402
-0.21395746 -0.20108983 -0.096516326 0.60872138 0.79338413 4.1789563e-06 1.5476953e-05
-0.20241696 -0.20994514 -0.090967655 0.55952752 0.82880896 -0.0021568055 0.0013841039
-0.13476095 -0.20026401 -0.097036026 0.38268179 0.92388022 1.9693445e-05 0
-0.12365562 -0.204864 -0.09841691 0.38269183 0.92387611 1.3838747e-05 0
0.11390711 -0.20890194 -0.090820558 -0.38269418 0.92387503 2.1525922e-05 0
0.12430666 -0.20459431 -0.091140456 -0.38269067 0.92387652 2.743998e-06 1.2471647e-05
0.13056062 -0.20200385 -0.092986383 -0.38268656 0.92387825 3.6338913e-06 1.5553758e-05
0.20439018 -0.20843104 -0.091098741 -0.56874496 0.82251334 0.00098800741 0.001017053
-0.15593554 -0.19149321 -0.096274361 0.40069637 0.91620481 0.0033694643 0.00042270156
0.15764262 -0.19078614 -0.092790842 -0.3998377 0.91657269 -0.0049160491 0.00037178252
-0.16259325 -0.18873551 -0.098053873 0.43302974 0.90137959 -0.00022547069 0.0014834196
0.16411443 -0.18810542 -0.099027194 -0.4296121 0.90301174 -0.001798259 0.0010255675
0.22961792 -0.18907319 -0.094597042 -0.60872728 0.79337955 -8.0873888e-06 2.2078477e-05
0.23805967 -0.18259561 -0.09646219 -0.60870433 0.79339719 -3.2401053e-06 9.1420707e-06
0.2408511 -0.1804537 -0.094057687 -0.60873538 0.79337335 4.9004907e-06 0
-0.24397573 -0.17805609 -0.091634274 0.60875493 0.79335833 -1.1620365e-06 5.0968692e-06
-0.1788896 -0.17993288 -0.097556226 0.5373652 0.84332663 -0.00623459 0.0025789032
0.19160935 -0.17017272 -0.095642395 -0.60879087 0.79333079 -1.1595856e-06 6.4814014e-07
0.25234398 -0.17163491 -0.095069796 -0.61094558 0.79167253 -0.00030898143 0
-0.26238018 -0.16393389 -0.097216874 0.65766335 0.75297749 0.022444565 0.0020301635
-0.2583926 -0.16699366 -0.0969133 0.61926055 0.78514814 0.0076698824 0.00038253274
-0.19415563 -0.16821894 -0.096604452 0.60873961 0.79337007 -5.5392547e-06 0
0.20233679 -0.16194136 -0.095492825 -0.608832 0.79329914 -1.9391807e-06 0
0.25908521 -0.16646221 -0.091829762 -0.62867159 0.77765208 -0.0054114405 0.0002026219
-0.27178931 -0.15671405 -0.098142147 0.70030743 0.71290696 0.03651135 0.0012605761
-0.26873094 -0.15906084 -0.095657989 0.6973474 0.71575028 0.037525915 0.0013178302
-0.21071011 -0.15551634 -0.092565037 0.6087634 0.79335183 -8.3159612e-06 0
-0.20695271 -0.15839946 -0.09617158 0.60874951 0.7933625 -1.2480847e-05 1.3065353e-05
0.20635122 -0.15886101 -0.095961116 -0.60876894 0.7933476 -4.4360927e-06 2.1176895e-07
0.27272961 -0.15558226 -0.095900454 -0.68996674 0.7237553 0.011142103 0.0013700069
-0.28029811 -0.1457188 -0.097485766 0.76502341 0.64399964 0.0019348747 0.00091224042
0.22279973 -0.1462397 -0.095117599 -0.60925293 0.7929759 8.7560093e-06 2.9793589e-06
0.2823405 -0.14305711 -0.094920188 -0.79333621 0.60878378 3.7830812e-06 3.3063348e-05
-0.24175175 -0.13169742 -0.093204372 0.68529612 0.72815549 -0.012598327 0.0023279688
0.23325525 -0.13821696 -0.090632275 -0.63025373 0.77633667 -0.0090308338 0.00063333072
-0.2927267 -0.12952158 -0.093565255 0.79338002 0.60872668 5.8256874e-06 2.686794e-06
-0.24612436 -0.12761533 -0.093121752 0.70142746 0.71255219 -0.016394831 0.001674759
-0.30658463 -0.11146154 -0.092806041 0.79334831 0.60876793 -7.7990589e-06 0
0.30384225 -0.1150355 -0.095230252 -0.79335165 0.60876358 1.752e-05 0
-0.31349066 -0.10246143 -0.093151584 0.79334676 0.60877007 4.0100335e-06 2.8637312e-06
-0.30899319 -0.10832264 -0.097167216 0.79335827 0.60875493 -1.3266925e-05 0
-0.26440594 -0.10379016 -0.091370799 0.793356 0.60875791 1.4653933e-05 8.8932757e-06
0.25974813 -0.10986035 -0.091106124 -0.7931928 0.60897046 0.00018481199 0
-0.32042587 -0.093423299 -0.090723567 0.79642487 0.60473669 0.00095991377 1.4482899e-05
-0.31816351 -0.096371651 -0.095479116 0.79645294 0.60470015 0.00050368067 0
-0.27210546 -0.093755841 -0.09501645 0.79334444 0.60877305 1.3745534e-05 0
0.26759279 -0.099636927 -0.095610157 -0.79334223 0.60877585 3.4152043e-05 0
0.2710183 -0.095172681 -0.093843378 -0.79335362 0.60876113 -7.3857241e-06 0
-0.32690775 -0.084975943 -0.097238705 0.82266331 0.56852168 -0.0028647003 0.0011983577
-0.28185213 -0.081053652 -0.092325129 0.79334545 0.60877162 -1.1409906e-05 0
-0.27573657 -0.089023635 -0.090458818 0.79334742 0.60876924 1.7809498e-05 0
0.28020129 -0.083205096 -0.092130408 -0.79335505 0.60875922 1.1709622e-05 0
0.32724023 -0.084542632 -0.097096503 -0.837273 0.54671431 0.0088027967 0.0019441881
-0.28339791 -0.079039142 -0.099542491 0.79334354 0.60877419 -5.2507871e-06 0
0.33468693 -0.073060408 -0.097218037 -0.88614357 0.46339893 0.0033163629 0.0016032548
-0.2942836 -0.064852543 -0.098791316 0.83440924 0.55112839 -0.0043337098 0.0019028985
0.29594135 -0.062692076 -0.093232833 -0.8389523 0.54411405 0.0099488897 0.0021372277
0.33662373 -0.068384483 -0.097582623 -0.90140814 0.4326815 0.015816296 0.00091459806
-0.34089077 -0.058082886 -0.096611932 0.92338639 0.3838717 -0.00011256547 3.6863596e-05
-0.3010079 -0.054722816 -0.098530017 0.90441394 0.42663959 -0.0037429358 0.00098540424
0.3008042 -0.055214677 -0.093417868 -0.88599676 0.46324643 0.020310163 0.0018278754
0.30513483 -0.044759627 -0.092666544 -0.90518558 0.42483297 0.012487666 0.0008078299
0.34628755 -0.045053869 -0.097532198 -0.92386395 0.38272113 -5.5628298e-05 3.9020757e-05
-0.30957419 -0.034042213 -0.096660674 0.9221158 0.38691393 0.00022753743 2.2987213e-05
0.30760396 -0.038798731 -0.092797086 -0.91775709 0.39713818 0.0017884858 0.00026604335
0.31115845 -0.030217484 -0.091682553 -0.92387462 0.38269532 3.4327015e-05 0
-0.35457861 -0.02503733 -0.092707969 0.92387873 0.38268539 3.8326187e-05 0
0.3527056 -0.029559169 -0.09839797 -0.92388046 0.3826811 6.5163586e-06 0
-0.35864848 -0.015211646 -0.095426217 0.92388117 0.38267946 1.1678059e-05 0
0.35755444 -0.017852943 -0.096086755 -0.92387807 0.38268712 2.2463661e-05 0
-0.36484295 -0.00025677634 -0.098840795 0.92549425 0.37875137 -0.0027773858 0
-0.32164723 -0.0048956312 -0.097337313 0.92387867 0.38268551 7.8152771e-06 0
0.36104435 -0.0094274413 -0.095948286 -0.92388022 0.38268176 2.3917501e-05 0
0.32571685 0.0049292641 -0.096392438 -0.92817676 0.37212977 -0.0027257842 0.00014461826
-0.33142889 0.018719204 -0.09333913 0.94918442 0.31470701 -0.0029069367 0.0011581614
-0.3731252 0.028108146 -0.093214214 0.98332238 0.18178269 -0.0056576231 0.0017955911
0.33227095 0.02075208 -0.099669039 -0.94997001 0.31234109 0.00015400497 0.0016825839
0.37278962 0.025558872 -0.094404437 -0.98256326 0.18584184 0.0056854328 0.00110598
0.3349185 0.030042823 -0.094820298 -0.97358781 0.22830018 0.0023983913 0.0021049648
0.37361473 0.031826414 -0.093457162 -0.98692733 0.16107407 0.0054470357 0.00031251568
0.3757439 0.047999866 -0.094500385 -0.99144769 0.13050464 -7.0694814e-06 0
-0.33771572 0.051289942 -0.094778799 0.99144024 0.13056146 -5.7029674e-06 4.5043918e-05
0.37637457 0.052790597 -0.09582103 -0.9914481 0.13050137 4.2157481e-07 0
-0.37773165 0.063099004 -0.095549911 0.99144387 0.13053352 -1.1859438e-05 4.5256558e-05
0.37803352 0.065391928 -0.093175702 -0.99144453 0.13052861 3.1859724e-07 0
-0.37913069 0.07372582 -0.091113769 0.9914465 0.130514 3.0898023e-05 0
0.34108388 0.076873653 -0.096612811 -0.9914453 0.13052315 3.1721152e-05 0
0.37920898 0.074320845 -0.097918302 -0.99144387 0.13053399 5.0390485e-05 0
-0.38058215 0.084751189 -0.092146657 0.99144524 0.13052361 -1.4746198e-05 4.1007836e-05
0.34208995 0.084515527 -0.094243184 -0.99144411 0.13053188 -1.1248466e-06 0
-0.38165832 0.092925891 -0.091363616 0.99228978 0.12392724 0.0017240407 6.7476016e-05
-0.34376416 0.097232088 -0.090683334 0.9964307 0.083222412 -0.014138824 0.00056627218
0.38159189 0.092421375 -0.098682113 -0.99144864 0.13049731 -3.3229422e-05 0
-0.34419397 0.10049704 -0.095570408 0.99625814 0.084972806 -0.01579014 0.00048209279
0.34503299 0.10687006 -0.091074824 -0.99880749 0.047869645 -0.0095981471 0.0019955554
0.38298902 0.10303403 -0.099043995 -0.99569565 0.092465185 -0.0063569997 0.001074906
-0.38431227 0.11651035 -0.093875565 0.99960357 -0.025623651 0.011666054 0.0025907434
0.34561002 0.11951667 -0.094477355 -0.99912339 -0.039782468 0.013031168 0.0017203824
0.38455695 0.11494392 -0.095326155 -0.99955344 0.018749911 0.023265747 0.0019893786
0.34445727 0.12827316 -0.095167637 -0.99669689 -0.080904007 0.0070511363 0.0010245682
-0.38210714 0.13443463 -0.094722345 0.99321443 -0.11629333 0.000939166 0.0002916196
0.34351844 0.13540393 -0.092950135 -0.99429321 -0.10663733 0.0031048644 0.00040073515
0.38217232 0.13393943 -0.095484033 -0.99453568 -0.1042795 0.004962943 0.00068010989
-0.38087213 0.14381568 -0.096401401 0.99157631 -0.12952358 -0.00011261804 0
-0.34245649 0.14347009 -0.093386628 0.99143922 -0.13056919 3.0519503e-05 0
0.34210598 0.14613266 -0.096086174 -0.99144709 -0.13050914 -8.4791109e-06 0
0.38031402 0.14805503 -0.093057796 -0.99144518 -0.13052358 1.8604769e-05 3.0688181e-05
-0.37962675 0.15327576 -0.097774133 0.9914304 -0.13063619 7.4536088e-06 0
0.37997615 0.15062138 -0.090933509 -0.99144447 -0.13052902 -2.9926182e-06 0
-0.37813011 0.16464405 -0.097349465 0.99143744 -0.13058254 7.82186e-06 0
-0.34000146 0.16211742 -0.09362819 0.99143809 -0.13057758 -9.0874346e-06 3.1895564e-05
-0.33943424 0.16642609 -0.095556676 0.99144602 -0.13051751 -4.1647618e-06 5.3229858e-05
-0.3379491 0.17770675 -0.097861335 0.99144465 -0.13052818 -1.9655037e-05 1.2903165e-05
0.33788145 0.17822066 -0.094147339 -0.9914481 -0.13050151 -2.3277103e-06 1.9292693e-05
0.37666687 0.17575872 -0.09509296 -0.99144775 -0.13050398 8.554138e-08 6.6155138e-05
-0.37488264 0.18931162 -0.097302921 0.99115098 -0.1327385 -0.00055833673 7.5346688e-05
0.37503877 0.18812551 -0.097892679 -0.99108744 -0.13321301 -9.3879069e-05 6.9280642e-05
-0.37389052 0.19684768 -0.098064661 0.98714364 -0.15978147 0.0041597877 0.00077286473
-0.33624858 0.19062331 -0.096471786 0.98582393 -0.16774763 -0.0034458984 0.0010389057
0.33577031 0.19425616 -0.097897001 -0.9833737 -0.18158294 0.0019481039 0.0016558876
0.37455717 0.19178388 -0.091633223 -0.99110502 -0.13308194 -3.9355084e-05 6.324362e-05
-0.33265883 0.20908064 -0.098171577 0.96432215 -0.26469013 -0.0046903612 0.0020611987
-0.37093168 0.21600753 -0.09447109 0.96146095 -0.27488029 -0.0058133923 0.0032986493
-0.32891345 0.21812277 -0.092680648 0.93905413 -0.34376639 -0.0014357694 0.0012063609
0.37104553 0.21541037 -0.098241784 -0.97116601 -0.23704651 -0.025405975 0.001901104
-0.3671025 0.22557066 -0.09691596 0.94134736 -0.33743128 -0.0023205066 0.0015903757
-0.32634607 0.22432095 -0.098792568 0.92390138 -0.38263077 -1.2427498e-05 4.3855074e-05
0.32808065 0.22013327 -0.097138539 -0.94050115 -0.33966964 -0.0090599405 0.0007619884
-0.36430755 0.2323183 -0.097233988 0.92960078 -0.36855116 0.0035168543 0.0004605026
0.3203516 0.23879293 -0.09159416 -0.92388773 -0.38266373 4.6447258e-05 3.6548088e-06
-0.35993519 0.24287423 -0.097873867 0.92413056 -0.3820768 -8.7597306e-05 4.213282e-06
-0.31764671 0.24532302 -0.096771479 0.92386287 -0.38272369 5.8874971e-06 3.5584371e-06
0.35869655 0.24586463 -0.091526762 -0.92392313 -0.38257822 -1.2053086e-05 8.6214743e-05
-0.35562199 0.25328732 -0.095737159 0.92389029 -0.38265753 -5.5545893e-06 1.4987181e-05
-0.31529093 0.25101054 -0.099512972 0.92386216 -0.38272515 1.7548424e-05 3.5379424e-05
-0.31065372 0.26220578 -0.093804233 0.92386502 -0.38271847 1.7084616e-05 5.8884085e-05
-0.30789998 0.26885378 -0.091229334 0.91631544 -0.40041298 0.0059565632 0.00037599509
0.308689 0.26694894 -0.097056568 -0.92036361 -0.39106309 -0.00066726544 0.00017247703
0.35236117 0.26115972 -0.094396085 -0.9238469 -0.38276228 -4.4335342e-05 4.6297824e-05
-0.34729138 0.27339932 -0.097985186 0.92387092 -0.38270411 1.7019638e-05 0
-0.30430225 0.27753955 -0.093966059 0.90387857 -0.42767495 0.0098826941 0.0011444972
0.30497614 0.27591264 -0.095613055 -0.90594757 -0.4233146 -0.0079838578 0.001491413
0.34591126 0.27673122 -0.092725843 -0.92389524 -0.38264552 -4.0500104e-06 2.3358696e-05
-0.34292519 0.28394029 -0.092744306 0.92223805 -0.38662255 -8.2646191e-05 0
0.3407948 0.28908354 -0.097311862 -0.91607732 -0.40092602 0.0077845273 0.00025723779
-0.29586557 0.29356077 -0.095174484 0.84964228 -0.52729803 0.0080420738 0.002222433
0.29691887 0.29218805 -0.096541196 -0.84656757 -0.5321998 -0.0093102138 0.0026986618
0.33793765 0.29598138 -0.092675962 -0.90428984 -0.4269138 -0.0020948232 0.0012985846
-0.33180127 0.30936754 -0.091361865 0.8590222 -0.51193821 0.00029956922 0.002369937
-0.28881073 0.30275476 -0.096160717 0.80983782 -0.58665001 -0.0021087567 0.00065885589
0.28658518 0.30565515 -0.092086017 -0.79661369 -0.60448295 0.0026595513 7.2250594e-05
0.29063657 0.30037528 -0.094171166 -0.81697673 -0.57657743 -0.01036898 0.0012916462
0.33393356 0.30522639 -0.093754686 -0.85904938 -0.51189274 5.5262437e-05 0.0026076394
-0.32520515 0.31796384 -0.096149504 0.81682265 -0.57672268 -0.013848616 0.00057664234
-0.28207979 0.31152666 -0.099259175 0.79335302 -0.60876197 -1.1650153e-05 1.1842024e-05
-0.27706411 0.31806317 -0.094426133 0.79336774 -0.60874265 5.0845802e-06 3.7529549e-06
0.28229877 0.31124127 -0.0949983 -0.79344106 -0.60864711 -2.6560636e-05 0
-0.323567 0.32009867 -0.091163397 0.81245786 -0.58295262 -0.0088572185 0.00061326782
-0.31826568 0.32700753 -0.092866555 0.79325545 -0.60888904 2.0520214e-05 0
0.27151573 0.3252939 -0.094668709 -0.79335564 -0.60875857 9.5873884e-06 0
-0.31554264 0.33055621 -0.091689855 0.79324383 -0.60890418 4.6460991e-05 0
-0.30838495 0.33988434 -0.096004575 0.79331553 -0.60881078 1.727428e-05 0
-0.26309797 0.33626404 -0.093641222 0.79329795 -0.60883361 2.3387824e-05 0
0.31220934 0.33490032 -0.092580199 -0.79333043 -0.60879141 9.8500568e-06 0
-0.25692815 0.34430474 -0.091782153 0.79232955 -0.61009318 0.0003861718 2.3647477e-05
0.25713295 0.34403783 -0.095501117 -0.78853166 -0.61499232 0.0014982501 0.00013380955
0.30233243 0.34777209 -0.092735909 -0.79332691 -0.60879588 -2.1277192e-05 3.2438065e-06
-0.29691118 0.35483724 -0.090338707 0.79328126 -0.60885531 1.0228706e-05 0
0.29810679 0.35327911 -0.094708681 -0.79336828 -0.60874194 -6.7873375e-06 0.00017413442
-0.29252887 0.36054838 -0.099088885 0.79333848 -0.6087808 -4.5827338e-07 3.3745899e-05
-0.28609174 0.3689374 -0.094536051 0.79142869 -0.61126059 -0.001059301 0
-0.24446759 0.3603825 -0.092139006 0.68559468 -0.72791308 -0.010120039 0.0019097032
-0.23428538 0.36819568 -0.096833326 0.64285976 -0.7659834 -0.0008201357 0.0010618713
0.23501974 0.36763221 -0.092170052 -0.64052057 -0.76789194 0.0086823134 0.00070445583
0.28870773 0.36552817 -0.098223731 -0.79154319 -0.61111319 0.00040461411 5.6257777e-05
0.29237023 0.36075509 -0.09358412 -0.79323238 -0.60891908 9.5909149e-05 0
-0.22350976 0.37646419 -0.095707797 0.60878307 -0.79333675 -1.6006083e-05 1.0582283e-05
0.22295924 0.37688661 -0.093330473 -0.60880536 -0.79331964 4.2014035e-06 6.0898143e-05
0.23116922 0.37058681 -0.097731665 -0.63269478 -0.77439952 0.0016347206 0.00046690876
0.27921039 0.37790537 -0.096409932 -0.77231717 -0.63523495 0.0016233056 0.00076813478
0.28254163 0.37356395 -0.093277201 -0.77615011 -0.63054419 0.0022633586 0.00063776784
-0.27516258 0.38318059 -0.099003561 0.72549224 -0.68817276 -0.0089048529 0.0025826835
-0.2142425 0.38357526 -0.097686671 0.6088137 -0.79331326 -3.3518052e-05 6.3205182e-05
0.20602772 0.38987875 -0.093074419 -0.60878873 -0.79333234 -1.4910753e-05 0
0.21227095 0.38508812 -0.099688172 -0.60880738 -0.79331821 -3.979871e-05 8.046622e-05
0.26903638 0.38959548 -0.092803508 -0.68477327 -0.72871584 -0.0076765041 0.0022269783
0.27021724 0.38868937 -0.095450386 -0.71653754 -0.69754833 0.0004698126 0.0022366524
-0.2629911 0.39423418 -0.093819343 0.6239807 -0.78142846 -0.0041973535 0.00035354713
-0.25842351 0.39773899 -0.096307501 0.62211031 -0.78292221 -0.0034183857 0.0002003394
-0.19630492 0.39733943 -0.093494594 0.60844994 -0.79359221 2.0582958e-05 0
0.1960389 0.39754352 -0.097430266 -0.60877043 -0.79334646 1.3792721e-05 0
0.20250851 0.39257917 -0.099143103 -0.60878795 -0.79333299 -3.4933337e-06 2.7950438e-05
-0.2509377 0.40348303 -0.092659153 0.60876292 -0.79335219 -1.7282022e-06 5.0804847e-05
-0.24897099 0.4049921 -0.093090698 0.60878271 -0.79333699 1.2348027e-06 1.4933523e-05
0.19108944 0.40134144 -0.097744763 -0.60879588 -0.79332685 2.3665143e-06 2.7731455e-06
0.24619558 0.40712178 -0.092265218 -0.60885721 -0.79327983 1.0848309e-05 0
-0.17523135 0.41343239 -0.095833443 0.53059596 -0.84752703 0.012873694 0.0019645002
0.16583009 0.41816479 -0.097045347 -0.45197228 -0.89203197 0.00013837224 0.001212679
0.17690867 0.41222283 -0.09362179 -0.52667314 -0.85004932 -0.0056206724 0.002170125
0.23780179 0.41356254 -0.093084306 -0.60875684 -0.79335696 -4.0594245e-05 1.4611919e-05
0.24172008 0.4105559 -0.095435537 -0.60887432 -0.79326671 -6.349355e-05 7.6569617e-05
-0.22024101 0.42703733 -0.091222435 0.60876238 -0.79335266 -3.704755e-05 1.1490666e-05
-0.15587021 0.4222903 -0.094704419 0.3894999 -0.92102575 -0.0012202553 2.1620253e-06
-0.13848291 0.42949235 -0.091351427 0.38266477 -0.92388731 1.043797e-05 0
0.15155663 0.42407703 -0.099843867 -0.39298853 -0.91954213 0.0014438895 0.00011615162
-0.20361903 0.43979174 -0.095956355 0.59108841 -0.80654675 -0.0098391697 0.0006413986
0.11879043 0.43764916 -0.093809038 -0.38268054 -0.92388076 1.4742581e-06 0
0.12256513 0.4360857 -0.097679771 -0.38265404 -0.92389172 1.0507973e-05 0
-0.10006899 0.44540387 -0.092068516 0.32338485 -0.94626641 -0.0014162584 0.0013976227
-0.094895482 0.44754678 -0.091843672 0.28392074 -0.95884502 -0.0023064765 0.0017629343
0.09059833 0.44932675 -0.090214022 -0.3098771 -0.95072341 -0.010053448 0.0011897139
0.10028398 0.44531479 -0.09734688 -0.3580986 -0.93368232 0.0016522856 0.00075249042
-0.17431244 0.45592517 -0.093051761 0.39025819 -0.92067903 0.0069715986 9.5796117e-05
-0.087361537 0.45003748 -0.092724726 0.24973866 -0.96822351 0.01318421 0.0011709632
-0.07232599 0.45201683 -0.097913288 0.18830855 -0.98206115 0.0097820973 0.0013625019
-0.068162456 0.4525649 -0.097255588 0.14408122 -0.9895646 0.0016046008 0.00020200033
-0.052302811 0.45465273 -0.09887629 0.13051605 -0.9914462 3.3829433e-06 7.168678e-05
-0.019679667 0.4589473 -0.098531552 0.11336598 -0.9935469 -0.0035702386 0.00035205204
0.016175417 0.45940861 -0.090740323 -0.1042717 -0.99454874 0.00047111179 0.00037498923
0.026218323 0.45808655 -0.093531348 -0.13053772 -0.9914434 -1.4327912e-05 7.0461094e-05
0.03742082 0.45661181 -0.094876178 -0.13050398 -0.99144775 2.3597762e-05 0
0.05617312 0.45414323 -0.096113935 -0.13053779 -0.99144334 7.7409295e-06 8.1372491e-05
0.18215628 0.45267606 -0.095075391 -0.43662429 -0.8996315 -0.0047310484 0.00092762162
-0.15616462 0.46344239 -0.094253697 0.38276088 -0.9238475 1.5352645e-05 5.3048247e-05
-0.14751451 0.46702543 -0.094192155 0.38271454 -0.92386663 -1.9624069e-05 5.9038452e-05
-0.0069405953 0.46062431 -0.099374548 0.063372001 -0.9979797 0.0045205858 0.0014439962
0.0052984199 0.46084049 -0.092578411 -0.017654482 -0.99977815 -0.01148634 0.0022559094
0.14278308 0.46898526 -0.091771945 -0.38268617 -0.92387843 -8.3680825e-06 9.9717028e-05
-0.12428155 0.47664899 -0.095594019 0.38274351 -0.92385459 9.3593735e-07 4.7927366e-05
0.13429806 0.47249997 -0.094445124 -0.38271475 -0.92386657 -2.0261268e-05 1.5160374e-05
-0.10002746 0.48669559 -0.090913177 0.25760975 -0.96621084 -0.0085916687 0.0024716272
0.075981468 0.48999721 -0.096024632 -0.13052301 -0.99144524 -4.1955154e-06 8.1201964e-05
0.092548713 0.48781615 -0.093102098 -0.21194519 -0.97711188 0.018207595 0.0020455823
0.10603727 0.48420617 -0.095618613 -0.299963 -0.95394933 0.0016452306 0.0022007122
0.11334983 0.48117715 -0.095192887 -0.3473717 -0.93772733 0.00065567176 0.00082145975
-0.075646639 0.49004129 -0.097635716 0.13138403 -0.99133146 -0.00031248253 7.4936754e-05
-0.066442668 0.49125299 -0.092216462 0.13052899 -0.99144447 -7.9626243e-06 0
-0.046473667 0.49388182 -0.098179057 0.13052528 -0.99144495 -1.0397829e-05 0
-0.019605303 0.497419 -0.098274007 0.12019541 -0.99274039 -0.0044345791 1.0046626e-05
-0.006806992 0.49910387 -0.097785488 0.054706734 -0.99847937 -0.0068050958 0.0014407876
0.040195368 0.49470818 -0.090633839 -0.13051313 -0.99144661 -2.7696322e-05 3.0879182e-05
0.059666127 0.49214509 -0.095499046 -0.1305386 -0.99144322 -5.1403617e-06 0
0.065069795 0.49143371 -0.094170034 -0.13051271 -0.99144661 -7.6659926e-06 3.5317573e-06
-0.075998433 -0.49609128 -0.080923118 0.83250022 0.55010039 -0.065825611 0.073336616
-0.065663382 -0.5 -0.081172891 0.60826391 0.79181856 -0.055120096 0.063603528
-0.032321136 -0.5 -0.084032223 -0 1 -0 0
-0.024200676 -0.5 -0.081167959 -0 1 -0 0
0.011522898 -0.5 -0.080441602 -0 1 -0 0
0.023610771 -0.5 -0.088587262 -0 1 -0 0
0.056322493 -0.5 -0.085666589 -0.2298838 0.97181934 -0.052158371 0.042845391
0.061422564 -0.5 -0.084649861 -0.337154 0.94007975 -0.050767571 0.048683658
0.076077841 -0.49985981 -0.085775472 -0.78483206 0.61970365 0.0024666281 0.061725054
0.076922998 -0.48462784 -0.082427919 -0.90433127 0.42261297 -0.059859551 0.050834298
-0.076922998 -0.47847551 -0.08516828 0.98804486 0.13985036 0.064878538 0.012734264
0.076922998 -0.47420833 -0.086018823 -0.99993587 0.0098359492 -0.0056215986 9.1569498e-05
-0.076922998 -0.46309292 -0.088399738 1 2.1482627e-05 1.7899362e-06 0
-0.076922998 -0.45250666 -0.084755182 1 1.6184325e-05 4.5263977e-07 0
0.076922998 -0.44568056 -0.08625707 -0.99497831 -0.099602543 -0.0098778578 0.011094676
0.076922998 -0.43179253 -0.083509706 0.79512548 0.60417765 0.052390989 0.10651625
-0.076922998 -0.42890239 -0.084836021 -0.88786006 0.45985803 -0.015333633 0.061706923
-0.065180928 -0.42307699 -0.088984072 -0.44976142 0.8926484 0.029892996 0.085429862
-0.058967449 -0.42307699 -0.08481586 -0.32618234 0.94149733 -0.084781848 0.091621548
-0.022416994 -0.42307699 -0.084138632 9.1873753e-06 1 4.1454841e-05 0
0.014937948 -0.42307699 -0.086939111 8.4398716e-06 1 4.3974902e-05 0
0.049635619 -0.42307699 -0.084954455 0.048545599 0.99881536 0.0033555476 0.01084396
0.055565327 -0.42307699 -0.081314355 0.12440999 0.99221885 -0.0048921104 0.028640935
0.069456115 -0.42307699 -0.081256181 0.47593012 0.87886107 0.033071958 0.10992575
0.073764928 -0.42307699 -0.086349986 0.60001105 0.7997179 -0.020925717 0.10777552
-0.055888787 -0.2618728 -0.083581723 0.13053401 0.99144381 1.2728922e-05 0
-0.041060708 -0.26382506 -0.083038047 0.13054067 0.99144292 -1.5379243e-05 5.6722885e-05
-0.035181303 -0.26459908 -0.083186969 0.13053392 0.99144387 -7.5213266e-06 0
-0.017196462 -0.26696694 -0.084466934 0.10473789 0.99449986 -9.7912249e-05 0.00049426372
-0.0020185499 -0.26896524 -0.085341498 -0.0061997692 0.99985522 -0.015844725 0.0024451287
0.0050811139 -0.26856202 -0.082361639 -0.041197676 0.99914676 0.0029149074 0.0020258916
0.026089216 -0.26579612 -0.085744664 -0.12681131 0.99192673 0.00046024207 1.2314675e-05
0.032603361 -0.2649385 -0.084079862 -0.13053602 0.99144351 7.1586624e-07 1.9704607e-05
-0.11379682 -0.25022218 -0.085697263 0.33727762 0.94139439 -0.0045175529 0.00088872132
-0.091600254 -0.25717112 -0.086755022 0.21443398 0.97673237 0.0034559651 0.0010077083
-0.08237879 -0.25838521 -0.080627933 0.14643793 0.98919642 0.0068197846 0.00023430114
-0.073911518 -0.2595 -0.086700872 0.13053617 0.99144357 -1.2363869e-05 2.2421804e-05
0.087913841 -0.25765646 -0.081788063 -0.17545375 0.98448759 0.00044286557 0.0007913587
-0.13213387 -0.24262676 -0.080635428 0.38271266 0.9238674 2.1844377e-05 0
-0.12215208 -0.24676132 -0.085163437 0.38267043 0.92388499 2.9295491e-06 0
0.11834924 -0.24833649 -0.084991843 -0.38267341 0.92388368 1.7289423e-05 1.1084109e-05
0.12453056 -0.24577612 -0.0864795 -0.38267291 0.92388391 3.5251142e-06 1.6845601e-05
0.13663012 -0.24076438 -0.080212876 -0.38266656 0.92388648 6.9487528e-06 1.1076509e-05
-0.15831436 -0.23178254 -0.08821933 0.38265866 0.92388976 -6.7020492e-06 2.1167201e-05
-0.14505412 -0.23727506 -0.088728659 0.38269261 0.92387575 3.8181213e-07 0
0.0023606434 -0.23045821 -0.083867893 -0.02174413 0.99976051 -0.0024607254 0.002798938
0.14995991 -0.23524302 -0.081814319 -0.38270241 0.92387164 -1.647287e-05 1.1152878e-05
0.15724531 -0.23222534 -0.08623638 -0.38272536 0.92386216 -2.5828715e-05 3.34666e-05
-0.1834873 -0.22135562 -0.087827757 0.4417268 0.89714032 0.0040799966 0.0019055413
-0.17648801 -0.22425482 -0.08574871 0.38707072 0.92204267 0.0037031467 7.5324315e-05
-0.16353285 -0.22962098 -0.088535093 0.38269189 0.92387599 1.5783233e-05 1.0040291e-06
-0.073893137 -0.22104068 -0.08379332 0.16596863 0.98611933 0.0048024026 0.00063942862
-0.05435716 -0.22361267 -0.087105811 0.13052233 0.99144536 2.2031902e-06 0
-0.043429062 -0.22505137 -0.085292682 0.13052781 0.99144459 -1.4570926e-05 0
-0.032300964 -0.22651646 -0.085658096 0.13052645 0.99144489 -1.963232e-05 3.5565143e-05
-0.027772075 -0.2271127 -0.085456923 0.1305279 0.99144459 -2.1389489e-05 1.4095815e-05
0.013504923 -0.22899102 -0.085072748 -0.095758155 0.99537194 -0.008066237 0.00058901118
0.02449837 -0.22754368 -0.086994007 -0.13052939 0.99144447 -3.8753305e-06 3.3848075e-05
0.03536585 -0.22611293 -0.087175734 -0.1305218 0.99144542 8.1871785e-06 0
0.044225022 -0.2249466 -0.085814461 -0.13052408 0.99144512 9.0427748e-06 0
0.060173262 -0.22284696 -0.080717273 -0.13052392 0.99144506 1.5551388e-05 1.6103824e-05
0.081075922 -0.22009504 -0.080383986 -0.17033881 0.98538023 0.0032542774 0.0011581751
-0.18980937 -0.21873695 -0.084881604 0.48803881 0.87282163 -0.00073496049 0.0024677999
-0.10031522 -0.21453188 -0.085479416 0.32755151 0.94481683 -0.0055782511 0.0014849202
-0.096254207 -0.216214 -0.086693943 0.27938053 0.9601348 -0.0093596689 0.0019553609
-0.084868394 -0.21959575 -0.084644489 0.22538617 0.97426933 -0.00062666007 0.001977755
0.085651867 -0.2194926 -0.080175713 -0.20824319 0.97807425 0.0023628459 0.0027649375
0.096374407 -0.2161642 -0.083546281 -0.31483522 0.94881761 -0.024977891 0.0013342132
0.19373956 -0.21660352 -0.086779311 -0.50581264 0.8625868 0.009876918 0.0017227434
-0.20873332 -0.20509845 -0.087562934 0.59066045 0.80691957 0.0010163112 0.00030128236
-0.11233242 -0.20955421 -0.08327648 0.37585083 0.92668015 0.00017291168 0.00012130973
0.12477679 -0.20439959 -0.08823131 -0.38269424 0.92387503 -6.2600266e-06 1.171204e-05
0.1321481 -0.20134629 -0.084888689 -0.38268498 0.92387891 2.0057203e-05 0
0.20459707 -0.20827229 -0.080802105 -0.55705994 0.83044863 0.0062672463 0.0012652903
0.21073091 -0.20356564 -0.084221274 -0.60875404 0.7933591 -1.4181862e-05 3.558987e-05
-0.21824172 -0.19780242 -0.080726385 0.60876518 0.79335046 1.0844234e-05 0
-0.153584 -0.19246726 -0.086461693 0.38268635 0.92387831 -1.1407296e-06 2.7706508e-06
-0.24025944 -0.18090767 -0.085650757 0.6087659 0.79334998 -1.0854723e-05 1.497702e-05
-0.23669633 -0.18364175 -0.089493677 0.60874939 0.79336256 -2.0219709e-06 2.713576e-05
-0.16644219 -0.18714124 -0.080865167 0.46248382 0.8865484 0.011861353 0.0010465444
0.16707183 -0.18688042 -0.086112775 -0.45285511 0.89153171 -0.0096734259 0.0012441024
