# .PCD v0.7 - Point Cloud Data file format
VERSION 0.7
FIELDS x y z normal_x normal_y normal_z curvature
SIZE 4 4 4 4 4 4 4
TYPE F F F F F F F
COUNT 1 1 1 1 1 1 1
WIDTH 591
HEIGHT 1
VIEWPOINT 0 0 0 1 0 0 0
POINTS 591
DATA ascii
0.48067367 0.27650103 0.038955554 -0.93956059 -0.34238261 2.0625919e-05 4.5334905e-06
-0.36364782 0.28500974 0.036161885 0.64713413 -0.72055697 0.24902825 0.18778686
-0.33556956 0.28391224 0.035896197 0.15148127 -0.81878996 0.55374759 0.28129321
-0.30410349 0.2863054 0.037472017 0.69820696 -0.70816994 -0.10489147 0.13561088
0.056227371 0.28307641 0.032305039 -0.38731027 -0.91687274 0.096618429 0.1551102
0.081089713 0.28513288 0.030115772 -0.26120844 -0.85237741 0.45301545 0.22238311
0.43433237 0.28659192 0.036820438 -0.99452955 0.077120215 0.070452146 0.053376537
0.47928905 0.2802996 0.037692823 -0.93953788 -0.34244514 2.0238313e-05 0.00010059301
-0.35185489 0.2940588 0.035271224 0.58493251 -0.73695898 0.33874092 0.14689341
-0.32030079 0.29594278 0.038838863 0.98768008 -0.093194231 -0.12570985 0.27154714
-0.29150611 0.29464656 0.038243853 0.59427232 -0.80373603 0.029134866 0.16978228
0.035201043 0.29639488 0.036233775 -0.35889971 -0.90135616 0.24237986 0.13499875
0.044656552 0.29195502 0.036143959 -0.34554118 -0.93836617 0.0083767911 0.14678943
0.067857176 0.29611075 0.037829272 -0.91977859 -0.06660793 0.38674378 0.27719954
0.071305417 0.29324782 0.035798684 -0.611296 -0.77858257 -0.1418674 0.31145126
0.4318015 0.29353526 0.035178445 -0.99321401 0.095140316 0.066889875 0.059625864
-0.34314469 0.30074239 0.034448605 0.59206682 -0.66034049 0.46196041 0.15315214
-0.3356598 0.30648571 0.030144475 0.8345474 -0.54781485 0.058561556 0.17413262
0.091841578 0.30014303 0.03515473 -0.6373229 -0.7617268 -0.11658378 0.1569909
0.45754635 0.30916381 0.0391073 0.1198291 -0.99250531 0.023963129 0.045573503
0.46978748 0.30636638 0.034352146 -0.76287723 -0.64639378 0.013909847 0.082817793
0.47173166 0.30103269 0.03021583 -0.85445434 -0.51924634 0.017058738 0.050351605
-0.32127488 0.31752363 0.030034758 0.58869326 -0.80333322 -0.089977697 0.17881815
-0.29224533 0.31333187 0.039307516 0.36477977 -0.63312417 -0.68270749 0.24021035
-0.28142869 0.31713456 0.031920679 0.35030892 -0.41981438 -0.83728105 0.28909418
-0.25356901 0.31036061 0.035214595 0.070695497 -0.96441859 -0.25475299 0.1176524
-0.23466542 0.31819075 0.037506908 0.41136682 -0.90719187 0.088205688 0.18807667
-0.020187348 0.31933755 0.0305223 -0.33881289 -0.93522221 0.1027879 0.1371613
0.03446959 0.31551552 0.037412282 0.42835379 -0.76823711 0.47573608 0.27909878
0.042069972 0.31246412 0.038467132 0.63231432 -0.7244668 0.27445683 0.293758
0.069962285 0.31693161 0.038982369 -0.6917026 -0.70330149 -0.16405642 0.16934207
0.076485276 0.31192631 0.034026474 -0.65293723 -0.74168783 -0.15353245 0.17296669
-0.31153679 0.32447183 0.034927573 0.46099317 -0.81171119 -0.35862279 0.11371243
-0.27504838 0.32048976 0.039685212 0.23569188 -0.92950368 0.28367636 0.282015
-0.26617736 0.32346785 0.032094561 -0.31082612 -0.68539423 -0.65849972 0.24136984
-0.25364029 0.32875398 0.033109538 -0.24160753 -0.44813681 0.86069685 0.23758255
-0.2277801 0.32104272 0.036792658 0.58846486 -0.80783242 -0.033405602 0.16240603
-0.20254399 0.32836193 0.031061918 0.026690833 -0.99849588 -0.047891319 0.10089893
-0.061439537 0.32992852 0.030347519 -0.16866376 -0.9741168 0.15049599 0.14323159
-0.033994354 0.32505655 0.03932444 -0.45486721 -0.88390648 0.10865109 0.14433214
-0.024179496 0.32099113 0.036778338 -0.20983617 -0.97723013 -0.031465974 0.15141515
0.0061506741 0.32674071 0.031909321 0.86576986 -0.44524005 -0.22848156 0.25454286
-0.29392761 0.33176577 0.035187468 0.44170675 -0.8965627 0.032718122 0.16568816
-0.24082659 0.334503 0.037921023 0.4816741 -0.50992191 0.71271998 0.25799203
-0.23482075 0.33679086 0.035742689 0.96894771 -0.21820289 -0.1163092 0.28208792
-0.18135427 0.33115163 0.035916954 0.309131 -0.95099962 -0.0061397776 0.15589797
-0.17772654 0.33162925 0.031540483 0.19213304 -0.97867155 -0.072710805 0.13925187
-0.16703941 0.33303618 0.03510949 0.26792601 -0.94424808 -0.19134034 0.099331528
-0.15035929 0.33523217 0.037275605 0.21273874 -0.96236873 -0.16908178 0.124662
-0.14444736 0.33601052 0.037315249 0.0036563887 -0.99667573 -0.081389077 0.15699215
-0.1253337 0.33828866 0.034125283 0.066908821 -0.99706542 0.037197769 0.1703473
-0.10980079 0.3362954 0.037340634 -0.19673809 -0.96372426 -0.1803595 0.16685185
-0.09142378 0.33387604 0.039970864 -0.24688339 -0.96619469 0.074272893 0.16302091
-0.089846008 0.33366829 0.031283982 -0.15050328 -0.96698314 -0.20565116 0.15466134
-0.076090761 0.33185738 0.038321055 -0.082598798 -0.99334466 0.080273144 0.17285901
-0.066629365 0.33061177 0.032942019 -0.12650751 -0.98393989 0.12592907 0.16101119
-0.01116457 0.33406374 0.033553123 0.46093544 -0.85651398 -0.23221205 0.26404971
0.028466031 0.33730692 0.035324268 -0.38739142 -0.9218083 -0.01404682 0.13940054
-0.2671636 0.34285182 0.030913759 0.3934015 -0.86748374 0.30447873 0.18874419
-0.25901428 0.34622741 0.037086908 0.46518779 -0.8791939 0.1030462 0.16599174
-0.170789 0.34981424 0.03432931 0.88672531 -0.40112969 -0.22981097 0.24093916
-0.077093184 0.3491362 0.032868963 0.29913318 -0.9172976 -0.26283926 0.31051615
-0.064305328 0.34770522 0.035823032 -0.14946114 -0.87971103 0.45140886 0.27082881
-0.051793598 0.34631151 0.038788423 0.22362025 -0.5974713 0.77007931 0.26611611
-0.046496309 0.34511337 0.032931335 -0.95396954 -0.29868084 0.027053231 0.2944631
-0.035455599 0.34351379 0.035277866 -0.65992922 -0.50780272 0.55374175 0.23264486
-0.0016869656 0.34979668 0.032153398 -0.37764627 -0.89691025 -0.23007686 0.15314963
0.0016521076 0.34841362 0.032436635 -0.49321768 -0.86294633 -0.1098178 0.15060937
0.011728807 0.34423968 0.031301439 -0.54511529 -0.83611816 -0.061284535 0.14814354
-0.24480207 0.35211429 0.036703367 0.3489278 -0.93540961 0.057081304 0.14975463
-0.2347825 0.35626456 0.036289576 0.36978701 -0.92369729 0.1002043 0.15671036
-0.16704166 0.35019463 0.033008084 0.88956565 -0.26267427 -0.37373149 0.23792051
-0.12632057 0.35529786 0.033498716 0.8078472 -0.025519615 0.58883923 0.29173478
-0.11298367 0.35428745 0.037853546 -0.49083841 -0.54544306 0.67938918 0.2412826
-0.10778976 0.35348547 0.036471762 -0.56595308 -0.70574898 0.42616364 0.24235623
-0.093556702 0.35152686 0.035479724 0.60176069 -0.7540648 0.2631925 0.25090849
-0.088565879 0.35062936 0.032667588 0.21393794 -0.95623702 0.19960281 0.27966747
-0.21133281 0.36272919 0.036946628 0.14231315 -0.98974895 -0.011996049 0.1224426
-0.2038947 0.36370841 0.03857407 0.15054543 -0.98545665 -0.078812212 0.12869662
-0.17579116 0.36740834 0.038005073 0.21144578 -0.97116596 -0.11012434 0.13282178
-0.1696573 0.36821589 0.036477014 0.17681541 -0.98421156 0.0079933284 0.15229826
-0.090579182 0.36928916 0.03731047 0.059135858 -0.98467553 0.1640638 0.15812719
-0.086672924 0.36877489 0.031190723 0.2490972 -0.96565902 -0.073846392 0.17572728
-0.078942887 0.36775717 0.038300458 -0.018974515 -0.99896753 0.041278303 0.1916773
-0.067614041 0.36626574 0.033984315 -0.10689539 -0.99372464 -0.032936312 0.18364334
-0.056149911 0.36475644 0.034147382 -0.076217599 -0.99641019 -0.036846165 0.15524246
-0.047200743 0.36357826 0.033159107 -0.2728073 -0.95556253 -0.11169783 0.16822083
-0.036095403 0.36211622 0.03281609 -0.29012036 -0.9569208 0.011524485 0.17454578
-0.13822088 0.37235457 0.035460576 0.13593709 -0.99053556 -0.018985491 0.16090345
-0.12748367 0.37376815 0.036781274 -0.33530554 -0.93226838 0.13581528 0.16147006
-0.11832981 0.3729426 0.03470628 -0.31918791 -0.83519369 0.44785103 0.18464983
-0.14214736 -0.37183762 0.040526457 0.040502675 0.99901915 0.017899536 0.15211609
-0.13400231 -0.37290996 0.043145664 -0.011641275 0.99937218 0.033462055 0.17062721
-0.12666723 -0.37370691 0.046095818 0.062551796 0.9951123 0.076411672 0.14853065
-0.21126322 -0.36273837 0.0465068 0.15318239 0.97637361 0.15241292 0.15490593
-0.20366967 -0.36373806 0.041564379 0.07930588 0.9919256 -0.098965876 0.18019831
-0.18656154 -0.3659904 0.043750104 0.33330134 0.94274777 -0.011700666 0.1629574
-0.17046233 -0.36810991 0.047621995 0.15261394 0.98801899 0.022967944 0.12375963
-0.086983331 -0.36881575 0.048636701 -0.14058577 0.98822534 -0.060384024 0.12215071
-0.063367374 -0.36570665 0.045759749 -0.29352927 0.9520697 0.0860449 0.16207828
-0.24912317 -0.35032445 0.04410084 0.31187382 0.92416632 -0.22057068 0.19028167
-0.23564835 -0.35590589 0.042670403 0.28027835 0.93519682 0.21645072 0.16470608
-0.22899896 -0.35866016 0.042890616 0.33337978 0.93613005 0.11188585 0.14924839
-0.15352382 -0.35295147 0.044437915 0.82284445 -0.19682179 0.53309315 0.26630303
-0.1256834 -0.35647142 0.044193149 0.060280245 0.52895498 -0.8465063 0.2153091
-0.083241805 -0.35074919 0.042267598 0.84033984 0.4803623 -0.25115925 0.27581462
-0.26591009 -0.34337103 0.046830058 0.41485149 0.89191431 -0.17996415 0.16775221
-0.25383091 -0.34837446 0.045735247 0.36891213 0.88554591 -0.28233373 0.1569225
-0.22254118 -0.34309581 0.049024329 0.24132888 0.74444497 0.62254488 0.21755718
-0.21521381 -0.34463775 0.042190813 0.44248518 0.61307526 0.65448105 0.24215189
-0.20278822 -0.34646216 0.044396717 0.55896765 0.1821228 0.80894148 0.25366119
-0.19427325 -0.34761071 0.044718772 0.90834546 0.11332853 0.40257314 0.2551969
-0.1857917 -0.34852618 0.04236573 -0.041714836 -0.0010946561 -0.999129 0.24915597
-0.055626146 -0.34722853 0.04361257 -0.74500972 0.66678643 0.018878184 0.22341253
-0.044916511 -0.34580213 0.043420166 -0.92895472 0.29644343 0.22173047 0.24844262
-0.03254902 -0.34439278 0.049589448 -0.20767424 0.70317191 0.68001515 0.24157797
0.01206381 -0.34410095 0.040560827 -0.10152548 0.9787007 -0.17843106 0.12666479
0.021833878 -0.34005404 0.041585304 -0.12617086 0.99103171 -0.044012148 0.12527762
-0.29736882 -0.33034042 0.04627607 0.1635121 0.98017752 -0.11187409 0.1249745
-0.24541606 -0.33344612 0.047121305 0.19183275 0.68261617 0.70514917 0.24765693
-0.23353735 -0.33819169 0.045216814 -0.28175405 0.83754528 0.46811599 0.23314412
-0.22902574 -0.33992773 0.043769822 0.11039099 0.68923348 0.71608031 0.21808635
-0.1835143 -0.33086726 0.049974807 0.13097137 0.98363096 -0.12376022 0.16409862
-0.14687774 -0.33569053 0.044570267 0.071818411 0.97095138 -0.22824419 0.13098983
-0.13061999 -0.3378309 0.047685608 -0.068162002 0.90491581 -0.42009681 0.13760291
-0.12744677 -0.3382014 0.040364716 -0.19804341 0.95882416 -0.20355612 0.13062768
-0.1102677 -0.33635688 0.046022125 -0.19454643 0.97944528 -0.053278346 0.17196928
-0.094437972 -0.33427286 0.047917169 0.17214863 0.97306985 0.1532966 0.16731288
-0.089356408 -0.33360383 0.041752048 -0.15438202 0.979846 0.12675962 0.16221896
-0.0033295173 -0.33158794 0.041941054 0.50762141 0.85739237 0.084846169 0.2195656
0.028894296 -0.3371295 0.042838085 -0.24541225 0.95068926 -0.18963857 0.12263779
0.036723919 -0.33388638 0.043796014 -0.41512984 0.89423472 -0.16736656 0.12581134
0.042750072 -0.33139026 0.0415975 -0.39907116 0.88031608 -0.25648731 0.10572235
-0.31461528 -0.32236019 0.044639137 0.65732223 0.745848 -0.10788094 0.12980059
-0.30763257 -0.32608905 0.047711067 0.37362349 0.92063779 -0.11327671 0.16497207
-0.27481037 -0.32097369 0.043885216 0.88284928 0.043792102 -0.46761036 0.28261364
-0.26784414 -0.32423174 0.047945872 0.94886154 0.28216964 -0.14157048 0.22081438
-0.25897476 -0.32718343 0.040074751 -0.078407228 0.64142185 0.7631712 0.26953495
-0.22117049 -0.32378054 0.042069405 0.13692297 0.96377021 0.22890843 0.16229951
-0.21708746 -0.32547176 0.047748659 0.17001657 0.94800997 0.26901951 0.17384763
-0.2049945 -0.32803932 0.047328409 0.12920034 0.96864277 0.21222281 0.17722628
-0.054166853 -0.32897106 0.046947375 -0.26328406 0.9562372 0.12763989 0.20805797
-0.047296662 -0.32806656 0.049759775 -0.36281773 0.92283136 0.12940505 0.17837021
-0.02671694 -0.32204217 0.045097403 -0.28506491 0.95837027 -0.01626087 0.15005068
0.0027594557 -0.32980159 0.049960501 0.34862232 0.89650834 0.27337757 0.18293436
0.014501271 -0.32467508 0.047095336 -0.35484347 0.019524734 -0.93472183 0.28728032
0.061466146 -0.32345095 0.049461097 -0.60281813 0.77629399 -0.18433093 0.11805979
-0.32324153 -0.31601462 0.045720242 0.62933803 0.77400392 0.069653712 0.14419109
-0.25184557 -0.3110745 0.04522071 0.47405732 0.80107492 0.36544308 0.16238439
-0.23479252 -0.31813809 0.044938892 0.37116018 0.82901984 0.41828957 0.1561939
-0.0039914707 -0.31262898 0.043015175 -0.16913725 0.92552769 0.33880833 0.15457159
-0.34131569 -0.30214584 0.041504622 0.38275424 0.92183125 -0.061044775 0.14517564
-0.33922419 -0.30375069 0.046057925 0.48325229 0.86337274 0.14510234 0.14485358
-0.31336659 -0.30177715 0.043645307 -0.25338715 0.70796722 0.65922475 0.2825698
-0.30643243 -0.30735925 0.046091489 0.45234269 -0.51577771 -0.72757095 0.28456169
-0.27585784 -0.30112827 0.040480733 0.31183687 0.94368404 0.11053581 0.173379
-0.26452789 -0.3058213 0.049783468 0.45288321 0.84359163 0.28853068 0.15815434
-0.25970775 -0.30781788 0.041926861 0.43785605 0.85297924 0.28409234 0.15302075
0.023559961 -0.30121678 0.047990225 -0.56542915 0.8234337 -0.047400866 0.16348805
0.086770885 -0.30403391 0.041018978 -0.11275231 0.98599321 0.12289942 0.14836058
-0.34578905 -0.2987133 0.043795202 0.61210543 0.77434009 -0.16038828 0.14274599
-0.32438973 -0.29336205 0.044050157 0.61207849 -0.057150073 0.78872925 0.26660275
-0.31846964 -0.29778564 0.042936116 -0.16258535 0.91470009 0.36998588 0.26583105
-0.28365135 -0.29790008 0.043189839 0.28085431 0.95847917 -0.049382381 0.16238271
0.028392222 -0.2992152 0.045237117 -0.34692469 0.91928232 0.18591203 0.16790967
0.06726712 -0.29736793 0.045358203 -0.75076729 0.22006801 -0.62283105 0.27100992
0.071974263 -0.29373431 0.045155197 0.20015857 0.96880442 0.14613208 0.19777313
0.093111858 -0.29916835 0.047962099 -0.53430963 0.83945578 0.099132299 0.16432953
0.1017547 -0.29253644 0.044554904 -0.46602166 0.88301027 -0.05582656 0.13073951
-0.36097515 -0.28706062 0.04096514 0.69955134 0.70950216 0.085055567 0.14342625
-0.35851038 -0.28895187 0.043154236 0.71174115 0.70077282 0.048393864 0.15356113
-0.32983407 -0.289451 0.046545014 -0.31624082 0.22479229 -0.92166162 0.25687799
-0.31093019 -0.28106704 0.044115089 0.66861284 0.74356294 -0.0084315185 0.16921115
-0.30716592 -0.28395551 0.042869557 0.55644506 0.83046365 0.026437784 0.18076727
0.048958398 -0.28865412 0.049825035 -0.36548355 0.92595428 0.095028833 0.15486629
0.079556569 -0.28805262 0.046432108 0.35503617 0.93324655 -0.054772813 0.25009108
0.11788808 -0.28015688 0.046201821 -0.58479851 0.81046611 -0.03398829 0.14702655
-0.38309282 -0.27008909 0.043160047 0.61158442 0.76317185 0.2086463 0.17072432
-0.37944654 -0.27288702 0.040718168 0.46583137 0.87944925 0.097826831 0.17638445
-0.35417464 -0.27081943 0.046971709 0.72303963 0.64176345 -0.25564292 0.27722278
-0.31298572 -0.27948982 0.045274496 0.74268174 0.66548431 0.074528411 0.16416985
0.061357003 -0.27914032 0.040663347 -0.24536373 0.96499586 0.092626296 0.15259749
0.089812294 -0.27972722 0.042165056 -0.32084578 0.77803153 -0.54011565 0.28756806
0.097768337 -0.27368033 0.042707808 -0.82128096 0.52322489 -0.22744943 0.24467705
0.12512395 -0.27460459 0.046912804 -0.50793874 0.85740149 0.082831018 0.12926199
-0.38532904 -0.26837319 0.047902651 0.76263869 0.56706303 0.31116208 0.11921801
-0.36456406 -0.26212311 0.040193088 0.85100442 -0.1443785 0.50492215 0.25087082
-0.35786954 -0.26761648 0.04352963 0.98557925 0.16015448 0.054626431 0.28099266
0.08011277 -0.26474851 0.048415877 -0.5980795 0.77599776 -0.20032078 0.15942828
0.1063679 -0.26700646 0.042004012 -0.92416644 -0.045677628 -0.37924919 0.26346487
0.13847311 -0.26431477 0.043990254 -0.65942985 0.75038725 -0.045510758 0.11759935
0.1409926 -0.2610313 0.04141102 -0.75489682 0.63506746 -0.16376825 0.1181991
-0.39544317 -0.25794739 0.04758656 0.78749943 0.60821843 0.099574752 0.13605739
-0.37137669 -0.25697577 0.040943712 0.76906466 0.12872952 0.62607366 0.24978733
0.094610132 -0.25362429 0.047763646 -0.68442321 0.71930951 -0.11899078 0.16359136
0.12331886 -0.25394055 0.04145186 -0.80202156 0.07825321 -0.59214681 0.2992456
0.14861149 -0.25110218 0.044583075 -0.67589808 0.73610759 -0.036158435 0.14818305
-0.38651145 -0.24089591 0.041764267 0.45126671 0.10927439 0.8856734 0.27415371
-0.36321333 -0.2409488 0.042333174 0.84784573 0.52900892 -0.036156215 0.17082097
0.10611473 -0.2447965 0.041076638 -0.78429538 0.62038714 -0.00067781878 0.13713254
0.15548199 -0.24214837 0.042379141 -0.82985103 0.55630088 0.043318391 0.10361963
-0.41185051 -0.2365649 0.04054445 0.76011008 0.64086336 0.1073627 0.16740498
-0.38817766 -0.23894553 0.043351885 0.48278955 -0.022458261 0.87544835 0.25900775
-0.37232214 -0.23022336 0.044394113 0.78909469 0.613352 0.03359957 0.16168965
-0.36710015 -0.23687953 0.044313326 0.80668074 0.58926868 -0.045039188 0.14830998
0.14006013 -0.23364526 0.042412311 -0.46459749 0.33739749 0.81872582 0.26043102
0.16415238 -0.23084888 0.044423226 -0.73776418 0.66895378 0.090580955 0.12412631
-0.42339921 -0.22151437 0.044715516 0.7278198 0.64787948 0.22478992 0.14033188
-0.40138888 -0.22135834 0.040694736 -0.1564047 0.59357136 0.78943694 0.26627356
-0.39580017 -0.22939456 0.046101652 -0.15649202 0.59795904 0.78610134 0.25159043
-0.37478757 -0.2270104 0.043841723 0.75458324 0.6340906 0.16891776 0.17173211
0.12261619 -0.22712408 0.044041857 -0.65803814 0.74721569 0.093029037 0.1483701
0.14308394 -0.22960103 0.041668646 -0.53072894 0.38124675 0.75695294 0.24182256
0.1704382 -0.22265705 0.047162462 -0.86997902 0.49156344 -0.038754653 0.11565822
-0.43169647 -0.21070114 0.046839293 0.79750288 0.58861917 0.13235068 0.15869106
-0.42745668 -0.21622655 0.044676382 0.69808745 0.6883232 0.19719285 0.1402871
-0.3866719 -0.2115224 0.047962151 0.91027921 0.39958641 -0.10827016 0.16143367
0.15636177 -0.21245731 0.04282001 -0.44189981 0.11187489 0.89006108 0.26540923
0.17849734 -0.21215415 0.043702129 -0.86714482 0.49421039 0.06177273 0.14886035
-0.43915251 -0.20098427 0.044498835 0.83900613 0.52525789 0.14203149 0.10829751
-0.39476234 -0.20097874 0.044247262 0.87165731 0.4783355 -0.10681134 0.12347493
0.14131904 -0.20275003 0.040754341 -0.779405 0.60838187 -0.14966412 0.16736707
0.15869012 -0.20992163 0.046401478 -0.80205137 -0.56048238 -0.20633246 0.27264526
0.18394391 -0.20505607 0.047929369 -0.71900988 0.69434172 -0.03023869 0.15044956
-0.40119261 -0.19259872 0.040442124 0.80470216 0.58917767 -0.07296598 0.14269423
0.14534637 -0.19750154 0.041500814 -0.69232863 0.7135216 -0.10755477 0.16597319
0.16922344 -0.19554338 0.04172625 0.10065018 0.83409113 -0.54236662 0.28452694
0.19547024 -0.19003467 0.04313948 -0.89960909 0.41668692 -0.13067383 0.14347656
-0.4509075 -0.18454455 0.044493709 0.83285064 0.53761607 0.1316382 0.15673567
-0.43286011 -0.18139382 0.048232712 0.31794468 0.10203823 0.94260252 0.20960307
-0.4078517 -0.18392038 0.044814177 0.59351933 0.8048017 0.0053876364 0.14911874
0.15848976 -0.18037273 0.041033052 -0.82514268 0.51121962 -0.24040404 0.16690274
0.17643049 -0.18700403 0.047852658 -0.46157488 -0.010852027 0.88703483 0.26894352
0.1807422 -0.18085127 0.044020373 -0.76512372 0.022998797 0.64347237 0.26481149
0.19736391 -0.18756679 0.044841066 -0.90004557 0.43400806 -0.039433107 0.15129571
-0.45421061 -0.17657018 0.04674951 0.90078616 0.43142205 0.049590964 0.128085
-0.43533295 -0.17734973 0.045585766 0.31804615 0.032250386 0.94752645 0.23732595
-0.41323623 -0.17690317 0.045586724 0.84674513 0.53164184 -0.019484855 0.17285506
-0.45923141 -0.16444887 0.04740854 0.97711807 0.18286829 -0.10862511 0.17094418
-0.44055167 -0.16384968 0.041518122 -0.1312727 0.76861018 0.62610376 0.28833106
-0.43952543 -0.16650666 0.042328157 -0.075795814 0.65264982 0.75385892 0.26064885
-0.42059648 -0.1656865 0.04985958 0.86242974 0.50139779 -0.069391981 0.17854095
0.16838934 -0.16598338 0.043692142 -0.82552522 0.49873602 0.2641409 0.16180781
0.18831894 -0.16563548 0.04796112 -0.89770919 0.049645532 0.43778253 0.29435638
-0.46306354 -0.15519729 0.040310688 0.92923164 0.11252031 -0.35194841 0.14779457
-0.44275331 -0.1591087 0.044110715 0.25593233 -0.21504498 -0.9424724 0.19292462
0.19157661 -0.15805046 0.049224004 -0.51256657 0.51500118 0.68705845 0.28616804
-0.45061797 -0.14036621 0.04521412 0.65707093 0.015330947 -0.75367284 0.21139733
-0.44893146 -0.14491738 0.047379695 0.55402046 0.25413489 -0.79276532 0.21418488
0.17629647 -0.14689387 0.046560101 -0.87656897 0.35269958 0.32745972 0.1443509
0.19651745 -0.14533426 0.045666561 -0.72613668 0.61392486 0.30955085 0.29295555
0.21510461 -0.14523812 0.040988836 -0.92592609 0.35292608 0.13455155 0.16994236
-0.47125769 -0.13541476 0.042742491 0.87195438 0.46479931 -0.15380904 0.15679191
-0.45439154 -0.13055965 0.042070918 0.58762985 -0.78858763 -0.18116435 0.24209997
-0.43279338 -0.13624054 0.045992006 0.90018624 0.29250073 -0.32265779 0.13727041
0.18059717 -0.13651104 0.043536998 -0.96072328 0.25957733 0.098134167 0.14715515
0.20146829 -0.1327963 0.0430227 -0.83309895 -0.4917101 -0.25331265 0.30689245
0.21923548 -0.13526529 0.043103378 -0.91166461 0.3265399 0.24947827 0.16528058
-0.47635904 -0.12309906 0.047491919 0.89019448 0.41723129 0.18295288 0.15061297
-0.45753139 -0.12384439 0.045975916 0.45639578 0.88820165 0.052921768 0.28458974
-0.43718842 -0.12563004 0.041051909 0.97249407 0.22469014 -0.061397888 0.14602751
0.20445749 -0.1252676 0.041613538 -0.30718142 0.77287209 -0.55525529 0.30440301
0.22399986 -0.12376308 0.042747062 -0.96712655 0.25354838 0.019478716 0.15622924
0.18882023 -0.11665881 0.046006113 -0.93115652 0.29549477 -0.21361271 0.16537887
0.2082694 -0.11702155 0.045932822 -0.97386903 -0.22183578 -0.04866102 0.28071177
-0.48252767 -0.10820675 0.04520373 0.83061415 0.5551334 0.043669473 0.11485538
-0.46606976 -0.10306992 0.045248866 0.17034236 0.9844051 0.043931659 0.20308173
0.19241203 -0.10798743 0.044666529 -0.9287892 0.34313828 -0.14002405 0.16850834
0.2144191 -0.10175294 0.04402782 -0.53790033 -0.045737807 -0.84176683 0.27985215
0.23303151 -0.10195877 0.043812335 -0.90249515 0.43014106 -0.021936666 0.16285779
-0.48763186 -0.093945324 0.048168413 0.97717696 0.159917 -0.1398278 0.13933246
-0.4515115 -0.091050982 0.045902845 0.90893203 0.41628805 0.023386005 0.16910048
0.19770914 -0.095199093 0.047821131 -0.90682536 0.41555482 -0.070582651 0.17771073
0.21850547 -0.093104631 0.049522661 -0.93116093 0.31742084 0.17939711 0.24817623
-0.48849148 -0.087416053 0.040289193 0.9911288 0.10256804 -0.084518701 0.15955506
-0.47263205 -0.073690325 0.041185673 0.43250212 -0.87484467 -0.21814835 0.27360204
-0.45464271 -0.074688911 0.043754958 0.94806927 0.30917794 -0.074657656 0.15021811
0.23782027 -0.076683551 0.043479502 -0.99684006 0.057783209 -0.054507151 0.14330636
-0.45604628 -0.064027444 0.044195846 0.99679881 -0.053470381 -0.059439413 0.15851946
0.20332927 -0.068834573 0.048680685 -0.9333635 0.31137288 -0.1785482 0.18348239
0.23872738 -0.069793284 0.046608992 -0.98180085 0.15981613 -0.10259484 0.14474635
-0.49245524 -0.057307947 0.040158316 0.98682123 0.14319175 -0.075366221 0.13559678
0.22410361 -0.050575078 0.047180869 -0.67966133 -0.1976185 -0.70640463 0.26679647
-0.49411675 -0.044687796 0.049634077 0.98666745 0.064146884 -0.14957452 0.13193688
0.20611581 -0.047668628 0.045068622 -0.94454175 0.14908512 0.29259932 0.13623315
-0.49507186 -0.037432987 0.046639994 0.98247242 0.15567568 -0.10253328 0.15641476
-0.47744107 -0.036862858 0.040724702 0.55303675 -0.74096692 0.38094407 0.23967211
0.20804195 -0.03303821 0.04804188 -0.97291058 -0.15115902 0.17491706 0.16415815
0.22593465 -0.034891363 0.04444661 -0.23086369 -0.97236079 -0.034876935 0.29107568
0.24333322 -0.034808379 0.042340964 -0.98888958 0.080723234 -0.12482457 0.16116026
-0.49613816 -0.029333405 0.044278745 0.98323363 0.15600568 -0.094412819 0.1329931
-0.47881708 -0.02701577 0.041656081 0.17564094 0.95351064 -0.24488288 0.23498955
-0.46130499 -0.02408357 0.04431358 0.91732389 -0.26372546 0.2982713 0.18925284
0.2096166 -0.021077525 0.046613947 -0.99056387 -0.13704276 0.0016003196 0.14678162
0.22760963 -0.024781641 0.048470326 -0.14523736 -0.87357008 -0.46452293 0.25154513
0.24418554 -0.028334405 0.044801209 -0.97915173 0.19111308 -0.068830252 0.15240318
-0.4983995 -0.012157189 0.042556718 0.99030417 0.0036216541 -0.13886867 0.12223881
-0.48105597 -0.014509452 0.048585571 0.24748708 -0.60046017 -0.76039308 0.29234439
-0.4626421 -0.013927373 0.047678385 0.98135203 -0.039765693 0.18806061 0.17355737
-0.46320733 -0.0096338643 0.04631108 0.99637771 0.010874558 0.084338792 0.1706313
0.21154961 -0.0063947118 0.049081262 -0.92960143 0.2645523 -0.2566188 0.11707471
0.24704345 -0.006626497 0.04078934 -0.98020482 0.077323437 0.18226232 0.13059422
-0.49988547 0.00086993934 0.049648911 0.93206429 -0.14330181 -0.33274722 0.087078005
0.24703087 0.0067220042 0.048992455 -0.99077857 -0.079855643 0.10945778 0.13301969
-0.49798194 0.015328782 0.049711309 0.96781904 -0.092124723 -0.23417826 0.10940901
-0.4801611 0.01805987 0.043585371 0.10070692 -0.99233788 0.071579099 0.2541014
-0.46261212 0.014154928 0.043274671 0.9950431 0.09445028 -0.031118739 0.14908484
-0.49624407 0.028529007 0.044491321 0.9996748 0.00054968428 -0.025494874 0.13392502
0.22736523 0.023491381 0.04362496 -0.7325027 0.58029437 -0.35594684 0.28291562
-0.49432999 0.043067947 0.042392407 0.97923893 -0.16155367 0.12243988 0.13401519
-0.45854241 0.045067713 0.04342711 0.99943745 0.027668295 0.01895302 0.12649736
0.2064836 0.044874966 0.048229724 -0.94246173 -0.32956076 -0.056174729 0.15887167
0.22456636 0.044706065 0.043555655 -0.94723624 -0.26840594 0.17521913 0.25254944
0.24207491 0.044366334 0.043479998 -0.97094727 -0.032922298 -0.23701803 0.12949932
-0.49297017 0.053396937 0.049847338 0.99408239 -0.10791712 0.012418385 0.1078676
-0.45739317 0.053796753 0.040609702 0.98522604 -0.14288232 0.09441556 0.14730424
0.20500737 0.056088023 0.048389394 -0.81922472 -0.39724505 -0.41360286 0.12371635
-0.47371915 0.068053871 0.045221787 0.46358743 0.77074349 0.43708265 0.24251834
0.20352462 0.067350619 0.047487117 -0.96447617 0.033714812 -0.26200974 0.12644559
-0.47296527 0.074530005 0.046376541 0.57586604 0.28218317 0.76730114 0.24524361
-0.45397383 0.079769425 0.048453301 0.99597186 -0.081343554 -0.037727114 0.15010177
0.22101428 0.071738631 0.043635629 -0.87783086 0.23329017 0.41831645 0.25348821
0.23767029 0.0778227 0.046502523 -0.99069327 -0.041972995 0.12947997 0.18355371
-0.48923516 0.081767127 0.049461558 0.95060897 -0.29499912 0.096529461 0.16076177
-0.47121039 0.085847273 0.043277666 0.60384786 0.0012746152 0.79709852 0.2666724
0.2363093 0.088160433 0.045309007 -0.99600714 0.0090483706 0.088813871 0.16168734
-0.4687413 0.096243486 0.04354763 0.56707537 -0.16876055 0.80619192 0.22214462
-0.45151752 0.091036454 0.041219484 0.96284497 -0.21380804 0.16497204 0.1646179
0.19599012 0.099349245 0.04299536 -0.89068246 -0.45288354 0.039765052 0.17086054
0.21858642 0.09296985 0.049796477 -0.81653982 0.43490633 0.37963042 0.22071549
-0.46446902 0.106654 0.043982558 0.59818596 0.52295721 -0.60719788 0.25858554
-0.44674197 0.10256572 0.049394812 0.99806154 0.05489235 0.029324654 0.19030668
0.19235662 0.10812118 0.043346733 -0.87254196 -0.48716187 -0.03665974 0.16688079
0.21267512 0.10644923 0.046222039 -0.18875058 -0.90371579 0.38427979 0.27234784
-0.4612157 0.1147618 0.045127697 0.85996503 0.12045881 -0.49593323 0.25539926
-0.44166741 0.11481676 0.045968588 0.9856053 -0.16881916 0.009076192 0.16165809
0.20811176 0.11816057 0.049357198 -0.67959094 -0.72308969 0.12368302 0.24223144
0.22602813 0.11555678 0.047777709 -0.93302327 -0.35972095 -0.0082731796 0.12300333
0.25954396 0.11029865 0.049318604 -0.70862329 0.70466262 -0.036105223 0.053195253
0.26541325 0.11306132 0.044564053 -0.91224676 0.39924818 0.091687575 0.087262213
-0.4763169 0.12320083 0.045095608 0.89998287 -0.35633111 -0.25111547 0.13582237
0.18568921 0.12421774 0.042415202 -0.88014698 -0.47406039 0.024659744 0.16619001
0.22339757 0.12521712 0.044827253 -0.88619035 -0.45950228 0.059366439 0.12040927
0.26321346 0.12852019 0.044715188 -0.98587865 -0.16527525 -0.026970053 0.016549595
-0.45212698 0.13618787 0.042798057 0.88453865 -0.37166235 0.28188387 0.27151328
-0.4323681 0.13726729 0.046695828 0.6734004 -0.72637594 0.13751312 0.15820909
0.18278813 0.13122156 0.048895456 -0.87254196 -0.45271289 -0.18363473 0.16272116
0.19878438 0.13989252 0.045807004 -0.28467286 -0.26504067 0.9212572 0.29416576
0.20016061 0.13570902 0.041919909 0.11699817 -0.92306089 -0.36642885 0.28579545
0.22095697 0.13110921 0.0427448 -0.9067378 -0.42091078 0.025702637 0.1312104
0.26189542 0.13213617 0.040869679 -0.98220628 -0.18463811 -0.034345265 0.017664194
-0.46759471 0.1442581 0.045227971 0.80962425 -0.47827426 -0.34023866 0.13939676
-0.45016035 0.14076836 0.042042419 0.92284685 -0.087570205 0.37508032 0.21470812
-0.44867507 0.14499804 0.044949174 -0.22683035 -0.93557829 -0.27063125 0.23756137
-0.43027729 0.14231494 0.040000454 0.67405814 -0.71719682 0.17684582 0.16579966
0.17650014 0.14640215 0.044735555 -0.90838349 -0.38167834 -0.1707661 0.18017699
0.21484093 0.14476819 0.043590844 -0.94161487 -0.33619705 0.01824744 0.14333467
0.25622326 0.14769733 0.048076995 -0.93952894 -0.34246948 -5.4270271e-07 0
-0.46301585 0.15531228 0.046527691 0.98079062 0.049484499 -0.18868229 0.12985545
-0.44397053 0.15608793 0.043740004 0.81710207 -0.12324324 0.56316537 0.27466348
-0.42441738 0.156462 0.043732006 0.95079499 -0.30438265 -0.05779339 0.15031663
0.19240944 0.15462148 0.042820588 -0.8973394 -0.34528536 0.27488199 0.30155614
-0.43943083 0.16813444 0.048646361 0.84534651 0.11107376 -0.52254367 0.27760211
-0.45476794 0.17522457 0.046709899 0.78298026 -0.61183572 0.112245 0.13349764
-0.43501148 0.1769937 0.042991906 0.61820275 -0.67049748 0.41019332 0.21939448
0.16243115 0.17523617 0.045798928 -0.8821094 -0.45560142 0.11962603 0.22381949
0.18371305 0.17715329 0.049759202 -0.57381004 -0.64094657 0.50983292 0.29281265
0.20322663 0.17391405 0.048125587 -0.99012542 -0.089333281 0.1080331 0.16839747
0.24785554 0.17065346 0.041796938 -0.93953353 -0.34245694 8.1966209e-06 1.3582659e-05
-0.43170577 0.18228188 0.04380656 0.42799103 -0.90205395 -0.055878896 0.22456408
-0.40969926 0.18151259 0.046582066 0.67622584 -0.73350251 -0.068503432 0.18448333
0.15222605 0.18853571 0.044643562 -0.66045135 -0.73633802 0.14700454 0.16595377
0.17593057 0.18733084 0.045520987 -0.45291033 -0.88810724 0.078343622 0.27239072
0.19849047 0.18534812 0.046421811 0.10049118 -0.98816365 -0.11590634 0.24681358
0.2014623 0.18088679 0.046118714 -0.97528899 0.22083277 0.0066565243 0.25197935
-0.44311991 0.19581379 0.047711529 0.86035168 -0.50959665 0.010305203 0.14617456
-0.42245999 0.19456351 0.045474924 0.17724818 -0.89463878 0.41012761 0.25721726
-0.41928837 0.19868423 0.045384478 -0.18201087 -0.88192016 0.43484357 0.28784668
-0.40295351 0.19030383 0.043089103 0.56544495 -0.81135517 0.14823855 0.15078108
-0.39817047 0.19653723 0.047024809 0.61460876 -0.78761476 0.043806683 0.17698207
0.14953808 0.19203873 0.04632064 -0.65522391 -0.62317389 -0.42700815 0.19891787
0.22483191 0.19962579 0.042035468 0.15603159 -0.98413187 0.084490091 0.060573258
-0.4117924 0.20828152 0.04415141 0.1709855 0.07024397 0.98276633 0.26919746
0.14139819 0.20264685 0.046730213 -0.57717282 -0.72509068 -0.37565291 0.14402057
0.16372983 0.20318294 0.045174599 -0.30966121 -0.93986803 0.14407669 0.24431887
0.184779 0.20396772 0.046955124 -0.62403345 -0.76091176 0.17775112 0.14126615
0.23622958 0.20254846 0.040172882 -0.21295798 -0.97348934 0.08347024 0.057529487
0.46851289 0.20865974 0.047603019 -0.40479428 -0.9045561 0.13386545 0.10041634
-0.42703539 0.21677558 0.042207401 0.86248308 -0.49177703 -0.11949141 0.15172529
-0.40888572 0.21285823 0.049815036 0.50377178 -0.44576895 0.73993516 0.28265756
-0.38536188 0.21322969 0.044058945 0.91111618 -0.39334163 -0.12308393 0.15864179
0.13501319 0.21096797 0.045981809 -0.56293148 -0.58974451 -0.57905918 0.17304707
0.17529774 0.21632394 0.04665447 -0.84427488 -0.53392923 0.046038158 0.14574921
0.45908153 0.21869448 0.04634513 -0.77641535 -0.62060511 0.10967463 0.030937385
-0.39776087 0.22686107 0.046258077 0.89094698 -0.43191865 0.14021313 0.29887635
0.12604891 0.22265044 0.042364385 -0.78624111 -0.5318858 -0.31451938 0.14781228
0.14369646 0.22862594 0.040398944 -0.34575501 -0.46856183 -0.81295955 0.2031796
0.45761633 0.22271433 0.043054014 -0.86854738 -0.49350041 0.045637861 0.022407193
0.49941498 0.22508571 0.042152762 -0.98994821 -0.11739039 0.078880355 0.036017947
-0.41644967 0.23057114 0.046366304 0.56419224 -0.82558292 -0.0099946288 0.12081643
-0.3904548 0.2357256 0.041539833 0.96007621 -0.085534476 0.26634115 0.25892627
-0.36578715 0.23873995 0.043927841 0.68130249 -0.69207329 -0.23845641 0.14097197
0.11431751 0.23793909 0.046574496 -0.78100914 -0.62080908 0.067976594 0.18769881
0.13850324 0.23642176 0.047781043 -0.9731887 -0.023898635 -0.22876342 0.25149107
0.45367965 0.23351419 0.046383549 -0.92490357 -0.38015226 0.0061292667 0.0035429979
0.49410832 0.23964402 0.046339475 -0.97886401 -0.20331357 0.022111323 0.022120763
-0.38349175 0.2455513 0.046935558 0.98662764 0.055540789 0.15323526 0.26062357
-0.35516819 0.24712202 0.047306329 0.66520751 -0.7360155 -0.12561889 0.15469924
0.1006811 0.24896586 0.045831397 -0.83033752 -0.49662721 -0.25278631 0.17445111
0.12886438 0.24801026 0.040792264 -0.55297655 -0.58708465 0.59122622 0.26796553
0.15512438 0.24261439 0.046399415 -0.79004067 -0.60842359 -0.075208664 0.14782663
-0.37952083 0.25074562 0.047074139 0.97203082 0.074013621 0.2228855 0.2676698
0.088217288 0.25852966 0.047942415 -0.57589519 -0.72978431 -0.36845553 0.14799225
0.095170662 0.25319415 0.046196662 -0.80896086 -0.50107813 -0.30741331 0.16367021
0.48996443 0.25101247 0.040486693 -0.93951792 -0.34249979 -4.0695204e-06 0
0.49030787 0.25007021 0.044167511 -0.93949312 -0.34256786 -2.9879904e-05 0
-0.39208847 0.26231924 0.041712157 0.83713287 -0.44754803 0.31449848 0.13263997
-0.38800576 0.26631925 0.047604404 0.6463002 -0.7494458 0.14362122 0.16404583
-0.36361739 0.26334429 0.044824321 0.39592955 -0.86959291 0.29503906 0.29244244
-0.35826123 0.26734138 0.043768048 0.8216657 -0.39833716 0.40766779 0.22487545
-0.32769272 0.26820469 0.040624414 0.46422073 -0.88527411 0.028083464 0.14084902
0.10428004 0.26903358 0.045982424 0.34893465 -0.71979928 -0.60011137 0.29097402
0.11038218 0.26458028 0.048126042 -0.82902521 -0.53935313 0.14770022 0.3065761
0.13854021 0.2642273 0.049623128 -0.68521035 -0.72834504 0.00041341077 0.15690549
0.44158211 0.2667028 0.044311278 -0.94301516 -0.33274969 9.324414e-05 0.00046932636
0.48347563 0.26881403 0.042689964 -0.93953145 -0.34246281 3.6471087e-05 0.0001091529
-0.37311032 0.27774894 0.044313706 0.60264039 -0.78863579 0.12197568 0.14501898
-0.31718677 0.27626622 0.049367823 0.56982541 -0.78201276 0.25249746 0.1816386
0.092574678 0.27809551 0.046732057 -0.31812802 -0.46528125 -0.82601929 0.29034469
0.10301618 0.27021801 0.047991052 -0.18654011 -0.71285743 -0.67604524 0.27642319
0.12567736 0.27417991 0.04068242 -0.52728456 -0.84208065 -0.11345088 0.16857648
0.43894196 0.27394593 0.044413958 -0.95980805 -0.27972278 0.022885595 0.010186099
0.48268205 0.27099112 0.042654879 -0.93957525 -0.34234235 1.6668875e-05 2.8133045e-05
-0.36376634 0.28491881 0.044538997 0.65805984 -0.74444908 -0.11292844 0.17521104
-0.35963947 0.28808546 0.040198036 0.56482816 -0.82136041 0.07960093 0.20594032
-0.31007612 0.28172243 0.046896547 0.55323958 -0.77803552 0.29763526 0.16763084
-0.304533 0.28597578 0.045707773 0.78832096 -0.60953313 0.083782502 0.15402663
0.077667169 0.28919563 0.043560702 -0.36784479 -0.88257492 0.29283401 0.30102885
0.081067242 0.28676116 0.045194022 -0.0090064341 -0.17112476 0.98520821 0.28066039
0.090370864 0.28005242 0.049220201 0.30233034 -0.51253814 -0.80367965 0.2733877
0.11300639 0.2839027 0.044682328 -0.77306432 -0.62754631 0.092504703 0.1415582
0.43596828 0.28210405 0.046167914 -0.99982083 0.0050837104 -0.018235581 0.07917922
0.47752777 0.28513151 0.044570759 -0.93717551 -0.34885788 -0.00042527713 0.00025182756
-0.32512689 0.29291713 0.045180067 0.95781308 0.15612498 0.24128626 0.22619882
0.066306934 0.29779452 0.042455219 0.46478164 -0.86442769 -0.19168414 0.26982951
0.075676546 0.29082704 0.044533856 -0.5221597 -0.36674294 0.76996672 0.29019648
0.097698182 0.29564908 0.046559513 -0.69886327 -0.65792918 0.28056979 0.15305027
0.10445033 0.29046798 0.045067906 -0.53256911 -0.83937883 0.10868932 0.15938304
0.43332162 0.29530138 0.046394069 -0.97254676 0.22706555 -0.050931271 0.10106789
-0.31319159 0.3022131 0.046469264 0.086346932 -0.70702738 -0.70189494 0.31727213
-0.30444545 0.30849746 0.042474382 0.097384684 -0.54815143 -0.83069026 0.24672484
0.012066876 0.3059774 0.049866267 -0.38502839 -0.91813183 -0.093739174 0.16836494
0.024873346 0.30067277 0.046992425 -0.69608164 -0.71135789 -0.097161978 0.14139326
0.059966274 0.30246806 0.040659823 -0.57821029 -0.23729713 -0.780617 0.26294315
0.061618611 0.30168867 0.045231923 -0.98821324 0.032434437 -0.14960828 0.27024806
0.091969833 0.30004463 0.04589767 -0.64071286 -0.72084683 0.26432317 0.16282748
0.45235038 0.30671805 0.046201266 0.39543214 -0.90575415 0.15245628 0.058986086
0.47163874 0.30128759 0.045604013 -0.81024462 -0.58081818 -0.07844767 0.062154993
-0.32869783 0.31182784 0.041526597 0.60094094 -0.7962963 -0.069153503 0.14441982
-0.3006523 0.31023899 0.043551743 0.60098428 -0.41155866 -0.68515503 0.25328949
-0.29097623 0.31458479 0.047233745 0.82771939 -0.10468646 -0.55129069 0.26083624
-0.28712517 0.31552202 0.04006277 0.52519584 -0.59187329 -0.61143708 0.25739789
-0.24451074 0.31411266 0.045345236 0.28975147 -0.90420395 0.31378245 0.13858907
-0.23660678 0.3173866 0.047677517 0.3559882 -0.83433568 0.42089948 0.16777661
-0.014702233 0.31706551 0.048660524 -0.057105385 -0.99808568 -0.023748752 0.16068427
-0.0052533322 0.31315166 0.048746437 -0.12699561 -0.98843408 -0.082886964 0.15823194
0.03437189 0.31629676 0.045485955 0.28064755 -0.30485451 0.91011029 0.18128036
0.069764763 0.31708318 0.046051137 -0.65566945 -0.75076348 -0.080323011 0.14705822
0.074351065 0.31356394 0.044264011 -0.71663052 -0.68853122 0.11120023 0.13633063
0.46599951 0.31230319 0.041294038 -0.60557789 -0.78729707 -0.11592495 0.07120809
-0.31655872 0.32114249 0.045854621 0.48426864 -0.87177062 -0.074161194 0.12167865
-0.29851925 0.32986388 0.042589333 0.45966256 -0.86058336 -0.21933217 0.14163721
-0.27123344 0.32222366 0.041360661 -0.45935521 -0.85797811 -0.229927 0.25667897
-0.2584624 0.32796666 0.046298426 0.36827874 -0.72322851 0.58421862 0.22506383
-0.22552291 0.32197767 0.044367898 0.31665167 -0.88204312 0.34890053 0.19777693
-0.20813775 0.32762551 0.0474675 0.13550051 -0.92877162 0.34499699 0.13477571
-0.19486006 0.32937351 0.045309175 -0.11937095 -0.97844833 0.16849147 0.15501699
-0.043484129 0.32756463 0.049576655 -0.15898971 -0.97474033 -0.15685508 0.16577955
-0.028925221 0.32295686 0.049003426 -0.42163339 -0.90463293 0.062165208 0.16449106
0.0023509918 0.32907492 0.040196754 0.64450812 -0.7054835 -0.29479206 0.26140189
0.014879937 0.32428285 0.044529896 -0.76710218 -0.24089871 0.59457713 0.26314023
0.023939904 0.3205325 0.044556122 -0.75143892 -0.25936526 0.60668695 0.2874184
0.052731056 0.32725599 0.042778846 -0.34538391 -0.93685502 -0.054887969 0.11155492
0.063038819 0.32224417 0.044415168 -0.68313599 -0.7266748 -0.072588056 0.14735693
-0.29564741 0.33105344 0.046546742 0.48076415 -0.87671655 0.015289003 0.15320769
-0.28502229 0.33545452 0.047771826 0.53851134 -0.84172279 0.038836565 0.15619563
-0.27548656 0.33940434 0.044433095 0.40029797 -0.9020012 0.16172671 0.14856569
-0.18452522 0.33073413 0.043630086 0.31869194 -0.94785261 0.0032855247 0.15342353
-0.17766632 0.33163714 0.04606751 0.19211972 -0.97777677 0.083921209 0.16854914
-0.14669524 0.33571455 0.045556944 0.17154942 -0.98415273 -0.044878833 0.16088678
-0.13704041 0.33698565 0.048947245 0.11194065 -0.98113465 0.15761982 0.16978996
-0.11092639 0.33644357 0.046693388 -0.14864053 -0.98614693 -0.07362286 0.17690228
-0.10138085 0.3351869 0.0490878 -0.12549049 -0.9915697 -0.032273032 0.1853864
-0.095896907 0.33446491 0.047872093 -0.19133455 -0.95190614 -0.23930262 0.1782932
-0.070928767 0.3311778 0.044739332 -0.11532263 -0.98876023 0.095151462 0.18528295
-0.067222036 0.33068979 0.044309802 0.061068159 -0.97899246 0.19453655 0.16071038
-0.0038709221 0.33216476 0.045783769 0.57403868 -0.79577589 -0.19292577 0.21503951
-0.2710987 0.34122187 0.042894572 0.36943287 -0.92370987 0.10138705 0.14421432
-0.25983176 0.34588879 0.041799784 0.453053 -0.89059228 -0.039854582 0.13791694
-0.22157522 0.34324887 0.046331611 0.42262551 -0.61742294 0.66345805 0.26523384
-0.21920787 0.3442198 0.046226405 0.047407281 -0.8830328 0.46691066 0.2932367
-0.1943686 0.34775102 0.046506565 -0.73668039 -0.63616914 -0.22932692 0.2733303
-0.068383515 0.34914917 0.046432495 0.22110382 -0.89124572 -0.39597237 0.28068244
-0.052049048 0.34709206 0.047524396 0.05131384 -0.41534707 0.90821457 0.25875777
-0.04470785 0.34582692 0.044031229 -0.074519679 -0.31914401 0.94477195 0.28463101
-0.032493308 0.34386292 0.044065751 0.87782675 0.028107191 -0.47815287 0.28080803
0.0063147922 0.34648228 0.044118837 -0.46040156 -0.88400984 -0.080975391 0.14440632
-0.23349886 0.35679621 0.044787094 0.39816818 -0.91526741 0.0612172 0.13282809
-0.22981031 0.35832408 0.040996082 0.55502981 -0.8316682 0.016428974 0.12375839
-0.15524769 0.35236222 0.040200159 0.92088628 0.099837862 -0.37682989 0.27564168
-0.13945018 0.35520425 0.049115613 0.55630261 -0.43573892 -0.70757258 0.30567813
-0.11542723 0.35521683 0.044961467 -0.24027877 -0.38948065 0.88914061 0.26289189
-0.1083446 0.35416341 0.043546569 -0.61367923 -0.64757311 0.45171553 0.22994114
-0.087848671 0.35185385 0.048093904 0.033232331 -0.70547342 -0.70795679 0.28435686
-0.078475513 0.35024986 0.043766536 0.72972876 -0.11331834 0.67428106 0.31456447
-0.017248331 0.35624245 0.047857903 -0.35751057 -0.93301255 0.040911134 0.14917266
-0.20118694 0.3640649 0.040292937 0.16156185 -0.97621608 -0.14456813 0.12560852
-0.16636984 0.36864868 0.045426928 0.15959068 -0.98162436 -0.10461572 0.15727094
-0.15777694 0.36977994 0.045789391 0.18553048 -0.95548099 -0.22942188 0.13786037
-0.087992847 0.36894867 0.040496178 0.076950908 -0.99191612 0.10090029 0.17547618
-0.073503003 0.36704105 0.043202888 -0.12580298 -0.93046778 -0.34409782 0.1686451
-0.060843721 0.36537442 0.048480351 -0.12305198 -0.99238217 0.0059801019 0.17016333
-0.056368694 0.36478525 0.04515123 0.0084369183 -0.99816388 -0.059980694 0.15001352
-0.031396326 0.36149758 0.042710423 0.016122326 -0.97851533 -0.20554264 0.16681544
-0.029819857 0.36129007 0.046617515 -0.24080358 -0.95854586 0.15232682 0.1397866
-0.15284893 0.37042874 0.048294865 0.17698389 -0.95405811 -0.2417642 0.13147035
-0.14967908 0.37084609 0.04601679 0.16740055 -0.94846606 -0.26905233 0.1160423
-0.13410936 0.37289587 0.048048168 -0.0080618281 -0.99260199 -0.12114572 0.14971614
-0.12551086 0.37388799 0.040666625 -0.13745011 -0.98048788 0.14053808 0.14628436
-0.11998433 0.37316042 0.043888412 -0.12714575 -0.99129075 -0.034303367 0.15981586
-0.098929793 0.37038854 0.045604948 -0.27423537 -0.96135777 0.024210107 0.1469906
-0.15046856 -0.37074211 0.055470154 0.1517816 0.98427749 0.090333186 0.12904185
-0.13478476 -0.37280694 0.056200325 0.068148263 0.98926777 0.12924837 0.10323399
-0.21834701 -0.3618058 0.05626668 0.1758063 0.96152663 0.21108937 0.14722098
-0.17729524 -0.36721033 0.050023522 0.1944048 0.96966857 0.14815421 0.1152143
-0.16227111 -0.36918828 0.057531245 0.052713603 0.99618596 -0.069532923 0.1216081
-0.15679882 -0.36990872 0.057666559 0.11251059 0.99268574 -0.043777887 0.13556853
-0.085298158 -0.36859387 0.050681487 -0.1377016 0.99000704 -0.030403603 0.13178636
-0.074434623 -0.36716366 0.052740261 -0.14173461 0.98928934 0.034897678 0.16653802
-0.047204174 -0.36357868 0.051126182 -0.28543732 0.92491603 0.25110918 0.12516975
-0.031487856 -0.36150962 0.059883498 -0.22017822 0.8894273 0.40055043 0.13999966
-0.24886009 -0.35043341 0.059513092 0.35357282 0.93357116 0.058576178 0.13713735
-0.23274612 -0.35710806 0.055128094 0.32471955 0.92625374 0.19134083 0.16492429
-0.22728281 -0.35937101 0.054658487 0.32867292 0.92608255 0.18532491 0.14557967
-0.17491208 -0.35113025 0.056070857 0.27535233 0.93711442 -0.21447064 0.29120871
-0.14601409 -0.3549509 0.056259748 0.79678565 -0.19708562 0.57121789 0.2082845
-0.093031973 -0.35351568 0.059549674 0.37477493 0.69125187 0.61783057 0.16288936
-0.082557753 -0.35157844 0.053019777 0.91240418 0.3935298 -0.11248561 0.28262699
-0.011654715 -0.35392547 0.056769114 -0.45940122 0.87180752 0.17000625 0.13585705
-0.2624431 -0.34480715 0.058011744 0.553469 0.82893986 0.080813073 0.16841568
-0.25265527 -0.34886137 0.055159312 0.44817132 0.89380568 0.015931461 0.1420836
-0.22366105 -0.34308404 0.053951811 0.11103317 0.69587797 0.70952475 0.22887537
-0.21097019 -0.34666377 0.059353516 -0.28487501 0.83583653 0.46927989 0.26037493
-0.20447609 -0.34737134 0.057629537 0.074977733 0.9167735 0.39230683 0.25721279
-0.19649342 -0.34828871 0.056066997 0.97867942 0.014119286 0.20490798 0.27616996
-0.057655621 -0.34831548 0.05320102 -0.65266937 0.71713352 0.24442218 0.29635206
-0.046337996 -0.346856 0.053557679 -0.44541398 0.56716168 0.69277275 0.22479126
-0.035415024 -0.34568876 0.056725029 -0.23492987 0.56334192 0.79211986 0.20096277
-0.020059315 -0.34016448 0.059890166 -0.17187144 0.3099108 0.93510187 0.24623935
0.0067234794 -0.346313 0.056828886 -0.2933059 0.95297533 -0.076220483 0.14707975
-0.27862138 -0.33810586 0.056688212 0.37965792 0.92461777 0.030690681 0.12626025
-0.25217742 -0.33160144 0.057540864 0.50011218 0.73205352 0.46258566 0.26598826
-0.24151446 -0.33602548 0.057620101 0.38494974 0.68621087 0.617194 0.26233408
-0.2321886 -0.339863 0.057343755 0.16349052 0.80435741 0.57120925 0.23909786
-0.15200511 -0.33501551 0.058630459 -0.17846584 0.80016148 -0.57261807 0.19998667
-0.14296204 -0.33620602 0.05103521 -0.1332598 0.96273565 -0.23533377 0.17505775
-0.12708701 -0.33829606 0.059098125 0.17369436 0.93538868 0.30802327 0.15818176
-0.11953339 -0.33757672 0.051331937 0.018076664 0.97665226 -0.21406411 0.17879933
-0.10911131 -0.33620462 0.051763348 -0.10073767 0.99204361 0.075507 0.16679181
-0.084364951 -0.33294669 0.057901476 -0.12162139 0.99064064 -0.061962608 0.15163866
-0.075060502 -0.33172172 0.054581232 -0.34818828 0.93643063 -0.04315554 0.16211757
-0.010067753 -0.33567524 0.056069039 0.27365512 0.82680243 0.49143726 0.24198435
-0.003562849 -0.33321381 0.058608577 0.37044725 0.90988082 0.18677723 0.24936216
0.00042686798 -0.33125776 0.055301152 0.46220332 0.861103 0.21182458 0.20166786
0.023929048 -0.33918619 0.054656301 -0.24419029 0.96290082 -0.11486119 0.12795597
0.038833994 -0.3330124 0.050358605 -0.38540393 0.91138572 -0.14436023 0.13560975
-0.31151924 -0.32447916 0.055172406 0.49914944 0.86635411 -0.016744208 0.15743133
-0.30403396 -0.32757962 0.050419554 0.47529709 0.87684011 -0.072415799 0.15049173
-0.27088708 -0.323475 0.053435583 0.84193426 0.49654105 -0.21117187 0.24590567
-0.26850924 -0.32482576 0.057422474 0.80268717 0.5653103 0.19004638 0.20855215
-0.20696703 -0.32777965 0.052868083 -0.073043026 0.97659558 0.20230098 0.19667371
-0.061185472 -0.32989505 0.050222084 -0.012792773 0.99991804 -0.00043975955 0.17540219
-0.048446827 -0.32821798 0.052568831 -0.32015213 0.94703376 0.025095804 0.17426924
-0.023581101 -0.32074326 0.052927658 -0.1571447 0.9713403 0.17833559 0.16739647
0.012534324 -0.32622328 0.055089649 -0.75964522 -0.035344671 -0.64937651 0.25208658
0.048436467 -0.32903486 0.05091783 -0.48685825 0.86027193 -0.15133151 0.11475731
0.053907841 -0.32676858 0.054114811 -0.54244691 0.79777849 -0.26325029 0.09101887
-0.31885076 -0.3193838 0.058870096 0.59879619 0.7958082 0.090180129 0.13367942
-0.29694659 -0.31272256 0.053890668 0.36795369 0.1057061 0.92381614 0.24719839
-0.28457296 -0.31797242 0.055248015 -0.068178296 0.83692133 0.54306024 0.21662252
-0.23777336 -0.31690338 0.052004907 0.50226426 0.84044981 0.20340784 0.17471372
