# .PCD v0.7 - Point Cloud Data file format
VERSION 0.7
FIELDS x y z normal_x normal_y normal_z curvature
SIZE 4 4 4 4 4 4 4
TYPE F F F F F F F
COUNT 1 1 1 1 1 1 1
WIDTH 577
HEIGHT 1
VIEWPOINT 0 0 0 1 0 0 0
POINTS 577
DATA ascii
0.21873865 0.081774622 -0.11350722 -0.98646146 -0.16399051 0.00089472032 0.00099491968
-0.48787904 0.092067681 -0.11193004 0.95861369 -0.28465369 0.0056688623 0.0016391263
-0.45062879 0.092382476 -0.11425385 0.95170039 -0.30679753 -0.011899212 0.0018313713
-0.44865188 0.097155191 -0.11632482 0.94271988 -0.33357814 -0.0021822124 0.0015077854
0.21763624 0.090148151 -0.1138645 -0.96824723 -0.24996839 0.0036221417 0.0027404225
-0.48312587 0.10513715 -0.11265683 0.94012392 -0.34081617 0.0033675092 0.00078268634
0.17695186 0.10006305 -0.11412339 -0.93352121 -0.35841706 0.0086770738 0.00052388303
0.21382578 0.10225117 -0.11156226 -0.95046198 -0.31084085 0.00028163157 0.0016567573
-0.48082104 0.11070144 -0.11585627 0.93316895 -0.3594 -0.0052252915 0.00041261231
-0.44109613 0.11539634 -0.11416493 0.92387432 -0.38269606 0.00011227322 0
0.16962075 0.11776193 -0.11095124 -0.9238705 -0.38270521 -8.9293098e-07 0
0.17168136 0.11278719 -0.11638495 -0.92388201 -0.38267744 -3.6373215e-06 0
0.2085716 0.11493587 -0.11709151 -0.92889667 -0.37033591 -0.0015274086 0.00020624597
0.21017249 0.11107098 -0.11730544 -0.93322229 -0.35923365 -0.0068823518 0.00029816874
-0.43868101 0.121227 -0.11549291 0.92388517 -0.38266984 -3.6040474e-05 0
0.16647038 0.12536758 -0.11261819 -0.92388207 -0.38267723 -1.8595292e-05 1.1497952e-05
-0.47178784 0.1325096 -0.11372495 0.92388451 -0.38267136 4.4196491e-05 1.5157265e-05
-0.46968907 0.13757646 -0.11642449 0.92388755 -0.38266391 -2.6326499e-05 6.744754e-06
-0.43430614 0.13178885 -0.11733872 0.92390215 -0.38262874 -1.4262325e-05 0
0.16186859 0.13647731 -0.11709914 -0.92387784 -0.38268775 -9.7648917e-06 5.0641916e-06
0.20169093 0.13154729 -0.11412215 -0.92388034 -0.38268134 3.6866529e-06 5.34398e-07
-0.46602833 0.14641425 -0.11280669 0.92386824 -0.38271073 -6.5342292e-08 0
-0.43039471 0.14123183 -0.11505061 0.92388475 -0.38267091 -6.3665386e-05 9.9662044e-05
-0.42813289 0.14669247 -0.11514188 0.91386485 -0.40601793 0.00064010074 0.00063737051
0.15754533 0.14691462 -0.11217412 -0.92093557 -0.38971034 0.0018735863 0.00011225626
0.19742937 0.1418356 -0.11552742 -0.92388147 -0.38267872 -1.8774241e-05 1.4588582e-05
-0.46135652 0.15769306 -0.11707576 0.92385477 -0.38274324 -1.8676796e-05 2.1432336e-06
-0.42390448 0.15690067 -0.1160131 0.89474845 -0.44656521 0.0021769728 0.0013879598
0.19355124 0.15119825 -0.11297771 -0.92388612 -0.3826676 -1.0118966e-05 1.5230112e-05
-0.4601962 0.1604943 -0.11007226 0.91830665 -0.39586973 0.00019409014 0.00013577339
-0.45764071 0.16666374 -0.11409472 0.91028267 -0.41398209 0.0020990171 0.00062577554
0.15059376 0.16369715 -0.11578022 -0.87366974 -0.48651236 -0.0026034934 0.0027873015
-0.40984342 0.17884828 -0.11608384 0.8050015 -0.59326494 -0.0030508779 0.00036051258
0.18509367 0.17161661 -0.11334711 -0.90336442 -0.42886969 -0.0018966286 0.0012889256
-0.44728008 0.18739662 -0.11293414 0.85703146 -0.51464981 0.025151968 0.0019440728
0.13118517 0.18948616 -0.11606532 -0.79332864 -0.60879356 1.438669e-06 0
0.17788513 0.18596235 -0.11192933 -0.84770823 -0.53043467 -0.0054657422 0.0020345512
0.18019927 0.18294652 -0.11353885 -0.86578494 -0.50041604 0.00051132397 0.0025905203
-0.44395137 0.19173469 -0.11342634 0.83555156 -0.54915118 0.016926382 0.0015689402
-0.43958306 0.1974276 -0.11164048 0.79522949 -0.60630524 -0.0020186857 0.00012815792
-0.39901227 0.1929637 -0.11315303 0.79332376 -0.60879987 -5.5410714e-05 0.00011689724
0.12721094 0.19466546 -0.11272341 -0.79333204 -0.60878915 5.9497092e-09 0
0.16963097 0.19671935 -0.11971942 -0.80578399 -0.59218562 0.0053173173 0.0006458807
0.17178158 0.19391665 -0.11705537 -0.81543612 -0.57883275 0.0040759128 0.0011296449
-0.38726392 0.20827448 -0.11759357 0.79334611 -0.60877085 -4.6639348e-06 8.4312429e-05
0.11659911 0.20849508 -0.11582081 -0.79336846 -0.60874176 -1.311677e-05 1.9787389e-05
0.12170384 0.20184247 -0.11500161 -0.7933386 -0.60878062 1.2381745e-05 0
0.16381177 0.20430312 -0.1164171 -0.79415405 -0.60771638 -0.00018944277 1.8732229e-05
-0.42740574 0.21329737 -0.1139735 0.7933417 -0.60877657 -1.4842717e-06 2.641973e-05
-0.38475904 0.21153888 -0.11205982 0.79264021 -0.60968953 -0.00041240963 0
-0.37894928 0.21911025 -0.11816483 0.78591049 -0.61833012 0.0035453741 0.00020343593
0.1095013 0.21774513 -0.11706442 -0.78455961 -0.62005329 8.2907005e-05 0.00017189819
0.11166292 0.21492805 -0.115556 -0.78631026 -0.61783141 -0.00069522869 0.00015636485
0.15583351 0.21470058 -0.11882389 -0.79334259 -0.60877544 3.0918538e-05 0
-0.4154858 0.22883177 -0.11425683 0.79340971 -0.608688 -7.1377349e-06 2.4049077e-06
-0.37477082 0.22455581 -0.11915822 0.75825715 -0.65185004 0.011730084 0.0017636155
0.10035166 0.22966917 -0.11345626 -0.73048037 -0.68292248 0.0039207647 0.0019317933
0.14623502 0.22720957 -0.11994196 -0.79328853 -0.60884595 2.928952e-05 0
-0.41301212 0.2320555 -0.11454521 0.79332161 -0.60880286 1.8766268e-05 0
-0.37008643 0.23066059 -0.11889876 0.73593032 -0.67703259 0.0057849255 0.0020826869
0.093676127 0.23617131 -0.11608825 -0.68407643 -0.72938442 -0.0061447965 0.0020364453
0.13737178 0.23876035 -0.1134067 -0.7920562 -0.61044776 0.00069614599 1.3808111e-05
-0.40662625 0.24037774 -0.11164623 0.79247564 -0.6099034 -0.00040092517 0
-0.35259283 0.24505603 -0.1174698 0.61523849 -0.78834045 -0.00096143526 8.930383e-05
0.07746356 0.24861163 -0.11915295 -0.61078334 -0.79179728 -0.00086908019 1.1069817e-05
-0.39883414 0.2505326 -0.11061281 0.74726808 -0.66452271 -9.9506491e-05 0.001795884
-0.34603125 0.25009093 -0.11644977 0.60874474 -0.79336613 1.3676045e-06 0
-0.33653483 0.2573778 -0.11775101 0.60873544 -0.79337335 -2.6348882e-05 3.6015193e-05
-0.38314229 0.26561067 -0.11508504 0.65252942 -0.75775117 0.0043108072 0.00071509747
0.052153423 0.26803279 -0.11256888 -0.60876435 -0.79335111 -1.8481762e-05 5.0191575e-06
-0.32000774 0.27005944 -0.11028387 0.60250461 -0.79811406 -0.0014976263 4.7253259e-05
-0.31519195 0.27375475 -0.11553647 0.59521776 -0.80355883 -0.00299962 0.00015291975
0.037550822 0.27923778 -0.11451776 -0.54935396 -0.83557421 0.0050888518 0.0015160096
0.095469885 0.27879095 -0.1141267 -0.60876381 -0.79335159 2.7319278e-05 0
-0.30453277 0.28193384 -0.11897391 0.53439218 -0.84520072 -0.0077909818 0.001778902
-0.29473773 0.28758422 -0.11555608 0.47034538 -0.8824771 0.0030487345 0.002485171
0.021950277 0.28853354 -0.11586332 -0.4339186 -0.90090692 0.0090174302 0.00099877035
0.030501664 0.28464678 -0.11123876 -0.51070338 -0.85975426 -0.0021623198 0.0018253237
0.085494496 0.28644535 -0.11811434 -0.60877723 -0.79334128 -2.6415486e-05 0
0.090667754 0.28247574 -0.11471745 -0.60876459 -0.79335093 1.98862e-05 0
-0.34866548 0.29206565 -0.11596526 0.60877609 -0.79334217 4.0532075e-05 6.7257592e-05
-0.33936948 0.29919872 -0.11891342 0.60865515 -0.79343492 -2.9504492e-05 6.7772919e-05
-0.28700948 0.29078537 -0.11281031 0.39558002 -0.91842598 0.0031820133 0.00026497201
-0.27721769 0.29484123 -0.11144491 0.382718 -0.92386526 5.075563e-06 0
-0.26624352 0.29938686 -0.11128776 0.38272282 -0.92386329 -3.07714e-05 1.7906235e-05
-0.0032860907 0.29898679 -0.11379303 -0.38268229 -0.92388004 -1.5280308e-05 0
0.0069012078 0.29476705 -0.1170358 -0.3846654 -0.92305601 -0.00038183169 0
0.012674207 0.2923758 -0.11603641 -0.41227019 -0.91105467 0.0035644334 0.00062583707
0.077824503 0.29233074 -0.11762699 -0.60877258 -0.79334486 5.4039128e-06 0
0.080286056 0.29044193 -0.11887374 -0.60876358 -0.79335171 -1.7348955e-05 1.4720023e-05
-0.33657011 0.30134678 -0.1127844 0.60863018 -0.79345411 -7.0938941e-06 2.2197219e-05
-0.32763684 0.30820152 -0.11723358 0.58325207 -0.81228685 0.0026804223 0.00071583985
-0.26200417 0.30114284 -0.11221919 0.38267156 -0.92388451 -4.0093506e-05 7.820419e-05
-0.25470793 0.30416507 -0.11478272 0.38272783 -0.92386109 2.1157366e-06 0
-0.025555594 0.30821112 -0.11373848 -0.38269863 -0.92387325 -1.3106503e-05 7.2788748e-06
0.061036509 0.30521259 -0.11335501 -0.60354012 -0.79733264 6.5276938e-05 7.3865936e-05
-0.32105926 0.31324866 -0.11938123 0.53424555 -0.84528482 -0.0086735459 0.0021195228
-0.24029845 0.31013367 -0.111383 0.37527725 -0.92691129 -0.001554913 0.00020111351
-0.23460111 0.31249359 -0.11561131 0.3544555 -0.9350636 -0.0041687046 0.00084335695
-0.22132502 0.31799272 -0.11222265 0.2664609 -0.96378732 -0.010612738 0.0026377277
-0.048182704 0.31758353 -0.11262667 -0.28412199 -0.95877874 0.0042388826 0.0023643656
-0.031761199 0.31078157 -0.11924777 -0.37143198 -0.92846012 0.00020920136 0.00010666119
0.044540018 0.31695682 -0.11639082 -0.49001333 -0.87161821 -0.012983412 0.0021496292
-0.30710679 0.320241 -0.11869502 0.42085677 -0.90711731 0.0042111347 0.0010483655
-0.2853412 0.32925659 -0.11308318 0.38269651 -0.92387414 -2.243476e-05 5.8933962e-05
-0.18654211 0.32279357 -0.11486336 0.13050535 -0.99144757 5.2511132e-06 2.2347564e-05
-0.17442492 0.32438886 -0.11777589 0.13043773 -0.99145657 -2.6928719e-05 2.9366598e-05
-0.16843688 0.32517719 -0.11436337 0.13053386 -0.99144381 4.7572134e-06 0
-0.15543963 0.32688832 -0.11862984 0.11171201 -0.99373591 0.0030822109 0.00037729469
-0.14409946 0.32838127 -0.11864833 0.038562804 -0.99922532 0.0078614326 0.0019789366
-0.13893676 0.32906097 -0.11712176 0.023928512 -0.9997133 -0.00089146424 0.0018154248
-0.12702566 0.32846418 -0.11592649 -0.047046885 -0.99886769 -0.0070627579 0.0015304699
-0.11561488 0.3269619 -0.11555675 -0.11148529 -0.99376535 -0.0012129549 0.00038960375
-0.1044457 0.32549149 -0.11487488 -0.13055679 -0.99144089 5.0638532e-06 3.1349722e-05
-0.085200563 0.32295778 -0.1121074 -0.13056414 -0.99143988 -1.4338973e-05 7.9281854e-05
-0.075274684 0.32165101 -0.11538932 -0.13373664 -0.99101657 -0.0008561245 4.9819384e-05
-0.066663817 0.32051736 -0.11527281 -0.15766181 -0.98749101 -0.0020537486 0.00068904809
0.022947352 0.32590079 -0.11228868 -0.3857632 -0.92259735 -0.00082871719 0
-0.27402031 0.33394587 -0.11596443 0.38269806 -0.92387348 -3.9047092e-05 8.9231013e-05
-0.26597419 0.33727869 -0.11358146 0.38255927 -0.92393094 5.6011533e-05 0
-0.010089064 0.33958492 -0.11085688 -0.3826867 -0.92387819 2.8772081e-05 0
-0.0050837458 0.33751166 -0.11005902 -0.38271496 -0.92386651 1.6678405e-05 4.2075586e-05
0.0073157791 0.33237562 -0.11791565 -0.38271353 -0.92386699 -5.4728857e-06 4.9786191e-05
-0.25303328 0.342639 -0.11517461 0.38270432 -0.92387092 1.4160546e-05 0
-0.24357474 0.34655687 -0.11592282 0.35289142 -0.93561924 -0.0091773579 0.00093089521
-0.034156658 0.34955406 -0.11357892 -0.31806841 -0.94797581 -0.013206577 0.0031172214
-0.22336693 0.35315114 -0.11345405 0.21022406 -0.97755808 -0.013643187 0.0018620003
-0.21719164 0.35396412 -0.11381575 0.18537287 -0.98266524 0.0023964371 0.0010084498
-0.20243882 0.35590637 -0.11527168 0.1305096 -0.99144709 8.3489209e-07 0
-0.19998828 0.35622898 -0.11046288 0.13059445 -0.99143589 8.9968426e-06 0
-0.18404421 0.35832807 -0.11567717 0.13056493 -0.9914397 3.146278e-05 0
-0.17270897 0.35982037 -0.11022312 0.13052379 -0.99144524 1.8104553e-05 0
-0.098666482 0.35993624 -0.11110869 -0.13053203 -0.99144411 -1.3770993e-05 5.5165925e-05
-0.08884225 0.35864282 -0.11935405 -0.13052353 -0.99144524 -9.1580762e-07 0
-0.070460625 0.35622287 -0.11856652 -0.13052464 -0.99144506 4.0071824e-05 0
-0.062664174 0.35519642 -0.11825728 -0.14949736 -0.98876119 0.0013561582 0.00028899196
-0.04314952 0.35262725 -0.1159566 -0.20403993 -0.97889191 0.011763728 0.0019433991
-0.037399076 0.3508971 -0.1135733 -0.28505009 -0.95840544 -0.014333813 0.0035885882
-0.17060387 0.36009753 -0.11800651 0.13055144 -0.99144155 -2.0192349e-05 5.633046e-05
-0.16184342 0.36125085 -0.11856332 0.12766889 -0.99181682 -0.00014219541 8.4097519e-05
-0.15517311 0.362129 -0.11174148 0.12735869 -0.9918552 0.0017511979 5.4183969e-05
-0.13668197 0.36435083 -0.11444169 0.011928201 -0.99992126 -0.0038867872 0.0018898178
-0.10606769 0.36091056 -0.11581946 -0.13058014 -0.99143779 -2.680097e-05 2.0732256e-05
-0.15651818 -0.36195192 -0.1049538 0.13051391 0.99144655 3.3854192e-06 0
-0.14801371 -0.36307153 -0.1055727 0.085425146 0.99627036 0.012165472 0.0011582958
-0.13741854 -0.36446643 -0.10385495 0.0079899514 0.99993265 0.0084133996 0.0021620237
-0.23180728 -0.35143107 -0.10526828 0.27754939 0.96065301 0.010591145 0.0027635703
-0.22572124 -0.35284114 -0.10873174 0.21859905 0.97580153 -0.0050928779 0.0021331583
-0.21794118 -0.35386541 -0.10825455 0.18347818 0.98300952 -0.0052995202 0.0013008356
-0.20300668 -0.35583159 -0.10899164 0.13406593 0.99097234 -0.00052990945 0
-0.19300336 -0.35714856 -0.10416993 0.13046917 0.99145234 -9.7752882e-06 9.5973992e-05
-0.18637335 -0.35802144 -0.10515255 0.13040473 0.99146086 -2.8477591e-06 2.102265e-05
-0.090401523 -0.35884809 -0.10311632 -0.13053685 0.99144351 -8.3771129e-06 8.0562631e-06
-0.085402787 -0.35819003 -0.10544888 -0.13056158 0.99144018 -3.4453678e-05 3.9980776e-05
-0.070628904 -0.35624501 -0.1080346 -0.13053328 0.99144393 -3.6030775e-05 4.4728757e-05
-0.066721343 -0.35573053 -0.10191018 -0.13053371 0.99144387 -9.7093789e-06 3.8790044e-05
-0.054641649 -0.35414022 -0.10411618 -0.19099106 0.98153943 0.010138813 0.0014891427
-0.047139093 -0.35315251 -0.10162974 -0.20392881 0.97881126 0.018481214 0.0015953534
-0.25577277 -0.34150422 -0.10419992 0.38269284 0.92387563 -4.2666857e-06 1.621149e-05
-0.24854562 -0.34449786 -0.10715379 0.3731789 0.92774373 0.005396883 0.00011283199
-0.034695715 -0.34977731 -0.10501654 -0.30383009 0.95271349 0.0049239811 0.0019649002
-0.026325993 -0.3463105 -0.10857002 -0.34867153 0.93724453 -0.00097718439 0.0010669738
-0.012458631 -0.34056643 -0.10833459 -0.38268396 0.92387927 -8.7522716e-07 0
-0.27146563 -0.33500409 -0.10378668 0.38259122 0.92391771 -6.5664703e-06 9.8251321e-06
0.0067013004 -0.33263013 -0.10510558 -0.38270459 0.9238708 3.2410968e-05 2.8286709e-05
-0.30239105 -0.32219434 -0.10768829 0.39850017 0.91716826 -0.00014622776 0.00018322015
-0.29091868 -0.32694638 -0.1017566 0.38270813 0.92386925 -2.2604032e-05 4.1974574e-05
-0.28976637 -0.32742366 -0.10512893 0.38265765 0.92389017 -2.1025984e-05 7.3880015e-05
-0.19278193 -0.3219721 -0.10297672 0.130531 0.99144417 -1.439989e-05 2.3156679e-05
-0.18300143 -0.32325971 -0.10688518 0.13051811 0.9914459 -1.3461894e-05 0
-0.17156136 -0.32476586 -0.10288318 0.13053191 0.99144411 -9.9909184e-06 0
-0.15313146 -0.32719222 -0.10909902 0.11600474 0.99324459 -0.0028270888 0.00040548932
-0.14835376 -0.3278212 -0.10254393 0.092710778 0.99565905 -0.0082376283 0.00087595871
-0.13599531 -0.32939994 -0.10446805 -0.0028220811 0.99999171 0.0029345399 0.0027143124
-0.12692145 -0.32845044 -0.10225479 -0.055867068 0.99843508 0.0025052154 0.0017694511
-0.10935991 -0.32613841 -0.10194579 -0.1260042 0.99202961 -0.00041619706 0
-0.096299589 -0.32441902 -0.10624412 -0.13052627 0.99144489 2.1488204e-06 0
-0.087916039 -0.32331529 -0.10093124 -0.13053624 0.99144351 1.1229328e-05 0
-0.075865552 -0.32172883 -0.10442203 -0.13052981 0.99144441 -1.785224e-05 4.6437952e-05
0.01910485 -0.32749242 -0.10177955 -0.38360798 0.92349607 -0.00013885282 0
0.022833129 -0.32594812 -0.10505684 -0.38370755 0.9234547 -0.00015671179 0
0.032543756 -0.32192582 -0.10557625 -0.40226954 0.91551125 0.0042829835 0.00038610707
-0.31395483 -0.31740448 -0.10742681 0.4774076 0.87861174 -0.011108889 0.0021751104
-0.2330862 -0.31312108 -0.10571221 0.34676769 0.93794984 0.0014728545 0.00095777831
-0.22652407 -0.3158392 -0.10512078 0.32259855 0.94645631 -0.012271101 0.0017702257
-0.21551023 -0.31897989 -0.10201566 0.21990901 0.97550213 -0.0059720851 0.0015301658
-0.043298893 -0.31556064 -0.10592978 -0.31769761 0.94816399 0.0072948933 0.0013294882
-0.037523486 -0.31316838 -0.10223068 -0.34923527 0.93703508 0.00029973435 0.0007552749
0.039292287 -0.31913051 -0.10969138 -0.4517757 0.89211857 0.0048156972 0.0020579586
-0.25380534 -0.30453894 -0.10711182 0.38266701 0.9238863 -1.3732109e-05 4.2182735e-05
-0.2498128 -0.3061927 -0.10844696 0.38268042 0.92388076 -8.9219529e-06 0
-0.022605099 -0.30698901 -0.10368828 -0.38268203 0.9238801 -1.6645501e-05 0
-0.014974711 -0.30382836 -0.10195293 -0.38272232 0.92386341 6.4602809e-06 3.6781814e-05
0.065326646 -0.30192065 -0.10087939 -0.60623425 0.79528612 -0.00016840472 3.8316717e-05
-0.3490757 -0.29175085 -0.10675643 0.60880375 0.79332089 -1.8767763e-07 0
-0.27734008 -0.29479054 -0.10520921 0.38565522 0.92264253 0.00087473646 0.00015036578
-0.26657748 -0.29924852 -0.10805595 0.38271773 0.92386532 -3.4094446e-05 7.1682543e-06
-0.0041325046 -0.29933739 -0.10533388 -0.38267979 0.92388105 1.8932707e-05 0
0.015759014 -0.29109806 -0.1037845 -0.41903839 0.90796834 -0.00062838284 0.00092522084
0.075479127 -0.29413041 -0.10455442 -0.6087653 0.7933504 1.5586807e-05 0
-0.35671648 -0.28588787 -0.10295926 0.60880572 0.79331928 1.9025005e-05 0
-0.30002993 -0.28538898 -0.10127454 0.47600442 0.87943995 0.0022618766 0.0018881826
-0.29403287 -0.28787616 -0.10563451 0.43995515 0.89795214 0.011023855 0.0013680094
-0.28997287 -0.28955787 -0.10409068 0.4260515 0.9046939 0.0029924957 0.0012539498
0.033313792 -0.28248894 -0.10600701 -0.5156436 0.85679507 0.0037108276 0.0013812534
-0.37307298 -0.27333713 -0.10348632 0.61108297 0.79156655 0.00013387806 6.6713583e-05
0.037024986 -0.27964127 -0.10386769 -0.54994833 0.8351258 0.011033342 0.0017708534
0.046445608 -0.27241257 -0.10199255 -0.60215819 0.79836977 0.0033652007 0.00014245309
0.096765615 -0.27779669 -0.10591359 -0.60876876 0.79334772 -8.945608e-06 1.0449815e-05
-0.38781837 -0.26202255 -0.10359029 0.68075746 0.7324267 -0.010972199 0.0023195269
-0.32450143 -0.26661137 -0.10745931 0.60872853 0.79337859 -1.7009788e-05 0
0.061694253 -0.26071185 -0.10295625 -0.60878062 0.7933386 -7.1696591e-06 1.8872581e-05
0.10788201 -0.26926678 -0.10232669 -0.61565137 0.78800571 -0.0045285365 9.434783e-05
0.11502341 -0.263787 -0.1044934 -0.6595915 0.75148124 -0.014663401 0.0022289169
-0.39061838 -0.25987405 -0.10407986 0.69528145 0.71873361 -0.0023998311 0.0027484624
-0.34416783 -0.25152075 -0.10768026 0.60882282 0.79330623 3.5571349e-05 0
0.06290397 -0.2597836 -0.10802174 -0.60875207 0.79336053 7.9781785e-06 0
0.12000468 -0.25996473 -0.10442944 -0.69560659 0.71832079 0.012117691 0.0026218432
-0.35653496 -0.24203114 -0.10186826 0.6252116 0.78045046 -0.0027439233 0.00045595728
-0.34769168 -0.24881682 -0.10316306 0.60891521 0.79323536 9.3751205e-06 0
0.078238547 -0.24801695 -0.10350837 -0.60878384 0.79333615 1.2199746e-05 2.8964379e-05
0.086285248 -0.24184251 -0.10915843 -0.62889379 0.77749056 -0.0010364483 0.00064403465
0.1342964 -0.24276827 -0.1041872 -0.77468002 0.63235343 -0.0001740533 0.00058870181
-0.41071725 -0.23504624 -0.10327245 0.79338592 0.60871887 -9.0769718e-06 5.1288029e-05
-0.36509645 -0.23546167 -0.10624737 0.69808096 0.71593863 -0.010717793 0.0022019197
0.093567714 -0.23625448 -0.10508858 -0.68510222 0.72818118 -0.019676022 0.0023235816
0.1416595 -0.23317251 -0.10787725 -0.79332012 0.60880476 6.2024023e-06 0
-0.42038578 -0.22244594 -0.10687269 0.7933495 0.6087665 2.7228812e-06 0
0.14493278 -0.22890669 -0.10556208 -0.79336125 0.60875112 -6.568232e-06 3.1396514e-05
-0.42554319 -0.21572465 -0.10704307 0.79331875 0.60880655 3.244025e-05 0
-0.38368925 -0.21293308 -0.10967064 0.78895575 0.61444908 -0.0010908005 8.9106456e-05
0.10793235 -0.21978982 -0.10316914 -0.77578026 0.6310029 -0.0005817028 0.00016286518
0.11255997 -0.21375898 -0.10542874 -0.78096193 0.62457401 -0.0023981726 0.00020496396
-0.43234885 -0.20685542 -0.10127272 0.79333401 0.60878652 -3.2321612e-05 0
-0.39323795 -0.20048897 -0.10788533 0.79330939 0.60881859 -4.0902974e-05 8.3886735e-05
-0.44338796 -0.19246891 -0.1041133 0.81288034 0.58243054 0.00060266478 0.00051167578
-0.40023369 -0.19137195 -0.10285075 0.79332799 0.60879445 -2.4797049e-05 5.0583341e-05
-0.39670217 -0.19597432 -0.10464278 0.79326844 0.60887206 -3.0693398e-05 8.7841472e-05
0.12637509 -0.19575477 -0.10258891 -0.79332858 0.60879374 2.6488873e-05 0
-0.44699165 -0.18777247 -0.10806394 0.8395555 0.54327369 0.0004214193 0.0015188672
0.1364783 -0.182588 -0.1054659 -0.7933532 0.60876161 -7.7030027e-06 1.2941045e-05
-0.45324209 -0.17728293 -0.10292175 0.89161694 0.4527891 -0.0010885639 0.0017064414
-0.41297942 -0.17476135 -0.10146481 0.81186825 0.58380622 -0.0063424883 0.00061738951
0.13952802 -0.17861354 -0.10129657 -0.81196594 0.58364308 -0.0084910486 0.00080784352
0.14251955 -0.17471494 -0.10095029 -0.830118 0.55742961 -0.013276743 0.0012250865
0.18427274 -0.17359853 -0.10449398 -0.89265591 0.45044312 -0.016321434 0.0019823853
-0.4601728 -0.16055071 -0.10520007 0.92327768 0.38413328 2.562736e-05 0
-0.45842609 -0.16476765 -0.10957395 0.91732168 0.39814502 -0.0011683374 0.00028112467
-0.42130062 -0.16318704 -0.10680754 0.87444997 0.48510009 -0.0038864894 0.0025582882
0.18676318 -0.16758609 -0.10635835 -0.91812754 0.39628321 0.0011452626 0.0002596289
-0.46341401 -0.15272586 -0.10402355 0.92388117 0.38267943 1.8405361e-05 5.8267859e-05
-0.42273739 -0.1597183 -0.10466643 0.88824874 0.45929304 -0.0080007622 0.0017006542
0.1548879 -0.15333018 -0.10360271 -0.89230466 0.45092687 -0.021386979 0.0011579692
0.1911231 -0.15706028 -0.10194872 -0.92370111 0.3831141 -4.9620932e-05 0
0.15925974 -0.14277568 -0.10310171 -0.92049491 0.39074796 0.0022739472 0.0001227422
0.19677512 -0.14341514 -0.10762304 -0.92387557 0.38269305 -2.7815279e-06 9.2776045e-06
0.20167941 -0.13157512 -0.10494027 -0.92387551 0.38269323 1.7946018e-05 0
-0.47463557 -0.12563455 -0.10738839 0.92384928 0.38275653 2.2919637e-06 0
-0.43766937 -0.1236693 -0.10430028 0.92389637 0.38264269 -1.0019837e-05 0
0.16578729 -0.12701672 -0.10375761 -0.92388058 0.3826811 -5.8476626e-06 2.4650706e-05
-0.47717404 -0.11950618 -0.10005564 0.92386442 0.38272002 -2.7610276e-05 4.8057474e-05
-0.4431054 -0.11054548 -0.10565354 0.92386305 0.38272318 2.4787714e-05 0
0.16886792 -0.1195794 -0.10575405 -0.92388046 0.38268125 1.7138282e-06 0
0.17057952 -0.11544726 -0.10427006 -0.92387849 0.38268599 2.1809401e-06 1.6041777e-05
0.20677811 -0.11926573 -0.10196741 -0.92395782 0.38249436 1.7952065e-05 4.6091595e-06
-0.48295891 -0.10554022 -0.10569224 0.9453696 0.32588169 0.0087939715 0.0013263194
-0.4453699 -0.10507852 -0.1027276 0.93075037 0.3655844 0.0071983556 0.00019044871
0.21319719 -0.10376871 -0.10627006 -0.94752061 0.31967649 0.0034050134 0.0016560331
-0.48550183 -0.099401101 -0.1028956 0.9550665 0.29588306 0.01735566 0.001823924
-0.45116532 -0.091087192 -0.10193199 0.95773673 0.28764388 -0.0012102406 0.0020281763
0.17743675 -0.098892428 -0.10983254 -0.93621057 0.35143152 -0.0023663447 0.00077802816
0.21646935 -0.095753767 -0.10334692 -0.96469748 0.26317105 0.0099890381 0.0021768056
-0.48835799 -0.088429727 -0.10684086 0.97900653 0.20369279 0.0074457531 0.00092449144
0.21848072 -0.08373367 -0.10488723 -0.97902888 0.20361599 0.0065565864 0.0013915964
-0.49034724 -0.073319875 -0.10312632 0.98897815 0.14803173 -0.0029859531 0.00020539816
-0.48974255 -0.077912986 -0.10182872 0.98465794 0.17445937 -0.0035568564 0.0009936376
-0.45429271 -0.079767913 -0.10859329 0.97705454 0.21256505 -0.013437697 0.0021057802
0.18479091 -0.07222005 -0.10152632 -0.98014754 0.19788249 0.012378772 0.0010775407
0.21928725 -0.077607483 -0.10934791 -0.98649615 0.1637191 -0.0046222871 0.00059238885
-0.49111167 -0.067513615 -0.10675266 0.99144566 0.1305199 8.6291675e-06 0
-0.45626622 -0.064777926 -0.10845538 0.990165 0.13988543 -0.002324532 0.00025150369
0.18523528 -0.068844743 -0.10256831 -0.98543411 0.17003405 -0.0028407252 0.00067347399
-0.49270365 -0.055421308 -0.10303056 0.99144405 0.13053256 -3.2955588e-05 2.7551436e-05
-0.45721734 -0.057553545 -0.10443427 0.99143958 0.1305664 -2.0774374e-05 0.00018391003
0.18661162 -0.058390435 -0.10678796 -0.99144387 0.13053393 1.6124721e-05 0
0.22233608 -0.054449309 -0.10566902 -0.99144489 0.13052621 7.3094557e-06 2.2953995e-05
-0.49436766 -0.042781983 -0.10559288 0.99144626 0.13051529 3.8932099e-05 2.5462195e-06
-0.45868173 -0.046430346 -0.10637023 0.99144572 0.13051999 7.5975608e-05 0
0.22356406 -0.045121975 -0.10542486 -0.99193293 0.12575449 -0.015967555 0.00042723899
-0.49490306 -0.03871502 -0.10363585 0.99144626 0.13051552 1.0270167e-05 0
-0.45970452 -0.038661428 -0.1065475 0.9914428 0.13054194 -3.5148179e-05 0.0001500637
0.18919988 -0.038730688 -0.10826497 -0.99144322 0.1305383 2.4745821e-05 0
0.22434844 -0.039163962 -0.10950926 -0.98536241 0.16836226 -0.026741946 0.0071114465
0.42543015 -0.033649836 -0.10484912 -0.41240782 -0.79321253 0.44803312 0.067604311
0.43682602 -0.039317142 -0.10778738 -0.0044610449 0.99997616 0.005265716 0.10426312
0.44886258 -0.035146177 -0.10642371 -0.36954975 0.87606972 0.30973336 0.074998133
-0.49633422 -0.027844202 -0.10919345 0.99144506 0.13052477 3.5670917e-05 3.8938273e-05
-0.46191683 -0.021857174 -0.10757558 0.99273187 0.12034092 -0.0011941831 0.00026778851
0.19121842 -0.023398394 -0.10597167 -0.99354476 0.1134339 0.0012605831 0.0002525179
0.41664657 -0.025323967 -0.10633381 -0.6123175 -0.60898948 0.50418162 0.029253522
0.45501581 -0.027836451 -0.1079781 -0.66748279 0.638897 0.38246208 0.042813461
0.46057335 -0.024273898 -0.10286995 -0.68066639 0.62051469 0.38942876 0.042987596
-0.49807507 -0.014621229 -0.10419919 0.99417573 0.10776638 0.00096060691 0.00055129529
-0.46250433 -0.017394667 -0.10388075 0.99493843 0.1004863 0.00016110804 0.00078521884
0.19179556 -0.019014403 -0.10969004 -0.99424708 0.10707439 0.0027851821 0.00032009228
0.22749552 -0.015259543 -0.10748851 -0.96665519 0.15381169 -0.20474306 0.049733523
0.40998125 -0.017370123 -0.10879889 -0.67651826 -0.33546498 0.65558088 0.017569179
0.41478565 -0.014315867 -0.10218249 -0.75878358 -0.2969352 0.57972157 0.015691832
0.46589518 -0.013721557 -0.10002824 -0.85792172 0.23894632 0.45483521 0.0041188705
-0.46470198 -0.00070205785 -0.10344979 0.99985123 0.011469399 0.012879618 0.0028904148
0.19367398 -0.0047464175 -0.10148908 -0.99776006 0.066892251 -0.00057165534 0.0014019914
0.22900194 -0.0038171734 -0.10609514 -0.98908776 -0.010321669 -0.14696531 0.042162567
0.40711504 -0.0064365268 -0.10806584 -0.7133134 -0.19480397 0.67322767 0.0081647858
0.41462147 -0.0085449489 -0.10042828 -0.76775801 -0.24684018 0.59128469 0.0078543751
0.46627292 -0.0015203962 -0.10394269 -0.88253731 0.1156512 0.45579886 0.0038454505
-0.49903148 0.007356545 -0.10288592 0.99849159 -0.054489847 0.006737553 0.0024114239
-0.46354333 0.0095026838 -0.10994785 0.99726021 -0.073328979 -0.0097359559 0.0019535758
0.19354899 0.0056958697 -0.10509737 -0.99912733 -0.041041609 -0.0077614174 0.0020178957
0.40633526 0.0066290493 -0.10752346 -0.7090556 0.011400383 0.70506042 0.0051311273
-0.49776089 0.017007705 -0.10817929 0.99256086 -0.12168306 -0.0040337043 0.0002033151
-0.4632172 0.011979753 -0.10735966 0.99747378 -0.071034454 0.00029972682 0.0020254552
0.22779307 0.012999535 -0.10518679 -0.98163104 -0.08189439 -0.17231882 0.046829637
0.46813178 0.011407685 -0.10022487 -0.88233757 -0.092220999 0.46149287 0.0028631974
0.19072382 0.027155133 -0.10450228 -0.99144387 -0.13053392 -2.6945096e-05 3.3067794e-05
0.22621216 0.025007743 -0.10937238 -0.97076941 -0.1291482 -0.20230553 0.062463645
0.41229564 0.025421128 -0.10442472 -0.73029172 0.33558378 0.59502727 0.0086035924
0.46545196 0.023253469 -0.10259442 -0.86744934 -0.22191201 0.44529393 0.0045512039
-0.4956539 0.033011898 -0.10459827 0.99144208 -0.13054723 8.0299725e-07 0.00011244876
-0.45978144 0.038077045 -0.10290027 0.99144286 -0.13054132 -3.3441909e-05 1.3702495e-05
0.22525218 0.03229937 -0.10706062 -0.97945929 -0.14349613 -0.14166261 0.04108211
0.41466266 0.033195183 -0.10555436 -0.68285555 0.44265333 0.58117658 0.018653417
0.45992479 0.031196143 -0.10810729 -0.80058885 -0.36675981 0.47386149 0.0073949685
0.463128 0.030949196 -0.10317954 -0.8257162 -0.36444029 0.4305532 0.0084983436
-0.49428397 0.043417655 -0.10520391 0.99144572 -0.13051929 -1.6116679e-05 0
0.18818957 0.046404764 -0.10534877 -0.99144536 -0.13052203 1.4268601e-05 0
0.22337289 0.046574045 -0.10418914 -0.9760347 -0.19835792 -0.089500792 0.021638883
0.41947407 0.041995402 -0.10713965 -0.48314923 0.74088383 0.46653828 0.076368079
0.42797184 0.047347646 -0.10324963 -0.48990026 0.82297713 0.2875872 0.084200449
0.4580338 0.042426296 -0.10086714 -0.61349452 -0.71531063 0.33459711 0.047459546
0.22204471 0.056662474 -0.10188721 -0.98648155 -0.15497307 -0.053268041 0.0054641841
0.44758242 0.050461739 -0.10223281 -0.38193151 -0.87066966 0.30993962 0.051236529
-0.45600373 0.066771492 -0.10591441 0.98605281 -0.16642427 0.0016780867 0.00092312292
0.22130126 0.062309723 -0.1000459 -0.99021572 -0.1388133 -0.01427141 0.00057600864
-0.49041855 0.072778165 -0.10048258 0.99137872 -0.13102788 -6.355263e-05 0
-0.45520848 0.07281217 -0.10700126 0.98184806 -0.18924612 0.012660193 0.00098274171
-0.48835677 0.088439152 -0.10900237 0.97192764 -0.23517653 0.0069722305 0.0023730004
-0.45425338 0.080066875 -0.10682508 0.97208083 -0.23443763 0.0098890718 0.0017819669
0.21794237 0.087822787 -0.10411061 -0.97145474 -0.23667559 -0.016133113 0.0022375602
-0.45019272 0.093435258 -0.10406415 0.95281917 -0.3035284 0.0024868704 0.0020674278
-0.44937974 0.095397949 -0.10789818 0.94677967 -0.32188165 0.00068015064 0.0018449888
0.18064326 0.09115123 -0.10371663 -0.94993323 -0.31199181 0.016969383 0.0018457193
0.21748871 0.09126883 -0.10332934 -0.97037292 -0.24158323 -0.0037117626 0.0023883122
-0.48224506 0.10726365 -0.10526403 0.93542451 -0.35352087 -0.0019934939 0.00054689264
-0.44557405 0.10458571 -0.10401016 0.92904645 -0.36996287 -0.00028605727 0.00012215257
0.21356834 0.10287265 -0.1049892 -0.94682115 -0.32173249 -0.0042402549 0.0013605534
-0.47855806 0.11616485 -0.10347511 0.92997539 -0.36762115 -0.00066569663 0.00024128867
-0.44083324 0.11603104 -0.10602881 0.9238807 -0.38268071 2.25541e-06 0
0.17023329 0.11628313 -0.10904681 -0.92386991 -0.38270658 9.092756e-06 0
0.2083251 0.11553099 -0.10401072 -0.93232173 -0.36162993 0.00020655703 0.00025937843
0.1668328 0.12449265 -0.10647044 -0.92387611 -0.38269165 -1.7809396e-07 0
0.20291954 0.12858117 -0.10636435 -0.92387825 -0.38268647 -8.0968557e-06 0
-0.43371752 0.1332099 -0.10033931 0.92386174 -0.38272646 5.796507e-05 0
-0.43074611 0.14038354 -0.10746831 0.92387664 -0.38269037 -2.8812432e-05 0
0.15901536 0.14336562 -0.1034032 -0.92387915 -0.38268438 1.0202349e-05 0
0.19501016 0.14767608 -0.10207933 -0.92389387 -0.382649 7.9639567e-06 0
-0.46212071 0.15584807 -0.10663027 0.9238525 -0.38274848 -4.3738164e-06 0
0.15391698 0.15567422 -0.10554133 -0.90199566 -0.43174398 -0.00098774827 0.00089785678
0.19143064 0.15631782 -0.107725 -0.9235754 -0.3834168 0.00021017071 0
-0.45795989 0.1658932 -0.10625091 0.91520542 -0.40297961 0.0025389972 0.00036384532
-0.4222841 0.16081263 -0.10838782 0.87681407 -0.48082915 0.00064476626 0.0022938848
-0.41800529 0.16821156 -0.10596536 0.85490978 -0.51826578 0.023020163 0.0020591582
0.18700776 0.16699564 -0.10489248 -0.91153789 -0.41120148 -0.0034557702 0.00076821761
-0.45556903 0.17166534 -0.10459921 0.90964133 -0.41533706 0.0069087292 0.00079462642
-0.41119304 0.17708941 -0.10847638 0.81196803 -0.58367008 -0.0060941433 0.0005392867
0.14356089 0.1733578 -0.10287441 -0.81770891 -0.5756256 0.0026875574 0.001127
0.18448365 0.17308937 -0.10581043 -0.899073 -0.43767458 -0.010425122 0.001531109
-0.44892064 0.18525867 -0.10783446 0.86293268 -0.50499636 0.018050091 0.00162848
-0.40601301 0.1838402 -0.10734328 0.79759365 -0.60319519 -1.7900436e-05 0.00010638306
0.13601077 0.18319732 -0.10725334 -0.79746693 -0.60336035 -0.00165746 6.3645835e-05
0.17661577 0.18761659 -0.10669307 -0.84302855 -0.53784353 -0.0052047479 0.0018478152
0.18112935 0.18118735 -0.10927188 -0.86858886 -0.49551526 -0.0042340974 0.0021318386
-0.39530653 0.19779313 -0.10508146 0.79331559 -0.60881054 -1.5272195e-05 3.8698327e-05
0.12489297 0.19768631 -0.10742796 -0.7933625 -0.60874957 1.2185306e-05 2.6577416e-06
0.17245224 0.19304264 -0.10540807 -0.82370001 -0.56702465 0.0011969373 0.0014775118
-0.43513736 0.20322137 -0.10564188 0.79335868 -0.60875446 -5.8132697e-05 8.481602e-05
0.16319132 0.2051117 -0.10161999 -0.79332268 -0.60880142 -1.3880713e-05 0
-0.42416146 0.21752539 -0.10625923 0.79333168 -0.60878962 -3.6496232e-05 5.844613e-05
-0.38213256 0.21496177 -0.10339642 0.7927649 -0.60952753 0.00014179917 7.7867171e-06
0.10861728 0.21889721 -0.10670073 -0.78167498 -0.62368339 -0.0018217287 0.0002619139
0.11275563 0.21350399 -0.10776755 -0.7908296 -0.61203629 -0.00029357782 2.8961256e-05
0.15499985 0.21578699 -0.10675256 -0.79331154 -0.60881597 -5.0754243e-06 0
-0.42130828 0.22124372 -0.10726789 0.79340458 -0.60869461 -8.2426004e-06 0
-0.41743866 0.22628671 -0.10055833 0.79335546 -0.60875869 -2.5461356e-06 3.5246794e-05
0.10594793 0.22237597 -0.10557761 -0.76506257 -0.64395589 -0.0003072723 0.0012742224
-0.36768734 0.23347361 -0.10779363 0.69813198 -0.71594018 -0.0064282324 0.0022662082
0.096319973 0.23372442 -0.10613728 -0.69583237 -0.71811944 0.011036299 0.0023200519
0.13642114 0.23999929 -0.10314055 -0.79258114 -0.60976636 0.00039412521 0
0.1434584 0.23082814 -0.10697426 -0.79333889 -0.60878021 3.6045337e-06 0
-0.40508044 0.24239226 -0.1052465 0.78421479 -0.62048703 -0.0017372214 0.00030078553
-0.35413957 0.24386916 -0.10402842 0.61598855 -0.78775418 -0.0011557544 0.0001553711
-0.34886795 0.24791422 -0.10294259 0.60879636 -0.79332656 2.5922527e-05 0
0.079601571 0.24697107 -0.10368291 -0.61880529 -0.78554356 0.001134892 0.0001342585
0.086174555 0.24192744 -0.10618934 -0.63466012 -0.77278966 -0.0016682757 0.00084180536
-0.39317417 0.25757635 -0.10708519 0.71139258 -0.70262998 -0.015218075 0.001759047
-0.34075505 0.25413948 -0.10113956 0.60875762 -0.79335624 1.5487978e-05 1.2892268e-05
-0.33656853 0.25735193 -0.10752047 0.6086759 -0.793419 2.1250609e-05 0
0.07353612 0.25162527 -0.10631292 -0.61025918 -0.79220182 8.9597415e-05 0
0.1225965 0.25779462 -0.10427817 -0.69269407 -0.72112489 0.012406425 0.0030921821
-0.38777369 0.26205683 -0.1019076 0.67084777 -0.74155509 0.0077018114 0.0019852242
-0.37900549 0.26878494 -0.10737377 0.63199365 -0.77497154 0.0017396684 0.00048329111
-0.33098686 0.26163489 -0.10493991 0.6086998 -0.79340065 -3.4710031e-06 8.6154367e-05
-0.32710129 0.26461637 -0.10151509 0.6087541 -0.79335892 -4.815437e-06 0
0.057708558 0.26377016 -0.10233488 -0.60876971 -0.79334706 -1.1046344e-05 0
0.062564813 0.26004383 -0.10438905 -0.60876751 -0.79334867 -1.9696425e-05 0
0.11253235 0.26569846 -0.10530318 -0.61930424 -0.78514981 -0.0014453667 0.00010984947
-0.37450463 0.27223855 -0.10672732 0.61061001 -0.79193133 -0.00033434387 7.8496032e-06
-0.31930155 0.27060136 -0.10591507 0.60341281 -0.79742855 -0.00087852811 0.00013206899
0.046476677 0.2723887 -0.10510381 -0.60342664 -0.79741567 -0.0021391215 0.00011752739
0.099318102 0.27583811 -0.10790113 -0.60940558 -0.79285872 3.3901539e-05 2.4677356e-05
-0.3629542 0.2811015 -0.10523293 0.60883063 -0.79330021 2.85482e-06 0
-0.35431308 0.28773212 -0.10477512 0.6087324 -0.79337561 -1.7462024e-05 6.2354025e-05
-0.29589248 0.28710592 -0.10505572 0.49046987 -0.8714146 -0.0086980183 0.0021229263
0.021079766 0.28889412 -0.10520948 -0.44095865 -0.89750159 -0.0068123848 0.0013284778
0.092850745 0.28080067 -0.10147057 -0.60876334 -0.79335189 1.2568325e-05 0
-0.34710756 0.29326105 -0.10860789 0.60886192 -0.79327619 1.092735e-05 0
-0.33845624 0.29989946 -0.10317846 0.60683054 -0.79483098 -0.0006853838 3.9118691e-05
-0.28101844 0.29326689 -0.10626786 0.39041042 -0.92063802 0.00229379 0.00016625103
-0.27793416 0.29454446 -0.10102786 0.38277003 -0.92384362 -1.8984053e-06 3.3746404e-05
-0.26775017 0.2987628 -0.10675287 0.38272959 -0.92386037 -8.4665025e-06 0
-0.0031653296 0.29893678 -0.10205878 -0.38268337 -0.9238795 6.3493217e-06 0
0.077378638 0.29267287 -0.10539035 -0.60878146 -0.79333794 -2.1153905e-05 2.753136e-05
-0.33398816 0.30332795 -0.10127554 0.60682833 -0.79483283 -0.00036371424 9.9389843e-05
-0.26206151 0.30111915 -0.10681194 0.3826969 -0.92387396 -1.4676185e-05 3.1681589e-05
-0.25233132 0.3051495 -0.10087064 0.38277668 -0.92384082 1.0161494e-05 0
-0.24639878 0.30760682 -0.10394511 0.3827267 -0.92386168 1.1090785e-06 0
-0.014049437 0.3034451 -0.10662013 -0.3827242 -0.92386264 6.3240745e-06 4.5653724e-05
-0.0088635702 0.30129707 -0.10612752 -0.38268036 -0.92388088 3.5651865e-06 0
0.058444552 0.30720147 -0.10928228 -0.60126185 -0.79905111 -0.0012532094 3.3356464e-05
0.065288424 0.30195001 -0.10151801 -0.60100454 -0.79924452 0.0013102415 9.9916586e-05
-0.31778067 0.3157644 -0.10390215 0.51108253 -0.85953063 -0.0013436764 0.0028309489
-0.23772252 0.31120065 -0.10554487 0.36704427 -0.93018466 -0.0059221121 0.00032852334
-0.22340971 0.31712919 -0.104477 0.28752831 -0.95776933 -0.0023153764 0.0020155117
-0.21502626 0.31904358 -0.10431212 0.23580629 -0.97178984 0.0044538439 0.0023780405
-0.053128317 0.31873542 -0.10377734 -0.27452233 -0.96114516 0.028938191 0.0020448633
-0.03215434 0.31094438 -0.10831852 -0.37280378 -0.92790771 0.0021808459 7.8772064e-05
0.048422456 0.31489173 -0.10723339 -0.49614039 -0.86811739 -0.014733725 0.0019206507
-0.30364135 0.32167646 -0.10270932 0.41299161 -0.91071868 -0.0054215956 0.00085853803
-0.29603463 0.32482725 -0.10892697 0.38957688 -0.92098701 0.003563869 0.00015335353
-0.20625076 0.32019889 -0.1064541 0.16172022 -0.98683017 -0.003582197 0.00083559286
-0.19699055 0.32141805 -0.10456403 0.13485056 -0.99086595 0.00017785899 9.6593896e-05
-0.18308757 0.32324839 -0.10180333 0.13057157 -0.99143893 1.592783e-05 0
-0.16878808 0.32513097 -0.10033288 0.13051453 -0.99144638 -1.1329133e-05 0
-0.14469141 0.32830337 -0.10558137 0.064215459 -0.99792165 -0.0053496626 0.0017640498
-0.12214824 0.32782203 -0.10795487 -0.090031371 -0.99593544 -0.0026396152 0.0009216023
-0.11831142 0.32731688 -0.10339953 -0.093835883 -0.99556506 0.0066998629 0.00071638112
-0.10492779 0.32555491 -0.10195952 -0.13049948 -0.99144834 1.2327904e-06 0
-0.095743969 0.32434583 -0.10684604 -0.13055387 -0.99144125 1.3598818e-05 6.0580802e-05
-0.088996828 0.32345757 -0.10571986 -0.13053459 -0.99144369 -4.1294436e-05 2.246825e-05
-0.066810288 0.32053667 -0.10357513 -0.13484035 -0.99086726 -0.00039630913 0
0.015869102 0.32883272 -0.10147973 -0.38272676 -0.92386162 -2.2803495e-05 5.1335322e-05
0.030096844 0.3229394 -0.10250366 -0.38620937 -0.92241091 0.00056294492 0
-0.27673936 0.33281964 -0.10200498 0.38262779 -0.92390251 -1.4933818e-05 5.9011061e-05
-0.26022816 0.33965877 -0.10415256 0.38266882 -0.92388552 7.3308775e-06 3.7723748e-05
-0.010614804 0.33980271 -0.10592847 -0.38268435 -0.92387909 1.8645624e-06 0
0.001758581 0.33467746 -0.10587972 -0.38267699 -0.92388219 -3.6493642e-05 0
0.012287762 0.33031613 -0.10540345 -0.38268355 -0.92387944 1.0231925e-06 0
-0.25068122 0.34361324 -0.10132372 0.37249568 -0.92803317 0.0012042637 0.00021713045
-0.24726747 0.34502727 -0.10894313 0.36850888 -0.92961973 -0.0028773169 0.00019583535
-0.013547968 0.34101766 -0.10563524 -0.38268289 -0.92387974 2.1270824e-05 0
-0.2315197 0.35155022 -0.10484832 0.27467662 -0.96135026 -0.018933568 0.0021259864
-0.2246642 0.35298035 -0.10722598 0.22152136 -0.97505075 -0.014293282 0.0016513728
-0.20514356 0.35555029 -0.1042745 0.13345516 -0.99105477 -0.000411505 0
-0.19762763 0.35653979 -0.10691662 0.13055459 -0.99144113 -1.9521021e-05 0
-0.18583708 0.35809204 -0.10518994 0.13065904 -0.9914273 1.7181361e-05 0
-0.17676732 0.35928607 -0.1065532 0.13058545 -0.99143708 -5.2456002e-05 6.7536057e-05
-0.076181814 0.35697603 -0.10412522 -0.13052839 -0.99144453 -1.9409272e-05 0
-0.050988968 0.35365933 -0.10912332 -0.15682504 -0.98762113 0.0032372419 0.00039736298
-0.047402821 0.3531872 -0.10352495 -0.16003948 -0.98710072 0.0044110571 0.00039908881
-0.16786727 0.36045778 -0.10303469 0.13060553 -0.99143434 -3.4110824e-05 3.022889e-05
-0.15109801 0.3626655 -0.10392718 0.10639302 -0.99429846 0.0071483026 0.00080358173
-0.14961365 0.36286092 -0.10383271 0.092708573 -0.99569076 0.0022371325 0.0011414429
-0.12396891 0.36326733 -0.10802148 -0.076358184 -0.99704462 -0.0084512616 0.0014297804
-0.11132576 0.36160287 -0.10528485 -0.12457371 -0.99221039 -3.2316904e-05 6.5858399e-06
-0.10418849 0.36066321 -0.10440591 -0.13051739 -0.99144602 3.7565263e-05 0
-0.16694969 -0.3605786 -0.09676002 0.13052168 0.99144548 4.6059162e-05 5.7541023e-05
-0.15609033 -0.36200824 -0.096192233 0.13053805 0.99144328 1.3248572e-05 0
-0.14658782 -0.36325926 -0.091260061 0.10371034 0.99457812 -0.0076445998 0.00067502406
-0.13863434 -0.36430636 -0.091784552 0.031355292 0.99947625 0.0080078924 0.0023990686
-0.11283956 -0.3618021 -0.097702228 -0.12190252 0.99254167 0.00092768401 5.0709637e-05
-0.10431158 -0.36067939 -0.09343835 -0.13051942 0.99144572 -2.9976982e-06 0
-0.21665333 -0.35403496 -0.092431307 0.17846729 0.983922 -0.0068400055 0.00096036401
-0.20307617 -0.35582244 -0.090545684 0.13056768 0.99143934 -4.1447538e-07 3.2035743e-05
-0.1961875 -0.35672939 -0.098886631 0.13054135 0.99144286 -2.7707765e-06 8.1419159e-05
-0.18579836 -0.35809708 -0.097406149 0.13049871 0.99144846 -7.6465658e-06 0
-0.093119048 -0.35920587 -0.096600771 -0.13056433 0.99143988 1.9875373e-05 0
-0.086292624 -0.35830718 -0.09291777 -0.13055052 0.99144167 -1.6900183e-05 8.134044e-05
-0.070494644 -0.35622728 -0.097194865 -0.13049594 0.99144882 9.8156652e-06 0
-0.064432569 -0.35542923 -0.095223352 -0.1305172 0.99144602 1.3015077e-05 0
-0.053932957 -0.35404694 -0.098906159 -0.17165084 0.98515308 0.0030523655 0.00087821664
-0.041973416 -0.35247242 -0.09717501 -0.23641992 0.97164029 0.0045578964 0.00229974
-0.25461942 -0.34198201 -0.097769246 0.38270512 0.92387056 9.986139e-06 0
-0.24272509 -0.34690878 -0.093909681 0.33823311 0.94106054 0.0018697644 0.0011672996
-0.23761885 -0.34902382 -0.094343238 0.31364515 0.94953471 0.0032419609 0.0016274719
-0.027596584 -0.34683678 -0.098833643 -0.33970854 0.94048339 0.0094421366 0.0016487413
-0.015143505 -0.34167853 -0.09559574 -0.38128838 0.92445606 0.00048929534 1.1813439e-05
-0.28112161 -0.33100444 -0.09041921 0.3826769 0.92388225 -4.7319383e-05 8.5103187e-05
-0.27594879 -0.33314708 -0.094690286 0.38269827 0.92387336 -3.6016972e-06 0.00010404808
-0.26136646 -0.33918726 -0.091403157 0.38262978 0.9239018 1.1957108e-05 0
-0.0063175149 -0.33802271 -0.092301503 -0.38272014 0.92386436 -7.7739351e-06 5.1035931e-05
0.0032271966 -0.33406916 -0.098595403 -0.38268134 0.9238804 2.0076237e-05 0
0.011202719 -0.33076558 -0.096336797 -0.38268703 0.92387807 8.4845906e-06 0
-0.30416316 -0.32146031 -0.097736821 0.42026368 0.90733856 -0.01073055 0.00091157871
-0.29903144 -0.32358593 -0.099127486 0.39295366 0.91955823 2.9657507e-05 0.00021261096
-0.28699446 -0.3285718 -0.092574529 0.38261089 0.9239096 3.4684585e-05 0
-0.20294401 -0.32063425 -0.091069594 0.15630858 0.98769647 0.0048281807 0.00039391199
-0.19813007 -0.32126799 -0.09308859 0.14955264 0.9887529 0.0013199 0.00028613987
-0.18320177 -0.32323337 -0.092160955 0.13052675 0.99144477 -3.1174237e-05 6.5150423e-05
-0.17843211 -0.32386127 -0.093333542 0.13052499 0.991445 -1.8638464e-05 7.3851666e-06
-0.16436216 -0.32571363 -0.095174223 0.13056363 0.99143994 2.850384e-07 1.7930306e-05
-0.15040165 -0.32755157 -0.097674742 0.095487274 0.99541837 -0.0049437415 0.00085243717
-0.14852536 -0.3277986 -0.091414616 0.083526067 0.99648279 -0.0067332578 0.00085536332
-0.13770142 -0.3292236 -0.093752846 0.01082162 0.99993628 0.0032164282 0.0022863098
-0.12472678 -0.32816154 -0.095959857 -0.066393182 0.99779356 -4.5173227e-05 0.0013795462
-0.11829457 -0.32731473 -0.092886783 -0.12320671 0.99238104 -9.8983865e-06 0.00010804942
-0.10433611 -0.32547703 -0.095990762 -0.13055706 0.99144083 1.9808582e-05 0
-0.085721523 -0.32302636 -0.094291098 -0.13056131 0.99144024 1.2987649e-05 2.0758418e-05
-0.075981013 -0.32174402 -0.09617281 -0.13054463 0.99144238 -4.1240983e-06 5.9225408e-06
0.025401598 -0.32488424 -0.095278099 -0.38357499 0.92350978 -9.9544586e-06 3.97693e-05
-0.32064649 -0.3135654 -0.099952087 0.51126826 0.85942024 0.0012597059 0.0018688757
-0.31332248 -0.31766641 -0.095476292 0.4562462 0.88985008 -0.0024942665 0.0019461652
-0.23323491 -0.31305948 -0.095799878 0.35951868 0.9331364 0.001639234 0.00053573109
-0.22635961 -0.31590733 -0.093319371 0.28963467 0.95711327 -0.0067804349 0.0020777644
-0.21120058 -0.31954727 -0.09674672 0.19989932 0.97976822 -0.00971865 0.0013792643
-0.055308536 -0.31902242 -0.096821904 -0.21977912 0.97542363 0.015684115 0.0018348694
-0.043490931 -0.31564018 -0.094285049 -0.30034921 0.95382494 0.0028856541 0.0013448839
0.045891255 -0.31621778 -0.09761858 -0.48801848 0.87283325 6.4397704e-05 0.0020932476
-0.33584535 -0.30190289 -0.096217662 0.5997256 0.80019981 0.0030908156 0.00018070068
-0.32967111 -0.30664057 -0.093240835 0.5782631 0.81584865 0.0016451071 0.00090274948
-0.25625041 -0.30352616 -0.094504297 0.38268751 0.92387784 -5.2953965e-05 1.8473425e-05
-0.24498516 -0.3081924 -0.094274528 0.38275447 0.92385012 3.5037712e-05 0
-0.027978033 -0.3092145 -0.094080605 -0.37537295 0.9268713 -0.0021734128 0.00014464164
0.05897091 -0.30679759 -0.096749365 -0.58524793 0.81082594 0.0067892377 0.00056839082
0.063253403 -0.30351153 -0.096251957 -0.60184824 0.79860741 -0.0022313616 8.7271343e-05
-0.28401324 -0.29202643 -0.09364967 0.40012604 0.91645473 -0.0031401184 0.00046016587
-0.27759638 -0.29468441 -0.096481487 0.38266543 0.92388701 -3.4476518e-05 3.3248831e-05
-0.26898569 -0.29825103 -0.091109701 0.3826763 0.92388248 -1.3140829e-05 0
-0.0049658259 -0.29968256 -0.090021737 -0.38268191 0.92388016 1.151426e-05 0
0.0026018359 -0.29654795 -0.095831223 -0.38268834 0.92387754 -2.293581e-05 1.2337674e-05
0.015274793 -0.29129863 -0.090760499 -0.42172396 0.90667164 0.0097631877 0.0009468518
0.076890104 -0.29304773 -0.092092462 -0.60877103 0.79334587 -4.6569698e-05 0
0.080014452 -0.29065031 -0.094815336 -0.60876822 0.79334813 -7.0467368e-06 0
-0.36194727 -0.28187418 -0.098425835 0.60878515 0.79333514 2.6815096e-05 3.8611161e-05
-0.35771605 -0.28512087 -0.099955484 0.60879099 0.79333067 4.7167341e-06 8.320194e-06
-0.2934171 -0.28813124 -0.095625304 0.43987262 0.89805967 -0.00098485162 0.0013391781
-0.28904873 -0.28994063 -0.090068646 0.41607454 0.90929258 -0.0083074253 0.00073888869
0.027547032 -0.28621531 -0.094665468 -0.47486988 0.88003939 0.0054105092 0.0017795599
0.034136109 -0.281858 -0.09905757 -0.52605945 0.85041618 0.0073389281 0.0018178339
0.087140411 -0.28518236 -0.092891127 -0.60878944 0.79333192 9.1880356e-06 3.4522531e-05
0.092653327 -0.28095216 -0.092837356 -0.60878003 0.79333907 -6.5565637e-06 2.2715119e-05
-0.37330827 -0.27315655 -0.095915422 0.6111812 0.79149055 0.00057836965 0
-0.36996144 -0.27572468 -0.095431648 0.60904235 0.79313773 8.1299993e-05 0
0.040486217 -0.27698538 -0.094828986 -0.56008661 0.82841086 0.0061990716 0.0014776501
0.094040498 -0.27988774 -0.097102679 -0.60879397 0.79332834 -3.9866274e-05 3.7109996e-05
-0.38133711 -0.26699582 -0.095460862 0.64032167 0.76810241 -0.0026236854 0.0010153268
-0.37845349 -0.26920852 -0.094706655 0.63077581 0.77595806 -0.0033214325 0.00082275859
-0.32768565 -0.26416799 -0.090647951 0.60875237 0.79336029 1.1505441e-05 0
0.057005983 -0.26430929 -0.09521801 -0.60878932 0.79333192 -2.520594e-05 3.4295499e-05
0.11549013 -0.26342887 -0.096453063 -0.65142423 0.75871187 0.0016484477 0.0020659447
-0.39430022 -0.2564413 -0.099186197 0.7234391 0.69034213 0.00798342 0.0026294778
0.067545518 -0.25622201 -0.094808042 -0.60876787 0.79334837 -1.0417091e-06 0
0.070716754 -0.25378865 -0.099071771 -0.60876423 0.79335111 -7.1757239e-07 0
0.12350637 -0.25650284 -0.095027 -0.72970104 0.68366188 0.011950294 0.0026567443
-0.40570208 -0.24158214 -0.091097429 0.78244776 0.6227091 0.0029907201 0.00024052129
-0.39988306 -0.24916562 -0.097182855 0.74885398 0.66273487 0.00045229023 0.0015663058
-0.35130408 -0.24604492 -0.09308596 0.60906827 0.79311782 -3.0798979e-05 0
-0.34792271 -0.24863955 -0.093387417 0.60888058 0.79326189 -2.4310022e-05 3.5350226e-05
0.076904178 -0.24904089 -0.097993933 -0.60876578 0.7933501 1.667317e-06 0
