# .PCD v0.7 - Point Cloud Data file format
VERSION 0.7
FIELDS x y z normal_x normal_y normal_z curvature
SIZE 4 4 4 4 4 4 4
TYPE F F F F F F F
COUNT 1 1 1 1 1 1 1
WIDTH 573
HEIGHT 1
VIEWPOINT 0 0 0 1 0 0 0
POINTS 573
DATA ascii
0.077450268 -0.42689034 -0.37052965 -0.29802674 0.95455748 5.2193882e-05 1.552829e-06
0.083037898 -0.42514578 -0.37325251 -0.29808384 0.95453972 -1.1573503e-05 0
0.091278002 -0.422573 -0.37122488 -0.29808816 0.95453829 -2.4063163e-05 5.6320103e-05
0.21900618 -0.42196333 -0.3795417 -0.67553288 0.73731065 -0.0053370232 0.0014801591
0.22013116 -0.42077893 -0.37658495 -0.66986036 0.74246025 -0.0063118911 0.0015214966
-0.12053598 -0.41057873 -0.37937915 0.46426821 0.88569468 9.881468e-06 0
-0.10824686 -0.41701978 -0.3768793 0.39922464 0.91669494 -0.01703289 0.0013086711
0.10658418 -0.41779399 -0.3790763 -0.3311992 0.94356078 0.00043882104 0.0008208612
0.12374533 -0.41060412 -0.37506783 -0.45850775 0.88868421 -0.0033336268 0.0019412329
0.22469302 -0.41597605 -0.3747862 -0.69804007 0.71604794 0.0039382544 0.0013341495
-0.23979294 -0.40002519 -0.37974137 0.68872535 0.72502232 -0.00018875311 1.9868492e-05
0.135996 -0.40284768 -0.37244549 -0.52822459 0.84910464 0.00021840265 3.1676998e-05
0.23612022 -0.40394509 -0.37432671 -0.724886 0.68886882 3.2430107e-06 0
-0.24235243 -0.39759415 -0.37105569 0.68879777 0.72495347 4.0668143e-05 0
-0.14445782 -0.39804068 -0.37483704 0.49401116 0.86945438 0.0014092565 0.00030401035
0.15327103 -0.39191008 -0.37620151 -0.53506124 0.84481329 -0.00018846709 9.3024602e-05
0.2411069 -0.39869493 -0.37160677 -0.72509992 0.68864375 -0.00010116069 0
-0.26060024 -0.38026205 -0.37322196 0.73566037 0.67734909 -0.0014172819 0.0013634271
-0.25658947 -0.38407153 -0.37539172 0.72150344 0.69227982 -0.013468821 0.00077187334
-0.16792849 -0.38330805 -0.37335128 0.61023259 0.7921924 -0.006887902 0.0024290585
0.15836979 -0.38868183 -0.37316659 -0.53780729 0.84306759 -0.00061360694 4.4843429e-05
0.16854736 -0.38223794 -0.37138444 -0.56411928 0.82569039 0.0021734047 0.00088421517
0.17060032 -0.38093814 -0.37893975 -0.5884462 0.80853236 -0.0025431374 0.00157297
-0.18121101 -0.37106836 -0.37421837 0.67765343 0.73538142 3.0013531e-05 0
-0.175652 -0.37619096 -0.37499154 0.67769468 0.73534334 -6.6840483e-05 7.1540017e-05
0.26266557 -0.37599725 -0.37330842 -0.73092121 0.68246025 -0.0014517587 5.2437445e-05
0.18714981 -0.36723343 -0.37247536 -0.7061255 0.7079863 0.011925906 0.0010630189
0.19204646 -0.36191952 -0.37425107 -0.71708161 0.69698894 0.00060975319 0.00063214661
-0.28142977 -0.35020176 -0.37095305 0.85273939 0.5223366 -3.1545314e-05 0
0.19912879 -0.3542338 -0.37009335 -0.73541033 0.67762208 -0.00012592178 9.5685442e-05
0.2021026 -0.35100663 -0.37289065 -0.73537314 0.67766249 5.3888922e-05 2.6480582e-06
0.27868325 -0.35791367 -0.37572449 -0.83304697 0.55319989 -0.0016497253 0.0023114816
-0.28365323 -0.34656978 -0.37692797 0.85290617 0.52206433 3.8833045e-05 1.8378303e-05
-0.20912223 -0.34534851 -0.37998611 0.71758789 0.69641143 -0.0088758189 0.0009379047
0.20552513 -0.34729251 -0.37733358 -0.7352649 0.67777979 6.3533938e-05 0
-0.28916848 -0.33756065 -0.37888491 0.85282975 0.52218914 9.6590389e-05 0
0.22012925 -0.33144414 -0.3713721 -0.75015944 0.66125202 0.0025636863 0.00045838449
0.29162961 -0.33409491 -0.37127027 -0.87858766 0.47758105 -2.9237417e-05 2.2787575e-05
-0.29590544 -0.32655585 -0.37918699 0.85287893 0.52210879 5.5829423e-06 0
-0.22185394 -0.32960248 -0.37187168 0.8217752 0.56978244 0.0057929186 0.00086672336
0.22276144 -0.32858768 -0.376237 -0.7802726 0.62543708 0.0018000734 0.0019137273
0.29837576 -0.32168329 -0.37773204 -0.87851274 0.47771892 -1.7984821e-05 0
-0.30144501 -0.31750703 -0.37811589 0.85497808 0.51866335 0.00084520999 0
-0.23165336 -0.31412506 -0.37607926 0.84480274 0.53507787 0.00013314109 0
0.30124134 -0.31641114 -0.37679544 -0.87865728 0.47745305 -7.005001e-05 2.0924847e-06
-0.31152728 -0.30103767 -0.37301946 0.92078853 0.3900373 0.0044031581 0.0022777491
-0.30955103 -0.30426592 -0.37671378 0.89589888 0.44407129 -0.012879069 0.0023059344
-0.24001268 -0.30092224 -0.37491375 0.84497529 0.53480542 -1.4978048e-05 2.8209161e-06
-0.23918632 -0.30222741 -0.37551624 0.84497672 0.53480309 -4.7735368e-05 2.8209161e-06
0.23830698 -0.30465263 -0.37444896 -0.87317997 0.48732188 -0.0086042732 0.00069846853
0.2406075 -0.30026343 -0.37816587 -0.88277668 0.46979061 0.0014779451 7.9927864e-05
0.3066757 -0.30641299 -0.37823132 -0.87860513 0.47754899 -1.9603292e-05 6.660333e-05
-0.24406062 -0.29452887 -0.37568238 0.85494572 0.51870847 -0.0030704571 0.0001914364
0.24179183 -0.29800379 -0.3747758 -0.88565469 0.46434444 0.00012727188 0
-0.31583327 -0.28923437 -0.37018797 0.95095581 0.30930418 0.0037416935 0.00041680841
-0.25027198 -0.28471857 -0.37397414 0.86940557 0.4940871 0.0034580736 0.0012260186
0.24923857 -0.28379589 -0.37317544 -0.88569713 0.46426353 1.4907625e-05 0
0.31872535 -0.28424403 -0.37271345 -0.92626673 0.37681234 0.0065095457 0.003047545
-0.31991109 -0.27544516 -0.37946588 0.95712113 0.28968069 -0.0020664143 8.507353e-05
-0.25615427 -0.27354127 -0.37723321 0.91605258 0.40039316 -0.023089072 0.0030610445
0.25441578 -0.27391812 -0.37292004 -0.88714015 0.46149987 -0.00054837496 4.1906358e-05
0.3217259 -0.27438253 -0.37722057 -0.95716065 0.28955364 -0.0014842435 0.0017321511
-0.32217717 -0.26778233 -0.37392211 0.9589321 0.28363574 -5.5251276e-05 1.3659449e-05
-0.25948241 -0.26288193 -0.37687016 0.93878752 0.34438464 -0.0087868394 0.0013165233
0.26008794 -0.263096 -0.37040639 -0.90480345 0.42568856 0.010951687 0.00073985761
-0.33037293 -0.24006829 -0.37785029 0.95893937 0.28361121 4.5149191e-05 7.1422974e-06
-0.32744372 -0.24997357 -0.37473035 0.95896769 0.2835153 0.00033158963 0
-0.26656067 -0.24021167 -0.37901109 0.95452607 0.29812735 -6.8436239e-05 0
0.32910997 -0.24368636 -0.37570828 -0.97226113 0.23389798 8.051328e-05 0
-0.33245891 -0.23301461 -0.37496984 0.95892245 0.28366843 3.3654036e-05 0
-0.26841027 -0.23428772 -0.37444156 0.95457113 0.29798314 -0.00010212952 2.1884678e-05
0.3323752 -0.23011243 -0.37043184 -0.97225201 0.23393622 -2.3999259e-05 0
-0.3338024 -0.22847152 -0.37238181 0.96405184 0.26569635 0.0030703628 0.00054347818
-0.27230924 -0.22180015 -0.37262529 0.96333432 0.2682822 -0.0034141799 0.00062967412
-0.26975262 -0.22998843 -0.37817419 0.95766705 0.2878572 0.0034754626 7.0240865e-05
0.27048182 -0.22619632 -0.37572092 -0.97568607 0.21917275 9.0673184e-06 0
-0.33672893 -0.21857554 -0.3791782 0.97669894 0.21444997 -0.0083880024 0.0016294735
-0.27509204 -0.21288741 -0.37422344 0.97885454 0.20434271 0.0093780952 0.0023818742
0.27322781 -0.21397179 -0.37222552 -0.97568613 0.21917239 -6.4097185e-05 3.2090844e-05
0.33500779 -0.21916847 -0.37950355 -0.9725585 0.23265854 -0.00032486056 0
-0.33871442 -0.20328419 -0.37462345 0.99623793 0.086658098 0.00064429472 0.0015243465
0.33809176 -0.20634818 -0.37834099 -0.98304319 0.18300518 -0.011629197 0.0015217543
0.27638286 -0.19992632 -0.37043905 -0.98101366 0.19370154 -0.0095904423 0.00039720227
0.33991838 -0.1987548 -0.37424296 -0.9943071 0.10591222 -0.011663849 0.002297688
0.34074774 -0.19416921 -0.37634057 -0.99566734 0.092307694 -0.011216138 0.0022581115
-0.27773497 -0.18567993 -0.37433192 0.99866885 0.051452402 0.0036353027 0.00020380352
0.27974707 -0.18201593 -0.37639424 -0.99659079 0.082270451 -0.0061836932 0.0020258508
0.34044316 -0.18233466 -0.37182307 -0.99990255 0.013961569 0.00018768858 0.0010210129
-0.33933884 -0.17902315 -0.37399283 0.99966967 0.025699507 0.00011411593 0
-0.27837244 -0.17007868 -0.37022889 0.99916703 0.040808201 -7.0504211e-05 0
0.34017459 -0.17190006 -0.37635249 -0.9997766 -0.021123411 -0.00065128424 0
-0.33973417 -0.16366422 -0.37299451 0.99966931 0.025712831 0.00015553225 0
-0.2785868 -0.16483229 -0.37120897 0.99916613 0.040828798 -3.2127384e-05 0
0.27889737 -0.16122073 -0.37179178 -0.99928737 -0.037741512 0.00050508528 3.2373067e-05
0.33991313 -0.16174164 -0.37172732 -0.99966949 -0.025706571 7.5882504e-05 0
0.34009606 -0.16884819 -0.37061 -0.99966866 -0.025741069 0.00011474555 0
-0.27887258 -0.15783794 -0.37642142 0.99944293 0.033262879 -0.002745366 0.00014387423
0.2784707 -0.15077749 -0.37495059 -0.99916667 -0.040818136 -3.0800282e-05 6.7669607e-06
-0.3401998 -0.14557308 -0.37869295 0.99985051 0.017252496 -0.0011091797 8.2927538e-05
-0.27949426 -0.14262311 -0.37703443 0.99876779 -0.030737607 -0.038963273 0.0015149513
0.27831364 -0.14693509 -0.37370032 -0.99916464 -0.040866517 -1.676371e-05 4.8491354e-05
0.33951882 -0.14642124 -0.37392569 -0.99966848 -0.025749031 1.1477821e-05 2.1210266e-05
-0.34047163 -0.13501126 -0.37705448 0.99993056 0.011626521 0.0019130684 0.00017076264
-0.27896824 -0.13003473 -0.37743437 0.99561441 -0.090884335 -0.022181975 0.0024870231
0.27775714 -0.13331446 -0.37083745 -0.99859118 -0.053057581 0.00071809138 0.00027611965
0.33925945 -0.13634409 -0.37797761 -0.99966824 -0.025756231 1.2043583e-05 2.0192578e-05
-0.27785796 -0.12509204 -0.37258163 0.98844141 -0.15154304 0.0042795376 0.0017366674
-0.33981037 -0.11924779 -0.37646341 0.99188125 -0.12590863 0.017848475 0.0025879976
-0.27536437 -0.11399125 -0.37600684 0.97962475 -0.20083427 0.00094698049 0.00050599576
0.27687323 -0.11398653 -0.37537551 -0.99006563 -0.14023989 0.010139807 0.0015607763
-0.33622113 -0.10432708 -0.37289765 0.97266734 -0.23220131 -0.00095209508 0
0.2746776 -0.104237 -0.37560692 -0.97573662 -0.21885715 -0.0062910384 0.0020913975
0.33832189 -0.1052628 -0.37599975 -0.98572904 -0.16604322 -0.027712101 0.0020839167
-0.33446652 -0.097032867 -0.37746999 0.97237891 -0.23340794 1.8435223e-06 0
-0.27090073 -0.094120294 -0.37303284 0.9756844 -0.21918017 3.7305766e-05 0
0.27147585 -0.093982399 -0.37033638 -0.95878458 -0.28409222 0.0048699481 0.00024495044
0.33481941 -0.093419187 -0.37434697 -0.97000575 -0.24246594 -0.017294561 0.00087168528
-0.33239686 -0.088429302 -0.37082726 0.9722665 -0.23387572 3.1662661e-05 0
-0.26877305 -0.084648289 -0.37165722 0.97477424 -0.22319274 -0.00029731917 7.7250268e-05
0.26747292 -0.081161693 -0.37638763 -0.95455384 -0.29803863 -4.2455624e-05 2.3901233e-05
0.33175647 -0.083061799 -0.37589234 -0.96011132 -0.27961659 -0.00091928104 3.5792964e-05
-0.32910839 -0.074758805 -0.37588587 0.97225916 -0.23390611 -8.5408406e-05 2.8538667e-05
0.32908663 -0.0740337 -0.37999627 -0.95894378 -0.28359604 2.0950333e-06 9.7983484e-06
-0.26473308 -0.066663288 -0.37393901 0.95345551 -0.30142501 -0.0080961082 0.0024284441
0.26324594 -0.067623496 -0.37277454 -0.9544633 -0.29832849 -8.5022344e-05 0
-0.32543421 -0.059484847 -0.37272963 0.97226858 -0.2338669 4.2565443e-05 5.2509567e-06
-0.25836003 -0.052058928 -0.37312168 0.89292419 -0.45019484 0.0032951713 0.00016378623
0.32304335 -0.053598374 -0.37326932 -0.95894152 -0.2836037 -4.8334048e-05 4.3249835e-05
-0.32146928 -0.043002207 -0.37375554 0.95172769 -0.30693385 -0.002470599 0.0016479297
0.25583869 -0.044059157 -0.37388802 -0.92023259 -0.39134142 -0.0048858114 0.0030655023
0.32057807 -0.045261923 -0.37826014 -0.95894343 -0.28359741 4.4511282e-05 0
-0.31986299 -0.036324758 -0.37450525 0.94022262 -0.34055614 -0.0017351219 0.0026025823
-0.25154927 -0.039064441 -0.37733853 0.8857047 -0.46424913 -6.8303816e-05 2.7537022e-05
-0.24802557 -0.032341447 -0.37451097 0.88572782 -0.464205 -6.7710389e-05 0
0.25068006 -0.034377597 -0.37484342 -0.87740839 -0.47944903 -0.016822586 0.0010102264
0.31725785 -0.034034584 -0.3734093 -0.94749969 -0.31966245 0.0077541806 0.00045447182
-0.31406808 -0.025639066 -0.37983698 0.89660633 -0.44282144 0.0025246441 0.00079109299
0.24766336 -0.029612992 -0.37291929 -0.87746656 -0.4793925 -0.015342974 0.0012500245
-0.24063091 -0.01823293 -0.37041041 0.88075852 -0.47356394 -0.0012638085 0.00022562603
-0.23765403 -0.012553244 -0.37270126 0.87588698 -0.48251238 -0.001972938 0.00036686109
0.24080315 -0.018777881 -0.37402642 -0.84782934 -0.5302676 -0.0013141065 9.5393079e-05
0.30886298 -0.013061911 -0.37833312 -0.88447529 -0.46649107 -0.0094603449 0.0017944286
0.31085891 -0.016322207 -0.37320065 -0.89666313 -0.44262651 -0.0087714102 0.0018046205
-0.30448985 -0.0080170911 -0.37730792 0.87858021 -0.47759473 -5.6423116e-05 3.4071498e-05
0.23075441 -0.0029067066 -0.37161338 -0.8448875 -0.53494406 3.8384216e-05 6.4391661e-06
0.30494273 -0.006658142 -0.37598941 -0.86016095 -0.50994676 -0.0087957624 0.00045120835
-0.29816592 0.0036177598 -0.37491345 0.87859911 -0.47755995 -4.591369e-05 0
-0.2304111 0.0012658028 -0.37876141 0.81692076 -0.57659715 -0.013273371 0.0030242561
-0.22676504 0.0057913633 -0.37631527 0.79786515 -0.60283017 0.0026506104 0.0026415971
0.22445351 0.0070450329 -0.37539947 -0.81771022 -0.57562786 -0.0015691465 0.0010541362
0.29797736 0.004719751 -0.37328351 -0.85286832 -0.52212602 6.4705619e-06 1.1330585e-05
-0.29307002 0.012993193 -0.37357914 0.87860268 -0.47755361 6.7897992e-05 0
-0.21546452 0.018054709 -0.3760705 0.74478573 -0.66727686 0.0059926175 0.00031748851
0.28988224 0.017943053 -0.3728435 -0.85286504 -0.52213144 9.0725793e-05 0
0.29370731 0.011694842 -0.37549102 -0.85287267 -0.52211905 3.3817862e-06 0
-0.28427172 0.029180376 -0.37807471 0.8642568 -0.50304729 -0.001911305 0.00073750503
-0.21163611 0.022209274 -0.37212047 0.73721075 -0.67566258 0.00053709565 4.4616904e-06
-0.20780821 0.026363315 -0.37717468 0.73538911 -0.67764509 3.5164368e-05 0
0.20647462 0.029336646 -0.37834913 -0.73086447 -0.68230975 -0.017047156 0.00088401488
0.28624365 0.023886694 -0.37550664 -0.85286885 -0.52212512 0.00016417541 0
0.19759262 0.037521318 -0.3757689 -0.67766744 -0.73536849 2.7951814e-05 0
0.27795315 0.037429165 -0.37395361 -0.84853381 -0.52913028 -0.003386863 0.00011815391
-0.27478898 0.044781659 -0.3736085 0.7971282 -0.60377616 0.0063981032 0.0020023782
-0.18782704 0.048046879 -0.37917623 0.69836819 -0.71570301 -0.007143111 0.0011485808
0.27263162 0.046121877 -0.37589535 -0.82696104 -0.56225467 -0.002251134 0.0013074772
-0.26873752 0.051152881 -0.37786758 0.76364666 -0.64562827 0.0027840859 0.001319482
-0.17520693 0.059569832 -0.37623486 0.60629308 -0.79522073 0.0057218624 0.001966852
0.17578399 0.057617739 -0.37065428 -0.67412698 -0.73861539 -0.00041854082 6.6035427e-05
0.26524633 0.057039697 -0.37562022 -0.7728017 -0.63438201 -0.018355003 0.0026959558
0.27007368 0.050300255 -0.3798269 -0.79685098 -0.60413861 0.006707571 0.0022685979
-0.17017148 0.062758006 -0.37573451 0.56578666 -0.82454801 0.0024705543 0.0011623965
-0.1623946 0.067681901 -0.37354606 0.54413223 -0.83899474 -0.0028300988 0.00035957055
-0.15914939 0.069736607 -0.37941557 0.53494006 -0.84489006 -3.6156704e-05 1.6232902e-06
0.25301012 0.069019616 -0.37661871 -0.70411867 -0.71008211 -0.00065202062 0.00049344951
-0.24511194 0.076026686 -0.37609905 0.72504455 -0.68870205 -4.9839633e-05 7.1902855e-06
-0.15378901 0.073130496 -0.3756938 0.53494149 -0.84488904 1.9252446e-05 1.1730001e-06
0.1473328 0.078082196 -0.37753382 -0.47368687 -0.88069302 0.00067596702 0.00015489243
0.15893245 0.072002523 -0.37192187 -0.55723977 -0.83026189 -0.012210214 0.0023952455
0.24821025 0.073578656 -0.37222236 -0.68963897 -0.7241534 -0.00012682 2.9550538e-06
-0.14205129 0.080562189 -0.37987962 0.53381187 -0.84560335 0.00011754337 1.0106311e-05
0.13779201 0.083082795 -0.37602377 -0.464237 -0.88571101 2.1034042e-05 0
0.23826227 0.083027393 -0.37015229 -0.68866324 -0.72508132 1.0755633e-05 1.937315e-05
-0.11684234 0.09613952 -0.37001124 0.41115645 -0.91155016 -0.0051756906 0.0021752412
-0.10682851 0.099266097 -0.3705945 0.36211008 -0.93213391 -0.0016247036 0.00091387104
0.12149309 0.091625489 -0.37693846 -0.46252799 -0.88660467 -9.2796698e-05 1.0512113e-05
0.23056635 0.090337083 -0.37005901 -0.68868673 -0.72505897 6.2820975e-05 0
-0.21644527 0.10620798 -0.37761179 0.6445049 -0.76441342 0.016901555 0.0022134983
-0.10292163 0.10048593 -0.37308288 0.33042198 -0.94381553 0.0057868594 0.00070592226
-0.093588568 0.10339996 -0.37445021 0.2981925 -0.9545058 0.00013247889 0
-0.076976217 0.10858677 -0.37057185 0.29803196 -0.95455587 3.646305e-05 2.3180075e-06
0.07788761 0.1088037 -0.37323654 -0.22684276 -0.97392559 -0.0033546633 8.6478183e-05
0.088999555 0.10630763 -0.37477598 -0.27891898 -0.96027672 0.0085307006 0.0013367139
0.095435053 0.10486201 -0.3710866 -0.34103376 -0.93998069 0.011504508 0.0026439503
0.21508683 0.10503981 -0.37740114 -0.66903478 -0.74322784 -0.0021931897 0.0005751109
-0.21088085 0.11001849 -0.37497336 0.59794223 -0.80139709 0.015091557 0.0019737275
-0.2042329 0.11408825 -0.37552503 0.5693869 -0.82206792 0.0017423576 0.0010006452
-0.19816352 0.11780383 -0.37604201 0.53633523 -0.84400505 0.00018822188 0.00033753496
-0.066307686 0.11191777 -0.37624359 0.28406426 -0.95878971 0.0054500075 0.00012617761
-0.035853542 0.1181251 -0.37160003 0.091505729 -0.99579823 0.0035494962 0.0012731795
-0.021723825 0.11870243 -0.376468 0.0413974 -0.99914271 0.00024946177 7.7431614e-06
-0.016066117 0.1189336 -0.37290245 0.040828332 -0.99916613 3.2727832e-05 0
0.0037118294 0.11974172 -0.37406957 0.032001622 -0.9994877 -0.00049797958 8.5202482e-05
0.028160919 0.11997384 -0.37034667 -0.1090427 -0.99398267 -0.010392649 0.0024829782
0.04364159 0.11649641 -0.37977529 -0.19988897 -0.97981209 0.0035588902 0.00041638271
0.071274675 0.11028917 -0.37507683 -0.22131971 -0.97520107 -0.00066618097 2.7889111e-05
0.19887049 0.11935815 -0.37716845 -0.55642951 -0.83079201 0.013072316 0.0036197575
0.20221943 0.11721995 -0.37462541 -0.61780435 -0.78633177 0.00043792758 0.0026964892
0.017697997 0.1203132 -0.37987894 -0.030020708 -0.9994871 0.011147115 0.0019884796
0.18549715 0.12662704 -0.37668243 -0.48698136 -0.87341225 -0.00054226711 0.00015547113
0.19347048 0.12229325 -0.37215456 -0.52103901 -0.85353273 -0.00042924317 0.0017969679
-0.17283994 0.13330653 -0.37678766 0.5221166 -0.8528741 -4.0770297e-05 1.9983272e-05
-0.16847879 0.13597636 -0.3784759 0.52212888 -0.85286659 -8.4037194e-05 1.2295362e-05
0.1685667 0.13582936 -0.37785092 -0.47759798 -0.87857854 5.5268763e-05 0
0.17320858 0.13330634 -0.37478581 -0.47754091 -0.8786096 -2.6551916e-06 3.1647349e-07
-0.15446588 0.14455485 -0.37635839 0.50703508 -0.86192477 -0.0010486918 0.00037761891
-0.1470717 0.14908144 -0.37002721 0.45927769 -0.8882615 0.0074607767 0.001401623
0.1575467 0.14181912 -0.37500951 -0.47755289 -0.87860298 7.1520728e-05 0
-0.14371198 0.15113822 -0.37411755 0.44607297 -0.89499247 0.0027240841 0.0012903383
-0.13186488 0.15605846 -0.37543464 0.36726487 -0.93011576 -0.001084191 0.0017395824
-0.1240666 0.15836462 -0.3792817 0.32256719 -0.94653916 -0.0037363477 0.00085712911
0.13633293 0.15334959 -0.37682152 -0.43643656 -0.89973211 -0.002307957 0.0010965716
0.14090157 0.15086636 -0.37942785 -0.46374789 -0.8859604 -0.0034660916 0.00037749953
-0.11519014 0.16098961 -0.37840554 0.28358221 -0.95894796 -5.8894057e-05 1.8052166e-05
-0.10486326 0.16404355 -0.37547484 0.28356835 -0.95895207 4.6661109e-05 0
-0.091655269 0.1679495 -0.37171429 0.28360176 -0.95894217 -9.1727692e-05 1.5245269e-05
-0.089213371 0.16867164 -0.37897214 0.28357667 -0.95894963 -1.6523198e-05 7.4784607e-06
0.1067415 0.16452441 -0.37905544 -0.26295519 -0.96476102 0.0095276618 0.00065634976
0.1148 0.1625859 -0.3728354 -0.30904871 -0.95100492 0.0088609541 0.0021016938
-0.081566915 0.17093289 -0.37327558 0.28342265 -0.9589951 -7.6966653e-06 0
-0.078961119 0.17170349 -0.37812001 0.28342313 -0.95899493 -7.3423304e-05 1.6263011e-05
-0.061287109 0.17693016 -0.37744635 0.21464078 -0.97669023 0.0023675847 0.0016910555
-0.038485929 0.17963205 -0.37764338 0.068736434 -0.99758685 -0.009783349 0.00085343292
-0.027052183 0.17992631 -0.37268555 0.025723696 -0.99966913 9.2248647e-06 1.1673943e-05
0.057533763 0.17636144 -0.37753463 -0.23042959 -0.97308892 0.00043903058 8.4588082e-06
-0.018289577 0.18015185 -0.37812507 0.025724713 -0.99966902 2.2015563e-05 8.7400003e-06
-0.0038027195 0.18052469 -0.37428412 0.025729991 -0.99966896 -7.2838875e-06 1.6346439e-06
0.00082540419 0.18064381 -0.37080258 0.025733098 -0.9996689 -1.5872518e-05 7.0249839e-06
-0.072092533 -0.49131089 -0.3639189 0.23386712 0.97226858 6.6913613e-05 2.0143521e-05
-0.066013955 -0.49277315 -0.36146867 0.23388164 0.97226506 9.808928e-05 0
-0.051421721 -0.49628335 -0.36663678 0.20202543 0.97934997 -0.0077058901 0.00077439111
-0.035220265 -0.49998069 -0.36506322 0.051081087 0.99867457 -0.0063179829 0.0017919628
-0.015457441 -0.49947202 -0.36559129 -0.018436948 0.99982786 -0.0020745022 1.0458696e-05
-0.0082514705 -0.49928656 -0.3656027 -0.025724329 0.99966908 7.8708938e-05 0
0.0072470615 -0.49888766 -0.36256033 -0.025729133 0.99966902 -4.1029074e-05 3.7905054e-05
0.02320518 -0.49847692 -0.36460036 -0.025716852 0.99966931 -0.00014409503 0
0.034282714 -0.49819183 -0.36311576 -0.033477198 0.999439 0.00098680111 4.1612784e-05
0.057124399 -0.49661279 -0.36976784 -0.19389194 0.98101544 -0.0038131578 0.0020112912
0.077404097 -0.49061555 -0.3694796 -0.28093463 0.95972669 -0.00066695438 4.336482e-05
-0.11731167 -0.48043334 -0.36474752 0.34742072 0.93769318 -0.0055062138 0.0023802549
-0.10534915 -0.48331097 -0.36652336 0.2600176 0.96559787 0.0033938694 0.00074348412
0.085432656 -0.48824131 -0.36613119 -0.28361928 0.95893699 -0.00011250594 0.00011530919
0.10946187 -0.48113525 -0.36746174 -0.28365713 0.95892572 8.4140222e-05 0
-0.13322353 -0.47349125 -0.36692947 0.42075545 0.9071157 0.010290614 0.0013863144
0.11513346 -0.479458 -0.36341989 -0.28360397 0.95894146 1.5567228e-05 0
0.12263706 -0.47723898 -0.36503702 -0.30733284 0.95160109 -0.0013376797 0.00056885293
-0.15505657 -0.46162423 -0.36638978 0.47764385 0.87855351 -1.6867112e-05 1.4820322e-05
0.14643951 -0.46792009 -0.36504272 -0.45103326 0.89248234 0.0066611264 0.0017670407
0.15769672 -0.46102861 -0.36454913 -0.52219772 0.85282445 -3.9313585e-05 2.9851684e-05
-0.15859692 -0.45969993 -0.36336392 0.4775902 0.87858272 9.0555928e-05 0
0.17153946 -0.45255429 -0.3666774 -0.52217019 0.85284138 -6.7723835e-05 0
-0.18982358 -0.44272709 -0.36833116 0.50681543 0.86204815 -0.0033216556 0.00043795389
-0.17873853 -0.44875222 -0.36338523 0.47923097 0.87768877 -0.00017509091 0
0.18996656 -0.44127351 -0.36518943 -0.52211249 0.8528766 -1.1666234e-05 0
-0.05560109 -0.43226153 -0.36618769 0.21917216 0.97568619 -2.4061203e-05 0
-0.032361884 -0.43748179 -0.36204281 0.1285595 0.99164164 -0.010922391 0.0018325339
-0.021143235 -0.43890554 -0.36417758 0.051353384 0.99856341 -0.015297359 0.0025626456
-0.0062112049 -0.43829548 -0.36248219 -0.016846476 0.99985772 -0.00088629709 0.00037754307
0.0014204709 -0.43798363 -0.36042756 -0.040344808 0.9991858 -7.3451258e-05 4.1797917e-05
0.018719099 -0.43727684 -0.36927688 -0.040850565 0.99916524 -0.00017706156 6.2751285e-05
0.027004767 -0.43693829 -0.36901689 -0.053794008 0.99854463 -0.0038438269 4.4069082e-05
0.032976508 -0.43669426 -0.36763722 -0.074119531 0.99721229 -0.0085967798 0.00024083183
0.04310764 -0.43628031 -0.36823946 -0.14054617 0.99002212 -0.010151196 0.0018789978
0.052291352 -0.43474564 -0.36679807 -0.20790446 0.97811961 0.0076028402 0.0020729767
0.19798043 -0.43636754 -0.36311948 -0.52991599 0.84804952 -0.001042785 6.6036286e-05
-0.21822652 -0.42050928 -0.36455363 0.68029022 0.73294157 0.0013643054 0.00024763183
-0.084428899 -0.4257859 -0.36290428 0.26304379 0.9647122 0.01176085 0.00080346322
-0.073735319 -0.428188 -0.36218694 0.21996333 0.97550815 -0.00025166056 1.1646243e-05
-0.066629052 -0.42978433 -0.36432725 0.21922216 0.97567499 -7.6624623e-05 0.00012393892
0.070261188 -0.42913499 -0.36498153 -0.29031134 0.95693105 0.001531229 0.00023174768
0.084571064 -0.42466706 -0.36098847 -0.2980108 0.95456254 5.3143591e-05 0
0.093110323 -0.42200089 -0.36692879 -0.29805186 0.95454967 7.0718153e-05 4.2353047e-05
-0.21959667 -0.41920793 -0.36491466 0.68801624 0.72569537 -6.4098291e-05 2.7203905e-05
-0.11610995 -0.41289854 -0.36314338 0.46339881 0.8861497 -0.00033616179 0
0.11610549 -0.41482115 -0.36112404 -0.39714709 0.91771156 0.0089303469 0.0022539077
0.22740829 -0.41311732 -0.36960733 -0.71292275 0.70124167 -0.0011160744 0.00040622591
-0.23929 -0.40050286 -0.36193424 0.68869913 0.72504723 0.00014243316 7.4645155e-05
-0.12853807 -0.40638465 -0.36846629 0.46427029 0.88569361 -2.5517118e-05 0
0.13709301 -0.40215313 -0.36003309 -0.52419704 0.85159308 -0.002586226 0.00024662609
0.23225874 -0.4080106 -0.36979258 -0.72205055 0.69183779 -0.0018908222 0
-0.24453942 -0.39551687 -0.36743391 0.6888575 0.72489673 -9.3896248e-05 0
-0.14494903 -0.39778322 -0.36279207 0.49299231 0.86999464 0.0082415976 0.00023888313
0.14463043 -0.39738086 -0.36529601 -0.53498042 0.84486449 -1.3101625e-05 0
0.15327297 -0.39190885 -0.36396438 -0.5349437 0.84488773 -6.6694891e-05 9.253381e-06
-0.25578573 -0.38483495 -0.36448628 0.71693021 0.69712055 -0.0058357143 0.00095838727
-0.16565466 -0.38540342 -0.36565381 0.59799039 0.80150098 0.0019351029 0.0020067259
0.16192478 -0.38643098 -0.36513817 -0.53801697 0.84293401 0.00012086558 8.1664606e-05
0.25393739 -0.38518655 -0.36263269 -0.72499591 0.68875319 -1.4462925e-05 0
-0.17334001 -0.37832144 -0.36285162 0.67158407 0.74092019 -0.003488349 0.00010493047
0.17803438 -0.37623125 -0.3651076 -0.62437201 0.78112632 -0.0010715824 0.0027037528
0.18188728 -0.37294427 -0.36928615 -0.65628737 0.75451088 0.00041242561 0.0026603742
-0.27384448 -0.36259234 -0.36480576 0.82285804 0.56812298 0.011870372 0.0012460933
-0.19223636 -0.36090869 -0.36960244 0.67764211 0.73539191 0.00010431355 0
0.18760419 -0.36674032 -0.36365476 -0.70722514 0.7067641 0.017807938 0.0010848499
0.19069117 -0.3633903 -0.36088115 -0.72445315 0.68932402 0.00024454278 0.00026675718
0.27085584 -0.36737418 -0.36547372 -0.76404643 0.64504999 -0.011985888 0.0017855293
-0.28026623 -0.35210249 -0.36097246 0.85281146 0.52221888 1.6315549e-05 0
-0.27929115 -0.35369521 -0.36264598 0.85285026 0.52215552 -1.3501533e-05 1.2979317e-05
0.19718048 -0.3563481 -0.36487284 -0.73308837 0.6801331 0.00065871171 8.1261052e-05
0.27832717 -0.35856873 -0.3600052 -0.83107597 0.55615628 0.0017565559 0.0024868364
0.28132051 -0.35306159 -0.36272869 -0.84627312 0.53272671 -0.004899594 0.0018487436
-0.21021636 -0.34434029 -0.36695686 0.73495799 0.67800272 -0.012207182 0.0016175801
0.2108216 -0.34154478 -0.36630517 -0.7354573 0.67757112 0.00012708134 5.9843696e-06
0.28605211 -0.34435636 -0.3646476 -0.865367 0.50109559 0.0065790387 0.00069451367
-0.29158255 -0.33361727 -0.36558667 0.85290366 0.5220682 -9.4993949e-05 1.8621022e-05
-0.28817821 -0.33917826 -0.36489719 0.85286236 0.52213585 -8.5550608e-05 0
-0.22038105 -0.33192876 -0.36135951 0.82501507 0.56498325 0.012002158 0.00074529753
-0.21813786 -0.33547166 -0.36980379 0.80482692 0.59322798 0.018279726 0.0012329768
0.21418169 -0.3378984 -0.36588654 -0.74085879 0.67165774 -0.0020100293 0.00013855551
0.29192027 -0.33356011 -0.36496717 -0.87860286 0.47755322 -2.1211197e-06 4.2101827e-05
-0.22720835 -0.32114559 -0.36404851 0.83831447 0.54517967 0.0028053089 0.00028632086
0.2248618 -0.32630837 -0.36573511 -0.77492571 0.63197058 0.010166308 0.0016254613
-0.23238364 -0.31297171 -0.36455134 0.84485513 0.53499514 1.5088778e-05 1.4905641e-05
0.23086044 -0.31886017 -0.36376664 -0.82056314 0.57131672 0.016530009 0.0022616959
0.30267164 -0.31377968 -0.36497009 -0.87860006 0.47755828 -1.082815e-05 4.9030979e-05
-0.23690856 -0.30582494 -0.36502594 0.84484494 0.53501123 -7.5324504e-05 8.7115932e-06
0.30737194 -0.30513206 -0.3648482 -0.87844783 0.47783831 0.00021722738 0
-0.24420695 -0.29429775 -0.36860985 0.84828502 0.52952707 0.0037000959 8.892623e-05
0.31258112 -0.2955482 -0.36357588 -0.88498676 0.46556467 0.0069330186 0.00040974602
-0.31851971 -0.28015012 -0.36818171 0.95271373 0.30380237 0.0063711368 0.00030133055
-0.24968188 -0.28565058 -0.36822692 0.87191755 0.4896338 0.0043051527 0.0013101761
0.24821335 -0.28575194 -0.366119 -0.88571364 0.46423203 -2.4768751e-05 4.209824e-05
0.31925082 -0.28327727 -0.36571521 -0.92874509 0.37053612 -0.011645072 0.0027567823
-0.31903768 -0.27839857 -0.36436805 0.95650858 0.29169175 0.0027012236 8.3790692e-05
-0.25347698 -0.2796565 -0.36927503 0.88134944 0.47227588 0.013364652 0.0015388373
0.25159526 -0.27929944 -0.36734709 -0.88682348 0.46210799 -0.00054775056 6.5771696e-06
-0.32372373 -0.26255265 -0.36489624 0.9589591 0.28354421 8.948749e-05 3.8323215e-05
0.26062229 -0.2620765 -0.36701542 -0.90564495 0.42380434 0.014041677 0.00078808895
0.32400781 -0.26489639 -0.36637619 -0.96839219 0.24937224 -0.0054836399 4.9967584e-05
-0.32627818 -0.25391483 -0.36774984 0.95896763 0.28351551 0.0001679328 1.5705866e-05
0.32658288 -0.25419167 -0.36454391 -0.9722898 0.23377877 -3.6668072e-05 2.0625033e-05
-0.32936561 -0.24347453 -0.36838838 0.95893925 0.28361142 0.00014273074 1.1538953e-05
0.33235851 -0.2301819 -0.36948508 -0.97225958 0.23390464 -6.2737825e-05 5.3885622e-05
-0.27173468 -0.22364032 -0.36966377 0.9633196 0.26834613 -0.0023845176 0.00057501608
-0.33822972 -0.21350057 -0.36692375 0.98225921 0.18740761 0.006729905 0.0018430052
0.27364242 -0.21212612 -0.36427316 -0.97645658 0.21571372 0.00030700013 0
0.33594415 -0.21527606 -0.36705965 -0.97305226 0.23057862 -0.00164323 0
-0.27703956 -0.20269985 -0.36679688 0.99071127 0.13492157 0.016947888 0.001782611
0.27561054 -0.20336449 -0.36566892 -0.98132885 0.19230051 -0.0037707156 0.00037694827
-0.27727884 -0.19684392 -0.36327633 0.99440104 0.10408165 0.018268693 0.001723566
-0.27769554 -0.18664473 -0.36694577 0.99850124 0.054711122 0.0014223302 0.00022140313
0.27941677 -0.18481536 -0.36216056 -0.99564177 0.093105972 0.0053568408 0.0031610886
0.34046847 -0.18331769 -0.36789823 -0.99986649 0.015766742 0.0042828908 0.0010903543
-0.27802289 -0.17863348 -0.36339331 0.99915123 0.041192938 -0.00010708132 1.5343668e-06
0.27959481 -0.17828941 -0.36060625 -0.99900436 0.043338139 0.010587181 0.0021240129
-0.33959898 -0.16891629 -0.36762577 0.99966913 0.02572163 -3.6699534e-05 8.5206275e-06
0.27902928 -0.16444901 -0.36581981 -0.99929547 -0.037522312 0.00073049043 4.4226203e-05
0.33994907 -0.1631377 -0.36220545 -0.9996683 -0.02575383 5.7819288e-05 3.3022639e-05
-0.27898318 -0.15513101 -0.36730868 0.99957311 0.029214531 0.00035957011 0.00013534237
0.27848098 -0.15102972 -0.36451894 -0.99916869 -0.040767174 3.8592792e-05 0
0.3397592 -0.15576032 -0.36597317 -0.99966896 -0.025729522 3.4117358e-05 3.8361562e-05
-0.34013909 -0.14793022 -0.3601492 0.99973392 0.023063574 0.0003355704 2.6119777e-05
-0.27931195 -0.14708506 -0.36981016 0.99959505 -0.014878935 -0.024255695 0.0011620721
0.33947963 -0.14489751 -0.36567825 -0.99966896 -0.025727931 0.00013941014 1.865243e-05
-0.34036821 -0.13902934 -0.36800164 0.99983519 0.018107081 0.001294928 0.0001469852
0.27797234 -0.13858113 -0.36146981 -0.99913895 -0.041487012 0.0003344031 0
0.33921099 -0.13446051 -0.36580732 -0.99966872 -0.025739495 -5.6097408e-05 3.050689e-06
-0.34035811 -0.12152483 -0.36076659 0.99382782 -0.110392 0.01094659 0.002974916
0.27740592 -0.12471833 -0.36373222 -0.99728727 -0.073408753 0.0054078763 0.00087575131
0.33897895 -0.12544468 -0.36757225 -0.99956435 -0.029474171 0.0015639497 0
-0.27658308 -0.11941662 -0.3636314 0.98308527 -0.18311475 -0.0034997768 0.001311271
0.33881509 -0.1190789 -0.36475801 -0.9964577 -0.082978651 -0.01366254 0.0016462762
-0.33565128 -0.1019582 -0.36672792 0.97286922 -0.23133516 -0.0030969614 1.3094742e-05
0.33854416 -0.10855325 -0.36682793 -0.9898079 -0.13980033 -0.027133267 0.0027401997
-0.27133876 -0.09607017 -0.36670741 0.9756853 -0.21917607 5.895878e-05 0
0.27279827 -0.098217838 -0.3612811 -0.96900022 -0.24705985 -0.00018485327 0.0013268825
0.33417052 -0.091224916 -0.36767614 -0.96998125 -0.24295551 -0.010444649 0.0008485404
-0.33251593 -0.088924125 -0.36008537 0.97225338 -0.23393011 -3.2811413e-06 3.6575639e-05
-0.2692098 -0.08659251 -0.36456844 0.97445905 -0.22456318 0.0009637429 3.7387083e-05
0.33235693 -0.085092202 -0.36406758 -0.96058452 -0.2779862 -0.00098858203 2.4413152e-05
-0.3288182 -0.0735524 -0.36704355 0.97226042 -0.23390087 0.00017666638 0
0.26443353 -0.071427196 -0.36675274 -0.9544636 -0.29832739 4.6994487e-06 0
0.33062932 -0.079250343 -0.3644343 -0.95893949 -0.28361067 4.1804771e-05 6.9524776e-07
-0.26259142 -0.060132146 -0.36845669 0.93510073 -0.35435739 -0.0041888175 0.0027156638
0.26263222 -0.065657943 -0.36545169 -0.95326954 -0.3021189 -0.0011923328 3.6324189e-05
0.32692143 -0.066712111 -0.36917996 -0.95895618 -0.28355414 0.00012701444 6.3740481e-06
-0.32501847 -0.057756573 -0.36311001 0.96921283 -0.24622256 0.001060543 0.0003433802
0.25872779 -0.05315277 -0.36298835 -0.93021911 -0.36696991 0.0050525987 0.0016919345
-0.32102928 -0.041173134 -0.3661918 0.94649523 -0.32268232 -0.004778977 0.0022464229
-0.2529242 -0.041687727 -0.36434624 0.88901448 -0.45787486 0.0019699049 8.6869448e-05
0.25707954 -0.047873739 -0.36165297 -0.93065864 -0.36571112 0.011397269 0.0015140574
0.32187667 -0.049653202 -0.36548746 -0.95894283 -0.28359926 3.110585e-05 1.6884826e-05
-0.3165338 -0.030175623 -0.36755171 0.91248536 -0.40909514 -0.0033913159 0.0024392505
-0.25181112 -0.039564013 -0.36793277 0.88668603 -0.46237138 -0.00070107839 1.8114182e-05
-0.24831663 -0.032896779 -0.36902606 0.88571727 -0.46422511 1.8555978e-05 0
0.25371015 -0.039163366 -0.36274052 -0.90111482 -0.43352044 -0.0072203856 0.0028724601
0.31708688 -0.033456497 -0.36120585 -0.94927406 -0.31426054 0.010914359 0.00041283862
-0.31414855 -0.025787197 -0.36326286 0.89426148 -0.44754377 -0.0009204488 0.00085974915
-0.24583891 -0.028169455 -0.36295611 0.88570678 -0.46424499 -1.005511e-05 1.4555148e-05
0.24606504 -0.027088549 -0.36866111 -0.86367756 -0.50343663 -0.02475149 0.0010336658
0.31502968 -0.026499981 -0.36906123 -0.93410105 -0.35688815 -0.009274913 0.0014085926
-0.30651617 -0.011745116 -0.36448652 0.87862754 -0.47750774 2.1164375e-05 2.8086595e-05
-0.24083519 -0.018622687 -0.36463597 0.88058698 -0.4738819 -0.0015996955 0.00021272562
-0.23703893 -0.011379671 -0.36280447 0.87296736 -0.48775861 -0.0044299127 0.00035617332
0.24016692 -0.017772984 -0.36837685 -0.84489685 -0.53492922 0.00013592148 0
0.31033683 -0.015469376 -0.36645138 -0.89863884 -0.43783137 -0.027421301 0.0013161538
-0.30191979 -0.0032886472 -0.36962128 0.87858307 -0.47758958 -6.7187444e-05 3.8347647e-05
0.23144862 -0.0040031392 -0.36798513 -0.84489125 -0.5349381 2.2996328e-05 0
-0.29918021 0.0017516091 -0.36568514 0.87860107 -0.47755653 -3.4324528e-06 5.2446017e-06
-0.22582014 0.0068167774 -0.36640918 0.79947984 -0.60064316 -0.0077421851 0.0030503988
0.22519594 0.0058724144 -0.36698297 -0.84489053 -0.53493923 -1.5390149e-06 0
-0.29241395 0.014200252 -0.3673164 0.87858534 -0.47758532 -4.8389233e-05 3.7667345e-05
-0.21974012 0.013414814 -0.36624205 0.74725878 -0.66451544 0.0048461421 0.00034947842
0.21836862 0.016655568 -0.3642548 -0.80624312 -0.59152412 0.0084395604 0.001167458
-0.21321501 0.02049586 -0.36680132 0.73716938 -0.67570752 0.0007705061 1.345457e-05
0.28660324 0.023299294 -0.36670843 -0.85286021 -0.52213931 -8.0861493e-05 3.3569013e-05
-0.20133534 0.033387683 -0.36035693 0.73538452 -0.67765003 -3.6212386e-05 3.9277134e-06
0.19666485 0.038376216 -0.36106324 -0.67764789 -0.73538655 5.6207509e-06 3.5303997e-06
0.2784903 0.03655171 -0.36236072 -0.84822083 -0.52964032 -0.0016437349 9.1893322e-05
0.28236789 0.030217707 -0.36008826 -0.85285127 -0.52215397 -0.00010633934 3.0283361e-05
-0.27609089 0.043411005 -0.36933509 0.79753393 -0.60301185 0.017783526 0.0017982256
0.18771183 0.046626348 -0.36409235 -0.67766154 -0.73537397 -4.9964847e-06 0
0.19486232 0.040037245 -0.36549067 -0.677697 -0.73534131 -3.683913e-05 0
0.27425569 0.043468975 -0.36578339 -0.83174413 -0.55491167 -0.016575435 0.0012737341
-0.26501322 0.055073917 -0.36307016 0.74030161 -0.67225915 -0.0045893118 0.00035288819
-0.18556079 0.050506216 -0.36614877 0.66525322 -0.74598306 -0.030779978 0.001869912
0.26374748 0.058821112 -0.36310372 -0.76727223 -0.64094007 -0.022117246 0.0029950875
0.27002463 0.05038036 -0.36645123 -0.8059175 -0.59191447 -0.011580886 0.0022963756
-0.25451148 0.066130526 -0.364593 0.7250573 -0.68868858 -1.3655796e-05 3.7790974e-06
-0.1734165 0.060703434 -0.361379 0.58130091 -0.8136887 8.4995685e-05 0.0011384791
-0.1652914 0.065847814 -0.36533773 0.54650009 -0.83745718 -0.0018019282 0.00041946722
0.16388378 0.068583675 -0.36924854 -0.58289319 -0.81254315 -0.0030087852 0.0020499108
0.25598663 0.066192493 -0.36201 -0.72267383 -0.69109643 -0.01132629 0.0014313485
-0.15064876 0.075118743 -0.36365741 0.53494775 -0.84488517 -4.1641786e-05 1.9216327e-06
-0.14621904 0.077923387 -0.36726844 0.53493577 -0.84489274 -3.3647302e-05 1.0122031e-05
0.14907211 0.077170588 -0.36430889 -0.48508537 -0.87446344 -0.0024352195 0.0005936753
0.15072052 0.076306611 -0.36265832 -0.49437526 -0.86920738 -0.0084617082 0.00085041695
0.24557251 0.076083995 -0.36765552 -0.68992424 -0.7238816 -7.3335817e-05 0
-0.24004325 0.081363186 -0.36139238 0.72501373 -0.68873441 -1.4119351e-05 2.3161529e-05
-0.23772383 0.083805144 -0.36545375 0.72505683 -0.68868905 5.882262e-06 8.3768782e-06
-0.13488914 0.085096866 -0.36318544 0.51011461 -0.86008441 -0.0061444156 0.00052265206
0.1263199 0.08909563 -0.36469322 -0.46422237 -0.8857187 6.2250847e-06 3.0729464e-06
0.13291436 0.085639283 -0.36033428 -0.46422544 -0.88571709 8.4268177e-06 1.6386256e-06
0.14082424 0.081493512 -0.36880058 -0.46895996 -0.88321859 -0.0012164728 5.7759586e-05
0.23986821 0.08150205 -0.36465609 -0.68867278 -0.72507221 2.1274494e-05 0
-0.22532372 0.096860424 -0.36746731 0.6911881 -0.72266698 -0.0033718061 0.0011137081
-0.12381416 0.092108957 -0.36891091 0.48226497 -0.87595326 -0.011238967 0.0012979477
-0.10880078 0.098650314 -0.36057523 0.37387782 -0.92747325 -0.0029590444 0.0017508114
0.10656969 0.099447235 -0.36484301 -0.41322872 -0.91057146 0.010085286 0.0015232704
0.11603066 0.094488502 -0.36628497 -0.45980316 -0.88802028 0.00098765816 5.5753437e-05
0.22899432 0.091830239 -0.36383528 -0.68867499 -0.72507018 1.5028151e-05 1.4613686e-06
-0.21644267 0.10582036 -0.36775595 0.61926985 -0.78512537 0.00911004 0.0018611539
0.083174363 0.10761613 -0.36527866 -0.24177884 -0.97032219 0.0042382702 0.00066415983
0.098437488 0.10370954 -0.36531645 -0.3649638 -0.93099761 0.0067044892 0.002795211
0.10031231 0.10272691 -0.36719328 -0.38485235 -0.92297792 0.00067674642 0.0026176083
-0.20423265 0.11408842 -0.36478534 0.55653524 -0.83081788 0.0031936127 0.0010381615
-0.063651182 0.11274719 -0.3676385 0.23756988 -0.97135836 0.0048485338 0.00083603361
-0.058375306 0.11439447 -0.36475182 0.23777631 -0.97128737 0.0079470668 0.00092791597
-0.036479168 0.11809954 -0.36684644 0.09238454 -0.99572128 0.0020724721 0.0013813166
-0.0253933 0.11855251 -0.36550483 0.048256487 -0.99883467 -0.00077751779 0.00011299934
-0.0092565622 0.11921185 -0.36479232 0.040826101 -0.99916631 1.1484692e-06 0
0.0028604616 0.11970695 -0.36688313 0.032149572 -0.99948269 -0.00091533019 8.8834204e-05
0.029130969 0.11975595 -0.36042956 -0.11033103 -0.99389362 -0.0015664651 0.0025208283
0.054355063 0.11408984 -0.36607307 -0.21916936 -0.97568685 -1.2508747e-05 2.7371405e-07
0.061305482 0.11252856 -0.36356893 -0.21915928 -0.97568905 -3.3295673e-05 5.1894444e-06
0.1988897 0.11934771 -0.36788625 -0.55081028 -0.83461535 -0.0050276648 0.0020504356
0.20240566 0.11677773 -0.36446714 -0.60127777 -0.79902893 -0.0042125601 0.0023350259
-0.18217622 0.12759101 -0.36026827 0.52212816 -0.85286707 -7.2767849e-05 5.0425328e-06
0.023884762 0.1204246 -0.36374289 -0.057467394 -0.99816561 -0.019051429 0.0021808776
-0.17455314 0.13225774 -0.36347055 0.52212226 -0.8528707 -1.2073287e-05 0
-0.16800529 0.13626625 -0.363107 0.52208728 -0.85289204 -9.7004573e-05 1.9593428e-05
-0.15195268 0.14609338 -0.36581394 0.48482043 -0.87458456 -0.0071423291 0.0010227535
-0.14672299 0.14929493 -0.36869445 0.45841727 -0.88871932 0.0056209969 0.0016030038
0.15915418 0.1409454 -0.3669591 -0.47757551 -0.87859076 1.0021006e-05 0
0.13427219 0.15446967 -0.3618663 -0.42720497 -0.90414965 0.0030570321 0.0014219166
-0.11641204 0.16062827 -0.3614006 0.28357816 -0.95894915 2.0864088e-06 1.2313767e-06
-0.098890066 0.16580999 -0.36768603 0.28359991 -0.95894271 -3.3856126e-05 1.0770214e-05
-0.08866293 0.1688344 -0.36604196 0.28360027 -0.95894259 -3.4350753e-06 0
0.08972244 0.16861838 -0.360246 -0.23389529 -0.97226173 -7.5064709e-05 1.48113e-05
0.099679701 0.16622312 -0.36300305 -0.23388289 -0.97226471 -4.3038483e-05 0
0.11194891 0.16327173 -0.36959589 -0.28294829 -0.95911771 0.0057942076 0.001496152
0.12286637 0.16064551 -0.36558753 -0.36514163 -0.93089402 -0.010385883 0.0018026268
-0.072807007 0.17352343 -0.36156908 0.27520514 -0.96138185 0.0026507319 0.00015840647
-0.061235506 0.17694542 -0.36407328 0.21825075 -0.97582346 0.011622974 0.0015147221
-0.056583218 0.17829005 -0.36648962 0.20114094 -0.97956133 -0.0013815814 0.0015462325
-0.047626302 0.17939679 -0.36582771 0.1222917 -0.99249363 -0.0009716801 0.00153646
-0.039205134 0.17961353 -0.36206406 0.056884058 -0.99834311 0.0086720092 0.0004822328
0.048006047 0.17865337 -0.36974192 -0.19863282 -0.98007089 -0.0024854576 0.00039350844
0.055545792 0.17683966 -0.36184403 -0.21181034 -0.97730619 -0.0030034101 0.000332717
0.064308368 0.17473182 -0.36775795 -0.23387678 -0.97226626 -1.4688649e-05 1.2376019e-05
0.074638344 0.17224689 -0.3642517 -0.23388308 -0.97226471 3.0277391e-05 0
0.083586454 0.1700944 -0.36961934 -0.23389095 -0.97226286 -1.5404272e-05 0
-0.012498967 0.18030088 -0.36367753 0.025722522 -0.99966908 -6.5035187e-05 1.3986588e-06
-0.00026730075 0.18061569 -0.36020219 0.02574563 -0.99966848 -6.2993349e-05 0
0.030633111 0.181411 -0.36226204 -0.092255123 -0.99559188 -0.016902711 0.0013931079
-0.06979204 -0.49186432 -0.35448501 0.23386677 0.97226864 6.7048786e-06 0
-0.03864428 -0.49935699 -0.35713014 0.12138966 0.99259776 0.0037693141 0.0027104092
-0.023893056 -0.49968913 -0.35748222 0.0098854937 0.99988884 0.011160982 0.0012317109
-0.018265516 -0.49954429 -0.35406446 -0.020507015 0.9997887 0.0014419721 0
-0.0092489254 -0.49931222 -0.3529402 -0.022012204 0.99975771 0.00023030466 4.436549e-05
0.020014841 -0.49855906 -0.35442144 -0.025745204 0.99966854 -0.00023807041 0.00011380512
0.049108449 -0.49781027 -0.3551895 -0.1115675 0.99372661 -0.0077519724 0.0019074552
0.051651474 -0.4977448 -0.35962164 -0.14764886 0.98899055 0.0098743103 0.0021074004
0.063321918 -0.49478003 -0.35627636 -0.22278093 0.97485811 -0.0044945204 0.0014570451
0.075209208 -0.49126464 -0.3562004 -0.27326199 0.96193951 0.00042240653 0.0001863904
-0.11833148 -0.48018801 -0.35978493 0.34609896 0.93811035 -0.012828189 0.00298706
-0.10490323 -0.48341823 -0.35471672 0.23709945 0.97148436 -0.0013898243 3.8771548e-05
-0.09339875 -0.48618567 -0.35414302 0.23386244 0.97226971 -0.00013034705 4.6422087e-05
-0.087040156 -0.48771521 -0.35564333 0.23388433 0.97226447 7.6721095e-05 0
0.083228141 -0.48889324 -0.35653549 -0.28364706 0.95892876 -0.00016380129 0.00018670801
0.095685199 -0.48520938 -0.35340762 -0.283584 0.95894742 -0.000159613 1.0247154e-05
0.10572654 -0.48223987 -0.35490116 -0.28358805 0.95894617 7.7973607e-05 0
0.11080219 -0.48073888 -0.35757083 -0.28360832 0.95894021 0.00013810459 0
-0.1220113 -0.47930282 -0.3519015 0.35159516 0.9361521 -0.00021974713 0.0025172045
0.11725272 -0.47883129 -0.35980314 -0.28360364 0.95894158 8.1970007e-05 0
0.12459038 -0.47666132 -0.3516373 -0.33838087 0.94100416 0.0031063221 0.00095039938
-0.14389393 -0.46769154 -0.35074738 0.46479756 0.88541406 -0.002285904 7.9325138e-05
-0.17623632 -0.45011228 -0.35518682 0.47906563 0.87777913 -0.00014283284 0
-0.16811103 -0.45452869 -0.35124648 0.47761956 0.87856668 -3.6964815e-05 2.5531353e-05
0.16215104 -0.45830172 -0.3587732 -0.52217615 0.85283768 -4.9429455e-05 0
0.17090106 -0.45294508 -0.35301626 -0.52213562 0.85286242 -5.0800332e-05 2.6172953e-05
0.1776574 -0.448809 -0.35015833 -0.52209419 0.85288787 2.4085379e-05 0
-0.20191169 -0.43578944 -0.35520631 0.58613509 0.81017721 0.0076481779 0.0024034469
-0.19854273 -0.43798792 -0.35026798 0.57064617 0.82116538 0.0070956415 0.0024394249
-0.0445747 -0.4347384 -0.35319498 0.21146655 0.97738421 0.0013734389 0.00010760008
-0.025184983 -0.43900406 -0.35380751 0.067247771 0.99750566 -0.021449717 0.0014413967
-0.010188837 -0.43845797 -0.35753644 -0.014787321 0.9998796 0.0047046142 0.00058681809
0.0049748411 -0.43783838 -0.35313827 -0.040800188 0.99916726 -0.0002628591 0.00013545278
0.013984123 -0.43747026 -0.35223255 -0.040835153 0.99916589 -0.00017200329 0.00012255997
0.050961591 -0.43516082 -0.35575858 -0.20076118 0.97962046 0.0062221899 0.0022262651
0.063627198 -0.43120632 -0.35381794 -0.27797344 0.9605878 -0.0014102788 0.00057701324
0.19830324 -0.43616992 -0.35489866 -0.53093922 0.84740901 -0.0012572603 7.2204079e-05
0.20372234 -0.43285242 -0.35563782 -0.55377209 0.83266413 -0.002638665 0.00036667683
-0.081318535 -0.42648461 -0.35194203 0.24232394 0.97019446 -0.001329549 0.00050158153
-0.076544486 -0.42755705 -0.35422546 0.23958099 0.97087592 -0.00097240484 0.00029039217
0.079150692 -0.42635947 -0.35558966 -0.29810724 0.95453238 -0.00017235494 0.00014344862
0.086015791 -0.42421597 -0.35440642 -0.2980713 0.95454359 3.2447373e-05 0
0.092737883 -0.42211714 -0.3514255 -0.29869255 0.95434934 -0.00033359564 3.9921011e-05
0.21599634 -0.4244231 -0.35541606 -0.64307797 0.76578093 0.0055029248 0.0019846936
-0.22417909 -0.41485545 -0.35672522 0.68868351 0.72506207 2.6277015e-05 1.0427437e-05
-0.11459457 -0.4136928 -0.35055166 0.45608988 0.88992751 -0.0033142241 9.732943e-05
-0.10399711 -0.41924718 -0.35941541 0.37593138 0.92640924 0.02100921 0.0016448064
0.10429253 -0.41850948 -0.35686201 -0.32501471 0.94569355 0.0053949156 0.00052235863
0.11191916 -0.41612822 -0.35614425 -0.37111491 0.92850506 0.012331734 0.0023206747
0.22840071 -0.41207245 -0.35621083 -0.72137713 0.69254237 -0.00013415524 0.00010306681
-0.23553205 -0.40407223 -0.35410088 0.68876743 0.72498226 4.0757866e-05 0
-0.13682123 -0.40204319 -0.35501742 0.46425468 0.88570172 7.1073395e-05 0
0.12508501 -0.40975592 -0.35556075 -0.4821597 0.87600583 -0.011660426 0.0016760889
0.13380188 -0.40423685 -0.35214046 -0.52202588 0.85292917 0.00084475259 0.00032855335
-0.23990439 -0.3999193 -0.35216537 0.68876195 0.72498757 -2.9818057e-05 0
-0.14463006 -0.39795035 -0.35034603 0.48639613 0.87373161 0.0034419256 0.00015081659
0.14460875 -0.39739457 -0.3551583 -0.53495216 0.84488231 -6.2790074e-05 1.7232209e-05
0.15234517 -0.39249629 -0.35525095 -0.53493333 0.84489435 0.00014031584 5.7953125e-06
0.24406052 -0.39558527 -0.35712016 -0.72501642 0.68873167 -4.7821159e-05 0
-0.2590051 -0.38177714 -0.35852417 0.72513705 0.68860078 0.0022873939 0.00093626673
-0.16396056 -0.3869645 -0.35220721 0.58485919 0.81106204 0.010860678 0.0024936835
0.25143915 -0.38781676 -0.35958025 -0.72507519 0.68866968 -8.2041457e-05 5.876154e-05
-0.26858279 -0.37118727 -0.35628331 0.81811845 0.57421809 0.03091459 0.0011275581
-0.17539352 -0.37642917 -0.35807255 0.67334563 0.73932374 -0.002479126 9.1061593e-05
0.175891 -0.37758833 -0.35786277 -0.60519367 0.79604888 -0.0068423641 0.0020201725
0.26451206 -0.37405318 -0.35370079 -0.74173731 0.67067981 0.0038002916 0.00050710479
-0.2702179 -0.36851636 -0.35470778 0.82092208 0.5701192 0.03241862 0.0011358951
-0.26973337 -0.36930779 -0.35781264 0.81751251 0.57521558 0.028288927 0.0012310052
-0.184451 -0.36808282 -0.3542102 0.67762971 0.73540324 -8.9653098e-05 4.9096776e-05
0.18795034 -0.36636466 -0.35222259 -0.71135163 0.70282984 -0.003017138 0.0012008232
0.27217644 -0.36598384 -0.35661298 -0.79583341 0.60551471 -0.0010479093 0.0023647174
-0.28150705 -0.35007554 -0.35233295 0.85279745 0.52224171 0.0001255339 0
-0.19526835 -0.35811472 -0.35863304 0.67769957 0.73533893 -4.7907371e-05 4.5629651e-05
0.19827883 -0.35515618 -0.3529343 -0.73539734 0.67763615 4.9126902e-05 5.1605474e-07
0.20238002 -0.35070559 -0.35663095 -0.73548043 0.67754596 0.00013614201 0
-0.28552735 -0.34350842 -0.3581349 0.85284376 0.52216619 1.1014746e-05 0
-0.2139724 -0.34087911 -0.35290378 0.75276273 0.65826571 -0.0058828769 0.0021154014
0.20687002 -0.345833 -0.35668117 -0.73532593 0.67771363 0.00013161913 0
0.21059677 -0.34178877 -0.35340756 -0.73540008 0.67763323 -3.5535126e-05 6.0981532e-05
