# .PCD v0.7 - Point Cloud Data file format
VERSION 0.7
FIELDS x y z normal_x normal_y normal_z curvature
SIZE 4 4 4 4 4 4 4
TYPE F F F F F F F
COUNT 1 1 1 1 1 1 1
WIDTH 595
HEIGHT 1
VIEWPOINT 0 0 0 1 0 0 0
POINTS 595
DATA ascii
0.152695 0.13617304 -0.1517967 -0.53049058 -0.83465022 0.14811713 0.0027433084
0.22392966 0.13349225 -0.15040621 -0.61346889 -0.78085077 0.11801684 0.00016085585
-0.21340674 0.1408792 -0.15485439 0.60455304 -0.78768784 0.11859003 1.5367281e-05
-0.2047562 0.14732513 -0.15609559 0.60478693 -0.78742617 0.11913344 1.4552896e-06
-0.14360055 0.14041749 -0.15730906 0.46794492 -0.8698501 0.15616769 0.0027806747
-0.13905212 0.14287339 -0.1538706 0.40247017 -0.90417761 0.14311065 0.00060703664
-0.12640804 0.14783864 -0.15550673 0.38164681 -0.91246331 0.14750068 2.2362994e-05
0.12756743 0.14794035 -0.15200779 -0.38729155 -0.91054857 0.14459075 0.00014411281
0.2022078 0.14914072 -0.15700047 -0.60448498 -0.78782517 0.11802342 0
-0.20039636 0.15097088 -0.15415278 0.60440153 -0.78770322 0.11925771 1.8760766e-05
-0.19347601 0.15654655 -0.15243499 0.60433221 -0.787866 0.11853164 0
-0.12168798 0.15014642 -0.15338629 0.37785739 -0.91408807 0.14719637 1.7996472e-05
-0.1139168 0.15383434 -0.15056653 0.37757018 -0.91464442 0.14445175 1.5163739e-05
-0.10402667 0.15669358 -0.15800624 0.37803471 -0.91399956 0.14729062 1.7847844e-05
0.098557696 0.15868755 -0.15963767 -0.37578291 -0.91488779 0.14753833 2.231809e-05
0.10528962 0.15661666 -0.15532333 -0.37942848 -0.91370189 0.14554326 2.051203e-05
0.11573133 0.15173605 -0.15866329 -0.37949416 -0.91352391 0.14648634 8.2968108e-06
0.18993509 0.15877947 -0.15556693 -0.60430026 -0.7878868 0.11855638 1.7414242e-05
0.19226839 0.15661705 -0.15797374 -0.60441625 -0.7876125 0.11978116 5.5410883e-06
-0.18723975 0.16129324 -0.15268445 0.59648436 -0.79360098 0.1200164 0.00016295827
-0.17737648 0.16817521 -0.15712497 0.54548067 -0.83058655 0.11214586 0.001482288
-0.093933016 0.16105133 -0.15694302 0.37582499 -0.91486406 0.14757812 1.948916e-06
0.067387082 0.1694096 -0.15681642 -0.17890717 -0.9740063 0.13893817 0.0012825066
0.078793183 0.16691497 -0.15939301 -0.29076558 -0.94771731 0.13148038 0.0024578816
0.083568275 0.16553862 -0.15577608 -0.32510942 -0.93550831 0.13830464 0.0013079663
0.18516397 0.16217297 -0.15729758 -0.60005087 -0.79066694 0.12159275 5.8099286e-05
-0.17218238 0.17286591 -0.15256327 0.53024369 -0.84068519 0.10995404 0.0014743602
-0.16361664 0.17696929 -0.15575421 0.46409377 -0.87752688 0.12067963 0.0018411354
-0.15756658 0.17962122 -0.15465511 0.42223975 -0.89697289 0.13097058 0.001064518
-0.052238714 0.17124808 -0.15782201 0.12813714 -0.98076987 0.14721195 9.6724398e-06
-0.044911813 0.17220491 -0.15787208 0.12813208 -0.98071116 0.14760698 0
-0.010257577 0.17654887 -0.15928096 0.073284626 -0.98865485 0.13111365 0.0018018514
0.0053117746 0.17781965 -0.15528297 -0.079204872 -0.98370618 0.16139673 0.0015748922
0.014805375 0.17731139 -0.150498 -0.10551453 -0.98295081 0.15058056 0.00093640201
0.024962507 0.17525381 -0.15514594 -0.12653279 -0.9810763 0.14655614 1.8053639e-05
0.03480196 0.17394058 -0.15526108 -0.13013901 -0.98084688 0.14492486 0
0.045786466 0.1724413 -0.15560393 -0.12988667 -0.98080879 0.14540826 2.458406e-05
0.16951333 0.1743384 -0.15628663 -0.52259392 -0.84221995 0.13251813 0.0023447264
0.17422695 0.17079116 -0.15583605 -0.55555224 -0.82259446 0.1212439 0.0016354924
-0.15231369 0.18217504 -0.15180735 0.40035185 -0.9083522 0.12089162 0.00052837451
-0.14295314 0.18542966 -0.15649793 0.38024727 -0.91733968 0.1178978 0
0.1535901 0.18135726 -0.1539851 -0.39516142 -0.91053838 0.12152082 0.00029103231
-0.13223082 0.19019975 -0.15402147 0.38008809 -0.91730773 0.11865731 2.6937953e-06
-0.12522067 0.19352081 -0.150877 0.37991148 -0.91747463 0.11793033 0
0.11607733 0.19682041 -0.15455118 -0.38016665 -0.91723359 0.11897839 0
0.12802103 0.19236594 -0.15083879 -0.38038301 -0.91731113 0.11768211 1.4164867e-05
-0.095671251 0.20515507 -0.15543863 0.31059331 -0.94374079 0.11351243 0.0012691006
0.095632762 0.20471486 -0.15887526 -0.29741278 -0.94917583 0.1030091 0.0018472081
0.10398683 0.20154056 -0.15672015 -0.35756239 -0.92614943 0.11998492 0.00056537281
-0.077541776 0.21000983 -0.15392159 0.1787236 -0.97636676 0.12151506 0.0010068286
-0.063893557 0.21134712 -0.15763666 0.12990695 -0.98423976 0.11998424 0
-0.050109446 0.21408652 -0.15016106 0.12951697 -0.98466438 0.11688226 0
-0.046542134 0.21395043 -0.15505806 0.12948108 -0.98444104 0.11878765 2.2626255e-05
-0.039389674 0.21440284 -0.15901329 0.12990057 -0.98424745 0.11992804 1.3563343e-05
-0.014472009 0.21851575 -0.15228355 0.1073162 -0.98786253 0.11229827 0.00036510138
-0.0078709833 0.21888997 -0.15628392 0.044663366 -0.99340224 0.10562783 0.0017108177
0.018361956 0.21750678 -0.15630028 -0.10988243 -0.98653281 0.12115633 0.00032446632
0.025771491 0.21695635 -0.15286383 -0.12892234 -0.98445356 0.11929037 0
0.031552099 0.21644691 -0.15083 -0.13050407 -0.9844622 0.11748569 0
0.044031188 0.21422473 -0.15551311 -0.12949906 -0.98436934 0.11936057 3.2967728e-05
0.066786356 0.21121943 -0.15558995 -0.15086752 -0.98023027 0.12801389 0.00052969402
0.070452221 0.21137896 -0.15039855 -0.15288077 -0.98049515 0.12351815 0.00048569735
-0.030818084 0.41691333 -0.15864687 -0.42572153 -0.87167472 0.24278472 0.079759657
-0.010052402 0.41287333 -0.15865526 -0.077228807 -0.92826277 0.36381859 0.0022350121
-0.0069274902 0.41365838 -0.15614182 -0.076115429 -0.92777431 0.36529616 0.0020922183
0.026076235 0.41556931 -0.15819122 0.27087101 -0.89572823 0.35256177 0.0026886673
-0.043254837 0.42286575 -0.15673453 -0.70786512 -0.67657769 0.20290287 0.10500123
-0.038463298 0.42187166 -0.15266532 -0.7530064 -0.64771813 0.11594208 0.1157923
0.049447365 0.42762601 -0.15471315 0.89394271 -0.44815463 0.0048846542 0.15341304
-0.057290375 0.43845296 -0.15694535 -0.88625753 -0.44889158 0.11421012 0.14509669
0.055655487 0.43203598 -0.15970635 -0.99446386 -0.10503527 -0.003045385 0.13599972
-0.043235838 0.44494748 -0.15668719 0.60677063 -0.79394817 0.038416632 0.17804398
0.04322277 0.44561285 -0.15473387 -0.54634798 -0.83037299 0.10947358 0.14927402
0.05032219 0.44237733 -0.15595296 -0.70066476 -0.69602603 0.15689696 0.13131444
-0.014665768 0.45098248 -0.1565327 0.10541958 -0.93091875 0.3496815 0.0014187552
-0.0067269108 0.45303765 -0.15202293 0.031148836 -0.948717 0.3145884 0.0012686616
0.015542674 0.45179576 -0.15379253 -0.11331116 -0.94418252 0.30932182 0.0016040946
0.024014011 0.45142359 -0.15158479 -0.19340813 -0.92658943 0.32252946 0.00079477479
-0.017964864 -0.45607632 -0.14259192 0.092803463 0.98868608 0.11784486 0.00033310649
-0.0070057483 -0.45721757 -0.14524946 0.070160724 0.99186021 0.10625849 0.000628757
0.0058630249 -0.45727578 -0.14602455 -0.026252784 0.99470735 0.099338241 0.0013857635
0.013107596 -0.45664045 -0.14325596 -0.098852336 0.98840541 0.11525157 0.00058723264
0.028350338 -0.45480102 -0.14178157 -0.12986568 0.98483706 0.11502515 0.00011180952
0.036254942 -0.45377171 -0.14168152 -0.12994124 0.98480511 0.1152138 0.00019133156
0.054470804 -0.45079795 -0.14673246 -0.12898955 0.98477519 0.11653133 3.1242125e-05
-0.092355765 -0.44495213 -0.14341186 0.30813855 0.94522136 0.10773709 0.002329739
-0.085072763 -0.44643822 -0.14945914 0.23304333 0.96324956 0.13357018 0.0033072857
0.068966873 -0.44896016 -0.14605208 -0.14095522 0.98298109 0.11781235 0.00015025277
0.073897719 -0.44813448 -0.14761369 -0.14439669 0.98250395 0.11762413 0.00012563643
0.080556311 -0.44728974 -0.14738217 -0.21559457 0.97124106 0.10104402 0.0017628719
0.091929793 -0.44480067 -0.1460354 -0.28452581 0.95283705 0.10557769 0.0020192917
-0.11106031 -0.43676066 -0.1470561 0.37618995 0.91921091 0.11632872 0.00015666816
0.10351339 -0.43992949 -0.14670482 -0.35995924 0.92609286 0.11305483 0.00033155276
0.11954306 -0.43352452 -0.1447771 -0.38076061 0.91724008 0.11701276 2.8517386e-05
-0.034590516 -0.41290045 -0.14104739 0.12915277 0.98175144 0.13958384 5.6474797e-05
-0.02545635 -0.41317362 -0.14780056 0.12424228 0.9818545 0.14326762 1.8854922e-05
-0.014047095 -0.41519517 -0.14408211 0.089718223 0.98690057 0.13408171 0.00090605963
0.006510166 -0.41633606 -0.14298178 -0.038528945 0.98977011 0.13737056 0.0015006931
0.026216475 -0.41295588 -0.14869863 -0.12913392 0.9813959 0.142079 4.9766018e-05
0.031436276 -0.41323572 -0.14163989 -0.13056193 0.98167831 0.13878527 0.00010209712
0.15328452 -0.4196806 -0.1436913 -0.3902964 0.91376173 0.11273053 0.00016983204
0.16630229 -0.41458941 -0.1412196 -0.48301405 0.86666512 0.12485509 0.0017326827
-0.18239395 -0.40241262 -0.14923508 0.59861481 0.79329395 0.11110824 0.00012673406
-0.17652977 -0.40747765 -0.14537169 0.54080701 0.83178395 0.1251532 0.0022335998
-0.085313298 -0.40405428 -0.14056599 0.32524857 0.93480444 0.14266749 0.00094105315
-0.074171022 -0.40676472 -0.14781928 0.25348312 0.95524788 0.15247229 0.0024185467
-0.067578442 -0.40786198 -0.14610206 0.21282391 0.9665727 0.14298008 0.002135844
0.063412927 -0.40868649 -0.14415027 -0.1631172 0.97640926 0.14148374 0.00039086808
0.18140408 -0.40326503 -0.14863425 -0.58257318 0.80396813 0.11934702 0.00034954125
-0.1936018 -0.39443099 -0.14506508 0.60443521 0.78823435 0.11551939 0
-0.10183218 -0.39669374 -0.14414133 0.37337646 0.91680318 0.14163992 0.00011458885
-0.094165236 -0.39955834 -0.14628778 0.35095292 0.92603129 0.13891736 0.00044376106
0.096799403 -0.39893976 -0.14302774 -0.37129912 0.91709906 0.14514227 9.8355747e-05
0.1972513 -0.39150363 -0.14596061 -0.60438287 0.78805161 0.11702985 1.1629872e-05
-0.20111731 -0.38860118 -0.14538491 0.60461491 0.78775215 0.11784485 4.1574469e-05
0.12743545 -0.38601276 -0.14466375 -0.38864934 0.91024566 0.14284427 0.00013210607
0.20204632 -0.38771215 -0.14675158 -0.60462201 0.78791463 0.11671623 2.6168536e-06
-0.21829818 -0.37580821 -0.14275619 0.60510623 0.78769475 0.11568673 0
-0.15210569 -0.37519524 -0.14227034 0.50996536 0.846165 0.15472613 0.0018328477
-0.14181474 -0.37947071 -0.14860395 0.44672555 0.8821612 0.14909014 0.0015899
0.14589325 -0.37883118 -0.14146297 -0.4694441 0.87106305 0.14446914 0.0016883155
0.15331177 -0.37379959 -0.14505619 -0.51780844 0.84243047 0.14894734 0.0016791471
0.216069 -0.37736607 -0.14383265 -0.60581356 0.78739351 0.11402352 0
0.22382954 -0.3717503 -0.14144126 -0.61967933 0.77736974 0.10813811 0.00029987807
-0.23439819 -0.36342961 -0.14292994 0.66188657 0.74121147 0.11185629 0.0013774423
0.15910959 -0.36903071 -0.14695245 -0.54945916 0.82368439 0.14013816 0.0015427107
0.17061897 -0.36011007 -0.14748122 -0.601987 0.78577632 0.14201185 0
-0.24438442 -0.35330248 -0.14469516 0.73713934 0.66640842 0.11191708 0.0015274397
-0.18288505 -0.35164267 -0.14188372 0.60249579 0.78610355 0.13798611 0
-0.17788392 -0.35533234 -0.14275958 0.60210252 0.7862168 0.13905308 0
0.17853279 -0.35463417 -0.14394616 -0.60274094 0.78555834 0.14000528 7.3770949e-05
0.18104294 -0.35320219 -0.14101876 -0.60271442 0.78586996 0.13836113 3.2057891e-05
-0.19389379 -0.34288356 -0.14373122 0.61060822 0.77969885 0.13866264 0.00015574567
-0.18745491 -0.34737021 -0.14642158 0.6032142 0.78493732 0.14144263 0.00010655484
0.18618521 -0.34839737 -0.14610833 -0.60336739 0.78505468 0.14013208 0
0.19262773 -0.3435902 -0.14530021 -0.60404944 0.78451157 0.14023462 0
0.2521657 -0.34383017 -0.14107774 -0.78497797 0.60853112 0.11618678 3.7295649e-05
-0.26055557 -0.33240491 -0.14373718 0.78805095 0.60452551 0.11629504 0
-0.25643846 -0.33776915 -0.14373823 0.78794533 0.60469389 0.11613531 1.5394438e-05
-0.19984609 -0.33846939 -0.1428238 0.6231662 0.7699604 0.13720369 0.00044158802
0.20353517 -0.33556619 -0.14325309 -0.63101977 0.76269889 0.14179046 0.00090106355
0.25690114 -0.33684021 -0.14550768 -0.78797424 0.60461611 0.11634432 1.383488e-05
0.2620582 -0.33020955 -0.14502004 -0.78776026 0.60493898 0.11611427 2.7583542e-06
-0.21647333 -0.32249454 -0.14476845 0.75459075 0.6413334 0.13886799 0.0010581941
0.26640683 -0.32452446 -0.14501858 -0.78805757 0.60456222 0.11605918 0
-0.27487341 -0.31360105 -0.14449103 0.78756726 0.60521924 0.11596305 0
0.22481799 -0.31178385 -0.14402124 -0.78647035 0.60184056 0.13875276 3.0892243e-05
-0.23420048 -0.30029738 -0.14065254 0.78576154 0.60273302 0.13889441 5.9130161e-05
0.22915883 -0.30541918 -0.14723825 -0.78490674 0.6032154 0.14160763 0
0.23321694 -0.30168307 -0.14017999 -0.78545898 0.60315418 0.13877763 7.5644304e-05
0.27818486 -0.3091138 -0.14544773 -0.79210174 0.59885943 0.11807706 9.5670475e-05
0.28327361 -0.30313227 -0.14192912 -0.8043471 0.58298975 0.11466749 0.00047841214
-0.29042095 -0.29321566 -0.14518653 0.84818506 0.51343578 0.13025267 0.0022973877
-0.28648153 -0.2984508 -0.14463493 0.80766654 0.57846195 0.11426497 0.00058595958
-0.23395455 -0.29970521 -0.14480174 0.78505713 0.60326612 0.14055394 1.2717616e-05
-0.29504514 -0.28627655 -0.14496018 0.8608315 0.49142838 0.13216418 0.0017812316
-0.24224798 -0.28869975 -0.14558019 0.7865206 0.60180181 0.13863616 8.1939186e-05
0.24418761 -0.28611431 -0.14596073 -0.78969246 0.59700501 0.14131793 0.00014047639
0.29497761 -0.28592962 -0.14498171 -0.86280471 0.4919394 0.11646252 0.0018292823
-0.3006658 -0.27204344 -0.14732662 0.90877801 0.40281853 0.1089027 0.00055709295
-0.29832563 -0.27731127 -0.14852726 0.89399344 0.43275094 0.11619985 0.0013812057
-0.25187898 -0.27631658 -0.14493375 0.81576955 0.560103 0.14423786 0.0017295163
0.24970293 -0.27994651 -0.14132383 -0.7974022 0.58795583 0.13585883 0.00044479844
0.30099487 -0.2706531 -0.14919525 -0.91681421 0.38171202 0.11725011 0
-0.30269164 -0.26852196 -0.14269795 0.91419882 0.38893345 0.11389115 0.00025483704
0.25810057 -0.26861474 -0.14308654 -0.85462648 0.49939936 0.14217547 0.0020393846
0.26133117 -0.26235399 -0.14065848 -0.87460595 0.45909309 0.15587829 0.0025242963
-0.30791548 -0.25444898 -0.14762324 0.91763943 0.38026565 0.115481 4.7364007e-05
-0.26350334 -0.2562339 -0.14316206 0.89086187 0.4325645 0.13875529 0.00088856107
-0.3125729 -0.24377745 -0.14572227 0.91772354 0.37997022 0.11578497 0
-0.27012852 -0.24123669 -0.14031157 0.91473526 0.37924689 0.13939553 0
0.26848671 -0.24328656 -0.14577974 -0.9125374 0.3833172 0.14263067 0
-0.31733239 -0.23360546 -0.14123742 0.9180665 0.37962538 0.11418614 0
-0.27153063 -0.23789366 -0.14019199 0.91479874 0.37921137 0.13907579 6.1035153e-05
0.26945776 -0.23947325 -0.14972655 -0.91355658 0.37984443 0.14537014 0
0.31639019 -0.23522532 -0.14346495 -0.91781014 0.38006252 0.11479118 9.2476672e-05
-0.3223269 -0.22090259 -0.14343154 0.93135226 0.34311426 0.12188385 0.00097338978
0.27545226 -0.22667992 -0.14518222 -0.91446203 0.37840113 0.14342859 0
0.3215363 -0.22295541 -0.14294124 -0.93025041 0.35049614 0.10856682 0.00059718551
-0.28012669 -0.21548131 -0.14493501 0.9176138 0.37171632 0.14075452 6.0534985e-05
-0.27853611 -0.21864775 -0.14686003 0.91480577 0.37778762 0.14285292 5.144719e-05
0.27833003 -0.21799724 -0.14986703 -0.91524249 0.37634397 0.14386226 0
0.32373238 -0.21690799 -0.1454775 -0.93977684 0.32661587 0.10070515 0.00061051361
-0.32911748 -0.20194779 -0.14166875 0.96872836 0.21292058 0.12739781 0.0015761012
0.32823452 -0.2058695 -0.1448167 -0.95753735 0.26658261 0.10979928 0.0020492016
-0.32952634 -0.19594002 -0.14500776 0.97509879 0.18081321 0.12840942 0.0015367508
0.28860682 -0.19462052 -0.14388672 -0.95942527 0.23671813 0.1531916 0.0026528214
-0.29019001 -0.1858529 -0.14071073 0.97317249 0.17895912 0.14459915 0.0007452658
0.33089373 -0.18513773 -0.14549027 -0.98447591 0.13035205 0.11753908 6.1283092e-05
-0.33240819 -0.17059281 -0.14888728 0.98453271 0.12960194 0.11789286 3.0290776e-05
-0.29084346 -0.17997144 -0.14160569 0.97805506 0.15368944 0.14066924 0.00039675084
0.2921809 -0.1704551 -0.14097951 -0.98216116 0.12870388 0.13709438 0
0.3323456 -0.17277384 -0.14706838 -0.98468983 0.12976313 0.11639332 0
-0.3328886 -0.16899812 -0.14656395 0.98480719 0.12917005 0.11606042 0
-0.29166144 -0.16935639 -0.1458967 0.98139602 0.12995489 0.14132807 2.0763273e-06
0.29265288 -0.16423792 -0.14354526 -0.9819991 0.12826066 0.13866134 1.455992e-05
0.33374867 -0.16574644 -0.14285664 -0.98486269 0.12872475 0.11608382 4.6275876e-05
-0.2936421 -0.15271108 -0.14745712 0.98126054 0.13032979 0.14192197 0
0.33558333 -0.15378103 -0.14057107 -0.98490381 0.12911727 0.11529687 1.0526129e-05
-0.33611444 -0.14283539 -0.14846763 0.98538554 0.12226782 0.11859988 0.00017087811
-0.29513037 -0.14477625 -0.14417209 0.98176432 0.12910272 0.13953982 4.0313964e-05
0.29612869 -0.13459814 -0.14669213 -0.98591864 0.088369966 0.14196892 0.00083811476
-0.33880028 -0.12316651 -0.14761838 0.99295461 0.035601061 0.11302049 0.0020053838
-0.29752579 -0.12508956 -0.14562619 0.98837155 0.051260132 0.1431575 0.0017417606
0.29648328 -0.12861499 -0.14966482 -0.98544556 0.048815746 0.16283153 0.0014774485
-0.33883673 -0.11441001 -0.14814782 0.99530619 -0.0262376 0.093151078 0.0023331349
0.29750007 -0.11359737 -0.1475898 -0.98813069 -0.043895572 0.14721055 0.0021385299
0.33871895 -0.11172383 -0.14616278 -0.99068516 -0.0582132 0.12310139 0.0018097952
-0.33817208 -0.10497381 -0.14315045 0.98960471 -0.094931997 0.1080292 0.00056564558
0.29675579 -0.10689308 -0.14656541 -0.98647183 -0.067331493 0.14946479 0.0014888839
-0.2963444 -0.098719656 -0.14164414 0.98388469 -0.11331725 0.1383121 0.00023069081
0.33681861 -0.096615396 -0.14532351 -0.98476106 -0.12965953 0.11590522 3.0876145e-05
-0.33567262 -0.087766379 -0.1452134 0.9848063 -0.1298393 0.11531822 0
-0.29411376 -0.08273223 -0.14257632 0.98195559 -0.12893458 0.13834418 0
0.29447851 -0.08618594 -0.14324209 -0.98159862 -0.12958542 0.14025621 0
0.3349629 -0.080969982 -0.14358237 -0.98469144 -0.13010557 0.115997 0
-0.33449519 -0.076842919 -0.14291613 0.9848147 -0.12985273 0.11523136 6.4895089e-06
-0.29251754 -0.070961431 -0.14292084 0.9817971 -0.13013527 0.13834493 1.7179096e-05
0.29234198 -0.07480754 -0.1479333 -0.98118895 -0.12912746 0.14350703 0
0.33420971 -0.077665389 -0.14638627 -0.98455316 -0.1305462 0.11667369 0
-0.33276832 -0.0643747 -0.14366895 0.98474211 -0.1298995 0.11579783 0
-0.29178426 -0.066299863 -0.14376885 0.98110592 -0.13544734 0.13814935 3.2558786e-05
0.29111463 -0.063145392 -0.14568926 -0.98122096 -0.13096635 0.1416097 8.6610135e-06
-0.33059698 -0.050940596 -0.147139 0.98410261 -0.1352489 0.11510791 0.00011031304
-0.29018143 -0.057974331 -0.14755832 0.97910756 -0.14676073 0.14074682 0.00028900275
-0.28974783 -0.053382568 -0.14629281 0.97874027 -0.15627441 0.13283758 0.00043498594
0.2904999 -0.05423294 -0.14155328 -0.97718072 -0.1587199 0.14115919 0.00066100626
-0.28840011 -0.041352458 -0.1435945 0.96049249 -0.24509993 0.13183339 0.0028656386
0.28848615 -0.043258414 -0.14576578 -0.95584607 -0.24464463 0.16281076 0.0021593827
-0.32813179 -0.032487344 -0.14700174 0.9641487 -0.22895584 0.13415119 0.0026342226
-0.28764063 -0.038357835 -0.1415941 0.9568882 -0.25929385 0.13088822 0.0028235842
0.2882573 -0.039570332 -0.14080454 -0.95186961 -0.27084404 0.14348406 0.0026302317
0.32924771 -0.037224434 -0.14319474 -0.97463793 -0.19243015 0.11424361 0.0012014604
-0.32745939 -0.027811246 -0.1415779 0.95075542 -0.28292298 0.12656517 0.0024898683
-0.28162265 -0.023961172 -0.14197129 0.91501528 -0.37822959 0.14031871 0
0.32782495 -0.028282464 -0.1401788 -0.94776237 -0.29589853 0.119124 0.0024210624
0.27755058 -0.015021262 -0.14451751 -0.91489118 -0.37815392 0.14132838 1.6493183e-05
0.32412094 -0.01984629 -0.14190021 -0.94027245 -0.320227 0.11550904 0.0016929276
-0.31560129 -0.00091543014 -0.14744034 0.91743851 -0.3802588 0.11708903 1.5456044e-05
0.31666845 -0.0022255331 -0.14316262 -0.91760522 -0.38016498 0.116083 0
-0.31299961 0.0062884511 -0.14433068 0.91764402 -0.38020036 0.11565938 0
-0.27084714 0.00085489079 -0.14539595 0.91409612 -0.38009104 0.1412767 5.7812399e-06
0.26735663 0.0088604111 -0.14651623 -0.91180861 -0.38579103 0.14060713 5.7098645e-05
0.27088833 0.00035316247 -0.14654565 -0.91407049 -0.37968946 0.14251687 2.9655679e-05
0.31197974 0.0078435177 -0.14734411 -0.91779524 -0.37931395 0.11735752 9.6019437e-05
-0.26549742 0.013109106 -0.14723226 0.90551037 -0.40068471 0.13965264 0.00043345592
-0.30518362 0.025022335 -0.14477237 0.91773033 -0.3799386 0.11583446 3.4339806e-05
0.30513215 0.025969401 -0.14199281 -0.91635627 -0.38311976 0.11623433 5.1049152e-05
-0.30160013 0.033320807 -0.1459444 0.90842301 -0.40087944 0.11858889 0.00055673305
-0.25345284 0.037351947 -0.14507103 0.84231406 -0.52246183 0.13244109 0.0019250029
0.30173266 0.033978149 -0.14266767 -0.9151715 -0.38598064 0.11610377 2.6945589e-05
-0.29626191 0.045089204 -0.14957687 0.87451053 -0.46868724 0.12475385 0.0019508447
-0.25112322 0.04003416 -0.14674978 0.8143211 -0.5648579 0.13347931 0.0013948411
0.24919584 0.042103738 -0.14866409 -0.80132896 -0.58153176 0.14033084 0.00055156625
-0.28834009 0.0587174 -0.14697216 0.8386566 -0.53311145 0.11156713 0.0018812313
-0.23940524 0.05641292 -0.14171444 0.78561991 -0.60302448 0.1384297 1.7208273e-05
0.29343519 0.052835237 -0.14276156 -0.8637675 -0.49073222 0.11440126 0.0025683953
-0.28019115 0.069402471 -0.14668596 0.79755116 -0.59184861 0.11673682 0.00026301917
-0.23079729 0.066781729 -0.14557561 0.78545886 -0.60306817 0.13915169 2.5960897e-05
0.23004638 0.067402922 -0.14720061 -0.78505868 -0.60311604 0.14118722 0
-0.27773285 0.073512346 -0.14178251 0.7875846 -0.60529315 0.11545815 0
-0.22632587 0.073141918 -0.14315283 0.78550041 -0.60305482 0.13897474 0
0.22623676 0.072698258 -0.14563653 -0.78552955 -0.60260844 0.14073466 3.0220583e-05
0.27735019 0.073085003 -0.14671607 -0.78800613 -0.60447735 0.11684857 3.0854193e-05
-0.21479774 0.087301813 -0.1470267 0.72811091 -0.66650772 0.16006863 0.0019513816
0.26520419 0.089836679 -0.14180075 -0.78787339 -0.60480314 0.11605481 2.0443844e-05
-0.20649795 0.09658619 -0.14229739 0.65835601 -0.73675722 0.15413059 0.0011978429
0.21199283 0.091661207 -0.14387988 -0.69004333 -0.70605493 0.15914343 0.0024409855
-0.25065979 0.10816079 -0.14518571 0.77004886 -0.62787151 0.11314692 0.00075307075
-0.19805324 0.10279948 -0.14387682 0.62441313 -0.76851612 0.13961086 0.00046317105
0.18921576 0.10980019 -0.14257628 -0.60499668 -0.78408653 0.13851798 1.8675048e-05
0.19477056 0.10500296 -0.14565222 -0.60595089 -0.78312624 0.1397738 0
0.25392485 0.10427879 -0.14318916 -0.77894086 -0.61649668 0.11481731 0.00027999395
-0.18516438 0.11236714 -0.14578642 0.60175937 -0.78578669 0.14291568 1.0591251e-05
-0.17922603 0.1169121 -0.14585567 0.60132885 -0.78631794 0.14180167 3.2750686e-05
0.18573308 0.11200598 -0.14534035 -0.60330123 -0.78520966 0.13954744 5.1752818e-06
0.24351025 0.11676858 -0.14889228 -0.72971588 -0.67535263 0.1068341 0.0017445964
-0.23999149 0.12153919 -0.14797458 0.68517911 -0.7195316 0.11315401 0.001754384
0.16507366 0.12793249 -0.14490235 -0.59790576 -0.78886729 0.14211696 7.1154383e-05
0.17527862 0.12042726 -0.14297499 -0.60272008 -0.78546703 0.14060557 9.1999254e-06
-0.22149545 0.13670991 -0.14118427 0.60466659 -0.7879895 0.11597815 5.9026406e-06
0.15486011 0.13534382 -0.14731833 -0.56442857 -0.81477404 0.13252802 0.00078135461
0.21911885 0.13805725 -0.14454293 -0.6050424 -0.78782725 0.11511667 0
0.22862686 0.13071629 -0.14478183 -0.62896955 -0.76807374 0.12025031 0.0007767299
-0.21148777 0.14389572 -0.14466323 0.6050688 -0.78767276 0.11603213 1.3996843e-05
-0.20984313 0.14570619 -0.14079529 0.60483599 -0.78804898 0.11468361 5.8024266e-06
-0.14165334 0.14369524 -0.14163099 0.40534809 -0.90290844 0.1430008 0.00048587279
0.14577614 0.14082725 -0.14942722 -0.49331006 -0.85922462 0.13556601 0.0023588035
0.2053203 0.14847761 -0.14572498 -0.60431987 -0.78832543 0.11550053 0
-0.20062998 0.15259403 -0.14207649 0.60461378 -0.78817534 0.11498636 2.2451186e-05
-0.10210341 0.1591469 -0.1480456 0.37759379 -0.91484433 0.1431179 9.3419303e-06
0.19646314 0.15521166 -0.14616434 -0.60411066 -0.78837562 0.11625049 0
-0.19011101 0.16073067 -0.14161687 0.60435766 -0.78833181 0.11525971 0
-0.1845348 0.16446875 -0.14542975 0.58495826 -0.8032738 0.11213844 0.00052826793
-0.082888581 0.16788347 -0.14268588 0.29083163 -0.94481164 0.1508242 0.0011202034
0.085289694 0.16635253 -0.14638679 -0.3080022 -0.94123781 0.1385857 0.0017735444
0.091407485 0.16447596 -0.14185013 -0.35738906 -0.92323774 0.14108548 0.00057471509
0.1017051 0.16024607 -0.14160509 -0.37869608 -0.91483355 0.14024615 2.0088788e-05
-0.1750893 0.17162631 -0.14606607 0.52888465 -0.84095073 0.11438093 0.001676465
-0.064655907 0.17102119 -0.14873829 0.16998364 -0.97418398 0.14856361 0.00074091257
-0.02446742 0.17693399 -0.14424099 0.12530468 -0.98208994 0.14070639 3.8495793e-05
-0.0014103664 0.17917943 -0.14982353 0.0090910187 -0.99145108 0.13016161 0.0021120808
0.0025847233 0.17953309 -0.14632753 -0.018639967 -0.99031794 0.13756028 0.0026298908
0.028600756 0.17635417 -0.14450495 -0.12954132 -0.98145759 0.14128034 1.0496219e-05
0.033461574 0.17522909 -0.14803091 -0.13005506 -0.98103327 0.1437341 1.6945212e-05
0.046873327 0.17326666 -0.14935531 -0.12907748 -0.98119587 0.14350508 0
0.05915023 0.17231572 -0.14462744 -0.14970589 -0.97833014 0.1430326 0.00047172853
0.075975716 0.1702012 -0.14388269 -0.25379053 -0.95786458 0.13448344 0.0029769961
0.16094343 0.17892937 -0.14932965 -0.45795187 -0.88126034 0.11687771 0.0019801485
0.17231379 0.17431511 -0.14212357 -0.50547481 -0.85607749 0.10782643 0.0024991801
-0.16048348 0.18005005 -0.14189078 0.43953693 -0.89211494 0.10458569 0.001707373
-0.15751854 0.18082377 -0.14555913 0.4157843 -0.90237242 0.11334664 0.00093960197
-0.14715862 0.18577132 -0.14023241 0.38036138 -0.9177717 0.11410642 1.5105512e-06
0.14515394 0.18631029 -0.14262533 -0.38427642 -0.91600031 0.11521769 3.2264481e-05
0.15999256 0.18016416 -0.14262348 -0.43624943 -0.89555198 0.087596528 0.0015504082
-0.13209257 0.19087295 -0.14938121 0.38013709 -0.91746306 0.11729129 0
-0.1224796 0.19552463 -0.14408451 0.38003197 -0.91773486 0.11549196 0
-0.11992499 0.19637477 -0.14579293 0.37984225 -0.91772115 0.11622261 0
0.11483382 0.19831444 -0.14717612 -0.37852305 -0.91823441 0.11647283 7.4626394e-07
0.12360679 0.19455063 -0.148155 -0.38006324 -0.91762251 0.11627966 1.0399407e-05
0.13275157 0.1911418 -0.14513595 -0.38072541 -0.91756344 0.11456665 0
-0.11028101 0.20060244 -0.14387932 0.37934586 -0.91787785 0.11660602 0
-0.10980402 0.20063187 -0.14518055 0.37935901 -0.91787231 0.11660723 0
-0.091693871 0.20851956 -0.14208843 0.27517658 -0.95385587 0.12015373 0.0017147494
0.087189801 0.20939901 -0.1485908 -0.27390021 -0.95683569 0.097180411 0.0019264667
0.10958915 0.20048402 -0.14719753 -0.37793723 -0.91853303 0.11601935 0
-0.073712252 0.21164386 -0.14457329 0.15743923 -0.97972852 0.123874 0.00043479001
-0.067771979 0.21229295 -0.14567979 0.13804418 -0.98370242 0.1152099 8.0428967e-05
-0.056981664 0.21423757 -0.14113118 0.12976576 -0.98499298 0.1137965 7.8248249e-06
-0.043725114 0.21537852 -0.14638296 0.12969942 -0.98490751 0.11460946 0
-0.03134764 0.21707381 -0.14587726 0.12930356 -0.98488593 0.11524005 3.1255953e-05
-0.02685824 0.21789277 -0.14385211 0.1294184 -0.98487031 0.11524492 0
-0.016494477 0.21912616 -0.14499781 0.1120334 -0.98732579 0.11241186 0.00040931374
0.018374294 0.21877795 -0.14588031 -0.099964708 -0.98806143 0.11722533 0.00044070746
0.026912415 0.2179251 -0.14352088 -0.13050117 -0.98455447 0.11671315 5.01658e-06
0.046417698 0.21522661 -0.14461692 -0.13005579 -0.98464209 0.11647093 1.18252e-05
0.070017636 0.21235055 -0.14263639 -0.12914461 -0.98489493 0.11534137 0
-0.0070184986 0.2209128 -0.14027239 0.07130719 -0.98980683 0.12327914 0.0017120054
0.0051905094 0.22101612 -0.14148277 -0.058691714 -0.98998696 0.12837875 0.0013571237
-0.0047490066 0.41755277 -0.14572255 -0.071165152 -0.93423969 0.34947348 0.0014649358
0.013047255 0.41969615 -0.14144921 0.11048321 -0.93417287 0.33928508 0.0014261054
-0.046190016 0.42848432 -0.14681289 -0.72203505 -0.66077209 0.2050505 0.11209091
-0.035110403 0.42502379 -0.14110759 -0.64113438 -0.67946965 0.35674596 0.17499162
0.031752396 0.42284316 -0.14409904 0.64544922 -0.67998081 0.34788129 0.10504051
0.045106083 0.42825615 -0.14501187 0.73872364 -0.64207172 0.20501515 0.11969471
-0.050103739 0.43047857 -0.14880249 -0.72789872 -0.64897621 0.22134458 0.11161505
0.050905414 0.43265751 -0.14443946 0.80480564 -0.51950586 0.2870566 0.13709933
-0.055016115 0.44315833 -0.14215153 -0.91478997 -0.36868575 0.1650154 0.12915389
-0.046384625 0.44656789 -0.14819099 0.92590874 -0.35985094 0.11489249 0.16919246
0.040632948 0.44956809 -0.14539495 -0.60623676 -0.77179492 0.19185793 0.19712578
0.053193878 0.44632533 -0.14007024 -0.98553079 -0.11645383 -0.12315661 0.16925336
-0.032721102 0.45222071 -0.14387618 0.5189876 -0.66009212 0.54307491 0.17099759
-0.025233194 0.45267382 -0.14712058 0.42522714 -0.86616462 0.26256588 0.13006644
-0.015013584 0.45356455 -0.14864734 0.070113003 -0.95278871 0.29542822 0.00098070456
-0.0061391052 0.4555679 -0.14447434 0.050129611 -0.95267254 0.29983678 0.0011174859
0.009719301 0.45631659 -0.14182836 -0.053413931 -0.9517979 0.30203912 0.0011475029
0.015540892 0.45432544 -0.14618163 -0.11400111 -0.94424266 0.30888435 0.0012048996
0.043565594 0.45018122 -0.1405903 -0.69097078 -0.70966232 0.13761809 0.19038759
-0.054201141 -0.45254314 -0.13168707 0.12977609 0.98502797 0.11348137 4.2103216e-05
-0.036892653 -0.45440245 -0.13538337 0.13005744 0.98493159 0.11399458 0
-0.021619137 -0.45658255 -0.13389108 0.10110736 0.98810434 0.11587516 0.00023628496
-0.018160898 -0.45645326 -0.13904268 0.093934976 0.98879451 0.11602465 0.00039344357
0.0077752462 -0.45846361 -0.13337556 -0.02690351 0.9928773 0.11606386 0.0018042828
0.021530028 -0.45699197 -0.13038641 -0.12950143 0.98519784 0.11231464 0
0.043671411 -0.45390916 -0.13186567 -0.12970528 0.98511475 0.11280749 8.6847489e-05
0.06549339 -0.4507218 -0.13463695 -0.13905744 0.98360187 0.11484951 2.4623148e-05
-0.10174659 -0.44170099 -0.13816713 0.34696233 0.93133616 0.11058971 0.000900327
-0.08536201 -0.4478558 -0.1359183 0.21818806 0.97040677 0.10346375 0.0019003466
-0.068876289 -0.44984847 -0.13840806 0.14770964 0.98135114 0.12301154 0.00017222478
0.079321265 -0.44940186 -0.13022587 -0.18939954 0.97490752 0.1169747 0.0013338042
0.10436597 -0.44106624 -0.13446981 -0.35060397 0.93025547 0.10817456 0.00062170794
-0.11410581 -0.43718454 -0.1332159 0.38035178 0.91787434 0.11330985 0
0.11877362 -0.43513733 -0.13414985 -0.38059813 0.91779345 0.11313809 0
-0.15186018 -0.42101371 -0.13758834 0.39631084 0.9104526 0.1183797 0.00042961357
-0.14669809 -0.42357066 -0.13414957 0.38114387 0.91744715 0.11410575 2.4952546e-05
-0.13626489 -0.42758155 -0.13670115 0.38048369 0.91763473 0.11479843 0
0.13325082 -0.42879564 -0.13698332 -0.38020033 0.9179548 0.11316611 0
-0.17106107 -0.41320884 -0.13461581 0.46940225 0.87463552 0.12113781 0.0015185449
-0.16579978 -0.41582221 -0.13280493 0.44475788 0.88835901 0.11405542 0.0015205247
-0.047275577 -0.41198352 -0.13547124 0.12900366 0.98201293 0.13787171 0
-0.028866585 -0.41437009 -0.13574557 0.13003762 0.98213297 0.13603286 0
-0.013509983 -0.41649771 -0.13496146 0.079896033 0.98820013 0.13067986 0.0010876541
0.014804346 -0.41613105 -0.13641453 -0.074664369 0.98786777 0.13617058 0.0010873553
0.047738228 -0.41229117 -0.13274252 -0.12898892 0.98234612 0.13549151 4.991773e-06
0.06332124 -0.41051149 -0.13072951 -0.16190217 0.97779167 0.13308312 0.00061772409
0.16431078 -0.41584891 -0.13765076 -0.47928977 0.86930025 0.12082437 0.001881938
0.17131168 -0.41319367 -0.13336673 -0.49676603 0.85932165 0.12161352 0.0015959541
-0.09021847 -0.40319192 -0.13249716 0.33635911 0.93044126 0.14540124 0.00089726259
-0.086273842 -0.40491396 -0.13188905 0.30336121 0.94312364 0.13597757 0.0016897586
-0.073060662 -0.40877876 -0.13406548 0.23824461 0.96250337 0.12971789 0.0022861306
-0.063877925 -0.40977892 -0.13561115 0.17320867 0.97577637 0.13363884 0.0018231408
0.066955738 -0.40924543 -0.13656102 -0.17460017 0.97565526 0.13270852 0.00056698744
0.085621342 -0.40483776 -0.13427973 -0.29569444 0.94463891 0.14220454 0.0012718055
0.18593222 -0.40185863 -0.1341873 -0.5934025 0.79655492 0.1156446 0.00028068817
-0.11586396 -0.3919037 -0.13708907 0.37946606 0.91537541 0.1345114 0
0.10720903 -0.39554143 -0.13672489 -0.37893018 0.91551268 0.13508688 0
0.19974217 -0.39113796 -0.13506089 -0.60506099 0.78821826 0.11230788 0
-0.14269178 -0.38064075 -0.13812712 0.44802409 0.88426024 0.13175029 0.0020827646
-0.1290462 -0.38704568 -0.13293356 0.39611104 0.90854633 0.13281393 0.00027294419
0.12137997 -0.38960978 -0.13715157 -0.37906238 0.91518915 0.13689615 2.1182868e-05
0.13475497 -0.38382348 -0.1388503 -0.4330422 0.88995099 0.14304426 0.00095927576
0.14157872 -0.38112426 -0.13797209 -0.46171886 0.87632734 0.13735433 0.0015833691
-0.21664813 -0.37807137 -0.13572499 0.60481185 0.78819788 0.113784 0
-0.15584424 -0.37381306 -0.13346298 0.53670579 0.83070099 0.14792846 0.0020204512
0.1576229 -0.37151217 -0.13900904 -0.55958211 0.81739259 0.13688406 0.0011692886
0.21663478 -0.37805116 -0.1359397 -0.60561436 0.78766268 0.11321962 0
-0.2367827 -0.36294001 -0.13347951 0.67502946 0.7308262 0.10113473 0.0015637284
-0.22858077 -0.36870626 -0.13719821 0.63466126 0.76482338 0.11068063 0.00044737049
-0.16653383 -0.36477768 -0.13839844 0.59075969 0.79428148 0.14184484 0.00030078876
0.16652188 -0.36568367 -0.13308455 -0.5881303 0.79661602 0.13966329 0.00041433066
0.17186582 -0.36144093 -0.13392718 -0.60251629 0.7864216 0.13607056 6.426558e-05
0.24066749 -0.36017245 -0.13197511 -0.71416783 0.69081998 0.11283644 0.0021256874
-0.24311975 -0.35700551 -0.1335759 0.72213697 0.68459737 0.099219576 0.0015126488
-0.18005936 -0.35435465 -0.1386621 0.60235524 0.78621471 0.13796622 2.3846636e-05
0.18372081 -0.35236511 -0.13380377 -0.60252196 0.78613198 0.13770859 0
0.24603303 -0.35303611 -0.13451062 -0.73640448 0.66611457 0.11832062 0.0022132862
-0.25087193 -0.34744427 -0.13064538 0.75975692 0.64122546 0.10770028 0.001024275
-0.19449914 -0.34414598 -0.13349935 0.61489177 0.77671587 0.13645726 0.00023557548
0.1987747 -0.34044904 -0.13596548 -0.60443062 0.78480154 0.13693154 4.2731957e-05
0.25438994 -0.3427127 -0.13143961 -0.78701419 0.6064586 0.11321056 0
-0.26368794 -0.3302269 -0.13343295 0.78802776 0.60499269 0.11400022 0
-0.257974 -0.33814919 -0.13085893 0.7881549 0.60507071 0.11269999 5.607411e-05
-0.20392349 -0.33595443 -0.13918713 0.64268523 0.75425923 0.13434601 0.0010924784
0.20155923 -0.33863097 -0.13407795 -0.6253075 0.7689144 0.13327093 0.00047037419
-0.27059245 -0.32102057 -0.13455983 0.78840601 0.60449582 0.11402073 0.00010032652
-0.26862442 -0.3234272 -0.13541567 0.78793204 0.60497403 0.11475814 4.8260226e-05
-0.21486551 -0.32662511 -0.13551556 0.70664966 0.69326448 0.14152971 0.0025983816
-0.27164364 -0.31913388 -0.13735607 0.78811586 0.60456538 0.11564644 0
-0.2216903 -0.31850836 -0.13198073 0.76779372 0.62674624 0.13297339 0.00067141914
0.22404006 -0.31519192 -0.13313642 -0.78465849 0.60493618 0.13551076 0
-0.2824825 -0.30483407 -0.13829935 0.80034101 0.58933306 0.110185 0.00024923237
-0.23295623 -0.30252424 -0.13790029 0.78602087 0.60279363 0.13715376 6.4976601e-05
0.28628635 -0.30067798 -0.13396406 -0.82831776 0.54992217 0.10712337 0.00081774051
-0.29135254 -0.29448068 -0.13177221 0.84337121 0.52392161 0.1192946 0.0021487952
-0.23566715 -0.2986787 -0.1393216 0.78563726 0.60316205 0.1377307 8.4954423e-05
0.23745003 -0.29752439 -0.13400608 -0.78626531 0.60281563 0.13564734 0
0.29139242 -0.29429126 -0.132516 -0.83067203 0.54717404 0.10288137 0.0011769912
-0.29665041 -0.28462535 -0.13753261 0.8686046 0.47865224 0.12813294 0.0017684938
-0.24575713 -0.28554514 -0.13924916 0.78665137 0.60175681 0.13808812 9.4099087e-05
0.24764882 -0.28448433 -0.13286391 -0.79862446 0.58652037 0.13488035 0.00048498224
0.29894167 -0.2806465 -0.13225043 -0.88054866 0.46009836 0.11376989 0.0020221686
-0.30186719 -0.27260655 -0.13557416 0.91120142 0.39703149 0.10990027 0.00032697082
-0.25457835 -0.27538714 -0.13316579 0.83129668 0.53955758 0.13350442 0.0017927981
0.25872707 -0.27031195 -0.13165851 -0.83763701 0.52826941 0.13890859 0.002363689
0.30048451 -0.27717525 -0.13138819 -0.89811444 0.42517298 0.11233191 0.0015931135
-0.30345666 -0.26848722 -0.13653362 0.91197211 0.39493817 0.111044 0.00036939213
-0.25942963 -0.26784968 -0.13807254 0.86198479 0.49081722 0.12680978 0.0021480902
0.26313925 -0.26131934 -0.13114047 -0.88213378 0.44975692 0.13985224 0.002302961
0.30630791 -0.26160279 -0.13653652 -0.91736424 0.38103971 0.11511578 0
-0.30909654 -0.25576025 -0.13350986 0.91780412 0.38063729 0.11291969 0
0.26562801 -0.25447157 -0.13353945 -0.90425068 0.40864438 0.12385706 0.00066013564
0.30996302 -0.25261262 -0.13710129 -0.91770267 0.38039872 0.11453708 0
0.31041324 -0.25126919 -0.13797356 -0.91775578 0.38029373 0.11445937 0
-0.31323501 -0.24504665 -0.13596748 0.9180752 0.38004729 0.11270295 0
-0.2712287 -0.24030322 -0.13538866 0.91536659 0.37964326 0.1340711 3.6649173e-05
-0.26925921 -0.24493226 -0.13574784 0.91562045 0.3788316 0.13463251 2.1878112e-05
0.26822087 -0.24624178 -0.13916963 -0.91188228 0.38629991 0.13871895 2.9098937e-05
0.27072597 -0.24120507 -0.13627994 -0.91546375 0.37947771 0.13387665 1.2098156e-05
0.31303796 -0.24564838 -0.13553873 -0.9178319 0.38017032 0.11425931 2.4521787e-05
-0.31739026 -0.23578185 -0.13335896 0.91804683 0.38013217 0.11264804 1.0906619e-05
0.27318388 -0.23536941 -0.13599904 -0.91550118 0.37938175 0.13389209 5.6201166e-06
0.31785655 -0.23358706 -0.13699521 -0.91787452 0.37997708 0.11455891 0
-0.27935341 -0.22120221 -0.13392039 0.91557604 0.37866935 0.13538887 0
0.32024714 -0.22716025 -0.13922481 -0.92389321 0.366429 0.1102322 0.00019635347
-0.32742366 -0.21088056 -0.13566698 0.94503587 0.30391169 0.12060229 0.0018038384
-0.28098205 -0.21568149 -0.13846116 0.91717625 0.37384367 0.137944 8.5133899e-05
0.28156358 -0.2140895 -0.13899846 -0.92328537 0.36059678 0.13234065 0.00064689427
-0.32938069 -0.20208928 -0.13918528 0.96611863 0.22427164 0.12773818 0.001706835
-0.28532308 -0.20578447 -0.13679451 0.93877673 0.31389803 0.14200819 0.0012284429
0.28694692 -0.20269611 -0.13441694 -0.93516374 0.31934857 0.15324906 0.0017072181
0.32940486 -0.20326678 -0.13760588 -0.95761865 0.25754017 0.12899454 0.0017035966
0.33045846 -0.20029016 -0.13177451 -0.95580971 0.26010248 0.13701969 0.00214958
-0.33043849 -0.19829649 -0.13426334 0.97391105 0.19339028 0.11873188 0.0017763692
-0.2904585 -0.19279999 -0.131951 0.95885396 0.24033284 0.15112665 0.0019073079
-0.28797331 -0.19923861 -0.13721634 0.94791603 0.28656155 0.1390603 0.0013737504
0.29017761 -0.19628482 -0.13044901 -0.96581239 0.20641889 0.15683649 0.0019413154
0.33061174 -0.19638506 -0.13495459 -0.97026402 0.21072038 0.11909962 0.0021101097
-0.33128804 -0.18826406 -0.13841647 0.98362768 0.13819708 0.11566349 0.00020590333
-0.29116213 -0.18490613 -0.13443595 0.97571719 0.16879575 0.13958511 0.0010761834
0.2911244 -0.18639076 -0.13326819 -0.97037941 0.18776427 0.15201463 0.001712756
0.33247563 -0.18322761 -0.13379385 -0.98507613 0.12943275 0.11345548 3.116917e-06
-0.33334285 -0.17983694 -0.13008516 0.98510706 0.13025065 0.1122446 0
-0.3340413 -0.16917297 -0.13630255 0.98494661 0.12923901 0.11479268 0
-0.29371166 -0.16412763 -0.13581315 0.98216701 0.12933071 0.13646069 4.2459786e-05
0.29338071 -0.16765286 -0.13482735 -0.98229444 0.1285765 0.13625555 0
-0.29539478 -0.155349 -0.13190848 0.9823994 0.12924093 0.13486348 0
0.33596912 -0.15883371 -0.13130879 -0.98504657 0.12973209 0.11337046 3.5167894e-05
-0.33741719 -0.1489245 -0.13004425 0.98513657 0.12948747 0.11286664 5.3835724e-05
-0.29627457 -0.14457028 -0.13590078 0.98224622 0.12855755 0.13662086 2.8446548e-05
0.33806974 -0.14109451 -0.13337788 -0.98610717 0.12142618 0.11335067 3.6026118e-05
-0.33873934 -0.13663039 -0.13265638 0.98789346 0.1112595 0.10810995 0.0001575755
0.29744315 -0.13916111 -0.1325212 -0.98344326 0.11433601 0.14059401 0.00021006791
0.33857298 -0.13580538 -0.13507968 -0.98912841 0.094167568 0.11294866 0.0006320579
-0.34008807 -0.12768967 -0.13114348 0.99122876 0.047925815 0.12316102 0.001720409
-0.29925224 -0.12370607 -0.13419187 0.9912011 0.037429653 0.12696214 0.00190006
-0.29875731 -0.11480702 -0.13946007 0.99098539 -0.0098602697 0.13360663 0.0013201504
0.29913601 -0.11312491 -0.13501628 -0.98746336 -0.045630988 0.15110926 0.0020381061
0.34076864 -0.11558186 -0.13246386 -0.99251902 -0.0052989242 0.12197518 0.001940551
-0.33882642 -0.10188226 -0.13379741 0.98792088 -0.10580685 0.1132136 0.00047467265
-0.29789793 -0.1069067 -0.13812189 0.98723865 -0.083794072 0.13541912 0.00053230993
0.2978465 -0.10637315 -0.13798255 -0.98624134 -0.081160858 0.14401726 0.0011725116
0.33892676 -0.10679634 -0.13861428 -0.98930335 -0.078828357 0.12273933 0.0016784609
-0.33792734 -0.094606474 -0.13327932 0.98504484 -0.12974174 0.11337496 0
0.29648927 -0.095183365 -0.13712409 -0.98232216 -0.12742211 0.13713762 4.2979482e-05
0.3377485 -0.094304919 -0.13450527 -0.98505521 -0.12927365 0.11381818 0
-0.33636576 -0.087788127 -0.13912989 0.98488158 -0.12961492 0.11492743 0
0.29525003 -0.08750838 -0.13881856 -0.98199552 -0.12956344 0.1374702 0
0.3362914 -0.083828799 -0.13519154 -0.98504233 -0.12968387 0.11346194 0
-0.33506081 -0.073922873 -0.13454385 0.98503739 -0.12963076 0.11356574 0
-0.29441527 -0.073119141 -0.13097282 0.98236364 -0.12909965 0.13525903 2.6527707e-05
0.29403302 -0.074317016 -0.13497084 -0.9824627 -0.12868915 0.13493045 3.9078259e-05
0.33583242 -0.079419285 -0.1341207 -0.98501933 -0.12991406 0.11339883 4.6865294e-05
-0.33389169 -0.06551943 -0.13509701 0.98496169 -0.12991293 0.11389923 9.2380302e-05
0.33393306 -0.06508787 -0.13423175 -0.98511773 -0.12943402 0.11309253 0
-0.2917476 -0.057519019 -0.13551819 0.97845483 -0.15447561 0.13698019 0.00046859024
0.33253059 -0.055419028 -0.13537341 -0.98436987 -0.13311228 0.11531246 6.6355635e-05
0.28990006 -0.042959765 -0.13500568 -0.96384543 -0.2265114 0.14033696 0.0028291431
0.29019609 -0.045578137 -0.1353662 -0.96869797 -0.20540926 0.13939588 0.002668686
0.33067441 -0.043218739 -0.13757643 -0.97517627 -0.18869495 0.11586829 0.0015383932
-0.32967854 -0.036684629 -0.13877158 0.97997326 -0.17188361 0.100541 0.001101375
-0.28801307 -0.037196279 -0.1357047 0.9474588 -0.2865783 0.14210817 0.0022642484
0.28744936 -0.034558784 -0.13205628 -0.93972862 -0.31686297 0.12848382 0.0017739407
0.33031785 -0.039746456 -0.13669004 -0.97301954 -0.20466119 0.10652111 0.0020876219
-0.28133148 -0.020799875 -0.13494562 0.91577196 -0.3781068 0.13563558 2.5910433e-05
0.28176713 -0.021679148 -0.13445243 -0.92112935 -0.36662483 0.13079372 0.00017421271
0.32684809 -0.023097761 -0.13056453 -0.94296044 -0.3092553 0.12323456 0.0018023795
-0.3235634 -0.017479043 -0.13842635 0.93065548 -0.34970468 0.10764288 0.0012448414
-0.2777746 -0.013691032 -0.13917027 0.91492194 -0.37918171 0.13834395 0
0.32396889 -0.018621407 -0.13898242 -0.93867379 -0.31794161 0.13343415 0.0018164204
-0.27551481 -0.0067541152 -0.13493681 0.91512692 -0.37950453 0.13608462 3.1385025e-05
0.27301997 -0.00050428929 -0.13428871 -0.91501522 -0.37937272 0.13719864 8.8677825e-06
0.31734341 -0.0016293796 -0.13559198 -0.9177658 -0.38066915 0.11312365 0
-0.31384555 0.0080327187 -0.1314505 0.91788614 -0.38046426 0.11283673 4.7001355e-05
-0.27135044 0.0030503077 -0.1356491 0.91486001 -0.37999335 0.13651489 5.8731701e-05
0.2710318 0.0052137058 -0.13166454 -0.91512293 -0.37969643 0.13557515 1.9888644e-06
-0.26582664 0.015573863 -0.13797 0.89777273 -0.41738519 0.14069019 0.00056305435
0.31116611 0.013635485 -0.13439585 -0.91807538 -0.37998915 0.11289714 1.2366319e-05
0.26356703 0.022757908 -0.13302894 -0.88941431 -0.43418092 0.14293055 0.0011010488
0.30570394 0.02638486 -0.1358842 -0.91660726 -0.38338658 0.1133389 1.0824019e-05
-0.30100182 0.037773542 -0.13575925 0.90672088 -0.40556085 0.11566155 0.00043978475
-0.25596738 0.037018009 -0.13176115 0.82335114 -0.55208504 0.13151026 0.0017724505
0.25753999 0.034415916 -0.1342736 -0.86218679 -0.4809233 0.15920651 0.0011745268
-0.29809803 0.043863721 -0.13888927 0.88526881 -0.44751823 0.1265963 0.0013972215
-0.24850276 0.046099994 -0.13469861 0.792377 -0.59542036 0.1327152 0.00017727513
0.29800472 0.044687681 -0.13685289 -0.89252365 -0.43808386 0.10716381 0.00099764124
-0.29371747 0.054414988 -0.13239852 0.84006566 -0.52962476 0.11741933 0.0017330485
-0.24175578 0.054993458 -0.1342411 0.78598773 -0.60344982 0.13443054 0
-0.2852903 0.065192088 -0.13351013 0.80470389 -0.581532 0.11946624 0.00040871784
-0.23118535 0.06803336 -0.13758613 0.78573436 -0.60299438 0.1379101 1.3578109e-05
0.23540018 0.063299194 -0.13413672 -0.78632641 -0.60272229 0.13570769 1.300744e-05
-0.27589166 0.077926338 -0.13088177 0.78797925 -0.60530359 0.11267769 4.2012721e-06
0.22439636 0.076653711 -0.1386192 -0.78506756 -0.6042667 0.13612778 0
0.2756511 0.076963425 -0.13778871 -0.78835976 -0.6045959 0.1138097 0
0.28090292 0.070570961 -0.1353437 -0.78861946 -0.60440266 0.11303379 0
-0.2207586 0.082643151 -0.13294257 0.77033764 -0.6229583 0.13602532 0.00038340592
-0.21862037 0.085149303 -0.13421753 0.75617445 -0.63813686 0.14485018 0.0011904226
-0.20768438 0.097302891 -0.13265707 0.66484982 -0.73288709 0.14439914 0.0013435985
-0.19450967 0.10726585 -0.13352419 0.60451746 -0.78473562 0.1369254 0
0.19562519 0.10543743 -0.13928582 -0.60840076 -0.78167045 0.13725844 2.5351837e-05
0.2012534 0.10202742 -0.13390209 -0.62196034 -0.77129263 0.13517787 0.00025987645
0.25632039 0.10265997 -0.13506 -0.78838527 -0.60466141 0.11328392 0
-0.24517933 0.11793158 -0.13098939 0.7374469 -0.66677839 0.10760414 0.00081921293
-0.18352324 0.11551387 -0.13460346 0.60400301 -0.78518164 0.1366387 8.7329026e-06
-0.17814331 0.11904922 -0.13811587 0.60272646 -0.78607821 0.1371201 0
0.18850847 0.11118469 -0.13758886 -0.60355181 -0.78545791 0.13704394 9.8660921e-06
-0.23278633 0.12906632 -0.13398983 0.6553483 -0.74562359 0.12068165 0.0020723804
-0.17577952 0.12059198 -0.13972162 0.60192806 -0.78634655 0.13907412 0
0.16517487 0.12955059 -0.13485497 -0.58601165 -0.79945791 0.1321267 0.0006277308
0.17174719 0.12514409 -0.13108326 -0.6030758 -0.78631669 0.13418491 0
0.23493402 0.12677729 -0.13851036 -0.66447794 -0.73806173 0.11719211 0.0018606953
-0.15337485 0.1378947 -0.13906381 0.53609896 -0.83377522 0.13197261 0.0018569257
0.15729114 0.13526301 -0.13685156 -0.56027323 -0.81940341 0.12112781 0.00091393298
0.22597419 0.13470665 -0.13107592 -0.61082155 -0.78398085 0.1107747 5.5542463e-05
-0.21866068 0.14006469 -0.13286574 0.60491097 -0.78822106 0.11309415 1.6107444e-05
-0.2090314 0.14651501 -0.13948381 0.60486537 -0.78803241 0.11464226 6.6511402e-06
-0.14834365 0.14146131 -0.13792376 0.48131543 -0.86547613 0.13887563 0.0020106472
0.12967232 0.14994833 -0.13272747 -0.38443232 -0.91327256 0.1347034 7.1143302e-05
0.14066936 0.1450225 -0.13528524 -0.46302211 -0.87827069 0.11937839 0.001649228
0.21081883 0.14590597 -0.13410681 -0.60458976 -0.78834426 0.11395016 0
-0.20455632 0.1511533 -0.13099036 0.60502726 -0.78813624 0.11306322 0
-0.19898582 0.1550283 -0.13380699 0.60492313 -0.78817987 0.1133157 0
-0.12404419 0.15154855 -0.13777141 0.37908074 -0.91506588 0.13766666 9.2185946e-06
-0.11587435 0.15529259 -0.13528767 0.37922543 -0.9153263 0.13552046 0
0.20294136 0.15216091 -0.13262358 -0.60458797 -0.78845549 0.11318663 0
-0.18591504 0.16433124 -0.13893084 0.60018247 -0.7917937 0.11333007 5.8636411e-05
-0.10068083 0.16149801 -0.13589445 0.37757549 -0.9156152 0.13815071 1.0466911e-05
-0.097940043 0.16345665 -0.13021329 0.35927093 -0.92306501 0.13738728 0.0003997203
0.095463946 0.16317627 -0.13922441 -0.37283742 -0.91781199 0.13643104 6.0897033e-05
0.10282141 0.16079295 -0.13464135 -0.37796 -0.91564077 0.13692451 8.0595692e-06
0.18425658 0.16588533 -0.13694562 -0.58034116 -0.80625778 0.11468429 0.00071413245
-0.1798114 0.17004988 -0.13163102 0.55723614 -0.82301426 0.11016068 0.0012150594
-0.070212908 0.17238571 -0.1333255 0.20885077 -0.96756643 0.14211431 0.0027502591
-0.067572974 0.17295919 -0.13165255 0.16562472 -0.97584265 0.14247613 0.00099473249
-0.05692694 0.1734117 -0.13867983 0.1444525 -0.97955436 0.14002419 0.00022263292
-0.04081076 0.17639792 -0.1322788 0.12924989 -0.98228729 0.13566947 1.642399e-06
