# .PCD v0.7 - Point Cloud Data file format
VERSION 0.7
FIELDS x y z normal_x normal_y normal_z curvature
SIZE 4 4 4 4 4 4 4
TYPE F F F F F F F
COUNT 1 1 1 1 1 1 1
WIDTH 577
HEIGHT 1
VIEWPOINT 0 0 0 1 0 0 0
POINTS 577
DATA ascii
0.071798787 -0.22901855 -0.25149125 0.38268101 0.92388058 -4.7027065e-06 2.6172956e-06
0.2692537 -0.22825234 -0.25576532 -0.38494188 0.92294079 -0.0003103858 2.8964592e-05
0.28550807 -0.22151954 -0.25574833 -0.4492268 0.89341658 0.0015023916 0.002071189
0.41114861 -0.2233054 -0.25544184 -0.77734262 0.6290766 0.00098637736 0.00049469544
0.037627671 -0.21260701 -0.25325143 0.54440272 0.83876276 0.010132625 0.0021009033
0.040366605 -0.21470866 -0.25680751 0.53689528 0.84352833 0.014263147 0.0018857042
0.29616746 -0.21666378 -0.25206217 -0.48890537 0.87233633 -0.0008848944 0.0021773409
0.30104843 -0.21301106 -0.25778544 -0.55089515 0.83439404 0.01735124 0.0016689751
0.41521806 -0.21800202 -0.25685203 -0.78413588 0.62058353 0.0026538335 0.00039309001
-0.084679604 -0.20671058 -0.25915989 0.79334569 0.60877144 2.9327168e-05 0
0.022811998 -0.20123854 -0.25403696 0.60715187 0.7945857 -0.00018174865 7.7309332e-06
0.3099384 -0.20618953 -0.2507447 -0.58713621 0.80948114 -0.0033641027 0.00086005329
0.31141612 -0.20505567 -0.25729117 -0.60852051 0.79353803 -9.0869662e-06 0
0.42205876 -0.20908707 -0.25741684 -0.79338032 0.6087262 -1.1136235e-05 9.8437695e-06
-0.094267368 -0.19421555 -0.2563723 0.79334855 0.60876757 -1.8639899e-05 0
0.012612873 -0.19341248 -0.25128609 0.60977215 0.79257673 0.00018188077 0
0.0204651 -0.19943772 -0.25557521 0.60876536 0.79335046 -9.9286081e-06 3.3707172e-06
0.3240892 -0.19533128 -0.2557196 -0.60881364 0.79331326 7.9274463e-07 0
0.33078194 -0.19019577 -0.25942889 -0.61976326 0.78477216 0.005120445 0.0002550614
0.43440223 -0.19300072 -0.25242394 -0.79326892 0.60887134 0.00017567813 0
-0.10216095 -0.18392843 -0.2515924 0.79592276 0.60539812 -0.00038245818 4.0946852e-05
8.2227809e-05 -0.1837974 -0.25780603 0.64116478 0.76738435 0.0053892913 0.0009001884
0.33645272 -0.18584441 -0.25662765 -0.65881717 0.75230253 -0.00087194686 0.0010982638
0.34103385 -0.18232921 -0.25694922 -0.67440164 0.7383576 0.0032324318 0.0016154919
-0.11133556 -0.17197183 -0.25601301 0.84149319 0.54023463 0.0059684729 0.0023367796
-0.10821255 -0.17604181 -0.25510907 0.81782269 0.57547021 0.00036168713 0.0013333037
-0.013158737 -0.17087099 -0.25834981 0.74069768 0.67183101 -0.0031647254 0.0017948744
-0.0072344928 -0.177875 -0.25435281 0.6967054 0.7173571 0.00061560649 0.0016381225
0.44626853 -0.17753623 -0.25039318 -0.80530715 0.59284002 0.0045910138 0.00072330015
-0.11698964 -0.16342258 -0.25753099 0.86694998 0.49837932 -0.0039893617 0.0022515131
-0.020246383 -0.16163418 -0.25841382 0.78020197 0.62547565 -0.0080595044 0.00041965125
0.35446525 -0.16812918 -0.25450426 -0.7494874 0.6620124 0.002878462 0.001120519
0.36069322 -0.16001277 -0.25781292 -0.78633922 0.61779362 0.0012573161 0.00032603723
0.45665997 -0.16296622 -0.25382736 -0.87692332 0.48038518 0.015343999 0.0017565129
-0.12204022 -0.15190199 -0.25449967 0.90665621 0.42184243 -0.0048530772 0.00089883164
-0.02641682 -0.15359271 -0.25883728 0.79330319 0.60876381 0.0087503418 0.00013868703
0.36569774 -0.15349071 -0.25928831 -0.79331219 0.60881507 4.9212176e-05 0
0.45939022 -0.15637478 -0.25451267 -0.89820248 0.43942049 0.011912283 0.0014074717
-0.12435821 -0.14630584 -0.25235417 0.91630954 0.4004555 -0.00349735 0.00027385601
-0.034063548 -0.14362729 -0.25436413 0.79798108 0.60268086 0.0014346064 0.00013846994
0.46457461 -0.14385854 -0.25582898 -0.92052996 0.39066753 0.0018430863 0.00016253628
-0.12916107 -0.13471074 -0.25638688 0.92387778 0.38268766 -1.3469081e-05 5.3627386e-06
-0.04172501 -0.13364267 -0.2564137 0.82882267 0.55950618 -0.0023870966 0.0014105226
-0.037144776 -0.13961175 -0.25651962 0.80675149 0.59080088 0.010314704 0.00059080991
0.46867377 -0.13396233 -0.25528497 -0.9238863 0.38266701 -2.2041138e-05 0
-0.13229419 -0.12714674 -0.25247455 0.92387867 0.3826856 1.3777001e-05 0
-0.049565274 -0.12158722 -0.25890055 0.88071555 0.47364557 5.7871548e-05 0.0025645886
0.38787317 -0.12374742 -0.25735569 -0.86309183 0.50495595 0.0095885443 0.0019124781
0.47070467 -0.12905926 -0.25834411 -0.92387956 0.38268325 -0.00013219484 0.00015397847
0.39126796 -0.11555173 -0.25433433 -0.89610785 0.44376785 0.0078022508 0.0016938273
0.47692478 -0.11404256 -0.25440177 -0.92387182 0.38270211 5.3431129e-05 0
-0.14024815 -0.10794421 -0.25017118 0.92387593 0.38269222 -4.9850551e-06 0
-0.13953637 -0.10966258 -0.25021139 0.92387444 0.38269576 4.3196953e-05 0
-0.054684162 -0.10922914 -0.25627151 0.91368997 0.40640247 -0.002756749 0.00055759982
0.39577711 -0.10466568 -0.25406471 -0.92357296 0.38342267 0.00014508357 6.6458351e-06
0.48145047 -0.10311662 -0.25728619 -0.92889833 0.37032726 -0.0023956858 0.00027593016
-0.061497167 -0.092781112 -0.25471199 0.92387944 0.38268346 1.7273635e-05 0
-0.059561275 -0.097454771 -0.25511146 0.92387968 0.38268313 1.4428959e-05 8.6291681e-07
-0.14938949 -0.085875072 -0.2507087 0.9658801 0.25883511 0.0089497343 0.0028809453
0.48831907 -0.086534351 -0.25616652 -0.95963788 0.28118655 -0.0054117651 0.0022673113
-0.070651211 -0.070681334 -0.25970328 0.95108247 0.30749622 0.029804649 0.0036170532
0.40779305 -0.075656638 -0.25560755 -0.94243282 0.33436418 -0.004568208 0.0010702577
-0.15232152 -0.064380094 -0.25826961 0.99090737 0.13454208 0.00095125649 2.0695737e-05
-0.073633239 -0.060212456 -0.25301126 0.97551411 0.21984349 -0.0064073927 0.0019571055
0.41088241 -0.068198271 -0.25562438 -0.94736546 0.31999129 -0.010211863 0.0012791774
-0.15407071 -0.051093705 -0.25600022 0.99144363 0.13053602 1.3274039e-05 0
-0.074620359 -0.052714556 -0.25584552 0.9855181 0.16923273 0.010695934 0.00096929353
0.49275383 -0.055040359 -0.25438252 -0.99144346 0.13053662 -9.2793352e-06 6.3337538e-05
-0.36013883 -0.046434011 -0.25239888 0.11207319 0.97169739 0.20795164 0.015819987
-0.35491779 -0.046039488 -0.25421244 0.057287235 0.98474211 0.16432001 0.021599455
-0.33645001 -0.045364026 -0.25455797 0.15860654 -0.98626435 0.046115305 0.018672591
-0.32730997 -0.044241387 -0.2572715 0.20476177 -0.97459263 0.09078487 0.017748766
-0.15461297 -0.046974741 -0.25674081 0.99144495 0.13052523 -1.8530869e-05 6.7933679e-06
-0.075472079 -0.046245091 -0.25765669 0.98848867 0.1512948 0.0001074098 0.00045187297
0.49409696 -0.044838201 -0.25330552 -0.99144131 0.13055271 2.3777833e-05 0
-0.38646787 -0.03644006 -0.25602782 0.51795954 0.6695109 0.53242201 0.01889725
-0.31555805 -0.039510589 -0.25176758 0.3497158 -0.8820824 0.31564122 0.011957687
-0.30432469 -0.033783183 -0.25188428 0.46693757 -0.73267967 0.49512607 0.01858972
-0.29128146 -0.031333294 -0.25921762 0.49582177 -0.61088449 0.6172365 0.027549166
-0.15623234 -0.03467454 -0.25324631 0.99144328 0.13053861 -4.0649513e-05 0
0.41622299 -0.034485221 -0.25598139 -0.9914434 0.13053706 2.453144e-05 0
-0.39526951 -0.024718497 -0.25770116 0.67315823 0.37256014 0.63879335 0.019086633
-0.29192844 -0.026314473 -0.25399792 0.5022825 -0.54893976 0.66811484 0.02095945
-0.28760707 -0.022505613 -0.25417137 0.52454019 -0.50756156 0.68354869 0.021378966
-0.27978775 -0.02177125 -0.25945732 0.44503692 -0.51031542 0.73588067 0.027507432
-0.15784305 -0.022439867 -0.25885853 0.99245125 0.12263373 -0.0012282586 9.4399409e-05
-0.078122631 -0.026112027 -0.25784099 0.99188483 0.12713952 -0.00034604612 2.5160603e-05
0.41790271 -0.021726098 -0.25441366 -0.99236429 0.1233375 0.00098871742 9.9927252e-05
0.49651945 -0.026437417 -0.25905257 -0.99144357 0.1305359 -4.5693567e-05 0
-0.40066129 -0.018146273 -0.2545405 0.73264813 0.27168319 0.62403125 0.01568993
-0.39917019 -0.011089741 -0.25823858 0.76299775 0.00087744644 0.64640039 0.021306673
-0.28167191 -0.014395891 -0.25496465 0.44958666 -0.25191462 0.85697776 0.022058329
-0.15838146 -0.018350242 -0.25784695 0.99385995 0.11023189 0.0095552402 0.00059575267
-0.080055453 -0.011430757 -0.25005502 0.99357045 0.11309071 -0.005332889 0.00016652567
0.41872269 -0.015498068 -0.25275081 -0.99443024 0.1053321 -0.0037013821 0.00055276341
-0.39816725 -0.0016870421 -0.25830296 0.76806569 -0.14799979 0.62303388 0.012089501
-0.28408939 -0.0043745865 -0.25174677 0.49972367 -0.077061884 0.86274999 0.028041102
-0.26775739 -0.0013262749 -0.25922018 0.39041078 -0.036374573 0.91992188 0.013941412
-0.16040727 -0.00296263 -0.25023925 0.99914777 0.040580813 0.0075460859 0.0018409041
-0.081240386 -0.0024302381 -0.25324017 0.99984729 0.014565906 0.0096600493 0.0027017433
0.41984338 -0.0069854422 -0.25114313 -0.99891305 0.0465497 0.0024092803 0.0021797207
0.42023546 -0.0040072636 -0.25545931 -0.9995662 0.028420968 -0.0077271005 0.0017805839
0.49934149 -0.0050020092 -0.2543782 -0.99986118 0.012282366 0.011261906 0.0024322635
-0.28777674 0.0086655971 -0.25180373 0.48407471 0.38736269 0.7846157 0.02182948
-0.27175376 0.005787049 -0.25883797 0.41196525 0.15476607 0.89795989 0.020119011
-0.16023532 0.004268887 -0.25297374 0.99932516 -0.035699103 0.008648566 0.0025934679
-0.081315137 0.0018624705 -0.2530027 0.99983025 0.0011894748 0.018386584 0.0026285322
0.49940583 0.0045130569 -0.25130558 -0.99975753 -0.017855251 0.012881438 0.0019685118
-0.3939127 0.011208039 -0.25494835 0.63628906 -0.51384038 0.57541662 0.014230675
-0.38850969 0.016747985 -0.25472006 0.53883028 -0.68023747 0.49692953 0.012214395
-0.2903699 0.013934882 -0.25290328 0.46148929 0.52353644 0.7161963 0.027399726
-0.07912112 0.018527752 -0.25348377 0.9926244 -0.12115745 -0.0042051538 0.00014295739
0.41859743 0.016449297 -0.25291285 -0.99381191 -0.11107034 -0.0011718937 0.00025352233
0.49763304 0.017978724 -0.25107923 -0.99340725 -0.11463752 0.00055036228 0.00032286573
-0.37556604 0.024780663 -0.25429758 0.36462379 -0.88002843 0.30430153 0.014629547
-0.36684358 0.02853124 -0.25131422 0.23794761 -0.95315731 0.18674068 0.017666902
-0.35900918 0.029445603 -0.25414798 0.17234448 -0.97303432 0.15330216 0.013794376
-0.31513545 0.02950602 -0.25730509 0.23933925 0.87977761 0.41074091 0.024389829
-0.29046983 0.020918954 -0.25880533 0.39874876 0.61965138 0.67604107 0.020881206
-0.157287 0.026663531 -0.2584883 0.99144524 -0.13052326 -2.2695345e-05 6.0788138e-06
0.4968504 0.023923516 -0.2558271 -0.99303138 -0.11779367 -0.0036330065 0.00017400118
-0.34800196 0.031074535 -0.25461641 0.093046084 -0.99520868 0.030035032 0.018380338
-0.33400065 0.030677745 -0.25254542 0.10526001 0.96938789 0.22182766 0.029580293
-0.31905985 0.030757785 -0.25899383 0.12832014 0.95444971 0.26936901 0.0242531
-0.15651785 0.03250568 -0.25806943 0.99144548 -0.13052149 -1.3332346e-05 0
-0.076847345 0.03579884 -0.25718951 0.99119812 -0.13221596 0.0067231799 6.2115592e-05
0.41630188 0.033885818 -0.25689775 -0.99144548 -0.13052145 6.0652119e-06 3.5116303e-05
-0.15461755 0.046940092 -0.25603262 0.99144441 -0.13052961 -2.6257494e-06 0
-0.07580968 0.043680742 -0.25422341 0.98894662 -0.14815165 0.0059751854 0.0002984789
0.41488048 0.044682454 -0.2554957 -0.99068093 -0.13619308 0.0016802198 0.00018024465
-0.15357143 0.054886132 -0.25703418 0.99144524 -0.13052334 -1.0477477e-05 1.0193512e-05
0.41365227 0.054011647 -0.2570385 -0.98112154 -0.1927916 0.015226786 0.0014184397
-0.15257648 0.062443383 -0.2531119 0.99034745 -0.13860671 -0.00016496473 9.6592703e-05
-0.073381864 0.062121894 -0.251874 0.97058028 -0.2407258 0.004999876 0.0021028658
0.49198619 0.060870785 -0.25399444 -0.9912225 -0.13220316 -0.00045485859 5.8814949e-05
-0.15049827 0.078229077 -0.25001174 0.97616684 -0.21667354 -0.012279253 0.0023640704
-0.070430234 0.071214788 -0.25957432 0.95197201 -0.30607754 0.0081184823 0.002041281
-0.068191737 0.076619007 -0.25173464 0.93199021 -0.36248192 -0.0010329162 0.00031831543
0.48970258 0.078216635 -0.25661051 -0.981924 -0.18913993 0.0071585788 0.0012745444
0.49017516 0.0746269 -0.25707465 -0.98325652 -0.18204853 0.0080585629 0.0010480327
-0.14794759 0.089356095 -0.25664181 0.95630646 -0.29229099 -0.0066278675 0.0022364943
0.40407416 0.084634811 -0.25726175 -0.92539012 -0.37901583 -0.00019274894 0
0.48904532 0.083209082 -0.2561096 -0.97314155 -0.23016854 -0.0042494391 0.0026201787
-0.14360756 0.099833846 -0.25426599 0.93753743 -0.3478778 0.0021438405 0.00092693826
0.39872679 0.097544469 -0.25458622 -0.92387933 -0.3826839 6.1819439e-05 1.1144646e-05
0.48446742 0.095833004 -0.25262907 -0.93906963 -0.34362933 0.008200286 0.00069377985
-0.14181173 0.10416938 -0.25538978 0.92832333 -0.37177351 -0.00052951364 0.00026476374
-0.055180766 0.10803024 -0.25830439 0.91723734 -0.39833906 0.0013106465 0.00052309182
-0.13919291 0.11049173 -0.25198162 0.92388302 -0.38267505 -2.3003984e-05 0
-0.052376162 0.11480115 -0.2544021 0.89972836 -0.43643776 0.0033126762 0.0014334717
0.47782505 0.11186918 -0.25654164 -0.92383671 -0.38278702 1.0196391e-06 0.00014034325
-0.13329065 0.12474108 -0.25542358 0.92388546 -0.38266903 -3.0744559e-05 0
-0.047991775 0.12538598 -0.25070861 0.86883438 -0.49497974 0.011038089 0.002388146
0.47145692 0.12724316 -0.25501317 -0.92385393 -0.38274524 -9.2391892e-06 4.5479395e-05
-0.12850061 0.13630527 -0.25535566 0.92388809 -0.38266292 -5.0060222e-05 2.0481542e-05
-0.041342903 0.13414064 -0.256762 0.82792759 -0.56063902 0.014822911 0.0018708771
-0.03846246 0.13789451 -0.25763395 0.81274724 -0.58230174 0.019144733 0.000954761
0.37948948 0.13551697 -0.25444061 -0.82372218 -0.56697947 0.0040097386 0.0010026451
0.46702337 0.1379467 -0.25354952 -0.92389095 -0.38265577 -7.790485e-05 0
-0.035153102 0.14220735 -0.25039721 0.79514456 -0.60641825 -0.0013969771 1.1277953e-05
-0.029384935 0.14972457 -0.25664073 0.79334235 -0.60877573 2.6903739e-05 0
0.4644596 0.14413619 -0.25121638 -0.922324 -0.38641578 -0.0010726774 0
-0.12168828 0.15275168 -0.25594303 0.90149242 -0.43279481 0.00011807929 0.0013359539
-0.11926226 0.1586086 -0.25475115 0.89867765 -0.4385412 0.0077567413 0.001427414
-0.025737589 0.15447789 -0.25656366 0.79334205 -0.60877609 -1.9133481e-06 0
0.3623535 0.15784898 -0.25522572 -0.79278779 -0.60949767 0.00050294568 0
0.45923054 0.15676028 -0.25566509 -0.89299273 -0.45002952 0.0061159465 0.0017219638
0.46184027 0.15045981 -0.25968057 -0.91654801 -0.39992088 0.0017410266 0.0004086527
-0.016534297 0.16647185 -0.25426859 0.76775485 -0.64072293 0.005155995 0.0007611562
0.35659939 0.1653479 -0.25839368 -0.76280802 -0.64648288 -0.013553207 0.0007644766
-0.11256159 0.17037405 -0.25106737 0.83854359 -0.5448342 0.00070123735 0.0020244508
-0.0082731927 0.17723793 -0.25406182 0.73072326 -0.68249655 -0.015555155 0.0018278111
0.44457099 0.17974854 -0.25127319 -0.81007838 -0.58631152 -0.0034281574 0.00031244056
-0.0011763555 0.18283165 -0.25972542 0.67025697 -0.74205059 0.010799716 0.0015969488
0.0070414795 0.18913741 -0.25153983 0.6195451 -0.78495371 -0.0034047463 0.00024642787
0.33852395 0.18425508 -0.25479618 -0.65484864 -0.75571615 -0.0081446534 0.0012656002
0.43906742 0.18692093 -0.25478116 -0.79473686 -0.6069538 -0.00069169234 0
-0.093419954 0.19531991 -0.25786188 0.79333335 -0.60878754 2.3420023e-05 0
0.32526633 0.19442804 -0.25416821 -0.60874081 -0.79336917 -2.2102829e-05 5.0496459e-05
0.43630016 0.19052731 -0.25243112 -0.79331481 -0.60881162 7.6147859e-05 0
-0.083824694 0.20782471 -0.25731999 0.79335082 -0.60876471 -3.0139598e-05 0
0.025682075 0.20344085 -0.25995171 0.61344945 -0.78858691 0.04254891 0.0032440338
0.30987072 0.20624149 -0.25033182 -0.59575635 -0.80316418 0.001269379 0.00030705758
0.4226248 0.20834941 -0.25942135 -0.79334247 -0.60877562 -4.2843611e-05 1.3189127e-05
-0.080880351 0.21166186 -0.25459021 0.79333597 -0.60878414 3.0122515e-05 0
0.040434416 0.21476071 -0.25407168 0.51883543 -0.85487413 0.00020315251 0.0018779031
0.2947945 0.21729565 -0.25455856 -0.48457551 -0.87474215 0.0035808724 0.0016783635
0.30309054 0.21144412 -0.25755349 -0.56499577 -0.82506973 0.0063023106 0.0011258982
0.41708964 0.21556291 -0.25169408 -0.78566688 -0.6186468 -0.00191457 0.00025265271
-0.067116164 0.2295997 -0.25891986 0.72327131 -0.6905278 -0.0070624547 0.0021550069
0.052266773 0.22092813 -0.25431347 0.44421944 -0.89591652 -0.0016210232 0.0013436977
0.072430238 0.2292801 -0.25359631 0.3826721 -0.92388427 1.6794296e-05 0
0.26535103 0.22986887 -0.25745377 -0.38270479 -0.92387068 -1.7028666e-05 0
0.4081277 0.22724238 -0.25395936 -0.73672652 -0.67616916 -0.0054114438 0.0019885977
0.41189766 0.22232923 -0.25546077 -0.76415181 -0.64478719 -0.017927201 0.0010213213
-0.059847511 0.23683324 -0.25320244 0.68014944 -0.73296165 -0.01281174 0.0014243473
0.091764189 0.2372885 -0.25638184 0.33132669 -0.94351429 -0.0018539608 0.0010899062
0.24692109 0.23750281 -0.25213546 -0.33821687 -0.94105321 0.0053159809 0.00094641576
0.25673169 0.23343913 -0.25425586 -0.37884536 -0.92545855 0.0016375829 5.3195101e-05
0.3981069 0.23755707 -0.25586423 -0.68451947 -0.72899348 0.0012712801 0.0023577486
0.40551662 0.23064521 -0.25477242 -0.7266413 -0.68697429 -0.0076665776 0.0021678207
-0.05221035 0.24269344 -0.25610247 0.63990366 -0.76844239 -0.0044317483 0.00080846273
-0.047058895 0.2466463 -0.25487667 0.61628008 -0.78752667 0.00074439432 0.00017420611
0.1193586 0.24454713 -0.25214985 0.17317995 -0.9848845 -0.0033594789 0.0010737579
0.12843931 0.24574262 -0.25277978 0.13493344 -0.99085462 -0.00010899784 3.3383058e-05
0.13735244 0.24691606 -0.25447315 0.13053156 -0.99144411 2.7777827e-05 0
0.14948694 0.24851358 -0.25621495 0.11610284 -0.99323708 -0.00044536995 0.00023819525
0.1515568 0.24878608 -0.25484726 0.1012229 -0.99485564 0.004025083 0.00060893525
0.17985144 0.24981223 -0.25822115 -0.074407302 -0.9972223 -0.0033495836 0.0020019896
0.19005528 0.24846886 -0.25323415 -0.12713014 -0.99188554 -0.0010343285 3.5359455e-05
0.20298633 0.24676648 -0.25058764 -0.13052651 -0.99144483 -4.0900573e-05 2.5447953e-05
0.2139705 0.24532039 -0.25509384 -0.14350884 -0.98964739 -0.0018180748 0.0001564345
0.22405639 0.24399255 -0.25681445 -0.1982498 -0.98013073 -0.0063787573 0.0013951972
0.23524791 0.24218221 -0.25357002 -0.2784262 -0.96031696 0.016438974 0.0017908855
0.38730261 0.24584749 -0.25113589 -0.62159634 -0.7833336 0.0025520443 0.00042641381
-0.035176955 0.25576365 -0.2512224 0.60875756 -0.7933563 -1.3094778e-05 0
0.36919406 0.25974265 -0.25633866 -0.60875964 -0.79335475 -6.1699786e-05 0
0.3789798 0.2522338 -0.25413823 -0.60877323 -0.79334432 -4.4316177e-05 0
-0.026086012 0.26273933 -0.2531915 0.60876817 -0.79334819 -5.7560377e-05 0
-0.0088073388 0.27599773 -0.25454968 0.59712452 -0.80214506 0.0023775182 0.00030295737
0.35116056 0.27358025 -0.25106633 -0.5893653 -0.80785501 0.0043363348 0.000603049
0.32763851 0.28910029 -0.25600591 -0.46294662 -0.88636827 -0.0056168553 0.00218351
0.33791068 0.2837472 -0.25257933 -0.52374589 -0.851825 0.0091911973 0.0018266953
0.017669475 0.2916292 -0.25658584 0.41404197 -0.91025788 -1.8895549e-05 0.00048848242
0.025180131 0.2947402 -0.25499505 0.39055035 -0.92058122 0.0007767335 9.1650829e-05
0.03402083 0.29840216 -0.25336769 0.3826862 -0.92387843 6.4871427e-05 0
0.30466872 0.29861471 -0.25466889 -0.38275003 -0.92385191 -1.5920699e-05 0
0.04556096 0.30318221 -0.25327197 0.38268307 -0.92387974 -8.1296157e-06 0
0.29343608 0.30326742 -0.25360048 -0.38269162 -0.92387617 -4.7795631e-05 0
0.064527795 0.31103855 -0.25358579 0.3819747 -0.9241727 0.00042100542 6.1087654e-08
0.075806111 0.31571019 -0.2557275 0.32909569 -0.94425291 0.0090842536 0.0011963415
0.081019916 0.31786984 -0.25731575 0.28563204 -0.95833868 -0.0011656908 0.0020664076
0.24925064 0.31991264 -0.2561498 -0.21190007 -0.97727448 -0.0057397969 0.0014847517
0.26761401 0.31396329 -0.25471583 -0.33081946 -0.94363612 -0.010458258 0.0014288842
0.0964683 0.32077053 -0.2540257 0.15931953 -0.98721969 -0.0038195888 0.00081593834
0.11403467 0.32308313 -0.25713718 0.13054411 -0.9914425 2.8698163e-05 4.2400461e-05
0.12296826 0.32425931 -0.25046563 0.13051729 -0.99144602 -4.4286826e-06 0
0.13546538 0.32590455 -0.25413853 0.13051832 -0.9914459 7.7882185e-05 0
0.14265874 0.32685158 -0.25984967 0.12576832 -0.99205935 0.00079167547 0
0.15722637 0.32876948 -0.25953123 0.063358679 -0.997989 0.0019478133 0.0013431609
0.18454374 0.32843143 -0.25350261 -0.10169221 -0.99480641 0.0043563643 0.0010994157
0.19357544 0.32724237 -0.2599225 -0.13055086 -0.99144161 -8.8391344e-06 0
0.23247235 0.32212156 -0.25175887 -0.14010176 -0.99013364 -0.0026255273 9.1322589e-05
0.24134669 0.32095322 -0.25381371 -0.19339192 -0.98108673 -0.0082786195 0.00098608085
0.16870461 -0.33025724 -0.24733162 0.03266751 0.99946415 0.0020745238 0.0017529074
0.09863811 -0.32105619 -0.24360424 0.15621369 0.98772037 -0.0023944662 0.00061314448
0.11593684 -0.32333359 -0.24542087 0.13054968 0.99144179 -2.5062121e-05 6.3971544e-05
0.12760049 -0.32486916 -0.24396747 0.13053903 0.99144322 -7.4566146e-06 3.2462132e-05
0.13494523 -0.32583609 -0.24392024 0.13050929 0.99144703 1.601455e-05 0
0.1490739 -0.32769617 -0.24624909 0.13030238 0.99147427 9.795517e-05 0
0.16166079 -0.32935327 -0.24795288 0.045524392 0.9989624 -0.0012832719 0.0016732621
0.18661623 -0.32815859 -0.24327798 -0.10735142 0.99417788 -0.0092717325 0.00040182224
0.19864327 -0.32657522 -0.24065799 -0.13059911 0.99143529 9.0930371e-05 0
0.20819625 -0.32531756 -0.2412941 -0.13051246 0.99144667 9.1157171e-09 4.5533987e-05
0.21545656 -0.32436171 -0.24177837 -0.13050961 0.99144703 -1.2578435e-05 7.0290378e-05
0.23602509 -0.32165378 -0.24103564 -0.149721 0.9887265 -0.0018656946 0.00046741133
0.24530548 -0.32043204 -0.24717832 -0.20043439 0.97968578 -0.0064646648 0.0019494598
0.063566864 -0.31064051 -0.24687493 0.37772137 0.925919 -0.00070214027 1.6458407e-05
0.24889524 -0.3199594 -0.24738847 -0.22624475 0.97406381 -0.0036022295 0.0024362744
0.25837356 -0.31779081 -0.24597038 -0.2990354 0.95415783 -0.012678199 0.0024826182
0.26643533 -0.31445149 -0.24487901 -0.34562352 0.93824679 -0.015407733 0.0008876744
0.2738851 -0.31136566 -0.24694557 -0.36312187 0.93173826 -0.0025399413 0.00054224086
0.044058636 -0.30255994 -0.24687541 0.38267833 0.92388171 1.0220169e-05 0
0.054821551 -0.3070181 -0.2429637 0.38273159 0.92385954 -5.6271197e-06 5.5295233e-05
0.27897722 -0.30925643 -0.24161917 -0.37949827 0.92519242 7.6272729e-05 5.689653e-05
0.28599757 -0.30634853 -0.24503979 -0.38277358 0.92384219 5.3792599e-05 0
0.29724509 -0.30168968 -0.24228722 -0.38275653 0.92384923 -2.0407373e-05 0
0.034793541 -0.29872221 -0.24165165 0.38266468 0.92388725 5.5140965e-05 0
0.3063218 -0.29792994 -0.24546012 -0.38269159 0.92387611 5.7724053e-05 3.0661904e-05
0.32202005 -0.29142752 -0.24536985 -0.42414838 0.90557951 0.0048910808 0.0015989387
0.008731517 -0.28792694 -0.24536043 0.4666034 0.88446283 -0.0026085754 0.002211798
0.011217262 -0.28895658 -0.24192658 0.44688386 0.89459157 -0.00088171288 0.0020702062
0.33312857 -0.28682619 -0.24329326 -0.48686734 0.87334317 0.015226991 0.0020483539
-0.013086925 -0.2727139 -0.2439276 0.59513557 0.80362499 0.00074218528 0.00026912676
0.34701371 -0.27676225 -0.24645221 -0.5778814 0.81609833 -0.0060522528 0.0010693911
0.3500393 -0.27444062 -0.24712402 -0.59868801 0.80098212 0.0005318966 0.00019462987
0.36387947 -0.26382068 -0.24422544 -0.60891473 0.79323566 0.00013092178 0
0.16751984 -0.250875 -0.24468243 0.0062789745 0.9999308 -0.0099442536 0.0023586352
0.17246281 -0.25078493 -0.24518877 -0.016130619 0.99963373 -0.021731609 0.0023282084
0.369479 -0.25952402 -0.24303824 -0.60871375 0.79338998 1.3885977e-05 2.0940775e-05
0.3703405 -0.25886297 -0.24195802 -0.60869157 0.79340696 4.0664472e-05 3.9088216e-05
0.38062772 -0.25096932 -0.24472179 -0.60881662 0.793311 -9.6758704e-06 0
-0.046391208 -0.24715863 -0.24562384 0.6150099 0.78851837 0.0012973311 9.7118223e-05
0.1068719 -0.24280025 -0.24709626 0.23655879 0.97143143 0.018997628 0.0020658448
0.11993932 -0.24462357 -0.24550037 0.15986888 0.98708779 -0.0099800723 0.001003369
0.12657213 -0.24549679 -0.24878082 0.13614242 0.99068922 -0.0002466657 3.8791819e-05
0.13256341 -0.24628556 -0.24314034 0.13141538 0.99132735 -0.00010057406 4.9223599e-05
0.14598277 -0.24805224 -0.24398611 0.12403068 0.9922772 0.0015432537 4.2139149e-05
0.15669428 -0.24946243 -0.24650775 0.084278375 0.99644226 -0.00011034172 0.0014592898
0.18219087 -0.24950424 -0.24161501 -0.084591359 0.99640477 -0.0046691974 0.0014441221
0.19193462 -0.24822144 -0.24952318 -0.12440068 0.9922294 -0.002278843 0.00010265433
0.20633107 -0.24632612 -0.24331652 -0.1305431 0.99144262 -0.00011940494 3.3331675e-05
0.21347336 -0.24538584 -0.24416037 -0.14231926 0.98981911 -0.0018479718 0.00011822776
0.22223726 -0.24423206 -0.24099463 -0.18059324 0.98355782 -0.00028498354 0.0010006297
0.23659796 -0.24148865 -0.24395274 -0.26269931 0.96487385 -0.002739666 0.0019016297
0.38727152 -0.24587134 -0.24694929 -0.62057018 0.7841509 9.4429677e-05 0.00025334969
-0.065683931 -0.2314662 -0.24588278 0.71997696 0.69392407 -0.010122228 0.0021502699
-0.059497226 -0.23710203 -0.24598153 0.68036473 0.73283798 -0.0072279405 0.0018975153
0.085789859 -0.23481385 -0.24835822 0.37592086 0.92664981 -0.0019097081 4.0978579e-05
0.25326556 -0.23487484 -0.24849808 -0.35959613 0.9330985 0.0042325868 0.00052479177
-0.073608637 -0.22113854 -0.24809033 0.77708864 0.62938005 0.0037488947 0.00050440716
0.053625323 -0.22149086 -0.243325 0.43161222 0.90201515 -0.0089202831 0.0011044251
0.073966488 -0.22991642 -0.2404494 0.38268381 0.92387933 2.9630767e-06 0
0.27329212 -0.22657955 -0.24597356 -0.39164275 0.92011535 0.001922839 6.2775514e-05
0.41253376 -0.22150029 -0.24149126 -0.778503 0.62761939 0.0052072359 0.00039740908
-0.080404416 -0.21228209 -0.24771948 0.79279405 0.60948956 -0.00024641873 0
-0.075997628 -0.21802513 -0.24571387 0.78332615 0.62160116 -0.0034964706 0.00044040001
0.038974084 -0.21364015 -0.24879012 0.54966968 0.8352592 0.014332766 0.001873983
0.045520887 -0.2181339 -0.24633643 0.49338791 0.86978489 0.0065304036 0.0025204702
0.29787979 -0.21544246 -0.24611884 -0.51933187 0.85457182 0.0011817042 0.0030021402
0.30338898 -0.21121509 -0.24136353 -0.56669754 0.82392049 0.002989311 0.0017829613
0.4206045 -0.21098225 -0.24620911 -0.79331827 0.60880709 1.9237545e-05 0
-0.086685359 -0.2040966 -0.24578595 0.79336232 0.60874981 -2.9664516e-05 1.2225918e-05
0.027231123 -0.20462947 -0.2480963 0.60406435 0.79693007 0.0029623532 5.3868145e-05
0.42498592 -0.20527232 -0.24615441 -0.79326957 0.60887063 -5.1379637e-05 5.1696996e-05
-0.093768731 -0.19486538 -0.24530655 0.79335076 0.60876471 -2.5985104e-05 3.9702886e-07
0.016512565 -0.19640483 -0.24352178 0.60876006 0.79335439 3.8725517e-05 0
0.31937045 -0.19895209 -0.24371508 -0.60878581 0.79333466 -4.4154585e-05 0
0.32170403 -0.19716148 -0.24938846 -0.60880476 0.79332012 -7.7176279e-05 0
0.43380213 -0.19378278 -0.24461243 -0.79330671 0.60882217 3.7907219e-05 5.5300814e-05
-0.10156044 -0.18471102 -0.24474382 0.79655343 0.604568 -0.00024693779 6.1256469e-05
-0.0021542686 -0.18208127 -0.24965933 0.6642893 0.74746788 0.003406523 0.0017147181
0.0064069103 -0.1886505 -0.24273531 0.61409736 0.78922141 -0.0037473498 9.6717988e-05
0.33459118 -0.18727282 -0.24499273 -0.64830381 0.76137781 0.0024396477 0.00098503043
0.34177071 -0.18176377 -0.24758819 -0.67540032 0.73743939 -0.0041845678 0.0016536992
-0.0058497377 -0.17924565 -0.24328923 0.67481548 0.73793864 0.0084095532 0.0018916441
0.3496356 -0.17442334 -0.24164557 -0.73728275 0.67555624 0.0061568809 0.0013901185
0.35198414 -0.17136264 -0.24283975 -0.74373412 0.66845739 0.0049370574 0.0013225578
0.44759724 -0.17580462 -0.24832061 -0.80706573 0.59044719 0.0041243373 0.00065166218
-0.11441975 -0.16795243 -0.24128705 0.86088157 0.50867903 -0.011332235 0.002231553
0.35507289 -0.16733734 -0.24634595 -0.74786115 0.66385484 0.00063069962 0.0013016007
0.36016262 -0.16070421 -0.2400305 -0.78406554 0.62067425 -0.0021687036 0.00027450401
0.45487902 -0.16631486 -0.24728756 -0.86666411 0.49888551 -0.0025591529 0.0018567727
-0.02781637 -0.15176877 -0.2449021 0.7933529 0.60876197 -7.0645865e-06 3.3042272e-07
0.36526647 -0.15405281 -0.24553621 -0.79335099 0.60876435 -6.8895106e-06 4.3106811e-06
-0.12505247 -0.14462984 -0.24327922 0.91632152 0.40044299 0.00055005943 0.00022239529
0.37350056 -0.14332189 -0.2452479 -0.80405259 0.59455591 -0.0016397457 0.00021335506
0.46445069 -0.14415771 -0.24456877 -0.92299253 0.38481775 0.00046852493 0.00013492195
0.3776058 -0.13797186 -0.24761502 -0.81067288 0.5854941 0.0024741734 0.00056800403
0.4690491 -0.13305613 -0.24331787 -0.92386848 0.38270998 0.00010185193 5.067436e-05
-0.13133329 -0.12946656 -0.24645174 0.92387807 0.382687 -1.909968e-06 0
-0.04535244 -0.12891531 -0.24672002 0.84818894 0.5291298 -0.02443539 0.0018994892
0.38795567 -0.12354828 -0.24044733 -0.87407947 0.48578227 0.00085699285 0.0025999986
0.47260547 -0.1244703 -0.24463238 -0.92389899 0.38263646 0.00010705784 0
-0.13743594 -0.11473343 -0.24473831 0.92388028 0.38268167 6.8579284e-06 8.633072e-06
-0.052916761 -0.11349602 -0.24520765 0.9100793 0.41437367 0.0070883445 0.00057963887
0.38970596 -0.11932269 -0.24434386 -0.88211203 0.4710395 0.00038679957 0.0024441327
0.47702777 -0.11379398 -0.24720305 -0.92382723 0.38280979 -8.8259212e-06 0.00021902278
0.39387053 -0.10926851 -0.2493899 -0.92360395 0.38334787 0.0003554897 0
0.48259991 -0.10034154 -0.24303606 -0.93657112 0.35044122 -0.0050555132 0.00085722975
-0.14455782 -0.097539715 -0.24200998 0.93712562 0.34888193 -0.0087704193 0.00057400519
-0.059157677 -0.098429129 -0.24913515 0.92387879 0.38268539 -1.6029517e-05 2.864746e-06
0.40150619 -0.090834498 -0.24026179 -0.92387891 0.38268498 -5.1040181e-05 0
0.48357749 -0.097981513 -0.24915588 -0.93795717 0.34675124 9.250002e-05 0.0010139243
-0.14784802 -0.089596458 -0.24122874 0.95730931 0.28904346 -0.0035749087 0.0025450482
-0.064960025 -0.084421046 -0.2471493 0.92734402 0.37420505 -0.0019053631 0.00014866544
0.48946559 -0.080016814 -0.24833377 -0.97396475 0.22669135 -0.0019179824 0.0021025543
-0.15035732 -0.07929948 -0.24558674 0.97503942 0.22198953 0.004329009 0.0018499693
-0.070025861 -0.072191045 -0.24697712 0.95075148 0.30956599 -0.015509598 0.0020722626
0.40657407 -0.078599535 -0.2437939 -0.93705159 0.34916592 -0.004175806 0.0010561311
0.49046946 -0.072391681 -0.24652083 -0.98416805 0.17709829 -0.0070254249 0.0013456473
-0.15252817 -0.062810503 -0.24342033 0.99035412 0.13855582 0.0010067042 9.7694763e-05
-0.071712837 -0.068118311 -0.2456792 0.95764655 0.28748244 -0.016338579 0.0020597589
0.4913336 -0.065827802 -0.24924709 -0.99092275 0.13442655 -0.0012974261 0
-0.15326212 -0.057235517 -0.24719861 0.99135458 0.1312099 0.00018083423 0
0.41381744 -0.052757211 -0.24404079 -0.98266488 0.18522641 0.0077993707 0.0018647917
0.49275655 -0.055019416 -0.24744225 -0.99144185 0.13054956 3.2603188e-05 0
-0.39108372 -0.0423031 -0.24018061 0.39995933 0.81261945 0.42388922 0.023605675
-0.3853192 -0.04263645 -0.24549775 0.31560108 0.87474418 0.3677209 0.013038276
-0.35625815 -0.046827655 -0.24449188 -0.049641889 0.99356163 0.10183791 0.01412107
-0.34679815 -0.046035573 -0.24532144 0.12902007 -0.9901334 0.054678459 0.024514651
-0.3378683 -0.043396998 -0.24169409 0.25214493 -0.93589079 0.24603128 0.014588861
-0.32806668 -0.04173087 -0.24624369 0.23125118 -0.95262849 0.19753981 0.013665519
-0.15498383 -0.044157848 -0.24341172 0.99144489 0.13052601 -5.0381514e-06 0
-0.075535402 -0.045764063 -0.24231789 0.98927516 0.14603673 0.0028142545 0.0003248654
0.49415556 -0.044392955 -0.24446563 -0.99144226 0.13054581 -1.3602535e-05 0
-0.40305272 -0.032607868 -0.24204122 0.54408902 0.62967557 0.55450511 0.012757153
-0.32156178 -0.037404507 -0.24275231 0.40237048 -0.79540569 0.45324135 0.015741942
-0.31603163 -0.037294365 -0.24733531 0.41442105 -0.75429153 0.50921452 0.017347423
-0.30796587 -0.032084208 -0.24629143 0.44526458 -0.68890435 0.57197046 0.021663286
-0.15615717 -0.035245456 -0.24690683 0.99144429 0.13053052 1.079905e-05 7.7523646e-06
-0.076519102 -0.038292095 -0.24295324 0.991445 0.13052511 -3.9276988e-06 0
-0.40028447 -0.029028459 -0.2486175 0.61987472 0.54076231 0.56862241 0.018938659
-0.30154628 -0.02288568 -0.2436026 0.52501118 -0.43333748 0.73251754 0.016367394
-0.29873657 -0.024709271 -0.24732365 0.51527631 -0.43460333 0.73865426 0.019343911
-0.07839568 -0.024038047 -0.2460987 0.99222827 0.12443003 0.00049139105 6.6053704e-05
0.41731566 -0.026185468 -0.24697928 -0.99144542 0.13052168 -9.2044298e-05 5.5842753e-05
0.49672127 -0.02490437 -0.24280083 -0.99198788 0.12631449 0.0021661134 5.6059389e-07
-0.40935802 -0.018908907 -0.2436904 0.76989359 0.21930306 0.59930801 0.022318883
-0.29752022 -0.014984742 -0.24338403 0.5688352 -0.25265118 0.78268379 0.019897282
-0.15905462 -0.013237142 -0.24027018 0.9951036 0.098833688 0.00079543405 0.00049832795
-0.079922318 -0.012442038 -0.249449 0.99336386 0.11491913 -0.004687666 0.00016213277
0.41869196 -0.015731448 -0.24687143 -0.99425191 0.10706528 -0.00042883126 0.00050014543
0.49840757 -0.012095732 -0.24532242 -0.99459064 0.10381719 0.0033674529 0.00041817376
-0.41093099 -0.0010096541 -0.24153545 0.73067772 -0.34597471 0.58856732 0.012898542
-0.2933504 -0.008169339 -0.24506569 0.56330234 -0.1391115 0.81445593 0.022430154
-0.28812236 -0.0042341985 -0.24848518 0.50949252 -0.074631184 0.85723251 0.028612457
-0.08117938 -0.0028936323 -0.24442482 0.99938405 0.031967442 0.014473744 0.0033107246
0.42042774 -0.0025465086 -0.24836914 -0.99995017 0.0084402459 0.0053416612 0.0025309895
0.49925384 -0.0056674466 -0.24592526 -0.99930948 0.035430521 0.011183703 0.0019945297
-0.40580374 0.001049387 -0.24699426 0.72231334 -0.32157454 0.61225265 0.01629509
-0.30010918 0.004604619 -0.24144393 0.58170134 0.18108423 0.79298925 0.018039756
-0.29726553 0.0086887516 -0.24527404 0.53388184 0.36672938 0.76189226 0.021326814
-0.16014446 0.0049590007 -0.24275416 0.99832851 -0.057658382 -0.0039432114 0.0019203069
-0.081085026 0.0036103372 -0.2475569 0.9996863 -0.022347746 0.01131556 0.0026001418
0.41959792 0.0088498043 -0.24118273 -0.99834585 -0.056822143 0.0087631568 0.0017629656
0.49959928 0.0030438569 -0.24987414 -0.99992085 0.001732169 0.012462198 0.0025381977
-0.40054399 0.011920698 -0.24521746 0.60890353 -0.59701759 0.52230883 0.010633433
-0.39437783 0.015221183 -0.24973458 0.59177107 -0.63482708 0.49679121 0.016172498
-0.31271371 0.017598078 -0.24099435 0.3888694 0.67303818 0.62912655 0.018596854
-0.30371457 0.016533628 -0.24622416 0.48908141 0.59016073 0.64226919 0.019611625
0.4186748 0.015861757 -0.24453433 -0.99385011 -0.11059 0.0056358944 0.00021799584
0.49762797 0.018017421 -0.24516076 -0.99417031 -0.1076541 -0.0059911599 0.00054918008
-0.38310537 0.023963591 -0.24644399 0.36459392 -0.89465708 0.25818592 0.011736822
-0.37563616 0.026939064 -0.24576436 0.31229696 -0.92347234 0.22286645 0.014081225
-0.34698147 0.029952671 -0.24366584 0.059574652 0.98369622 0.16968349 0.022664459
-0.33457923 0.029069027 -0.24631965 0.1906334 0.88958269 0.41509205 0.015663169
-0.32479116 0.025742602 -0.24398148 0.26452428 0.82868546 0.4932619 0.018572338
-0.31296408 0.022164246 -0.24563138 0.38640538 0.7104724 0.58814949 0.011419203
-0.30739859 0.022068001 -0.24883176 0.36765867 0.69948924 0.61281472 0.013106842
-0.15785529 0.022346905 -0.24556491 0.99191827 -0.12687546 0.00088895945 5.3826941e-05
-0.078220792 0.025366448 -0.24591061 0.99230576 -0.12380889 0.00074690912 6.3098356e-05
0.41724458 0.026725467 -0.24608976 -0.99193501 -0.12674639 -0.0005925459 0.00012664746
-0.342089 0.030549604 -0.24900152 0.052671306 0.97820103 0.20086946 0.031002108
-0.33855459 0.030209079 -0.24765734 0.076470509 0.95711011 0.27945039 0.025670981
-0.15636832 0.033641629 -0.24755377 0.99144447 -0.13052924 5.201091e-06 0
0.41634032 0.033593815 -0.24537031 -0.99144554 -0.13052101 5.6945853e-05 7.955305e-05
0.49518788 0.036551766 -0.24213928 -0.9914428 -0.13054188 0.00019181296 0
-0.15458919 0.047155473 -0.24409041 0.99144435 -0.13053016 2.0088366e-06 0
-0.075927809 0.042783424 -0.24409729 0.9911561 -0.13269785 0.00088302215 1.323111e-05
-0.15352556 0.055234507 -0.24523236 0.99144477 -0.13052702 9.9446943e-06 3.4603636e-07
0.41359669 0.054433864 -0.24484114 -0.98211169 -0.18790807 0.012135187 0.0013688203
0.49263084 0.055974651 -0.24464905 -0.99131912 -0.13147725 -0.00031490216 0
-0.15220566 0.065260112 -0.24524653 0.98705089 -0.16037498 -0.0032344847 0.00043103489
-0.072744474 0.06429182 -0.24696025 0.96651685 -0.25656423 0.0044758613 0.0020756421
0.41189882 0.064994656 -0.24816233 -0.95926267 -0.28245398 0.005905312 0.0016368962
0.49130282 0.066061608 -0.24488366 -0.99047774 -0.13766173 -0.0017454554 0.00036591425
-0.15073842 0.07640484 -0.2456433 0.98059559 -0.19604108 0.00041470616 0.0015831321
-0.070030779 0.072179176 -0.24113876 0.93893409 -0.34395936 -0.0097366618 0.00058553193
-0.068726465 0.075328045 -0.24426958 0.93662435 -0.35031193 -0.0040397421 0.00062969839
0.40741414 0.076571397 -0.24404779 -0.94275963 -0.3334696 0.00150701 0.0012618079
-0.14939085 0.085871778 -0.24579321 0.95800942 -0.28647634 0.012221415 0.0022900491
-0.065670684 0.082705364 -0.24378499 0.92994833 -0.36768061 -0.0026664911 0.00021911562
0.40576038 0.080563895 -0.24272539 -0.93195021 -0.36258066 0.0020204261 0.00059376034
0.48874453 0.083913766 -0.243312 -0.96789443 -0.25110701 -0.011211704 0.0031903207
-0.14622261 0.093520604 -0.24599402 0.94910443 -0.31496105 -0.00055395055 0.002069782
-0.061516628 0.092734128 -0.24379359 0.92387962 -0.38268322 7.8640251e-06 0
0.40127218 0.091399372 -0.24220601 -0.92461234 -0.38090867 0.00083057449 4.0955922e-05
0.48677734 0.090256475 -0.2454495 -0.95133579 -0.30815405 -0.0011356542 0.0025219701
-0.1415243 0.10486332 -0.24484415 0.93211293 -0.36216524 0.0013680434 0.00061123597
-0.058021411 0.10117231 -0.24737549 0.92337596 -0.3838968 -0.00027466283 1.0519268e-05
0.39654303 0.10281657 -0.24382651 -0.92191875 -0.38737929 -0.0017536827 1.3925372e-05
0.47946584 0.10790794 -0.24624407 -0.92598194 -0.37756598 0.0011279881 7.3376592e-05
-0.13867044 0.11175308 -0.24302678 0.92387849 -0.3826859 3.8173541e-05 1.5947709e-06
-0.053292304 0.11258939 -0.24495861 0.90853858 -0.41778341 -0.003841582 0.0010907433
0.39148429 0.11502939 -0.24631917 -0.89879638 -0.43834868 -0.0039285105 0.001196002
0.47697195 0.11392869 -0.24194951 -0.92389244 -0.38265222 0.00010194394 0
-0.047352005 0.12610854 -0.2436028 0.85183072 -0.52332705 0.022654694 0.0028124305
0.3869198 0.1258336 -0.24451895 -0.86950308 -0.49392647 -0.0010758393 0.0022383244
-0.12725371 0.13931553 -0.24374965 0.92387539 -0.38269359 -1.591826e-05 3.0359099e-06
-0.037045352 0.13974132 -0.2451278 0.79517221 -0.60638243 -0.0012547456 5.1798206e-06
0.38068804 0.13395499 -0.2424812 -0.82052982 -0.57160288 0.0009048325 0.00089390867
0.46938425 0.13224703 -0.24562052 -0.92387998 -0.38268229 8.8146608e-06 0
0.47016335 0.13036616 -0.24205054 -0.92389536 -0.38264531 5.5204378e-05 0
-0.12421225 0.14665827 -0.24532801 0.91818887 -0.39614284 0.00011942232 0.00027397473
-0.034944903 0.14247869 -0.24376304 0.79517144 -0.60638332 -0.0012735518 3.9625629e-06
-0.029981481 0.14894713 -0.24009356 0.79372555 -0.60827601 4.5811837e-05 0
0.37013322 0.14771029 -0.2409445 -0.7933569 -0.60875678 2.9042112e-05 0
-0.11942866 0.15820688 -0.24154937 0.89363956 -0.44878122 0.0019642143 0.0024106218
-0.024953723 0.15549944 -0.2458237 0.79333109 -0.6087904 -2.7028216e-06 0
-0.11723094 0.16351265 -0.24809733 0.87282956 -0.48799929 -0.0050095869 0.0024187374
-0.020368893 0.16147451 -0.24646516 0.78931254 -0.61398309 0.0032297517 0.00012614764
0.3568905 0.16496855 -0.24618919 -0.77360976 -0.63366187 0.00080148759 0.00076219416
0.45518988 0.16510844 -0.24362907 -0.86239755 -0.50622696 -0.0021697348 0.002186429
-0.10851005 0.17565411 -0.24298222 0.81947976 -0.57302499 0.0097566843 0.00094002677
-0.012154456 0.17217979 -0.24215241 0.74270266 -0.66957456 0.0079182619 0.0020950621
-0.0099204676 0.17509119 -0.2439076 0.72497165 -0.68874633 0.0066768103 0.0022094166
0.35171419 0.17171443 -0.24231644 -0.746373 -0.66550899 0.0050295056 0.0012001863
0.44802904 0.17524189 -0.24363843 -0.81295198 -0.58230639 0.005326475 0.00047722412
-0.10110284 0.18530738 -0.24381627 0.79520625 -0.60633755 0.0013413943 2.3698225e-05
-0.098677784 0.18846779 -0.24350081 0.79336357 -0.60874814 -7.722364e-06 9.0660305e-06
-0.0042386893 0.18048187 -0.24850561 0.6989302 -0.71508795 -0.012073242 0.001691128
0.0062649706 0.18854159 -0.24409363 0.62178081 -0.78317291 -0.0053676078 0.00028882921
0.33461124 0.18725742 -0.24164858 -0.6209963 -0.78381288 0.00099164934 0.00028801238
0.34279037 0.18098138 -0.24878721 -0.67530829 -0.73753476 0.0010959951 0.001740642
-0.094821401 0.19349352 -0.24458769 0.79336888 -0.60874122 -7.4870695e-05 1.945511e-05
0.31872174 0.19944987 -0.24281032 -0.60869616 -0.79340339 -2.0271204e-05 1.994939e-05
0.32579139 0.19402511 -0.24321763 -0.60885942 -0.79327816 -6.3693692e-06 0
0.43359315 0.19405513 -0.24640138 -0.79334986 -0.60876584 4.0563322e-05 0
0.027234256 0.20463188 -0.24274951 0.60234988 -0.79822898 -0.0022720054 0.00010426059
0.033476476 0.20942169 -0.24019091 0.56163311 -0.82737178 0.0049235611 0.0013048728
0.31137753 0.20508528 -0.24698664 -0.59508634 -0.80366021 -0.0015900456 0.00033255754
0.42295659 0.207917 -0.24157894 -0.79332197 -0.60880226 1.3487477e-05 1.1005082e-05
-0.076021694 0.21799378 -0.24552597 0.78339243 -0.62152672 0.00085912365 0.0002629158
0.038059052 0.21293803 -0.24609455 0.52797043 -0.84910429 -0.016403476 0.0016634993
0.30436319 0.21046758 -0.24560907 -0.57522529 -0.81799448 0.00089643063 0.0009216622
-0.069956303 0.22589834 -0.24144183 0.7495963 -0.6618948 0.00071985298 0.0017133722
0.057448063 0.22307429 -0.24203157 0.41581842 -0.90944588 0.0018058694 0.00085862982
0.26669383 0.22931267 -0.24604626 -0.38260648 -0.92391139 -7.5173892e-05 3.8296319e-05
0.27782813 0.22470069 -0.24705267 -0.38909552 -0.92119497 0.0021149011 6.3415398e-05
0.2878229 0.22056068 -0.24850246 -0.45811704 -0.8888886 0.0024167907 0.0018690344
-0.059955802 0.23675016 -0.24887693 0.68450946 -0.72889024 -0.012876109 0.0017065002
0.075851716 0.23069733 -0.24971637 0.38272068 -0.92386407 -2.6591691e-05 1.5204823e-05
0.085286036 0.23460518 -0.24995975 0.37759855 -0.92596895 -0.0010647087 2.8664563e-05
0.092090912 0.23742384 -0.246527 0.33690709 -0.94150275 -0.0081427405 0.00096548535
0.24800472 0.23705396 -0.24798463 -0.33909586 -0.94072104 0.0076075895 0.00092991401
0.26318514 0.23076603 -0.24371359 -0.38265321 -0.92389208 -3.9909122e-05 2.6487716e-05
0.39557695 0.23949835 -0.24104434 -0.64869606 -0.76104313 -0.0026146981 0.0011382413
-0.052031677 0.24283056 -0.247115 0.63601315 -0.77166331 -0.0047927569 0.00062199251
-0.043659568 0.2492547 -0.2490465 0.60965568 -0.79266596 0.00083506107 0
0.098450884 0.24005823 -0.2434815 0.32183504 -0.94677401 -0.0064146779 0.0012500602
0.104674 0.24202666 -0.24699289 0.25701228 -0.96637946 -0.0074464073 0.0020415161
0.11427799 0.24387825 -0.24194314 0.18145421 -0.98337412 0.0070561618 0.0012214578
0.12788306 0.24566939 -0.24969074 0.13489352 -0.9908601 -0.00016281918 8.7319031e-06
0.14618936 0.24807943 -0.24558967 0.12321014 -0.99238038 -0.00071776228 0.00014462203
0.15840152 0.24968719 -0.24451095 0.060793143 -0.9981029 -0.0097301835 0.0015659048
0.18447572 0.24920343 -0.24580428 -0.10302928 -0.99463743 -0.0090181725 0.00059405161
0.19770974 0.24746116 -0.24016008 -0.13050406 -0.99144781 1.0403731e-05 2.5003515e-05
0.20365173 0.24667889 -0.24388404 -0.13046879 -0.9914524 -1.016277e-05 2.6299875e-05
0.21751209 0.24485414 -0.24845548 -0.1551988 -0.98786247 -0.0064019612 0.000451695
0.22396296 0.24400485 -0.2449286 -0.1881461 -0.98212898 -0.0048804688 0.0013174346
0.23835896 0.24104938 -0.24489988 -0.28470713 -0.95859939 0.0053992332 0.0023574848
0.38879409 0.24470301 -0.24509352 -0.62144989 -0.78345263 0.0014633595 0.00033781104
0.39269418 0.24171042 -0.24814361 -0.64309764 -0.76577169 0.0043694261 0.0011362511
0.16746348 0.25088021 -0.24773958 0.026799358 -0.99960053 -0.008971177 0.001898519
0.17426658 0.25054747 -0.2439284 -0.03574818 -0.99920684 -0.017545728 0.0023034404
0.37447011 0.25569418 -0.24360465 -0.60874259 -0.7933678 2.2489454e-05 6.1804999e-06
-0.024284836 0.26412144 -0.24653016 0.60876036 -0.79335421 -2.6823409e-05 0
-0.01797276 0.26896486 -0.24613298 0.60875392 -0.7933591 2.800929e-05 0
-0.013819856 0.2721515 -0.2450763 0.60579306 -0.79562223 0.00036179807 2.7346145e-05
-0.0076932842 0.27685261 -0.24628273 0.58196974 -0.81320202 0.0036927781 0.0009926816
0.35112301 0.27360904 -0.24687399 -0.59295499 -0.80523169 0.002529836 0.0004161041
-0.0017018679 0.28144994 -0.24007976 0.56732684 -0.82333922 0.015901389 0.001466657
0.0068664104 0.28698063 -0.24190415 0.48348814 -0.87533581 0.0051428038 0.0020418453
0.3271454 0.28930455 -0.24760775 -0.45846295 -0.88871354 -0.00020954048 0.0023772563
0.33473724 0.2858001 -0.24415076 -0.51387441 -0.85781837 -0.0089890044 0.0019944394
0.027942114 0.29588425 -0.24575964 0.3852511 -0.92281151 -0.00064774451 8.6744767e-05
0.30636275 0.29791301 -0.24620433 -0.38272324 -0.92386305 -0.00012593681 5.7458619e-05
0.31751776 0.2932924 -0.24038237 -0.3916294 -0.92012292 0.00032527806 7.7661185e-05
0.32015157 0.29220146 -0.24096774 -0.40102765 -0.91603303 -0.0077658403 0.00043802187
0.051528882 0.30565423 -0.24516071 0.38269559 -0.92387444 -5.1867588e-05 7.9373549e-06
0.28596342 0.30636269 -0.24782351 -0.38269669 -0.92387408 8.3030041e-05 0
0.29717875 0.30171716 -0.24354662 -0.38272116 -0.92386395 4.4422315e-05 0
0.3007859 0.30022299 -0.24501187 -0.38276285 -0.9238466 -7.5596865e-05 6.2455433e-06
0.064903259 0.31119406 -0.24515446 0.37228298 -0.928119 0.00077792723 0.00032577541
0.084044777 0.31912276 -0.24942034 0.26383621 -0.96454239 0.0069612879 0.0025402817
0.25898975 0.31753555 -0.24377429 -0.27822471 -0.96051335 -0.0022523408 0.0017758991
0.264779 0.31513757 -0.24487226 -0.32493958 -0.9457289 0.0033218968 0.0013737143
0.091246605 0.32008308 -0.24152213 0.21391477 -0.97684997 0.002137963 0.0020351172
0.10712972 0.32217413 -0.2446188 0.13654076 -0.99063128 0.0025361388 7.5864649e-05
0.12530421 0.32456684 -0.24092019 0.13052808 -0.99144459 3.4903216e-05 2.4923635e-05
0.14212514 0.32678133 -0.2434511 0.13055079 -0.99144161 -2.661924e-05 0
0.15374264 0.32831079 -0.2489275 0.11042955 -0.99387312 0.0046419245 0.00018125636
0.1744013 0.32976669 -0.24679291 -0.022616237 -0.99967194 0.012020235 0.0019548987
0.19228539 0.32741225 -0.24211627 -0.12390709 -0.99229217 -0.0017980535 7.0880531e-05
0.21127829 0.3249118 -0.2471453 -0.13052864 -0.99144459 -5.3824271e-05 0
0.22410117 0.32322362 -0.24439718 -0.13051806 -0.99144596 7.0150463e-08 0
0.24212508 0.32085076 -0.24609329 -0.1913152 -0.98148912 0.0088039367 0.00088994444
0.10425876 -0.32179615 -0.23229057 0.14575742 0.98930478 0.0055547515 0.00017670736
0.11541519 -0.32326493 -0.23267756 0.13108696 0.9913708 -0.00019920313 0
0.12545124 -0.32458618 -0.23445427 0.13054772 0.99144202 1.8277795e-05 5.3125521e-05
0.13562974 -0.32592621 -0.23283505 0.13056086 0.9914403 -1.2386519e-05 7.3184485e-05
0.14874937 -0.32765344 -0.2316699 0.13032329 0.99147147 0.00023174311 0
0.15049908 -0.32788381 -0.23038709 0.1172475 0.99310255 -0.00057358295 0.00041688728
0.1640349 -0.32966581 -0.23708802 0.047240011 0.99885833 0.007111405 0.0020026951
0.18377903 -0.3285321 -0.23452708 -0.09668231 0.99529564 -0.0062537785 0.00068754191
0.1984027 -0.32660687 -0.23578371 -0.13057488 0.99143845 9.3754628e-05 0
0.20606427 -0.32559824 -0.23526596 -0.13053718 0.9914434 2.4792964e-05 0
0.21449389 -0.32448843 -0.23591235 -0.13053875 0.99144322 -4.4442208e-05 5.9379188e-05
0.22483119 -0.32312751 -0.23689276 -0.1312937 0.9913435 -2.0665177e-05 4.8187344e-06
0.062178761 -0.31006554 -0.23825967 0.37724471 0.92611307 0.0010150885 2.6668602e-05
0.077426188 -0.31638128 -0.2384474 0.3152692 0.94899952 0.0022950044 0.0018575275
0.086104408 -0.31934023 -0.23487812 0.24883859 0.96849024 0.010300807 0.0023641074
0.253892 -0.3191281 -0.23610833 -0.25084692 0.96786827 -0.017516132 0.0030932797
0.2639406 -0.31548485 -0.23466246 -0.3147302 0.94918013 -0.0014268837 0.0015250496
0.047295835 -0.30390084 -0.23135602 0.38273019 0.92386013 -7.9875153e-06 4.7917543e-05
0.056133151 -0.30756137 -0.23133957 0.3826943 0.92387509 -4.4758344e-06 0
