# .PCD v0.7 - Point Cloud Data file format
VERSION 0.7
FIELDS x y z normal_x normal_y normal_z curvature
SIZE 4 4 4 4 4 4 4
TYPE F F F F F F F
COUNT 1 1 1 1 1 1 1
WIDTH 568
HEIGHT 1
VIEWPOINT 0 0 0 1 0 0 0
POINTS 568
DATA ascii
0.12729648 -0.34444258 0.31606615 0.069830604 0.99755883 -0.00011377801 7.8850848e-05
0.13258687 -0.34478933 0.31462997 0.068277858 0.9976663 0.00017351622 0.00017270891
0.14533131 -0.3456246 0.3122122 0.023945959 0.99967223 -0.0090578776 0.00043033756
0.15632665 -0.34601659 0.31779358 -0.002887005 0.99994582 -0.010003094 0.0006929888
0.16478367 -0.34546229 0.31895083 -0.043687206 0.99904513 -0.00055879104 0.00018980556
0.1713617 -0.34503114 0.31783414 -0.055716131 0.99844629 0.0008724776 0.00013166363
0.1857762 -0.34408638 0.31591094 -0.088940717 0.99603683 0.00039791703 0.00021718674
0.19514965 -0.343472 0.31779563 -0.12153795 0.99257904 0.0039166422 0.00052001781
0.20867287 -0.34129623 0.31227329 -0.1658472 0.98609519 0.010537603 0.00028267081
0.21397574 -0.3402414 0.31490916 -0.17615816 0.98434877 0.0050699268 0.00015195638
0.053683486 -0.33080816 0.31415671 0.30448475 0.95251393 0.0025049045 0.00019413854
0.071403489 -0.33581388 0.31191298 0.24057382 0.97062874 0.002049987 0.00037637725
0.090370618 -0.33958668 0.31787828 0.18833354 0.98210472 -0.00087787997 9.76886e-05
0.22344968 -0.33835691 0.31386006 -0.19125009 0.98154044 0.001311582 0.00011416789
0.23718601 -0.33562461 0.31555465 -0.23090234 0.97294664 0.0076802606 0.00051197252
0.023904979 -0.32069972 0.31568664 0.36900645 0.9293468 -0.012191693 0.00057533913
0.036029793 -0.32481554 0.31884927 0.32648674 0.94520134 -0.00092645746 4.1759064e-05
0.041863061 -0.32679567 0.3186973 0.32430792 0.94595122 -0.00075208076 5.8713485e-06
0.26533356 -0.32694554 0.31409383 -0.31549689 0.9489246 0.0019545667 4.4083481e-05
0.27755982 -0.32279527 0.3162989 -0.36549291 0.93080187 -0.0047695288 0.000680839
0.2847099 -0.32036817 0.31075761 -0.38838238 0.92149752 -0.0012310954 0.00054696907
0.016308839 -0.31734776 0.31526059 0.39544317 0.91845965 -0.0075186375 0.00045603508
0.11376584 -0.310974 0.31083423 0.11769144 0.993047 -0.002488001 0.00078411069
0.12748039 -0.31187287 0.31740949 0.079921693 0.99679953 0.0018200538 0.00025582511
0.14277998 -0.31287566 0.31662485 0.040389914 0.99918371 -0.00083897141 0.00028322986
0.15475023 -0.31330448 0.31660974 -0.0037746094 0.99998271 -0.0045077307 0.00070981105
0.16217044 -0.31305182 0.31229982 -0.025168831 0.99968219 0.0014252628 0.00039495426
0.17413276 -0.31226778 0.31319445 -0.068260446 0.99766749 -0.00018681644 6.8951798e-05
0.29474062 -0.31566542 0.31687695 -0.41433531 0.9101209 -0.0024686581 0.00034724793
0.30111042 -0.31252423 0.31144556 -0.43174875 0.90199393 -0.00010029996 6.2358835e-05
0.067763068 -0.30125347 0.31367862 0.28304449 0.95909649 0.0044491217 0.00062766753
0.076883838 -0.30375504 0.31129152 0.2374243 0.97140169 0.0029054037 0.00077010767
0.0884455 -0.30605477 0.31722951 0.20736176 0.97826099 0.002565569 0.00023658216
0.097304694 -0.30781698 0.31082711 0.19239476 0.98131675 -0.0013083051 8.5879105e-07
0.10738347 -0.30982178 0.3176254 0.15224215 0.98833871 0.002999197 0.00049955194
0.20021617 -0.30982941 0.3133226 -0.14437941 0.98951721 0.0031993804 0.00061542337
0.22724551 -0.30445293 0.31324849 -0.24103105 0.97051585 -0.0017262681 0.00056944956
0.23119688 -0.30366695 0.31796229 -0.25959545 0.96571153 0.0033665353 0.00025458497
0.30814782 -0.30905378 0.3180033 -0.44545221 0.89530528 0.00086297299 3.7011592e-05
0.31448406 -0.30592906 0.31334996 -0.46036687 0.88772863 -0.00044146221 0.00013241929
-0.033369008 -0.29038185 0.31161323 0.54956698 0.83544868 -0.0012374663 2.4812025e-05
-0.026750721 -0.29480401 0.31103387 0.53426969 0.84531397 0.00032656061 0.00034411115
0.039329506 -0.29160157 0.31550032 0.36426046 0.93123049 0.011139951 0.00068306574
0.041021869 -0.29217607 0.31001666 0.35961047 0.9330675 0.0080864318 0.00077067059
0.052388314 -0.29603446 0.31535864 0.32073951 0.94716382 0.0026293907 0.00012547243
0.062893927 -0.29960063 0.31481484 0.29587016 0.95522791 -0.00069836329 0.00043330147
0.24803659 -0.29848301 0.31672785 -0.30113316 0.95358211 -0.00016847241 0.00024106112
0.25592592 -0.29580492 0.31333631 -0.31756657 0.94823581 0.0006275379 0.00010992836
0.33074605 -0.29723799 0.31135285 -0.51110953 0.85932451 -0.018127061 0.00052396819
-0.048042309 -0.28057742 0.31869093 0.57212293 0.82016677 -0.0013469878 0.00024740503
0.015882932 -0.28088734 0.31103033 0.43472084 0.90056509 0.00062750326 0.00024670607
0.27350378 -0.28983805 0.3122969 -0.38535464 0.92276663 0.0018979447 0.00068314979
0.34933609 -0.28481653 0.31891662 -0.56913853 0.82224166 0.0002354488 7.3629999e-05
-0.054961346 -0.27585596 0.31339079 0.60168391 0.79870909 0.0063406108 0.00051373179
0.005263146 -0.27565026 0.31625253 0.47407237 0.88046765 0.0056579672 0.00046817551
0.30864939 -0.27255601 0.31352496 -0.49597088 0.86833417 -0.0029620326 0.0005459403
0.36701417 -0.27246416 0.31781226 -0.61474973 0.78868425 0.0077447882 0.00072896783
-0.017209541 -0.26207742 0.31549567 0.54543352 0.83815277 -0.0014798134 0.00023766664
0.31472701 -0.26883981 0.31810388 -0.52298671 0.85234088 0.00029622143 0.00060947501
0.32300261 -0.26331022 0.31670862 -0.5431757 0.83961898 -0.00039311993 0.00021038775
0.37449893 -0.26592821 0.31614411 -0.64630306 0.7630319 0.008636931 0.00032943813
0.38026559 -0.2608709 0.31211692 -0.66139269 0.75003922 -0.00088479317 3.6585308e-05
-0.08190535 -0.25273448 0.31495917 0.69166815 0.72220212 0.0043897382 0.00027821638
-0.079032756 -0.2552537 0.31475833 0.68176895 0.7315591 0.0034910468 0.00023156864
-0.033088572 -0.25146738 0.31222928 0.60312438 0.79764414 0.0021891086 0.00058240787
0.32953057 -0.25894833 0.31503686 -0.56627035 0.82421899 -0.00096591905 0.00021306281
0.33676061 -0.25411743 0.31622609 -0.57687235 0.81683236 0.00175732 0.00025610306
0.3534883 -0.24111076 0.31409356 -0.63380253 0.77349287 0.0018188196 0.00031492644
0.39657927 -0.24651405 0.31547788 -0.6931867 0.72075462 -0.0022487245 0.00061949377
0.40053359 -0.2425888 0.31743258 -0.7192871 0.6947127 -0.00047851677 0.00065159
-0.10216274 -0.23202159 0.31455517 0.74023712 0.6723277 0.0049525206 0.00023273901
-0.055105843 -0.23299383 0.31885576 0.66291684 0.74868941 -0.0023370257 0.000161002
0.40692461 -0.23530126 0.31441933 -0.73858029 0.67416358 -0.0016687522 0.00030532022
-0.063912839 -0.22527029 0.31394035 0.69863683 0.71547455 0.0016431399 0.00046551169
0.37591168 -0.22128861 0.31229019 -0.71058887 0.70351231 -0.011573981 0.00057713973
0.41485795 -0.226255 0.31358969 -0.74952656 0.66197401 0.00056358607 4.8878537e-06
0.42019174 -0.22017302 0.31646159 -0.76913637 0.63908249 0.0016623036 0.00042037011
-0.12060016 -0.21099772 0.31108186 0.79354596 0.60851026 -0.00027371183 0.00073884754
-0.076097436 -0.21243392 0.31112272 0.7400496 0.67255205 0.0004744537 0.00017223417
0.37861106 -0.21827723 0.31064719 -0.72697586 0.6866402 -0.0055887098 0.00037737135
0.42641154 -0.21308066 0.31677926 -0.78416252 0.62055242 0.0019345898 0.00057988463
-0.084051341 -0.20336422 0.31020367 0.75610244 0.6544531 -0.00055316184 0.00017966544
0.38690746 -0.20881699 0.31701022 -0.74643415 0.66545838 0.0010689641 9.2041795e-05
-0.13181928 -0.19428718 0.31471208 0.82890403 0.55939025 0.00075626763 5.1175775e-05
-0.1295016 -0.19775581 0.31795391 0.82503629 0.56507826 0.0012833679 0.00013306862
-0.094136789 -0.19186398 0.31630832 0.79136235 0.61134732 -0.00034940877 0.00062449835
-0.089480512 -0.19717345 0.31615299 0.777978 0.62828577 -0.0026860344 0.0005749205
0.43773174 -0.19686964 0.315878 -0.82270229 0.56847155 -0.0010949222 0.00022155298
-0.098683424 -0.18535846 0.3160584 0.80819911 0.58888716 0.0051140799 0.00046709421
0.40690669 -0.18448263 0.3149555 -0.81021023 0.58613926 0.00046863695 0.00034794572
0.44468346 -0.18646577 0.31284106 -0.83578825 0.54905188 -0.00021763756 9.1654976e-05
-0.14237776 -0.17848527 0.317105 0.85399598 0.52027792 -0.0013034814 0.00044541186
-0.10638838 -0.1738272 0.31494802 0.8316384 0.55530727 -0.0033887126 0.00022853508
0.41269717 -0.17581658 0.31789178 -0.8257677 0.56400901 0.0012608005 0.00013531614
-0.14850253 -0.16798031 0.3146894 0.87896305 0.47688988 0.00018253058 0.00042765544
-0.10916816 -0.16966696 0.31884336 0.83624858 0.54835057 0.00030480267 0.00012096232
0.42097214 -0.16343215 0.31891316 -0.84727365 0.53115135 0.0023730986 0.00036832187
-0.15354013 -0.15776506 0.31114483 0.89251018 0.45102713 -6.9479893e-06 9.0523565e-05
-0.12062634 -0.15099911 0.31639796 0.8785249 0.47768348 -0.0035319712 0.00066344586
-0.11961426 -0.15305139 0.31537563 0.87354815 0.48673505 0.001627067 0.00064739247
0.42432949 -0.15831171 0.31553575 -0.86780709 0.49686885 0.0056811697 0.00040485384
0.46365961 -0.15273322 0.31289244 -0.89349735 0.44905409 -0.0035970351 0.00010824555
-0.12424743 -0.14365625 0.31513596 0.89092851 0.45413673 0.0024903051 0.00019595443
0.43292725 -0.14154378 0.31556726 -0.89107448 0.45385569 0.001112963 4.9533424e-05
-0.16431092 -0.13592401 0.31333327 0.92018586 0.39144793 -0.0051328675 0.00035936708
-0.13039827 -0.13118359 0.31916326 0.90883392 0.41713297 0.0045761201 0.00040935012
-0.127516 -0.13702826 0.31379366 0.8988744 0.43820581 -0.00059826387 0.00011367293
0.43654197 -0.13421386 0.31475732 -0.90477657 0.42587379 -0.0032686514 0.00025418572
-0.16956306 -0.12201209 0.31231311 0.93457383 0.35574201 -0.0044115214 0.000320369
-0.13360582 -0.12467935 0.31878173 0.91186208 0.41046706 0.0049350495 0.00038542325
0.4771077 -0.12228723 0.31325758 -0.9360795 0.35176355 0.004181243 0.00032114194
-0.17277443 -0.11255168 0.31744897 0.94509709 0.32678953 -0.00022570202 2.2669903e-05
-0.13716698 -0.11630297 0.31332088 0.92546993 0.37880546 0.003438527 0.0005562494
0.47788793 -0.11998883 0.31962296 -0.93909156 0.34366679 -0.00040714408 8.6326938e-05
0.48059767 -0.11200614 0.31726623 -0.9452557 0.32632777 0.0013091475 0
-0.17618714 -0.10249814 0.31627896 0.95429832 0.29881865 0.0046968409 0.00031724284
-0.14127517 -0.10420066 0.31212392 0.94442314 0.32854381 -0.011122417 0.00025414527
0.4478969 -0.10719458 0.31465852 -0.93973893 0.34189266 -0.00033201167 0.00033707396
0.48289976 -0.1052245 0.31154683 -0.95019162 0.31166342 -0.0013788836 0.00023030154
-0.18029644 -0.090392552 0.3114571 0.96453136 0.26395065 0.0030519993 0.00057819521
0.45038271 -0.099871725 0.31802699 -0.9493047 0.31435695 -0.0004033556 0.00017543671
0.48683155 -0.093641728 0.31394938 -0.95881462 0.28392807 -0.0077038249 0.00047865207
-0.18180694 -0.083360054 0.31659144 0.97192729 0.23520915 -0.0058350684 0.00040748913
-0.14828749 -0.083543032 0.31414109 0.96319604 0.26863152 -0.0095105041 0.00076429645
0.45478058 -0.086915836 0.31035629 -0.96121591 0.27578744 0.0023041966 0.00045693966
0.48821148 -0.089561313 0.31682268 -0.96535647 0.26054576 -0.014237942 0.00075119926
-0.18363103 -0.074189708 0.31706226 0.97522706 0.22117156 0.003910345 0.00030291732
-0.15049993 -0.074100256 0.31451991 0.9747448 0.22307554 -0.010484358 0.00063701958
-0.14954077 -0.078922227 0.31015834 0.9698624 0.24359845 -0.0051743966 0.00078332063
0.4902423 -0.079351634 0.31114981 -0.97538352 0.22048652 -0.0035540191 0.00034252435
-0.18591765 -0.062694177 0.31180263 0.98368967 0.17987141 0.0010012883 0.00015919688
-0.15289474 -0.062060721 0.31562775 0.98086339 0.19469324 -0.0011954411 6.1799496e-05
0.45973247 -0.066084035 0.31546098 -0.97587943 0.21830997 0.00015689325 0.00028132417
0.4933058 -0.063950554 0.31604475 -0.98159033 0.19099715 -0.00066193141 0
-0.15337837 -0.059629314 0.31447831 0.98260123 0.18572707 0.00044699066 0.00019191173
0.46205181 -0.054424107 0.31514674 -0.98415738 0.17729314 -0.0011862336 0.00024375785
-0.15627722 -0.045055747 0.3102687 0.98791701 0.15494984 0.0032484396 0.00054942007
0.49720171 -0.042693302 0.31290093 -0.99335498 0.11495287 -0.0056300303 0.00036575718
-0.19005585 -0.035184175 0.31570405 0.99556565 0.093922734 0.0052536335 0.00035177809
-0.15772112 -0.031415481 0.31806469 0.99483007 0.1015536 -7.1334056e-05 0.00044678719
-0.19086218 -0.022881703 0.31060788 0.99785978 0.065390155 3.4860263e-05 5.6199478e-06
-0.15806232 -0.026209626 0.31205949 0.99618024 0.087319724 0.00044617214 0.00030524968
0.46582651 -0.02428486 0.31389922 -0.99745917 0.071173884 0.0030798067 3.2621232e-05
0.49856502 -0.021893667 0.31340212 -0.99809879 0.06162801 0.00083924847 3.6940364e-05
-0.15879714 -0.014998249 0.31683028 0.99858594 0.052919585 0.005077892 0.00011412479
0.466364 -0.016084677 0.31529674 -0.99909455 0.042535149 -0.00092084397 0.00024330868
0.49896103 -0.015851136 0.31715906 -0.99825674 0.059016451 -0.00068954739 0.00013502773
-0.19210859 -0.003865042 0.31429428 0.99981821 0.016570242 0.0094273221 0.00041533721
-0.15948156 -0.0045562289 0.31181613 0.99971092 0.0234266 -0.0054186019 0.00052872417
0.46721181 -0.0031496629 0.31533575 -0.99998844 -0.0038826698 -0.0028296646 0.00049875933
-0.15976009 0.00030669392 0.3144466 0.99998873 0.00090021029 0.0046580993 0.00054755906
0.46677586 0.0098012332 0.31165111 -0.99938738 -0.03492837 -0.0022006927 0.00053874979
0.49994183 0.00088777125 0.31264868 -0.9999404 -0.0090089915 -0.0061647599 0.00066696957
-0.19139078 0.01481674 0.31690156 0.99872923 -0.050181407 0.0046682497 0.00012331348
-0.15862451 0.017632332 0.31632751 0.99822581 -0.059520751 -0.0015709986 0.0001183132
0.46668857 0.011133025 0.31523359 -0.99922562 -0.038922515 -0.0057655834 0.00043071064
-0.19078967 0.0239879 0.3148956 0.99807847 -0.061957989 0.0007476827 2.6938911e-05
-0.15811132 0.025462143 0.31075579 0.99665779 -0.081676483 0.0014968079 0.00017662359
0.4981198 0.028686261 0.31228608 -0.99696553 -0.077844612 -0.00031614833 0.00010375227
-0.1576789 0.032059312 0.31284195 0.99485111 -0.10128507 -0.0035532066 0.00041771846
0.4649699 0.037354678 0.31383684 -0.99290365 -0.11890663 -0.0019117391 0.00073429133
0.49801606 0.030268833 0.31944656 -0.99618816 -0.087006986 0.006246272 2.8448369e-05
-0.18931174 0.045630932 0.3196339 0.99109507 -0.13311116 -0.00347842 0.00034677461
0.46328437 0.048227564 0.31217593 -0.98767036 -0.15602544 -0.012786839 0.00055760558
-0.18754777 0.054498933 0.31368375 0.98706686 -0.16030926 5.4204265e-05 0.00035130445
-0.15342775 0.05938109 0.31643382 0.98276341 -0.18481156 -0.0045644743 0.00028587293
0.46131101 0.058148287 0.31711453 -0.98111475 -0.19342314 0.0011909907 0.00010406677
0.49533659 0.053741012 0.31560594 -0.98766184 -0.15660135 -3.2258224e-05 0.0006394065
-0.18551265 0.064730182 0.31545463 0.98297697 -0.18372868 0.00021596387 0.00010070615
-0.15252104 0.063939363 0.31680804 0.97702026 -0.21313839 0.0018362449 0.00010502126
0.45985392 0.065473482 0.31469223 -0.97995055 -0.19923337 0.0017371842 6.3375854e-05
0.46033826 0.063038565 0.31417575 -0.98048884 -0.19656065 0.0023678124 0.00016232688
0.49300647 0.06545525 0.31044009 -0.98047143 -0.19666104 0.00036489213 6.9502545e-05
-0.18287244 0.078003436 0.31362867 0.97500247 -0.22218934 -0.0014346049 0.00036054131
0.45808992 0.074341699 0.31824899 -0.97234702 -0.2334089 0.0078459289 0.0003549213
0.49113616 0.074857786 0.31562811 -0.97638369 -0.21603632 0.001811126 0.00033678397
-0.14696975 0.087424964 0.31661314 0.96151859 -0.27473971 -2.9237794e-06 0.00046900215
0.4550907 0.086002395 0.31795642 -0.96081179 -0.27701491 0.010169186 0.0004917116
0.48995543 0.080793947 0.31794715 -0.97302008 -0.23066819 -0.0049046264 0.00048065413
-0.17793913 0.097336963 0.31390041 0.95865124 -0.28446311 0.0082778027 0.00036294971
0.48710698 0.0928303 0.31560105 -0.96126992 -0.27558631 -0.0035225714 0.00048928277
-0.17538656 0.1048566 0.31050608 0.95320404 -0.30231455 -0.0028070062 0.00016807293
-0.14035302 0.10691717 0.31609607 0.93737549 -0.34831733 -0.0014931376 0.00024976552
-0.13986546 0.1083535 0.31049231 0.93858033 -0.34504214 -0.0035928849 0.00024823725
0.4470638 0.10964871 0.31674007 -0.93555772 -0.35316378 0.0026662264 0.00049043261
0.48462427 0.10014428 0.31259492 -0.95637238 -0.29213965 -0.0025001643 0.0003028129
-0.17162624 0.11593416 0.31324345 0.9429118 -0.33304062 0.0011265173 0.00010412486
-0.13719501 0.11622041 0.31447658 0.93291289 -0.3600536 -0.0059180497 0.00037463696
0.44618621 0.11223406 0.31085601 -0.93490899 -0.35488564 -0.0011430063 0.00041830595
0.47859496 0.11790591 0.31122172 -0.94473803 -0.32782534 -0.00078550441 6.2760155e-05
0.48025566 0.11301374 0.31773803 -0.94427878 -0.3291463 0.00052188995 6.6875735e-05
-0.13163273 0.12868036 0.31840211 0.91397232 -0.40575922 -0.0037586244 0.00047966521
0.44327056 0.12056959 0.31824395 -0.92534316 -0.37912866 -0.001265193 0.00059278344
0.47648066 0.12413447 0.31539276 -0.9439289 -0.33014852 -0.00041594214 7.1992232e-05
-0.16473523 0.13506362 0.31641716 0.91480982 -0.40388453 0.00051542523 0.00028740303
-0.13031329 0.13135591 0.31013677 0.90885729 -0.41707578 -0.0051211948 0.00032103976
0.43576506 0.13578923 0.3118076 -0.90408802 -0.4273341 -0.0032383539 0.00028018962
0.47007018 0.13973391 0.31246513 -0.91594476 -0.40130144 0.0015595946 0.00051029125
-0.12430011 0.14354944 0.31841356 0.89061612 -0.45475581 -0.00028842859 9.8254997e-05
0.42601275 0.15529853 0.3140929 -0.87424767 -0.48547983 0.00067154109 0.00043026512
0.46257925 0.15492399 0.31533045 -0.89318854 -0.44968209 -0.00038466789 0.00011530101
-0.14808482 0.16882735 0.31383935 0.87209004 -0.48933062 -0.0038104432 0.00069921295
0.41837454 0.16731979 0.31422329 -0.84583622 -0.53344047 -0.0015747827 0.0004012037
0.42167813 0.1623756 0.31113964 -0.84862643 -0.52898878 -0.0020033596 0.00026276428
-0.14435197 0.17523897 0.31400597 0.85853982 -0.51270795 -0.0063254111 0.00041788668
-0.1052626 0.17551208 0.31763688 0.82560658 -0.56424528 0.0010632783 0.00017003498
0.41486627 0.1725703 0.316836 -0.83073628 -0.55666518 -0.0010960329 0
0.4510667 0.17691255 0.31600541 -0.85643262 -0.5162428 0.0040670936 0.00071214809
-0.10093033 0.18199575 0.31191513 0.81317037 -0.58202326 0.0017134317 0.0003946267
-0.098213471 0.18606181 0.31485006 0.80419463 -0.59432369 0.0070993449 0.00032170728
0.40842524 0.18220998 0.31635156 -0.81447917 -0.58015001 0.0070487293 0.00027741096
0.44452381 0.18670467 0.31279427 -0.83733821 -0.54668421 0.0011080494 0.00011337173
-0.092591241 0.19361109 0.31751311 0.7860269 -0.61817616 -0.0044710166 0.00039083973
0.43674773 0.19834238 0.31521028 -0.82286102 -0.56824201 0.0008323972 0.00015236803
-0.12541524 0.20387152 0.31607687 0.80671018 -0.5909465 -0.00097313081 0.0005510656
-0.083339095 0.2041764 0.31381434 0.76033062 -0.64952826 0.0032290146 0.00021369579
0.38686168 0.2088692 0.31638575 -0.74512911 -0.66691738 0.0019280115 0.00016163973
0.39184391 0.20318805 0.31609005 -0.7612384 -0.6484713 -0.0010466425 8.57368e-05
0.43467858 0.20143907 0.31843573 -0.81917572 -0.57354176 0.00097130012 0.0002376889
-0.11994389 0.21174607 0.31113777 0.7841199 -0.62058163 0.00586587 0.00050549727
0.37851855 0.2183827 0.31296766 -0.71154302 -0.70263571 0.0031025005 0.00059088122
0.38349518 0.21270794 0.31493917 -0.74069512 -0.67184132 -1.2706802e-05 0.00034516808
0.42471918 0.21501042 0.31822827 -0.78423548 -0.62046301 0.00060667883 0.00045912815
-0.10759258 0.22583005 0.31911224 0.75996006 -0.6499697 -0.00033858584 0.00012130135
-0.067107171 0.22246893 0.31536484 0.70274574 -0.71140337 -0.0073296698 0.00061523879
0.37295154 0.22404195 0.31203327 -0.70428503 -0.70991564 0.001534428 0.0006345454
0.35896108 0.23631127 0.31838509 -0.66482824 -0.74699628 1.1470673e-05 5.2332318e-05
0.3654474 0.23062292 0.31230298 -0.67684996 -0.73611861 0.001878761 0.00036736912
0.41056299 0.23115247 0.31337643 -0.74389726 -0.66829407 6.0372768e-05 0.00011420047
-0.044305623 0.24246538 0.31547982 0.6314981 -0.77537322 0.0025504609 0.00041075051
0.34702489 0.24677904 0.31078961 -0.61127096 -0.79140872 0.0044954121 0.0005797593
0.39857838 0.24481106 0.3111558 -0.71069914 -0.70348412 -0.004099567 0.00065768807
-0.031372353 0.25261411 0.31558806 0.58380419 -0.81189442 1.7196868e-05 0.00030077991
-0.023627151 0.25778928 0.31388009 0.56909418 -0.82227236 -3.1122231e-06 0.00020347974
-0.070716143 0.26254717 0.31448472 0.64828414 -0.76139784 0.00098352216 0.00012840441
-0.067822427 0.26508489 0.31619459 0.64886314 -0.76090187 0.0022548612 0.00010553993
-0.015432192 0.26326498 0.31627846 0.54239118 -0.84009123 0.0076575559 0.00023233915
0.32594195 0.26134616 0.31419033 -0.54670966 -0.83729815 0.0063543506 0.00033191085
0.37722793 0.26353487 0.31894046 -0.65567118 -0.75504494 -0.0015178426 0
-0.053133395 0.27717564 0.31539682 0.59123892 -0.80646223 0.007435251 0.00044365536
-0.0036437591 0.27111477 0.3156974 0.51561588 -0.85681927 -0.0010135808 0.00061575585
0.0064089363 0.27621529 0.31039664 0.47173256 -0.88174081 0.0012490536 0.00040858379
0.30058122 0.2765348 0.31072739 -0.478091 -0.87831026 -0.00041874088 0.00043687641
0.36274934 0.27583915 0.31602126 -0.59540081 -0.80342764 -0.0013920174 0.00050769118
-0.043893296 0.28334969 0.31121284 0.56134856 -0.82757825 0.0014599732 4.8407011e-05
-0.036978368 0.28797013 0.31326342 0.55046099 -0.83486062 0.00060810457 7.3811963e-05
0.34415451 0.28827882 0.31380367 -0.55265492 -0.83341014 0.00024015039 0.00015722281
-0.033720437 0.29014701 0.31768575 0.55063558 -0.83474571 0.0002045271 9.0473521e-05
-0.025364241 0.29573044 0.31645298 0.51858062 -0.85502142 -0.0035258445 0.00053430372
0.038348317 0.29126847 0.31660801 0.34579077 -0.93831092 0.0012268447 0.0003007359
0.04834174 0.29466078 0.31987479 0.3307133 -0.94372851 -0.0022768427 0.00020902752
0.25637016 0.29565412 0.31533319 -0.32702661 -0.94501376 -0.0016385565 0
0.2626501 0.2935223 0.31534776 -0.33892557 -0.94080186 -0.0046257703 0.00015011715
0.32904151 0.29837695 0.31992018 -0.50830883 -0.86116147 0.0047966321 0.00062386098
0.33716285 0.29295045 0.31171024 -0.52783918 -0.84932715 0.0054021436 0.00033037356
-0.0070286836 0.30583894 0.31765136 0.46185547 -0.88693613 -0.0058260332 0.00025661138
0.07464096 0.30325997 0.31476551 0.25598359 -0.96666008 -0.0063774902 0.00054061145
0.082920879 0.30495584 0.3122451 0.21779408 -0.97598994 -0.0030799564 0.00020898695
0.092162006 0.30679399 0.31066501 0.20552023 -0.97865266 0.00065250287 0.00013130973
0.10640445 0.30962703 0.31150079 0.1596943 -0.98716617 0.00088992197 0.00033624013
0.20249245 0.30937663 0.31634241 -0.13696782 -0.99049771 0.012414587 0.0004940838
0.23431899 0.30304593 0.31061396 -0.25599453 -0.96661764 -0.01082074 0.00064965663
0.2420686 0.3005088 0.31515688 -0.29254669 -0.95623243 -0.0060000489 0.00041730338
0.30712348 0.3095589 0.31990725 -0.44352147 -0.89626378 0.00011109382 0
0.31174186 0.30728137 0.31294218 -0.45437706 -0.8908053 0.0027280678 0.00016119839
0.32067627 0.30287543 0.31776622 -0.48822859 -0.87271208 0.0025563859 0.00060642074
0.0066387807 0.31257901 0.31004566 0.43810341 -0.89892459 -0.00024948522 1.1544686e-05
0.018556749 0.31845626 0.3164306 0.39704257 -0.91772109 0.01205416 0.00071031088
0.10836122 0.31001627 0.31373137 0.1477243 -0.98896319 -0.01136577 0.00062634784
0.11552566 0.31108931 0.31538656 0.12425078 -0.9922151 -0.0084229391 0.00033283679
0.12442784 0.31167281 0.31958437 0.098148532 -0.99515545 -0.0056979526 0.00035921877
0.13744807 0.31252617 0.31607097 0.056802262 -0.99837989 0.0033324268 0.00028089937
0.14772139 0.31319955 0.31311816 0.018240584 -0.99979001 -0.0093417382 0.00053168728
0.16078648 0.31314254 0.31404477 -0.025992163 -0.99965823 -0.0027873616 0.00031529865
0.17321812 0.31232771 0.31754926 -0.067485444 -0.99771762 0.0022613443 0.00021449482
0.18175027 0.3117685 0.31475866 -0.094368055 -0.9955374 -5.079402e-05 0.00028609324
0.28939134 0.31830341 0.31296569 -0.39185163 -0.91998386 -0.0090539269 0.00063811499
0.29362002 0.31621802 0.31896004 -0.40984574 -0.91215295 -0.0018686986 0.00054592366
0.0487151 0.32912162 0.31944162 0.32054067 -0.94723481 -9.6005766e-05 4.4237456e-07
0.26599124 0.32672226 0.31492597 -0.32614759 -0.94531882 -0.00023640045 0.00016779822
0.27583054 0.32338229 0.31294569 -0.34882656 -0.93717283 -0.0052150777 0.00043171592
0.065142944 0.33456856 0.31605101 0.25691488 -0.96639407 -0.0087938113 0.00039816229
0.078646965 0.33725464 0.3111873 0.20945625 -0.97781724 -0.0013053465 0.00013748574
0.083158284 0.33815202 0.31896666 0.20449798 -0.97886664 0.00084989611 1.3382333e-05
0.21960382 0.33912188 0.31891823 -0.19860324 -0.98007917 -0.0012488033 4.8476053e-05
0.22360605 0.33832586 0.3188712 -0.20409824 -0.97895002 0.0008203765 0.00015917368
0.23499882 0.33605966 0.31403023 -0.22284169 -0.97485459 0.00019165438 0.00048201508
0.24736458 0.33304518 0.31537536 -0.26300991 -0.96478719 -0.0033856835 0.00057735405
0.2514919 0.33164418 0.31556699 -0.27976507 -0.96006668 -0.001861398 0.00066989026
0.097793907 0.34106323 0.31399161 0.17396684 -0.9847514 -0.000518388 0.0002200645
0.12920845 0.34456784 0.31686401 0.070150003 -0.99753606 -0.00087618205 2.1140524e-05
0.1674234 0.34528926 0.31611478 -0.055103898 -0.99846882 0.0048564267 9.2570976e-05
0.18942751 0.34384701 0.31456456 -0.097580224 -0.9952268 0.0013335733 0.00030263007
0.20215179 0.34259331 0.31375176 -0.15270497 -0.98825032 0.0065303263 0.00039843639
0.21249543 0.34053588 0.31454304 -0.17946781 -0.98376352 0.00082588906 0.00019054176
0.099064365 -0.34131595 0.3287763 0.15786099 0.9874596 0.0018855579 0.00032096964
0.11665304 -0.34374499 0.32361108 0.10880034 0.99406356 0.00034972577 0.00051614217
0.12453644 -0.34426171 0.32893378 0.086484455 0.99625075 0.0022172744 0.0001931536
0.16276713 -0.34559447 0.32637453 -0.042901676 0.99907786 -0.0016993753 0.00019339018
0.1783623 -0.34457231 0.3286607 -0.074144721 0.99724746 -0.00021238723 0.0001887641
0.19669288 -0.34336901 0.3287603 -0.12337979 0.99235821 0.0016360494 0.00052642846
0.20725781 -0.34157771 0.32712066 -0.15556997 0.98782444 -0.00096835371 0.00045659338
0.057275712 -0.33202761 0.32611361 0.30319002 0.95286465 0.01117512 0.00016680804
0.060596317 -0.33315477 0.32947925 0.27820364 0.96048093 0.0088971658 0.00040113047
0.21801418 -0.33943811 0.32683337 -0.18749706 0.98226422 0.0013547556 6.4035215e-05
0.22926714 -0.33719978 0.3238883 -0.20899281 0.97791713 -0.0002524677 0.00011429373
0.24324483 -0.33424741 0.32472479 -0.26224548 0.96498412 0.0057401829 0.00068136974
0.25524548 -0.33036998 0.32193333 -0.29206952 0.95637244 0.0068692667 0.00034379587
0.027586361 -0.32194936 0.32001504 0.36311087 0.93173432 -0.0046508326 0.00049681595
0.032192159 -0.32351285 0.32343328 0.34076381 0.94014657 -0.0020988693 0.00031318763
0.045243297 -0.32794315 0.32560715 0.31974161 0.94750476 0.00020434428 2.5014349e-05
0.050172947 -0.32961649 0.32029697 0.30445954 0.95250762 0.005797701 0.00016802899
0.26800418 -0.32603899 0.3286112 -0.32899702 0.94433051 -0.00092380511 0.00014761294
0.0094857393 -0.31398296 0.32924119 0.42068115 0.90720165 0.0035450505 0.00020967601
0.11546493 -0.31108534 0.32504061 0.11826876 0.99298155 0.00041956146 0.00066858879
0.13841969 -0.31258991 0.32746103 0.049263306 0.9987852 0.001161274 0.00021383169
0.14049807 -0.31272608 0.32120284 0.042024441 0.99911499 0.001771746 0.00030616671
0.15210737 -0.31348699 0.32459298 0.0020332634 0.99999642 0.0017323089 0.00058044016
0.16606563 -0.31279653 0.32375783 -0.033057954 0.99944216 -0.0047384663 0.00036327963
0.17496406 -0.3122133 0.3259708 -0.068472572 0.9976458 0.0037977132 2.4339313e-05
0.18125549 -0.31180096 0.32723969 -0.074838012 0.99719399 0.0018418544 0.0002006032
0.19304594 -0.31102812 0.327007 -0.11470405 0.99339217 0.0038693473 0.00036808895
-0.016402926 -0.30121613 0.32957429 0.48482653 0.87460577 -0.0028334283 0.00045717033
-0.0035137492 -0.30757236 0.32597864 0.45161092 0.89221472 -0.00062363484 9.2236201e-05
0.066320442 -0.30076379 0.32512611 0.27826279 0.96048886 -0.0055685961 0.00057504035
0.075511694 -0.30348212 0.32333407 0.24663161 0.96910888 0.00086116954 0.00059008185
0.084286898 -0.30522761 0.32736403 0.21672501 0.97623205 0.001113706 0.00021462239
0.10218755 -0.30878827 0.32405102 0.17056915 0.98533756 -0.0040068892 0.00036671429
0.24096358 -0.30088395 0.32680428 -0.28589574 0.95826048 0.00073922623 0.00030562998
0.31409663 -0.3061201 0.32442784 -0.45403922 0.89098167 3.4587105e-05 0
-0.025307147 -0.29576859 0.32115522 0.52503037 0.85108066 -0.0021983047 0.00043663447
0.037867475 -0.2911053 0.32499674 0.37671205 0.92633015 0.00063438801 0.00058670837
0.043078903 -0.29287434 0.3237201 0.33746603 0.94133353 -0.0027922511 0.00023714597
0.050666545 -0.29545 0.32596427 0.32694328 0.94504398 0.00011242378 0.00011045462
0.025939614 -0.28584674 0.32549259 0.41293949 0.91073841 0.0060405093 0.0003975427
0.28413957 -0.2846429 0.32544747 -0.436593 0.89965892 -0.00066446466 0
0.34400135 -0.2883811 0.32114083 -0.56035054 0.82825547 0.0001515092 0
-0.054596782 -0.27619785 0.32325074 0.59644443 0.80265224 -0.0018222303 0.00056258735
-0.0014442933 -0.2723425 0.32211995 0.48633179 0.87377113 0.0023483159 0.00042648075
0.0086464165 -0.27731872 0.32627353 0.46147528 0.88715136 -0.001720941 0.00028775597
0.012059247 -0.27900171 0.32569575 0.4501749 0.89293623 -0.0027024478 0.00015448988
0.3016533 -0.27600613 0.32728529 -0.47457033 0.88021743 0.00048596464 0.00055008585
0.31053856 -0.27162442 0.32811481 -0.50317687 0.86418295 0.00095789338 0.00072508457
0.36691499 -0.27257913 0.32642639 -0.61073202 0.79183716 0.0004997903 0.00073131733
-0.069601603 -0.26352459 0.32982752 0.64965332 0.7602213 0.0037590282 0.00010410238
-0.010912108 -0.26628521 0.32748675 0.524499 0.8514092 0.0017912569 0.00042297429
-0.0067998958 -0.2690329 0.3216123 0.51577222 0.85672528 -0.00086080475 0.0005553136
0.3219071 -0.2640422 0.32336986 -0.54353887 0.83938378 -0.00064444618 9.6944204e-05
0.37293822 -0.26729688 0.32124484 -0.63359994 0.77363604 0.0061905659 0.0004232254
-0.079432428 -0.2549032 0.32661572 0.67373866 0.73895997 -0.0037987581 0.00021976751
-0.030008914 -0.25352514 0.32707277 0.57185727 0.82032573 -0.0067100753 0.0002446968
0.33402419 -0.25594583 0.32010135 -0.57364601 0.8191033 0.00016773863 9.2182265e-05
0.38631439 -0.2555663 0.32740435 -0.66694015 0.74511123 -0.00017010565 0.0002724404
-0.090033792 -0.24560605 0.32299718 0.70183539 0.71232533 0.0044473275 0.00050035771
-0.037713572 -0.24824643 0.3257544 0.61859435 0.78567058 -0.0079174116 0.00046879263
0.34918875 -0.24488136 0.32519865 -0.63002712 0.77647942 0.012060248 0.00044495976
0.35142341 -0.24292162 0.32493246 -0.63004285 0.77646482 0.01217701 0.00041679913
0.40088722 -0.24218556 0.32626396 -0.71288228 0.70126021 0.005746895 0.00040398422
-0.10190642 -0.23231387 0.32901806 0.7407397 0.67178881 -0.0021381795 0.00020158108
-0.097306244 -0.23755936 0.32555112 0.72621334 0.68744916 0.0052846828 0.00036001953
-0.053588863 -0.23432417 0.32674429 0.66968209 0.74264669 -0.001315665 0.0001200363
0.36349142 -0.23233826 0.32726046 -0.66644526 0.74555391 0.00013666016 0.00021949192
-0.062895484 -0.22616248 0.32205558 0.69054013 0.72329354 0.00091504928 0.00033773007
0.37591058 -0.22135654 0.32599968 -0.71265972 0.7014423 -0.0097348802 0.00051757402
-0.12095539 -0.21054614 0.32447496 0.79171383 0.61085093 0.0070922868 0.0006019001
-0.11408794 -0.21842352 0.32374188 0.76530343 0.64366215 0.0031045773 0.0003432541
-0.071269497 -0.21793914 0.32417476 0.72165138 0.69224912 -0.0032291689 0.00047444136
0.42582354 -0.21375114 0.32440454 -0.78647566 0.61762118 0.00015584631 0.0002029014
-0.084897138 -0.20239979 0.32757053 0.76158476 0.64806288 -0.0017813653 0.00020705105
-0.079595089 -0.20844559 0.3204383 0.7459982 0.66594261 0.0026736076 0.00013541753
0.38898942 -0.20644298 0.32599753 -0.75903654 0.65104628 0.0015057806 0
0.39085877 -0.20431137 0.32475629 -0.76137459 0.64830536 0.0029695253 0
0.43296862 -0.20399822 0.32277262 -0.81136376 0.58450854 0.0062208166 0.0001819646
-0.090749234 -0.19572674 0.32685781 0.77662146 0.62995517 0.0039546071 0.00058355817
0.39845961 -0.19564427 0.3282899 -0.78182846 0.62349343 -0.00034470842 0.00050051982
-0.13827685 -0.18462276 0.32171157 0.84281766 0.53818631 -0.0037243089 0.00011582837
-0.10118051 -0.18162134 0.32931978 0.8163172 0.57754952 -0.0079205558 0.00039982889
-0.096891157 -0.18804079 0.32930121 0.79593605 0.60536224 0.004727799 0.00053495332
0.40602231 -0.18580617 0.32328716 -0.80441451 0.59406465 0.0021113828 0.00054640998
-0.14401993 -0.17602761 0.32053235 0.85659099 0.51598263 -0.0037119847 0.00047006781
-0.10567732 -0.17489135 0.32047909 0.83038968 0.55717379 -0.0032257105 0.00023137991
0.41410181 -0.17371435 0.32811159 -0.82922906 0.55890787 0.0010288922 0.00022490455
0.45057607 -0.17764685 0.32311666 -0.86422145 0.50307864 0.0057536992 0.00071776501
-0.11483636 -0.16118389 0.32472882 0.86372381 0.5039596 0.0024366828 0.00083319948
0.41886228 -0.16658978 0.32946873 -0.84234118 0.53894275 0.0014141685 0.00034660104
0.42114633 -0.16317149 0.32431173 -0.84967017 0.52731144 0.0018087593 0.00042855291
-0.15542139 -0.15395026 0.32582888 0.89525092 0.44555718 0.0021678032 8.4909188e-05
-0.12032131 -0.15161765 0.32351023 0.87819391 0.478295 0.0030542791 0.00073344569
-0.11774953 -0.15682404 0.32940707 0.86550903 0.50087976 0.0036904402 0.00071246072
0.42598617 -0.15561885 0.3261179 -0.86698961 0.49831697 -0.0030346273 0.00055044639
0.46413344 -0.15177235 0.32756215 -0.89470172 0.44666398 0.00027979011 8.8494497e-05
-0.16122961 -0.14217231 0.32200187 0.91062707 0.41322741 -0.0011638805 0.00040928615
-0.15939033 -0.14590202 0.32411242 0.90467042 0.42610854 -0.0017364837 0.00022427703
0.43028504 -0.14690164 0.32265168 -0.88332671 0.46875623 -0.001194305 0.00025585716
0.46967003 -0.14054529 0.32300031 -0.91233206 0.40943563 -0.0035652248 0.00034975816
-0.12840164 -0.13523239 0.32726011 0.89768112 0.44064566 -0.00020527832 9.8984201e-05
-0.1674069 -0.12836391 0.3246043 0.92952031 0.36869872 -0.0073017534 0.00052751572
-0.13276954 -0.12637515 0.32059616 0.90996701 0.41465163 0.0049039992 0.00035551583
0.4428449 -0.12143281 0.32533371 -0.92227572 0.38643587 0.0086479774 0.00057362259
0.474572 -0.12975721 0.3268764 -0.9267534 0.37564424 0.0044212951 0.00050066411
-0.17128929 -0.11692673 0.32241857 0.94084978 0.33881333 -0.0026787557 0.00016427819
-0.13699722 -0.11680306 0.3206116 0.92485595 0.3802956 0.0040969201 0.00051290297
0.44613492 -0.11238518 0.32090044 -0.93687975 0.34963322 0.0035987152 0.00044432323
0.48099965 -0.11082194 0.32181072 -0.94691694 0.32147846 -9.8900135e-05 0
0.48151097 -0.10931563 0.32188499 -0.9469074 0.32150644 -9.5505733e-05 0
-0.17890295 -0.094497658 0.32830316 0.95767975 0.28773585 0.0075812959 0.00043351244
-0.14420033 -0.095583424 0.32659948 0.95291817 0.3032085 0.0034005132 0.0001510508
0.45156467 -0.096389726 0.32056767 -0.95021176 0.3116028 -0.0011418446 2.8148093e-05
0.45379943 -0.089806266 0.32950526 -0.95895875 0.28352129 0.0037083875 0.00055712328
-0.18368426 -0.07392215 0.32510644 0.97716469 0.2123685 -0.0069846171 0.00012443603
-0.15096912 -0.071741417 0.3256343 0.97669035 0.21439171 -0.010590754 0.00027834065
0.4586457 -0.071547687 0.32191378 -0.97047478 0.24118441 0.0029619252 0.00021780883
0.49087286 -0.076181695 0.32461682 -0.9784444 0.20647694 0.0037041777 3.8928538e-06
0.49335408 -0.063707769 0.3272602 -0.98329216 0.18200333 0.0033474744 9.2727794e-05
-0.15459651 -0.05350529 0.32313573 0.98575503 0.16791394 0.0095903575 0.00023812622
0.46220475 -0.053655136 0.32562104 -0.98554081 0.16943306 -0.0012837927 7.4840216e-05
-0.1554811 -0.049058173 0.32363093 0.98691618 0.16118903 0.0038121855 0.00037344557
0.49713826 -0.043479819 0.32304907 -0.9934172 0.11455183 -0.00037311751 0.00039547979
-0.19036457 -0.03047378 0.32671785 0.99785906 0.0654006 3.7390953e-05 2.073123e-05
-0.15739851 -0.036337659 0.32301596 0.99361503 0.11282181 0.00071271736 0.00045249748
0.49769107 -0.035227425 0.3273131 -0.99416244 0.10789307 -0.00048678834 0.00064149417
-0.19075543 -0.024510209 0.32537735 0.99831522 0.058018953 -0.0005990098 3.5172237e-05
-0.15781944 -0.029915327 0.32271481 0.99579823 0.091571838 0.00067581562 0.00028263673
0.49807894 -0.029309548 0.32730085 -0.99748456 0.070857808 -0.0019432487 1.413066e-05
-0.19108424 -0.019493852 0.32213974 0.99831516 0.058021262 -0.00059950416 5.2055406e-05
-0.15866636 -0.016993908 0.32383403 0.99784482 0.065592714 -0.0018177249 3.7333346e-05
0.46638227 -0.015806263 0.32550162 -0.99930209 0.037203331 -0.003368329 0.00029055341
-0.19199713 -0.0055656531 0.32924241 0.99971741 0.022985104 0.006073127 0.00050303241
-0.15923005 -0.0083936062 0.32494354 0.99952227 0.029698692 0.0085563436 0.00049163896
0.46692279 -0.0075591151 0.32789603 -0.99972677 0.023327092 -0.0015170944 0.00040696564
0.4998247 -0.0026743454 0.32613754 -0.9990617 0.043216623 -0.0028636546 0.00021829834
-0.19202127 0.0051973318 0.32563725 0.99980879 -0.017997107 0.007646881 0.0005981166
0.46697593 0.0067486465 0.3245751 -0.99971348 -0.022887912 -0.0070073484 0.00037032313
-0.19144516 0.013987306 0.32549304 0.9990747 -0.04298126 0.0015323692 0.00026599312
-0.15873969 0.015874881 0.32457089 0.99850249 -0.054654673 -0.0023789869 0.00015299142
0.46663564 0.0119401 0.32991269 -0.99934518 -0.035937387 -0.0041927225 0.00026647482
-0.19054148 0.027774503 0.3237955 0.99719965 -0.074773923 0.0012878722 0.00013886053
0.46607697 0.020463798 0.3229425 -0.99810094 -0.061592463 -0.00089866359 0.00023597659
0.49810418 0.028924588 0.32299194 -0.99673021 -0.080619276 0.0054247035 0.00023964587
-0.19012083 0.034192551 0.32513386 0.99504656 -0.099364899 -0.0030020245 0.00042973031
-0.18986754 0.038057037 0.32836708 0.99358124 -0.11309673 0.0023576324 0.00048380476
-0.15759881 0.033281621 0.32237634 0.99340278 -0.11458977 -0.0044687758 0.00031932088
0.4648369 0.039383918 0.32020351 -0.99223101 -0.1244081 0.00036908861 0.00062053226
0.49758482 0.036848616 0.32198438 -0.99301624 -0.11797492 -0.00082802394 0.00039977246
-0.15644974 0.044188514 0.32639673 0.99067867 -0.13619761 0.002483546 0.00047752392
0.49675548 0.046607777 0.32653546 -0.98987651 -0.14190389 0.0027824433 0.00060034572
-0.1542619 0.055187441 0.32955667 0.98553187 -0.16948691 -0.001043243 0.00019660089
0.4620474 0.05444609 0.32613623 -0.98342043 -0.18133935 0.00055007869 0.00018650653
0.49501038 0.055381089 0.3266215 -0.98580354 -0.16785003 0.004215294 0.00034789077
-0.1861662 0.061444603 0.32179052 0.98424166 -0.17682803 -0.00038384963 0.00014245315
-0.15178323 0.067648664 0.32583871 0.97497314 -0.22226934 -0.0048709293 0.00020857994
0.49341351 0.063408971 0.32408071 -0.9822315 -0.18766674 0.0015970337 0
0.45803088 0.074638531 0.3279618 -0.97182304 -0.23569298 -0.0029621399 0.00054470141
-0.14632294 0.089330457 0.32168299 0.95895183 -0.28355363 -0.0029607869 0.00036200476
0.456606 0.081538282 0.3289609 -0.9667387 -0.25569439 0.0060560089 0.00062750315
0.48907286 0.085230693 0.32926077 -0.96852458 -0.24888946 -0.00376833 0.00032158796
-0.14386812 0.096562073 0.32236955 0.94818401 -0.31772074 -0.00078605616 1.6883341e-05
0.45206133 0.094926588 0.32346264 -0.95197564 -0.30617371 0.00030712908 0.00040256293
-0.17626934 0.102256 0.32262063 0.95238346 -0.30490288 -8.9310779e-05 0.00019194903
-0.14106546 0.10481842 0.32587194 0.94033056 -0.34013945 -0.0091423756 0.00027096167
0.44869107 0.104855 0.3231838 -0.94416875 -0.32945916 -0.0014412951 0.0002327023
0.48209071 0.10760782 0.32230398 -0.95081514 -0.30975667 -0.001195379 0.00029616483
-0.13880393 0.11148064 0.32168293 0.93480355 -0.35510373 -0.0066103814 0.00038428334
0.44540513 0.11453512 0.32542101 -0.93029469 -0.36680496 -0.0023959503 0.00064836326
0.47806513 0.11946675 0.32378903 -0.94442725 -0.32871696 0.0014980261 6.7859968e-05
-0.16842809 0.1253556 0.32749104 0.9356305 -0.3529802 0.00074133376 0.0003611139
-0.13344716 0.12500109 0.32427466 0.91759109 -0.39737886 -0.010796693 0.00042112725
0.47576991 0.12622823 0.32757938 -0.93015552 -0.36715946 -0.0021484285 0.00052146852
-0.16253114 0.13953309 0.3231658 0.91496313 -0.40344998 0.0084005352 0.00032620993
-0.1305601 0.13085544 0.32919502 0.91199154 -0.41020843 -0.00067247084 0.00043380054
-0.12732747 0.13741055 0.32520139 0.90272456 -0.43020862 -0.00299023 0.00013496811
0.47408238 0.13119952 0.32815096 -0.92590153 -0.37776113 0.0017224132 0.00055469974
-0.15927814 0.1461295 0.32620066 0.90425432 -0.42699155 0.001521146 0.00016122388
0.43104744 0.14535564 0.32255733 -0.88563377 -0.46435222 0.0054619513 0.00025187578
-0.1209719 0.15029839 0.32529014 0.88342625 -0.46855029 0.0043318076 0.00048560763
-0.11971671 0.15284364 0.32685322 0.87251139 -0.48848349 0.01037876 0.00065757666
0.42396662 0.15895064 0.32975203 -0.86551338 -0.50088203 0.0019188573 0.00036912877
0.4639197 0.15220582 0.3218047 -0.89783919 -0.44032365 -1.5918135e-05 0.00012485027
-0.14773169 0.1695434 0.32556486 0.86967081 -0.49333411 -0.017148677 0.00046236531
-0.10530813 0.17544392 0.32548696 0.82971424 -0.55816728 0.0048554265 0.00025685446
0.44951984 0.17922756 0.32129663 -0.85062432 -0.52576482 0.0031067249 0.00049166137
0.45279109 0.1743318 0.32209408 -0.86078703 -0.50896519 -0.00011964161 0.00066909147
-0.13805231 0.18495879 0.32453671 0.83668876 -0.54767841 -0.00064838951 4.9971834e-05
-0.10213438 0.18019378 0.32309395 0.81992859 -0.57246101 0.002353776 0.00015549488
0.40649548 0.18509802 0.3242054 -0.81186026 -0.58385175 -0.00024614521 0.00035779021
0.44495749 0.18605559 0.3246423 -0.83427453 -0.5513463 -0.0017931119 0
-0.1345409 0.19021398 0.3261067 0.83639407 -0.54812735 0.0011694826 2.3115757e-05
-0.091288626 0.19511169 0.32659864 0.7810781 -0.6244331 -0.00052105758 0.00045763195
-0.088880911 0.19785717 0.32128274 0.7805289 -0.62505597 -0.0089259455 0.0004024769
0.39716318 0.19712259 0.32533088 -0.7663669 -0.64238828 0.0043731551 0.00010658892
0.40030947 0.19353494 0.32952839 -0.78053445 -0.62507892 0.0064998069 0.00045713983
0.43879098 0.19528446 0.32901904 -0.82559663 -0.56425697 0.0020820699 4.1794712e-05
-0.12622041 0.20266648 0.3265855 0.81217217 -0.58341628 0.0013607617 0.00047347113
-0.080108419 0.20786028 0.32487106 0.74504501 -0.66701037 0.0022373786 5.9088397e-05
0.43485636 0.20117302 0.3231006 -0.81714231 -0.57643551 0.00077585172 6.8536465e-05
-0.073588945 0.21529429 0.32670793 0.73574567 -0.6772579 -0.00019824324 0.00034794075
0.3790935 0.21772711 0.326664 -0.71891451 -0.6950984 0.00040624765 0.00064288772
0.38327131 0.21296324 0.32465413 -0.73446602 -0.67864406 0.0013952944 0.00034973214
0.42425239 0.21554273 0.3208957 -0.78249705 -0.62265426 0.0001320373 0.00046505386
-0.10771625 0.22568901 0.32517171 0.76038861 -0.64946681 -0.0014137251 0.00017900277
-0.063279755 0.22575432 0.32259065 0.68761224 -0.72605795 -0.0054145381 0.0005330267
0.37706244 0.22004308 0.32712507 -0.70949715 -0.70469928 -0.0035766368 0.00069873122
0.41388291 0.22736686 0.32596907 -0.75143087 -0.65981036 -0.0013968626 7.031492e-05
-0.099883795 0.23462023 0.32617739 0.7374838 -0.67536217 0.0018616939 0.0002058984
-0.056645058 0.23164396 0.32823947 0.67213321 -0.74042976 -0.00078970764 0.00016335252
0.35798854 0.23716417 0.32150346 -0.657942 -0.75306612 -0.0019237556 0.0002497377
0.40639287 0.2359076 0.32243955 -0.73764163 -0.67518795 0.0024549933 0.00033261257
-0.046442755 0.24059115 0.32542571 0.640324 -0.768098 0.0032772049 0.00048022196
0.34583679 0.24771452 0.32498506 -0.62202787 -0.78298396 0.0041808891 0.00049462559
0.39889607 0.24445608 0.32887304 -0.71016675 -0.70399863 -0.0070077553 0.00070665771
0.40002069 0.24317366 0.32716036 -0.71500307 -0.69908494 -0.0071309442 0.00076249929
-0.024570331 0.25715911 0.32001004 0.56942296 -0.82204175 -0.0021707094 0.00030321153
0.3355028 0.2549578 0.3231217 -0.58168691 -0.81340265 0.0040586032 0.00045490515
0.38669389 0.25523347 0.32746267 -0.66704667 -0.74501467 0.001370253 0.0003562599
0.39166903 0.25087041 0.32424247 -0.68474859 -0.72875988 0.0053336909 0.00066150178
-0.064811669 0.26772523 0.32688743 0.63763994 -0.77033317 -0.0014583925 0.00033201082
-0.014940797 0.26359335 0.32498035 0.54012477 -0.84158319 -0.0017304325 0.00021199034
-0.0054827277 0.26991302 0.32349846 0.52128494 -0.85337317 -0.0040268418 0.00064771791
0.31430322 0.26912296 0.32057884 -0.51435256 -0.85753262 0.0089039169 0.00058533932
0.37623188 0.26440838 0.32890144 -0.64916068 -0.76061398 -0.007534354 0.00010718235
-0.06013298 0.27182835 0.32959804 0.63099468 -0.77577019 0.005135207 0.00040562495
-0.055170849 0.2757785 0.32815003 0.59913826 -0.80064297 0.0020599002 0.00058287889
-0.0019052424 0.27211115 0.32939953 0.50213081 -0.86475712 -0.0077220434 0.00074926426
0.29357114 0.27999178 0.32716793 -0.44422525 -0.89591396 0.0014171192 8.0420985e-05
0.30851793 0.27262086 0.32888982 -0.47727022 -0.87873179 0.0066091623 0.00053590169
0.31017751 0.27180248 0.32842654 -0.48041749 -0.87701833 0.006159802 0.0005439021
0.36462635 0.27418464 0.32520112 -0.60838401 -0.79362279 -0.0056386483 0.000563193
0.024451666 0.28511295 0.32638779 0.41320592 -0.91063726 -0.00090122927 0.00066492741
0.033633813 0.28964108 0.32379374 0.37347803 -0.92763269 -0.0034478931 0.00056403922
0.27867204 0.28733918 0.32381779 -0.39727125 -0.91768968 -0.0046207411 0.00043881376
0.28286031 0.28527376 0.32924139 -0.41107482 -0.91157031 0.0075599127 0.00037952475
-0.030110452 0.29255912 0.32102212 0.54144812 -0.84073371 0.00091420446 0.00030543166
-0.028246254 0.29380473 0.32454917 0.53178179 -0.84686494 -0.0052777557 0.00033160587
0.044150326 0.29323798 0.32248354 0.33404037 -0.94255632 -0.0021559543 0.00019245196
0.052270848 0.29599452 0.3263008 0.33076933 -0.94371158 -0.00014673459 0.00015552645
0.25696647 0.29545167 0.32420024 -0.33255574 -0.94307727 -0.0034742621 0.00026480516
0.27180618 0.29041427 0.32240495 -0.37482774 -0.92704505 -0.009571976 0.00050240924
0.3390435 0.29169384 0.3226476 -0.54367638 -0.83929354 0.0015225213 9.3954892e-05
-0.017523099 0.30066371 0.32647848 0.48947763 -0.87200534 -0.0042952937 0.0004913361
0.00086738076 0.30973282 0.32651365 0.44064462 -0.89767885 -0.0022217203 0.00011803298
0.066173919 0.30071402 0.32186401 0.28044721 -0.95986813 -0.0015867219 0.00041019957
0.086693548 0.30570626 0.3264356 0.2154506 -0.97651035 -0.0029300584 0.00017633739
0.098975919 0.3081494 0.32473454 0.16897357 -0.98562056 -7.9245656e-06 0.00032975391
0.10245872 0.30884215 0.32506746 0.16466175 -0.98634988 -0.00062989636 0.00034185985
0.20815171 0.30825093 0.32630426 -0.17780001 -0.98404759 0.0061228108 0.00018297604
0.21811318 0.30626947 0.32798988 -0.20356503 -0.97906119 0.00066975126 8.5797561e-05
0.23217955 0.30347148 0.32533115 -0.25317416 -0.96742064 0.00033830889 0.00058149354
0.31879944 0.30380094 0.32670674 -0.47544065 -0.87974292 0.0029294956 0.00052034983
0.32534024 0.30057541 0.32229465 -0.49394521 -0.86949033 0.0021865724 0.00058037962
0.0021938093 0.31038699 0.3291499 0.44028592 -0.89785701 -0.0010001946 0.00011574091
0.01903316 0.31869119 0.32525307 0.39532721 -0.91850001 0.0086159967 0.00075404427
0.12604821 0.31177902 0.3217296 0.096628457 -0.99532008 -0.00089819374 0.00036638507
0.16753381 0.3127003 0.32032585 -0.05256176 -0.99861407 0.0026819252 0.00017932255
0.17401151 0.31227571 0.3205581 -0.067444816 -0.99772048 0.0022508269 0.00021718083
0.19460747 0.31092578 0.32867756 -0.12663883 -0.9918862 0.011158811 0.00046118099
0.28841376 0.31878546 0.3261179 -0.38843948 -0.92146879 -0.0031611882 0.00060644536
0.29499304 0.31554097 0.32856864 -0.41455066 -0.9100253 -0.0013368677 0.0002655822
0.025980711 0.32140431 0.32549408 0.36907762 -0.92926127 0.015978871 0.00077555416
0.032284968 0.32354435 0.32312554 0.3336449 -0.94267392 0.006848556 9.9917139e-05
0.045393143 0.32799399 0.32508165 0.32481453 -0.94577616 0.0017526032 3.8563878e-05
0.050655998 0.32978046 0.32481074 0.32076442 -0.94715899 0.00022945578 0
0.26573366 0.3268097 0.32847917 -0.32415131 -0.94600528 7.1700866e-05 0
0.082763091 0.3380734 0.3257778 0.194782 -0.98084652 -8.6125001e-05 0
0.22388287 0.33827078 0.32386997 -0.20423779 -0.978921 0.00073686294 0.00012461771
0.23238182 0.33658022 0.32682323 -0.21989121 -0.97552383 0.001042546 0.00027065238
0.24620885 0.33340684 0.32138202 -0.26493374 -0.96426517 0.0016879874 0.00053233252
0.25404885 0.33077618 0.3216992 -0.3008779 -0.95366085 -0.0018870838 0.00026810195
0.095254198 0.34055802 0.32705662 0.17201714 -0.98508453 0.0043104063 0.00025164743
