# .PCD v0.7 - Point Cloud Data file format
VERSION 0.7
FIELDS x y z normal_x normal_y normal_z curvature
SIZE 4 4 4 4 4 4 4
TYPE F F F F F F F
COUNT 1 1 1 1 1 1 1
WIDTH 589
HEIGHT 1
VIEWPOINT 0 0 0 1 0 0 0
POINTS 589
DATA ascii
0.13802737 -0.07559149 0.34256899 0.85269821 -0.23043017 -0.46883655 0.015530281
0.14273809 -0.07743603 0.34959853 0.67680776 -0.21152183 -0.70511687 0.0094101708
0.21802688 -0.075754322 0.34604669 -0.79993004 0.19730255 -0.56673068 0.012479642
0.22164717 -0.07356105 0.34091145 -0.9020645 0.22391333 -0.36897507 0.0091258558
-0.48612839 -0.066539221 0.34646481 0.76538306 0.1959517 -0.61301851 0.010288582
0.22152811 -0.065621488 0.34470457 -0.75085449 0.18706049 -0.63342386 0.0062967748
-0.4921636 -0.052744612 0.34126949 0.87411994 0.090302803 -0.47724175 0.017385205
-0.41136742 -0.053123705 0.34573874 0.77360797 0.11857978 0.62247056 0.01230426
-0.40735948 -0.056409899 0.34052616 0.82552671 0.17889448 0.53525919 0.015532227
0.14315465 -0.051382925 0.34117812 0.88235843 -0.15108496 -0.44566473 0.01428143
0.22403944 -0.053973161 0.34500962 -0.81913638 0.15214902 -0.55305177 0.0089995228
-0.4915238 -0.04470852 0.34339273 0.85665756 0.067768127 -0.511415 0.016212268
-0.48844904 -0.04646948 0.34745163 0.77857774 0.051819757 -0.62540495 0.014751818
0.14623721 -0.041973762 0.34276026 0.86504817 -0.14186662 -0.4812125 0.017561808
0.15113647 -0.042652544 0.34982848 0.77421486 -0.14830859 -0.61530143 0.014196796
0.22579429 -0.046798717 0.34477687 -0.8001858 0.10971586 -0.58963126 0.012269059
-0.49188191 -0.033069644 0.34305757 0.86557996 0.052195508 -0.49804309 0.015096582
-0.4152683 -0.035087515 0.34747165 0.79304802 0.046766043 0.60736132 0.017740302
0.1467775 -0.039081041 0.34286278 0.88540518 -0.11186216 -0.45115912 0.014801835
0.15141197 -0.037463583 0.34862265 0.79558438 -0.11052792 -0.59567529 0.017278766
0.22593217 -0.038673673 0.34719408 -0.80572534 0.091703989 -0.58514702 0.011060576
0.23023538 -0.03837613 0.34026209 -0.90466517 0.051032811 -0.42305616 0.014464266
-0.49297011 -0.021728324 0.34155566 0.85733318 0.055289555 -0.51178408 0.016767267
-0.4144806 -0.025343841 0.34605587 0.84073955 0.063697822 0.53767979 0.0096828956
0.15108611 -0.026425065 0.34568629 0.84766877 -0.095446572 -0.5218693 0.015526001
0.22550894 -0.021833081 0.34788209 -0.80081141 -0.015697639 -0.59871083 0.012459832
-0.49123752 -0.015429446 0.34502408 0.84444857 0.054476347 -0.53285927 0.015742004
-0.41630626 -0.01472946 0.34803301 0.8429426 0.026445128 0.53735322 0.010040532
0.15129879 -0.012134687 0.34651887 0.84366488 -0.0028510005 -0.53686255 0.012986287
-0.49137735 -0.0039760009 0.345287 0.81978911 -0.039079994 -0.57133049 0.013291161
-0.48828989 -0.0086514615 0.34912896 0.75424623 0.020467093 -0.65627265 0.014732594
-0.4177267 -0.0040056501 0.34946734 0.7904399 0.05416112 0.61014044 0.011187474
0.1483551 -0.0038616997 0.34234622 0.84590787 0.04513137 -0.53141618 0.010217601
-0.49333763 0.0025833379 0.34241885 0.83466673 -0.019105919 -0.55042392 0.013092383
-0.41431975 0.0051104859 0.34416452 0.81547952 -0.0092367381 0.57871234 0.013030757
0.15184154 0.00089237094 0.34773254 0.79120302 0.014016577 -0.61139286 0.011083212
0.22696486 0.0076557631 0.34460407 -0.85142183 -0.0087363347 -0.5244087 0.019402614
-0.48899096 0.010305826 0.34895211 0.77106327 -0.0059529375 -0.63673079 0.014216201
-0.41747105 0.01863182 0.34825432 0.82717061 -0.063211389 0.5583843 0.01453881
0.14894521 0.014500872 0.34400702 0.83813816 0.0081900535 -0.54539645 0.010308908
0.15304431 0.014326833 0.34982216 0.76190591 0.018558212 -0.64742178 0.0093957046
0.22614664 0.013876908 0.34547484 -0.83490014 -0.013581844 -0.55023378 0.01400988
-0.49212503 0.02839045 0.34557065 0.83026129 -0.012472604 -0.55723482 0.013118827
0.14685251 0.02875937 0.34117147 0.88596392 0.063801251 -0.45934436 0.018132471
0.2250253 0.02307432 0.34647536 -0.79423583 -0.048675511 -0.60565686 0.016225005
-0.49294022 0.036693927 0.34410265 0.83919078 -0.079394311 -0.53801042 0.016154164
-0.48852664 0.038855948 0.34974372 0.76029104 -0.087612517 -0.64364707 0.015982883
-0.41814029 0.033039466 0.34993765 0.76807296 -0.07239227 0.63625729 0.0080638248
-0.491539 0.040585257 0.34540308 0.82657325 -0.10829192 -0.55231291 0.015772099
-0.41244638 0.043426827 0.34582645 0.84715414 -0.15998173 0.50669104 0.018484863
0.22545362 0.046423808 0.34523153 -0.86981142 -0.047593705 -0.49108338 0.0073789097
-0.48722601 0.053431071 0.34694561 0.80258667 -0.14767438 -0.57796782 0.016863715
-0.41128796 0.053670004 0.34742698 0.76053661 -0.14948215 0.6318537 0.015988132
-0.40743279 0.05146182 0.34035534 0.87817049 -0.22000454 0.42475235 0.011794351
0.14995073 0.052867748 0.34967643 0.71009129 0.14371969 -0.68928581 0.01219011
0.22514868 0.058033157 0.34503555 -0.83033627 -0.19508667 -0.52199888 0.014087928
-0.48626244 0.068491057 0.34326181 0.84920061 -0.196703 -0.4900676 0.014578611
-0.40549713 0.06877587 0.34460717 0.83372861 -0.17922121 0.52227992 0.017006757
0.22654521 0.061108619 0.34118843 -0.89360583 -0.18825029 -0.40746844 0.011345867
-0.48126584 0.076294236 0.34773451 0.79363561 -0.17011251 -0.58412689 0.011826815
-0.40420887 0.077843852 0.34558046 0.80977935 -0.17166716 0.56105953 0.015226699
0.22088933 0.079101235 0.34177831 -0.85924268 -0.25500241 -0.44348148 0.013062537
-0.48066983 0.088349544 0.34487709 0.8310374 -0.19522271 -0.52083099 0.013112826
-0.40096879 0.085870527 0.34376177 0.81117666 -0.2294426 0.53791118 0.016564423
0.13806464 0.085949242 0.34723395 0.73731673 0.24650571 -0.62896657 0.0074263075
0.21684459 0.087720901 0.34446138 -0.7819894 -0.21394314 -0.58542371 0.01362288
-0.48022598 0.095270365 0.34311986 0.85289484 -0.21764493 -0.47455347 0.011413961
0.13142216 0.096752554 0.34239793 0.81049848 0.32043913 -0.49031731 0.018335642
0.21260053 0.097846687 0.34546807 -0.78705138 -0.22778736 -0.57329142 0.012174077
-0.47754514 0.10886746 0.34187108 0.84225965 -0.19561203 -0.50232929 0.012983953
-0.39363322 0.10748264 0.34352008 0.80688936 -0.38702384 0.44625333 0.014524874
0.12665737 0.10914619 0.34000504 0.8229689 0.3432194 -0.45268375 0.012142098
0.13045257 0.10202858 0.3437556 0.78074437 0.30856201 -0.54334867 0.0099026337
0.20984712 0.10618174 0.34627962 -0.75677496 -0.26650515 -0.59688073 0.01496026
0.21447238 0.10290869 0.34009093 -0.85410053 -0.25973257 -0.45061204 0.01527866
-0.47333723 0.11468666 0.34628654 0.78660554 -0.23601772 -0.57056749 0.011328257
0.12752175 0.1113046 0.34350345 0.78525496 0.31966597 -0.53027201 0.0098444968
0.20824386 0.11722387 0.34363446 -0.80911505 -0.2688708 -0.52253348 0.01738755
-0.47415766 0.12418444 0.34132808 0.82568008 -0.30448517 -0.47491178 0.013600217
-0.38611108 0.12642586 0.34685552 0.71597499 -0.41629025 0.56043035 0.013840406
0.12228449 0.12551925 0.34579104 0.73897588 0.36044112 -0.56920725 0.017996376
-0.4718613 0.13180719 0.3407923 0.81507498 -0.33419463 -0.47325119 0.013774934
-0.37873149 0.13340728 0.34188205 0.79105741 -0.42442116 0.44056213 0.0065902928
0.11670063 0.13986978 0.34943148 0.69470966 0.45518675 -0.55694121 0.010731295
0.20199546 0.13540182 0.34475589 -0.82901555 -0.27586681 -0.4864471 0.010550213
-0.46389601 0.14411566 0.34359488 0.75454223 -0.39392263 -0.52487236 0.012510107
-0.37723428 0.1413229 0.34587008 0.76490217 -0.41553849 0.49219143 0.015848387
0.10867962 0.14491057 0.34398898 0.74852055 0.46121654 -0.47644138 0.0096430061
0.19742972 0.14699866 0.34641162 -0.77127355 -0.30698556 -0.55758131 0.014813072
-0.37275231 0.15165871 0.34711149 0.69147503 -0.42681628 0.58282936 0.016843291
0.099604636 0.15639123 0.34020174 -0.74752265 -0.49666369 0.44106129 0.014339625
0.10261521 0.15670376 0.34486759 0.67609227 0.40727711 -0.61402321 0.0050802338
0.18916105 0.15966609 0.34736675 -0.69354391 -0.36524686 -0.62096024 0.0086426195
0.19396581 0.15587108 0.34420386 -0.74283141 -0.355584 -0.56724024 0.011048099
-0.45299664 0.16506732 0.34279233 0.77531815 -0.40677577 -0.48313069 0.014077567
0.094656512 0.1651054 0.34109688 0.71364498 0.43388087 -0.54996204 0.010760058
0.18868154 0.16591537 0.34307253 -0.74414074 -0.46032849 -0.4840993 0.010929725
-0.44355243 0.17953658 0.3451151 0.75124174 -0.38269266 -0.5377565 0.011426626
-0.35547516 0.17551686 0.34575889 0.61867899 -0.5290696 0.58079404 0.013662249
0.092294589 0.17778768 0.34834462 0.59529793 0.45293149 -0.66368175 0.0093569383
0.17962331 0.17697883 0.34608194 -0.69521499 -0.4749752 -0.53951347 0.015571037
-0.44083661 0.1807806 0.34746426 0.68416226 -0.36368483 -0.63218307 0.014374509
-0.35096416 0.18059906 0.34631968 0.60478461 -0.52387351 0.59982669 0.013191883
-0.34595883 0.18524557 0.34531409 0.57324457 -0.5710808 0.5875861 0.011766387
0.079988219 0.18468764 0.34142405 -0.65873867 -0.613253 0.43587163 0.016566001
0.08517918 0.1869144 0.34920436 0.53736424 0.53234297 -0.65410298 0.0082957307
0.17431742 0.18267322 0.34806496 -0.677459 -0.46186373 -0.57247812 0.013746808
-0.43346626 0.19811743 0.34460628 0.73537529 -0.39449784 -0.55099434 0.013324048
-0.33953136 0.19167715 0.34537411 0.60706544 -0.59579676 0.52583063 0.0095096566
0.078602135 0.19297828 0.34907889 0.55372918 0.53869992 -0.63496953 0.010798153
0.16676255 0.19623587 0.34715062 -0.6769594 -0.42206052 -0.60298502 0.011754587
0.17162828 0.19562078 0.34091437 -0.73597771 -0.47472841 -0.48266926 0.014162566
-0.43254465 0.20352532 0.34231058 0.77307606 -0.49001798 -0.40278506 0.012540732
-0.42899013 0.20953876 0.34298635 0.73057526 -0.50242621 -0.46241522 0.012676688
-0.32746139 0.20522285 0.3459197 0.61325443 -0.58681905 0.52873659 0.015233356
0.056710694 0.20692873 0.34197226 -0.62113255 -0.62381357 0.47439539 0.015930077
0.063868113 0.20353681 0.34581375 0.56600267 0.5703758 -0.59524131 0.010099572
0.16506697 0.20440519 0.34274465 -0.78372896 -0.46072826 -0.41653144 0.0092313858
-0.41876215 0.21705633 0.34748232 0.6265797 -0.53301835 -0.5685854 0.0079680169
-0.32101852 0.21273151 0.34662867 0.56202006 -0.59195119 0.5776912 0.023231922
-0.31913516 0.2103902 0.3419759 0.63644868 -0.64961022 0.41586009 0.015092638
0.057099342 0.21271306 0.34858304 0.510903 0.55891514 -0.65314013 0.0075560152
0.15163124 0.2193501 0.34809458 -0.66130912 -0.44314757 -0.60521936 0.013346461
-0.41358548 0.22494225 0.34481445 0.63066059 -0.61236215 -0.47673863 0.010030028
-0.31127012 0.22382127 0.3482551 0.45833135 -0.60370505 0.6522826 0.021607708
0.14649816 0.22531609 0.34954256 -0.58932418 -0.43127495 -0.68315369 0.010559036
0.15330076 0.22268963 0.34331188 -0.71537948 -0.47875726 -0.50894368 0.016803788
-0.40628302 0.23245996 0.345384 0.63437921 -0.57950139 -0.5116064 0.016934356
-0.39901718 0.23550348 0.3497279 0.50828671 -0.52862245 -0.67985511 0.014124341
-0.29610693 0.23295686 0.34799737 0.41584724 -0.67268038 0.61202306 0.012082375
-0.28589305 0.23614678 0.3445363 0.45135763 -0.67052519 0.58878881 0.005567973
0.026655391 0.23486176 0.34507388 0.44584534 0.6842342 -0.57710087 0.01221755
0.03798122 0.23070288 0.34856316 0.46981072 0.58858544 -0.65790963 0.014094191
0.13590647 0.23716362 0.34849358 -0.53975934 -0.54345506 -0.64289689 0.015960859
0.14692676 0.23050259 0.34496236 -0.64854968 -0.55305237 -0.52298784 0.018282771
-0.39520031 0.24125353 0.34820944 0.53359598 -0.55660069 -0.63676608 0.011190177
-0.26142839 0.24951255 0.34169489 0.40029338 -0.8000412 0.44687745 0.016586214
-0.0012971796 0.24827075 0.34284568 -0.33081317 -0.78042895 0.53055948 0.014203231
0.00040741824 0.24902506 0.34528401 0.36305985 0.74345094 -0.56166565 0.009917371
0.1287609 0.24726331 0.34529734 -0.56455874 -0.6263383 -0.53756273 0.012180288
0.13948682 0.24020803 0.34133732 -0.62580907 -0.64790738 -0.43425691 0.013433139
-0.24769354 0.25772446 0.34142059 0.3915588 -0.8063736 0.44321913 0.016635289
-0.021634679 0.25844613 0.3414773 -0.38118213 -0.81911159 0.42866823 0.011034661
-0.019161103 0.25840828 0.3439641 -0.34864533 -0.77150786 0.53218621 0.013810374
0.00073675741 0.25220314 0.34913614 0.31128207 0.70627868 -0.63582534 0.01290512
0.11942168 0.25496584 0.3463372 -0.57753301 -0.61729115 -0.53423518 0.013534799
-0.246683 0.26063022 0.34569821 0.30541751 -0.7611298 0.57219017 0.014231439
-0.23463789 0.26145774 0.34099108 0.33211789 -0.83823341 0.43250713 0.017475333
-0.21469019 0.26937532 0.34446007 0.25152683 -0.82886702 0.49971366 0.010352984
-0.054455146 0.26918671 0.34109691 -0.24439594 -0.88033485 0.40654778 0.010845463
-0.046418518 0.26870057 0.34406593 -0.23222847 -0.80545801 0.545259 0.013966043
-0.03366296 0.26991171 0.34942621 0.26990882 0.7186926 -0.64080429 0.02398978
-0.026219919 0.26396859 0.34564644 0.33571568 0.7185387 -0.60909534 0.018008739
0.10922072 0.26521444 0.34573126 -0.58218372 -0.61194056 -0.53534192 0.0099334437
0.11411142 0.26395762 0.34161165 -0.59904706 -0.62191367 -0.50434715 0.0098880213
-0.3632268 0.27709612 0.34650505 0.53937042 -0.60832846 -0.58225077 0.01555631
-0.22219919 0.2710326 0.34951064 0.23658913 -0.74639618 0.62202758 0.01533519
-0.20327723 0.2734535 0.34509423 0.24857032 -0.83033854 0.49874905 0.0077578095
-0.19289589 0.27616662 0.34493765 0.23199272 -0.79687816 0.55782145 0.012709777
-0.084569767 0.27762336 0.34318286 -0.17474183 -0.84932697 0.49810544 0.014035341
-0.072132684 0.27519959 0.34408396 -0.22219115 -0.82735747 0.51585925 0.011187395
-0.067326985 0.27246362 0.34165195 -0.21460994 -0.85619003 0.46997985 0.015833301
-0.03750962 0.27046514 0.34897539 0.23455295 0.70257956 -0.6718384 0.021140115
0.10304807 0.2744391 0.34150803 -0.61100376 -0.67267495 -0.41735223 0.011227235
-0.35296336 0.28843999 0.34102648 0.51424325 -0.72999066 -0.45018607 0.015303064
-0.18588749 0.28204852 0.34965569 0.10573985 -0.76838392 0.63119358 0.015896641
-0.16961859 0.28375417 0.34861207 0.051817916 -0.80629426 0.58924067 0.015056424
-0.15780333 0.28340173 0.34769356 0.022870965 -0.82498747 0.56468797 0.014327177
-0.1459877 0.28166556 0.34497172 0.031252582 -0.85614431 0.51579088 0.010063457
-0.13445792 0.28300232 0.34608328 0.023772947 -0.85589325 0.51660597 0.0093423445
-0.12763378 0.28256583 0.34543157 0.0052007521 -0.83300239 0.55324489 0.014340004
-0.11226293 0.28443584 0.34727111 -0.047914829 -0.78462917 0.61811101 0.012471739
-0.10724474 0.28348339 0.34583482 -0.03786891 -0.81549352 0.57752597 0.013354332
-0.099162459 0.28015366 0.34204996 -0.085410677 -0.84698099 0.52471739 0.013344822
0.084850758 0.285227 0.34852681 -0.51931584 -0.60483503 -0.60372645 0.011699111
0.091754794 0.28401661 0.3433744 -0.55885053 -0.66844237 -0.49078593 0.014340742
-0.33411431 0.29664931 0.34574252 0.44206113 -0.68420053 -0.58004445 0.014625171
-0.32619286 0.29959363 0.34820923 0.44189572 -0.69790983 -0.56360447 0.0093536442
0.065678395 0.29990256 0.34670788 -0.40787703 -0.72336507 -0.55711704 0.016398359
0.081684723 0.29155362 0.34535345 -0.52643913 -0.66621995 -0.52821666 0.010892047
-0.31318453 0.30927247 0.34638783 0.46171916 -0.71199465 -0.52903593 0.011268464
0.066178173 0.30063859 0.34555408 -0.44679138 -0.76182812 -0.46903664 0.010535073
-0.30048954 0.31503841 0.34869182 0.43660244 -0.65203607 -0.61986071 0.01716949
-0.29607263 0.31829423 0.34810725 0.40384707 -0.62189049 -0.67093945 0.017378913
0.039334673 0.31217283 0.34890002 -0.35993063 -0.67651927 -0.64247304 0.011997685
-0.29140937 0.32631531 0.34134185 0.41375223 -0.79243034 -0.4481777 0.0097243274
-0.28454375 0.32802576 0.34521353 0.36080667 -0.78983241 -0.49596697 0.013394114
0.0091045182 0.3290126 0.34824771 -0.4020294 -0.71376264 -0.57351136 0.010943962
0.014220253 0.32774323 0.34651065 -0.40426406 -0.72709858 -0.5548858 0.0080875615
-0.27299812 0.33368835 0.34394237 0.31016529 -0.77060068 -0.55675125 0.015441365
-0.26739576 0.33416831 0.34544301 0.26412147 -0.75254494 -0.60325444 0.009493622
-0.25908267 0.33838397 0.34298846 0.2515862 -0.81787008 -0.51748717 0.018745273
-0.24435526 0.33773977 0.34961969 0.191728 -0.74734426 -0.63617367 0.018956855
-0.010055093 0.3389141 0.34667817 -0.23159905 -0.80600166 -0.54472303 0.012142679
-0.0064732647 0.33851907 0.34610578 -0.25540385 -0.79478443 -0.550533 0.012051667
0.0049446025 0.33549368 0.34253848 -0.38511646 -0.76587456 -0.51489949 0.014700346
0.014365938 0.33165985 0.34051082 -0.41030142 -0.75985229 -0.50425911 0.012027606
-0.25326437 0.34053761 0.34204659 0.26674363 -0.84319723 -0.4667615 0.016885079
-0.24184719 0.34316677 0.34306026 0.26011682 -0.85757381 -0.44374141 0.012403164
-0.23596355 0.34442478 0.3439348 0.25306886 -0.8601675 -0.44279575 0.012447165
-0.22306539 0.34653565 0.34661615 0.24356714 -0.79480487 -0.55584204 0.015211986
-0.21455126 0.34795776 0.3480317 0.22710793 -0.77926999 -0.58408916 0.01321915
-0.043103766 0.34636313 0.34713277 -0.15531321 -0.77577025 -0.61160296 0.01291196
-0.039521903 0.3449696 0.34782729 -0.17727053 -0.72562838 -0.66485977 0.0065427152
-0.024124302 0.34341952 0.34517869 -0.22010581 -0.79265392 -0.56855363 0.011387736
-0.017603226 0.34222803 0.34445682 -0.22898126 -0.80835211 -0.54234159 0.012064237
-0.0081917113 0.34065306 0.34391311 -0.25746077 -0.83065218 -0.49369106 0.01241105
-0.21299019 0.35255727 0.34220749 0.25864452 -0.83086222 -0.49271804 0.0077308435
-0.20597626 0.35273156 0.34528479 0.19893143 -0.79456484 -0.57366627 0.01303438
-0.19224381 0.35541844 0.34707689 0.13155229 -0.81140596 -0.5694862 0.010535673
-0.18690999 0.35823542 0.34438661 0.13265374 -0.84584606 -0.51666969 0.0087662358
-0.17181608 0.35450685 0.34983239 0.055777088 -0.74031448 -0.66994286 0.012210294
-0.16534375 0.3564198 0.34759092 0.042694662 -0.7747463 -0.63082904 0.013713276
-0.15716903 0.35826513 0.34550381 0.048609912 -0.8285957 -0.55773318 0.015871096
-0.14109848 0.35987055 0.34403628 0.057901192 -0.83191103 -0.55188 0.012094597
-0.13794661 0.35905853 0.34521699 0.05468455 -0.8278293 -0.55830842 0.011717505
-0.12571548 0.35763013 0.34755388 0.057510018 -0.8140173 -0.57798648 0.015418039
-0.11688509 0.35710472 0.34858185 0.0024304367 -0.77747643 -0.62890744 0.011141083
-0.10897925 0.35806286 0.34764045 -0.013189032 -0.86208403 -0.50659376 0.0057146479
-0.095421806 0.35843557 0.3474969 -0.077989899 -0.83001053 -0.55226809 0.015439291
-0.085781664 0.35824332 0.34470922 -0.16096297 -0.86685634 -0.4718591 0.005669239
-0.07529103 0.35748819 0.34182128 -0.1992764 -0.85739148 -0.47451949 0.0074601169
-0.060111299 0.35290557 0.34392932 -0.15398189 -0.82703912 -0.54064387 0.015498966
-0.050003383 0.35175049 0.34126616 -0.20154996 -0.85581768 -0.47639671 0.013653298
-0.04850921 0.35152903 0.34095705 -0.18271004 -0.85889333 -0.47845513 0.015861621
-0.16080604 0.36106366 0.34006265 0.044017505 -0.87432539 -0.48334005 0.0157244
-0.1538755 0.3607738 0.34126145 0.062804498 -0.872311 -0.48490107 0.015437849
-0.14419019 0.3608416 0.34179518 0.038601492 -0.87456834 -0.48336342 0.015262854
-0.13163297 0.36086935 0.34263223 0.033228152 -0.8880136 -0.45861489 0.016255721
-0.12451237 0.3612982 0.34210962 0.039788198 -0.90433204 -0.4249711 0.010966547
-0.11434937 0.36104026 0.34329703 0.0010393541 -0.88873279 -0.45842451 0.0059215985
-0.10248409 0.36254638 0.3406823 -0.058451738 -0.91896361 -0.38998607 0.0080444161
-0.096107602 0.36231291 0.34150016 -0.090890728 -0.90997392 -0.40458164 0.0078136446
-0.18190359 -0.35312033 0.35044089 0.12279308 0.78151733 -0.61168003 0.015435877
-0.17484698 -0.35239673 0.35304123 0.09345939 0.73730737 -0.66906136 0.011355789
-0.16935124 -0.35233602 0.35435367 0.081223056 0.71034569 -0.6991508 0.0086733811
-0.15043524 -0.35481381 0.35167128 0.01766073 0.74717283 -0.66439515 0.010712035
-0.14439115 -0.35383943 0.35270619 -0.0010935989 0.7242918 -0.68949264 0.0070819184
-0.13561846 -0.35380623 0.35240853 -0.0046856948 0.6866712 -0.72695297 0.010198995
-0.1255949 -0.35510761 0.35032296 -0.058112152 0.74301577 -0.66674632 0.018821178
-0.11634243 -0.35159796 0.35396418 -0.013981596 0.66947067 -0.74270684 0.009394655
-0.1044246 -0.35031188 0.35467827 0.004887918 0.64920467 -0.76059812 0.010807233
-0.09549439 -0.35319838 0.35164112 -0.055049494 0.74179292 -0.66836578 0.012777696
-0.08925911 -0.35117984 0.3536652 -0.05220782 0.70382005 -0.70845717 0.0085760336
-0.075658493 -0.35235417 0.35197037 -0.14549528 0.71484101 -0.68398356 0.0073000146
-0.20235877 -0.34809887 0.35068089 0.16395612 0.6674664 -0.72636563 0.0094566615
-0.1922324 -0.34431094 0.35631087 0.15213408 0.59542263 -0.78887725 0.0092310049
-0.17594469 -0.34608847 0.35785758 0.11276933 0.58434695 -0.80363035 0.012421283
-0.16620098 -0.3453708 0.35988349 0.059633575 0.56109953 -0.82559747 0.017849214
-0.15014723 -0.34805673 0.3574551 -0.0082431538 0.56325048 -0.82624513 0.012073219
-0.13352694 -0.34543782 0.35908431 -0.017869931 0.5696348 -0.82170367 0.013160165
-0.11218217 -0.34958386 0.35541445 -0.0074760686 0.62417483 -0.78124899 0.012673352
-0.095602177 -0.34636784 0.35750276 -0.017919727 0.62479556 -0.78058267 0.015520422
-0.067610554 -0.34604555 0.35540545 -0.16768607 0.67606467 -0.71750826 0.010422251
-0.053981036 -0.34497616 0.35306159 -0.20814231 0.68749177 -0.69572401 0.0096090045
-0.25479212 -0.33162382 0.35458478 0.25939876 0.65310246 -0.71145588 0.014865021
-0.22382875 -0.33457342 0.35800928 0.12245614 0.61631268 -0.77792233 0.014515536
-0.031578273 -0.33078992 0.35866976 -0.1430399 0.57228172 -0.80748576 0.012779308
-0.023048498 -0.33739859 0.35107911 -0.15529554 0.71030623 -0.68654805 0.011766744
-0.013940124 -0.33068064 0.3548573 -0.17644075 0.6839959 -0.70782638 0.013225953
-0.27197334 -0.32367277 0.35428411 0.28435758 0.63169289 -0.72118294 0.014904058
-0.26567844 -0.32449806 0.35624996 0.24195744 0.53544325 -0.8091706 0.012473986
-0.24945825 -0.32895261 0.35768518 0.16493289 0.51978391 -0.83822536 0.010054451
-0.2390811 -0.32901025 0.35947359 0.14951278 0.52811038 -0.83590984 0.011900036
-0.014069925 -0.3267588 0.35776952 -0.17679262 0.63375169 -0.75306249 0.01138195
-0.0011415184 -0.32997507 0.35213763 -0.25507975 0.68219596 -0.6852321 0.013171602
0.0095703378 -0.32384998 0.35441542 -0.25078666 0.62072897 -0.7428335 0.0074350592
0.017049283 -0.32090113 0.35427645 -0.27683413 0.61831307 -0.73556226 0.010592039
-0.28581095 -0.31723329 0.35383561 0.34346613 0.5853458 -0.73443949 0.014305453
-0.27593124 -0.31387773 0.35969859 0.26613602 0.52466387 -0.80864048 0.010904529
0.0077834469 -0.31928742 0.35843977 -0.24183792 0.56086707 -0.7917971 0.011548608
0.017747562 -0.31476331 0.3580032 -0.26170307 0.46218851 -0.84728575 0.011499051
0.030517528 -0.31529534 0.35205597 -0.37177104 0.57230657 -0.73092508 0.014232849
-0.3042196 -0.30706683 0.35359553 0.3161318 0.59859478 -0.73603332 0.014219522
-0.29177386 -0.30852261 0.35755423 0.30351794 0.54788774 -0.77954853 0.012546721
0.037716277 -0.30471599 0.3565079 -0.3282446 0.49983412 -0.80151194 0.015688341
0.044333301 -0.30814368 0.35052097 -0.43109831 0.60841805 -0.66631961 0.011809915
-0.33289135 -0.29286849 0.35277426 0.36126384 0.57418334 -0.73471212 0.01162257
-0.32743734 -0.29248232 0.35542095 0.31789821 0.51426184 -0.79653966 0.0080715772
-0.31714028 -0.29528505 0.35727295 0.27675927 0.50901616 -0.8150503 0.014122477
-0.1668862 -0.29034349 0.35490671 -0.098452196 -0.61977881 -0.77857649 0.014473998
-0.15429448 -0.29261398 0.3559176 -0.016336819 -0.59298921 -0.80504471 0.011622996
-0.14406988 -0.29016393 0.35427162 -0.012757296 -0.64092916 -0.76749396 0.0142965
-0.13410163 -0.29295021 0.35663772 0.038688686 -0.60627741 -0.79431158 0.011883246
-0.12980634 -0.29076433 0.35505873 0.021555383 -0.61907953 -0.78503245 0.010582495
-0.11943926 -0.29529983 0.35877621 0.021031072 -0.59678662 -0.80212426 0.01177061
-0.10925231 -0.29039234 0.35524365 1.3523701e-05 -0.64772469 -0.76187444 0.015739983
-0.084152222 -0.29303461 0.35797742 0.039958559 -0.55947495 -0.82788348 0.015814262
-0.076028503 -0.29180965 0.35886967 0.10019857 -0.53812528 -0.83688796 0.018484754
0.052153748 -0.29138148 0.35939115 -0.26502934 0.48165852 -0.83532298 0.012392222
-0.34436712 -0.28401998 0.35361648 0.42926979 0.53341401 -0.72883266 0.015136004
-0.33487371 -0.288717 0.35526052 0.35801238 0.53812778 -0.76305026 0.013009537
-0.21005526 -0.28085211 0.35543472 -0.1734096 -0.59287483 -0.78640234 0.014770632
-0.20934007 -0.2809543 0.35538483 -0.17341955 -0.59288907 -0.78638935 0.014762292
-0.19470003 -0.28271991 0.35397911 -0.12594403 -0.65302402 -0.7467916 0.011267942
-0.18547516 -0.28191274 0.35101247 0.16436885 0.72501886 0.66882777 0.012451487
-0.17869052 -0.28285891 0.35017934 -0.12634596 -0.70037401 -0.70250469 0.010434812
-0.16576751 -0.28842115 0.35290706 -0.11070652 -0.65498596 -0.74748743 0.010598171
-0.13051115 -0.28955933 0.35411796 0.043056004 -0.67300189 -0.73838651 0.015900964
-0.12851091 -0.28779468 0.3525764 0.027442679 -0.6901657 -0.72313082 0.018293751
-0.10412213 -0.28790066 0.35327867 0.028525051 -0.70577145 -0.70786512 0.016196702
-0.076536566 -0.28361309 0.35236382 0.13765565 -0.66532499 -0.73375309 0.011424915
-0.060761984 -0.28303912 0.35579047 0.20945573 -0.60538822 -0.76787591 0.013352739
-0.05400835 -0.28431201 0.35821694 0.17247079 -0.54427582 -0.82098573 0.014690961
-0.044119626 -0.28256026 0.35911143 0.14127055 -0.53708744 -0.83161271 0.010840758
0.05719728 -0.28782675 0.35967776 -0.2737641 0.46867195 -0.83988082 0.0087217595
0.065346703 -0.28236103 0.35995913 -0.28630432 0.47960278 -0.82946432 0.010037798
0.071446843 -0.28499964 0.35577458 -0.32961154 0.54153329 -0.77336794 0.014141161
0.083710343 -0.28360724 0.35075253 -0.42615643 0.64312243 -0.63622659 0.010606537
-0.35563308 -0.27565259 0.3521277 0.45710418 0.52377743 -0.71882755 0.010620714
-0.34909031 -0.27197757 0.35804313 0.39334708 0.41377324 -0.82101756 0.011528689
-0.25032151 -0.27298543 0.35935196 -0.26431653 -0.54349738 -0.79671031 0.012693516
-0.24549192 -0.27285108 0.35750392 -0.25827163 -0.57204795 -0.77849656 0.016083661
-0.23611969 -0.2723313 0.35411245 -0.21414956 -0.62931204 -0.74706513 0.015615968
-0.22519298 -0.2729162 0.35150263 -0.19654793 -0.66925871 -0.71656245 0.012930203
-0.21806675 -0.27643859 0.35354605 -0.20502539 -0.65987754 -0.72285974 0.011757079
-0.056942873 -0.27585644 0.35010105 0.24078102 -0.71811944 -0.65293872 0.012530328
-0.042146552 -0.274131 0.35305816 0.21043111 -0.68631142 -0.69620067 0.016383652
-0.03485905 -0.2753292 0.35583857 0.14725827 -0.56908143 -0.80898786 0.010202468
-0.026281737 -0.27401119 0.35676259 0.18320119 -0.52738249 -0.82964152 0.009981297
0.086772226 -0.27635661 0.35488284 -0.3967675 0.47936654 -0.78280479 0.010459113
0.092049882 -0.27389881 0.35456842 -0.39146703 0.47916827 -0.78558981 0.0084659718
-0.36270368 -0.26255882 0.35613987 0.4285033 0.38114414 -0.81921548 0.011831776
-0.35048088 -0.26797861 0.35954562 0.34117246 0.34419656 -0.87471718 0.0095762089
-0.24459386 -0.26675487 0.35256723 -0.2814807 -0.64942586 -0.70640969 0.01803145
-0.011662923 -0.26488155 0.35353202 0.27687237 -0.58808011 -0.75993645 0.016669726
-0.0053759534 -0.26689151 0.35741299 0.23041625 -0.46129799 -0.85680372 0.012948043
0.09791059 -0.2666834 0.35509181 -0.44722545 0.47028551 -0.76080292 0.01003233
0.10276045 -0.26197004 0.35486299 -0.43936181 0.45623952 -0.77382606 0.0081304284
-0.37517694 -0.25494313 0.35344455 0.46058154 0.48921928 -0.74062759 0.0086968932
-0.27271339 -0.25332314 0.35403252 -0.34260815 -0.52740633 -0.77747166 0.019225443
-0.26267996 -0.25724044 0.35301304 0.35576534 0.63529843 0.68543917 0.0090598697
-0.25747144 -0.25737095 0.35017967 0.35711378 0.66332382 0.65762544 0.010868645
-0.0036436082 -0.25657961 0.35014385 0.371667 -0.74418986 -0.55501807 0.013125274
0.018692452 -0.25202394 0.35741442 0.31813622 -0.54436773 -0.7761786 0.011930205
0.11145301 -0.25399464 0.35398251 -0.50139147 0.48976919 -0.71325511 0.0083366819
-0.39254901 -0.24226932 0.35080436 0.51520872 0.53985441 -0.66567039 0.011397047
-0.3883841 -0.24257705 0.35378683 0.47684023 0.51208341 -0.71441865 0.0077951811
-0.37414092 -0.24863404 0.35790002 0.34663486 0.42976981 -0.83375186 0.013406425
-0.29355544 -0.24297473 0.35479611 -0.372457 -0.57991737 -0.72454929 0.018092694
-0.28996554 -0.24529099 0.35505569 -0.34210801 -0.56506717 -0.75077373 0.017009936
0.0085199429 -0.24969326 0.35084093 0.39666492 -0.6490764 -0.64911997 0.016644077
0.01056446 -0.24859686 0.35102585 0.40850139 -0.64193523 -0.64888048 0.015557547
0.023944842 -0.24111205 0.35189298 0.36967495 -0.68597639 -0.62671912 0.012725439
0.034042269 -0.24360627 0.35811037 0.31433508 -0.52415019 -0.79149228 0.0098537821
0.11705602 -0.24370524 0.35648978 -0.47985184 0.44365633 -0.75690907 0.013354316
0.12331044 -0.24236237 0.35345468 -0.52544093 0.48338547 -0.70017868 0.019281114
-0.40235883 -0.23230726 0.35148814 0.54753697 0.5114274 -0.66230297 0.013403251
-0.39290911 -0.23254023 0.35701308 0.43909511 0.41377756 -0.79748577 0.014623403
-0.38517839 -0.23854445 0.35772759 0.39018607 0.41408944 -0.8223654 0.013586256
-0.31313935 -0.23008725 0.35563588 -0.40067959 -0.49695015 -0.76973796 0.016046386
0.036200352 -0.23590837 0.35363641 0.32753342 -0.67191803 -0.66426498 0.01302456
0.04344463 -0.23296997 0.3549577 0.40231413 -0.57808518 -0.70990193 0.019193405
0.12282061 -0.23606738 0.35728931 -0.45671177 0.45523012 -0.76431662 0.012719377
0.13587438 -0.23228019 0.35118228 -0.54170305 0.50172317 -0.67441207 0.017536694
-0.40346128 -0.22371078 0.35636085 0.50013584 0.43665051 -0.74779707 0.0090748901
-0.31648031 -0.22895485 0.35676181 -0.41038975 -0.4765124 -0.77750641 0.016231636
0.13326362 -0.22803167 0.3556841 -0.47048774 0.45148689 -0.75815618 0.013315196
-0.41465721 -0.21124138 0.35450116 0.60032284 0.40617535 -0.68893689 0.014076938
-0.40379027 -0.2178548 0.35892981 0.48818102 0.39678448 -0.77732962 0.0083486233
-0.334804 -0.21444768 0.35830128 -0.39194137 -0.40699843 -0.82506621 0.012836988
-0.32995355 -0.21032694 0.35344547 0.50394279 0.48757553 0.71295989 0.018792752
0.063974693 -0.21367875 0.35405469 0.47456899 -0.51073915 -0.71688902 0.019726234
0.13778901 -0.21684968 0.35904169 -0.43137226 0.39593977 -0.81064767 0.011363124
0.14073291 -0.21369255 0.35905865 -0.43115398 0.38551661 -0.81577146 0.015025271
0.15327206 -0.21470532 0.35038435 -0.55432528 0.45689222 -0.69568175 0.010513791
-0.42037976 -0.20213696 0.35443732 0.58586735 0.36221069 -0.72495717 0.015202507
-0.41975456 -0.20736869 0.352449 0.65585798 0.41565487 -0.63014388 0.016594209
-0.34038177 -0.20223594 0.35441393 -0.45589036 -0.43631402 -0.77575386 0.012671982
0.075314566 -0.20612925 0.35641697 0.46731716 -0.42091084 -0.77746296 0.014293994
0.14718151 -0.20573778 0.3596428 -0.44160613 0.35497501 -0.82400048 0.014592124
0.15290456 -0.20258924 0.3576048 -0.5154984 0.3782801 -0.76887292 0.0084074363
-0.35431051 -0.19471531 0.35754377 -0.39996493 -0.39633822 -0.82640421 0.021010652
-0.34837151 -0.19217846 0.35289952 0.5463028 0.46906871 0.6939221 0.016938046
0.091483764 -0.19084698 0.35740715 0.39314085 -0.33538482 -0.85612929 0.010671055
0.15985611 -0.1920175 0.35675222 -0.56475431 0.3220371 -0.75983196 0.0097004632
-0.43636289 -0.18220207 0.35127327 0.60015959 0.43468308 -0.67146033 0.015207828
-0.42988795 -0.18339039 0.35579166 0.53978854 0.3313373 -0.77385002 0.013719607
-0.36434704 -0.18331712 0.35738555 -0.49461728 -0.34660709 -0.79700518 0.017844539
0.16412596 -0.18893242 0.35497057 -0.6033963 0.33394378 -0.7241509 0.0071559227
-0.44184056 -0.17005053 0.35336798 0.59723693 0.34979248 -0.72177088 0.0081881704
-0.43341938 -0.1725574 0.35785621 0.49918047 0.34590861 -0.79445964 0.011880535
-0.37087777 -0.1738302 0.35782292 -0.45062897 -0.31077197 -0.83687174 0.018584013
-0.36621138 -0.17599066 0.35556981 -0.55951732 -0.32647273 -0.76181096 0.019156041
0.09729594 -0.17583752 0.35248148 0.6109516 -0.43302923 -0.66273957 0.017583555
0.10338672 -0.1745127 0.35545972 0.49036568 -0.40206748 -0.77322906 0.022104423
0.17520408 -0.17581643 0.35166341 -0.6848045 0.39708039 -0.61104 0.012265334
-0.3793506 -0.16365039 0.35924894 -0.43309295 -0.25588828 -0.86426365 0.013011339
0.10896587 -0.16800427 0.35612088 0.52962464 -0.33839682 -0.77780801 0.023333689
0.11548788 -0.16311736 0.35875151 0.47312063 -0.27052641 -0.8384344 0.010734549
0.17567754 -0.16462462 0.35602421 -0.54118979 0.30066675 -0.78531086 0.011953767
0.18283577 -0.16207963 0.35139051 -0.65062362 0.34889755 -0.67450672 0.014395325
-0.44611257 -0.15116528 0.3581979 0.52483404 0.25289413 -0.81276917 0.010152247
-0.38285264 -0.15487143 0.35799393 -0.47041956 -0.29301718 -0.83237392 0.015652832
-0.37254256 -0.15967196 0.35319746 0.61539388 0.41648218 0.66920322 0.012003914
0.1139984 -0.15487596 0.35474604 0.59015173 -0.36053765 -0.72231126 0.020556532
0.18344708 -0.15675546 0.35360876 -0.59485143 0.29591927 -0.74738449 0.011600853
-0.45249313 -0.14471066 0.35663515 0.57683611 0.2730414 -0.76987571 0.011255064
-0.3889212 -0.14771733 0.3590706 -0.47951305 -0.23171231 -0.84639037 0.014339369
0.11707404 -0.14708063 0.35398883 0.61982298 -0.32017016 -0.71645707 0.012106328
-0.45871982 -0.13643895 0.35402235 0.63575989 0.24399894 -0.7323072 0.010549678
-0.39228028 -0.13540842 0.35629794 -0.54744083 -0.30694661 -0.77851933 0.018128909
0.12206215 -0.13696864 0.35368142 0.66490453 -0.38698277 -0.63886327 0.013133404
-0.46191579 -0.12881181 0.35335582 0.6730355 0.2254404 -0.70441455 0.013430102
-0.45602131 -0.12369637 0.35881883 0.55794328 0.14619163 -0.81690109 0.016788187
-0.40224966 -0.12550823 0.35887316 -0.469758 -0.26991788 -0.84051877 0.011517559
-0.3969354 -0.12921806 0.35684037 -0.5607239 -0.29836914 -0.77237594 0.018288001
0.12756667 -0.12083598 0.35040727 0.68994105 -0.36877897 -0.62288314 0.01730736
0.13775575 -0.12255204 0.3590444 0.42979026 -0.21840312 -0.87611669 0.01058687
0.19285129 -0.12619954 0.35839611 -0.55651009 0.26645815 -0.78695393 0.014018605
-0.46415952 -0.11597249 0.35438675 0.66358298 0.15576109 -0.73170763 0.019554231
-0.45797342 -0.11402663 0.35951763 0.51771986 0.16897252 -0.83869803 0.017145999
-0.40785477 -0.11361738 0.3595522 -0.48100922 -0.20558228 -0.85227114 0.0106492
0.19467731 -0.11495776 0.35952768 -0.47956353 0.17286117 -0.8603127 0.01944438
0.20125856 -0.11694216 0.35426053 -0.68420577 0.20968515 -0.69849449 0.0090038395
0.1970389 -0.10781279 0.35902435 -0.49782407 0.13230103 -0.85712755 0.014366668
-0.47190773 -0.09732759 0.35282803 0.73832381 0.19739892 -0.64491218 0.007775553
-0.46486807 -0.098232768 0.35793409 0.57202572 0.1678309 -0.80288196 0.014393931
-0.40495455 -0.093306527 0.35252759 0.67301548 0.20991109 0.70921606 0.011152912
0.13851127 -0.097773261 0.35033146 0.72284693 -0.22559302 -0.65314633 0.02171156
0.14273775 -0.0945566 0.35407779 0.63130254 -0.20753387 -0.74725282 0.010814174
0.19948618 -0.095805004 0.35931528 -0.48313373 0.022652099 -0.87525356 0.017745527
-0.41223699 -0.087264746 0.35695818 -0.5449093 -0.16095598 -0.82290161 0.0084137348
-0.4069384 -0.086359255 0.35235631 0.70416343 0.23569272 0.66977817 0.01492518
0.14687172 -0.085870907 0.35563332 0.60898894 -0.13596328 -0.78143871 0.01642609
0.15121008 -0.089972921 0.35959852 0.50668871 -0.077597193 -0.85862982 0.012474924
0.2032138 -0.089842141 0.35758275 -0.63565946 0.10873447 -0.76427346 0.0077850856
0.21018308 -0.089001313 0.35209179 -0.70218629 0.15323681 -0.69530779 0.010457071
-0.46997955 -0.077898793 0.35866362 0.50903237 0.15710999 -0.84628743 0.0082937898
-0.41784811 -0.071949258 0.35770357 -0.58335716 -0.16302934 -0.79568577 0.015697801
0.15384318 -0.073043913 0.35857785 0.55778039 -0.14836589 -0.81662017 0.012108515
0.21393001 -0.076786324 0.35099888 -0.68377435 0.15419231 -0.71321625 0.010631106
-0.47536641 -0.064555451 0.35764784 0.58108211 0.11821146 -0.80521411 0.0075394707
-0.41385549 -0.067934386 0.3535049 0.68533313 0.22751899 0.69177574 0.013427082
0.15266639 -0.064541899 0.35619813 0.63622195 -0.16362621 -0.75395501 0.0090619158
0.21293013 -0.060913257 0.35542941 -0.60616881 0.15860954 -0.77936023 0.0060779303
-0.4774887 -0.056913298 0.35767183 0.63671678 0.082463369 -0.76667559 0.01154173
-0.41553992 -0.051251397 0.35024729 0.76053256 0.11880722 0.63833779 0.014464741
-0.47752142 -0.041415673 0.358293 0.60166067 0.017479638 -0.7985605 0.01608892
-0.42722666 -0.045806069 0.3592253 -0.52813542 -0.14423715 -0.83682048 0.014852803
0.21932702 -0.047462553 0.35294065 -0.63433099 0.14479712 -0.75937998 0.0093206083
-0.47610104 -0.035945371 0.3595081 0.53541303 0.0046369764 -0.84457761 0.017937496
-0.41882819 -0.035081532 0.35211068 0.76649189 0.046049781 0.64060104 0.011900658
0.15659249 -0.034486659 0.35366109 0.71353483 -0.056523804 -0.69833589 0.012644047
0.21420403 -0.031602219 0.35894394 -0.52846545 0.064358577 -0.84651184 0.0094246287
0.22166447 -0.03684536 0.35274205 -0.70786226 0.094393469 -0.70001495 0.011399533
-0.42330593 -0.02841273 0.35581881 -0.60517961 -0.00090221426 -0.7960884 0.016181402
-0.41811302 -0.025429472 0.35080349 0.78884649 0.053662125 0.61224324 0.017768376
0.16091597 -0.022463435 0.35638624 0.63709027 0.0083792917 -0.77074367 0.017543959
0.21981457 -0.024107076 0.35446721 -0.66826272 -0.006509719 -0.74389684 0.020810584
0.22301389 -0.024967041 0.35125551 -0.759642 -0.0095121739 -0.65027189 0.011845095
-0.48558617 -0.010359123 0.35258612 0.7390092 0.026097756 -0.67318958 0.011453031
0.15644155 -0.012318333 0.35318506 0.71536416 0.028665038 -0.69816357 0.018371461
0.16019097 -0.014739365 0.35600674 0.6244728 -0.01153411 -0.78096139 0.017496664
0.2157478 -0.016144861 0.35740554 -0.53377384 -0.025007546 -0.8452574 0.0066462052
-0.48569348 -0.008274395 0.35252726 0.73661238 0.033727057 -0.67547369 0.012435582
-0.42585614 -0.0099066366 0.35735214 -0.56201315 -0.03508985 -0.82638371 0.01046744
0.1551919 -0.0073048333 0.35175467 0.77152538 0.0058308332 -0.63617182 0.015716031
0.16327085 -0.0038573442 0.35861906 0.583184 0.027480399 -0.81187516 0.012571888
0.2228542 -0.009831503 0.35087535 -0.78696448 -0.021842116 -0.6166116 0.013646429
-0.47694403 0.00051298365 0.35969561 0.50340563 0.032390263 -0.8634429 0.015607261
-0.42472112 0.0069830962 0.35599679 -0.62027615 0.034092572 -0.78364229 0.011757995
-0.41977745 0.00086512696 0.35195059 0.74296004 0.045577299 0.66778219 0.017888885
0.15864386 0.0034859749 0.35523665 0.66468418 0.0039805938 -0.74711382 0.019915773
0.16348965 0.0090894252 0.35908324 0.5402 0.031836517 -0.84093422 0.0077866479
0.21829993 0.0079606548 0.35489553 -0.66144699 -0.0053287577 -0.74997288 0.011344525
0.22119382 0.0041267583 0.35249662 -0.67320997 -0.036373477 -0.73855627 0.012715736
-0.48294008 0.012604689 0.35537136 0.635454 0.0069761449 -0.77210724 0.0083041862
-0.48268041 0.024786908 0.35584942 0.65641266 0.00079049892 -0.75440156 0.011601378
-0.42421538 0.025333529 0.35507205 0.67603278 -0.071987569 0.73334682 0.0082318382
-0.41959459 0.027235128 0.35068733 0.74237633 -0.11906219 0.6593191 0.010684525
0.15951797 0.026992381 0.35644534 0.59467423 0.034146186 -0.80324125 0.01526189
0.21576607 0.027049422 0.35640299 -0.60302019 -0.0051944908 -0.79770899 0.013742669
0.22115523 0.025721489 0.35170758 -0.70551091 -0.026782684 -0.70819277 0.019153401
-0.47783303 0.038344108 0.35922143 0.54420406 -0.052444991 -0.8373121 0.0098436931
-0.42588672 0.036596719 0.35767123 -0.60712582 0.05788381 -0.7924946 0.013982489
-0.41776574 0.035542447 0.35021263 0.78419089 -0.069701985 0.61659247 0.0092598973
0.1542557 0.036052506 0.3522453 0.67643535 0.033696998 -0.73573077 0.013327949
0.16243505 0.038958501 0.35895756 0.53304994 0.072560333 -0.84296662 0.017956344
0.21550232 0.039286535 0.35632539 -0.61257666 -0.059385642 -0.78817713 0.013539391
0.22136304 0.036372431 0.35102281 -0.77240366 -0.033910226 -0.6342262 0.015840076
-0.48082143 0.047230631 0.35542035 0.64872783 -0.15141773 -0.74580479 0.010617877
-0.42449886 0.044519037 0.35803258 -0.56404096 0.11375732 -0.81787354 0.015662534
-0.41749227 0.044749152 0.35219595 0.73702377 -0.11404344 0.66617566 0.012913583
0.15344469 0.046421859 0.35162336 0.65586215 0.17893961 -0.73336589 0.012417645
-0.47684008 0.056191258 0.35681334 0.62066036 -0.18656398 -0.76156068 0.010941566
-0.4242734 0.053920377 0.35952348 -0.54939973 0.12268701 -0.8265034 0.011895178
-0.41770211 0.053616356 0.35422635 -0.63313866 0.10779077 -0.7664963 0.010417829
0.15158139 0.052170582 0.35145137 0.68818998 0.15349053 -0.70910871 0.014233709
0.21756838 0.054843575 0.35438398 -0.64972574 -0.09523546 -0.75417942 0.012664757
0.22082964 0.057569142 0.35078716 -0.72760314 -0.12163107 -0.67512929 0.012768332
-0.47321945 0.066334158 0.35772818 0.60984755 -0.14994092 -0.77820545 0.011078864
-0.4171415 0.066937335 0.35649258 -0.57819057 0.12646581 -0.80604106 0.011947998
0.15571889 0.06722521 0.3585121 0.49021298 0.13186452 -0.86157006 0.011572541
0.21236497 0.069283232 0.35539457 -0.64018321 -0.1150986 -0.75955099 0.010692673
0.14701343 0.071743771 0.35308397 0.70633751 0.18244679 -0.68395942 0.0082530426
0.15162095 0.074384615 0.35707915 0.49796173 0.15892886 -0.85251141 0.01291694
0.20689267 0.076126114 0.35790792 -0.59012467 -0.13313983 -0.79625785 0.015643455
0.21121149 0.075023748 0.35497573 -0.65742803 -0.20271349 -0.72573805 0.010692443
-0.40656519 0.08423996 0.35059783 0.67859274 -0.23487511 0.69594938 0.015215497
0.14697738 0.087195903 0.35649243 0.60823554 0.14776449 -0.77988154 0.012676831
0.20493118 0.085551903 0.35726976 -0.55091584 -0.19901991 -0.81048316 0.013916557
0.21150379 0.082984529 0.35290608 -0.70046276 -0.21742025 -0.67976493 0.012120003
-0.47118342 0.090095058 0.35505569 0.62834537 -0.11978455 -0.76865709 0.016610257
-0.46647549 0.095072612 0.35769451 0.55296183 -0.14534947 -0.82043082 0.013953733
-0.40674815 0.098141983 0.35423505 -0.59319723 0.22608617 -0.77265912 0.017692879
0.14503522 0.097975671 0.3574436 0.58782136 0.15000397 -0.79496223 0.01377955
0.20176576 0.09168113 0.35824445 -0.56555885 -0.19537762 -0.80123079 0.01159038
-0.46391124 0.1094524 0.35707229 0.62322408 -0.14828183 -0.7678569 0.010928907
-0.40411782 0.10557669 0.35376897 0.61835247 -0.24186432 0.74775791 0.015530435
0.13526402 0.10692535 0.35159943 0.72403854 0.31229457 -0.61501247 0.01535582
0.14324641 0.10336466 0.35731772 0.58464521 0.18531552 -0.78984064 0.016656235
0.20481159 0.10613547 0.35258511 -0.64973271 -0.21127346 -0.73021299 0.0092636626
-0.46508396 0.11243836 0.35544696 0.6573692 -0.16395935 -0.73551553 0.014321934
-0.40256977 0.11376627 0.3559607 0.58789325 -0.34109911 0.73350722 0.018283689
-0.39734411 0.1176247 0.3535634 0.64289606 -0.32872117 0.69182879 0.013816701
0.13803251 0.11362804 0.35574934 0.60546821 0.18140259 -0.77492023 0.015645005
0.1955609 0.11702922 0.35721219 -0.60644656 -0.17075707 -0.77657229 0.0087912176
0.2034803 0.11502526 0.35091525 -0.72154737 -0.22467396 -0.65489775 0.022603184
-0.45632446 0.12876086 0.35825753 0.51866102 -0.22308351 -0.82536328 0.015056929
-0.39420164 0.12432994 0.35404742 0.59097159 -0.33725902 0.73280895 0.014317139
0.12463339 0.129094 0.35084605 0.66639757 0.36796334 -0.64847302 0.021293286
0.13417147 0.12358525 0.35579738 0.60743445 0.28162661 -0.74277174 0.018288253
0.19670483 0.12126699 0.35543579 -0.60745722 -0.15987743 -0.77809703 0.0089353165
-0.46020412 0.13922328 0.35090959 0.69036967 -0.32742649 -0.64512134 0.016984563
-0.45264518 0.13161455 0.35970634 0.49476045 -0.20456833 -0.84460878 0.011485216
-0.39152175 0.1369583 0.35693091 -0.50925702 0.24969436 -0.82359582 0.0096954815
-0.38871741 0.13422354 0.35404021 0.59436047 -0.31195921 0.74122673 0.015069139
0.12286048 0.13215221 0.35097528 0.62855846 0.36825135 -0.68505859 0.021224771
0.18523958 0.1390743 0.35993555 -0.47401172 -0.22758946 -0.85059738 0.008291197
0.19236389 0.13152395 0.35636374 -0.57743847 -0.18559955 -0.79505819 0.0081510236
-0.45421907 0.14345947 0.35433269 0.5728361 -0.27055532 -0.77373034 0.015467727
-0.44778931 0.14118643 0.35950607 0.42823932 -0.24092372 -0.87095743 0.013196938
-0.38417977 0.14881133 0.3562806 -0.53810906 0.29610345 -0.78915238 0.018352341
-0.37966055 0.149882 0.35361531 0.63400084 -0.30456865 0.71083117 0.017762436
0.11783578 0.1485067 0.3551842 0.53481942 0.33126149 -0.77732486 0.016421672
0.12315224 0.14737892 0.35820127 0.46844053 0.29606882 -0.83241022 0.013378761
0.19290552 0.14647792 0.35225087 -0.71374702 -0.30319071 -0.6313799 0.010781984
-0.45115072 0.15351819 0.35246986 0.62867039 -0.35256854 -0.69315875 0.014159888
-0.37817204 0.15114796 0.35301805 0.62485296 -0.31803915 0.71302867 0.019487716
0.10752577 0.15652253 0.35066646 0.66124016 0.39338121 -0.63875872 0.0079172095
0.11189495 0.15330371 0.35323986 0.58618999 0.3652193 -0.7231847 0.013740416
0.12090555 0.15314114 0.35905895 0.4165704 0.26894128 -0.8684122 0.013284505
0.18677661 0.15322185 0.35389966 -0.63779569 -0.36304051 -0.67927778 0.014669344
-0.37385908 0.16532882 0.35521916 -0.504125 0.37476435 -0.77808076 0.016229356
0.10907887 0.16299313 0.35531026 0.55068737 0.34971684 -0.75791919 0.015119221
0.11067438 0.16307589 0.35638565 0.5189445 0.35006672 -0.77983969 0.016858814
0.18253353 0.16275589 0.35260051 -0.65266591 -0.36448795 -0.66421068 0.012952928
-0.4354398 0.17291045 0.35631129 0.56949955 -0.26307014 -0.77875823 0.013613339
-0.37210119 0.17126095 0.35628405 -0.47484487 0.35877398 -0.80361909 0.022021059
-0.3637014 0.17848943 0.3551324 -0.43845233 0.407426 -0.80110145 0.013807268
-0.35846931 0.17730676 0.35049865 0.61750406 -0.48565131 0.61873394 0.015588822
0.09567517 0.17945927 0.35320035 0.58799446 0.46306911 -0.66319644 0.0089507746
0.10454948 0.17523302 0.3572908 0.45504245 0.30732942 -0.83575416 0.018096419
0.16651574 0.17530148 0.35822293 -0.51877493 -0.30783027 -0.79756701 0.016537726
0.17499879 0.17661458 0.35146099 -0.6190725 -0.38304111 -0.68558651 0.0093099959
-0.4358288 0.18491487 0.35065874 0.67805731 -0.34260967 -0.65027452 0.016046874
-0.42520273 0.18919548 0.357306 0.47876477 -0.31835955 -0.81818789 0.012111171
-0.36866796 0.1806566 0.35904837 -0.35633224 0.31534404 -0.87953711 0.015049007
-0.35521665 0.18363017 0.35256273 0.59807622 -0.47267553 0.64721137 0.015008692
0.091238096 0.18538274 0.35315785 0.57159156 0.47767046 -0.66716868 0.010692163
0.10355426 0.18029962 0.35868514 0.42528409 0.29737175 -0.85481191 0.013995195
0.16249759 0.18135566 0.35840434 -0.48885539 -0.3039411 -0.8177042 0.012492864
0.17171162 0.18264537 0.35097435 -0.63021034 -0.40764582 -0.66080236 0.014360437
-0.42764032 0.19786769 0.35205537 0.5702765 -0.35164079 -0.74238366 0.012371265
-0.35922593 0.19156849 0.3595165 -0.36772969 0.295342 -0.88178682 0.015383672
-0.34764934 0.19246955 0.35352221 0.53620613 -0.50275654 0.67802566 0.012023623
0.078912325 0.19416772 0.35048497 0.5510357 0.54523408 -0.63172734 0.010226549
0.087153554 0.19421713 0.3559441 0.45693052 0.42783993 -0.7798509 0.017480275
0.092702627 0.19374017 0.35859862 0.41563371 0.36667651 -0.83234423 0.017301699
0.1558754 0.19309749 0.35799155 -0.42923674 -0.30093312 -0.8515839 0.010385576
0.16469383 0.19271141 0.35186046 -0.60511798 -0.42896661 -0.67068619 0.019677516
-0.42333579 0.20361497 0.35305065 0.55702716 -0.35566893 -0.75048006 0.010389036
-0.41281348 0.20794274 0.35793164 0.47171515 -0.37567532 -0.79771721 0.012692076
-0.3324503 0.20578246 0.35126477 0.573955 -0.57326013 0.58476359 0.015166486
-0.32877916 0.20951061 0.35111395 0.54311126 -0.55788583 0.62752968 0.015339315
0.06869477 0.20744756 0.35337007 0.52592689 0.5337587 -0.66219527 0.0075511998
0.07857696 0.20350105 0.35661691 0.44042182 0.41996372 -0.79351068 0.01442941
0.14935635 0.20667613 0.35677028 -0.51679772 -0.32704842 -0.79117596 0.012014093
-0.41061315 0.21822438 0.35374883 0.51045072 -0.44097513 -0.7382282 0.0077749779
-0.32304296 0.2171672 0.35251552 0.56344759 -0.49086127 0.66451645 0.021093579
-0.31858993 0.21911171 0.3500281 0.4637998 -0.57063037 0.6776951 0.021140493
0.062788129 0.21811524 0.35647154 0.41850692 0.43014827 -0.79989028 0.018204927
0.070557117 0.21600193 0.3593803 0.31603891 0.35697758 -0.87902582 0.012008194
-0.40497312 0.22192068 0.35449931 0.45109749 -0.43394843 -0.77987164 0.013890979
-0.32200634 0.22395122 0.35576576 -0.41335824 0.49738494 -0.76272094 0.018705387
-0.30888987 0.22856431 0.35188496 -0.38528904 0.53351808 -0.75293487 0.014501239
0.056100525 0.22381264 0.35613471 0.44056132 0.49449876 -0.74925077 0.013780039
0.13975482 0.2221569 0.35676521 -0.53384823 -0.39846778 -0.74580795 0.010296228
