# .PCD v0.7 - Point Cloud Data file format
VERSION 0.7
FIELDS x y z normal_x normal_y normal_z curvature
SIZE 4 4 4 4 4 4 4
TYPE F F F F F F F
COUNT 1 1 1 1 1 1 1
WIDTH 577
HEIGHT 1
VIEWPOINT 0 0 0 1 0 0 0
POINTS 577
DATA ascii
-0.18475944 -0.38297981 0.077009633 0.54317123 0.8396219 -1.7663566e-05 0
-0.17604122 -0.38861883 0.077863961 0.54314691 0.8396377 3.5273686e-05 8.4188636e-05
0.17494926 -0.386408 0.072972283 -0.53804272 0.84288591 0.0073122378 0.0012518639
0.26593602 -0.38464305 0.075209431 -0.72750813 0.68609905 2.1451895e-05 8.5341366e-05
0.27014774 -0.38017774 0.070115045 -0.72748494 0.68612367 -8.4179846e-06 0
-0.19498941 -0.37636304 0.075552508 0.56360406 0.82603067 -0.0048783729 0.00052775716
0.18490627 -0.37818757 0.078361914 -0.64653617 0.76285112 -0.0070125028 0.00054128468
0.27346703 -0.37665859 0.071375459 -0.72755724 0.68604702 1.6963842e-05 2.9612715e-06
-0.20557991 -0.36951301 0.077031784 0.62569851 0.78004318 0.0058267335 0.0018639258
-0.29322082 -0.35538471 0.07519573 0.83107591 0.55614889 0.0033656694 0.00093799969
-0.22074278 -0.35540688 0.079944834 0.70420498 0.70999348 0.0021590758 0.0010834946
-0.21700649 -0.35954118 0.075581372 0.68101269 0.73224974 0.0056541213 0.0015391608
0.21324889 -0.35257363 0.075900592 -0.67051089 0.74189967 -2.925603e-06 0
0.29431111 -0.35455951 0.077407524 -0.76975584 0.6380136 -0.020360621 0.0013913226
-0.29887694 -0.34621736 0.073737524 0.847902 0.53015226 -0.0009196389 2.4907498e-05
-0.23259892 -0.34228766 0.072522454 0.74191153 0.67049772 -2.7719127e-06 8.1747803e-06
-0.22688316 -0.34861237 0.0739839 0.73464823 0.67844307 -0.0026272123 0.00021182212
-0.30848986 -0.33063686 0.072605588 0.85100472 0.52515805 2.8046981e-05 0
-0.23830868 -0.33596969 0.072454318 0.74188429 0.67052788 -1.227215e-07 0
0.23574074 -0.3322472 0.070948295 -0.75468022 0.65585721 -0.017584287 0.001513486
0.305179 -0.33898991 0.07472536 -0.85615331 0.516698 -0.0049636052 0.00080188422
-0.24623553 -0.32719836 0.072967224 0.74190682 0.67050302 6.6904213e-06 0
0.31525838 -0.32029077 0.076128006 -0.88022852 0.47455004 5.9780223e-06 3.5491087e-06
-0.31722865 -0.31647325 0.075922385 0.85101169 0.52514672 2.8338212e-05 8.5641725e-05
-0.257213 -0.31505144 0.076304093 0.76664889 0.64204246 -0.005554657 0.00091601996
0.24740423 -0.31617156 0.073939763 -0.82734966 0.5616765 0.0034736784 0.0003089165
0.25083184 -0.31087226 0.078625686 -0.83344889 0.55258846 0.0029917471 0.00011956456
0.31921309 -0.31295401 0.077260017 -0.88028413 0.47444698 2.1729538e-06 0
-0.32658678 -0.30130574 0.078491241 0.85954154 0.51103681 0.005461406 0.00024120297
0.25227714 -0.30863774 0.079552472 -0.83963317 0.54315388 1.1646119e-05 7.3842007e-06
-0.33036643 -0.29517975 0.075786561 0.87695724 0.48052695 0.0063138502 0.00086660287
-0.27221605 -0.2942766 0.071640953 0.85354781 0.52080548 -0.014759131 0.0013841644
0.26058385 -0.29579505 0.073627383 -0.83963275 0.54315448 1.4302294e-05 3.2015392e-05
-0.3353982 -0.28702435 0.079304293 0.90533882 0.42461786 -0.0078269346 0.0018081296
0.33405507 -0.2854194 0.07602483 -0.88020092 0.47460133 -2.892253e-05 0
-0.33892131 -0.27914304 0.071075171 0.93209469 0.36218143 0.004906971 0.002212787
-0.28021321 -0.27865216 0.074236423 0.89015776 0.45565253 2.1769683e-05 6.2824991e-05
0.27480465 -0.2738089 0.07211519 -0.859348 0.51139057 -0.00082599279 0.00053992943
0.33997941 -0.27442867 0.078138426 -0.89981943 0.4359892 0.015439252 0.00080534141
-0.34193119 -0.26909399 0.076400317 0.9454394 0.3257581 0.0051092752 0.0013236036
-0.28882593 -0.26182503 0.075219519 0.89015019 0.45566741 2.3121238e-05 9.8314333e-05
0.34306833 -0.26869822 0.07480529 -0.91183388 0.41052961 0.0049470062 0.0014345782
-0.34562039 -0.2567769 0.077900045 0.95727277 0.28918648 -0.00039137446 0
-0.29299229 -0.253685 0.07457149 0.89017248 0.45562357 5.5235073e-06 1.8606534e-05
0.28705743 -0.25022402 0.073322579 -0.92482603 0.38037768 0.0030928226 0.0011883389
0.34857857 -0.25221372 0.072071046 -0.96002799 0.27960914 -0.012846471 0.0010384526
-0.3499743 -0.24224055 0.071067892 0.95793593 0.28698209 1.4650208e-05 0
0.28842992 -0.24597354 0.070969582 -0.94342315 0.3314665 0.0090917237 0.00052251079
-0.35323232 -0.23136288 0.076837882 0.95792979 0.28700256 3.3282431e-06 0
-0.30332208 -0.23350315 0.073756233 0.93522465 0.35403141 0.0040678158 0.0028522883
0.29114604 -0.23756167 0.078562886 -0.95164073 0.30721334 -3.5349447e-05 0
-0.35536981 -0.2242265 0.077495769 0.95797247 0.28686032 5.8385735e-06 0
-0.30610979 -0.22579379 0.079239711 0.95557171 0.29472873 -0.0042088865 0.002395574
0.29447377 -0.22725581 0.076824382 -0.95161456 0.30729401 3.2684413e-05 0
0.35441709 -0.22756517 0.07265006 -0.97307831 0.23047489 1.6915352e-05 7.7341538e-06
0.2982415 -0.21558724 0.075933129 -0.95163298 0.30723721 -8.8002271e-06 0
0.3568677 -0.21721931 0.075411141 -0.97309637 0.23039849 4.2330033e-05 0
-0.35968623 -0.20981523 0.0760637 0.96006185 0.27977628 0.0025138762 0.00020187856
-0.3116073 -0.20016097 0.073761448 0.97775912 0.20973089 1.6692749e-05 0
0.30171168 -0.20484029 0.075223759 -0.95237148 0.30493972 -0.00050424086 6.8466063e-05
0.35909379 -0.20782155 0.075586654 -0.97306621 0.23052572 7.7252744e-06 0
0.36006805 -0.20370837 0.072185479 -0.9730683 0.23051693 1.4045612e-06 0
-0.36494467 -0.19225889 0.076490149 0.98883075 0.14705043 -0.024288265 0.0027292392
-0.31512451 -0.18376173 0.074241288 0.97777092 0.209676 3.5971909e-05 5.488531e-05
0.30751854 -0.18685645 0.073741011 -0.97321236 0.22988828 -0.0030110157 0.0013735297
0.36507243 -0.18258134 0.074511901 -0.98082399 0.19489026 0.0014452548 0.00082643813
-0.36572656 -0.17894563 0.079659365 0.99764389 0.067749076 0.010806908 0.00083120773
-0.31649274 -0.1773822 0.070973307 0.97776496 0.20970385 -1.6449098e-05 2.8946642e-06
-0.36611986 -0.16548917 0.074372917 0.9992848 0.037706185 -0.002861365 8.4852218e-05
-0.31814179 -0.16969325 0.076536149 0.98071778 0.1954242 0.0014288703 0.00033601801
0.31030592 -0.16781452 0.078218862 -0.99675363 0.080403782 -0.004182192 0.00081700878
0.3680709 -0.16486293 0.074099369 -0.99788439 0.064104594 0.010833821 0.001615437
-0.36647534 -0.15332586 0.070075765 0.99957275 0.029229023 1.1950747e-05 4.252687e-05
-0.32114428 -0.15569383 0.074307799 0.99064988 0.13627343 -0.0065078959 0.0014267121
0.31100062 -0.15407835 0.074455686 -0.99859583 0.052974135 0.00032876577 9.586753e-05
0.36766165 -0.1508617 0.075940304 -0.99965048 -0.026398461 -0.0013995781 2.026294e-05
-0.36660761 -0.14879982 0.077165082 0.99957198 0.02925468 -7.8401399e-06 0
-0.3223809 -0.14073314 0.070005685 0.99883479 0.048227318 -0.0017773636 0.0020869731
0.31153852 -0.14344153 0.076616064 -0.99872327 0.050515283 -2.8890679e-05 0
-0.32212138 -0.13560173 0.073294595 0.99978375 -0.02044788 -0.003789919 0.00043902977
0.31194001 -0.13550173 0.073525161 -0.99872243 0.050532077 3.0048195e-06 1.8347762e-05
0.36729079 -0.13817146 0.074757569 -0.99957377 -0.029192934 2.9710362e-05 0
-0.36733505 -0.1239095 0.074622005 0.99957329 0.02921034 1.2947066e-05 6.7730061e-06
0.31264773 -0.12150745 0.076202221 -0.99887753 0.047368344 -0.00011572555 6.3811116e-05
0.3669858 -0.12773547 0.078207448 -0.99957252 -0.029236346 -9.9121635e-06 0
-0.36765993 -0.11279371 0.07899645 0.99964648 0.026580727 -0.00052392791 0
-0.3210406 -0.11423013 0.076684974 0.99872297 -0.050521467 2.1555679e-05 3.4623572e-05
0.31291854 -0.11615247 0.074006513 -0.99889791 0.046931423 -0.00070826092 3.1699961e-05
-0.36798054 -0.10182337 0.078458697 0.99793559 -0.059412789 0.024387149 0.0016784501
0.31346315 -0.10538342 0.07496044 -0.9999755 -0.0069832415 -0.00024112272 0.001119795
-0.32020241 -0.097654924 0.074415796 0.99872416 -0.050498307 1.0935151e-05 1.19855e-05
-0.3199195 -0.092061095 0.072351404 0.99872386 -0.050504021 -1.4584281e-05 0
0.31342211 -0.09470199 0.075125903 -0.99527812 -0.097028211 -0.0026597099 0.0023156907
0.36577761 -0.086396791 0.073583692 -0.99664509 -0.08161597 0.0061173756 0.0015220026
-0.31899828 -0.07384412 0.077528954 0.99605638 -0.088698529 -0.0020921747 0.00070447056
0.3654581 -0.075464442 0.07622382 -0.98380482 -0.17910621 -0.0070070131 0.0023684599
-0.36150789 -0.065965079 0.075862497 0.97306859 -0.23051569 -4.3768837e-06 0
-0.31869504 -0.067847617 0.074929833 0.9912222 -0.13185899 -0.0095818741 0.0025976673
0.30684477 -0.064033985 0.075359121 -0.97776121 -0.20972134 3.9528844e-05 4.0182549e-05
0.36210752 -0.061863624 0.079008527 -0.97112709 -0.23843595 0.0077741113 0.0012502386
-0.31693134 -0.059909292 0.071588442 0.96712542 -0.25411189 -0.0097756879 0.0015048797
0.30473199 -0.054182887 0.075121246 -0.97776359 -0.20971021 1.8625842e-06 6.8625072e-06
0.35899562 -0.051473811 0.079615638 -0.96095216 -0.27670223 0.0026083414 4.848776e-05
-0.35755056 -0.049258471 0.078901775 0.97307587 -0.23048486 -1.5634398e-05 0
0.30217484 -0.042259876 0.073594324 -0.97776258 -0.20971505 2.4157998e-05 4.5139554e-05
0.3563014 -0.042478662 0.073566489 -0.95795339 -0.28692368 6.4129335e-06 8.6852988e-06
-0.3537741 -0.033315454 0.076609232 0.97306788 -0.23051906 -4.19963e-06 4.6977282e-05
-0.30958778 -0.03716661 0.07532227 0.95162135 -0.30727339 -1.1345728e-05 0
0.30088612 -0.036251061 0.076939993 -0.97654319 -0.21531846 -0.0011574572 6.5023509e-05
0.35519499 -0.038784735 0.072331876 -0.95795196 -0.28692874 -1.8042416e-05 0
-0.35087878 -0.021092115 0.074569158 0.96826172 -0.2499218 0.002871102 0.00032979931
-0.30622056 -0.026738549 0.072420448 0.95161611 -0.30728948 -2.0301964e-07 1.6160975e-05
0.29803035 -0.022935456 0.076424651 -0.96296233 -0.26871625 0.022249889 0.0012342411
0.35052744 -0.023201186 0.07129845 -0.95795375 -0.28692269 1.1928871e-06 0
0.29669014 -0.016686654 0.074011043 -0.95052338 -0.30976865 0.02342256 0.0025337082
-0.34734792 -0.0061858357 0.07454741 0.95408142 -0.29949671 0.005520741 0.00160705
-0.30066967 -0.0095476387 0.071844518 0.95133364 -0.30816215 0.00064267725 0
-0.29869267 -0.0034249944 0.074313231 0.95121717 -0.30852097 0.00089027622 4.060374e-05
0.34525049 -0.0055829859 0.076281309 -0.95795244 -0.28692707 -9.7635866e-06 0
-0.34404072 0.0032992866 0.070061781 0.92666221 -0.37574917 -0.010477957 0.0015569029
0.34191853 0.0055413293 0.072144806 -0.94553792 -0.32477525 0.021887608 0.00063287414
-0.29330048 0.013274306 0.070184134 0.90440971 -0.42665887 -0.002308287 0.0021888432
0.28235489 0.012080214 0.072120711 -0.89017373 -0.45562136 -1.6001892e-05 0
0.33875906 0.016089791 0.073416568 -0.91992557 -0.39161536 0.019349452 0.0023461441
-0.28669763 0.02405829 0.072168767 0.86050785 -0.50943267 0.0021356125 0.00092301751
0.27661747 0.023289736 0.076008998 -0.89017332 -0.45562202 -1.4640663e-05 0
-0.27755567 0.038192399 0.077398211 0.8396666 -0.54310215 3.5476353e-06 0
0.27112618 0.034018397 0.071224347 -0.89017677 -0.45561537 -2.335484e-05 0
0.32919249 0.033487488 0.075456001 -0.86070573 -0.50909144 -0.0034117349 0.00023083047
-0.32243955 0.043373488 0.077660546 0.88025647 -0.47449818 9.1881229e-06 0
-0.27046809 0.049150232 0.078805417 0.83965313 -0.54312301 1.205233e-05 2.5332422e-05
0.26651028 0.043036815 0.074041575 -0.8779636 -0.47868627 0.0062743542 0.00071912404
-0.31635326 0.054664683 0.076192304 0.88025635 -0.47449833 -7.2723265e-06 0
-0.26430932 0.058672115 0.078117236 0.83967167 -0.5430944 4.6054192e-06 1.5037018e-06
0.26138693 0.053046599 0.076691575 -0.84965783 -0.52733028 0.0020803874 0.001972059
0.31551319 0.055658672 0.071432814 -0.8510434 -0.52509528 -6.9285616e-06 9.1487336e-06
-0.31156656 0.063544832 0.076349869 0.87842321 -0.47788304 -0.00068864733 7.6702301e-05
-0.26018837 0.06504339 0.076373532 0.83967185 -0.54309404 -1.168739e-06 0
0.24996909 0.06818983 0.070684023 -0.7579897 -0.65224791 0.0049169892 0.00033006707
0.24533474 0.073317885 0.076547153 -0.75489902 -0.65584081 0.00055625453 0.00026682366
0.30290046 0.076101169 0.078116745 -0.85104758 -0.52508855 1.923092e-06 0
-0.29853639 0.086484924 0.077895008 0.81395292 -0.58085716 0.0092478925 0.0021608628
-0.24772526 0.084312148 0.079704396 0.76804107 -0.64035624 0.0075358171 0.0023991896
0.23401846 0.085839644 0.07170061 -0.7419073 -0.67050248 4.4974749e-06 0
0.29628596 0.086821824 0.078377753 -0.84047812 -0.54177958 0.0084587196 0.00055445498
-0.29341415 0.091915548 0.072506949 0.7736519 -0.63331228 0.01944923 0.0023734346
-0.28950989 0.096054867 0.075354643 0.73503125 -0.67800605 0.0060782544 0.00010820655
-0.24097158 0.090462774 0.07184647 0.71597528 -0.69792622 0.01668763 0.0012759168
-0.23495421 0.095900819 0.074053034 0.6832605 -0.73016566 -0.0036343192 0.00036064777
0.22361171 0.097355008 0.074976869 -0.74192291 -0.67048526 2.4414721e-05 1.8001429e-05
-0.27922919 0.10695457 0.074437745 0.72741699 -0.68619567 2.6843006e-06 5.7844969e-05
-0.22775888 0.10240342 0.079216495 0.67063081 -0.74179131 4.4474746e-05 4.175452e-06
0.21667776 0.10502762 0.075589687 -0.73059803 -0.68279952 0.0033886193 0.00017864331
0.22016229 0.10117187 0.072822064 -0.74192208 -0.67048615 -1.0917413e-05 2.0835923e-06
0.28703818 0.10181049 0.074135862 -0.77326769 -0.63403535 0.0074977144 0.0026556621
-0.27410784 0.11238426 0.072920822 0.72744942 -0.68616122 6.0151825e-07 7.8191852e-06
-0.21138033 0.11720511 0.072321653 0.67048508 -0.74192309 8.061289e-06 8.9002306e-06
0.268736 0.1191505 0.070221841 -0.68632001 -0.72729963 -3.2728967e-05 2.268444e-05
0.27545565 0.11281246 0.071210325 -0.69263375 -0.7212891 0.00067522225 7.8730605e-05
-0.25793123 0.12953486 0.073359773 0.72744846 -0.68616235 7.7727618e-06 0
-0.20416284 0.12372777 0.075254515 0.66490906 -0.74692404 0.00058862689 0.00010640973
0.19834524 0.12339032 0.073801532 -0.62116295 -0.7836169 -0.010053547 0.0024933117
0.26211485 0.12539567 0.075785853 -0.68612659 -0.72748214 1.5149755e-05 1.519054e-05
-0.25490248 0.13274597 0.075301312 0.72698832 -0.68664986 -0.00015398976 2.4404733e-05
-0.19231831 0.13443196 0.071177654 0.61556423 -0.78805566 0.0069901012 0.0017567106
0.17671399 0.13738155 0.071760684 -0.54308718 -0.83967626 -1.4159257e-07 1.2576541e-05
0.24855351 0.13818687 0.076629251 -0.68621927 -0.72739476 2.9398275e-06 0
0.25381461 0.13322452 0.072495013 -0.68619043 -0.727422 -3.3078038e-07 0
-0.2406629 0.14784288 0.075568795 0.69752753 -0.71649957 -0.0091532245 0.00079704699
-0.18217616 0.14217784 0.071970865 0.57521135 -0.81800377 0.00132664 0.0026165387
-0.17516303 0.14576739 0.073341951 0.49101034 -0.87115335 0.00079574011 0.0010774395
0.15752423 0.1497936 0.072228968 -0.54218209 -0.84026092 -0.00038012583 6.292978e-06
-0.23467544 0.15403989 0.076136969 0.66173357 -0.74973893 -0.00037400951 0.0020453138
-0.22771198 0.15887845 0.073358215 0.59957635 -0.80019772 0.013845116 0.0026976746
-0.15388356 0.15665895 0.074140213 0.45562592 -0.89017135 -7.0884056e-07 2.2589193e-06
-0.14999457 0.15864947 0.071739465 0.45566294 -0.89015234 -3.5158919e-07 0
0.2255068 0.15992478 0.076637194 -0.64379764 -0.76519126 0.0026264149 0.0010754268
0.23323143 0.15263882 0.072616063 -0.67572391 -0.73714989 0.0026857161 0.00020117512
-0.14179412 0.16284674 0.075216323 0.45564601 -0.89016104 -7.7388358e-06 3.7019665e-06
-0.1342513 0.1667074 0.07104753 0.45563996 -0.89016414 -2.9447847e-07 0
0.12610942 0.1680346 0.07307639 -0.35239157 -0.93585265 0.00023665848 0.00088579452
0.13280736 0.16558477 0.072339132 -0.43583798 -0.89991099 -0.014334613 0.0023357517
0.22285545 0.16242555 0.07034418 -0.6248818 -0.78069365 0.0063336035 0.0013684449
-0.20376459 0.17365365 0.075221956 0.52509201 -0.85104549 -9.7430502e-06 0
-0.19647175 0.17815322 0.079569891 0.52508193 -0.85105169 2.3515466e-05 2.8246432e-05
-0.12476989 0.17156029 0.073764354 0.42161566 -0.90677005 -0.0028891086 0.00075125968
-0.11488536 0.17661954 0.073931143 0.35281149 -0.93567783 -0.0055700811 0.0012402877
-0.1057234 0.17956543 0.072409436 0.28081223 -0.95975745 0.003197761 0.00099746371
0.1048665 0.17489389 0.072466597 -0.30891711 -0.95108891 -0.00046555151 0
0.11877002 0.17040449 0.075546384 -0.33504403 -0.94219995 0.0021728028 0.00075247628
0.19987261 0.17732713 0.077500731 -0.48859146 -0.87251157 0.001420253 0.00043679689
0.21212411 0.1707232 0.077832997 -0.55425632 -0.83220708 -0.015209349 0.0024628812
-0.18590301 0.18467398 0.075172968 0.52508742 -0.85104829 5.0025023e-06 3.0145287e-05
-0.084767513 0.18405989 0.074507743 0.20969804 -0.97776616 5.005646e-06 3.2978771e-06
0.064398274 0.18796104 0.071924195 -0.24585368 -0.96929622 -0.0045545469 0.0017448047
0.077581219 0.18370429 0.07957159 -0.30583528 -0.95208448 0.00010433621 0
0.17871913 0.18872948 0.076838046 -0.4744848 -0.88026375 2.2811728e-05 1.2659524e-05
0.19336841 0.1808331 0.078462571 -0.47449449 -0.88025844 -2.2662673e-06 0
-0.17369862 0.19220392 0.07552176 0.52507687 -0.85105479 -1.2839684e-05 2.7441718e-07
-0.055772595 0.19027852 0.078178063 0.20349808 -0.97907531 6.6766523e-05 7.7452729e-05
-0.041538026 0.19333144 0.078105882 0.15191683 -0.98838615 0.0037314165 0.0017079402
-0.035566274 0.19461221 0.076227404 0.12490972 -0.99215561 0.0049841478 0.0018572852
-0.026355319 0.1956027 0.076741986 0.074293479 -0.99721694 -0.0062274081 0.0029433197
0.0053571761 0.19399899 0.070620194 -0.050508022 -0.99872363 7.1521999e-06 2.4241483e-05
0.013666497 0.19357878 0.073495537 -0.050508518 -0.99872363 -4.7307694e-06 0
0.03538952 0.19248022 0.076497868 -0.077599511 -0.99695617 0.00752897 0.00053484563
0.054387756 0.19090855 0.074211232 -0.20453025 -0.97885978 0.00085559231 0.0022921343
0.16020012 0.19871175 0.071487159 -0.47450393 -0.88025331 5.2490846e-06 1.6106711e-05
0.17504424 0.19071037 0.071637034 -0.47448573 -0.88026321 8.2703109e-06 0
-0.15237617 0.20535958 0.077513397 0.43213475 -0.90172857 0.012047667 0.0018263598
-0.14581962 0.20758091 0.074296184 0.35484195 -0.93464237 0.023037646 0.0012349072
0.14394695 0.20747274 0.075160086 -0.45616159 -0.88983631 0.010387682 0.00026455667
0.1514138 0.20344788 0.075231925 -0.46419907 -0.88572133 0.0041093682 0.0002422501
-0.1230472 0.21440165 0.078031451 0.28693444 -0.95795023 -8.2017168e-06 9.6188005e-06
0.11165236 0.21885698 0.070648804 -0.24985084 -0.96823961 0.0093098758 0.00033467743
0.1255296 0.21556985 0.075683162 -0.32051095 -0.94717062 0.011859027 0.0025159887
0.13724229 0.21108675 0.077222355 -0.41093606 -0.91159058 0.011579714 0.0021233526
-0.10408103 0.22008236 0.076148152 0.28694454 -0.95794713 9.4617235e-07 0
-0.090260155 0.22422197 0.076562613 0.28693974 -0.95794863 7.506826e-06 0
0.072875619 0.22804207 0.071824946 -0.23048905 -0.97307491 7.7164009e-07 1.2850196e-05
0.10227391 0.22107846 0.075484976 -0.23050801 -0.97307044 7.0589958e-06 2.9410953e-06
-0.070380256 0.23017634 0.076253802 0.26622766 -0.96390855 -0.0017550691 0.00025534959
-0.06654425 0.23132531 0.072589822 0.21518601 -0.97651654 -0.010508206 0.0019879634
-0.055426657 0.23368715 0.071882986 0.13135381 -0.99133074 -0.0031045927 0.0015222701
-0.037804879 0.23420215 0.077873848 0.048006084 -0.99884182 -0.0032576604 0.00042165042
-0.014500763 0.23488325 0.076766588 0.029212398 -0.99957323 6.410819e-06 9.5369687e-06
-0.0074935807 0.23508804 0.073266581 0.029209498 -0.99957329 1.9091782e-05 2.0087725e-06
0.0084263068 0.23555332 0.0705024 0.029216867 -0.99957311 5.6982553e-06 1.1026174e-05
0.014895049 0.23574238 0.074632071 0.024294004 -0.99970478 -0.00045900641 4.0952928e-05
0.024242081 0.23601556 0.077383496 -0.0091623981 -0.99995422 0.0027471269 0.00088531122
0.032314047 0.23625146 0.074843019 -0.048543207 -0.99882048 0.001080639 0.0021764927
0.040004406 0.23582833 0.078724109 -0.074147105 -0.99722886 0.006073765 0.0023048995
0.054327384 0.23243561 0.074349985 -0.21068691 -0.97754657 0.003704523 0.00030536679
-0.062980995 0.38918325 0.076924756 -0.19765876 -0.85496891 -0.47954062 0.043129221
-0.053542819 0.38847166 0.078015551 -0.047863793 -0.85373253 -0.51850742 0.0088488422
-0.04762388 0.3872959 0.079817794 0.0008017458 -0.8417927 -0.53980023 9.9579702e-05
-0.028195404 0.38967162 0.076176196 -0.00074655877 -0.85194528 -0.52363026 0.00036368513
-0.012130545 0.38916889 0.076946765 -0.00090362027 -0.84971046 -0.52724886 0.00037678794
-0.009403713 0.38748294 0.079531118 0.0011216213 -0.84633815 -0.53264481 0.00020323032
-0.080867 0.394732 0.074110337 -0.7675361 -0.54367858 -0.33956128 0.084163181
-0.075358622 0.39363644 0.070098668 -0.65708119 -0.66480678 -0.35535386 0.077746965
-0.040127356 0.39020231 0.075362653 0.0012637746 -0.84929156 -0.52792269 0.00030015458
-0.03118963 0.39111653 0.073961318 0.0024436899 -0.85490865 -0.51877284 0.00045202472
-0.022227669 0.390935 0.074239582 0.00053917646 -0.85105264 -0.5250802 0.00036127551
-0.012371732 0.39122936 0.073788375 -0.0026495359 -0.85319608 -0.52158356 0.00043233501
-0.0025355257 0.3923161 0.072122514 0.002465914 -0.86145353 -0.50783056 0.00085759762
0.0046928688 0.39236024 0.072054878 0.0028486098 -0.86020386 -0.50994241 0.0010919949
0.016646363 0.39071083 0.074583173 0.17858252 -0.84860915 -0.49796671 0.031360917
0.025189511 0.39283323 0.071329832 0.30951017 -0.82093734 -0.47985974 0.050033264
0.036027882 0.39472741 0.072676755 0.5983606 -0.6810903 -0.42199597 0.072870299
-0.080867 0.4091318 0.079720423 -0.97279352 -0.19358434 -0.12727085 0.041588586
0.037569553 0.40776211 0.073788054 0.9339149 -0.29014149 -0.20885639 0.079418331
-0.080867 0.41614032 0.075093023 0.98738295 0.12586555 0.096087828 0.035670195
0.037569553 0.419698 0.077554949 -0.99544966 0.059335057 0.074561678 0.015377527
-0.080867 0.42813995 0.072140887 1 -5.1564435e-05 -3.0751039e-06 0
-0.080867007 0.43729621 0.079892822 1 -5.4602919e-05 -1.0343733e-05 0
0.037569553 0.43410012 0.078931093 -1 2.5886399e-07 -1.0056467e-06 2.792153e-07
-0.080867 0.4483501 0.074847646 1 -3.2116379e-05 -9.3490689e-06 0
0.037569553 0.44575852 0.071160778 -1 -8.0943828e-06 -5.464438e-07 0
-0.080867 0.45746669 0.072839893 0.99814492 -0.055046923 -0.026011428 0.010990486
0.037569553 0.45461166 0.077013806 -0.99284089 -0.1186881 -0.013420646 0.015319877
-0.080867 0.46536124 0.07584323 0.97904491 -0.19249453 -0.066459797 0.037190434
-0.080867 0.47299516 0.075143129 0.9211064 -0.37559929 -0.10241231 0.072217263
0.037569553 0.47737402 0.070005931 -0.81537336 -0.55642569 -0.15986478 0.081468068
-0.080867 0.48217615 0.073453851 0.82992095 -0.51972234 -0.20278053 0.077188835
-0.078496903 0.48192227 0.075178415 0.64194423 -0.73835361 -0.20674032 0.098589055
-0.068601847 0.48188591 0.075289577 0.35943416 -0.86907387 -0.33987886 0.066551134
-0.055396095 0.48180887 0.07552503 0.076595463 -0.94821662 -0.30825055 0.0082385316
-0.022666952 0.4823032 0.074014254 0.00099399767 -0.94922936 -0.31458324 3.157543e-05
-0.013931903 0.48224127 0.074203588 -8.3292733e-05 -0.9500463 -0.31210896 5.9949552e-06
-0.0039596185 0.48134771 0.07693442 -0.0010442383 -0.94335765 -0.33177608 0.00057806593
0.0080208154 0.48181859 0.075495318 -0.0086149676 -0.94826323 -0.31736821 0.00038364693
0.016474446 0.48269337 0.072822005 -0.19199409 -0.9357689 -0.29576156 0.036150467
0.025111854 0.48194417 0.075111531 -0.22809026 -0.9364506 -0.26652417 0.043353263
0.032816861 0.4824692 0.073507071 -0.51255703 -0.82337874 -0.24358311 0.071673967
-0.07255125 -0.49171385 0.088542007 0.23050912 0.9730702 -1.4619234e-05 0
-0.064186357 -0.49369523 0.080840379 0.22603086 0.97411901 -0.0014756713 0
-0.059743591 -0.49474758 0.082580984 0.22320464 0.9747715 -0.00034466389 1.9545949e-05
-0.042858608 -0.49874717 0.081708983 0.1393857 0.99017245 0.011407867 0.0021097846
-0.034805115 -0.49991921 0.083277524 0.11161286 0.99366772 0.012926497 0.0015613125
-0.028720541 -0.49974138 0.0874082 0.028789563 0.99945056 0.016424511 0.0009322355
-0.015347758 -0.49935055 0.080594212 -0.021676706 0.99976349 0.0017650574 4.0653413e-05
0.0014052745 -0.49886093 0.087427527 -0.029211301 0.99957323 -1.5114314e-05 0
0.010802483 -0.49858627 0.089275181 -0.029219717 0.99957305 -2.0981728e-05 0
0.027005836 -0.49811274 0.080367148 -0.029213844 0.99957323 6.2075796e-06 7.4026124e-05
0.056122124 -0.49726176 0.081464022 -0.13427858 0.99094051 -0.0024994537 0.0034512244
0.063141301 -0.49593949 0.086263955 -0.21290085 0.97707319 -0.0010300666 0.0023115182
0.075023949 -0.49238044 0.083951831 -0.26934278 0.9630354 0.0041565807 0.00061899016
-0.11054021 -0.48271537 0.087834239 0.2422369 0.97020853 -0.0040861918 0.00013782192
-0.1066945 -0.48362628 0.086685181 0.2360296 0.97174585 -0.00040692504 4.8718557e-05
-0.087775469 -0.48810765 0.088765323 0.23050535 0.97307104 5.2688214e-05 1.9454812e-05
0.087438188 -0.48866215 0.087640606 -0.28695151 0.95794511 1.0891174e-05 0.00010463584
0.094007477 -0.48669454 0.085944638 -0.28692466 0.95795316 -3.2309881e-06 4.1895423e-06
0.10710446 -0.48277172 0.084638745 -0.2869342 0.95795029 4.6166071e-05 2.9787467e-05
-0.13492344 -0.47593164 0.084611923 0.36093608 0.93257761 -0.0049062762 0.0022991064
-0.12955239 -0.47821191 0.08617796 0.34079123 0.94011462 -0.0067805354 0.0019915346
0.11744517 -0.47967452 0.084945969 -0.2869066 0.95795858 -2.1774007e-05 2.3743656e-05
0.13645959 -0.47397935 0.089719102 -0.31503463 0.94895107 0.015654683 0.00061900821
0.14714709 -0.47077826 0.087833248 -0.37534562 0.92678559 0.013568936 0.002553479
-0.15894592 -0.46298274 0.085264191 0.47455001 0.88022852 3.1470558e-05 8.9527974e-05
0.16167186 -0.46321923 0.082999885 -0.47927612 0.87763518 -0.0071302066 0.0013044527
-0.16736194 -0.45844626 0.081091583 0.47452083 0.88024437 -3.7352565e-06 1.5515934e-05
0.17228955 -0.45666826 0.085892767 -0.51903749 0.85474986 -0.0016832419 8.9558154e-05
0.18235186 -0.45045996 0.080864981 -0.52503294 0.85108191 1.3788722e-06 0
-0.2014316 -0.44008172 0.086888641 0.4961417 0.86821526 0.0067644394 0.00045868161
0.018011432 -0.44069731 0.082841828 -0.049740452 0.99876076 0.0016512418 0.0022194802
0.024210602 -0.44021481 0.082549989 -0.095894009 0.99539095 0.0011283578 0.0027448945
0.19019121 -0.44562316 0.08269766 -0.52504677 0.85107344 3.5648079e-06 0
-0.21316561 -0.43375671 0.083483607 0.57089227 0.82099915 0.0065116673 0.0024802538
-0.072074808 -0.43341294 0.084354974 0.24712853 0.96895874 0.0068188547 0.0017957819
-0.062334776 -0.43655795 0.08954379 0.17434555 0.98468161 0.0023992308 0.0023645998
-0.053042248 -0.43710405 0.087212443 0.12725876 0.99186647 0.0024601517 0.001890177
-0.048502833 -0.43733361 0.08729665 0.082320958 0.99660259 0.002527616 0.00082408584
-0.033488765 -0.43809292 0.083299369 0.050980885 0.99869961 -0.00013080935 0
-0.024386618 -0.43855321 0.083080262 0.050515532 0.99872327 1.7432376e-05 0
-0.018419435 -0.43885496 0.086561695 0.050502595 0.99872392 2.2294154e-05 5.1816944e-05
0.0025653839 -0.43991622 0.085979134 0.02643666 0.99965 0.00093346013 0.00060995395
0.028124962 -0.43937525 0.087604776 -0.13007517 0.99133199 0.018475788 0.00236096
0.031394739 -0.438674 0.086395174 -0.14824925 0.98848206 0.030420635 0.0020867728
0.045380879 -0.4356744 0.083752066 -0.20331092 0.9791134 0.0013024227 0.00011613523
0.059391167 -0.43266961 0.082612976 -0.20970751 0.97776413 1.5121275e-05 2.371333e-05
0.065085024 -0.43144846 0.086555429 -0.20972994 0.97775936 4.2415166e-07 3.816768e-05
0.20577189 -0.43601012 0.083053395 -0.52514499 0.85101277 -2.7411423e-05 0
0.21384363 -0.43102995 0.084865607 -0.52778572 0.84937757 -8.4385312e-05 1.091363e-05
-0.22258864 -0.42627215 0.083021782 0.62909633 0.777197 0.014235538 0.0014987909
-0.11167687 -0.42062563 0.089129448 0.30726954 0.95162255 -1.7647494e-06 0
-0.10691939 -0.42216176 0.080771282 0.30728561 0.9516173 -2.0192398e-05 0
-0.088484652 -0.4281143 0.0823531 0.30730164 0.95161217 2.438623e-07 0
0.083956353 -0.42740113 0.082240149 -0.22568074 0.9742012 0.00046480729 0.00023596456
0.10864657 -0.42034411 0.083025187 -0.37851897 0.92558509 0.0039560264 0.0019806146
-0.23509081 -0.41447997 0.089796722 0.67935312 0.73380798 0.0022795449 7.8000208e-05
-0.1426364 -0.41022524 0.087037817 0.42785031 0.90384936 -0.00064545323 0.0023716204
-0.13252668 -0.41389328 0.082089812 0.35854048 0.93343967 -0.011789937 0.0016606763
-0.11801329 -0.41857958 0.081591569 0.31027359 0.95064723 -0.00030483684 3.6623009e-05
0.11419792 -0.4175027 0.08141838 -0.43530068 0.90027076 -0.0050827046 0.00036062789
0.12590574 -0.41151026 0.083053648 -0.4532114 0.89140308 -0.00013422826 0
0.23474182 -0.41764081 0.084366441 -0.64021027 0.76818097 0.005366968 0.0019077003
0.24068999 -0.41140908 0.085106127 -0.6966306 0.71741676 0.0043558157 0.00080838701
-0.24485302 -0.40527213 0.086258776 0.68619448 0.72741818 1.6982667e-05 5.849712e-05
0.13245969 -0.40815571 0.089399278 -0.45566884 0.89014941 5.6477716e-06 3.7917351e-05
0.14158483 -0.40348512 0.086619534 -0.45564607 0.89016098 9.5088089e-06 6.4077343e-05
0.24866706 -0.40295172 0.081138745 -0.72717255 0.68645471 -2.5811785e-06 0
0.25034213 -0.4011758 0.085238844 -0.7271198 0.68651062 -4.6631871e-05 0
-0.25099772 -0.39947641 0.087301999 0.6861096 0.72749817 3.7279289e-05 0
-0.1722189 -0.39109111 0.086390585 0.5430963 0.83967042 6.5647228e-06 1.8173158e-05
0.26019651 -0.39072812 0.083882749 -0.72743773 0.68617368 -4.6819216e-05 0
-0.26526526 -0.38601914 0.086914137 0.68615901 0.7274515 8.4285665e-07 3.6564361e-05
-0.17549241 -0.38897377 0.088395789 0.54318815 0.83961111 -2.7645152e-05 0
0.17861627 -0.38387203 0.086938463 -0.58363342 0.81198466 0.00727798 0.0029268148
0.18119913 -0.3815378 0.085963652 -0.5836603 0.81196529 0.0072786119 0.0029021467
0.26779115 -0.38267621 0.088080898 -0.72730386 0.6863156 -4.4388667e-05 0
-0.27359688 -0.37816063 0.084707201 0.6979993 0.71609342 0.0026777838 0.00038035199
-0.20370868 -0.37072334 0.086760849 0.60693794 0.79469246 0.0094938576 0.0013178606
-0.19839817 -0.37415823 0.080435678 0.57677174 0.81690532 -0.00042358585 0.00097543752
0.19097807 -0.37270033 0.082625359 -0.66505986 0.7467888 -0.0013461928 0.00011028712
0.27510712 -0.37491977 0.08580476 -0.72752059 0.68608588 0.00010284064 0.00010973045
-0.29009372 -0.36045304 0.087840654 0.80813402 0.5889985 -0.0002540804 0.0019943991
-0.28467304 -0.36771348 0.085074753 0.76912349 0.63861197 -0.024976073 0.0024385503
0.19662341 -0.3675985 0.088536844 -0.6676932 0.7444365 -0.00047699528 2.4533732e-05
0.2844134 -0.36505318 0.086773328 -0.73111206 0.68225437 0.0020545602 5.3732787e-05
-0.29631007 -0.35037768 0.083188325 0.84132898 0.54047787 -0.0070120608 0.00028193218
-0.22170533 -0.35434175 0.080954574 0.72078162 0.69315439 -0.0032699083 0.0004823659
-0.21792638 -0.35852331 0.081720486 0.68728894 0.72636747 0.004926987 0.0016370623
0.20701651 -0.358206 0.085610062 -0.67047042 0.74193633 -1.5192827e-05 5.375462e-06
0.2133029 -0.35252485 0.086759746 -0.67052734 0.74188483 7.7594086e-06 2.8338829e-05
0.29285556 -0.35610271 0.084032759 -0.77186668 0.63551843 -0.018390451 0.0018723471
-0.2981337 -0.347422 0.087294146 0.84175235 0.53986382 0.00021193958 0.00026888889
-0.23028666 -0.34484625 0.083984524 0.74174571 0.67068118 -5.2990428e-05 0
0.22272879 -0.34400642 0.086557537 -0.67042196 0.74198002 -6.7663495e-06 0
0.30156916 -0.34568679 0.080998242 -0.82932705 0.55864131 -0.011678537 0.0022135945
-0.30394274 -0.33800679 0.080873184 0.8508718 0.52537346 -1.4442708e-05 0
0.22933987 -0.3380318 0.084816463 -0.71674949 0.69733065 -0.00023492005 0.0013537523
0.30755275 -0.33458614 0.085469134 -0.86184555 0.50704575 0.011265303 0.00079551723
-0.31141117 -0.32590207 0.081161447 0.85106617 0.52505845 4.2582917e-05 9.9729587e-06
-0.24445562 -0.3291679 0.085631378 0.74189174 0.67051965 2.0950336e-05 0
0.31404275 -0.32254595 0.081273541 -0.88026649 0.47447968 -3.2321928e-05 0
-0.25878441 -0.31331265 0.08514984 0.77645224 0.63007438 -0.011319336 0.00092508242
0.24745247 -0.31609696 0.080336794 -0.81491512 0.5795486 0.0060699801 0.00065292924
0.31989735 -0.31168458 0.081672519 -0.88019228 0.47461724 2.6555193e-05 0
0.32052207 -0.31052569 0.084389597 -0.8802321 0.47454342 1.867222e-07 0
0.32283062 -0.30624285 0.085772343 -0.88024431 0.47452068 -1.0850334e-05 0
-0.33230278 -0.29204136 0.083983287 0.89393067 0.44794837 0.015178425 0.002389672
-0.27283865 -0.29306018 0.084548332 0.85729057 0.51482683 -0.0024912341 0.001241294
0.2587176 -0.29868042 0.082554176 -0.83959389 0.54321456 -1.7370816e-05 0
0.32709175 -0.2983377 0.086042732 -0.8802374 0.47453344 -1.0797896e-06 2.9919565e-05
-0.3371276 -0.28382182 0.082655393 0.91783571 0.39694101 0.0039374074 0.0024693578
-0.27852151 -0.28195727 0.08113683 0.8900004 0.45595983 2.0214053e-05 0
0.26851839 -0.28352779 0.088521831 -0.83969671 0.54305571 5.2612166e-05 6.0462688e-05
0.33345526 -0.28653222 0.085642546 -0.88024747 0.47451496 2.4844529e-05 4.8847196e-05
-0.33945999 -0.27734467 0.080264568 0.92860085 0.37081501 0.014022971 0.0023805539
-0.27996778 -0.27913162 0.082800582 0.89012742 0.45571178 -5.8866658e-06 0
0.3407318 -0.2730329 0.085350163 -0.90730447 0.42034128 0.010572319 0.00150589
-0.34284422 -0.26604569 0.082896121 0.95181274 0.30661434 0.0063342233 0.00069370266
0.34577617 -0.26367462 0.086117424 -0.93356466 0.35827166 0.0099231163 0.0030409244
-0.34581819 -0.25611651 0.08098039 0.95736367 0.28888512 0.00034796001 0
-0.2932848 -0.25311357 0.086023748 0.8908183 0.45435956 0.0002692345 1.048683e-05
0.28662491 -0.25156352 0.087800667 -0.92518538 0.37926778 0.013705962 0.0015151647
0.34843621 -0.25281459 0.081618637 -0.95545918 0.29511541 0.002145895 0.0014143953
-0.34830981 -0.24779764 0.089596435 0.95796114 0.28689784 2.4663184e-06 0
0.2876671 -0.24833596 0.085517354 -0.9374702 0.34799111 -0.0071959873 0.00080948317
-0.35187691 -0.23588818 0.081674755 0.95796186 0.28689539 -1.2928129e-05 2.5580151e-05
-0.30419761 -0.23179258 0.08355701 0.92398626 0.382267 -0.011009733 0.0025161975
0.35272062 -0.23472723 0.085847124 -0.9729653 0.23095115 -1.2103852e-05 7.5305193e-06
-0.30551776 -0.22855414 0.087452821 0.9386251 0.34437439 -0.019729383 0.0020392297
0.29569939 -0.22346012 0.085977986 -0.95160812 0.30731428 2.9667779e-05 0
0.35580143 -0.22172076 0.088302828 -0.97306508 0.23053069 2.3737253e-05 2.6329304e-05
-0.35843751 -0.21398437 0.08559604 0.95795536 0.28691733 -6.5795035e-07 5.0694805e-05
-0.30827039 -0.21571985 0.089643791 0.96939772 0.2454711 -0.0034609355 0.00064621138
0.30128664 -0.20615655 0.082492076 -0.95235825 0.30498138 -0.0003305923 6.088203e-05
-0.36467436 -0.19316138 0.085236937 0.98773158 0.15575323 -0.011282124 0.0027951298
-0.31364751 -0.19064853 0.087178417 0.97775757 0.20973836 -1.8295908e-05 0
0.30620754 -0.19091663 0.085527152 -0.96551716 0.25989038 -0.015284457 0.00098708889
0.36208308 -0.19520155 0.084141955 -0.97308141 0.23046175 7.6485458e-06 0
0.36563241 -0.18021733 0.087524369 -0.9806608 0.19567117 0.0041415547 0.00060711923
-0.36592269 -0.17223373 0.086492099 0.99926353 0.038367387 -0.00059174647 7.3289157e-05
0.30976456 -0.17851987 0.080847517 -0.9808051 0.1949895 -0.00062353822 0.0027825483
-0.36611119 -0.16578457 0.084817983 0.99923879 0.03889595 -0.002976259 3.4222267e-05
-0.31886894 -0.16630277 0.083200753 0.98282284 0.18451484 0.0036720952 0.0005698796
0.36810651 -0.16608281 0.089578897 -0.99834627 0.056831114 -0.0086589912 0.0016064548
-0.32146025 -0.1542207 0.083257809 0.9942891 0.10652727 0.006415857 0.0021233747
0.31103307 -0.15343596 0.089942873 -0.99872249 0.050530799 1.1339308e-05 1.8260544e-05
-0.32239035 -0.14092022 0.087217018 0.99985492 0.016931141 0.0018721173 0.001631616
-0.36702099 -0.13465559 0.083498344 0.9995724 0.029240219 4.2955417e-05 0
-0.32204074 -0.13400725 0.08780688 0.99995196 -0.0094271163 -0.0026864484 0.00091856706
0.31172234 -0.1398063 0.083669461 -0.99872416 0.050498556 -1.9169966e-06 0
-0.32158947 -0.12508324 0.086708739 0.99916583 -0.040821895 0.0010961698 0.00027015703
-0.36763284 -0.11372074 0.083044417 0.99964839 0.026514627 -0.00035182422 0
-0.3210637 -0.11468731 0.085334264 0.99872506 -0.05048183 -1.3644083e-05 0
0.31310201 -0.11252464 0.080566153 -0.99973589 0.022928094 0.0015546414 0.00077617849
0.36664322 -0.11601382 0.083303168 -0.99957269 -0.029229475 3.1928166e-06 0
-0.36782917 -0.10700102 0.089393437 0.99999803 -0.0015796503 -0.0012142091 0.00090250163
-0.32077992 -0.10907507 0.085693598 0.99872208 -0.050540186 8.7052667e-06 4.4739849e-05
0.31341365 -0.10636181 0.08662279 -0.99982393 -0.01860174 -0.0024561689 0.0017233974
-0.32015088 -0.096636295 0.081128553 0.99872428 -0.050495315 -1.346533e-05 1.1134536e-05
-0.31985572 -0.090799749 0.082281783 0.99872518 -0.050476879 -2.4077597e-05 0
-0.31979793 -0.089657173 0.085418791 0.99822205 -0.059584368 0.001567109 0.00010456779
0.31134227 -0.085004359 0.083214805 -0.98812085 -0.15360643 0.0047170296 0.0013700159
0.365841 -0.088565513 0.082991436 -0.99796683 -0.063724332 -0.0012162005 0.0012472128
0.30836737 -0.071133494 0.082996562 -0.97776473 -0.20970494 -1.9597601e-05 0
0.36542311 -0.074266978 0.081516162 -0.98270392 -0.18511839 -0.0049191494 0.0019729065
-0.31698167 -0.060065258 0.085577637 0.97489703 -0.2226007 -0.0049782703 0.0019055533
0.30696833 -0.064610243 0.08687976 -0.97776425 -0.20970708 -1.8141243e-05 1.2195025e-05
0.36171156 -0.060541604 0.082922801 -0.97064406 -0.24046522 0.0051565724 0.0013778345
0.35917416 -0.052069999 0.087903775 -0.96111572 -0.27614376 -0.0010997021 0.00016094984
0.36069885 -0.05716056 0.084311903 -0.96254742 -0.27111334 0.0002603966 0.00012882191
-0.31197041 -0.04454558 0.083205558 0.95293438 -0.30317453 0.0011444684 9.073814e-05
0.30268458 -0.044636548 0.081419773 -0.97775733 -0.20973925 1.7617163e-05 9.8297176e-05
0.35788894 -0.04777896 0.088600568 -0.95850968 -0.28505981 0.00015124559 6.598451e-05
-0.35338932 -0.031690981 0.089008033 0.97307718 -0.23047966 4.0082494e-05 0
-0.30827594 -0.033104062 0.085271381 0.95161456 -0.30729431 -1.482323e-05 2.85557e-05
0.30058071 -0.034826994 0.081865259 -0.97315949 -0.23011926 0.0024056318 0.00061671331
-0.35186416 -0.025252052 0.080575868 0.97307479 -0.23048975 -1.4351493e-05 4.9254886e-06
0.35099491 -0.024761951 0.085642934 -0.95795304 -0.28692496 1.0350349e-05 1.2951584e-05
-0.35023901 -0.018391309 0.082075991 0.9707616 -0.24004567 0.00012074247 0.00013226252
-0.34971842 -0.016193485 0.086649522 0.96866888 -0.24834475 -0.0023341472 0.00021782155
-0.30382401 -0.019316534 0.089334287 0.9516139 -0.30729637 3.5187852e-05 4.5581302e-05
0.29475492 -0.012146458 0.08319433 -0.93358946 -0.35832444 -0.0037824486 0.0025109306
0.3480916 -0.015068638 0.080338031 -0.95794612 -0.28694814 1.3375464e-05 3.4171695e-05
-0.29850924 -0.0028569321 0.084850088 0.9515962 -0.30735123 4.7284124e-05 9.0866568e-05
0.29202604 -0.0068148519 0.083707944 -0.92148608 -0.3883726 -0.0054959231 0.001872721
-0.29565048 0.0059964578 0.084075436 0.92513734 -0.37958607 -0.0059423605 0.0015092476
0.28578439 0.0053797797 0.083843768 -0.89298606 -0.45007885 -0.0022259927 3.1458505e-05
0.34322983 0.0011632405 0.084752813 -0.95558912 -0.29469293 0.0023240165 0.00017610137
0.3393631 0.014073107 0.085786767 -0.91822684 -0.39574501 0.015664222 0.0025891925
-0.33435383 0.021270227 0.081772655 0.88026184 -0.47448823 3.440603e-06 0
-0.28526369 0.026275262 0.081909202 0.85046363 -0.52601409 -0.0045604017 0.00045743314
0.33504215 0.024006424 0.085304946 -0.90100741 -0.43376535 0.0057683713 0.0021187109
-0.27901286 0.035939459 0.088943765 0.84011167 -0.54241347 -0.00013170697 0
0.26881188 0.038539957 0.082980506 -0.88514876 -0.4653075 0.00074089196 0.00013598253
0.27022785 0.035773542 0.083274178 -0.8901729 -0.45562279 -7.4136101e-06 0
0.32661957 0.037657652 0.083752662 -0.85901445 -0.51195109 0.00038627093 0.00022497935
-0.32292062 0.042480968 0.081289023 0.88026303 -0.47448608 8.0282562e-06 0
-0.27336311 0.044674382 0.086135507 0.839661 -0.54311097 -1.1389179e-05 0
0.32272893 0.043963507 0.089457385 -0.85103518 -0.52510875 9.0854737e-06 3.0970514e-05
-0.26718813 0.054221299 0.082467303 0.83965558 -0.54311913 3.5126052e-06 1.1839765e-05
0.25920472 0.057310097 0.082285739 -0.84244233 -0.53875196 0.0061001871 0.00241384
0.26060754 0.054569304 0.084181011 -0.84964138 -0.5273571 -0.0019805834 0.0019772688
-0.31199998 0.062740751 0.086125262 0.87456942 -0.48490012 0.00042926319 0.00011297967
-0.30818343 0.069821246 0.081159309 0.86280292 -0.50553185 -0.0029363844 0.00062369899
-0.26238966 0.061640035 0.085333347 0.83964658 -0.54313308 -6.2083959e-06 0
-0.25880909 0.067175791 0.083197445 0.83965468 -0.54312062 -2.9143127e-06 1.618497e-06
0.2554256 0.062152058 0.086977825 -0.80570149 -0.59230709 0.0041650715 0.0023637002
0.30983892 0.064855419 0.088793226 -0.8510322 -0.52511352 -1.8478255e-05 0
0.31161618 0.061974857 0.084006824 -0.85103971 -0.5251013 -2.5540492e-06 1.9900781e-05
-0.2518326 0.077961929 0.080436759 0.79705334 -0.6038456 0.0087433411 0.00178638
0.23952639 0.079744965 0.087573931 -0.74191648 -0.67049229 -1.2473863e-05 1.2678098e-05
0.24829367 0.070043735 0.086281925 -0.75491923 -0.65581328 0.0024116316 0.00036240654
0.30150735 0.078359097 0.083273038 -0.85103953 -0.52510172 -1.3301592e-05 0
-0.2493114 0.081859887 0.084220342 0.78566253 -0.61865485 0.00073770597 0.002284578
0.23198068 0.088094488 0.087078609 -0.74190581 -0.67050409 -9.0611056e-06 0
0.29654062 0.086409062 0.082433641 -0.84735334 -0.53102857 -0.0010197359 0.00015972109
-0.28611147 0.099657916 0.080347106 0.72795218 -0.68562782 0.00028976187 0
-0.23800211 0.093146332 0.086543649 0.69643354 -0.71759331 -0.006346216 0.0010627487
0.29291943 0.092278242 0.08657828 -0.82660294 -0.56276816 0.0044218223 0.00098164927
-0.22277567 0.10690686 0.08448007 0.67048234 -0.74192548 6.9386756e-06 4.3042828e-06
0.21726066 0.10438262 0.084630147 -0.73367172 -0.6795001 0.0023270284 0.00011682934
0.28363651 0.10509622 0.085093901 -0.75384438 -0.65704286 -0.0036456056 0.0023720227
-0.27340406 0.11313044 0.084626421 0.72744471 -0.68616629 8.5911023e-07 0
-0.2693294 0.11745041 0.089844555 0.72743058 -0.68618131 2.5628658e-05 1.7173925e-05
-0.2142645 0.11459865 0.08286754 0.67046303 -0.741943 1.134102e-05 1.2977432e-05
0.26838529 0.11948131 0.086476013 -0.68841428 -0.72531694 -0.0010590286 2.0221791e-05
-0.26439449 0.12268246 0.081910506 0.72743618 -0.68617529 -3.6784929e-06 0
-0.20331487 0.12449409 0.083206877 0.65911347 -0.75204343 0.00041116477 0.00024215814
0.18992195 0.12883857 0.083455801 -0.55976683 -0.82863832 -0.0044381591 0.00044410146
0.1933639 0.12661228 0.088167734 -0.56011391 -0.8284111 -0.002732473 0.00042635662
0.26064071 0.12678611 0.085965127 -0.68614036 -0.72746921 3.2679192e-05 6.6807508e-05
-0.25609773 0.13147873 0.089596003 0.72745109 -0.68615949 -2.3788589e-07 0
0.17629409 0.13765314 0.083113521 -0.54309273 -0.83967274 1.1103119e-06 0
0.18456089 0.13230611 0.084502675 -0.54309684 -0.83967006 1.606152e-06 1.7385718e-06
0.24878785 0.13796583 0.08793202 -0.68617743 -0.7274341 -3.3244958e-06 0
-0.24721065 0.14090091 0.083771184 0.71121866 -0.70297056 0.00054394698 0.00037666521
-0.18052228 0.14302436 0.080962136 0.53379959 -0.84558249 -0.0069404971 0.0021251854
-0.17173783 0.14752053 0.085893236 0.48388308 -0.87512809 0.0027988325 0.00071363692
-0.16744483 0.14971784 0.085240737 0.46468204 -0.88546598 -0.004525661 0.00018374245
0.16988178 0.14180064 0.080302551 -0.54309011 -0.83967441 -4.6009004e-06 4.3007503e-06
0.17137185 0.14083686 0.083756648 -0.54307514 -0.83968413 -1.3165215e-05 1.4386483e-05
-0.23350769 0.15495107 0.085468963 0.63303202 -0.77358729 -0.028863443 0.0024724598
-0.22657314 0.15958109 0.085898936 0.57974762 -0.81477189 -0.0062773484 0.0022646443
-0.15396345 0.15661806 0.083263345 0.45561266 -0.89017814 -9.2481832e-06 0
0.15455204 0.15171602 0.087906078 -0.54119086 -0.84089988 -9.0615009e-05 1.8238627e-05
-0.21752939 0.16516098 0.086475596 0.52922875 -0.84847456 0.0027880438 2.3866069e-05
0.13298853 0.16535145 0.088479884 -0.42392689 -0.90568781 -0.0039422661 0.0023227001
0.22032404 0.16481322 0.087730363 -0.59820241 -0.80103952 -0.022127453 0.0024466938
-0.20367163 0.173711 0.087718189 0.52511752 -0.85102975 8.5615675e-06 0
-0.19893034 0.17663631 0.086506516 0.52507937 -0.8510533 1.3142932e-05 2.0011112e-05
-0.12120365 0.17338562 0.088406637 0.39754161 -0.91758156 -0.0021933394 0.0012618848
-0.10475317 0.17977352 0.08303386 0.29123122 -0.9566412 -0.0047058561 0.0016941299
0.091942199 0.17906713 0.082741164 -0.30727443 -0.95162088 -1.2704974e-05 0
0.1125496 0.17241305 0.085512072 -0.31174701 -0.95016515 2.5579149e-05 3.0246056e-05
0.19527927 0.17980307 0.085340142 -0.48013276 -0.87719434 -0.0015533696 0.00015182911
0.20766491 0.17312685 0.086655945 -0.52792293 -0.84926301 -0.0070501161 0.0012574499
0.21334553 0.17006482 0.08942309 -0.54630166 -0.83752269 -0.010498942 0.0016762799
-0.18264635 0.1866833 0.082584023 0.52508891 -0.8510474 -8.6809678e-06 1.5847998e-05
-0.10302652 0.18014383 0.084395647 0.26915008 -0.96309793 0.00075199583 0.0013544463
-0.09439905 0.1819942 0.086986214 0.23558526 -0.97184139 -0.0048930421 0.00064571138
-0.074598782 0.18624082 0.084790863 0.20971018 -0.97776353 -3.7090531e-06 0
-0.062692091 0.18879446 0.088573806 0.20970435 -0.9777649 1.519982e-06 2.2675786e-06
0.07857506 0.18338338 0.085072234 -0.3053689 -0.95223296 0.0015107124 0
0.085934125 0.18100715 0.084583975 -0.30727389 -0.95162112 4.7472131e-06 9.974513e-06
0.17975949 0.1881687 0.086040452 -0.47450417 -0.8802532 -9.2603414e-06 0
0.18815622 0.1836426 0.081827968 -0.47450694 -0.88025171 7.0791907e-06 0
0.19280308 0.1811378 0.084986225 -0.47446775 -0.88027287 2.2002512e-05 3.2720392e-05
-0.05302044 0.19086877 0.088479012 0.20457341 -0.97885042 0.0012396332 5.9575643e-05
-0.043927427 0.19281897 0.085214064 0.17717174 -0.98417622 -0.0027301779 0.00090948818
-0.023291923 0.1954478 0.084202766 0.010442173 -0.99993002 -0.0055527329 0.0012581083
-0.013738316 0.19496466 0.085980967 -0.012082669 -0.99989825 -0.0075807683 0.00090741541
-0.0057260403 0.19455947 0.089178666 -0.050505359 -0.99872386 -8.2990018e-06 0
0.0062292069 0.19395489 0.081524715 -0.050506867 -0.99872369 -8.2921579e-06 0
0.013109714 0.19360693 0.086403459 -0.05050543 -0.9987238 -1.6470402e-05 0
0.03718818 0.19238925 0.084442094 -0.062588073 -0.99803883 0.0010766925 9.6227617e-05
0.16963443 0.1936264 0.08305119 -0.47450376 -0.88025349 -3.4313289e-06 0
-0.15582153 0.20323384 0.084000453 0.45512599 -0.89041251 -0.005081695 0.0018738713
-0.14299132 0.20842804 0.087859526 0.31070513 -0.95046288 0.0090846522 0.00033593751
-0.13962466 0.20943642 0.08292748 0.31141281 -0.95026881 0.0033510122 0.00035303616
0.14115739 0.20897636 0.087064981 -0.43271169 -0.90153027 0.0019751322 0.0014081217
0.15562315 0.20117889 0.081867814 -0.47341493 -0.88083953 -0.00023052984 4.6538e-05
-0.12353343 0.21425602 0.083680779 0.28692275 -0.95795369 5.1091447e-06 7.3234069e-06
0.10866784 0.21956392 0.081228241 -0.2387809 -0.97106981 -0.0026824956 0.00016754892
0.13045096 0.21440412 0.088311657 -0.35602808 -0.93443638 0.0085155861 0.0021106007
-0.10025642 0.2212279 0.08919996 0.28692877 -0.95795184 3.5421158e-06 0
-0.095641613 0.22261013 0.08695358 0.28692371 -0.95795339 -8.9964842e-06 0
0.096109033 0.22253875 0.084147491 -0.23048939 -0.97307485 1.8689707e-05 1.2328092e-05
0.10661332 0.22005057 0.081945151 -0.23048441 -0.97307605 -2.0673533e-06 1.4795483e-05
-0.063336954 0.23228596 0.080125302 0.21462555 -0.97666037 -0.0083867172 0.0019324793
-0.024588693 0.23458841 0.086675838 0.029212603 -0.99957317 1.0537221e-05 0
-0.0022498202 0.23524129 0.084101245 0.029212575 -0.99957323 1.6476542e-05 0
0.014547299 0.2357322 0.082167745 0.024046602 -0.99971056 0.00079319475 2.1249978e-05
0.035568081 0.236301 0.084310234 -0.063105151 -0.99800664 0.00065717666 0.0021256749
0.054455351 0.2324053 0.082485504 -0.21596973 -0.97639984 0.00069188769 0.00029318515
-0.080677912 0.38266456 0.086916998 -0.76663089 -0.51150578 -0.38812229 0.091612332
-0.072152406 0.38449597 0.084109738 -0.42546609 -0.7537123 -0.5008955 0.089089036
-0.067345858 0.38615203 0.081571206 -0.3336553 -0.77858853 -0.53148288 0.072604537
-0.055044018 0.38273227 0.086813241 -0.06799785 -0.80607867 -0.58788908 0.0098061925
-0.043563522 0.38334638 0.08587192 -0.0027957857 -0.820647 -0.57142866 0.00043359378
-0.035309155 0.38354161 0.085572571 0.0011309588 -0.82327098 -0.5676474 0.00039580147
-0.025046889 0.38386998 0.085069269 0.0020129415 -0.82664007 -0.56272733 0.0003405856
-0.0050181327 0.38086244 0.089679413 0.010823409 -0.80474997 -0.59351534 0.0013645863
