# .PCD v0.7 - Point Cloud Data file format
VERSION 0.7
FIELDS x y z normal_x normal_y normal_z curvature
SIZE 4 4 4 4 4 4 4
TYPE F F F F F F F
COUNT 1 1 1 1 1 1 1
WIDTH 578
HEIGHT 1
VIEWPOINT 0 0 0 1 0 0 0
POINTS 578
DATA ascii
0.31365958 -0.083846055 0.055826336 -0.9910109 -0.13377865 -0.0007996991 0
0.34972584 -0.086519226 0.058995679 -0.99144626 -0.13051578 -9.6500594e-07 1.5639122e-05
-0.31213227 -0.072244853 0.05371001 0.98338515 -0.18153146 -7.7987563e-05 0.0013587644
0.31198037 -0.071091205 0.053818882 -0.98199952 -0.18814178 0.016722346 0.0017927481
0.34823102 -0.075165078 0.050034512 -0.9914422 -0.13054655 -5.5933192e-06 9.6518661e-06
-0.31113958 -0.06470459 0.058348723 0.97900468 -0.20381664 -0.0029523375 0.001602266
0.31094548 -0.063230284 0.052028272 -0.96937215 -0.24550663 0.0066395998 0.0023441794
0.34641281 -0.061354246 0.051997859 -0.9854691 -0.16985443 0.00030920899 0.00083743577
-0.34509307 -0.051329788 0.053699862 0.97231585 -0.23361167 -0.0052426821 0.002925575
0.30954808 -0.057424814 0.05974663 -0.96309215 -0.26908728 0.0067532123 0.0031106542
0.31018084 -0.058952384 0.056341808 -0.96273553 -0.27044454 0.00038595402 0.0029919008
-0.34257254 -0.044625293 0.056703594 0.95239484 -0.30485889 0.0022537312 0.0022634803
-0.30444133 -0.045095976 0.056638118 0.93686658 -0.34964874 0.0051797815 0.00077596505
0.30365124 -0.043188561 0.052461233 -0.93196052 -0.36253253 0.004433718 0.00064156053
0.3415437 -0.042141501 0.052801922 -0.94652379 -0.32248363 0.0098468075 0.0012981587
-0.29844356 -0.03061606 0.057649493 0.92388487 -0.38267049 -2.9564271e-07 2.0238326e-06
-0.29708624 -0.027339188 0.052173696 0.92386955 -0.38270757 3.2742521e-06 2.8001079e-05
0.2944462 -0.020965625 0.055944026 -0.92386788 -0.38271156 1.4578945e-05 2.8015287e-05
-0.33058986 -0.015696559 0.051880725 0.92387778 -0.38268763 5.6794006e-06 0
-0.32843566 -0.010495905 0.058738291 0.92385709 -0.38273767 1.3182501e-05 5.6832298e-05
-0.29229569 -0.015773751 0.057244681 0.92386746 -0.38271251 3.4322638e-06 3.0978252e-05
0.29263049 -0.016582111 0.055378243 -0.92387974 -0.38268301 -5.6311405e-06 0
0.32995203 -0.014156733 0.056370929 -0.92387784 -0.38268751 -5.4681791e-06 3.6534962e-06
0.33183092 -0.018692767 0.052135997 -0.92387098 -0.38270414 1.3812325e-05 1.2877035e-05
-0.28636187 -0.0014482923 0.052269973 0.91606057 -0.40100765 -0.0050919838 0.00042623084
0.32416415 -0.00018357113 0.050126925 -0.92387933 -0.3826839 -4.5344555e-06 0
-0.28426296 0.0036189295 0.053420953 0.91194844 -0.41030437 0.00050317805 0.0005677038
0.28290656 0.0068934727 0.055849992 -0.90667063 -0.42181283 0.0047309403 0.0007219988
-0.31690174 0.017349483 0.05831819 0.91320765 -0.40749437 0.00041453572 0.00040056763
-0.27726918 0.019285623 0.050026052 0.86618859 -0.49971029 0.0026497259 0.0024646746
0.31964311 0.010731181 0.051380429 -0.92357522 -0.38341737 -0.00016740356 0
-0.31279704 0.027259087 0.055165909 0.89084339 -0.45425537 0.0070793419 0.0015909692
-0.27431324 0.023137916 0.054505073 0.85172379 -0.52397257 -0.0043866131 0.0022458583
0.27355653 0.024124067 0.059492998 -0.83932972 -0.5432753 -0.019427819 0.0018351194
0.3120499 0.02906283 0.050733455 -0.91399074 -0.40565547 -0.0080329571 0.00043422208
-0.30824208 0.036858708 0.058063425 0.86475348 -0.50207835 0.010898171 0.0018363277
0.26256222 0.038452137 0.053347964 -0.79381752 -0.60815597 2.1705746e-05 0
0.30917725 0.035520751 0.055479359 -0.86711061 -0.4978058 -0.017562987 0.0028879032
-0.30546537 0.040704884 0.055241235 0.84647983 -0.53207678 0.019138172 0.0014787724
-0.25443378 0.049045332 0.051212281 0.79334944 -0.60876656 -1.2134767e-05 0
0.25849196 0.043756563 0.054019563 -0.79334879 -0.60876751 -1.8939569e-06 4.8760153e-06
-0.29166982 0.058683582 0.059506156 0.79381156 -0.60816371 0.00012959729 3.5523506e-05
-0.25100416 0.053514913 0.05517298 0.79334676 -0.60877001 -1.3810724e-05 4.8349887e-07
-0.24985909 0.055007156 0.056561992 0.79334819 -0.60876817 -1.5817353e-05 3.8802523e-06
0.24800491 0.057423547 0.053976495 -0.79334706 -0.6087696 3.9535662e-06 0
0.2919499 0.05831857 0.053290226 -0.79452896 -0.60722631 0.00028265547 0
-0.29003394 0.060815524 0.058259606 0.79333252 -0.60878861 6.8339928e-06 3.1277403e-05
-0.28431439 0.068269365 0.057334449 0.79334879 -0.60876727 -3.7148502e-06 5.7609941e-06
-0.24317522 0.063717738 0.058986139 0.79323143 -0.60892034 2.4773972e-05 0
-0.23993024 0.067946687 0.053085081 0.79319942 -0.608962 3.6135651e-05 1.9680368e-05
0.24046578 0.067248724 0.053421572 -0.78445613 -0.62018341 0.0010471777 0.00019764376
0.28507304 0.067280635 0.059054404 -0.79336047 -0.60875201 -3.3530255e-06 0
-0.279129 0.075027093 0.059750304 0.79335111 -0.60876435 -1.0650306e-05 0
-0.2337518 0.075998604 0.055166125 0.76411438 -0.64503503 -0.0076885363 0.0017854259
0.23127185 0.079230465 0.05950167 -0.74277657 -0.66949964 -0.0072903419 0.0014418121
0.27899802 0.075197786 0.053856388 -0.79335862 -0.60875458 1.251205e-05 0
-0.27199692 0.084321827 0.050306618 0.79335058 -0.60876507 -9.7153213e-07 0
-0.22756287 0.084031664 0.05624219 0.73006076 -0.68334669 0.0069684917 0.0025242497
0.22390157 0.087022826 0.052078828 -0.67162931 -0.74086165 -0.0061649284 0.001797575
0.26946402 0.087622769 0.059926078 -0.79318291 -0.60898346 -5.4548051e-05 0
-0.26164913 0.097807355 0.057351433 0.76189512 -0.64770049 0.00010303655 0.0012188121
-0.21299015 0.095395476 0.055209659 0.62359613 -0.78174353 -0.0022038824 0.00075021293
0.2178559 0.091661826 0.057159618 -0.6391865 -0.76904929 0.0019360465 0.00067372643
0.26232082 0.096931949 0.054741055 -0.77090675 -0.63694191 0.002784817 0.00086133037
-0.25377506 0.108069 0.050921585 0.72240019 -0.69139045 -0.010827673 0.0020338183
-0.19435272 0.10969646 0.053360179 0.6087907 -0.79333085 -7.1395593e-06 0
0.20463108 0.10180958 0.053241946 -0.61041057 -0.79208499 -0.00049986312 1.1858504e-05
0.25406736 0.1076881 0.057510398 -0.72754598 -0.68603319 0.0059379046 0.002105929
-0.24128476 0.11831602 0.052379847 0.64863449 -0.76109618 0.0024281777 0.0010014409
-0.18471284 0.11709339 0.056242321 0.60876215 -0.79335278 3.3996512e-06 0
-0.17723514 0.12283124 0.05169525 0.59093869 -0.80671448 -0.0017931151 0.00045193374
-0.16861248 0.12944762 0.059035391 0.54708374 -0.83692837 -0.015820878 0.0021971811
0.23451363 0.12351169 0.055185556 -0.61946529 -0.78502148 0.0020205146 9.6474942e-05
-0.21509528 0.13841189 0.056001648 0.60876775 -0.79334843 2.7141013e-07 0
-0.16540307 0.13191029 0.055967361 0.53868985 -0.84246582 -0.0080322698 0.0019982604
0.15562055 0.13761802 0.053513311 -0.46665111 -0.88435209 -0.012571038 0.001647793
0.16382128 0.13303459 0.052017525 -0.49046293 -0.87144679 -0.0051619611 0.0014549913
0.21994472 0.13469079 0.050880134 -0.60879827 -0.79332507 2.0590442e-06 0
-0.20296472 0.14771999 0.053963453 0.60877281 -0.79334456 -8.7038215e-06 0
-0.14468761 0.1421466 0.059901342 0.42400953 -0.90562403 -0.0078156032 0.00079375558
0.127408 0.14930405 0.059758201 -0.38269588 -0.92387444 1.5671648e-06 2.5735148e-06
0.13868767 0.14463186 0.057722911 -0.39107031 -0.92035776 0.0023547558 0.00012719326
0.20050828 0.14960487 0.059350133 -0.60876864 -0.79334778 -3.1719999e-06 0
-0.1965282 0.15265891 0.055044781 0.59620613 -0.80282807 0.0023209904 0.00022884429
-0.11579878 0.15411274 0.057102852 0.38269803 -0.92387354 9.2946453e-07 0
-0.10923462 0.15683171 0.050897077 0.38070819 -0.92469525 0.00016261164 2.9721778e-05
0.10354574 0.15918812 0.055178888 -0.38083526 -0.92464274 0.00054926006 0
0.12367056 0.15085214 0.054161698 -0.38270319 -0.92387134 1.6054173e-06 0
-0.18403381 0.16224618 0.053147241 0.5695411 -0.82185674 0.013208682 0.00095106952
-0.17394502 0.16835392 0.056354448 0.51617533 -0.8564384 0.0087362882 0.0018787902
-0.10073608 0.1603519 0.050662607 0.35488343 -0.93490988 0.0011357701 0.00056512031
-0.090134658 0.16474316 0.053703606 0.30528709 -0.95223093 0.0074826763 0.002075478
-0.082233988 0.16767979 0.055940654 0.24986325 -0.96825624 0.0069513042 0.0028016365
-0.074150793 0.16880926 0.055569682 0.1823281 -0.98323584 0.0019167674 0.0019200118
-0.066223532 0.16985291 0.050281622 0.14328402 -0.98968065 -0.0013167968 0.00033601053
0.072914243 0.16897205 0.052498125 -0.18381031 -0.98296136 0.00084286352 0.0010777937
0.093082294 0.16352221 0.050117463 -0.3112759 -0.950315 0.0029576712 0.0018825463
0.17318007 0.16867077 0.055116728 -0.41509879 -0.90970433 -0.011444059 0.00045642041
-0.063025765 0.1702739 0.052535444 0.14266434 -0.98976988 -0.0015560639 0.00033265355
-0.052821599 0.17161731 0.05378462 0.13084583 -0.99140275 -8.9719601e-05 5.6700005e-06
-0.041378871 0.17312378 0.058970354 0.13052529 -0.991445 2.172527e-06 1.1613782e-06
-0.032403458 0.17430541 0.05166015 0.13052897 -0.99144453 -8.5479326e-07 0
-0.025339777 0.17523538 0.055827353 0.13052472 -0.99144506 -4.7529616e-06 0
-0.019980306 0.17594098 0.05458954 0.11222883 -0.99368232 0.00024978255 0.00036288303
-0.0054464284 0.17785439 0.055713378 0.041990198 -0.99911195 0.0034772209 0.0021176757
0.0073045567 0.17760976 0.055705726 -0.04819971 -0.99867952 0.017777372 0.0021747272
0.011897315 0.17700511 0.057493266 -0.10086587 -0.99489337 0.003636752 0.00054537237
0.024037067 0.17540687 0.052979946 -0.12158708 -0.99258065 -0.00040337312 0.00019402037
0.031789687 0.17438622 0.058489941 -0.13053012 -0.99144435 6.525147e-06 1.293926e-05
0.044706881 0.17268562 0.052886695 -0.130529 -0.99144447 1.6911571e-08 3.9981041e-06
0.062671684 0.17032051 0.05739893 -0.1349439 -0.99085319 0.0001573926 2.548988e-05
0.14804152 0.17908351 0.054994404 -0.38271451 -0.92386669 -2.3451972e-05 0
0.15837801 0.17480201 0.050484151 -0.39551607 -0.91845781 0.0015094995 0.0002310219
0.16042957 0.17395222 0.056474119 -0.39585546 -0.91831207 0.0012004867 0.00026404142
-0.14507058 0.18031414 0.05768384 0.38267678 -0.92388231 1.3301859e-06 2.8359236e-05
-0.13997293 0.18242565 0.057442218 0.38267055 -0.92388487 -2.7107872e-06 4.0368443e-05
-0.12647301 0.18801749 0.053116132 0.38269949 -0.92387283 -6.7237834e-06 0
0.12518069 0.18855278 0.055943705 -0.38267249 -0.92388403 1.0365561e-06 1.7282471e-06
0.13396829 0.18491286 0.055003691 -0.38266364 -0.92388773 1.9677036e-06 1.9891093e-06
0.14331475 0.18104142 0.050621659 -0.38271177 -0.92386776 -2.5156323e-05 0
-0.11997963 0.19070715 0.059174031 0.38268724 -0.92387795 1.6069077e-06 1.4741519e-05
0.10317266 0.19766884 0.053912207 -0.33819124 -0.94103152 0.0092916209 0.0012915924
0.11614747 0.19229448 0.053580344 -0.38269973 -0.92387277 9.0935418e-06 0
-0.082825281 0.20338154 0.054818973 0.19152731 -0.98144674 0.0089240214 0.0010820291
-0.076109387 0.2042657 0.052164622 0.16062017 -0.98700631 0.0044390704 0.00062218087
-0.066133648 0.20557903 0.05867371 0.13052936 -0.99144447 1.1004659e-05 1.385725e-05
-0.045476928 0.20829855 0.057892229 0.1305241 -0.99144512 6.1199637e-07 1.043596e-05
-0.039582763 0.20907453 0.056745119 0.13052954 -0.99144441 1.0419999e-06 0
0.037820622 0.20930652 0.058146872 -0.13052614 -0.99144489 7.050829e-06 1.3654319e-05
0.044784606 0.2083897 0.0582004 -0.13052519 -0.991445 -8.9711675e-06 0
0.051080048 0.20756087 0.053014301 -0.1305337 -0.99144387 -1.135408e-05 0
0.076818027 0.20417242 0.051632769 -0.16505834 -0.98627788 0.0034236223 0.001000574
0.085990511 0.20296484 0.056712516 -0.2115875 -0.9773587 0.00084169465 0.0013896236
-0.023747969 0.21115923 0.054011997 0.12508564 -0.9921453 0.0010817663 6.2442974e-05
-0.014739142 0.21234527 0.057367653 0.082980834 -0.99651659 0.008293082 0.0011133894
-0.0090976832 0.21308799 0.051771499 0.071572773 -0.99738741 0.0097833285 0.0010315964
0.01436412 0.21239464 0.059711475 -0.095644273 -0.9954133 -0.0021574236 0.0010367038
0.028737338 0.21050236 0.057398964 -0.13051948 -0.99144572 8.4725943e-06 0
-0.071322769 0.44987488 0.050613552 -0.45096904 -0.8758592 -0.17174841 0.058123879
-0.062559381 0.44953921 0.052610062 -0.18834049 -0.97253668 -0.13674851 0.056832623
-0.048060842 0.44886988 0.056590971 -0.024235031 -0.9848249 -0.17185043 0.0023556091
-0.036092609 0.44938508 0.053526837 -0.0011673508 -0.98497212 -0.17270975 5.8996142e-05
-0.014913538 0.44899046 0.055873901 -0.00093262072 -0.9838171 -0.17917304 0.00045012051
-0.0033926414 0.44889241 0.056456968 -0.00019680936 -0.98609924 -0.16615704 0
0.015887158 0.44933152 0.053845242 0.00020190731 -0.98609239 -0.16619788 5.9238755e-06
0.03706868 0.44975236 0.051342472 5.8073892e-06 -0.98615623 -0.16581887 5.3048076e-05
0.0452368 0.44922811 0.054460563 0.04256304 -0.98569435 -0.16307963 0.0043715765
0.056292005 0.44967771 0.051786669 0.25026837 -0.95474011 -0.16073887 0.042674605
0.071428582 0.45695448 0.053773046 0.82223278 -0.56915116 0.00042403431 0.084918045
-0.071428575 0.46938697 0.059995875 0.99277347 0.1145594 0.035731792 0.049224928
0.071428575 0.46423513 0.054929342 0.94784957 -0.31863597 0.0072334143 0.071658343
-0.071428575 0.4801704 0.052563123 0.91318399 -0.40720627 0.016671587 0.091894701
0.071428575 0.48523146 0.059015572 -0.93295127 -0.35812443 -0.036726333 0.060490888
-0.07027746 0.49378881 0.05897776 0.4610002 -0.88409233 -0.076547742 0.075801134
-0.045576423 0.4943431 0.055573691 0.091663361 -0.98018003 -0.17562717 0.015923539
-0.033509128 0.4940995 0.05706973 1.0168638e-05 -0.98700029 -0.16071828 0
-0.024165774 0.49401397 0.057595 1.268408e-05 -0.98699677 -0.1607403 0
-0.013983284 0.4947165 0.053280611 -1.3410726e-06 -0.98699462 -0.16075327 0.00016303908
-0.0067199487 0.4946489 0.053695779 -1.8764199e-07 -0.98700029 -0.16071825 0
0.0025749176 0.4943288 0.055661697 -4.2892998e-07 -0.9869988 -0.16072775 0
0.018548232 0.49519575 0.050337456 4.7878225e-06 -0.9870019 -0.16070895 0
0.024614509 0.49490529 0.052121259 2.7521938e-07 -0.98699915 -0.16072538 0
0.054899208 0.49407819 0.057200655 -0.24925195 -0.96201307 -0.1113746 0.038970962
0.06078409 0.49496943 0.051727191 -0.36287287 -0.92573321 -0.10649525 0.063766591
0.071428575 0.49132782 0.055919591 -0.81798142 -0.57345182 0.045381412 0.083941244
-0.060922097 -0.49197945 0.062224239 0.13056499 0.99143976 -5.4466847e-07 0.00019277589
-0.053453945 -0.49296266 0.061059371 0.13053271 0.99144399 -5.4486627e-06 4.1034953e-05
-0.040498823 -0.49466822 0.069175094 0.13052455 0.99144512 -5.0033617e-05 0
-0.030924404 -0.49592873 0.063099653 0.13054933 0.99144179 2.0108291e-05 4.7521527e-05
-0.025918923 -0.49658772 0.065477386 0.13052851 0.99144453 3.2843957e-06 1.5255609e-05
-0.0025051255 -0.49967021 0.066539764 0.018480469 0.99952692 -0.024584625 0.0020880713
0.016219674 -0.49786463 0.061763644 -0.086488485 0.99624348 -0.004308858 0.00085049658
0.029448189 -0.49612308 0.062659711 -0.13051908 0.99144572 -4.6416408e-05 0
0.034850739 -0.49541184 0.064748108 -0.13055424 0.99144113 -3.758851e-05 0.00016299584
0.04052905 -0.49466425 0.066432029 -0.13053307 0.99144387 2.1739701e-05 3.1500578e-05
0.056161277 -0.49260622 0.065623946 -0.13053763 0.99144334 4.7179042e-06 4.3440152e-05
-0.1016982 -0.48399389 0.06405355 0.31015599 0.95061392 -0.011682251 0.00199254
-0.092987046 -0.48741403 0.064831734 0.25027457 0.96811545 -0.010733177 0.0023344515
-0.080170572 -0.48944536 0.062381804 0.17884232 0.98387629 -0.0016884995 0.0011866414
-0.078993857 -0.48960027 0.068166226 0.17595795 0.98439634 0.0016229564 0.0010027019
0.090499118 -0.4880856 0.06560035 -0.27487117 0.9614737 -0.0037524521 0.0027700863
0.10683002 -0.48186821 0.063535899 -0.36018464 0.93287814 0.0023044681 0.00033263912
0.11043879 -0.48037344 0.064002097 -0.36430547 0.93126655 -0.0049085598 0.00026479058
-0.12089795 -0.47604108 0.063150793 0.38271612 0.92386597 -7.5139405e-06 0
-0.11291048 -0.47934961 0.062726393 0.38138255 0.92441732 3.0838335e-05 0
0.11733461 -0.4775171 0.065545678 -0.38046706 0.92479438 -0.00040374941 0
0.12850423 -0.4728905 0.063412219 -0.38272929 0.92386055 2.9312971e-05 2.5338406e-05
0.13285343 -0.47108892 0.06871751 -0.38275287 0.92385077 1.1313813e-05 5.6333971e-05
-0.15607306 -0.46147108 0.067837954 0.38751265 0.92186308 0.00154938 0.00013833206
-0.14577441 -0.4657369 0.064567924 0.38273883 0.92385662 -2.045602e-05 3.862505e-05
-0.024023935 -0.4611229 0.060506344 0.13056169 0.99144024 1.6466802e-05 0.00013758347
-0.015355119 -0.46226415 0.067601658 0.081720829 0.99663711 -0.0060053444 0.00089460233
0.007332684 -0.46332031 0.063290238 -0.042739723 0.99906051 -0.0071798237 0.0014760003
0.012196315 -0.46268004 0.063368365 -0.069620043 0.9975279 -0.0095535209 0.0012282867
0.025596011 -0.46091592 0.06530229 -0.13052633 0.99144489 8.073881e-06 0
0.14233355 -0.46716219 0.067918018 -0.38267395 0.92388344 -2.3676414e-05 0.00010114857
0.15661332 -0.4612473 0.065273911 -0.38269231 0.92387593 -4.4171597e-06 0
-0.17016938 -0.45563218 0.065627664 0.4555966 0.89006335 0.014800618 0.001906595
-0.1652174 -0.45768332 0.063372031 0.42028111 0.90732062 0.011537876 0.0010730322
-0.075275525 -0.45437551 0.066148624 0.22948171 0.97330838 0.0029995884 0.0016996048
-0.062606096 -0.45604345 0.065977067 0.14212607 0.98984838 -0.00059868011 0.00010095183
-0.055495922 -0.45697951 0.064140089 0.13053393 0.99144381 -2.678105e-05 4.1766882e-05
-0.045322299 -0.45831895 0.062836058 0.13052797 0.99144465 -6.692464e-06 0
0.04263363 -0.45867288 0.063939594 -0.13050099 0.99144822 4.5683046e-05 0
0.054927584 -0.45705438 0.062954031 -0.13114534 0.99136305 0.00020366321 8.7329121e-05
0.065114796 -0.45571321 0.064509958 -0.14712389 0.98911428 0.0027426095 0.00035388416
0.07548368 -0.45434809 0.062001087 -0.21652074 0.97626519 0.0050123315 0.001653345
0.081537031 -0.45354426 0.065231808 -0.24717493 0.9689703 0.00099754531 0.0022603469
0.1628637 -0.45865828 0.06486547 -0.40629557 0.91372943 -0.0047451644 0.00058409083
0.17401931 -0.45403749 0.063529223 -0.48827726 0.87267661 -0.004572216 0.0015806546
-0.19238958 -0.44154888 0.067978427 0.58734816 0.80931741 -0.0052406108 0.00056724221
-0.1868218 -0.4458212 0.063734345 0.55562896 0.83142918 -0.0014212258 0.0013989874
-0.10110115 -0.44591504 0.062727347 0.35046977 0.93656683 -0.0036641352 0.0007529775
-0.097216509 -0.44752407 0.065453961 0.35020697 0.9366706 -0.0018157618 0.00056232762
0.095472395 -0.44824657 0.063855566 -0.34677559 0.93794805 0.00038754128 0.001056077
0.10641558 -0.44371375 0.064061947 -0.38022467 0.92489398 -0.00059468823 0
0.11199921 -0.44140089 0.064307302 -0.38272715 0.92386144 -3.7020953e-05 2.2498745e-05
-0.20494515 -0.43191469 0.064854749 0.60868758 0.79340994 1.5887548e-05 1.9561767e-05
-0.19573383 -0.43898273 0.067088947 0.60730565 0.79446739 -0.0011878368 0
-0.13538907 -0.43171248 0.065257363 0.3826879 0.92387772 9.330367e-06 0
0.12325561 -0.43673831 0.062176138 -0.38272327 0.92386299 -3.7795104e-05 0
0.13741839 -0.4308719 0.063791275 -0.38272545 0.92386216 1.815318e-05 6.616451e-05
0.19786967 -0.43734384 0.068765581 -0.60191274 0.79856008 0.001681184 8.0962913e-05
0.20353517 -0.4329966 0.066975325 -0.60890436 0.79324365 -4.0741761e-05 5.3251802e-05
-0.21679416 -0.42282262 0.065224662 0.60883695 0.79329538 1.6382764e-05 0
-0.20951433 -0.42840862 0.06180248 0.60877794 0.79334062 2.3764938e-05 2.2572498e-05
-0.15738456 -0.42260161 0.061195046 0.48000214 0.87707192 -0.01851468 0.0020481145
0.1463891 -0.42715609 0.06236916 -0.39589298 0.9182961 -0.00097660488 0.00024648505
0.20864159 -0.42907828 0.062147796 -0.6088466 0.79328787 -4.4293709e-05 0
0.21594125 -0.42347705 0.063063875 -0.60879552 0.79332709 -4.7400595e-06 6.3430984e-05
-0.16896126 -0.41489428 0.06348218 0.56882542 0.82240522 0.009341334 0.0012049363
0.1721338 -0.41245991 0.067463636 -0.60713094 0.79459929 0.0020120724 3.9685801e-05
0.22134674 -0.41932929 0.063258022 -0.60881066 0.79331559 -2.2366403e-05 0
0.23065224 -0.41218892 0.062424451 -0.61073852 0.79183227 0.000418037 8.3839775e-05
-0.23510394 -0.40877301 0.064916626 0.61428159 0.7890867 0.00044835004 0.00012657272
-0.18390182 -0.40343004 0.066863224 0.6087628 0.79335225 -4.5102611e-06 2.2083259e-06
0.17641407 -0.40917554 0.068385378 -0.60710055 0.79462361 0.0014822668 0
0.23601717 -0.40807223 0.065938756 -0.61890006 0.78546363 -0.0030897737 0.00013530016
-0.25445211 -0.39290097 0.064956762 0.70582068 0.70838344 0.0031687121 0.0023464381
-0.19394377 -0.39572456 0.067530364 0.60878265 0.79333705 8.3039749e-06 5.0028066e-05
0.19041443 -0.3984327 0.060022831 -0.60878927 0.79333192 -1.0593548e-05 0
0.2472395 -0.39946106 0.064024247 -0.65824211 0.75271291 -0.011862723 0.0010225466
-0.20616086 -0.38635007 0.066521272 0.60882956 0.79330111 3.8878683e-05 0.00011690357
0.20517023 -0.38711017 0.06672971 -0.60881823 0.79330975 -1.8817062e-05 0
0.21032031 -0.38315839 0.067755632 -0.6249395 0.78066283 0.0040214732 0.00055956061
-0.22406375 -0.37261242 0.066758044 0.68785262 0.72573185 0.013114871 0.0019590296
-0.21753857 -0.37761965 0.067316554 0.64882588 0.76090485 0.0069982237 0.0015274262
0.22210354 -0.37411678 0.064196184 -0.68447679 0.7287423 -0.020645455 0.0024332986
0.26848531 -0.37461251 0.065686151 -0.79306191 0.60914099 0.00014075742 0
-0.27415818 -0.36721948 0.064844459 0.79336077 0.60875177 -4.2297147e-06 1.5598822e-05
-0.23311111 -0.36254784 0.064923599 0.7688604 0.63941187 -0.0024539519 0.00081683026
0.2322152 -0.36371538 0.06348595 -0.7395882 0.67289835 -0.014735489 0.0021605431
0.27586174 -0.36499938 0.068464048 -0.7932992 0.60883188 -1.2508483e-05 0
-0.28282675 -0.3559224 0.060601905 0.7932753 0.60886312 -2.1550011e-05 0
-0.23780188 -0.35643473 0.061852239 0.77434266 0.63272381 -0.0073488611 0.00081747182
0.23940061 -0.35435113 0.060673833 -0.77962357 0.62624139 -0.0029848632 0.00031609743
0.24141026 -0.35173213 0.063254319 -0.77868831 0.62741005 0.0010303259 0.00032268121
0.28620401 -0.35152104 0.065039545 -0.79326701 0.60887384 8.3640398e-06 0
-0.29364991 -0.34181738 0.063479409 0.79334134 0.60877717 1.8567473e-05 0
-0.28809962 -0.34905064 0.064142257 0.79327053 0.60886931 -1.9275867e-05 0
-0.24807461 -0.34304705 0.062764689 0.79335886 0.60875434 1.5737765e-05 9.8548262e-06
0.29365936 -0.34180504 0.067895286 -0.79389656 0.60805285 0.00014613591 1.4390387e-05
-0.29666248 -0.33789128 0.061703324 0.80436569 0.59413379 -0.0010031336 0.00038082214
-0.25261238 -0.33713335 0.066153161 0.79329336 0.60883951 -1.7197848e-05 0
0.29837981 -0.33565322 0.066165432 -0.81175661 0.58398366 -0.0037782518 0.00050134241
0.30179068 -0.33120808 0.062771693 -0.81785703 0.57541776 -0.002091167 0.00052353041
-0.30554646 -0.32631347 0.063309468 0.8318305 0.55502701 -0.0017160088 0.0017407025
-0.26170576 -0.32528263 0.066041127 0.79346967 0.6086098 0.00013037301 0
-0.25867808 -0.32922834 0.068692669 0.7933929 0.60870987 1.8433037e-05 2.7610864e-05
0.2652435 -0.32067207 0.063033953 -0.79463238 0.60709012 0.001041927 0
0.30943364 -0.32109326 0.065250695 -0.87840718 0.4778133 0.0097680269 0.0022105982
-0.31358868 -0.31106219 0.066894516 0.90397739 0.42756844 0.0031734265 0.0010849364
-0.26650319 -0.31903046 0.066146076 0.79549611 0.6059562 0.0017069899 0
0.26660562 -0.31889695 0.060495198 -0.81406218 0.58076668 -0.0035840159 0.0010042888
0.27229035 -0.31148845 0.065867893 -0.83402318 0.55172914 -0.00060992333 0.00089702295
0.31217107 -0.31448451 0.060332239 -0.88343465 0.46850124 -0.0070507089 0.0019488747
-0.31460774 -0.30860192 0.067263097 0.90716171 0.42077923 0.0015866855 0.0009139824
-0.27407739 -0.30915958 0.063003473 0.84604585 0.5330767 -0.0059754159 0.0017866393
0.31733546 -0.30201662 0.067350626 -0.92388612 0.38266745 8.3044251e-06 5.9512837e-05
-0.32146537 -0.29204616 0.068184242 0.92386413 0.38272056 -3.8354428e-05 0
-0.31979606 -0.2960763 0.06909734 0.92385232 0.38274896 -3.5778798e-05 0
0.28211114 -0.2945281 0.063841633 -0.8931098 0.44964802 -0.013097922 0.0012814022
0.31862795 -0.29889625 0.065498583 -0.92387968 0.3826831 5.7687889e-06 4.7974327e-06
0.32075951 -0.29375029 0.061818682 -0.92391604 0.38259524 1.9044624e-05 4.9579539e-05
-0.323782 -0.28645331 0.066620037 0.92388505 0.38267016 -8.9863388e-06 0
-0.2849012 -0.28779238 0.064333133 0.91006953 0.41438785 -0.0074978052 0.00066999422
0.32387421 -0.28623074 0.068091005 -0.92385757 0.38273638 7.8647781e-06 0
-0.29202372 -0.2705971 0.063538209 0.92383283 0.38279617 -2.6454218e-05 5.4541106e-05
-0.28876531 -0.2784636 0.060043976 0.92384541 0.38276577 -4.6192345e-05 0
0.2902444 -0.27489272 0.067067608 -0.92393565 0.38254783 -1.5030113e-05 6.7853995e-05
0.32879367 -0.27435404 0.065578729 -0.92386138 0.38272706 1.2672969e-06 7.0110669e-05
-0.29379994 -0.26630902 0.060628057 0.92384821 0.38275909 -3.0854542e-05 0
0.2957328 -0.26164258 0.065189049 -0.92390382 0.38262475 2.9147976e-05 0.00012035528
-0.33502239 -0.25931662 0.065882877 0.92385727 0.38273725 -4.9848913e-05 0
-0.29967859 -0.25211668 0.060395908 0.92389911 0.38263616 4.7092837e-07 3.1182506e-05
0.29760945 -0.25711191 0.065653697 -0.92391741 0.38259193 3.4650497e-05 1.9425761e-05
0.33645377 -0.25586098 0.061632402 -0.92709678 0.37481913 -0.0014702188 0
-0.34251827 -0.24121997 0.066691726 0.95929199 0.28241211 0.0015040609 0.0018427125
-0.33931074 -0.24896368 0.0613175 0.94756043 0.31955785 -0.0034638818 0.00086536416
-0.30223283 -0.2459501 0.066405021 0.92773044 0.37324947 -0.0011003278 0.00019420389
0.30331302 -0.24334225 0.060874954 -0.93330544 0.35901484 0.0070220935 0.00045228182
0.34138387 -0.24395865 0.066938087 -0.9559111 0.29359466 -0.0060090544 0.0014925998
-0.3059352 -0.23701178 0.063200735 0.93279022 0.36041903 -0.00065337814 0.00065046828
0.30674741 -0.2350509 0.063107893 -0.94202429 0.33534497 0.011576481 0.0012908493
0.3451528 -0.23393065 0.06244985 -0.96631765 0.25688782 -0.0154578 0.0020519556
-0.34656033 -0.22323948 0.063004367 0.98543906 0.16999759 -0.0032622642 0.0010428403
0.34681457 -0.22130825 0.060313676 -0.98895961 0.14813493 -0.0038502053 0.0004037602
-0.34723288 -0.21813075 0.06123583 0.98926169 0.14608088 -0.0046425834 0.00023527443
-0.31131527 -0.21967539 0.069558561 0.97728455 0.21187864 -0.0047227922 0.0018811271
0.31226331 -0.21247399 0.065114126 -0.98698258 0.16082689 -0.00031692197 0.00068951846
0.34767175 -0.21479741 0.069636874 -0.98866367 0.1501465 -0.00043550381 0.00058461406
-0.34893513 -0.2052009 0.062881604 0.99145043 0.130484 5.3749204e-06 0
-0.3138181 -0.20066439 0.069221497 0.99144393 0.13053298 -2.1256981e-06 1.4368899e-05
0.3133181 -0.20446208 0.067721583 -0.98979694 0.14248443 0.00045691727 0.00024046769
0.34896347 -0.20498581 0.066651992 -0.99144113 0.13055436 -1.7676528e-05 0
-0.35082346 -0.19085789 0.063272923 0.99144292 0.13054121 -2.9752457e-06 0
-0.31391054 -0.19996232 0.065176114 0.9914521 0.13047126 7.4322893e-06 6.9263202e-05
0.31480268 -0.19318551 0.064645253 -0.99144334 0.1305379 -1.3194889e-05 9.1711945e-06
0.35043412 -0.19381484 0.067103326 -0.9914366 0.13058926 -2.2507278e-05 0
-0.35146457 -0.18598792 0.064986184 0.99143976 0.13056487 -5.2352666e-06 0
0.35160276 -0.18493856 0.067218564 -0.99144095 0.13055597 3.140057e-05 1.4495864e-05
-0.35319287 -0.17286026 0.069867596 0.9914993 0.13011202 0.00015361475 3.9571837e-06
-0.31669995 -0.17877442 0.068035871 0.99143887 0.13057201 2.5250549e-06 2.6141834e-05
0.31680554 -0.17797239 0.066062614 -0.99143851 0.13057439 2.5922227e-05 0
0.35285425 -0.17543244 0.063619837 -0.99144989 0.13048783 -4.3015416e-06 1.6078106e-05
0.31832886 -0.16640179 0.063853689 -0.99313271 0.11698784 0.0011655092 0.00024214693
0.35423279 -0.16496137 0.066817053 -0.99221039 0.12456252 0.0016187883 4.9597027e-05
0.31973082 -0.15575275 0.066168495 -0.99552131 0.094527528 0.0013476277 0.00057693204
0.3203679 -0.15091363 0.061253153 -0.99916893 0.040158808 -0.0069894502 0.0019765727
-0.35663682 -0.14613986 0.06413009 0.99918699 0.039954614 0.0053773513 0.0019360569
-0.32116961 -0.14482395 0.066851266 0.99996644 0.0045456435 -0.0068149059 0.0015767969
0.35653856 -0.14744715 0.068144076 -0.998694 0.040278058 0.031431764 0.0023581625
-0.32022107 -0.13368528 0.068901181 0.99720114 -0.074758008 -0.0010666208 0.0011753562
-0.31990653 -0.13129625 0.063763127 0.99683183 -0.079536334 -0.0004853009 0.0010248539
0.32065815 -0.13700521 0.065746672 -0.99937361 -0.035019737 0.0050963131 0.0013668464
0.35671553 -0.13961133 0.063637301 -0.99905074 -0.0342554 0.026909286 0.0022281904
-0.35498032 -0.12643075 0.063675918 0.9942708 -0.10681464 0.0040215612 0.00064982771
-0.31914505 -0.12551217 0.064135976 0.99386412 -0.11058673 0.0021738603 0.00047952926
0.31890342 -0.12367661 0.060516782 -0.9946509 -0.10323726 0.0034172283 0.00046507677
0.3545818 -0.12340394 0.064523607 -0.99279636 -0.11981127 -0.00079520559 0.00019234061
-0.35344103 -0.11473897 0.064987563 0.9914453 -0.13052261 2.0107433e-05 0
0.31813586 -0.11784634 0.06028688 -0.99145263 -0.13046716 -4.6700343e-06 0
0.35290375 -0.11065795 0.064617574 -0.99144053 -0.13055964 2.3656599e-05 0
-0.35160789 -0.10081492 0.063129582 0.99143726 -0.13058372 2.0183537e-05 2.9498569e-05
0.31625232 -0.10353965 0.065628193 -0.99145126 -0.13047738 -1.4285703e-05 0
0.3519707 -0.10357097 0.063774012 -0.99144262 -0.13054338 -1.2424715e-05 0
-0.31576437 -0.099833429 0.06085445 0.99144608 -0.13051678 2.9442187e-06 0
-0.31384242 -0.085234463 0.065903753 0.99136353 -0.13114281 -0.00010070765 0
0.31330937 -0.081185833 0.06035839 -0.99060935 -0.13671328 -0.0016039212 1.422849e-05
0.34962821 -0.0857777 0.065408446 -0.99144584 -0.13051888 1.2631303e-05 2.2739467e-05
-0.31240401 -0.074308857 0.064981587 0.98781794 -0.15551534 -0.0055519552 0.00051485852
0.3124221 -0.074446276 0.066204488 -0.98772019 -0.15548861 -0.015234598 0.00065567839
-0.34746194 -0.069323242 0.063570261 0.98857677 -0.15070352 0.002122697 0.00033452467
-0.31136224 -0.066395804 0.061491303 0.97904879 -0.20346722 -0.0080351979 0.001532294
0.34673712 -0.063817732 0.064011253 -0.98695922 -0.16094269 -0.0029717947 0.00053998531
-0.3460035 -0.058245376 0.066386864 0.98817199 -0.15330465 0.0037130273 0.00043526758
-0.30775419 -0.053093888 0.067220919 0.95017248 -0.31169271 0.0044699549 0.0016779267
0.30664027 -0.050404735 0.06776803 -0.94670397 -0.32186446 -0.012446366 0.0018613575
0.31046042 -0.059627395 0.060601283 -0.96347511 -0.26776794 0.0040214802 0.0034332364
0.34614393 -0.059311982 0.067114294 -0.98103988 -0.19380493 -0.00055306847 0.0017245738
-0.34348938 -0.046838749 0.065488555 0.96169484 -0.27404124 0.0066617844 0.0029900612
0.34265581 -0.044826381 0.067584932 -0.94744271 -0.31979722 0.0090585202 0.0012885276
-0.30032343 -0.035154436 0.064180389 0.92387015 -0.38270611 -6.0994744e-06 3.5016503e-05
-0.29937238 -0.032858402 0.069935538 0.92388499 -0.38267022 6.9034231e-06 0
0.29916722 -0.032363184 0.062568657 -0.9238776 -0.38268816 7.2358966e-06 0
0.30109254 -0.03701134 0.068214595 -0.92452091 -0.38113081 -0.0006742471 1.5989624e-05
-0.33572036 -0.02808265 0.064716101 0.92443681 -0.38133478 0.00054313638 1.817637e-05
-0.29618123 -0.025154313 0.066861287 0.92387879 -0.38268524 2.8869015e-05 6.6014813e-06
0.33307314 -0.021691782 0.06860812 -0.92386532 -0.38271773 6.0398202e-06 4.2818527e-05
-0.33075577 -0.016097181 0.064421996 0.92387915 -0.38268435 1.7183247e-05 0
-0.32903448 -0.011941575 0.066241704 0.92387581 -0.38269243 -1.2108802e-05 1.2001319e-05
-0.29066753 -0.011843072 0.067915671 0.92387944 -0.38268352 1.1644121e-05 0
0.29342365 -0.018497018 0.069717377 -0.92386287 -0.38272351 7.7898818e-07 5.4749726e-05
0.286668 -0.002187456 0.060572043 -0.91664153 -0.39970672 -0.0016783967 0.00031193989
0.3270894 -0.0072457115 0.063199677 -0.92387134 -0.38270321 -1.7090541e-06 2.5887004e-05
-0.32212827 0.0047314838 0.063511871 0.92387933 -0.38268393 4.6565088e-07 0
-0.28175756 0.0096675139 0.065147035 0.90075022 -0.43433553 0.0012889627 0.0015096717
0.28313136 0.0063507957 0.065730542 -0.90712553 -0.4206253 -0.014058686 0.00083357282
-0.31898022 0.012331571 0.06398353 0.92273653 -0.38542169 0.002725397 1.6057318e-05
-0.27838469 0.017336572 0.061054073 0.86894858 -0.49489629 -0.0024666064 0.0022130241
0.31623349 0.018962756 0.067890652 -0.91812599 -0.39628518 -0.0016134778 0.00045973522
-0.31239951 0.028218776 0.065728232 0.88756102 -0.4605028 0.013137408 0.0019371087
-0.27386448 0.023722751 0.062067967 0.84828311 -0.52953321 -0.0031965293 0.0023864119
-0.2696082 0.029269621 0.060935713 0.80503052 -0.59322 -0.0039789211 0.00047305351
0.27531862 0.021827593 0.067888424 -0.84964544 -0.52735424 0.00030528469 0.0022614074
0.31387559 0.024655199 0.064279124 -0.90273243 -0.43008867 -0.0098987417 0.0010635802
-0.26388404 0.036729515 0.0674619 0.79405612 -0.60784441 0.00031586745 0
0.30843282 0.036837589 0.069664076 -0.85874599 -0.51238751 -0.0037792092 0.0021989041
-0.30473042 0.041662693 0.068433568 0.84123415 -0.54049897 0.013638054 0.0014630305
-0.29958135 0.048373092 0.064764805 0.80904686 -0.58771127 0.0062157214 0.00067262555
0.25729239 0.045319889 0.064338483 -0.79334038 -0.6087783 1.2631131e-05 2.4115356e-05
0.30397645 0.042645235 0.065034144 -0.83907443 -0.54399449 0.0049158633 0.0017124718
-0.24763879 0.057900727 0.06853053 0.79334944 -0.6087665 -1.1554387e-05 0
0.29463863 0.054814514 0.067006588 -0.79415721 -0.60771137 0.0011154588 0
-0.28633827 0.065631807 0.063500583 0.79335356 -0.60876113 1.2182854e-05 4.1527305e-06
0.24471518 0.061710797 0.068195164 -0.79335165 -0.60876364 -2.2791899e-06 0
0.2833423 0.069536239 0.065309003 -0.79335397 -0.60876054 1.9235445e-07 1.1884148e-05
-0.28178388 0.071567208 0.063880347 0.7933563 -0.60875767 3.6127333e-06 0
-0.23447269 0.075059116 0.066122875 0.77578819 -0.63096529 -0.0059544966 0.00090280105
0.28159517 0.071813121 0.067416728 -0.79335147 -0.60876387 -3.2152341e-06 0
-0.26840323 0.089005224 0.067873612 0.79335815 -0.60875523 -3.6675012e-06 7.0421675e-07
-0.22733973 0.084354959 0.062992074 0.71328241 -0.70087326 0.0021815991 0.0033308403
0.22433132 0.086343452 0.064682141 -0.68404847 -0.72943205 0.0025657788 0.0018172123
0.27099726 0.085624576 0.06931702 -0.79314268 -0.60903579 4.2076292e-05 0
-0.26520303 0.093175776 0.067420408 0.79330671 -0.60882223 9.6376607e-06 4.8152302e-05
-0.21720296 0.092162877 0.069063142 0.63622975 -0.77148563 0.0046629421 0.0014015426
0.20798983 0.099232331 0.067349464 -0.61026633 -0.79219609 0.00051265775 1.9540747e-05
0.21326804 0.095182203 0.062521242 -0.62652731 -0.77939928 0.00061286503 0.00041836471
0.26593962 0.092215829 0.065970063 -0.79096484 -0.61186147 -0.00030996968 3.7671682e-05
-0.20400673 0.10228869 0.066021971 0.60892963 -0.79322422 1.52116e-06 0
-0.19844979 0.10655269 0.064600065 0.60877931 -0.79333967 5.1945281e-06 0
0.20032546 0.10511342 0.064445615 -0.60882413 -0.79330522 -1.617654e-05 0
0.2547287 0.10672095 0.067362234 -0.73287445 -0.68029124 0.0099414727 0.0025985555
-0.24311092 0.11691474 0.066083148 0.65593296 -0.75476444 -0.0090925777 0.0010715058
-0.18987685 0.1131309 0.06526576 0.60875565 -0.79335779 2.5738864e-06 1.3531691e-06
0.18957135 0.11336533 0.0608913 -0.60875553 -0.79335785 4.6476457e-06 3.9442502e-06
0.19114369 0.11215881 0.060925797 -0.60875607 -0.79335749 7.6634451e-06 4.0223549e-06
0.2452822 0.11524867 0.061711997 -0.6427899 -0.76603109 0.0041694194 0.0014696355
0.25042862 0.11129968 0.063002825 -0.68715441 -0.72650599 -0.0027735312 0.0023220766
-0.23535007 0.12286986 0.064955309 0.61139739 -0.79132307 0.0010130093 2.0632828e-05
-0.17229678 0.12662059 0.062554508 0.58119553 -0.81375468 -0.0038838598 0.00070047437
-0.16918421 0.12900895 0.062549487 0.55162722 -0.83405745 -0.0074603572 0.0016361617
0.17355415 0.12565576 0.062872335 -0.57984257 -0.81469744 -0.00712178 0.00070770003
0.22804724 0.12847352 0.06318292 -0.60879171 -0.79333013 -2.7107963e-06 0
-0.15453108 0.1380693 0.061109506 0.46673709 -0.88419098 -0.019046396 0.0015839508
0.15211836 0.13906869 0.061736099 -0.43587968 -0.89999217 0.0047834301 0.001301655
0.16470447 0.13244635 0.066578791 -0.54165113 -0.84060335 0.00028431916 0.0013965883
0.22443339 0.13124651 0.069399506 -0.60874796 -0.79336369 2.0670509e-06 1.9814641e-05
-0.20235474 0.14818804 0.067642845 0.60875577 -0.79335773 1.0200495e-05 9.2679793e-06
-0.14376187 0.14253005 0.061478019 0.42369664 -0.90578371 -0.0060897092 0.00069809961
-0.13596472 0.14575973 0.066589341 0.38268989 -0.92387682 7.7686514e-07 0
-0.12946242 0.14845307 0.062370643 0.38269141 -0.92387623 -1.0991334e-05 0
0.13464017 0.14630838 0.067374438 -0.38272271 -0.92386323 -4.4512503e-06 0
0.14549837 0.14181077 0.064073958 -0.4079093 -0.91301632 0.0033310244 0.00059144362
-0.11642385 0.15385383 0.068602085 0.38266176 -0.9238885 -1.5442632e-06 5.7920947e-06
-0.10624 0.15807211 0.060944453 0.37855402 -0.92557925 3.3108186e-05 2.9162373e-05
0.10238071 0.15967068 0.069583148 -0.38268912 -0.92387724 1.165819e-07 0
-0.1854253 0.16117844 0.069131851 0.55243236 -0.83350527 0.0093460102 0.0017819599
-0.17360781 0.16849361 0.064183064 0.49115762 -0.87100548 -0.010656561 0.0020975035
-0.084468991 0.16708994 0.062537611 0.26927057 -0.9630515 0.0050178063 0.002669062
-0.076903164 0.1684469 0.06574221 0.20036675 -0.97969651 0.0069195577 0.0019195927
-0.067242905 0.16971871 0.063524738 0.14419211 -0.98954785 0.001888225 0.00037914893
0.067167722 0.16972859 0.063530609 -0.16353346 -0.98653525 -0.0022573483 0.0007743098
0.092260167 0.16386275 0.066566512 -0.31005508 -0.95071816 0.0008587279 0.0016498498
0.10119299 0.16016266 0.063902259 -0.38031057 -0.92485756 0.0015404628 1.943371e-05
0.17197105 0.16917157 0.064730376 -0.41825834 -0.90832788 0.00057216565 0.00070734415
0.18188012 0.16389877 0.064728156 -0.51455265 -0.85741031 0.0091172988 0.0027442761
-0.056927636 0.17107673 0.066774555 0.13207422 -0.99123973 -0.00034615793 0
-0.049064111 0.172112 0.068378411 0.13052318 -0.99144524 -1.1895801e-05 0
-0.027646901 0.17493165 0.067208216 0.13052814 -0.99144459 1.0445053e-05 1.8256889e-05
0.010405981 0.17720145 0.066407442 -0.10574618 -0.99433368 0.010876015 0.00037109366
0.039910298 0.1733171 0.067679673 -0.13052358 -0.99144524 3.7157877e-06 0
0.043295674 0.17287141 0.066861697 -0.13052581 -0.99144495 -1.5936532e-06 0
0.057078816 0.17105684 0.062875852 -0.13051468 -0.99144638 4.8972225e-07 0
0.062060751 0.17040095 0.060477704 -0.13508423 -0.99083412 -4.3391065e-05 3.8758586e-05
0.1460346 0.17991482 0.061170965 -0.38269502 -0.92387474 -4.5124757e-06 9.7486054e-06
0.15258986 0.17719953 0.068228245 -0.38266987 -0.92388517 5.7878974e-06 0
0.16179889 0.17338501 0.060128748 -0.39788651 -0.91743183 0.0022664219 0.00025087764
-0.14320479 0.18108696 0.064709768 0.38269591 -0.92387432 -1.348069e-05 0
-0.13364834 0.18504539 0.065740019 0.38267145 -0.92388451 1.2430487e-06 0
-0.12553722 0.18840513 0.067830563 0.38269037 -0.92387664 4.1799735e-06 0
0.12747324 0.18760319 0.064350456 -0.38269398 -0.92387515 5.3731192e-06 7.8243893e-06
0.14356899 0.1809361 0.069966942 -0.38266659 -0.92388654 -1.0754924e-06 0
-0.10538381 0.19675295 0.064362638 0.35932824 -0.93318063 0.0075493455 0.00061507721
-0.095007025 0.20105116 0.06548132 0.28248671 -0.95926625 0.0030881932 0.0023442602
-0.074552573 0.20447068 0.063426077 0.15172429 -0.98842049 -0.0021769074 0.00028646959
-0.062516838 0.20605519 0.066061109 0.13052128 -0.99144548 3.249336e-06 5.1195202e-06
-0.04241531 0.20870161 0.069430172 0.13053162 -0.99144423 9.4423956e-07 5.9066519e-06
0.038865119 0.209169 0.069093876 -0.13052917 -0.99144447 1.1291964e-05 2.1646103e-05
0.044974178 0.20836473 0.062471479 -0.13053384 -0.99144387 3.2587437e-07 0
0.054334611 0.2071324 0.06168431 -0.13053341 -0.99144393 -6.846069e-06 0
0.072898917 0.20468837 0.065500408 -0.13906454 -0.99027306 -0.0045046057 0.00020407446
0.086404748 0.2029103 0.06560085 -0.19703056 -0.98032779 0.0116743 0.0013813043
-0.030726627 0.21024047 0.060156845 0.13052577 -0.99144489 -7.6773777e-06 0
-0.026259635 0.21082857 0.062431261 0.13053299 -0.99144393 1.2659088e-06 0
-0.0049088174 0.21363945 0.068268046 0.04488045 -0.99899238 -8.7601293e-05 0.0020672169
0.0090947188 0.21308838 0.065409884 -0.088290386 -0.99604863 0.0095916707 0.0012172819
0.019021949 0.21178143 0.063357159 -0.12422287 -0.99225432 0.00016334368 0.00012218936
0.024805997 0.21101993 0.06488438 -0.13035274 -0.99146765 0.0001570257 3.2815808e-06
0.030136105 0.21031821 0.068717219 -0.13053124 -0.99144417 4.8868428e-06 6.3132866e-06
-0.063987933 0.44787875 0.062485833 -0.19824281 -0.95958626 -0.19973452 0.052562959
-0.054375768 0.44699648 0.0677334 -0.1264095 -0.96084845 -0.2465582 0.041234069
-0.041424401 0.44776899 0.063138783 0.0007681147 -0.98390275 -0.17870301 0.00016783456
-0.033080064 0.44811773 0.061064597 -0.0036420289 -0.98057842 -0.19609386 0.00075239455
-0.023506075 0.44734541 0.065658182 -0.0018646365 -0.96800613 -0.25091952 0.0028412757
-0.006911071 0.44756791 0.064334661 0.011601479 -0.9742862 -0.22501512 0.0020055773
0.016623104 0.44703531 0.067502514 0.00043972221 -0.97762603 -0.21035039 0.0015061615
0.027356749 0.44667059 0.069671735 -0.0071071768 -0.96758562 -0.25244331 0.003670987
0.031386677 0.44750565 0.064704821 -0.012860139 -0.97647732 -0.21523611 0.0020088358
0.052604925 0.44687924 0.068430819 0.26341224 -0.93799341 -0.22534952 0.045391236
0.061618969 0.44769698 0.063567176 0.44546711 -0.87801009 -0.17509216 0.052933142
-0.071428575 0.45225286 0.064456299 -0.79012287 -0.6120131 -0.033848565 0.074080676
0.071428575 0.45748538 0.068171851 0.94273269 -0.32836485 -0.058579877 0.066365726
0.071428575 0.46365988 0.064276911 0.96635151 -0.25610775 0.023951378 0.060683277
-0.071428575 0.48694682 0.065401971 0.65686059 -0.75335056 -0.031576455 0.069307975
0.071428575 0.48023707 0.067354172 -0.9367153 -0.3229872 -0.13506903 0.05390723
-0.067407042 0.49328712 0.062058657 0.42723194 -0.89770162 -0.1077241 0.065089911
-0.041207682 0.49299663 0.063842714 1.1965561e-05 -0.9869945 -0.1607535 0
-0.022527792 0.49263337 0.066073567 0.0018077552 -0.98493785 -0.17289951 0.00036000178
-0.011838134 0.49262169 0.066145308 -1.7247488e-06 -0.98700255 -0.16070442 2.4248444e-05
-0.003712602 0.49290812 0.064386077 -3.6807751e-06 -0.98699594 -0.16074535 0.00018189376
0.0039580483 0.49273449 0.065452456 -0.0011078269 -0.98518991 -0.17146316 4.4658482e-05
0.013082366 0.49290541 0.064402863 0.00029913717 -0.98517394 -0.17155805 0.00025996583
0.035092495 0.49346933 0.060939737 1.2007745e-05 -0.98699909 -0.1607257 5.4042404e-05
0.055169817 0.49303076 0.063633226 -0.18637249 -0.96824515 -0.16663298 0.02523944
0.064924963 0.49311194 0.063134477 -0.43210593 -0.89090157 -0.13992433 0.0760625
0.070711292 0.49209723 0.068485282 -0.74840516 -0.63444567 -0.19330934 0.085939161
-0.074729726 -0.49016166 0.073849201 0.15447122 0.98799545 0.0018821507 0.00041681377
-0.065293282 -0.491404 0.075189531 0.13231844 0.99120706 0.0006854161 0
-0.059077915 -0.49222225 0.071955204 0.13054687 0.99144214 -1.1739408e-05 5.590685e-05
-0.048483793 -0.493617 0.070566624 0.13053712 0.99144351 -2.7180369e-05 0
-0.030523343 -0.49598151 0.075061813 0.13053361 0.99144387 -1.4235027e-06 1.2377667e-05
-0.02770829 -0.49635211 0.074199386 0.1305363 0.99144351 4.3460674e-05 5.6891091e-05
-0.017196126 -0.4977361 0.070451885 0.12457234 0.99220973 0.001273262 0.00012965804
0.017326623 -0.4977189 0.076574594 -0.11688531 0.99314541 1.2304678e-05 0.00023680825
0.023885878 -0.49685535 0.077933162 -0.12476589 0.9921841 0.002031653 5.5712928e-05
0.033350218 -0.49560937 0.076174013 -0.13052586 0.99144489 8.6311484e-06 4.8308717e-05
0.046487764 -0.4938798 0.071945533 -0.13052841 0.99144459 -8.5206466e-06 3.5061028e-06
0.073662467 -0.49030221 0.077915438 -0.13333847 0.99107039 -0.00046295353 0
-0.10500327 -0.48262489 0.076288581 0.33643168 0.94167328 0.0080678714 0.0011346162
-0.08249864 -0.48913887 0.075773418 0.18759196 0.98223197 -0.0054489234 0.0013659423
0.085654013 -0.48872346 0.07778424 -0.23096035 0.97295862 -0.0029824637 0.0025904463
0.09238673 -0.48783711 0.07053332 -0.27671742 0.96095026 -0.0014262152 0.0024248494
0.10525048 -0.48252249 0.073803157 -0.35559282 0.93464017 0.001162019 0.00048609055
0.11113736 -0.48008403 0.074045628 -0.37252614 0.92802137 -0.00079234969 0.00019828888
-0.13177569 -0.47153535 0.076273888 0.38275662 0.92384928 1.9499827e-05 0.00010169077
-0.11147237 -0.4799453 0.074831739 0.3757543 0.92671281 -0.0034780349 0.00026228363
0.1158354 -0.47813806 0.072805271 -0.38063937 0.92472196 0.001718518 3.6227546e-05
0.12453157 -0.47453603 0.074935436 -0.38276732 0.92384481 2.7224425e-05 0.00018683668
0.1345019 -0.47040614 0.077777445 -0.38276729 0.92384475 5.485761e-05 6.8177542e-05
-0.15295279 -0.46276349 0.077616841 0.38317886 0.92367417 -3.6539743e-05 0.00018159008
-0.14059019 -0.4678843 0.07494691 0.38271919 0.92386472 1.1810317e-05 0
-0.13624653 -0.46968347 0.07123895 0.38265005 0.92389339 -1.9796049e-05 0
0.0084553342 -0.46317255 0.077088431 -0.074102141 0.99720854 0.0091616157 0.0013352673
0.013915793 -0.46245366 0.07568115 -0.093680449 0.99560231 -0.00024921441 0.00062562799
0.030038657 -0.46033108 0.076191112 -0.13055813 0.99144065 5.4241631e-05 0.00020949592
0.14125478 -0.46760899 0.078368813 -0.38269785 0.9238736 1.1589285e-05 0
0.15489878 -0.46195745 0.070781454 -0.3828119 0.92382628 -4.7999849e-05 0
-0.17043033 -0.45552409 0.077837884 0.45949644 0.88800591 0.017560853 0.0019717019
-0.16383459 -0.45825613 0.070762038 0.40226564 0.91547918 0.0089589898 0.00064216519
-0.088043265 -0.45132381 0.074295551 0.28041852 0.95987654 0.0016161266 0.0016534933
-0.074883081 -0.45442721 0.071135394 0.21784621 0.97579819 0.019000469 0.0018025569
-0.06377729 -0.45588931 0.074904427 0.14856227 0.98890293 -0.00023646872 7.2866627e-05
-0.054524306 -0.45710745 0.075396828 0.13054337 0.99144256 3.1693235e-05 0.00013587372
-0.03352632 -0.45987189 0.070518538 0.13053538 0.99144369 3.9906368e-05 4.0358253e-05
0.04395828 -0.45849854 0.077278495 -0.13053982 0.99144304 1.5193936e-05 0
0.054026671 -0.45717299 0.071708262 -0.13054769 0.99144202 4.3271451e-05 0
0.068833902 -0.45522359 0.078524292 -0.16776241 0.98582309 -0.002939444 0.0010741929
0.075486064 -0.45434779 0.075813189 -0.22471847 0.97442371 -0.00035064525 0.0022789568
0.16958717 -0.45587334 0.078604788 -0.44221532 0.8968991 0.0041932929 0.0012027782
-0.11134217 -0.44167304 0.073341876 0.3826763 0.92388248 1.9559468e-05 2.5850479e-06
-0.096343413 -0.44788572 0.071196124 0.33760816 0.94126213 0.0068134838 0.00067020999
0.097561345 -0.44738126 0.072642788 -0.36080751 0.93264008 -0.00073064212 0.00043849999
0.10265364 -0.44527197 0.074157305 -0.37039113 0.92887247 -0.0025405791 0.00023808947
0.11191843 -0.44143432 0.07486593 -0.38267741 0.92388201 1.0080959e-05 0
0.18560265 -0.44675669 0.075677097 -0.55060375 0.83468592 0.011617555 0.0010256865
0.19044976 -0.44303739 0.078322321 -0.57840967 0.8157177 0.0068542981 0.00042669981
-0.2047694 -0.43204951 0.073061034 0.60873055 0.7933771 1.4342957e-05 9.7250704e-05
-0.19453189 -0.43990505 0.073597014 0.59648073 0.80261999 -0.0034546866 0.00029636431
-0.12354443 -0.43661869 0.074712537 0.38267499 0.92388296 1.1457305e-06 0
0.12601779 -0.43559423 0.07549832 -0.38269815 0.92387342 -5.3015883e-06 5.0951712e-05
0.13481694 -0.43194947 0.07418298 -0.38274348 0.92385471 -4.280949e-05 0
0.19600107 -0.43877771 0.075871229 -0.60087258 0.79932231 0.0060011134 0.00017157101
0.20557711 -0.43142974 0.071404025 -0.60879678 0.7933262 2.2720315e-05 2.6631888e-05
-0.21315086 -0.4256182 0.078508079 0.60878527 0.79333502 -2.4335861e-05 0
-0.20905235 -0.42876309 0.072365791 0.60877001 0.7933467 9.4534525e-06 5.4389777e-05
0.16070095 -0.42122793 0.077539846 -0.48955253 0.87145621 0.030040978 0.0026895492
0.21951401 -0.4207356 0.07439521 -0.60873616 0.79337275 6.400895e-06 2.3970866e-05
-0.23346741 -0.41002876 0.073902428 0.61171931 0.7910741 0.0011137754 0
-0.22532186 -0.41627905 0.077347398 0.60873693 0.79337209 1.9718178e-05 0
-0.17478058 -0.41042894 0.07470192 0.60378534 0.79714674 0.00065790757 2.632703e-05
-0.16833599 -0.4153741 0.078629255 0.57248271 0.81981182 -0.013116888 0.00086685008
0.16573924 -0.41736665 0.074884363 -0.54836237 0.83621567 0.0064848014 0.0020335582
0.17154956 -0.41290823 0.073099941 -0.59248066 0.80556154 -0.0061128899 0.0005938395
-0.24437414 -0.40165973 0.071155638 0.65304899 0.75729984 -0.0049017575 0.0015492105
-0.23780136 -0.40670323 0.07142172 0.61407304 0.78924727 0.0017498188 5.6086385e-05
-0.18153012 -0.40524986 0.072093621 0.60880345 0.79332107 8.8246611e-07 0
0.1794883 -0.4068166 0.076279357 -0.60879165 0.79333007 3.5005269e-05 0
