# .PCD v0.7 - Point Cloud Data file format
VERSION 0.7
FIELDS x y z normal_x normal_y normal_z curvature
SIZE 4 4 4 4 4 4 4
TYPE F F F F F F F
COUNT 1 1 1 1 1 1 1
WIDTH 581
HEIGHT 1
VIEWPOINT 0 0 0 1 0 0 0
POINTS 581
DATA ascii
0.1814411 0.052404776 0.1146414 -0.67764544 -0.73538882 1.074072e-05 7.6074289e-06
-0.25746793 0.06301789 0.1123098 0.72505546 -0.68869048 -2.6959701e-06 8.0359032e-06
-0.17006411 0.062825985 0.11981045 0.59283 -0.80529779 0.0069230744 0.0019291547
-0.16775134 0.064290307 0.11395234 0.58347422 -0.81188381 0.020061806 0.0015511848
0.16648887 0.066183105 0.11022627 -0.62426937 -0.78119081 -0.0053449515 0.0013234861
0.17105918 0.061971616 0.11709614 -0.62747914 -0.77856612 0.01023405 0.0012454573
-0.24592683 0.075168781 0.11815006 0.72505039 -0.68869579 3.1676758e-05 1.5446583e-05
-0.15490362 0.072424799 0.11723703 0.5349564 -0.84487963 1.2992592e-05 0
-0.14994863 0.07556203 0.11740223 0.53496754 -0.84487265 4.3056061e-06 0
0.14718646 0.078158915 0.1107024 -0.51306975 -0.85820907 0.015384178 0.00084837817
0.15760145 0.072700135 0.11473285 -0.54067671 -0.84114754 0.011812175 0.0015085714
-0.23744045 0.084103495 0.11234115 0.72506982 -0.6886754 -1.7803166e-05 0
-0.13268611 0.086491726 0.11572689 0.50627446 -0.86235249 -0.0058617112 0.0009748654
0.13555315 0.084256232 0.11280235 -0.46424267 -0.88570809 7.4483278e-06 0
0.23616585 0.085018612 0.11844207 -0.68865728 -0.72508693 5.7836082e-06 1.3692495e-05
-0.2304104 0.091504999 0.11501604 0.7084071 -0.70580411 -0.00015882328 0.0001796281
-0.22905992 0.092926815 0.11882008 0.7044217 -0.70976704 -0.0045617437 0.00023977905
-0.1222156 0.093121082 0.1142285 0.44978598 -0.89313489 -0.0016200747 0.0018933414
-0.11069245 0.098059677 0.11513133 0.35189989 -0.9360376 -0.00030335732 0.0012044214
-0.10661994 0.09933123 0.11555073 0.35189596 -0.93603909 -0.00030832228 0.0012080263
0.10829778 0.098541498 0.11107725 -0.40922794 -0.91236216 -0.011299175 0.00083059457
0.12003238 0.092391089 0.11967283 -0.46008432 -0.88787401 -0.0014815888 6.1102444e-05
-0.092771977 0.10365492 0.11676787 0.30060014 -0.95375025 -0.00028030502 2.767785e-06
-0.085649647 0.10587871 0.11318865 0.29803643 -0.95455456 -3.3216004e-06 2.8326951e-06
-0.076187961 0.10883289 0.11389192 0.29803768 -0.95455414 7.3486822e-06 0
0.099244788 0.10328642 0.1128768 -0.35505426 -0.9347676 -0.012082975 0.0022423228
0.10401517 0.10078613 0.1155014 -0.40044802 -0.91622776 -0.012960785 0.00086196786
0.21574625 0.10441344 0.11699466 -0.67477208 -0.73802167 0.0025674959 0.00048461615
-0.20435114 0.11401588 0.11513575 0.5245263 -0.85139358 -0.0010675178 1.8068573e-05
-0.19698383 0.11852603 0.11866987 0.52418673 -0.85160321 -0.0006038202 0
-0.071121305 0.11041483 0.1142654 0.29433542 -0.95570177 0.00094007532 1.8988523e-05
-0.022122091 0.11868616 0.11637941 0.040904477 -0.99916309 -0.00010051366 8.1115049e-06
-0.011187038 0.11913297 0.11819322 0.040826663 -0.99916625 -1.1513553e-05 0
-0.0028629871 0.11947308 0.11028447 0.04082692 -0.99916619 -2.0288587e-07 7.2569833e-06
0.0021251158 0.11967689 0.11683398 0.028148651 -0.99960339 0.00091477175 0.00022257508
0.031256184 0.11927855 0.11484222 -0.11856572 -0.99282932 -0.015234217 0.0027185935
0.072296664 0.1100596 0.11104225 -0.22544149 -0.97425061 -0.0034307777 5.1435174e-05
-0.19046259 0.12251823 0.11016761 0.52217871 -0.85283613 -3.1044132e-05 0
-0.18202233 0.12768522 0.11369078 0.52213526 -0.85286266 1.8543536e-05 0
0.18021673 0.12949714 0.11787534 -0.48521692 -0.87439191 -0.0018377817 0.00011534862
0.19340247 0.12233023 0.11225303 -0.56385231 -0.82585305 0.0061093448 0.0017960183
-0.1529115 0.14550643 0.11992406 0.50364381 -0.86391026 0.0014192488 0.00021963385
0.15699813 0.14211729 0.11403748 -0.47756904 -0.87859422 -2.4151091e-06 0
-0.14516316 0.15024982 0.112588 0.43610853 -0.89988476 -0.0040980545 0.0017587774
-0.13732998 0.15444228 0.11601865 0.38768855 -0.92176783 -0.0064521553 0.0014133221
0.12590399 0.15901808 0.11703213 -0.36284482 -0.93174171 -0.014176994 0.002901244
0.14186713 0.15034154 0.11830583 -0.47661591 -0.87911135 0.00073664094 2.2406874e-05
-0.10215063 0.16484573 0.11197757 0.28359294 -0.9589448 7.6581873e-06 0
-0.089066401 0.16871509 0.11456485 0.28360793 -0.95894027 -1.4055006e-05 0
0.088146001 0.16899759 0.11564332 -0.23388962 -0.9722631 2.0767131e-06 2.2591944e-06
0.098310076 0.1665526 0.11738764 -0.24063621 -0.97061533 0.00021058357 5.8150596e-05
0.10622192 0.16464937 0.1132263 -0.25948891 -0.96572196 -0.0068232906 0.0006662223
-0.056761075 0.17826863 0.11485502 0.15376064 -0.98802698 -0.012661713 0.0028776217
-0.043868691 0.1794935 0.11157659 0.066472605 -0.99778718 -0.0014535844 0.0009054949
-0.028225843 0.17989612 0.11662391 0.03518739 -0.99937969 -0.001405431 8.3311643e-05
0.082526326 0.1703494 0.11635859 -0.23389737 -0.97226131 -1.316586e-05 0
-0.018266 0.18015245 0.11623837 0.025728893 -0.99966902 8.8445349e-06 0
-0.0065397639 0.18045425 0.11434262 0.025724566 -0.99966902 -1.6937009e-05 0
0.013106691 0.18095991 0.11497992 0.025730217 -0.9996689 2.1645579e-07 2.7717479e-06
0.020597115 0.1811527 0.11293311 0.010357993 -0.999919 -0.0073961457 0.00042136636
0.034723602 0.18151629 0.11882825 -0.10711797 -0.99423939 0.0037300976 0.0014699722
0.032605998 0.41967341 0.11363854 0.06095719 -0.98309314 -0.17266209 0.014232608
0.014014682 0.4243139 0.11780145 -0.58697462 -0.80385983 -0.096281119 0.019429035
0.05655805 0.42652011 0.11602263 0.49618548 -0.85284555 -0.1626482 0.010573103
0.066800073 0.43678749 0.11509483 0.79896629 -0.59327537 -0.098372817 0.014430072
-0.00092621031 0.44330454 0.1132372 -0.96282488 -0.25779492 -0.08068537 0.02451448
0.074773028 0.45725718 0.11556935 -0.99941015 0.028454358 0.019226227 0.020841578
0.074309111 0.46762925 0.11861356 -0.94403017 -0.32959607 0.013170032 0.015201143
0.0030671156 0.4768151 0.11557718 0.7866683 -0.60711616 -0.11208516 0.0085505843
0.021585993 0.49276549 0.11847091 0.39526203 -0.91428262 -0.088629067 0.017776359
0.041073188 0.49725199 0.1109205 -0.079842217 -0.99511582 -0.058049884 0.018188393
0.058070447 0.49165598 0.11445247 -0.5424481 -0.8285684 -0.13865255 0.020688633
-0.076468542 -0.49025825 0.12759662 0.23388211 0.97226495 -3.9192426e-05 0
-0.06097411 -0.49398547 0.12478611 0.23389012 0.9722631 -5.6356352e-05 0
-0.054028612 -0.49565625 0.120949 0.22926402 0.97336417 -0.00020552267 0
-0.042808369 -0.4983553 0.12533025 0.1671769 0.98586887 0.01070122 0.0016469097
-0.036576826 -0.49985433 0.12478198 0.14977983 0.98842329 0.024193499 0.0020099236
0.008000927 -0.49886826 0.12260111 -0.0257277 0.99966902 -5.664019e-05 0
0.015447604 -0.49867663 0.1264919 -0.02570859 0.99966943 5.8572554e-05 4.7961483e-05
0.032545172 -0.4982366 0.12233023 -0.039064981 0.9992227 0.0052781804 5.7372286e-05
0.046490587 -0.4978776 0.12846138 -0.11125182 0.9937883 0.0027872419 0.0014496759
0.055193834 -0.49718374 0.12162372 -0.15942915 0.98717928 -0.0077065569 0.002247819
0.065963179 -0.49399894 0.12214255 -0.2703318 0.96276712 -0.00048070832 0.00034358399
-0.08286944 -0.48871851 0.12605499 0.23390661 0.97225916 -6.6357105e-05 0
-0.078505732 -0.48976818 0.12375981 0.23390445 0.97225964 -4.7779857e-05 0
0.084561482 -0.48849893 0.12574519 -0.28359142 0.95894521 2.0595549e-05 0
0.09466137 -0.48551211 0.12180629 -0.28360873 0.95894003 8.7486056e-05 6.6492772e-05
0.10628128 -0.48207581 0.12804045 -0.28356653 0.95895261 3.6020745e-05 1.3978123e-05
0.11977731 -0.47808468 0.12259554 -0.29835191 0.95445585 0.00046277299 0.0004830804
0.12904593 -0.4753437 0.12885615 -0.3262524 0.94527888 0.0026911264 0.00069347187
0.14043854 -0.4715938 0.12571576 -0.405031 0.91430253 0.00088684168 0.0018360781
-0.15511838 -0.46159065 0.12142638 0.47760552 0.87857443 -6.934136e-07 0
-0.14581336 -0.46664828 0.12578341 0.47735643 0.87870973 -4.1046347e-05 0.00012589825
0.15714496 -0.46136639 0.12174297 -0.5173828 0.85575116 -0.0022274239 3.7302685e-05
-0.16378026 -0.4568826 0.12487911 0.47767341 0.87853748 6.465218e-05 0.00010273352
0.18605882 -0.44366574 0.12679332 -0.52209902 0.85288489 4.0533567e-05 4.688924e-06
-0.1989648 -0.43775854 0.12692897 0.58317143 0.81208706 -0.020633856 0.0024658574
-0.047089979 -0.43417338 0.12161054 0.21753809 0.97605103 0.0012631414 4.693244e-05
-0.036574077 -0.4365356 0.12753972 0.15518501 0.98788321 -0.0020901693 0.0018519544
-0.013191074 -0.43858063 0.12491799 0.0058744233 0.99997264 0.0044867033 0.00078384508
-0.0032762187 -0.43817553 0.12612168 -0.03851451 0.99925798 0.00050102145 2.7899539e-05
0.0034664983 -0.43790001 0.12928018 -0.040833164 0.99916595 2.7393946e-05 0.00014287347
0.010961695 -0.43759379 0.12193593 -0.040812351 0.99916679 7.3578107e-05 0
0.034844164 -0.43661797 0.1223078 -0.097128667 0.99526918 -0.0022898621 0.0018614205
0.046396598 -0.43614596 0.12214565 -0.1532606 0.98815048 0.0083489707 0.0026796914
0.19824761 -0.43620396 0.12155111 -0.52613586 0.85039932 -0.0014503447 5.6642613e-05
0.2020968 -0.43384758 0.12155624 -0.5268026 0.84998369 -0.0026087337 2.8461094e-05
-0.10131122 -0.42065492 0.12496419 0.40428337 0.91461962 -0.0051022703 0.0014484533
-0.093031392 -0.42385352 0.1279483 0.33274251 0.94293249 -0.012678376 0.0024558897
0.21731004 -0.42374909 0.12859507 -0.6472261 0.76226234 0.0073803519 0.0019963835
-0.22298482 -0.41598982 0.12694195 0.68868607 0.72505969 1.5217827e-05 0
-0.21934292 -0.41944891 0.12701152 0.68481195 0.72871923 -0.00086835545 2.7486765e-05
-0.11489002 -0.41353795 0.12105352 0.45862442 0.88862348 -0.0034461112 0.00018281929
-0.10495761 -0.41874376 0.12419788 0.40999869 0.91207039 -0.0053551635 0.0012322123
0.10705211 -0.4176479 0.12028345 -0.35589018 0.93448454 0.0089894542 0.00084999728
0.12231789 -0.4115079 0.12517302 -0.44695967 0.89449978 -0.009862911 0.0022965313
0.22861725 -0.41184449 0.12796959 -0.70907688 0.70505095 0.010632624 0.00022380745
-0.23197657 -0.40744928 0.12203661 0.68871719 0.72503018 -2.597207e-06 5.4055727e-05
-0.22954266 -0.40976107 0.12822811 0.68876076 0.7249887 -3.7351103e-05 0
-0.14061418 -0.40005517 0.12800865 0.4642669 0.88569528 7.6627621e-05 6.6105997e-05
-0.13762249 -0.40162322 0.12250768 0.46427283 0.88569224 4.4956241e-07 5.3056658e-05
-0.12712175 -0.40712696 0.12608646 0.46426687 0.88569534 1.1020136e-05 0.00012943799
0.12847041 -0.40761247 0.12571333 -0.50540352 0.86284387 -0.0082326625 0.000670721
0.23414603 -0.40602359 0.12672083 -0.72515064 0.68859035 -3.6498968e-05 5.3298492e-05
-0.24298267 -0.39699548 0.12971343 0.68868691 0.72505879 -5.1249222e-06 4.583141e-05
-0.15428549 -0.39288968 0.12352091 0.53685427 0.84367037 -0.0027950674 0.0015368569
-0.1458825 -0.39729393 0.12432438 0.47552034 0.87970406 -0.0010562255 0.00030609322
0.14589094 -0.39658275 0.12715903 -0.53496283 0.84487563 -2.1907485e-05 0
0.15237206 -0.39247927 0.12792441 -0.53491932 0.84490311 -2.8506311e-06 9.1370239e-06
0.243274 -0.39641333 0.12105264 -0.72506732 0.68867803 3.7696786e-06 7.0328366e-05
-0.25202662 -0.38840538 0.12709507 0.70086974 0.71328533 -0.0023870582 0.00027622189
-0.17144179 -0.38007063 0.12203813 0.63605672 0.77156544 -0.010895286 0.0011967698
0.16389754 -0.38518196 0.12997153 -0.54838997 0.83621746 0.0029689875 0.00048595437
0.17010118 -0.38125414 0.12199703 -0.56715882 0.8235845 -0.0062841312 0.0010415983
0.25499058 -0.38407773 0.12262005 -0.72501588 0.68873215 -5.4349021e-06 0
-0.18020567 -0.37199479 0.12669747 0.67765534 0.73537964 -1.22883e-05 1.0849388e-05
-0.17324556 -0.37840846 0.12629223 0.64400101 0.7650243 0.00076572219 0.00080936623
0.18035358 -0.37460864 0.12950911 -0.65476233 0.7558341 -0.0010507859 0.0021550565
0.25929311 -0.37954783 0.12748745 -0.7263062 0.68737096 -0.00058301509 7.9086371e-05
0.26109132 -0.37765461 0.1289629 -0.73229814 0.68097514 0.0035208731 0.00026916515
-0.2739954 -0.36234578 0.12501873 0.84870636 0.52886337 -0.0009887896 8.8411914e-05
-0.19039895 -0.36260182 0.12760425 0.67768025 0.73535675 -5.3551548e-06 0
0.18879527 -0.3654477 0.1275934 -0.70980054 0.70440185 -0.0010471506 0.00094144465
0.27418482 -0.36386931 0.12535509 -0.77605343 0.63061082 -0.00842903 0.0020448875
-0.27834344 -0.3552433 0.12597531 0.85292512 0.52203333 3.2252894e-05 8.6697626e-05
-0.20227115 -0.35166171 0.12286225 0.6923846 0.72152638 0.0017990289 0.00037313474
0.19418873 -0.35959476 0.12740575 -0.72766495 0.68592918 -0.0022021977 0.00018876985
0.27983698 -0.35579103 0.12418917 -0.83110875 0.55610991 3.9289105e-05 0.0024647163
0.28211993 -0.35159081 0.12773597 -0.84753531 0.53071749 -0.0047705718 0.0014576376
-0.28598803 -0.34275585 0.12709244 0.85284454 0.52216482 -2.1630107e-05 0
-0.21116182 -0.34346905 0.12384915 0.73075497 0.68249774 -0.013927002 0.0012749372
0.20464674 -0.34824574 0.12211168 -0.73536408 0.67767221 -7.2488342e-06 0
-0.28919852 -0.33751154 0.12358879 0.8529163 0.52204758 -8.3405967e-06 8.4364583e-05
-0.21705329 -0.33718467 0.1251387 0.78299779 0.6220243 0.00050022232 0.0022687865
0.21559556 -0.33636412 0.12438574 -0.74732417 0.66445893 0.00094402907 0.00029119028
0.2907424 -0.33572719 0.12539078 -0.87858212 0.47759131 2.3834684e-05 0
-0.29527491 -0.32758579 0.12722707 0.85294008 0.5220089 -1.69548e-05 0
-0.2227118 -0.32824752 0.12166487 0.82711512 0.56201458 0.004494865 0.00083770265
0.22146839 -0.32999089 0.12170853 -0.77523381 0.63167113 -0.0020384407 0.0011800919
-0.30282554 -0.31525192 0.1267326 0.85871214 0.51245719 0.001114566 0.00012930139
-0.23261116 -0.31261232 0.12483644 0.84483582 0.53502566 -2.6637308e-05 0
-0.22997797 -0.31677124 0.12738056 0.84474254 0.53517276 -3.1939529e-05 0
0.23452441 -0.31186956 0.12400231 -0.86337245 0.50451767 0.0070644002 0.00081994332
0.30047783 -0.31781587 0.12190998 -0.8786363 0.47749177 -9.5578725e-06 3.0716856e-05
-0.3111982 -0.30157521 0.12440481 0.91013163 0.41410384 -0.013356357 0.0028028085
-0.30770281 -0.30728486 0.12534176 0.87922496 0.47640568 -0.001045479 0.001382686
0.30659321 -0.30656478 0.12256588 -0.87857509 0.47760418 1.4113931e-05 8.4083185e-06
-0.31458113 -0.29346848 0.122683 0.93635613 0.35095087 -0.0084060226 0.0021931934
-0.24367014 -0.2951456 0.12559041 0.84938592 0.52777231 0.00015127008 0.00022417404
0.31402099 -0.29289913 0.1253316 -0.90033698 0.43519294 -0.00065399858 0.0010399747
-0.31617928 -0.28806418 0.1257356 0.94606733 0.32396948 0.0005587542 0.0012638723
-0.24918409 -0.28643674 0.12966886 0.87098873 0.49127045 -0.0056470344 0.0014700684
0.24811023 -0.28594869 0.12648609 -0.88571268 0.46423376 4.4930989e-06 0
0.3178221 -0.28590587 0.12799549 -0.92517507 0.37923038 0.015343547 0.002132213
-0.32008684 -0.27485079 0.12268421 0.95690048 0.29040542 -0.002485892 7.5037598e-05
-0.31890985 -0.27883083 0.12513882 0.9568736 0.29049194 -0.0027084479 8.5748041e-05
-0.25642827 -0.27266377 0.12758449 0.918378 0.39552987 -0.011742933 0.002213761
0.25421003 -0.27431068 0.12800086 -0.88697267 0.46182126 0.00079811586 0
0.32113674 -0.27683166 0.12367501 -0.95006382 0.31182903 0.011892038 0.0013938204
-0.32425001 -0.26077306 0.12848589 0.9589358 0.28362328 -1.1291087e-05 2.9009056e-05
-0.25880018 -0.26506701 0.12571834 0.93781859 0.34705973 0.0067698043 0.00095803954
0.25814137 -0.26680991 0.12818936 -0.8958413 0.44435376 0.0042548627 0.00096046418
0.32448232 -0.2629239 0.12459606 -0.9679417 0.25115934 -0.0028087064 0.0002780013
-0.32699531 -0.25148973 0.12298961 0.95896256 0.28353283 -1.5019128e-05 3.1476317e-05
0.26324612 -0.25706837 0.12637135 -0.94474417 0.32761279 -0.01133353 0.0023372734
0.32550594 -0.2586686 0.1208609 -0.97003734 0.24293327 -0.0033198323 0.00015569851
0.2662566 -0.24500608 0.12557968 -0.96035141 0.27877325 -0.0032711138 0.0014414996
-0.33082628 -0.23853531 0.12716852 0.95893067 0.28364044 1.0514812e-05 0
-0.26836655 -0.23442781 0.12478097 0.95456213 0.29801202 3.5515735e-05 2.9370376e-05
0.26865754 -0.23431762 0.12657695 -0.97480392 0.22305967 -0.0012989338 2.0847348e-05
-0.33371335 -0.2287727 0.12206104 0.96660507 0.25583911 0.014867344 0.00057346694
0.26966596 -0.22982834 0.12516999 -0.97492325 0.22253561 -0.0016032811 0
0.33252105 -0.22950611 0.12236169 -0.97225845 0.23390935 4.195391e-05 3.8689508e-05
-0.3374435 -0.21615927 0.12416391 0.98523808 0.17042446 0.016170219 0.0021740058
-0.2746703 -0.21423814 0.12646613 0.96755397 0.25265843 0.0017380991 0.0011807759
0.2730937 -0.21456891 0.12612659 -0.97568989 0.21915577 -6.7297701e-06 3.5131579e-05
0.33581364 -0.21581855 0.12744932 -0.97393 0.22683103 -0.0028355566 0.0002098392
-0.33869284 -0.20412274 0.12062946 0.99148375 0.13021503 0.0020132854 0.0013866591
-0.27694574 -0.20499629 0.12859885 0.98973387 0.14292289 0.0001526428 0.0022384089
0.27541825 -0.20422062 0.12572736 -0.97578716 0.21872231 0.00025126443 4.4475521e-05
0.33851311 -0.20459665 0.12601589 -0.98634064 0.16465358 0.0046282406 0.001868579
-0.33892354 -0.19515927 0.12085383 0.9977591 0.066892952 0.0014264769 0.00092223601
0.34061736 -0.19454995 0.12719885 -0.99508822 0.09887293 0.0048547937 0.0023558971
-0.27795097 -0.18039371 0.12682694 0.99908769 0.042700317 -0.00070129317 0
-0.33953929 -0.17123581 0.124659 0.99966967 0.025701299 2.5900663e-05 3.4189048e-05
-0.27805078 -0.17795119 0.12353877 0.99909639 0.042500839 -0.00032899037 1.6078899e-05
0.27928719 -0.17076094 0.12939438 -0.99997979 0.0026644631 0.005770497 0.00095643359
0.34016895 -0.17168126 0.1214458 -0.99982321 -0.01837226 0.0039952812 4.2382002e-05
-0.33970451 -0.16481583 0.12483144 0.99966687 0.025811268 -1.9776104e-05 0
0.2788679 -0.16049975 0.12391645 -0.99916506 -0.040855955 -9.9908211e-06 0
-0.34002271 -0.15245351 0.12501156 0.99966836 0.025752129 -1.4627335e-05 0
-0.33998117 -0.1540678 0.12171644 0.99966848 0.02574935 -1.8904686e-05 0
0.27855086 -0.15273996 0.12323213 -0.99916756 -0.040794667 1.7550133e-06 0
-0.27949339 -0.14264384 0.12612313 0.99874312 -0.048562109 0.012406196 0.0015809588
0.27819103 -0.14393353 0.12743846 -0.99916631 -0.040825862 2.2094349e-05 0
0.33951044 -0.14609483 0.12398037 -0.99966776 -0.025774274 5.0607672e-05 1.6715394e-05
-0.34050602 -0.13367493 0.12247334 0.99989372 -0.014193194 -0.0033440546 0.00060963706
-0.27952251 -0.13250229 0.12778062 0.9974913 -0.068654619 0.017251505 0.0014804887
0.27802444 -0.13985573 0.12146892 -0.99916577 -0.040837787 -2.6300502e-06 0
0.3391057 -0.13037044 0.12022246 -0.99949867 -0.031644322 0.0010275986 7.6748249e-05
-0.34040791 -0.12173185 0.12941477 0.98969716 -0.14313827 0.003307669 0.0016509781
-0.27741468 -0.12311874 0.12008262 0.98469394 -0.17387304 0.012080877 0.00095198833
0.27743915 -0.12553239 0.12261334 -0.99720633 -0.074505702 0.0053330665 0.0011111673
0.33908328 -0.12949917 0.12650317 -0.99937034 -0.03545225 0.0014218187 6.4505548e-05
-0.3388136 -0.11510424 0.12189005 0.98399645 -0.17818359 0.0012627374 0.0009804091
0.27688065 -0.1118632 0.12948328 -0.9896543 -0.14338227 0.0050981864 0.0017457607
0.33881113 -0.11892524 0.12122542 -0.99706179 -0.07447055 -0.017939042 0.00086543168
-0.33405548 -0.095324256 0.12600186 0.97226566 -0.23387921 -1.9671579e-05 0
-0.27029425 -0.091420427 0.12303783 0.9754355 -0.22028501 -0.00016260483 0
0.27181348 -0.095063731 0.12459154 -0.96044695 -0.27844146 0.0034520829 0.00026396484
0.33562881 -0.096156195 0.12781942 -0.97338092 -0.22917609 -0.0028117972 0.0013517636
-0.33228135 -0.087949082 0.12379117 0.9722687 -0.23386665 -2.7269542e-05 0
-0.2694937 -0.087856397 0.12403558 0.97538221 -0.22052102 -0.00014421734 2.8853918e-05
0.26761341 -0.081611715 0.12654695 -0.95455337 -0.29804024 4.1345565e-06 0
0.33258432 -0.085861161 0.12304088 -0.95977086 -0.28078315 0.00085142447 0
0.26498991 -0.073209189 0.12821606 -0.95454133 -0.29807851 7.7055211e-06 3.7649123e-05
-0.32712156 -0.06649927 0.12921707 0.97226089 -0.23389907 2.3095326e-06 2.2092812e-05
-0.26379624 -0.063048288 0.12581177 0.94337481 -0.33097729 0.022313511 0.0028157223
0.32668692 -0.065919124 0.1243904 -0.95894337 -0.28359753 -1.6584903e-05 0
-0.32441169 -0.055234063 0.1253795 0.9681887 -0.25014648 -0.0061166277 0.00036194365
0.32403234 -0.056942575 0.12492315 -0.95894712 -0.2835851 -9.566731e-06 1.1139711e-05
-0.25635731 -0.048237849 0.12576288 0.89596206 -0.44399953 0.010792292 0.00064091606
0.25563678 -0.043252915 0.12621519 -0.91695535 -0.39881793 0.011710429 0.0016837658
-0.3185643 -0.033911277 0.12583861 0.91789132 -0.3962189 -0.02204724 0.0020436663
-0.24914406 -0.034475453 0.12448503 0.88570994 -0.46423915 9.1092752e-06 1.8295334e-05
0.24828142 -0.030589145 0.12224808 -0.86287487 -0.50539529 -0.0047395173 0.00095663453
0.31801847 -0.036606669 0.12915489 -0.95254868 -0.30436131 -0.0038938827 0.0003895195
-0.31427184 -0.026013993 0.12356156 0.89086109 -0.45427296 -0.0016509477 0.00064801396
-0.24180481 -0.020472687 0.12666866 0.88571489 -0.46422967 2.5166846e-06 0
0.31530806 -0.027441394 0.126789 -0.93350148 -0.35850307 -0.0071209883 0.0016168687
-0.30706629 -0.012757155 0.12938674 0.87860417 -0.4775506 -1.0628349e-05 0
0.23880596 -0.015623471 0.12413843 -0.84488666 -0.53494537 -2.0037274e-05 4.0935442e-06
0.309275 -0.013734886 0.12617049 -0.89826077 -0.43945542 -0.0025539256 0.0027937649
-0.30220821 -0.003819237 0.12772039 0.87860411 -0.47755098 4.9880391e-06 0
-0.23247126 -0.0026648168 0.12173063 0.83635455 -0.54818428 -0.002247527 0.0024514603
0.23315299 -0.006695054 0.12601802 -0.84488267 -0.53495151 -4.4190242e-06 9.9106719e-06
0.30647099 -0.009154534 0.12287636 -0.86790019 -0.49667662 0.0078558037 0.00059405778
-0.29622352 0.007191374 0.12069056 0.87860423 -0.47755075 2.7016693e-05 0
-0.23059934 0.00090668024 0.12785424 0.82883841 -0.55948794 0.00036483657 0.002054818
-0.22656667 0.0060066497 0.12560782 0.79396343 -0.60786146 0.01124821 0.0017423305
0.29700702 0.0063047567 0.12733772 -0.85287422 -0.5221163 -2.0569118e-05 0
0.30060905 0.00042090798 0.12024241 -0.85284311 -0.52216744 4.5788918e-05 5.153472e-05
-0.29152787 0.015830435 0.12678646 0.87858647 -0.47758326 -1.1172566e-06 2.9441619e-05
-0.22099577 0.012052166 0.12935592 0.75681251 -0.65363133 0.0009201832 0.00059102941
-0.21691845 0.016476894 0.12747619 0.7579211 -0.65233546 0.0037425354 0.00060783385
0.29077441 0.016485723 0.12191659 -0.85286963 -0.52212393 -7.3552078e-06 5.2081523e-06
-0.28615585 0.025713963 0.12597643 0.86086357 -0.50877303 -0.0080011673 0.00086245959
-0.20557275 0.028789241 0.12084232 0.73538542 -0.67764908 3.897047e-06 0
0.21149963 0.024706125 0.12749982 -0.72501481 -0.68859369 0.013867171 0.0010777845
-0.20095211 0.03380356 0.12697393 0.73538548 -0.67764902 -1.5222823e-05 9.3014359e-07
0.19831105 0.036859278 0.12612194 -0.67762637 -0.7354064 -6.0313778e-06 1.1679373e-05
0.20251831 0.032982334 0.12226263 -0.6994108 -0.7146911 0.0064220801 0.00037623657
-0.274342 0.045252256 0.12240794 0.78906488 -0.61426401 0.0075138374 0.0027903863
-0.19397677 0.04137319 0.12723833 0.71906084 -0.69494081 -0.0029559804 0.00058133568
-0.18949801 0.046233531 0.1238959 0.68837887 -0.7253325 -0.0052286964 0.0015529192
0.19395882 0.040869828 0.1204257 -0.67763239 -0.7354008 -1.3998412e-05 1.0377941e-05
-0.18037815 0.056130413 0.12927048 0.64612228 -0.76313657 -0.012190539 0.0021291985
-0.17878363 0.057305276 0.12275863 0.63456863 -0.77285367 -0.0044522495 0.0027586916
0.1807875 0.053007044 0.12024065 -0.67765969 -0.7353757 -1.6952132e-06 0
0.26471207 0.057904951 0.12549752 -0.77838343 -0.62763518 0.013903579 0.0022034484
-0.25529054 0.065310314 0.12951417 0.72506475 -0.68868065 3.9606498e-06 0
-0.17334771 0.060746983 0.12667279 0.61049026 -0.79201257 0.0041999011 0.0023087142
-0.16771764 0.064311653 0.1260604 0.57287169 -0.81963348 -0.0043582632 0.0014325239
-0.15961966 0.069438845 0.12291223 0.53904819 -0.84227479 0.00033884641 7.377984e-05
0.253824 0.068246633 0.12336168 -0.69137472 -0.72249359 -0.0020017349 8.2584651e-05
-0.25042629 0.070431568 0.12577415 0.7250573 -0.68868864 -2.2576261e-05 0
-0.24354838 0.077672869 0.12237683 0.72504765 -0.68869865 -9.2017372e-06 1.8942181e-05
-0.15374413 0.07315892 0.124074 0.53493857 -0.84489101 -2.9573503e-05 0
0.14983386 0.076771334 0.12574905 -0.52016807 -0.85403532 0.0069928225 0.0014513012
0.15670067 0.073172256 0.12133895 -0.53328896 -0.84560806 0.023449415 0.001431218
-0.23677061 0.084808744 0.12467968 0.72503388 -0.68871313 -1.5252885e-05 0
-0.14293841 0.08000052 0.12904105 0.5349378 -0.84489149 -1.9071258e-06 2.0340044e-06
0.13578472 0.084134862 0.12672435 -0.46421498 -0.88572258 1.3391614e-06 6.2942281e-06
0.14073956 0.081537902 0.12816772 -0.46421751 -0.88572115 -3.1126135e-06 4.4088601e-06
-0.23028591 0.091636054 0.1223359 0.70849818 -0.70569569 -0.0048832376 0.00023832434
-0.22826634 0.093762323 0.12036159 0.70321959 -0.7109468 -0.0060612857 0.00024568799
-0.12475878 0.091510877 0.12653732 0.46235675 -0.88667762 -0.0053867158 0.0019773184
-0.11870205 0.095345668 0.12541719 0.42467892 -0.90534133 0.0022198074 0.00245954
-0.10906157 0.098568887 0.12841538 0.34845647 -0.93730438 0.0062069963 0.0011058114
0.12067308 0.092055276 0.12646513 -0.46012479 -0.88785285 -0.0015830607 6.6300207e-05
0.22179928 0.098664202 0.12689009 -0.68867445 -0.72507071 3.404289e-07 5.0692358e-07
-0.21490854 0.10697534 0.12513953 0.63426995 -0.77307224 0.0078104213 0.0023675417
-0.10103747 0.10107421 0.12478647 0.31786859 -0.94813287 -0.0018991829 0.00036690652
-0.074745387 0.10928331 0.12557882 0.29805076 -0.95454997 -1.7899492e-05 0
0.075076088 0.10943526 0.12166527 -0.22554362 -0.97423279 0.00074447092 5.8775127e-05
0.086781904 0.10680578 0.12372629 -0.28529075 -0.95843917 -0.0019125127 0.0011748031
0.095391124 0.10443312 0.12751007 -0.35499656 -0.93480253 -0.011026599 0.0023599474
0.21027434 0.10961078 0.1289067 -0.63620192 -0.77150816 -0.0047136997 0.0010198512
-0.21082319 0.11005379 0.12576692 0.60999686 -0.7921958 0.018157095 0.0023139019
-0.20537832 0.11338705 0.1256379 0.53032434 -0.84778285 -0.0045160293 0.00010949226
-0.19535835 0.11952111 0.12530659 0.52493513 -0.85114199 0.00068732939 0
-0.066110581 0.11197931 0.1224343 0.28309032 -0.95909327 0.00012840678 0.00030376852
-0.040515035 0.11793464 0.12213677 0.12743755 -0.99166697 -0.018878218 0.0032569538
-0.034394585 0.11818471 0.12469855 0.066931404 -0.99765873 -0.014042011 0.00072919368
0.0034431072 0.11973075 0.12482958 0.028628599 -0.99958789 0.0021165253 0.00019340489
0.037283696 0.11792459 0.12648724 -0.19342969 -0.9811095 0.0030168362 0.00033768444
0.050043236 0.11505841 0.1221042 -0.21379229 -0.97687918 -0.00017966444 3.7649144e-05
0.064230688 0.11187147 0.12120561 -0.21916591 -0.97568762 2.0188249e-06 0
0.20465603 0.11494713 0.12724711 -0.6109094 -0.79167652 0.0061659222 0.0018506349
-0.19102976 0.12217101 0.1239488 0.52415812 -0.85162091 0.00022480411 1.1078144e-05
-0.18897818 0.12342694 0.1216539 0.52215707 -0.85284936 7.4713739e-07 0
-0.17988771 0.12899202 0.12110683 0.52216041 -0.85284728 -7.2035791e-06 0
-0.16577609 0.13763091 0.12331924 0.522129 -0.85286647 -1.6303589e-05 0
0.16231582 0.13922694 0.12269406 -0.47753838 -0.87861097 1.7145125e-06 0
-0.14681333 0.14923963 0.1254832 0.45113581 -0.89245486 0.00088415225 0.0014070368
0.14594859 0.14812312 0.1228098 -0.47754994 -0.87860459 1.436175e-06 0
0.16070239 0.14010391 0.12105352 -0.4775337 -0.87861347 7.7619361e-06 1.1154713e-05
-0.12336137 0.15857318 0.1255254 0.32067534 -0.94718611 -0.0024318227 0.0010819566
0.12788016 0.15794398 0.12338469 -0.41193351 -0.91121328 0.0010672034 0.0021045019
0.14125255 0.15067558 0.12797792 -0.46357298 -0.88604939 -0.0040558539 0.00043490386
-0.11580871 0.16080669 0.12846118 0.28358686 -0.95894653 -9.734048e-06 5.5396481e-07
-0.098747358 0.16585219 0.12167661 0.28359076 -0.95894539 -6.7433252e-06 0
-0.087266445 0.16924739 0.12339965 0.28359222 -0.95894498 8.2479028e-07 0
0.084964864 0.16976283 0.12979379 -0.23387879 -0.97226578 4.7617009e-06 0
0.093625933 0.16767938 0.12840582 -0.23386627 -0.97226876 2.7808194e-06 6.6797065e-06
-0.076143563 0.17253672 0.12571958 0.27727816 -0.96078724 -0.0021431248 7.7969227e-05
-0.060033992 0.17730072 0.12037352 0.19742906 -0.98030174 -0.0054925345 0.0024836902
-0.055846661 0.17847598 0.12390085 0.13253991 -0.99093395 -0.021976616 0.0021694782
-0.034752827 0.17972812 0.12279309 0.041995268 -0.99911708 0.0012382615 0.00021600361
0.044207335 0.17956716 0.12785619 -0.16827768 -0.98551369 0.021105748 0.0011199925
0.051968198 0.17770025 0.12132661 -0.20337614 -0.97910064 0.00025173565 0.0005618229
0.064360358 0.17471929 0.12113982 -0.23387374 -0.97226697 4.9754626e-06 9.6105514e-06
-0.022313301 0.18004829 0.12265531 0.025724372 -0.99966908 3.3805874e-05 7.5774497e-06
-0.0055238362 0.18048041 0.12225075 0.025727617 -0.99966896 3.5740035e-05 2.7553431e-05
0.0046363901 0.18074191 0.12515384 0.025728848 -0.99966896 -2.3174277e-06 0
0.027843986 0.1813392 0.12699851 -0.054115247 -0.99848318 -0.010142504 0.0022784756
0.027491542 0.4189384 0.12016027 -0.225795 -0.96414107 -0.13945837 0.019366043
0.047201842 0.41992271 0.1264533 0.36533713 -0.92263556 -0.12358209 0.013916595
0.0061957394 0.42967629 0.12476029 -0.76989818 -0.63695043 -0.039382424 0.034778833
0.048256408 0.42120212 0.12183903 0.39098507 -0.91313481 -0.11539235 0.013947227
0.005106573 0.43130639 0.12303744 -0.79493624 -0.60604751 -0.027978076 0.033688109
-0.0020302855 0.44584781 0.12484239 -0.97845578 -0.19854799 -0.056593664 0.023248009
-0.0027648532 0.45783722 0.12781981 0.9998576 -0.016877694 1.1774686e-07 0.02563525
0.074010797 0.45011967 0.12478423 0.98192763 -0.18890929 -0.011466221 0.01272575
0.0002561154 0.46958786 0.12695582 0.93743753 -0.33753464 -0.085330091 0.02010126
0.074521311 0.46481895 0.12666117 -0.97973889 -0.18574752 -0.074897043 0.0097399447
0.00079183053 0.47158131 0.12297623 0.91628271 -0.38888946 -0.095869429 0.026057525
0.072989449 0.47209829 0.12339194 -0.92533058 -0.37732154 -0.037305664 0.011287063
0.06587296 0.48450476 0.12078338 -0.73159796 -0.67447352 -0.099246763 0.028935587
0.022008333 0.49244383 0.12373987 0.41059434 -0.90594512 -0.10332317 0.023118019
0.043148696 0.49495819 0.12835829 -0.12960652 -0.98063564 -0.14681916 0.020030044
0.051107258 0.49434048 0.12000741 -0.21882962 -0.96629721 -0.13558477 0.01646019
-0.065368637 -0.49292839 0.13416642 0.23385876 0.97227061 2.400525e-05 4.082528e-06
-0.043512575 -0.4981859 0.13336173 0.20572752 0.97860909 -0.00062867464 0.00057312573
-0.027216585 -0.49977469 0.13740709 0.018843679 0.99980086 -0.0065746377 0.0012006639
0.0045349677 -0.49895748 0.13826117 -0.025759585 0.99966818 -7.660532e-05 2.5581411e-07
0.022004096 -0.49850786 0.13932809 -0.025718531 0.99966925 -7.2894654e-05 0
0.035030592 -0.49817258 0.13603666 -0.038128391 0.99926943 0.0026258107 0
0.064843431 -0.49433008 0.13613626 -0.25208759 0.96768224 -0.0065530301 0.00093441043
0.07749372 -0.49058908 0.13107121 -0.28358209 0.95894796 2.1626278e-07 0
-0.09693031 -0.48533612 0.13945633 0.23894501 0.97103125 0.0018845309 8.1091748e-05
-0.082555316 -0.48879406 0.13556305 0.23387499 0.97226667 -6.9950416e-05 0
0.082864814 -0.48900068 0.13613318 -0.28361386 0.9589386 3.2224783e-05 4.6321686e-05
0.0995159 -0.48407653 0.13409027 -0.28358573 0.95894688 1.8867318e-05 3.8703885e-05
-0.13545313 -0.4722794 0.13217607 0.45107546 0.89248049 0.0030772171 0.00050771883
-0.12503041 -0.47786921 0.13647053 0.36677724 0.93030739 0.0016611874 0.0024123904
0.12582041 -0.47629759 0.13426083 -0.3157368 0.94883871 0.0039155725 0.00060855242
0.13552767 -0.47342688 0.13524316 -0.40568179 0.91387165 0.016153421 0.0017590259
0.14289288 -0.47009128 0.13316074 -0.43548283 0.90007436 -0.014864593 0.0019787301
-0.15244582 -0.46304327 0.13498077 0.47762126 0.87856585 4.8790913e-05 4.1109673e-05
-0.14175671 -0.46885318 0.13459355 0.47725919 0.8787626 -3.9310642e-05 7.8774174e-05
0.14649931 -0.4678835 0.1371654 -0.46129724 0.88724339 -0.002010501 0.0014453118
0.15700145 -0.46145421 0.13502984 -0.51668012 0.8561781 -0.00091702701 0.00013142393
-0.17600623 -0.45023733 0.13433516 0.47762337 0.87856466 6.586669e-05 0.00013421343
-0.16278985 -0.45742095 0.1336583 0.47757733 0.87858975 3.9984538e-06 3.105629e-05
0.16458583 -0.45681122 0.13656032 -0.522138 0.85286105 5.2318581e-05 0
0.1727162 -0.4518339 0.13647214 -0.52218932 0.85282964 -2.4743646e-05 0
-0.19170326 -0.44170544 0.13450402 0.50040513 0.86573571 0.0098128105 0.00063017994
-0.18536991 -0.44514784 0.13677135 0.48180068 0.87627971 0.0014075883 0.00014197027
-0.17924199 -0.44847858 0.13536836 0.48137808 0.87651289 0.00063088699 0.00010129476
0.17638902 -0.44958547 0.13469055 -0.52217519 0.85283828 4.3487718e-05 1.30126e-05
-0.2034242 -0.43456876 0.13602984 0.61038333 0.79209971 -0.0031888678 0.0021769034
-0.061752506 -0.43087974 0.1348079 0.21919791 0.97568041 9.8577248e-06 1.8692055e-05
-0.032162614 -0.43752652 0.13759859 0.1564936 0.98767179 0.0037743489 0.0015958231
-0.011195194 -0.43849909 0.13688897 0.0038090411 0.99998862 0.0028617133 0.00086003897
0.0029966924 -0.4379192 0.13335396 -0.040831953 0.99916601 1.1417326e-05 8.1331164e-05
0.018572506 -0.4372828 0.13301188 -0.040846322 0.99916542 -2.6102731e-05 0
0.035502795 -0.43659103 0.13031864 -0.076305911 0.99708372 0.001247342 0.0010619954
0.045102067 -0.43619883 0.13444038 -0.12939416 0.99155802 -0.0083619636 0.0015763005
0.062679194 -0.43150228 0.13065511 -0.25042889 0.96811366 -0.0064317496 0.0012963944
0.19495922 -0.4382171 0.13172069 -0.52560568 0.85072809 -0.00057087082 4.466383e-05
0.20032331 -0.43493325 0.13742164 -0.53280491 0.84622931 -0.0038553337 0.00013078473
-0.21716763 -0.42151505 0.13561693 0.67919868 0.73394227 -0.0042188922 0.00025268667
-0.066792421 -0.42974764 0.13113232 0.21917914 0.97568464 -1.8609109e-05 2.5513242e-05
0.0757505 -0.42742109 0.13345854 -0.29803655 0.9545545 -6.1844362e-06 0
0.096266598 -0.42101538 0.13030306 -0.31058064 0.95054704 -0.00016182095 0.00017120622
0.21191108 -0.42783943 0.13351749 -0.61773211 0.78635484 0.0072946129 0.0019084992
-0.22724012 -0.41194803 0.13040136 0.68867761 0.72506768 5.8458747e-05 3.7378202e-05
-0.11595501 -0.41297972 0.13160385 0.4582738 0.88881022 0.0011895058 5.022671e-05
0.22822198 -0.41226059 0.13422707 -0.71841121 0.69561106 0.0032590642 0.00022109253
-0.12609968 -0.40766263 0.13474168 0.46424437 0.88570714 4.4447634e-06 2.8077588e-05
0.13642471 -0.40257627 0.13160014 -0.52452129 0.85139269 -0.0028038996 0.00011493424
0.23198567 -0.40829808 0.13748115 -0.71832472 0.695696 0.0040789307 0.00019730788
-0.24422505 -0.39581543 0.13694209 0.6886633 0.72508132 1.4846988e-06 0
-0.15384588 -0.39312011 0.13328709 0.53771818 0.84309989 0.0064674104 0.0014555226
-0.14880338 -0.39576301 0.13340247 0.49528342 0.8687048 0.0068113157 0.0010613335
0.15252852 -0.39238015 0.13570973 -0.53493857 0.84489095 -1.5236656e-05 0
0.24037342 -0.39946717 0.13680704 -0.72508955 0.6886546 -3.2479173e-05 2.9760442e-05
-0.16671017 -0.38443077 0.13118884 0.608235 0.79369622 -0.0098264161 0.0013139029
0.16159481 -0.38663989 0.13327323 -0.53745556 0.84329206 0.00015168196 4.1979292e-05
0.17457055 -0.37842441 0.13608594 -0.60075432 0.79943311 0.00097512139 0.0025024542
0.18118826 -0.37370282 0.13287514 -0.65450966 0.75603759 0.0049326923 0.002319105
0.25991046 -0.37889785 0.13358319 -0.72646457 0.68720394 9.0072033e-05 5.3349322e-05
0.26433003 -0.37424481 0.1345433 -0.74648774 0.66539872 0.00085308764 0.00063210551
-0.27002701 -0.36882812 0.1348175 0.7970584 0.60378635 0.011824923 0.0022223436
-0.18561986 -0.36700565 0.13966615 0.67767644 0.73536021 -4.2819949e-05 0
0.18681085 -0.36760122 0.13523507 -0.68733883 0.72633582 -0.0012680284 0.0017738091
0.27422333 -0.36382875 0.13697101 -0.7925992 0.60971361 -0.0059788502 0.0020373068
-0.27661365 -0.35806888 0.13500537 0.84947282 0.52761102 -0.0047409581 0.00012590962
-0.19577777 -0.35764527 0.13852209 0.67767781 0.73535901 1.1844969e-05 0
0.27778226 -0.35957119 0.13574953 -0.8138839 0.58082163 -0.015468028 0.0027399319
-0.21201016 -0.34268734 0.13358293 0.7385003 0.67421705 -0.0069830413 0.001499789
-0.20437902 -0.34971935 0.13395311 0.69710964 0.71690524 -0.0092261452 0.00033417207
0.28543606 -0.34548974 0.13367522 -0.86920905 0.4944351 -0.0030986925 0.00037702487
-0.29298407 -0.33132789 0.13673961 0.85288149 0.52210468 -1.829641e-05 0
-0.28822571 -0.33910063 0.13302122 0.85292381 0.52203548 -2.6773212e-05 1.0367736e-05
0.21314612 -0.33902222 0.13016535 -0.73535061 0.67768687 2.5065144e-06 0
0.29298183 -0.33160704 0.13389571 -0.87857169 0.47761053 -1.675252e-05 0
-0.29911137 -0.32131895 0.13748287 0.85289025 0.52209026 -1.6692362e-05 3.55148e-05
-0.22564214 -0.32361931 0.1398115 0.83684659 0.54740173 0.006257697 0.00029304798
0.22510716 -0.32604215 0.13533244 -0.79277939 0.60925442 -0.017602293 0.00059656781
0.29602021 -0.32601702 0.13629425 -0.87856042 0.47763124 3.5573503e-05 0
-0.30550689 -0.31087196 0.13059986 0.87093598 0.49135956 -0.0060240035 0.0008092252
-0.23403192 -0.31036836 0.13229162 0.84485894 0.53498912 4.2972846e-05 0
-0.31204057 -0.30019918 0.13655362 0.90627062 0.42269793 -0.00018879605 0.0028995036
-0.24010386 -0.30077824 0.13291882 0.84489673 0.53492945 -3.3857785e-05 1.1891524e-05
-0.23717721 -0.30540067 0.132682 0.84487009 0.53497148 3.6366138e-05 0
0.30872378 -0.30264497 0.13657323 -0.88339961 0.46861747 0.0016536211 0.00018701254
-0.31417823 -0.29483086 0.1357992 0.92749196 0.37338823 -0.018434785 0.0026741438
-0.24474837 -0.29344261 0.13640547 0.85169196 0.52403498 -0.0028684603 0.000227647
0.24436848 -0.29308772 0.13133541 -0.88571775 0.46422422 -1.3611543e-05 0
-0.31590554 -0.28898984 0.13701695 0.94269139 0.33357203 0.0079097068 0.0015696597
-0.25044787 -0.28444076 0.13502011 0.87552756 0.48316729 -0.00096027664 0.0011803503
0.24731104 -0.28747347 0.13448405 -0.88570595 0.46424657 -4.4481881e-06 0
0.31693488 -0.28753811 0.13657406 -0.91968006 0.39259797 0.0074417125 0.0016788335
-0.32115012 -0.27125531 0.1370821 0.95898193 0.28346708 2.0418753e-05 3.7680071e-05
0.25621426 -0.27048677 0.13169599 -0.89657569 0.44273278 0.011819324 0.0010859008
0.3212288 -0.27644908 0.13232547 -0.94753748 0.31954712 0.0078986743 0.0020641147
-0.25949115 -0.26285398 0.13671507 0.93966752 0.34204042 -0.0057727001 0.0011059589
0.25872755 -0.26569152 0.13064012 -0.89842254 0.43911549 0.0038201241 0.0010254469
0.26067546 -0.26197505 0.13612445 -0.91447222 0.40461302 -0.0053755417 0.0027398781
0.3229599 -0.26925254 0.13460615 -0.9588607 0.28384879 0.0040068408 0.00086578191
-0.32593873 -0.25506255 0.13395432 0.95893043 0.28364128 -2.9727276e-05 0
0.26354459 -0.25562158 0.13428922 -0.94284111 0.33294302 0.014129182 0.0027693843
-0.26457626 -0.24656744 0.13609792 0.95455617 0.29803103 3.9097467e-05 2.8808019e-05
0.32818517 -0.2475307 0.13513261 -0.97225434 0.23392619 -6.7995852e-06 0
-0.26816958 -0.23505867 0.13672209 0.95456058 0.29801691 8.1477338e-06 2.3984257e-05
0.33060607 -0.23746678 0.13666749 -0.97225481 0.23392422 2.6656728e-06 2.4690487e-05
-0.33627763 -0.22010162 0.13466379 0.98080599 0.19495836 -0.0032846914 0.0018336268
-0.27008289 -0.22893068 0.13647221 0.95693958 0.29028705 0.00036832667 8.6671032e-05
0.27161503 -0.22115156 0.13010323 -0.97569758 0.21912143 -1.037235e-05 0
-0.33667493 -0.21875815 0.1337418 0.98080671 0.19495487 -0.003285019 0.0018339389
-0.27351913 -0.21792513 0.13155183 0.96724474 0.25384021 0.0016245375 0.0010802638
0.27388191 -0.21105981 0.13542488 -0.97569227 0.21914501 1.329822e-05 4.3221808e-05
0.33495861 -0.21937287 0.13383791 -0.97409213 0.22614869 -0.0011469955 0.00017085916
-0.27667251 -0.2058125 0.13379656 0.99048448 0.13759151 0.0030155159 0.0026566777
0.33860666 -0.20420772 0.13101962 -0.98116344 0.19294307 -0.0095555326 0.00098704337
-0.33894402 -0.19436416 0.13319749 0.99859053 0.052466568 -0.0080057867 0.00037306739
-0.27749816 -0.191476 0.13316193 0.99640793 0.084662728 0.0018383043 0.0010141558
0.27658302 -0.19903523 0.13615024 -0.98485965 0.17263727 0.015746074 0.0012265434
0.34066504 -0.19095492 0.13495263 -0.99592274 0.090199336 -0.0013968354 0.0024459157
0.27891979 -0.18863249 0.13564651 -0.99162304 0.12848407 0.013248254 0.0019269462
0.34053728 -0.18599266 0.13490872 -0.99962646 0.027297214 0.0013174749 0.00086192164
-0.33948886 -0.17319512 0.13564466 0.9996686 0.025744723 -6.7048413e-06 0
-0.27813908 -0.17578982 0.13678136 0.99916536 0.040847417 5.360449e-06 0
0.27941936 -0.17399541 0.13575232 -0.99899387 0.037287164 0.024921445 0.0015307673
-0.33962637 -0.16785246 0.13460307 0.99966961 0.025704645 -4.7976259e-06 0
0.27909058 -0.16594982 0.13175623 -0.99951416 -0.031070968 0.0024472864 6.2030631e-05
-0.33999243 -0.15362962 0.13894609 0.99966908 0.025722822 2.8546598e-05 0
-0.27906561 -0.15311363 0.13759187 0.9997431 0.022516729 0.0025760275 0.00061694288
0.27878475 -0.15846393 0.13754895 -0.99916595 -0.0408329 2.2631164e-05 0
0.27815115 -0.14295729 0.13660228 -0.99916673 -0.040813994 1.4187803e-05 7.4945815e-06
0.33939153 -0.14147633 0.1385825 -0.99966842 -0.025750689 1.4503382e-05 1.7791583e-05
-0.34048882 -0.13434336 0.13137014 0.99969244 -0.024771197 0.0012029916 0.00079002284
-0.27961546 -0.13291614 0.13962209 0.99518555 -0.097854957 0.00548176 0.0024566574
0.27762637 -0.13011369 0.13606668 -0.99860704 -0.052658807 -0.0033129009 0.00021033405
-0.27767143 -0.12426167 0.13815066 0.98897314 -0.14770974 -0.010673795 0.0020678386
0.3389954 -0.12608542 0.13301593 -0.99887699 -0.047281727 0.0030480914 0.00025278146
0.2750324 -0.1053732 0.13616872 -0.97568142 -0.21891834 -0.010984701 0.0021806813
-0.33389354 -0.094651096 0.13806 0.97226274 -0.23389132 -1.7652086e-05 0
-0.27121499 -0.095519274 0.13215649 0.97568208 -0.21919061 4.3230031e-07 8.0616892e-06
0.27146843 -0.093958586 0.13434206 -0.95703995 -0.28988624 0.0063653709 0.00014641172
0.33643568 -0.098884583 0.13344219 -0.97821176 -0.20760666 0.0011132349 0.0019694867
-0.33080339 -0.081805028 0.1336226 0.97226572 -0.23387903 -9.5425939e-06 0
0.26820406 -0.08350338 0.13798071 -0.95455515 -0.29803428 1.5525933e-05 1.8146276e-05
0.33204669 -0.084043249 0.13160098 -0.95969915 -0.28102952 9.6343399e-05 1.4364612e-05
-0.26709926 -0.077197149 0.13892093 0.96879363 -0.24781576 0.0051242253 0.0010351847
0.32854542 -0.072203763 0.13598207 -0.95894432 -0.2835944 1.9242956e-05 0
-0.32727703 -0.067145668 0.13560492 0.9722591 -0.23390628 -2.0444459e-06 5.6108591e-05
-0.2636216 -0.062097654 0.13943647 0.93227297 -0.36166465 -0.0081142578 0.0026499261
0.26229513 -0.064578265 0.13448751 -0.95430017 -0.29884872 0.00074115454 3.1259809e-05
0.32600248 -0.063604705 0.13511622 -0.95894223 -0.28360155 -2.9749441e-05 2.0868902e-05
-0.26154464 -0.058134951 0.13418198 0.91334701 -0.40717438 -0.0025221133 0.0017211306
-0.25737721 -0.050183799 0.13516371 0.90343618 -0.42866245 -0.0071851346 0.0013622195
0.25951388 -0.055670433 0.13289164 -0.9447909 -0.32763377 0.0051277615 0.00094103051
0.32349345 -0.055120345 0.13699284 -0.95894277 -0.28359967 -1.8550501e-06 0
-0.32148886 -0.043083731 0.13669312 0.95341945 -0.3016395 0.0022230649 0.0020926176
-0.25501162 -0.045670349 0.13894948 0.88841432 -0.4590365 -0.0023249548 7.3945346e-05
0.25713643 -0.048055999 0.13478339 -0.92460948 -0.3808997 0.0035469276 0.0023791883
0.32144368 -0.048189059 0.13980249 -0.95894516 -0.28359172 2.7206044e-05 7.5712737e-06
-0.31894332 -0.034608621 0.13618088 0.91915518 -0.39235258 -0.034832682 0.0020196282
0.25071526 -0.034433186 0.13936259 -0.87234169 -0.48889434 0.0015320721 0.0012531552
0.3188915 -0.039558783 0.13310874 -0.95300394 -0.30295557 -0.001194395 0.00041394928
-0.31640902 -0.029945968 0.13408916 0.91642082 -0.39885387 -0.032992583 0.0020650744
0.24651478 -0.027798893 0.13883635 -0.85739475 -0.51464385 -0.0039859647 0.00050939817
0.31337428 -0.020902405 0.13704757 -0.92851859 -0.37121338 -0.0073330509 0.0019637232
-0.31084985 -0.019718189 0.13299629 0.88663405 -0.46244496 -0.0049691908 0.00034776932
-0.30631706 -0.011378731 0.13420802 0.87860352 -0.47755191 1.6462483e-05 0
-0.24132597 -0.019559044 0.13601628 0.88301194 -0.46934614 -0.002039222 8.980275e-05
0.2358906 -0.011018905 0.13183615 -0.8448922 -0.53493667 4.4041042e-07 0
0.30913049 -0.013498845 0.13855995 -0.90002489 -0.43576208 0.0081608873 0.0020497108
-0.30096513 -0.0015322734 0.1307518 0.87860376 -0.47755143 1.6990743e-05 0
-0.23359673 -0.004812127 0.13689739 0.84313697 -0.53755885 -0.012268868 0.0021448496
0.23259367 -0.0058116787 0.13360932 -0.84489328 -0.53493488 -1.356566e-05 0
0.30359951 -0.0044639828 0.13611421 -0.85967755 -0.51082927 0.0028252099 0.00028608364
-0.2952992 0.0088919243 0.13372253 0.87859869 -0.47756085 4.7717685e-06 9.6795002e-06
-0.2307488 0.00062152103 0.13027024 0.82776403 -0.56107569 -0.00083664648 0.002331899
-0.22858335 0.0038181343 0.13896026 0.81170183 -0.58355868 -0.024483256 0.0030574796
0.22383492 0.008022055 0.13879716 -0.830396 -0.55716932 -0.0022010889 0.00057636481
0.29621348 0.0076010046 0.13381523 -0.85287088 -0.52212203 -3.8036251e-05 1.3100525e-07
-0.29193127 0.015088279 0.13498403 0.87859279 -0.4775717 1.5504686e-05 2.1233822e-05
-0.21823469 0.015048526 0.13185644 0.75398403 -0.6568926 -0.00036105511 0.00048405325
-0.28633201 0.025389832 0.13344115 0.86668432 -0.49885696 8.7051478e-05 0.00043665202
0.28701007 0.022634754 0.13322747 -0.85286438 -0.52213252 1.8601686e-07 1.4884463e-05
-0.19678497 0.038325727 0.13677385 0.7341271 -0.67901194 0.00042157748 2.6052279e-05
-0.27051684 0.049279522 0.13225815 0.77185035 -0.63576591 -0.0069836071 0.0020970553
-0.1935429 0.04184404 0.13366686 0.71483564 -0.69927126 -0.0054361625 0.00061364734
-0.18932475 0.046421565 0.13506122 0.69130927 -0.72255862 0.0006276684 0.0013303166
0.19418059 0.040665455 0.13266101 -0.67762607 -0.73540664 1.3111857e-05 1.331375e-05
0.27592182 0.040747341 0.13096653 -0.84015721 -0.54234242 -0.00079682207 0.00063681317
-0.26287535 0.057324767 0.13166913 0.7298708 -0.68357241 -0.0041762684 9.9989869e-05
-0.18461308 0.051534664 0.13659422 0.67949855 -0.73363972 -0.0073816059 0.0015436185
0.26621434 0.055938646 0.13524546 -0.79170823 -0.61079335 -0.011389475 0.0010229688
-0.25514257 0.065466113 0.13699056 0.72505915 -0.68868655 5.262691e-06 0
-0.17293754 0.061006684 0.1356159 0.60669363 -0.79492259 0.0045828321 0.0025443961
-0.16806598 0.064091101 0.13239773 0.5730347 -0.81952775 0.0023416714 0.0016448239
0.16950862 0.063400432 0.13767266 -0.6301012 -0.7765103 0.0020654523 0.0010808362
0.17104977 0.061980277 0.13564831 -0.62928641 -0.77716762 -0.0029918582 0.0010800877
0.25856644 0.063742176 0.13287953 -0.74471021 -0.66713977 -0.018202495 0.001784181
-0.24502581 0.076117367 0.1353801 0.72507429 -0.68867069 4.3165706e-05 3.9913757e-06
-0.14650497 0.077742353 0.13818431 0.53495294 -0.84488189 -5.9864064e-06 0
0.15596835 0.073556073 0.13354304 -0.52689624 -0.84992957 0.00034014025 0.0012119357
0.24307109 0.078459889 0.13717176 -0.68868345 -0.72506219 1.5511081e-05 0
-0.2402252 0.081171617 0.13706338 0.72506171 -0.68868399 1.2366218e-05 0
-0.23518069 0.086482659 0.13124351 0.72243392 -0.69143862 0.0013412208 2.9137866e-05
-0.13575912 0.084546059 0.13623486 0.52734029 -0.84965301 -0.0013937587 0.00023492138
0.14257416 0.080576338 0.13534993 -0.46482125 -0.88540447 -0.00024886441 0
-0.12233372 0.093046293 0.13743496 0.46280849 -0.88645828 -7.0924842e-05 0.0017496735
0.10564093 0.099934027 0.13626488 -0.40712652 -0.91336328 -0.0039308285 0.0009182535
0.11848078 0.093204319 0.13751906 -0.45428035 -0.89085811 0.0010806231 0.00017066266
0.22367191 0.096885532 0.1336676 -0.68867767 -0.72506768 4.8030983e-05 9.5782461e-06
-0.090854183 0.10425371 0.13620134 0.29803607 -0.95455456 4.1926364e-06 2.6757284e-06
-0.085111454 0.10604674 0.13732822 0.29804012 -0.95455337 9.6670028e-06 2.0597931e-06
0.086496979 0.10686977 0.13898247 -0.26253867 -0.96490264 0.0060347999 0.00072423543
0.092049882 0.10562243 0.13354447 -0.34501812 -0.93823528 -0.026019011 0.0016701291
0.21672745 0.1034815 0.13386528 -0.68867785 -0.7250675 1.7334314e-05 9.0234416e-06
-0.21039441 0.11031627 0.13578743 0.60369366 -0.797162 0.0093060909 0.0022926754
-0.20958072 0.11081442 0.13032378 0.61487126 -0.78845924 0.016292561 0.0023472535
-0.066107616 0.11198024 0.13256732 0.28104317 -0.95967609 0.0060417042 0.00031593183
-0.05828549 0.11442251 0.13552722 0.2456045 -0.96911323 0.022317834 0.0012984814
-0.04461287 0.11774731 0.13315219 0.1695542 -0.98548484 0.008420839 0.0022351723
