# .PCD v0.7 - Point Cloud Data file format
VERSION 0.7
FIELDS x y z normal_x normal_y normal_z curvature
SIZE 4 4 4 4 4 4 4
TYPE F F F F F F F
COUNT 1 1 1 1 1 1 1
WIDTH 599
HEIGHT 1
VIEWPOINT 0 0 0 1 0 0 0
POINTS 599
DATA ascii
-0.043356735 0.17158034 -0.33975229 -7.268261e-06 5.4985201e-05 1 9.8481156e-05
-0.025589691 0.17558824 -0.33975232 -1.4665255e-05 2.601398e-05 1 6.1638588e-05
0.014855172 0.175561 -0.33975229 6.5587001e-06 2.6879476e-05 1 6.6490262e-05
0.028936021 0.17960332 -0.33975229 3.9205483e-05 0.00010805141 1 0.00010894556
0.036602195 0.17832398 -0.33975226 1.9235147e-05 0.00012832375 1 9.9194222e-05
0.045359313 0.17317963 -0.33975229 2.3678362e-05 0.0001143999 1 0.00010865498
0.053185213 0.17568712 -0.33975229 6.8878699e-06 0.0001079697 1 6.9784546e-05
0.063535206 0.17799269 -0.33975232 2.336004e-05 1.2101249e-07 1 7.468299e-05
0.077194527 0.17316374 -0.33975229 1.7043911e-05 2.3559835e-05 1 0.00012536232
0.082267262 0.17530571 -0.33975229 3.1387059e-05 4.3183587e-05 1 0.00011081268
0.095473573 0.17613274 -0.33975229 3.0399855e-05 2.9908973e-05 1 9.6502852e-05
0.10704771 0.17722306 -0.33975229 6.3994201e-05 9.449551e-05 1 0.00012307364
0.12327807 0.17592305 -0.33975226 0.00011465721 1.9089193e-05 1 6.4219828e-05
0.13154583 0.17759213 -0.33975229 3.4447487e-05 3.21376e-06 1 8.7114568e-05
0.15499806 0.17545986 -0.33975232 4.5187753e-05 8.1276361e-05 1 0.00011210583
0.1842968 0.17372596 -0.33975229 5.0751656e-05 8.4273903e-05 1 0.00011505801
0.19764441 0.1777389 -0.33975229 2.9660356e-05 -2.2038016e-06 1 1.582076e-05
0.20432486 0.1734326 -0.33975232 0 0 1 4.1356503e-05
0.21549223 0.17265387 -0.33975229 9.8109842e-05 3.3880788e-05 1 6.4462271e-05
0.22733262 0.17424265 -0.33975229 0.00010716193 0.0001290597 1 7.8453537e-05
0.23672991 0.17885622 -0.33975226 4.5755936e-05 6.3985084e-05 1 7.7681609e-05
0.24671097 0.17455947 -0.33975226 6.2721054e-05 -6.314749e-06 1 3.1230717e-05
0.25351286 0.17612214 -0.33975232 1.7048603e-06 3.2451499e-05 1 6.5204593e-05
0.27514359 0.17612384 -0.33975229 -2.890132e-06 3.4112003e-05 1 5.3886957e-05
0.28362173 0.17368151 -0.33975229 5.2697967e-05 9.3855451e-05 1 0.00013050184
0.29546845 0.17305823 -0.33975232 3.8899831e-05 6.0971429e-06 1 7.0828952e-05
0.30714858 0.17371275 -0.33975229 7.8147496e-05 3.1342664e-05 1 0.00010909998
0.32550839 0.17853539 -0.33975229 0.00017076136 4.5909714e-05 1 0.00012428686
0.34838179 0.17959763 -0.33975229 7.0155009e-05 3.0331365e-05 1 0.00010467441
0.36359993 0.17193496 -0.33975232 3.7295307e-05 2.5145607e-06 1 3.2778404e-05
0.37409198 0.17040034 -0.33975229 -0.024140324 -0.015642501 0.99958622 0.0016738393
0.38840473 0.17644496 -0.33975226 -0.10924193 -0.094432056 0.98951948 0.07683786
0.40454531 0.17881131 -0.33975229 -0.056293264 0.0012016622 0.99841344 0.13786574
0.42307708 0.174101 -0.3387596 -0.17556712 -0.092296183 0.98013145 0.11557794
0.4344691 0.17501369 -0.3340798 -0.39480659 -0.19939615 0.89686614 0.10169941
0.4411945 0.17416315 -0.33036488 -0.4884066 -0.20269081 0.84874934 0.078018278
-0.11504334 0.18346286 -0.3343983 0.33571458 -0.2540459 0.90705925 0.10837436
-0.10541843 0.18852647 -0.33728939 0.14122535 -0.11561158 0.98320359 0.13041934
-0.093807913 0.18734081 -0.33975229 0.15822554 -0.0057210983 0.98738641 0.19350344
-0.082718149 0.18677504 -0.33716345 0.41782427 -0.20642805 0.88476568 0.21475281
-0.062007464 0.18720055 -0.33975229 0.20492332 -0.10248426 0.97339785 0.052139059
-0.054194417 0.18765251 -0.33975229 0.060065515 -0.056252539 0.99660814 0.020679725
-0.045069989 0.18217844 -0.33975229 -1.7470409e-05 2.8223909e-05 1 0.00012424802
-0.037105519 0.18410243 -0.33975229 -2.8849367e-05 3.8741051e-05 1 0.00014832844
-0.0031110921 0.18434499 -0.33975226 8.9900013e-06 4.3169348e-05 1 0.00013895001
0.0050572688 0.18626542 -0.33975232 4.5089611e-05 0.00011146117 1 0.00011648049
0.018813144 0.18147624 -0.33975229 1.2187086e-05 4.6708396e-05 1 0.00011042419
0.020215329 0.18683565 -0.33975226 1.7058126e-05 4.6700778e-05 1 9.3451337e-05
0.032852639 0.18497396 -0.33975226 4.2708889e-05 0.00011698301 1 0.00010986373
0.045245331 0.18621008 -0.33975229 7.2660441e-06 7.6268727e-05 1 6.7726382e-05
0.054319888 0.18308301 -0.33975229 -2.6153552e-07 5.4019376e-05 1 6.5616623e-05
0.064623423 0.18730856 -0.33975232 1.6912179e-05 5.8702317e-05 1 7.3831281e-05
0.074852213 0.18512948 -0.33975232 1.0110871e-05 7.096085e-05 1 6.8819398e-05
0.096724249 0.1832372 -0.33975229 5.6356588e-05 4.3117619e-05 1 6.4949483e-05
0.11019212 0.18870884 -0.33975232 1.4615313e-05 6.4162887e-05 1 9.1690548e-05
0.12407348 0.18627983 -0.33975226 3.7183298e-05 9.6686381e-05 1 9.3434472e-05
0.13428649 0.18811506 -0.33975229 4.78658e-05 3.510945e-05 1 8.3799212e-05
0.16002402 0.18028161 -0.33975229 4.6070927e-05 5.0952593e-05 1 9.531634e-05
0.17594865 0.18383637 -0.33975226 3.3654534e-05 5.3388296e-05 1 0.00011764911
0.20101979 0.18891916 -0.33975232 3.6868711e-05 3.7849877e-05 1 7.8208221e-05
0.21417567 0.18767068 -0.33975232 4.0975123e-05 7.4875315e-05 1 5.8663136e-05
0.22643909 0.18188471 -0.33975226 6.8458794e-05 0.00012211328 1 9.702325e-05
0.23901457 0.18648922 -0.33975229 0 0 1 6.5261214e-05
0.24627376 0.1847261 -0.33975229 9.2550756e-05 -1.5656786e-06 1 8.1471742e-05
0.26613119 0.18012723 -0.33975229 6.2601233e-05 9.8869248e-05 1 5.8964975e-05
0.2926814 0.18542512 -0.33975229 2.5939666e-05 5.4357512e-05 1 0.00011871885
0.30943 0.18904176 -0.33975229 0.00012076402 8.4236337e-05 1 0.00011539519
0.32295042 0.18444848 -0.33975226 6.7741443e-05 3.307161e-05 1 0.0001476168
0.35658842 0.18728393 -0.33975229 0.00016990371 2.6678523e-05 1 6.3417872e-05
0.39799392 0.18514122 -0.33524227 0.0014718015 -0.12255979 0.99246001 0.16818951
0.40506068 0.18452935 -0.33888984 0.029884186 -0.041252889 0.99870175 0.14515062
0.41584855 0.18673767 -0.33827299 -0.12105948 -0.16780302 0.97835922 0.11219783
0.42498317 0.1882851 -0.33416873 -0.35437477 -0.28154376 0.89171284 0.1014467
0.43151823 0.1842929 -0.33174092 -0.39650032 -0.28644899 0.87220097 0.091531239
-0.09247911 0.19199863 -0.33975226 0.10908884 -0.027863139 0.99364144 0.18393515
-0.082622156 0.19358499 -0.33975226 0.37116262 -0.24160139 0.89658636 0.21021841
-0.076497138 0.19781263 -0.33955032 0.30062187 -0.077392705 0.95059818 0.16870771
-0.054917768 0.19837868 -0.33975226 0.10668095 -0.14864574 0.98311931 0.080918625
-0.043254055 0.19552213 -0.33975229 0.0079330346 -0.0051560099 0.99995524 0.00035162957
-0.031568192 0.19101083 -0.33975232 -7.0925412e-06 1.7699514e-06 1 3.3236422e-05
-0.024988815 0.19420171 -0.33975229 -4.1696367e-06 1.1613741e-06 1 3.4000459e-05
-0.013742249 0.19545253 -0.33975229 -1.2149419e-05 8.8165121e-05 1 0.00010845387
-0.0078115817 0.19419272 -0.33975232 -2.0229566e-06 -5.5170898e-07 1 6.9941103e-05
0.0053904131 0.19540112 -0.33975232 2.8949264e-05 7.6617041e-05 1 8.4180931e-05
0.012148124 0.19210088 -0.33975229 2.7117741e-05 7.6382923e-05 1 6.7788431e-05
0.031853657 0.19660525 -0.33975229 7.7172699e-06 4.7747587e-08 1 4.3802196e-05
0.043651022 0.19395927 -0.33975229 6.5654699e-06 5.8305002e-05 1 6.2012128e-05
0.062293604 0.19975129 -0.33975229 -1.9342368e-05 9.849752e-05 1 0.00014207725
0.073295817 0.19175312 -0.33975232 4.593554e-05 2.6304053e-05 1 7.5724929e-05
0.1018682 0.19933558 -0.33975232 3.3689488e-05 0.00014968104 1 8.6592168e-05
0.11600438 0.19612281 -0.33975229 3.4654335e-05 7.3453375e-05 1 5.3672007e-05
0.12196701 0.19449769 -0.33975229 6.1635546e-05 3.4077384e-05 1 9.6064752e-05
0.13508871 0.19649586 -0.33975229 7.1451526e-05 -3.1714841e-05 1 0.00011848424
0.14625937 0.19120407 -0.33975226 1.1523039e-05 2.6853211e-05 1 6.0992057e-05
0.17277905 0.19697413 -0.33975229 6.6090586e-05 0.0001042115 1 9.6583492e-05
0.18392316 0.19646202 -0.33975226 2.9971388e-05 6.4451902e-05 1 0.00015185523
0.20566618 0.19605732 -0.33975226 8.0137354e-05 7.6942844e-05 1 9.8979297e-05
0.21255073 0.19057566 -0.33975232 5.3974869e-05 7.8690777e-05 1 0.00010574138
0.22463736 0.19078177 -0.33975229 5.85995e-05 0.00012974073 1 6.276882e-05
0.23513688 0.19274259 -0.33975229 9.7216271e-06 8.7318724e-05 1 6.173132e-05
0.24704152 0.19899066 -0.33975229 3.2648215e-05 5.157568e-05 1 4.8421411e-05
0.26425871 0.19590011 -0.33975226 5.950141e-05 -2.8188613e-06 1 8.9754103e-05
0.27886924 0.19588147 -0.33975229 0.00021376737 3.0242165e-05 1 9.7993034e-05
0.28526166 0.19251637 -0.33975229 3.9768289e-05 6.0043694e-05 1 6.2147577e-05
0.29466489 0.19705802 -0.33975229 0.00016485575 0.0001127183 1 8.6580214e-05
0.30686834 0.19470903 -0.33975229 0.00013667617 6.2209139e-05 1 8.646994e-05
0.31139028 0.1970734 -0.33975229 0.00012896604 3.2003925e-05 1 0.00010721081
0.3241787 0.19294818 -0.33975229 5.7724959e-05 8.5704189e-05 1 0.00014226098
0.33671725 0.19537291 -0.33975229 2.8424271e-05 -2.3789476e-06 1 6.2079111e-05
0.35496464 0.19888858 -0.33975229 -0.069790885 -0.065586604 0.99540323 0.015551737
0.36519647 0.19402565 -0.33975232 -0.13544175 -0.075538911 0.98790151 0.032053974
0.37419522 0.1938934 -0.33975229 -0.23804362 -0.1137583 0.96456951 0.10704862
0.38727686 0.19542418 -0.33963475 -0.07359834 -0.06080322 0.99543267 0.15656096
0.39096814 0.19998139 -0.33975229 0.018805606 -0.025855625 0.99948871 0.15807976
0.40397528 0.1949873 -0.33941379 -0.079638071 -0.10684091 0.99108166 0.13799442
0.41152334 0.19484524 -0.33777055 -0.18833292 -0.082581945 0.97862703 0.1204742
0.42292008 0.1942997 -0.33247325 -0.42088091 -0.32035473 0.84866488 0.06526418
-0.091792241 0.20405385 -0.33784273 0.20753995 -0.10367851 0.97271681 0.14031708
-0.063309468 0.20493756 -0.33975229 0.29157582 -0.18942516 0.93760419 0.16652679
-0.045314174 0.20676881 -0.33975229 0.12906183 -0.20176996 0.97089231 0.091003694
-0.035624895 0.20315903 -0.33975229 0.0039530988 -0.0065312148 0.99997085 0.00027011431
-0.015772959 0.20246036 -0.33975229 -3.4273385e-06 -2.3463036e-07 1 6.6109591e-05
-0.0054528178 0.20312226 -0.33975229 -1.254642e-06 2.3453621e-08 1 0.00010034762
0.0044116075 0.20608534 -0.33975229 6.070758e-06 7.1232658e-05 1 8.7457185e-05
0.027243646 0.20828789 -0.33975229 7.5225557e-06 2.7888089e-05 1 6.2430634e-05
0.05747284 0.20764835 -0.33975229 2.6802423e-05 3.6018278e-05 1 8.5526059e-05
0.067692198 0.20653974 -0.33975229 3.5865243e-05 3.4694636e-05 1 0.00014045078
0.073543482 0.20586899 -0.33975229 2.2137243e-05 6.7940469e-05 1 0.00010442043
0.080691233 0.20991546 -0.33975229 1.4621289e-06 5.0276609e-05 1 0.00011063833
0.09275683 0.20305045 -0.33975229 1.8632985e-05 3.0796411e-05 1 6.0075163e-05
0.10514584 0.20768982 -0.33975226 6.1126535e-05 0.00013366556 1 8.8973415e-05
0.11740611 0.20744038 -0.33975229 2.1868367e-05 4.6489648e-05 1 8.819496e-05
0.12208562 0.20468703 -0.33975229 6.5825094e-05 3.5594774e-05 1 6.5706015e-05
0.13336207 0.20127855 -0.33975232 1.2748897e-05 -3.8785864e-05 1 3.8043287e-05
0.14514612 0.2015584 -0.33975229 2.495053e-05 0.00010322715 1 9.6116077e-05
0.15464586 0.20835227 -0.33975232 5.1849602e-05 -8.6947994e-06 1 6.5200329e-05
0.16636655 0.20474815 -0.33975229 2.0084768e-05 3.1492185e-05 1 9.1051566e-05
0.17932874 0.20388272 -0.33975232 5.060383e-05 9.4778166e-05 1 9.7928285e-05
0.18454604 0.20396522 -0.33975232 6.1435247e-05 0.00013368223 1 0.00011951791
0.20467712 0.20630725 -0.33975229 5.7817244e-05 9.9520643e-05 1 0.00014126381
0.24801905 0.20852713 -0.33975226 -2.4078752e-05 8.6067652e-05 1 9.2023227e-05
0.25681177 0.20235103 -0.33975229 0.00013111388 3.3895223e-05 1 8.392489e-05
0.2624639 0.20166749 -0.33975226 0.00012451547 9.8567449e-05 1 6.105753e-05
0.27509928 0.20818967 -0.33975232 3.5082056e-05 4.6744597e-05 1 6.8676134e-05
0.28702414 0.20671633 -0.33975229 2.9382534e-05 0.00011435778 1 7.3985859e-05
0.30481845 0.20620227 -0.33975229 5.9494076e-05 0.00016291448 1 0.0001221912
0.31521907 0.20436566 -0.33975229 6.6061482e-05 3.3609373e-05 1 0.00010301545
0.32474333 0.20706196 -0.33975229 8.8959459e-05 5.9246115e-05 1 0.00011261974
0.33774596 0.2057659 -0.33975232 0.00011330241 -7.6203542e-06 1 7.8669516e-05
0.3452006 0.20700414 -0.33975229 -0.066877648 -0.060833246 0.99590498 0.015204239
0.35297409 0.20492597 -0.33975229 -0.060948562 -0.070599839 0.99564093 0.014675463
0.3653056 0.206652 -0.33975232 -0.15814324 -0.099955633 0.98234391 0.091477148
0.37169671 0.20171881 -0.33975229 -0.26641056 -0.047291234 0.96269882 0.15840125
0.38246956 0.20625769 -0.33564723 -0.13552311 0.025922677 0.990435 0.18031763
0.39711714 0.20414628 -0.33919385 -0.083637722 -0.17635907 0.98076612 0.12541611
0.40730739 0.20482795 -0.3364805 -0.23927383 -0.26413187 0.93433523 0.1144631
-0.085583746 0.21292499 -0.33749869 0.21811564 -0.085359134 0.97218275 0.17041567
-0.074119851 0.21493626 -0.33969432 0.13225359 -0.068845622 0.98882216 0.16764623
-0.065063767 0.2133591 -0.33807456 0.092032328 -0.067353748 0.9934755 0.16761352
-0.05531086 0.21389377 -0.33975229 0.15806898 -0.17075919 0.97255105 0.12738927
-0.048808862 0.21000488 -0.33975229 0.17189635 -0.17004412 0.97032815 0.10304563
-0.030589994 0.21906221 -0.33975229 0.1432505 -0.17643946 0.97383183 0.063317657
-0.02756954 0.21776992 -0.33975226 0.099454165 -0.11924396 0.98787135 0.037356161
-0.013574013 0.21145439 -0.33975229 -4.6499422e-06 3.4687815e-05 1 9.160005e-05
-0.0082827397 0.2170049 -0.33975229 4.2965038e-07 6.7163419e-05 1 7.4482909e-05
0.0047737658 0.21448797 -0.33975229 6.809131e-07 4.4085307e-05 1 0.00011867119
0.017040664 0.21304166 -0.33975229 1.0563941e-05 0.00012718028 1 0.0001304418
0.0221125 0.21549322 -0.33975229 4.6638095e-07 7.1086863e-05 1 0.00012449698
0.033190146 0.21396783 -0.33975229 1.5320524e-06 9.5867064e-05 1 0.00011827273
0.045161158 0.21542458 -0.33975229 1.4330922e-05 8.0391619e-05 1 8.1480401e-05
0.052671738 0.21614861 -0.33975229 1.3993183e-05 0.00013088914 1 8.7936598e-05
0.062378574 0.21652424 -0.33975232 3.2248892e-05 7.336928e-05 1 8.820209e-05
0.072715104 0.21917772 -0.33975229 -1.0157083e-06 0.00012905225 1 8.7417589e-05
0.085486099 0.21344572 -0.33975232 1.2045311e-05 0.00010572763 1 1.9865118e-05
0.09594065 0.21572475 -0.33975229 1.3411454e-05 1.7591238e-06 1 0.00010660175
0.10417564 0.21528272 -0.33975226 3.78351e-05 9.6579333e-06 1 0.00014710303
0.11926082 0.21792865 -0.33975226 8.7234941e-05 -5.931322e-07 1 0.00010247761
0.13391545 0.21411836 -0.33975229 4.6759527e-05 -1.0167971e-05 1 8.4634165e-05
0.1422264 0.21926071 -0.33975232 4.8646267e-05 -3.5770878e-05 1 1.5857529e-05
0.15491098 0.21989161 -0.33975229 2.2831819e-05 9.7370139e-05 1 0.00011617307
0.16107473 0.21603051 -0.33975229 3.3344284e-05 0.0001603118 1 0.00012377482
0.19632933 0.21785595 -0.33975232 -4.6303423e-05 2.646093e-05 1 5.6089884e-05
0.20556013 0.21302944 -0.33975229 9.2770839e-05 0.00010484336 1 5.7633726e-05
0.21255016 0.218343 -0.33975229 7.2320916e-05 0.00018614909 1 0.00013161656
0.22873515 0.2133318 -0.33975229 5.4891836e-05 6.0244183e-05 1 6.2411113e-05
0.23506169 0.21510249 -0.33975232 -1.6615072e-06 3.1246396e-05 1 9.6909534e-05
0.24597967 0.21615088 -0.33975229 4.3831991e-05 4.3958742e-05 1 0.00012391299
0.25113648 0.2154558 -0.33975229 3.5769557e-05 1.1344632e-07 1 9.2081791e-05
0.26857239 0.21673658 -0.33975229 3.4612727e-05 2.5824265e-06 1 7.0346694e-05
0.2751143 0.21976572 -0.33975229 9.338573e-05 9.0564317e-05 1 4.5187011e-05
0.28486094 0.21507776 -0.33975229 3.9547849e-05 0.00010523372 1 6.8013076e-05
0.29565597 0.21493053 -0.33975229 7.6062635e-05 5.8040318e-05 1 4.5008852e-05
0.30490899 0.21658424 -0.33975226 4.0349994e-05 5.7294656e-06 1 0.00010533343
0.34435961 0.2145233 -0.33975229 -0.11706168 -0.13640727 0.9837122 0.035489764
0.36010265 0.21773657 -0.33975232 -0.10027461 -0.18131444 0.97829956 0.084541641
0.37711418 0.21263133 -0.33743024 -0.253113 0.087230928 0.96349603 0.17587537
0.38095137 0.21189022 -0.33975229 -0.11325964 0.0059028524 0.99354786 0.17952012
0.39617798 0.21685143 -0.33728775 -0.2993764 -0.17118044 0.93865383 0.09448839
0.40414381 0.21594302 -0.33377945 -0.3112748 -0.3845515 0.86903858 0.075897053
-0.08514411 0.22495118 -0.33363426 0.36684746 -0.30171564 0.87999469 0.10021672
-0.073521703 0.22493444 -0.33823797 0.1504008 -0.14359003 0.97814184 0.11486397
-0.064115226 0.22528225 -0.33975229 -0.020688286 -0.12313496 0.99217427 0.14987019
-0.053178951 0.22604905 -0.338328 0.079627395 -0.17252187 0.98178184 0.15166703
-0.046124171 0.22416678 -0.33975229 0.17227836 -0.21910809 0.96037072 0.14640936
-0.033578731 0.22406012 -0.33975232 0.22575456 -0.32460299 0.91851395 0.12009872
-0.014399039 0.22047949 -0.33975229 0.042029206 -0.047179278 0.99800187 0.014055243
-0.0069017368 0.2208842 -0.33975229 1.6057717e-06 3.3663389e-05 1 5.0892395e-05
0.0045608627 0.22675727 -0.33975229 3.2223516e-06 3.3437067e-05 1 0.00010906348
0.010070552 0.22150156 -0.33975229 5.6158956e-06 6.6396431e-05 1 8.4005398e-05
0.025215998 0.22179054 -0.33975229 -7.7228342e-06 8.6189968e-05 1 0.00012731626
0.035133719 0.22341724 -0.33975229 1.6828246e-05 0.0001334649 1 8.5521824e-05
0.045376994 0.22670211 -0.33975229 1.5140127e-05 4.0412709e-05 1 0.000107981
0.059769075 0.22071205 -0.33975229 6.130775e-05 0.00021772785 0.99999988 0.00011488053
0.066160396 0.22569317 -0.33975229 2.9880192e-05 4.0162686e-05 1 0.00010852412
0.074363731 0.22081214 -0.33975229 -1.0148187e-06 0.00012906054 1 8.742002e-05
0.094779238 0.22555384 -0.33975229 2.6516182e-05 7.2352719e-05 1 6.5977205e-05
0.10112318 0.22630076 -0.33975226 3.8447102e-05 -2.1541589e-06 1 0.00013316795
0.13629824 0.22687066 -0.33975229 7.1169612e-05 3.4403813e-05 1 8.7100052e-05
0.14138496 0.22584848 -0.33975229 4.0066003e-05 3.498303e-05 1 8.7076543e-05
0.16419606 0.22496447 -0.33975226 6.7361812e-05 0.00010011174 1 9.5994677e-05
0.17823839 0.2217117 -0.33975232 7.7207233e-06 0.00010657825 1 8.2686391e-05
0.18374616 0.22637682 -0.33975229 8.6332278e-05 0.00016802872 1 6.861968e-05
0.19440058 0.2272464 -0.33975229 0.00014020489 0.00013907546 1 0.00014030657
0.20646381 0.22532685 -0.33975229 7.7705139e-05 0.00013639277 1 0.00013871671
0.23288728 0.2243896 -0.33975229 2.7682778e-05 4.3706266e-05 1 5.0608356e-05
0.24537125 0.22632025 -0.33975229 0.00013852889 6.6461434e-05 1 8.245241e-05
0.25808293 0.22670841 -0.33975226 -2.9929465e-06 3.2523385e-05 1 7.8020981e-05
0.26813382 0.2268019 -0.33975229 3.2606938e-05 5.9136586e-05 1 6.1619969e-05
0.27580506 0.22570169 -0.33975229 0.00016664898 5.6997749e-05 1 8.9662914e-05
0.286349 0.22281885 -0.33975229 0.00012122924 8.301677e-05 1 9.4313044e-05
0.31813043 0.22531521 -0.33975229 2.6203761e-05 6.9101807e-05 1 9.3044975e-05
0.32610852 0.22338244 -0.33975229 -0.044101831 -0.094459228 0.99455136 0.024240894
0.33807892 0.22206302 -0.33975229 -0.093778387 -0.13447477 0.98646963 0.040875141
0.34560752 0.22302827 -0.33975229 -0.1304847 -0.14085187 0.98139417 0.051452287
0.35443938 0.2261814 -0.33975229 -0.081249498 -0.10677002 0.99095845 0.04357009
0.3645027 0.22332661 -0.3371419 -0.09441293 -0.15223873 0.9838239 0.082401
0.37639534 0.22888474 -0.33944866 -0.040805977 -0.16684064 0.98513907 0.10138004
0.38631999 0.22280812 -0.33878279 -0.13028632 -0.10851698 0.98551989 0.12851183
-0.078601226 0.23543572 -0.33254656 0.41208023 -0.39785033 0.81969815 0.098155223
-0.065941781 0.23957813 -0.33571476 0.22894557 -0.23679365 0.94419956 0.13228217
-0.055328399 0.23337895 -0.33968568 0.11048665 -0.078529879 0.99077034 0.14981981
-0.045215428 0.23288201 -0.33886924 0.085185401 -0.16093664 0.98328167 0.15503044
-0.032234251 0.23640215 -0.33975229 0.23026082 -0.045987956 0.97204173 0.14836447
-0.024529859 0.23778467 -0.33975232 0.19992717 -0.083438545 0.9762516 0.10993978
-0.016206032 0.23254298 -0.33975229 0.15005344 -0.18839608 0.9705621 0.077747308
-0.0050248522 0.23103726 -0.33975232 0.052275397 -0.10401483 0.99320096 0.021742506
0.0069284369 0.23088565 -0.33975232 0.014272236 -0.018998513 0.99971765 0.0016049566
0.036025062 0.23665248 -0.33975229 5.8501191e-06 5.6810193e-05 1 7.2340248e-05
0.045765691 0.2359606 -0.33975229 4.2156367e-05 0.00012486872 1 8.8076486e-05
0.053342726 0.23655115 -0.33975229 2.5140613e-05 3.0348143e-05 1 0.0001063665
0.06567917 0.2376297 -0.33975229 1.6542002e-05 3.472079e-05 1 0.00011935164
0.088202387 0.23025908 -0.33975229 3.1181124e-05 0.0001195217 1 6.4236185e-05
0.119304 0.23304525 -0.33975226 6.6621724e-05 3.7236619e-05 1 8.3302002e-05
0.15277825 0.23539713 -0.33975229 2.3542198e-05 8.7597196e-05 1 0.00011509213
0.16613929 0.23074496 -0.33975226 6.436406e-05 9.5519914e-05 1 0.00010007688
0.1703362 0.23194173 -0.33975229 6.324867e-05 3.2909436e-05 1 0.00010090015
0.18739699 0.23678757 -0.33975229 5.5895958e-05 0.00013186078 1 0.00014247293
0.19088323 0.23301825 -0.33975229 9.632794e-06 0.00011733455 1 0.00010602895
0.20201626 0.23101513 -0.33975229 0.00010550454 0.00011815243 1 0.00017036061
0.21770403 0.2346323 -0.33975229 4.6655849e-05 8.3535298e-05 1 9.5891723e-05
0.23263781 0.23541969 -0.33975229 8.1586324e-05 0.00010661351 1 8.9638597e-05
0.26006949 0.23001602 -0.33975232 6.2066101e-05 2.9237861e-05 1 4.5193792e-05
0.28528813 0.23677668 -0.33975229 0.00017522059 6.7071363e-05 1 7.6511897e-05
0.29428941 0.23586468 -0.33975226 0.00014484308 8.7278961e-05 1 0.00013917338
0.30602932 0.2320241 -0.33975229 8.0501151e-05 5.3842759e-05 1 0.00013714598
0.31369829 0.23684016 -0.33975229 -0.043453377 -0.06225016 0.99711418 0.02532709
0.33673456 0.23870759 -0.33975229 -0.50534791 -0.27267584 0.81870103 0.15049256
0.34640804 0.23824638 -0.33579433 -0.072961301 -0.13975677 0.98749411 0.14319885
0.35188779 0.23460111 -0.33770186 -0.0509266 -0.19719142 0.9790414 0.12244995
0.37492728 0.23464909 -0.3383275 -0.093619823 -0.21579258 0.97194076 0.056444358
0.38193488 0.23758614 -0.33538893 -0.31624976 -0.344832 0.88378561 0.054891713
0.39585081 0.23161858 -0.33143246 -0.4824298 -0.3978819 0.78035337 0.052239485
-0.068979099 0.24552485 -0.33057114 0.36648551 -0.46678144 0.80486238 0.10977918
-0.058402069 0.24147809 -0.33733609 0.088993669 -0.15082306 0.9845469 0.14923008
-0.034617446 0.24927106 -0.33975229 0.040115684 -0.041463882 0.99833435 0.13828805
-0.027929362 0.24437357 -0.33863273 0.12980232 -0.076291263 0.98860055 0.13115841
-0.018148458 0.24240436 -0.33975229 0.10745197 -0.14888772 0.98299879 0.10047454
-0.0044576093 0.24665831 -0.33975229 0.091733448 -0.092147402 0.99151087 0.05121956
0.0025860695 0.24636209 -0.33975229 0.10819281 -0.12199906 0.98661566 0.054378256
0.013899741 0.24391237 -0.33975229 0.093814231 -0.058640171 0.99386132 0.018759206
0.024042122 0.24793604 -0.33975226 0.016729658 -0.090052016 0.99579656 0.012308969
0.044564314 0.24240237 -0.33975229 2.8499971e-06 9.3872251e-05 1 9.0978006e-05
0.064720698 0.24395177 -0.33975229 2.8671961e-05 0.0001063156 1 5.7360776e-05
0.089953519 0.24291205 -0.33975229 9.0168196e-06 7.4170821e-05 1 8.6810818e-05
0.11547338 0.24591729 -0.33975229 3.6721234e-05 3.006254e-05 1 6.7812922e-05
0.12668405 0.24491985 -0.33975229 4.4932895e-05 8.1491256e-05 1 0.00011616619
0.15043718 0.24794891 -0.33975229 2.4073259e-05 7.2094539e-05 1 5.3629537e-05
0.16595665 0.24415751 -0.33975232 9.5902506e-05 0.00010064849 1 0.00010668804
0.17526317 0.24392901 -0.33975232 -9.695359e-06 3.9086441e-05 1 7.6828634e-05
0.18643561 0.24207859 -0.33975232 4.6881756e-05 0.00010697147 1 9.0667301e-05
0.19153339 0.24382557 -0.33975232 -0 -0 1 0.00010412315
0.24547374 0.24314761 -0.33975229 7.2818802e-05 1.9634192e-05 1 0.00010622642
0.25867212 0.24420673 -0.33975232 3.9832579e-05 7.3394534e-05 1 8.2617837e-05
0.26221007 0.24456851 -0.33975232 0.00017951372 0.00015226666 1 7.2038289e-05
0.27577907 0.24673679 -0.33975226 0.00014480804 8.5409367e-05 1 0.00011496919
0.28796375 0.24254848 -0.33975229 -0.0018277002 -0.0019560773 0.99999642 9.0821341e-05
0.30084518 0.2421678 -0.33975229 -0.034049522 -0.038603116 0.99867439 0.012868412
0.32574266 0.24764952 -0.33975229 -0.10330371 -0.068553448 0.99228466 0.069140568
0.33999556 0.24180418 -0.33975229 -0.33493814 -0.11935817 0.93464971 0.14547507
0.34290889 0.24500611 -0.33975232 -0.31492755 -0.079796828 0.9457553 0.16745669
0.37346768 0.24813166 -0.33310556 -0.16606651 -0.36331126 0.91674799 0.07293462
0.38765559 0.24109107 -0.33030027 -0.45502692 -0.45700565 0.76426202 0.058640994
-0.045240767 0.25713265 -0.33478117 0.31665242 -0.33201426 0.88853693 0.0838295
-0.035029911 0.25761539 -0.33774447 0.21290079 -0.16857018 0.96242273 0.12476484
-0.024675174 0.25565842 -0.33948901 0.11472025 -0.050891645 0.99209344 0.12886433
-0.012470623 0.25243413 -0.33507517 0.22506046 -0.13532387 0.96490175 0.22335695
-0.0078592543 0.25751165 -0.33443221 0.17184633 -0.0095389597 0.98507762 0.2113692
0.0051262314 0.25585395 -0.33975229 0.12578876 -0.19307394 0.97308773 0.098932005
0.015125239 0.25731277 -0.33975229 0.044300795 -0.14685053 0.98816615 0.084288836
0.026125802 0.25442794 -0.33975229 -0.050350346 -0.24534167 0.9681282 0.044741713
0.033697478 0.25362265 -0.33975229 0.034912821 -0.10715164 0.99362946 0.01433879
0.045466833 0.25584823 -0.33975229 0.004705444 -0.0087159034 0.99995095 0.00023061082
0.057679962 0.25709763 -0.33975229 -2.5368079e-05 0.00014354219 1 0.00017249852
0.062312678 0.25439799 -0.33975229 -2.6658772e-06 8.1647377e-05 1 7.974451e-05
0.076466769 0.2562162 -0.33975229 3.7973627e-05 7.5722717e-05 1 0.00010860281
0.088160276 0.25260302 -0.33975226 2.1938378e-05 2.9784762e-05 1 7.3539064e-05
0.10493629 0.25439656 -0.33975229 2.0939024e-05 7.8003774e-05 1 7.0514754e-05
0.11649825 0.25705805 -0.33975229 6.3172432e-05 0.0001050646 1 0.00010294646
0.12280346 0.25355664 -0.33975229 5.3063675e-05 9.8381106e-06 1 0.00011337354
0.13634518 0.25620377 -0.33975232 4.5847992e-05 1.8593651e-05 1 4.7800939e-05
0.14799182 0.25972161 -0.33975232 1.5134055e-05 3.9550076e-05 1 8.972238e-05
0.15935421 0.25431556 -0.33975229 0.0001159634 7.2603012e-05 1 0.000119091
0.17372674 0.25772989 -0.33975229 2.2684555e-06 -3.1672094e-05 1 6.6586181e-05
0.19290465 0.25555837 -0.33975229 2.3896097e-05 8.1296319e-05 1 9.0587739e-05
0.20934315 0.25373447 -0.33975229 2.967247e-05 3.2318811e-05 1 8.1686601e-05
0.21633381 0.25461119 -0.33975232 -0 -0 1 6.8484842e-05
0.23503757 0.25410169 -0.33975229 8.4809006e-05 0.00011129778 1 0.00013098975
0.24560755 0.25456876 -0.33975229 2.8333841e-05 4.0219097e-06 1 0.00013590533
0.25268617 0.2505976 -0.33975229 2.5437035e-05 0.00017316411 1 0.00011648257
0.26636791 0.25627804 -0.33975229 -0.031391371 -0.10629136 0.99383932 0.021100668
0.27265206 0.25271863 -0.33975229 -0.011827364 -0.018500872 0.9997589 0.0016408638
0.29256117 0.25294173 -0.33975229 -0.077902578 -0.19812667 0.97707576 0.0583966
0.30579013 0.25572819 -0.33975229 0.030556049 -0.13888709 0.98983675 0.057015903
0.31823388 0.25796616 -0.33975229 -0.066584341 -0.087452315 0.99394095 0.067126714
0.32523769 0.25823131 -0.33975229 -0.10405783 -0.09352456 0.99016422 0.073992647
0.33309633 0.25612432 -0.33975229 -0.10081018 -0.063692413 0.99286479 0.091491163
0.34551808 0.25268698 -0.33944434 -0.22995922 -0.083615743 0.96960157 0.13280523
0.36600658 0.25715548 -0.33079639 -0.2614561 -0.49546155 0.82834685 0.081646398
-0.031862743 0.26264626 -0.33707625 0.27761635 -0.21949521 0.93528122 0.12312587
-0.023859926 0.26516476 -0.33822632 0.15714493 -0.24945833 0.95555007 0.11028194
-0.019220849 0.26544863 -0.33903658 0.16112205 -0.24846606 0.95514625 0.081000432
-0.0051166131 0.26724789 -0.33975229 0.063183576 -0.028227432 0.99760264 0.10719099
0.0069088861 0.26771066 -0.33869275 0.10038356 -0.052857801 0.99354374 0.13427393
0.011428577 0.26830608 -0.33577985 0.14326955 -0.072439887 0.98702902 0.11645931
0.043675393 0.26473862 -0.33975232 0.053832624 -0.23766465 0.96985441 0.064042158
0.055850748 0.26421529 -0.33975229 0.0912413 -0.16094765 0.98273641 0.037904657
0.077492326 0.2675119 -0.33975226 0.0014187343 -0.0026285604 0.99999553 0.00015465252
0.087219872 0.26341259 -0.33975229 -1.531242e-05 9.6841432e-05 1 8.5295862e-05
0.090319827 0.26273519 -0.33975229 1.254834e-05 0.00015246139 1 8.1641614e-05
0.10512505 0.26180726 -0.33975229 4.6198034e-05 9.8646953e-05 1 9.3177798e-05
0.11279461 0.26237968 -0.33975226 6.0697912e-05 0.00015848911 1 0.00014382572
0.12548026 0.26133198 -0.33975229 6.7238638e-05 -1.7868061e-06 1 0.00014587528
0.1459332 0.26915798 -0.33975229 3.6934023e-05 4.2360083e-05 1 0.00019556159
0.15632437 0.26435956 -0.33975229 5.4847318e-05 1.3419125e-05 1 9.2180009e-05
0.17277429 0.26667136 -0.33975232 5.1789459e-05 3.7684651e-05 1 5.9714639e-05
0.18399005 0.26134181 -0.33975232 3.9776543e-05 4.1654412e-06 1 6.4903339e-05
0.19744498 0.2662341 -0.33975226 7.0837428e-05 3.0748091e-05 1 0.00014099499
0.21753354 0.2633155 -0.33975229 6.6266493e-06 3.2620032e-05 1 0.00012688554
0.22090387 0.26368922 -0.33975229 4.2127987e-05 7.8080782e-05 1 0.00011532447
0.24475621 0.26630631 -0.33975229 -0.0074490774 -0.016840555 0.99983042 0.00070221775
0.27757201 0.26455322 -0.33975229 -0.019704327 -0.25171608 0.96760052 0.095495939
0.28745672 0.26551804 -0.33975229 -0.040782951 -0.18644761 0.98161811 0.10983884
0.29155093 0.26779449 -0.33975226 -0.0239495 -0.16746408 0.98558718 0.093337297
0.30387986 0.26527593 -0.33923078 -0.064299524 -0.16317447 0.98449975 0.1366372
0.3178727 0.26000348 -0.33833075 -0.072959937 -0.10320865 0.99198025 0.067838065
0.32306656 0.26510847 -0.33975232 -0.037656985 -0.093795523 0.99487913 0.079414055
0.3375282 0.26382747 -0.33830407 -0.28937814 -0.22376353 0.93069333 0.085965224
0.34683245 0.26791129 -0.33339512 -0.38176906 -0.35397997 0.85378611 0.080291241
0.35794407 0.26057404 -0.33275306 -0.37803695 -0.32445022 0.86707562 0.089049235
-0.024776325 0.27204865 -0.33529264 0.21008858 -0.40466473 0.89000523 0.094559796
-0.016872801 0.27609098 -0.33625922 0.27819413 -0.32756731 0.90294397 0.084218688
-0.0055619357 0.2760005 -0.33898312 0.13885793 -0.079597168 0.98710829 0.090645634
0.0057805283 0.27174357 -0.33975229 0.064760178 -0.078982733 0.99477017 0.12945966
0.012741643 0.272948 -0.33620071 0.12339284 -0.079620488 0.98915863 0.10149275
0.020197799 0.27340692 -0.33617443 -0.17204124 -0.13317113 0.97604674 0.099752598
0.033745278 0.2761493 -0.33866405 -0.12032966 -0.20408887 0.97152895 0.097505532
0.058701217 0.27220219 -0.33975232 0.10353061 -0.18553463 0.9771685 0.046780247
0.074269742 0.27656689 -0.33975229 0.10629065 -0.1903242 0.97595036 0.031664699
0.083619118 0.27367815 -0.33975229 0.018067013 -0.13532734 0.99063617 0.022375496
0.10595196 0.27587435 -0.33975229 0.011674594 -0.082539722 0.99651939 0.017499655
0.1114779 0.27470866 -0.33975226 0.0098817023 -0.012460951 0.99987358 0.0009199357
0.13599038 0.27368826 -0.33975229 3.9894057e-05 7.8766519e-05 1 0.00010183534
0.1445675 0.2752898 -0.33975229 0.00010816333 0.00019080569 0.99999994 0.00016553185
0.15830511 0.27650583 -0.33975229 0.0031450891 -0.019486293 0.99980521 0.00075072219
0.16787609 0.27863425 -0.33975229 0.0050979536 -0.063470811 0.99797064 0.0061278646
0.17919217 0.27371308 -0.33975229 2.1090988e-05 8.0562364e-05 1 5.7603775e-05
0.1944589 0.27427563 -0.33975229 0.00031046435 -0.02255222 0.99974561 0.0010223533
0.21428251 0.27299833 -0.33975229 -0.015107472 -0.057641786 0.99822307 0.011737541
0.25742763 0.27853966 -0.33975229 -0.15869229 -0.10852068 0.98134595 0.095740773
0.26559329 0.27827901 -0.33975229 -0.053756695 -0.19383907 0.97955942 0.11567546
0.28640628 0.2748622 -0.33522928 0.017377155 -0.1726969 0.98482168 0.13319184
0.29388055 0.27441752 -0.33843741 -0.01691989 -0.12125789 0.99247682 0.10807762
0.30436075 0.27422175 -0.33975229 0.019241069 -0.15975079 0.98696983 0.077124558
0.3182739 0.27258644 -0.33963233 -0.081046768 -0.20827961 0.97470558 0.039487638
0.33583513 0.27534056 -0.33397406 -0.26594341 -0.35511655 0.89619547 0.092784114
-0.00416969 0.28540909 -0.33571297 0.20021972 -0.33578721 0.92041248 0.053831942
0.0061991024 0.28577906 -0.33766329 0.072272964 -0.19008549 0.97910374 0.092151627
0.019918444 0.2868163 -0.33909783 -0.068768673 -0.095713824 0.99303061 0.11058763
0.024151998 0.28505069 -0.33918718 -0.050180849 -0.10772741 0.99291325 0.12199636
0.035090879 0.28447616 -0.33975229 -0.066575594 -0.064930864 0.99566644 0.11843146
0.048186474 0.28500018 -0.33271801 0.058710709 -0.018017765 0.99811244 0.17996265
0.053118326 0.28704301 -0.33133763 -0.039753668 -0.23136173 0.9720552 0.20737281
0.077149153 0.2844612 -0.33975229 0.16682629 -0.26296607 0.95027256 0.069310613
0.08637096 0.28075239 -0.33975226 0.040301792 -0.1299585 0.99070001 0.034408845
0.097017311 0.28405383 -0.33975229 0.030366095 -0.14039455 0.98962986 0.042171106
0.10504368 0.28480598 -0.33975229 0.05792645 -0.17788772 0.98234439 0.078401171
0.11257093 0.28484747 -0.33975229 -0.010997896 -0.23898493 0.97096103 0.071806818
0.13586365 0.28500849 -0.33975229 -0.023127977 -0.20195061 0.97912264 0.033633441
0.1487623 0.2826263 -0.33975229 -0.0018543808 -0.093719676 0.99559689 0.017097512
0.18678384 0.28399417 -0.33975229 0.0039939042 -0.10361689 0.99460924 0.028638342
0.19226177 0.28462675 -0.33975229 0.011862076 -0.14537545 0.98930544 0.056958023
0.2048406 0.28495377 -0.33975226 -0.043467313 -0.21852504 0.97486275 0.074495383
0.21870376 0.28896558 -0.33975229 -0.015123568 -0.1022414 0.9946447 0.079460055
0.22100461 0.28833973 -0.33975229 0.019996187 -0.13415483 0.9907586 0.088119857
0.24837086 0.28417954 -0.33975229 -0.069957942 -0.098828748 0.99264234 0.1220049
0.25653777 0.28665969 -0.33732173 -0.094146438 0.14078805 0.98555326 0.19146544
0.26998085 0.28654858 -0.33975229 -0.0029194078 -0.054691769 0.99849898 0.15572008
0.27243102 0.28499547 -0.33931658 0.025355792 -0.12404443 0.99195266 0.15617472
0.28419396 0.28267679 -0.33974406 -0.052485205 -0.097282976 0.99387187 0.13476345
0.29698354 0.28617615 -0.33872414 -0.071292892 -0.17858966 0.98133743 0.078698546
0.30314872 0.2838175 -0.33862695 -0.077704333 -0.20826465 0.97498101 0.072054461
0.31456038 0.28958637 -0.33391216 -0.16449358 -0.40745625 0.89828795 0.11872699
0.32515419 0.28686652 -0.33176547 -0.34294716 -0.51870918 0.78315258 0.047926456
0.33304435 0.28154051 -0.33138835 -0.33865875 -0.49932298 0.79748785 0.055920888
-0.0049058632 0.29115468 -0.33173054 0.30442998 -0.50696659 0.80641633 0.032493949
0.0032535584 0.29216138 -0.3335734 0.18793131 -0.39271015 0.90025592 0.051410131
0.011913527 0.29763392 -0.33216137 0.26535511 -0.55437291 0.7888329 0.10884531
0.025208248 0.29624012 -0.33632725 0.045418397 -0.13978712 0.98913938 0.1173382
0.032494798 0.29628178 -0.33780986 -0.087862097 0.019310668 0.99594545 0.093655765
0.044583924 0.29081059 -0.33975229 -0.07650438 -0.13846368 0.98740816 0.14316957
0.06499438 0.29400298 -0.33935088 0.21789293 -0.078968659 0.97277266 0.099858418
0.072657064 0.29114825 -0.33975229 0.082698971 -0.12325937 0.9889226 0.091028422
0.083776578 0.29799756 -0.33820674 0.13248216 -0.12586421 0.98316151 0.091186486
0.094437279 0.2979984 -0.33648145 0.081657797 -0.2421122 0.96680593 0.15633792
0.10686759 0.29659429 -0.33975229 -0.075459711 -0.10720118 0.99136961 0.13916624
0.11545054 0.29430237 -0.33975229 0.02653894 -0.24742797 0.96854275 0.15928048
0.12368205 0.29429185 -0.33975229 -0.0090634003 -0.22822328 0.97356659 0.10482073
0.14331838 0.29525679 -0.33975229 -0.019216653 -0.29730183 0.95459014 0.12094583
0.16517788 0.2985459 -0.33975232 -0.099681087 -0.22466573 0.96932399 0.1247891
0.17915548 0.2905044 -0.33975226 0.058152758 -0.26312122 0.96300858 0.10118508
0.19382498 0.29373342 -0.33975232 0.0821971 -0.33798718 0.93755442 0.11951151
0.20767824 0.29161549 -0.33975229 -0.14686255 -0.1113239 0.98287255 0.099016093
0.21377225 0.29903221 -0.33661976 0.048140202 -0.094265185 0.99438262 0.19918089
0.22171468 0.29684168 -0.33975232 0.019985504 -0.087436922 0.99596959 0.09661074
0.23798384 0.2916964 -0.33975229 -0.062283218 -0.10324664 0.99270386 0.20154323
0.24407192 0.29579422 -0.33885258 -0.10734658 -0.095306017 0.98964304 0.15281127
0.25598156 0.29510006 -0.33971116 -0.060539298 -0.092172287 0.99390101 0.14780901
0.27575728 0.29463255 -0.33875021 -0.034547966 -0.25645396 0.96593881 0.078420818
0.29288083 0.29595667 -0.33527985 -0.15700249 -0.25546053 0.95398647 0.1001713
0.30159688 0.29591903 -0.33316714 -0.18460065 -0.38278577 0.90520585 0.11027703
0.018990166 0.30063951 -0.33210382 0.16785762 -0.50328052 0.84766299 0.11034661
0.026280971 0.30235419 -0.33311367 0.17462705 -0.3880609 0.90493876 0.12707268
0.033887349 0.30757248 -0.33139223 0.10559284 -0.51859564 0.84847426 0.10425998
0.05187019 0.30884814 -0.33574486 0.04104485 -0.30267915 0.95220828 0.072933741
0.087363571 0.30925328 -0.33946478 0.07708782 -0.17615889 0.98133862 0.063098378
0.095191859 0.30473098 -0.33975226 0.035890806 -0.12508354 0.99149674 0.07758344
0.10480326 0.30365837 -0.33540747 -0.1787364 -0.10647052 0.97811925 0.15090445
0.11258137 0.30427587 -0.33975229 -0.15293953 -0.032828588 0.98769021 0.14707048
0.12085859 0.30263063 -0.33296159 -0.20942254 0.48411301 0.84957451 0.2263708
0.14535689 0.306097 -0.33898377 0.043303274 -0.024727918 0.99875593 0.15282659
0.15405041 0.30475008 -0.33673033 0.097806513 -0.088354878 0.99127555 0.13870327
0.16887346 0.30562922 -0.33070976 -0.05554568 -0.31467345 0.94757336 0.25057179
0.17677113 0.30574661 -0.33935606 0.065347314 -0.092344277 0.99358052 0.13221957
0.18235163 0.30677158 -0.33930352 0.028054321 -0.061563876 0.9977088 0.14196566
0.19233501 0.30254045 -0.33633137 0.061738558 -0.15874647 0.98538715 0.20267966
0.20473272 0.3075462 -0.33975229 0.034162201 -0.12743688 0.9912582 0.13163508
0.21258885 0.30032381 -0.33975229 -0.020715093 -0.092250243 0.99552035 0.13001645
0.22597437 0.30410823 -0.33975229 0.032842495 -0.13266072 0.99061728 0.092617527
0.2390098 0.30609429 -0.33953092 -0.02879121 -0.20424868 0.97849554 0.10098988
0.24375892 0.30248284 -0.33975229 -0.21408622 -0.13392864 0.96758997 0.1577414
0.26575434 0.3029694 -0.33748132 -0.22208117 -0.22325639 0.9491241 0.098132804
0.27749369 0.30662912 -0.332479 -0.17983319 -0.43326509 0.88314289 0.10671296
0.28648424 0.30305639 -0.33248821 0.059996754 -0.47728071 0.87670034 0.11609487
0.038973767 0.31056935 -0.33067551 0.07318601 -0.48841539 0.86953682 0.10137272
0.051913876 0.31515253 -0.33142638 0.19676407 -0.48675841 0.85108763 0.081355192
0.069864266 0.31922245 -0.33403012 0.13947555 -0.44176313 0.88622338 0.061913561
0.074131787 0.31477231 -0.33702147 0.067491412 -0.34473822 0.9362694 0.072123393
0.087301336 0.31386366 -0.3381201 0.093809351 -0.2447612 0.9650346 0.07233759
0.099809922 0.31407645 -0.33872092 0.073027134 -0.15560429 0.98511642 0.10206494
0.10580748 0.31419733 -0.33887714 -0.020051904 -0.13965245 0.98999757 0.11225429
0.11443287 0.31490406 -0.33865991 -0.046909582 -0.038553286 0.99815488 0.16281246
0.12624636 0.31745988 -0.33861622 -0.10238484 -0.052130621 0.99337798 0.12918159
0.1362388 0.31536448 -0.33941099 -0.033336647 0.0014170378 0.99944323 0.12555461
0.14262807 0.3169117 -0.33904791 0.01262624 0.0095207756 0.99987495 0.12947568
0.16609231 0.31377447 -0.33975232 -0.047328427 -0.081925161 0.99551409 0.11409194
0.19282025 0.31290144 -0.3396067 0.086057812 -0.1539056 0.98433083 0.10684097
0.20508078 0.31565443 -0.33852798 0.0019923428 -0.15169877 0.98842472 0.099697866
0.21714556 0.3171275 -0.33719063 -0.09470652 -0.30591521 0.94733655 0.10653022
0.22508407 0.31450155 -0.33785042 0.011376088 -0.28713745 0.95782185 0.09134353
0.23748881 0.31698185 -0.33593082 -0.026754774 -0.42755142 0.90359497 0.068811536
0.24571273 0.31471327 -0.33543906 -0.15018485 -0.51380408 0.84465963 0.046618812
0.25188434 0.316899 -0.3328667 -0.17805256 -0.6006633 0.77942342 0.030239398
0.078823105 0.32333523 -0.33177519 0.11438977 -0.59761131 0.79358399 0.086370498
0.086796239 0.32558733 -0.33060932 0.098016448 -0.6209209 0.77772105 0.087196164
0.10924331 0.32461336 -0.33374381 0.091802433 -0.51787114 0.85051847 0.060336579
0.11246074 0.32537398 -0.33350584 0.06393832 -0.52064145 0.85137796 0.072572418
0.13076587 0.32332033 -0.33646235 0.023109494 -0.26296747 0.96452785 0.14242989
0.1494256 0.32906294 -0.3346276 -0.0093020527 -0.33859715 0.94088548 0.15361221
0.15733513 0.32570389 -0.33660734 -0.052129611 -0.37089974 0.9272086 0.087769397
0.16504566 0.32623252 -0.33607849 -0.056570843 -0.33197212 0.94159132 0.11733802
0.17866968 0.3226279 -0.33705127 0.024145791 -0.23492162 0.97171432 0.14492533
0.18127292 0.32669187 -0.33461344 -0.048866723 -0.38535944 0.92147171 0.14895868
0.19384533 0.32462659 -0.33485842 -0.049393449 -0.33892316 0.93951654 0.13304874
0.20381927 0.32549247 -0.3331708 -0.11368861 -0.45630515 0.88253075 0.086735137
0.21118544 0.32247418 -0.33464387 0.048048142 -0.42284417 0.90492767 0.10950265
0.22255294 0.32032385 -0.33517101 -0.056866962 -0.43564987 0.89831805 0.10156702
0.12674916 0.33129415 -0.33010319 0.11740611 -0.61014205 0.78354484 0.097261943
0.14197461 0.33059514 -0.33265042 0.065507241 -0.39826703 0.91492742 0.11963046
0.15565158 0.33278027 -0.33196488 0.023063075 -0.60272521 0.79761547 0.052550238
0.17942341 0.33195737 -0.33029681 -0.13451131 -0.53413051 0.83463234 0.10470148
0.16152951 -0.34011924 -0.32168692 -0.055143885 0.90868968 0.41381437 0.022249481
0.09703394 -0.33286741 -0.32202747 0.089911938 0.89283359 0.44132072 0.021580866
0.10273658 -0.3344526 -0.32013053 0.065737233 0.92012376 0.386071 0.018327491
0.12438589 -0.33314326 -0.32721326 0.10051738 0.820813 0.56228304 0.015990078
0.13949424 -0.33489409 -0.3279267 0.13940182 0.6674912 0.73145241 0.080700062
0.14290603 -0.33914307 -0.32148987 0.069409035 0.90564704 0.41831297 0.026941946
0.1578688 -0.33973846 -0.32359779 -0.043445025 0.89391696 0.44612214 0.02477484
0.17880617 -0.33651125 -0.32433408 -0.10926361 0.83147562 0.5447107 0.025686149
0.18790725 -0.33544171 -0.32393396 -0.10228605 0.82880104 0.55011487 0.027880132
0.19684875 -0.33235088 -0.32675573 -0.069994606 0.79354316 0.60447496 0.033463705
0.20208552 -0.33294082 -0.32511428 -0.05703048 0.80586523 0.58934599 0.028547775
0.21566774 -0.33099121 -0.3253774 -0.17794935 0.76850253 0.61460382 0.029393155
0.2248285 -0.33142033 -0.32246891 -0.14762966 0.86170232 0.48546329 0.019423936
0.2302656 -0.3304702 -0.32305035 -0.13345009 0.83103848 0.53996861 0.028358934
0.06071759 -0.32660511 -0.32075578 0.31662354 0.85739559 0.40573689 0.018306514
0.075804532 -0.32743567 -0.32660669 0.20062014 0.80149752 0.5633412 0.021459173
0.22970113 -0.32917404 -0.32532984 -0.11655478 0.80469835 0.58213013 0.03343663
0.2501156 -0.32343793 -0.32723519 -0.24652733 0.71267712 0.65674621 0.020138318
0.033614974 -0.31340176 -0.3243351 0.26836488 0.79789901 0.53975695 0.016908085
0.044586785 -0.31700593 -0.32585996 0.28915104 0.78956991 0.54126799 0.019181587
0.053326223 -0.31733224 -0.32981244 0.21605803 0.59955168 0.770621 0.093161896
0.25900239 -0.31788939 -0.32930326 -0.23922876 0.5846709 0.77519649 0.061173689
0.26632321 -0.31681994 -0.32700044 -0.28691483 0.71354395 0.63916737 0.02500142
0.27517477 -0.31548715 -0.32363102 -0.37714672 0.79904801 0.46827629 0.023267968
0.0054591671 -0.30154979 -0.32476532 0.31845191 0.77567911 0.54489475 0.025626298
0.013339039 -0.30525112 -0.32412791 0.39126191 0.73836106 0.54930592 0.029743565
0.023626413 -0.30858496 -0.32547939 0.33570692 0.76754618 0.54605287 0.021537557
0.12807095 -0.30358014 -0.32040459 0.30631939 0.94441265 -0.11938646 0.16016765
0.14265133 -0.30549967 -0.32463196 0.61860871 0.44661647 0.64641857 0.29958946
0.15292554 -0.30685231 -0.32614556 0.73886722 0.34874851 0.57658458 0.20000137
0.16564353 -0.30605444 -0.32715231 -0.13167582 0.074085228 0.98852056 0.25696442
0.18338388 -0.30371889 -0.32299379 -0.19433787 0.98079699 -0.016433373 0.19360702
0.19715475 -0.3019059 -0.32482812 -0.18731375 0.98166811 0.035230387 0.18755287
0.20407826 -0.30099443 -0.32319352 0.12274605 0.99038464 -0.063810505 0.1922013
0.28463557 -0.30885291 -0.32758769 -0.29971263 0.78486854 0.54235941 0.016667902
0.29941416 -0.30602616 -0.3225624 -0.37595564 0.80086219 0.46612993 0.028489558
0.30466637 -0.30478644 -0.32058001 -0.3497903 0.8293907 0.43561193 0.029585784
0.31253195 -0.3008109 -0.3219026 -0.38448101 0.82254505 0.4190394 0.023106121
-0.020037882 -0.29097217 -0.32107779 0.47864714 0.72898287 0.48936781 0.027623396
-0.018358968 -0.29020047 -0.32440752 0.46293724 0.72619277 0.50826484 0.027974267
-0.0063923113 -0.29540598 -0.32624942 0.37320223 0.69077224 0.61931729 0.024059106
0.0076197218 -0.29846245 -0.32974651 0.2672298 0.66036516 0.70178783 0.067436248
0.062154453 -0.29078591 -0.3202253 0.35866588 0.93337625 0.012941922 0.19177556
0.074991047 -0.29598758 -0.3287417 0.27141589 0.60760379 0.74642557 0.28286454
0.087633595 -0.29825643 -0.32775456 0.36223733 0.8965444 0.25493568 0.23913743
0.094996862 -0.29922584 -0.32627147 0.54123801 0.17443983 0.82257658 0.28318948
0.21483362 -0.29957846 -0.3237344 -0.21386574 0.97581428 -0.045253534 0.1937159
0.23133315 -0.29740623 -0.32925308 0.0029883096 0.98107523 0.19360411 0.24419828
0.30913898 -0.29812351 -0.32824656 -0.29854503 0.68639094 0.66312766 0.058733594
0.31165063 -0.29752871 -0.32756233 -0.35326719 0.72970277 0.5854367 0.023567047
0.32014516 -0.29440469 -0.3272731 -0.38926312 0.69713205 0.60206413 0.024812637
-0.022003481 -0.28555363 -0.32632759 0.46523851 0.68706107 0.5581221 0.025494399
0.0386829 -0.28106368 -0.32762128 0.21752934 0.9668867 -0.1334586 0.27504161
0.26469994 -0.28484374 -0.32477814 -0.4542799 0.86153734 -0.22667868 0.27200979
0.330255 -0.2890591 -0.32642421 -0.44198045 0.63327008 0.6353128 0.021370286
0.34151137 -0.28261721 -0.32323322 -0.47619244 0.68000811 0.5575211 0.023083091
-0.045593884 -0.27015421 -0.32327551 0.51170343 0.71694964 0.47343716 0.035127845
-0.038798049 -0.27649754 -0.32122228 0.55219907 0.73164356 0.39971721 0.026438085
0.024772776 -0.2753019 -0.32532704 0.20967741 0.95548731 -0.20755599 0.26437694
0.034611106 -0.27937707 -0.32731333 -0.26560003 0.79217857 0.54946321 0.23831101
0.27840376 -0.2791675 -0.3266767 -0.45576221 0.88898808 -0.044509757 0.28526628
0.28400871 -0.27684581 -0.3261964 -0.44392058 0.87427592 0.19640787 0.26486149
0.29399806 -0.27270806 -0.32572415 -0.54071563 0.79550654 -0.27348846 0.22718534
0.34715939 -0.27911821 -0.3222442 -0.45650682 0.67038912 0.58496147 0.021286441
-0.057857499 -0.26132131 -0.32222536 0.58230692 0.69904643 0.41503337 0.030096008
0.0065074172 -0.26773617 -0.32520121 0.52745944 0.81247288 -0.2483431 0.19969095
0.31213924 -0.26440296 -0.32804415 -0.55225152 0.83107316 0.065844618 0.22617617
0.35685563 -0.26808244 -0.32685715 -0.48848331 0.59910733 0.63439286 0.031810094
-0.060993291 -0.25680545 -0.32525921 0.54781681 0.69505811 0.46560818 0.022759268
-0.012599682 -0.2544513 -0.32490277 0.56840968 0.67467064 0.47088209 0.24877772
-0.0066567282 -0.25901151 -0.32754856 0.77449727 0.63237959 -0.015813425 0.20736492
0.31969625 -0.25860423 -0.32136708 -0.60691315 0.79385787 -0.03802802 0.15476225
0.32284334 -0.25618935 -0.32469481 -0.4856047 0.87406743 -0.013938528 0.20313133
0.3652404 -0.25975251 -0.3289758 -0.47383302 0.52033019 0.71044976 0.060337324
-0.080584541 -0.24134636 -0.32579255 0.53833693 0.59699708 0.59480065 0.030724727
-0.072348341 -0.24758363 -0.32521415 0.53358233 0.66356188 0.5243811 0.03314821
-0.031196706 -0.24018133 -0.32882318 0.26388779 0.43525705 0.86076391 0.25336802
-0.026607484 -0.24370275 -0.32598385 0.39104736 0.8418411 0.37200207 0.21259673
-0.019637899 -0.24905069 -0.32143816 0.67445296 0.7381103 0.017503656 0.17660512
0.33535108 -0.24659182 -0.32886177 -0.55388284 0.75209367 0.35716781 0.24199887
0.38593206 -0.24872468 -0.32341248 -0.59944618 0.70167857 0.38511223 0.017406788
-0.090768382 -0.23325372 -0.32151681 0.70581704 0.60129201 0.37452662 0.023655359
-0.080906987 -0.23781836 -0.3291283 0.54086685 0.5748688 0.61399424 0.032735068
-0.043806747 -0.23050529 -0.3224217 0.67811114 0.69782156 -0.23067372 0.19409664
-0.038146183 -0.2348488 -0.32448992 0.59625542 0.79630351 -0.1018841 0.17431755
0.34869656 -0.23635149 -0.32880601 -0.71757251 0.47730646 0.50721622 0.26661429
0.35372552 -0.23249264 -0.32271332 -0.79982543 0.59750611 -0.057146814 0.15263939
0.3970257 -0.23784013 -0.32543904 -0.59407985 0.6156742 0.51770115 0.020601347
0.40552971 -0.23030312 -0.32153773 -0.70324367 0.60045153 0.38066545 0.020149181
