# .PCD v0.7 - Point Cloud Data file format
VERSION 0.7
FIELDS x y z normal_x normal_y normal_z curvature
SIZE 4 4 4 4 4 4 4
TYPE F F F F F F F
COUNT 1 1 1 1 1 1 1
WIDTH 584
HEIGHT 1
VIEWPOINT 0 0 0 1 0 0 0
POINTS 584
DATA ascii
-0.46210361 0.16529015 0.2718595 0.87911886 -0.47657546 0.0050800722 0.00071589887
-0.40503752 0.16682333 0.27607456 0.86247116 -0.50610626 4.2894415e-05 8.8481844e-05
0.17425869 0.1650205 0.27338037 -0.86955136 -0.49384254 -2.9536673e-06 1.05553e-05
0.21783483 0.16006958 0.27481177 -0.87719274 -0.48013839 -1.2789977e-05 0
-0.40050113 0.17455336 0.27426186 0.86239302 -0.50623924 1.9779211e-05 0
-0.39950106 0.17625755 0.27688551 0.86241043 -0.50620961 2.256751e-05 3.153778e-05
0.17064221 0.17138828 0.27993324 -0.86954081 -0.49386111 3.2553601e-06 0
0.21173933 0.17120537 0.27462927 -0.87717944 -0.4801628 3.3565444e-05 4.7198514e-06
-0.39421564 0.18526402 0.27489877 0.86245823 -0.50612831 -0.00014663521 0
0.16403314 0.18302539 0.27513054 -0.86956573 -0.49381721 2.3731025e-05 2.4294952e-06
0.20525593 0.18304983 0.27706695 -0.87719679 -0.48013091 3.5701461e-05 1.0741055e-05
-0.44459853 0.1940757 0.27767608 0.85437953 -0.51964957 -9.0148256e-05 2.1511441e-05
0.1555263 0.19800402 0.27929524 -0.84556311 -0.53384542 -0.0056558941 0.00073117123
0.19868964 0.19504574 0.27299652 -0.87719077 -0.48014218 1.5251325e-05 1.4223941e-05
-0.43840384 0.20426235 0.27957278 0.85434967 -0.51969874 -8.676634e-05 7.8107742e-06
0.14838819 0.20961438 0.27877823 -0.77527857 -0.63161874 0.0010059114 0.0020532885
0.19364622 0.2042595 0.27774879 -0.87543982 -0.48332608 0.0010245063 5.7751771e-07
-0.43138126 0.21581031 0.27097309 0.854357 -0.51968664 1.1269096e-05 0.00011412998
-0.42985523 0.21831982 0.2738221 0.85437751 -0.51965284 2.6159876e-05 0
0.14527969 0.21276729 0.27624336 -0.76938528 -0.63875961 0.0056933383 0.0017593255
0.13420701 0.22399817 0.27155584 -0.71473378 -0.69939661 -0.00033065447 1.6266014e-05
0.18158026 0.22513568 0.27456936 -0.80179971 -0.59740698 0.014905768 0.002324379
-0.41849327 0.23700349 0.27807587 0.77054024 -0.63719916 0.015651695 0.0030538579
0.12330458 0.23505636 0.27258793 -0.71210206 -0.70207596 -2.408301e-05 0
0.17162758 0.23564817 0.27877492 -0.74151182 -0.67093933 -0.00079159188 0.00049592881
-0.41159016 0.2438013 0.27253324 0.70766479 -0.70634902 0.016781643 0.00018756826
0.10998741 0.24856383 0.27522883 -0.71206915 -0.7021094 4.2254524e-06 0
0.11357315 0.24492685 0.2732124 -0.71211332 -0.70206451 1.3055918e-05 5.2661649e-06
0.15882142 0.24905124 0.27193975 -0.72300041 -0.69084758 -4.1925417e-05 0
-0.39634648 0.25836608 0.27103782 0.69095212 -0.72290057 -1.9316791e-05 0
-0.332757 0.25714874 0.27300984 0.70206177 -0.712116 2.8847839e-05 7.9247962e-05
0.15702394 0.25093251 0.27624995 -0.72300899 -0.69083858 -2.4024563e-05 2.3779924e-06
-0.39431792 0.2603043 0.2754516 0.6908614 -0.72298717 7.6418335e-05 8.4089052e-06
-0.38621712 0.26804435 0.27143097 0.690741 -0.72310227 8.2703082e-05 0.00011400156
-0.32489616 0.26489884 0.27109855 0.68164933 -0.7316469 0.006856279 0.00064967904
0.09397462 0.26480541 0.2724168 -0.66224194 -0.74927813 0.0042233891 0.0014877354
0.14519262 0.26331529 0.27650774 -0.72303474 -0.69081169 9.2240834e-06 5.7576262e-06
-0.38185915 0.27220824 0.27502269 0.69082183 -0.72302502 1.8292765e-05 0.00013144697
-0.37708193 0.27677271 0.27599823 0.69108218 -0.72277623 -0.00018800182 0
-0.31827611 0.27142563 0.27788797 0.59191376 -0.80590725 -0.012309727 0.0021966477
0.08719039 0.27105707 0.2744875 -0.56819701 -0.82287467 -0.0054313759 0.0013334131
0.13262562 0.27646804 0.27607489 -0.72302252 -0.69082451 -2.5371311e-05 0
-0.29411018 0.28584623 0.27341762 0.49859351 -0.86683589 -0.00032687833 8.4374515e-06
0.12541775 0.28401187 0.27682686 -0.69947678 -0.71461743 0.0073597771 0.00082412001
-0.35519642 0.29768354 0.27893347 0.66176581 -0.74969023 0.0055226018 0.0010275019
-0.28278095 0.29228047 0.2737492 0.49382865 -0.86955929 -3.7277263e-05 4.2275174e-06
-0.27518246 0.2965959 0.27271441 0.4939526 -0.86948884 7.4011346e-05 6.4605611e-06
0.04807435 0.29401219 0.27481806 -0.50615567 -0.8624422 4.1735475e-05 2.5280964e-05
-0.26641738 0.3015739 0.27391386 0.49386367 -0.86953926 -2.9181567e-05 0
0.026498806 0.30667371 0.27163723 -0.47414786 -0.8804034 -0.0085835401 0.00080322433
0.035850801 0.30118555 0.27642405 -0.50612152 -0.86246216 -4.9496659e-05 0
0.10202974 0.30297384 0.27350113 -0.53187901 -0.84680969 0.0042466144 0.00023469381
-0.32681274 0.31669921 0.27930573 0.48268667 -0.87579286 -0.0007309278 5.2343981e-05
-0.23685464 0.31707352 0.27674681 0.35301837 -0.93560934 0.0036340479 0.0019677514
-0.22669782 0.31971797 0.27796355 0.28006479 -0.95990539 -0.012050482 0.00079556479
-0.0070365705 0.3198936 0.27763891 -0.27543652 -0.96131909 0.00061682874 9.9821278e-05
0.017306669 0.3120681 0.27260232 -0.40171733 -0.91565633 -0.014027812 0.0021641101
0.07484889 0.31950304 0.27572626 -0.51961488 -0.85440063 1.3007492e-05 6.7293349e-06
0.085047655 0.31330097 0.27718943 -0.51959991 -0.85440964 -6.3746476e-05 2.6579763e-05
-0.31963491 0.3206282 0.27266687 0.48026258 -0.87712479 -9.3539268e-07 0
-0.21710917 0.32221448 0.27363935 0.25198463 -0.96773118 6.6813232e-07 0
-0.18812938 0.32975969 0.27343109 0.25195873 -0.96773797 -5.5993762e-05 0
-0.0431838 0.32985452 0.27875859 -0.26566556 -0.96406519 -1.1050809e-05 0
-0.020405803 0.32357767 0.27187994 -0.26568231 -0.9640606 4.2508906e-05 1.5831951e-05
-0.0143702 0.32191449 0.27688915 -0.26568851 -0.96405894 1.0826646e-05 5.3401836e-05
-0.0082551138 0.32022938 0.27317262 -0.27320042 -0.9619571 7.0495385e-05 0.0001238845
0.065380365 0.32526106 0.2742044 -0.51962793 -0.85439265 2.410424e-05 5.099022e-05
-0.28765649 0.3381325 0.27323031 0.48020321 -0.87715727 5.0849936e-05 0
-0.17642015 0.33280832 0.27857098 0.24355097 -0.96988714 -0.0013926247 4.0535535e-05
-0.15554973 0.33776072 0.27508321 0.11641914 -0.99315149 -0.0098314397 0.001790981
-0.094308212 0.33743224 0.27951804 -0.011067028 -0.99993873 -0.00016269893 9.3464834e-05
-0.074657664 0.33729285 0.27657938 -0.10410366 -0.99450594 0.010969134 0.0022699072
-0.067719251 0.33661565 0.27817509 -0.15320605 -0.98818266 0.0047948053 0.0025324132
-0.0502421 0.33179957 0.27766076 -0.2341876 -0.97218686 0.0029651718 0.00050936022
0.046812262 0.33655268 0.27170807 -0.51959151 -0.85441476 -2.5666657e-05 1.6648251e-05
0.050778735 0.3341406 0.27945101 -0.51959759 -0.85441118 6.4506799e-05 2.3723787e-05
-0.28025335 0.34218478 0.27414444 0.47017318 -0.88256586 -0.0038334848 0.00011945001
-0.27757752 0.34364951 0.27053544 0.47156164 -0.88181424 -0.0057755723 0.00011593482
0.038125742 0.34183514 0.27155378 -0.45037749 -0.89283818 -0.0003472807 0.0022787515
-0.26348615 0.35136276 0.27408153 0.38460636 -0.92288679 -0.018918779 0.0022925134
-0.24454632 0.35706997 0.27713192 0.258625 -0.96593732 0.0088400487 0.00013655034
-0.23603591 0.35914385 0.27018106 0.250191 -0.96818584 0.0045293737 0.0001638563
-0.010619613 0.35863227 0.27745232 -0.28074995 -0.95978093 -3.9848186e-05 0
-0.22531132 0.36175731 0.27753639 0.23673357 -0.9715746 -2.665142e-05 1.8022498e-05
-0.19515058 0.36910707 0.27844876 0.23675971 -0.97156817 -6.875088e-05 0
-0.0403703 0.3673346 0.27550268 -0.28076035 -0.95977795 8.1103462e-05 5.1070136e-05
-0.017297644 0.36058563 0.2733593 -0.28074965 -0.95978105 3.4118679e-05 8.9428149e-06
-0.18526687 0.37151563 0.27513599 0.23476194 -0.97205287 -0.00032649876 9.156618e-05
-0.1724679 0.37463459 0.27556521 0.17503914 -0.98453444 0.0073023927 0.0014745218
-0.16686174 0.3760007 0.27174756 0.13909543 -0.99026 0.0061256448 0.0016738727
-0.13550153 0.37610936 0.27419841 -0.022781046 -0.99974048 -4.0495022e-05 6.7717236e-05
-0.11721376 0.3756929 0.27388507 -0.022772806 -0.99974066 -4.1682655e-05 2.1562673e-05
-0.10210571 0.37534881 0.27041781 -0.022797106 -0.99974006 4.3989101e-05 7.1599802e-06
-0.07792785 0.37479818 0.27471501 -0.092110842 -0.99570239 0.0096147992 0.00099866791
-0.056726284 0.37211889 0.27472174 -0.21044452 -0.97751468 0.013349685 0.0014914016
-0.17154817 -0.37471333 0.28687251 0.062213041 0.9980619 0.0014165544 0.00054996007
-0.13628194 -0.3755165 0.28124741 0.022699865 0.99974233 4.2942815e-05 3.3440527e-05
-0.11669175 -0.37596264 0.28570205 0.022771511 0.99974066 5.9132628e-05 5.1777166e-05
-0.083649665 -0.37671518 0.2813074 -0.10833601 0.99408311 0.0078787766 0.0023038469
-0.071334884 -0.37415946 0.28732604 -0.20091157 0.97960889 0.0009234242 0.00055520062
-0.063450217 -0.37223804 0.28415635 -0.20610709 0.97852886 -0.0010169409 0.00044510578
-0.23024376 -0.36006233 0.28559306 0.28083351 0.95975649 -9.9186029e-05 0
-0.22355169 -0.36201984 0.28018266 0.28082091 0.95976019 0.0001101083 0
-0.21328071 -0.36502415 0.28521425 0.28083086 0.95975727 0.00013732034 1.5126425e-06
-0.20965882 -0.36608359 0.2860724 0.2807543 0.95977974 1.5287935e-06 2.4678764e-05
-0.033772722 -0.36500603 0.28364736 -0.23679341 0.97156006 6.7496076e-05 5.6294342e-05
-0.027285878 -0.36342528 0.28725418 -0.23676042 0.97156799 0.0001100802 0
-0.016094921 -0.36069816 0.28593302 -0.23675676 0.97156888 -1.3998132e-05 0
-0.23526533 -0.35859346 0.28061625 0.28083509 0.95975602 2.048622e-06 0
-0.00796434 -0.35871685 0.28161561 -0.24136397 0.97043467 1.9396137e-05 7.4300202e-05
0.0089208782 -0.35460213 0.2860294 -0.30673715 0.95173025 0.011038734 0.0017358747
0.016256001 -0.35217166 0.28254938 -0.35249674 0.93562192 0.018911364 0.0019117472
-0.28675207 -0.34008741 0.28294867 0.48224801 0.87600893 0.0067178216 0.00072140933
0.021330828 -0.34939378 0.28305054 -0.42262024 0.90627784 0.0072510038 0.0021188085
0.030184735 -0.34454736 0.28160584 -0.45700899 0.88936865 0.012890321 0.00068486301
-0.30228901 -0.33063912 0.28529692 0.51959616 0.85441202 -5.029096e-06 0
-0.2968508 -0.3339462 0.28881606 0.51968324 0.85435897 -3.4876804e-05 0
0.047200222 -0.33523345 0.28202933 -0.48019305 0.87716281 6.2375802e-05 4.1907322e-05
-0.31770366 -0.32126516 0.28079823 0.51951003 0.85446441 -7.3830503e-05 4.2174979e-06
-0.16308373 -0.32176423 0.28878865 0.14492793 0.98943448 0.003922285 0.0024947766
-0.15759613 -0.32219192 0.28935835 0.13380417 0.99100739 0.00085759239 0.0023568165
-0.14614296 -0.32227314 0.2880798 0.026916312 0.99963218 0.0033233054 0.00067394204
-0.11795665 -0.32247305 0.28497458 0.0071044173 0.99997473 -3.3476368e-05 0
-0.10468652 -0.32256719 0.28499889 0.0071184621 0.99997461 -5.0331691e-05 0
-0.07725057 -0.32276177 0.28970385 -0.062064882 0.99807084 0.0015897268 0.0016470331
0.057733312 -0.32946786 0.28042918 -0.48017216 0.87717426 2.9663401e-05 2.6751861e-05
0.065271758 -0.32534146 0.28126326 -0.48015308 0.87718469 -4.865948e-05 6.1268079e-06
0.07155437 -0.32190251 0.28608641 -0.48017403 0.87717319 -4.3415243e-05 0
-0.33576918 -0.3102791 0.28942648 0.51965344 0.85437721 -3.7531219e-05 0
-0.19579302 -0.31275067 0.28509152 0.26572052 0.96405005 -1.9713658e-05 0
-0.18339443 -0.31616729 0.28511256 0.25707883 0.96638948 -0.0013481792 0.00011587729
-0.17234001 -0.31921354 0.28273538 0.217067 0.97611785 -0.0087138545 0.0013514884
-0.059662253 -0.31885394 0.28952089 -0.21334727 0.97697586 -0.00099373632 0.00076838443
-0.045497887 -0.31516612 0.28485322 -0.25196394 0.96773666 -9.2382186e-05 0
-0.028507713 -0.31074253 0.28394327 -0.25196308 0.9677369 4.5580993e-05 4.8649035e-06
0.090618722 -0.31146708 0.28959361 -0.52510357 0.85098815 -0.0092440471 0.0013287306
-0.22592303 -0.30444789 0.28541195 0.28073883 0.95978153 0.002247483 0.00010547678
0.099571019 -0.3065668 0.28036082 -0.58644229 0.80998975 0.001397769 0.001867781
0.024042297 -0.29254302 0.2843779 -0.46121907 0.8872534 -0.00764343 0.00063967076
0.10739328 -0.29964286 0.28958297 -0.64474756 0.76439416 0.0014806172 0.0011446968
-0.37483656 -0.28017452 0.28536335 0.71874547 0.69527328 0.0001364593 2.4497516e-05
-0.27711076 -0.28047484 0.28574923 0.50615948 0.86243987 -7.5756898e-06 0
0.030355448 -0.28895757 0.28984469 -0.49386212 0.86954021 -9.6196207e-05 0
0.042608224 -0.28199884 0.28493571 -0.49385417 0.86954468 -8.5505402e-05 0
0.12591361 -0.28194731 0.2847454 -0.69085068 0.72299743 -5.6562083e-05 0
-0.28609073 -0.27520496 0.28665656 0.50613743 0.86245286 2.6826989e-05 4.6817859e-05
-0.27799359 -0.27995679 0.28056034 0.50620818 0.86241126 -6.6449429e-05 0
-0.3910518 -0.2632035 0.28981763 0.72301263 0.69083476 -1.9494963e-05 7.827943e-05
-0.38672766 -0.26772916 0.28524736 0.72293079 0.69092047 -5.8050598e-05 8.3654304e-05
-0.29756987 -0.2684685 0.2838887 0.50613284 0.86245549 0.00014404717 6.4535525e-05
-0.39743963 -0.25651792 0.28372127 0.72303426 0.69081217 -5.825167e-05 0
-0.31748539 -0.25678113 0.28247651 0.57549924 0.81773955 -0.010137463 0.002249592
0.085904352 -0.25699687 0.28266072 -0.65077108 0.75918812 -0.011425052 0.0010009272
0.1547294 -0.25441486 0.28356215 -0.69083887 0.72300881 -5.4239185e-06 0
-0.33311841 -0.24215226 0.28355885 0.70408529 0.71011436 -0.001205889 0.00010226721
0.094970509 -0.24805841 0.28520367 -0.68410403 0.72938406 -0.00076543918 0.000706641
-0.42144129 -0.23139752 0.28455681 0.75317931 0.65779871 0.0046772654 0.001430952
-0.41652045 -0.23654772 0.2840158 0.73573208 0.6772722 0.00078180613 0.0006157115
-0.34277886 -0.23235378 0.28729343 0.71205437 0.7021243 -3.9970684e-05 2.7727014e-05
0.10994494 -0.2332949 0.28515604 -0.70207566 0.71210229 5.6954435e-05 3.7121331e-06
0.17109638 -0.23877677 0.28812233 -0.76383632 0.64540476 -0.002597447 0.0019412313
-0.42747888 -0.22507849 0.28101134 0.8020004 0.59720278 -0.012007659 0.0028311957
-0.34818289 -0.22687255 0.28921592 0.71212465 0.70205307 -0.00010257584 5.4690372e-06
0.11592383 -0.22740023 0.28849196 -0.70205367 0.71212411 4.7357516e-05 8.3083351e-06
0.12161835 -0.2217859 0.28279454 -0.70206696 0.712111 2.801892e-05 1.1978201e-06
0.18156222 -0.22249746 0.28622946 -0.84981751 0.52707708 -0.00013864254 0.00015002582
-0.43478453 -0.21268891 0.28634727 0.85534304 0.51806194 -0.0002357918 0.0011453615
-0.44118756 -0.20099127 0.28546712 0.87609208 0.48214367 0.00022126231 0
-0.43829966 -0.20626715 0.28206146 0.87459993 0.48484519 1.0768634e-05 0.00010598388
-0.36494151 -0.20987451 0.28122908 0.71208215 0.70209605 3.638503e-05 4.4518649e-05
0.19461791 -0.20102853 0.28090262 -0.85439503 0.51962411 6.9118514e-06 0
-0.44452667 -0.19489115 0.28480303 0.87714916 0.48021808 0.00013423241 0.0001044795
-0.37611645 -0.19853985 0.28574476 0.75522959 0.65540606 -0.0084384559 0.000867786
0.1442441 -0.19947885 0.28368622 -0.78741819 0.61640626 -0.0039940323 0.0022373288
0.19811523 -0.19527753 0.28730801 -0.85442394 0.51957643 -1.9172234e-05 0
0.15407464 -0.18456087 0.28444001 -0.84450823 0.53552198 0.0046890285 0.00036477033
0.20734981 -0.18009207 0.28516081 -0.85440403 0.51960927 -2.3381206e-05 1.3317332e-05
-0.45773363 -0.1707634 0.28487217 0.87714183 0.48023149 -3.6864385e-05 9.1850103e-05
0.16056497 -0.17350122 0.28303349 -0.86246383 0.5061186 4.4930362e-06 7.4276812e-07
0.20836015 -0.17843062 0.2860139 -0.85440147 0.5196135 -2.3865892e-05 0
0.21158506 -0.17312759 0.28301686 -0.86181879 0.5072161 0.0004556686 0.00017881772
0.21660328 -0.16487558 0.28476444 -0.86775947 0.49683458 0.012202612 0.00029212559
-0.46609914 -0.1554805 0.28672761 0.87821531 0.47826058 -0.0021507179 3.8460934e-05
-0.40232384 -0.15631323 0.28053522 0.8695364 0.4938688 -3.866744e-05 4.4745455e-05
0.1730507 -0.15222523 0.28826654 -0.86245048 0.50614148 3.4691453e-05 0
0.22057004 -0.15835258 0.2864413 -0.89353454 0.44881245 0.012784694 0.0021975534
-0.47364366 -0.14169744 0.28849334 0.92396301 0.38234183 -0.010343825 0.0027049333
0.17985676 -0.14062759 0.2868813 -0.86245281 0.50613755 1.7921941e-05 1.3199953e-05
0.22552785 -0.14722365 0.28366914 -0.92038167 0.39078781 -0.013512155 0.0022670305
-0.47544783 -0.13840148 0.28997147 0.94110954 0.33769238 0.016636407 0.0028211889
-0.41379201 -0.13612039 0.28386366 0.87496454 0.48417634 -0.0032347254 0.0002085842
0.22952494 -0.13355882 0.28612849 -0.95429552 0.29876643 -0.00766127 0.00028611734
0.18689208 -0.12863919 0.28758216 -0.89998078 0.43588439 0.0062639927 0.0024239758
0.19074529 -0.12207323 0.28995916 -0.92628902 0.37681368 -0.00034861383 0.0019804738
-0.48101932 -0.11726645 0.28931481 0.96824849 0.24998984 -4.8694768e-05 0.00010097543
-0.42548096 -0.11304092 0.28328073 0.93984258 0.34160671 0.00090792996 0.002402707
0.19626813 -0.10209639 0.28736991 -0.95818847 0.2861329 -0.0017033709 0.00042075536
0.23921973 -0.10041531 0.28664237 -0.95978147 0.28074852 -2.0167479e-05 1.3408352e-05
-0.48544317 -0.099112622 0.28725606 0.97156471 0.23677413 -5.0039311e-05 6.5518259e-05
0.19849333 -0.09402141 0.28057456 -0.96406657 0.26566058 -3.3116976e-05 0
0.23985037 -0.098259345 0.28760308 -0.95977843 0.28075856 -8.4654685e-06 2.0509215e-05
-0.48962271 -0.081961378 0.28398669 0.97155637 0.23680827 5.9810809e-05 9.6115458e-05
0.47442901 -0.080331109 0.28496349 0.13997394 0.98913336 -0.044971514 0.068346523
0.48071349 -0.080930009 0.28429678 -0.078257084 0.99505794 -0.061118722 0.099191196
-0.49231529 -0.070912123 0.28316504 0.97156656 0.23676647 -2.2151171e-05 0
-0.43460166 -0.078009956 0.28736347 0.96773076 0.25198644 -2.0330835e-05 0
0.20463228 -0.071743734 0.28383374 -0.96406388 0.26567051 2.2935586e-05 1.0819933e-05
0.46848506 -0.077172361 0.28262118 -0.44299316 -0.89652276 0.0020111245 0.030650504
0.48818946 -0.0787488 0.28305823 -0.37882578 0.92529482 -0.017901836 0.094158053
0.49062419 -0.077041447 0.28750265 -0.54262668 0.83901507 -0.040124077 0.066862352
-0.49393117 -0.064281061 0.28541639 0.97156143 0.23678754 -6.9940892e-05 0
0.24874201 -0.067861527 0.28641033 -0.97290832 0.23115191 -0.0042524161 0.0010020692
0.25062984 -0.061407648 0.28050661 -0.97463679 0.22378992 -0.0010847145 0.0011949834
0.44910681 -0.06250456 0.28306594 -0.88620031 -0.46318483 -0.010432864 0.041178979
0.46198633 -0.066916287 0.28661853 -0.66811001 -0.74338847 -0.031663582 0.044182301
0.4969843 -0.065296553 0.2892074 -0.90513408 0.42479122 0.0168758 0.053191222
-0.49498779 -0.059945095 0.28763545 0.97553802 0.21977833 -0.0048059621 0.00022562245
-0.43963611 -0.058673568 0.28743204 0.96832442 0.24969508 -0.00031874218 0
0.20792356 -0.059799992 0.28464329 -0.96751273 0.25281665 0.0016653567 0.00025072199
0.44761816 -0.059384763 0.28422177 -0.91746831 -0.39758545 -0.013330129 0.046091333
-0.49781063 -0.048361234 0.28692669 0.98871696 0.14833868 -0.020839177 0.0014296859
-0.44315141 -0.045172043 0.28376555 0.97811294 0.20789103 -0.0087451003 0.00134474
0.21233697 -0.043784168 0.28589642 -0.9834519 0.18087895 -0.010260561 0.0023348385
0.25188547 -0.046550445 0.28331178 -0.99836111 0.057101984 -0.0037947602 0.00076328951
0.44804308 -0.040726908 0.28844294 -0.98920429 -0.14309874 0.031582769 0.02554401
0.49778372 -0.045742944 0.28513137 -0.99862087 0.052320592 0.0043427148 0.0010352501
-0.49948362 -0.034492522 0.28518832 0.99823743 0.059288573 0.0026423503 0.0015993603
-0.44616631 -0.032325137 0.28595689 0.99192601 0.12651967 0.0086895498 0.0025605909
0.21390444 -0.032634016 0.28537926 -0.99315071 0.11678598 -0.0035597263 0.0027649659
0.4481822 -0.034618683 0.28700122 -0.99998516 0.0048494246 0.0024769257 0.00035925914
0.49805355 -0.033892974 0.28618819 -0.9997409 0.022762967 -3.3584663e-06 2.1118136e-05
-0.49921715 -0.022794783 0.28469202 0.99999249 -0.0034299351 -0.0018027696 0.00057762861
-0.44613406 -0.027776442 0.28866133 0.99763054 0.068798222 6.5134402e-05 0.0018802941
0.21395797 -0.025087731 0.2863639 -0.9991138 0.041968502 -0.0032120917 0.00077103061
0.25236011 -0.025708426 0.28669241 -0.99974072 0.022770185 -6.3671076e-05 0
0.44850689 -0.020363919 0.2807675 -0.99974084 0.022765564 1.1907871e-05 0
-0.4990432 -0.015155875 0.28406605 0.99974006 -0.022796217 -0.00010915142 0
-0.44607109 -0.018897235 0.28290007 0.99934661 0.036025565 0.0029225948 0.0015494785
0.25253981 -0.017818565 0.28700542 -0.99974084 0.022764517 1.0518095e-05 2.623111e-05
-0.4988105 -0.0049380781 0.28914368 0.99974084 -0.022765616 3.3879899e-06 0
-0.44597986 -0.0060411976 0.28435043 0.99997485 -0.0070937299 -5.6094204e-06 6.235075e-06
0.44882494 -0.0063988045 0.28095779 -0.9997409 0.022760684 0.00014395248 0
-0.49863607 0.0027205143 0.28880686 0.99974102 -0.022754773 0.00015679815 8.8111919e-05
-0.4459205 0.0023337789 0.28920907 0.99997479 -0.0070989416 -8.1218677e-05 0
0.21414575 0.001385238 0.28668931 -0.99997485 0.0070921401 -1.0776825e-05 7.2902535e-06
0.49897105 0.0063915104 0.28737468 -0.99974132 0.022744372 -8.4193918e-05 0
-0.49827701 0.01848655 0.28126121 0.99974066 -0.022773769 9.2622788e-05 9.7750135e-06
-0.44584712 0.012677606 0.28917721 0.99997473 -0.0071049766 6.3931046e-05 0.00014037582
0.25318798 0.010642514 0.28658846 -0.99974072 0.022770805 -2.3844588e-05 0
0.4494186 0.019668575 0.28725114 -0.97367811 0.22569741 -0.031804379 0.039763432
0.49914011 0.013813478 0.28565204 -0.99962485 -0.026309151 -0.0076186033 0.002558311
0.44957644 0.02659853 0.2835713 -0.79538298 0.60505754 0.035654407 0.047815047
0.49933892 0.022543047 0.28714368 -0.95425004 -0.29893523 -0.0066815228 0.022914693
0.46577322 0.038680546 0.28074524 -0.44074896 0.89751655 -0.014296888 0.029956751
0.21445021 0.044307157 0.28307885 -0.99822909 -0.058988776 -0.0076759066 0.0012277232
0.25329384 0.043290634 0.28379586 -0.98883498 -0.14818728 0.015685679 0.001232679
0.47055298 0.04254932 0.28558436 -0.28504655 0.95763075 -0.041130878 0.029163592
0.48614836 0.045038398 0.28758553 -0.23666495 -0.97136152 -0.021132607 0.076361321
0.49056286 0.043490075 0.28734803 -0.39196002 -0.91996986 0.0047786818 0.073639154
-0.4455612 0.052991688 0.28263646 0.98911268 -0.1469906 0.007060579 0.0031117955
0.25091967 0.053033188 0.28360271 -0.98100549 -0.19382465 0.0077629383 0.001106841
-0.49464551 0.067345016 0.28363156 0.97101027 -0.23881046 0.010425241 0.00097815786
0.21077248 0.062899441 0.28558922 -0.9761793 -0.21696439 -0.00063300604 0.00057047018
-0.4936755 0.070661165 0.28333792 0.96662539 -0.25615409 0.0045102215 0.00050292781
0.20758556 0.075139895 0.28513333 -0.96773064 -0.25198713 -2.8505705e-05 0
0.24598254 0.073293656 0.28859591 -0.97157151 -0.23674616 8.1105325e-05 5.1509769e-06
-0.43775326 0.081662387 0.28420815 0.96429271 -0.26483867 -0.00011199724 0
0.24416369 0.080757529 0.28510788 -0.9715721 -0.23674406 -4.6296012e-05 0
0.24122825 0.092803426 0.28328967 -0.97156781 -0.2367613 9.3593399e-06 0
-0.48251688 0.10880914 0.28180945 0.95978487 -0.28073633 -5.8029786e-05 7.4383674e-06
0.20078954 0.10124204 0.28033036 -0.96773779 -0.25195944 9.5085943e-06 0
0.23812681 0.10553054 0.28449363 -0.97157037 -0.23675078 7.0433935e-06 2.9970241e-05
0.23552898 0.11619101 0.28252867 -0.97157127 -0.23674701 -8.7489589e-06 0
-0.47843078 0.12277828 0.2866711 0.95977974 -0.28075409 6.6694236e-05 4.6776506e-05
-0.42503029 0.12783286 0.28676698 0.94337165 -0.33170196 0.0048732329 0.0017910349
0.23305374 0.12634839 0.28392544 -0.95591497 -0.29359385 0.0054064468 0.0013972693
-0.42226338 0.13746998 0.28235358 0.92154562 -0.38821024 -0.0068170871 0.0017931849
-0.41867584 0.14358327 0.28313231 0.89184928 -0.45233217 0.00071179291 0.0018986108
0.18518032 0.14578995 0.28530183 -0.87587398 -0.482494 -0.0066492287 0.00023579762
-0.41249931 0.15410821 0.28644198 0.86979538 -0.49340445 0.0028343326 0.00036909193
0.17756927 0.15919128 0.28818259 -0.86955589 -0.4938345 -4.0360075e-05 7.7805043e-06
0.1819717 0.15143961 0.28407681 -0.87265927 -0.48832917 0.0006212304 9.0833826e-05
0.22039278 0.15539643 0.2830146 -0.88075858 -0.47356355 -0.001386399 0.00014791214
-0.46273583 0.16425051 0.28560597 0.86839694 -0.4958576 0.0034579297 0.00034528572
-0.45988095 0.1689451 0.28942364 0.8633073 -0.50467819 0.00065425981 0.00033135482
-0.40454632 0.1676603 0.28581148 0.86245686 -0.50613058 -3.151441e-05 0
0.17361063 0.16616157 0.28715795 -0.86955237 -0.49384078 -3.3726894e-05 0
0.21460375 0.1659724 0.28845847 -0.87717199 -0.4801763 -7.1022863e-05 0
-0.40215313 0.1717383 0.28158751 0.86244822 -0.50614542 0.00010351343 0
-0.39961967 0.17605542 0.28513363 0.86242175 -0.50619042 8.2127135e-06 4.3392156e-05
0.21013775 0.17413127 0.28856722 -0.87718445 -0.48015359 3.4570949e-05 4.4397621e-05
-0.45098734 0.18356989 0.28107816 0.85442048 -0.51958221 -8.2281722e-06 4.2323187e-05
-0.3916316 0.18966733 0.28030449 0.85969412 -0.51080668 -0.001637889 0
-0.44649523 0.19095677 0.28936946 0.85441852 -0.51958537 -1.4067565e-05 0
-0.38772511 0.19632405 0.28575709 0.85121113 -0.52482325 0.00038550547 0.00035031833
0.19685224 0.19840246 0.283665 -0.87718856 -0.4801459 -2.7053322e-06 0
-0.38215339 0.20581841 0.2817153 0.82540715 -0.56450343 0.0062441579 0.00097567943
0.15075251 0.20640957 0.28815752 -0.80978483 -0.58663344 -0.010466924 0.0031015915
-0.37645215 0.21371824 0.28391087 0.77122575 -0.6365574 0.0023601162 0.0020991974
0.14636955 0.21166188 0.28439882 -0.76589894 -0.642905 -0.0084877014 0.0016149028
0.1854782 0.2191816 0.28513545 -0.83015764 -0.55752701 0.0013596505 0.0023886978
0.1340528 0.22415459 0.28043911 -0.7147941 -0.69933486 -0.00048504464 1.0468363e-05
-0.41884369 0.23642725 0.2850197 0.78690726 -0.6170705 0.00091709348 0.0033665057
-0.35645303 0.23378646 0.28765589 0.70379692 -0.71040106 0.00046294546 8.0505954e-05
0.16833337 0.23909593 0.28132534 -0.73274904 -0.68049335 -0.0027755422 0.0001730701
-0.41359481 0.24188593 0.28503945 0.71704811 -0.69699693 -0.0061043869 0.00060967548
-0.40858525 0.24667235 0.28689533 0.71284908 -0.7012915 -0.0060388083 0.00056457141
0.11384839 0.2446477 0.28325868 -0.71206939 -0.70210898 7.7818513e-05 0
-0.40165782 0.25329131 0.28056982 0.69711906 -0.71695465 0.0010514773 0
-0.38457108 0.26961711 0.28694165 0.69104052 -0.72281617 -2.5036396e-05 0
-0.32035702 0.26937407 0.28009805 0.63568699 -0.77192962 -0.00516938 0.0015656886
0.098376095 0.26034105 0.28655705 -0.69494563 -0.71901464 0.0082730819 0.00063936244
0.14265406 0.2659722 0.28675255 -0.72302049 -0.69082659 2.029582e-05 0
-0.37625238 0.27756527 0.28119516 0.69073367 -0.72310925 1.1674646e-05 2.3609569e-05
-0.31764111 0.27205169 0.2892116 0.61524475 -0.78804141 -0.021552209 0.0020491448
0.07966505 0.27547333 0.28423807 -0.55419123 -0.83237839 0.0042823786 0.00083669671
0.13585067 0.27309269 0.28629404 -0.72306573 -0.69077921 -0.00013744643 0
-0.37129983 0.28229728 0.28190064 0.6908915 -0.72295839 5.3261265e-05 2.783934e-05
0.062696636 0.28543115 0.28623325 -0.50614321 -0.86244947 2.6868207e-05 0
0.071627319 0.2801902 0.28192562 -0.52046907 -0.85388047 1.7735274e-05 0.00044618509
-0.36044684 0.29266694 0.2862938 0.67976815 -0.73342597 0.0012541808 0.00038965029
-0.27487195 0.29677224 0.28674895 0.49388373 -0.86952794 -4.4865079e-05 2.717389e-05
0.045418277 0.29557091 0.28565753 -0.50612962 -0.86245751 1.131307e-05 0
0.051798433 0.29182673 0.28406337 -0.50618184 -0.86242682 5.8495811e-05 6.1318824e-05
0.10849582 0.29904166 0.28626618 -0.58196819 -0.81321031 -0.0014470046 0.0016501539
0.11542831 0.29446694 0.28087744 -0.6215679 -0.7833581 -0.0018049997 0.0021518886
-0.34745151 0.30508351 0.2815415 0.5861516 -0.81016642 -0.0075236266 0.0021548681
-0.33909407 0.3099767 0.28832269 0.55066973 -0.83470327 0.0057693971 0.0024644488
-0.26437491 0.30273387 0.28550246 0.49299866 -0.87003011 -0.0001010435 0
-0.2581 0.30629754 0.28995347 0.47636473 -0.87923527 0.0046909507 0.00020018543
0.024604972 0.30778509 0.28460038 -0.4581278 -0.88888615 0.00051961961 0.0013496298
0.034203917 0.30215198 0.28481674 -0.50120354 -0.86532903 -0.00083039893 8.867721e-05
0.093893856 0.30792141 0.28934816 -0.52149713 -0.85325289 0.00046970538 2.1338665e-05
-0.33504179 0.31219479 0.28085953 0.50741339 -0.86168724 0.0051850691 0.00090508407
-0.32284057 0.31887347 0.28350464 0.482622 -0.87582874 -0.00023834844 4.0597097e-05
-0.25074908 0.31047243 0.28955749 0.44942686 -0.89312416 0.018568417 0.0010864541
-0.2404176 0.31614587 0.28977838 0.39870116 -0.91669083 0.026746342 0.0018397061
-0.0015444709 0.31838015 0.2811248 -0.31282669 -0.94977099 -0.0086317323 0.00095595047
0.0035433024 0.31697816 0.28690493 -0.32862768 -0.94445503 0.0029226264 0.0011074709
0.089200586 0.31077546 0.28221861 -0.51960129 -0.85440886 -4.0614694e-05 9.7744414e-06
-0.31316978 0.32416704 0.28857213 0.48006088 -0.87723517 0.000142705 8.5876993e-05
-0.30619618 0.32798427 0.28613412 0.48028421 -0.87711293 -4.0471914e-05 0
-0.19864216 0.32702255 0.28337702 0.25201228 -0.96772403 -1.7852955e-05 0
-0.017070085 0.32265848 0.28781757 -0.26565713 -0.96406758 0.00012926951 2.9264929e-05
0.068086088 0.32361567 0.28669015 -0.51958537 -0.85441858 -8.1747494e-05 4.0706009e-06
-0.28701982 0.33848098 0.28404367 0.48000136 -0.87726772 -4.0857693e-05 2.2435732e-05
-0.15502414 0.33786279 0.28302658 0.11493847 -0.99337083 0.0018781825 0.0018332546
-0.14199038 0.33777037 0.28102648 -0.0054940255 -0.9999848 0.00028695617 0
-0.10209075 0.3374874 0.28701061 -0.0071087261 -0.99997473 2.2426823e-06 3.4972381e-05
-0.086007193 0.33737332 0.28334981 -0.012517751 -0.99992162 6.242728e-05 7.9696983e-05
-0.077716731 0.33731452 0.2841579 -0.094607323 -0.99549264 -0.0066210288 0.0027619
-0.05562938 0.33328408 0.28623018 -0.20505229 -0.97861046 -0.016586257 0.0011051783
0.053461179 0.33250934 0.28888795 -0.51706982 -0.85594296 -0.00068895641 0
-0.27354279 0.34585801 0.28207538 0.44138727 -0.8972922 -0.0066381101 0.00085544359
0.035154961 0.34364173 0.28962171 -0.4522447 -0.89166909 0.020024119 0.0018927846
-0.25510663 0.35449657 0.28067178 0.35682958 -0.93411469 0.010112111 0.0019694304
-0.24646112 0.35660335 0.28221676 0.29336712 -0.95582008 0.018538086 0.0014069475
-0.012714976 0.35924518 0.28330535 -0.2807453 -0.9597823 -1.6900727e-05 0
-0.0073220115 0.35766765 0.28680447 -0.28078091 -0.95977187 1.9311963e-05 5.0237912e-05
0.011757267 0.35208678 0.28139186 -0.30940846 -0.95085925 0.011534226 0.00051574811
-0.2050122 0.36670393 0.28605074 0.23676325 -0.97156733 8.7887063e-05 6.2339968e-05
-0.049044713 0.36987197 0.28076544 -0.24595436 -0.9691782 0.014142511 0.0013177228
-0.033208735 0.3652398 0.28743944 -0.28075773 -0.95977867 5.6869052e-05 3.1258653e-05
-0.16261105 0.37672678 0.28094375 0.079231955 -0.99646521 0.027918108 0.0016597362
-0.15622209 0.37658122 0.28529477 0.033002403 -0.99925786 0.019866373 0.0014516856
-0.13873133 0.37618291 0.28700361 -0.022740657 -0.99974138 0.00013352244 8.6549233e-05
-0.12664579 0.37590766 0.2831066 -0.022738088 -0.99974144 6.7222703e-05 6.6958586e-05
-0.10948103 0.37551677 0.28773218 -0.022740453 -0.99974138 -3.8323498e-05 0
-0.091196038 0.37510034 0.28731114 -0.027830323 -0.99961263 -0.00022355834 5.1375853e-05
-0.062800661 0.3738957 0.2870613 -0.15570986 -0.98732978 0.030566754 0.0020340362
-0.054334212 0.37141919 0.28256416 -0.22039022 -0.97532809 0.01277859 0.0019196741
-0.18881838 -0.3721796 0.29032069 0.22147395 0.97514474 0.0064853537 0.0010284913
-0.17720735 -0.37458444 0.29892105 0.11804126 0.99295437 -0.010380918 0.0023289963
-0.13627918 -0.37551653 0.29235426 0.022823233 0.99973953 7.2920811e-05 0
-0.11768173 -0.37594008 0.29508409 0.022731604 0.99974155 3.9722054e-05 0
-0.085521966 -0.3766726 0.29499319 -0.081167653 0.99665385 -0.0096424716 0.0021411015
-0.070953146 -0.37406644 0.29369843 -0.19905668 0.97998106 0.0036828907 0.00051579194
-0.22363852 -0.36199439 0.29432312 0.28075427 0.95977962 -6.8295951e-05 0
-0.21858895 -0.36347145 0.29975536 0.2807523 0.95978022 -4.3839013e-05 2.4226725e-05
-0.05156612 -0.36934209 0.29285195 -0.23676416 0.97156715 2.827563e-05 0
-0.045123115 -0.36777198 0.2947408 -0.23677675 0.97156411 -2.0296604e-05 5.1532414e-05
-0.26113215 -0.35102719 0.29507676 0.33226603 0.94316429 0.0063592568 0.0010300406
-0.2520141 -0.35369432 0.29148647 0.28078088 0.95977187 6.3258417e-06 0
-0.24277645 -0.35639638 0.29536283 0.28077602 0.95977336 2.8830324e-05 0
-0.010915976 -0.35943612 0.29352656 -0.24257545 0.97013193 -0.0010313466 0.00010969073
-0.00011820253 -0.35680485 0.29099217 -0.28074157 0.9597795 0.0027289959 0.001206278
0.017120115 -0.35169864 0.29739538 -0.34976143 0.93683839 0.00086082978 0.0022839247
-0.28092647 -0.34363011 0.29812494 0.47408283 0.88045412 0.0067840638 0.00093143899
0.024935413 -0.34742072 0.29341134 -0.43493211 0.90046287 0.00084650394 0.0014022767
-0.30269974 -0.33038932 0.29780108 0.51971138 0.85434192 -6.5840381e-05 0
-0.2983889 -0.33301082 0.29657549 0.51960468 0.85440683 -3.915347e-05 0
-0.28839323 -0.33908942 0.29569849 0.47834146 0.87815678 0.0054878276 0.0011062137
0.044857029 -0.33651605 0.29948422 -0.48016757 0.87717682 2.7790651e-05 0
-0.30409551 -0.32954052 0.29356524 0.51965636 0.85437536 -1.7751221e-05 0
-0.16207083 -0.32204336 0.29684117 0.12259873 0.99243778 0.0060640057 0.0026647365
-0.15307246 -0.32222399 0.29136601 0.078905724 0.99686688 0.0055027567 0.0022443607
-0.14994542 -0.32224613 0.29643127 0.062437419 0.99804842 0.00097840698 0.0023955978
-0.136591 -0.32234088 0.29292932 0.0096045323 0.99995387 0.00029287246 3.7653226e-05
-0.12862745 -0.32239738 0.29844248 0.0070620137 0.99997509 -8.1327244e-06 5.8733647e-05
-0.11890043 -0.32246637 0.29914284 0.0070805512 0.99997497 5.3316539e-06 2.1692393e-05
-0.10263836 -0.32258174 0.29867771 0.0057461467 0.99998343 0.00035105145 3.074318e-05
-0.082356073 -0.32272556 0.29107916 -0.055900075 0.99843532 -0.0014627421 0.0015683027
-0.074638747 -0.32250988 0.29493013 -0.10856703 0.99407107 -0.0059892023 0.0027784067
0.064349577 -0.32584625 0.29704317 -0.4801788 0.87717068 -6.0337672e-05 0
0.074216254 -0.32044545 0.29351526 -0.48014861 0.87718713 4.2434975e-05 0
-0.32625386 -0.31606558 0.29853991 0.51962751 0.85439295 -6.8182177e-05 0
-0.19428647 -0.31316584 0.29630381 0.26567554 0.96406251 -1.1393809e-05 4.7296921e-06
-0.17927331 -0.31730294 0.29720512 0.23645088 0.97164333 -0.00046524077 0.00073620328
-0.029954767 -0.31111926 0.29654941 -0.25195956 0.96773779 -1.4354381e-05 0
0.093008548 -0.31015897 0.29701319 -0.53164786 0.84673089 -0.019938167 0.0014142249
-0.35039157 -0.30138695 0.29924771 0.54531312 0.83816111 -0.010939698 0.00067710655
-0.34585747 -0.3041442 0.29158664 0.53995973 0.84165144 -0.0081426101 0.00063953799
-0.33945888 -0.30803534 0.29678583 0.51961732 0.85439909 -1.716987e-06 0
-0.23101829 -0.30304381 0.29721403 0.31009609 0.95070511 0.00034018324 0.00091696362
-0.22521658 -0.30464253 0.29169354 0.27836919 0.96047372 -0.00090716523 0.00015830474
-0.0014152608 -0.30368868 0.29427612 -0.30561972 0.95200115 0.017042363 0.0014051009
0.0010558623 -0.30304527 0.29610324 -0.35629204 0.93427724 0.013493015 0.0009471259
0.098304056 -0.3072603 0.29441762 -0.55648649 0.83071321 -0.015438178 0.0012009763
-0.35349315 -0.29950079 0.29674324 0.55379474 0.83251631 -0.015099363 0.00072030333
-0.25301266 -0.29461673 0.29688752 0.43081716 0.902408 0.0075036418 0.002048586
-0.24915782 -0.29687887 0.29003114 0.40254992 0.91538054 0.0056498605 0.0017648636
0.015835693 -0.29720381 0.29521808 -0.43036032 0.90260917 0.0093097091 0.0011652315
0.10963769 -0.2974984 0.29475027 -0.6498521 0.76003981 -0.0056440565 0.0010794832
-0.36667305 -0.28871852 0.29378557 0.67072779 0.7416023 -0.012258531 0.0014427825
-0.27054477 -0.2843281 0.29722914 0.50458747 0.86336052 -0.00033740836 0
-0.26790717 -0.28587592 0.29792479 0.50429589 0.86353081 -0.000408105 0
0.033576064 -0.28712848 0.29876262 -0.49384755 0.86954856 2.3479877e-06 0
-0.38000643 -0.2747637 0.29829019 0.72293991 0.69091082 7.756563e-05 0.00010106541
-0.37626413 -0.27868041 0.29166508 0.71843779 0.69558859 0.0018980283 0.00021790294
-0.29379451 -0.27068406 0.29276747 0.50622183 0.86240327 2.4189117e-06 0
-0.28546849 -0.27557012 0.29796812 0.50617975 0.86242801 -7.7995646e-05 0
-0.27817377 -0.27985102 0.29454806 0.50614274 0.86244977 7.0953351e-06 0
0.048835609 -0.27846211 0.29271346 -0.4938463 0.86954921 -4.4226413e-06 0
0.056329757 -0.27420595 0.2950407 -0.49385002 0.86954707 -8.3650148e-06 1.8376239e-05
-0.3852635 -0.26926154 0.29538852 0.72303385 0.69081265 -5.7912621e-05 0
-0.30018896 -0.26693147 0.29523081 0.50617403 0.86243147 -1.6628974e-05 8.8811421e-06
-0.39860129 -0.25530213 0.29955262 0.72294533 0.69090521 2.6210379e-05 8.4222025e-05
0.082310989 -0.25945041 0.29922888 -0.61302793 0.789922 -0.014834092 0.0022820167
0.15461437 -0.25452474 0.2989738 -0.69776767 0.71630424 -0.0053356085 8.1186634e-05
-0.40941229 -0.2439872 0.29409689 0.724114 0.68968022 -0.00039139617 9.2128823e-05
0.098397262 -0.24467993 0.29662621 -0.69789976 0.7161938 -0.0015609615 4.8333735e-05
0.16932431 -0.24046992 0.29713041 -0.76538587 0.6434595 0.012014857 0.0022565867
-0.4195604 -0.23336607 0.29524249 0.75797051 0.6522246 -0.009150804 0.0015003429
-0.34199634 -0.23314746 0.29974541 0.71206641 0.70211202 -0.00011001518 1.2565281e-06
-0.33754668 -0.23766071 0.29549992 0.70651656 0.70769459 -0.0016714022 9.0277099e-05
0.17335594 -0.23599197 0.29957408 -0.77460265 0.63244367 -0.0023941305 0.002280626
-0.43038553 -0.22072533 0.29833907 0.82218933 0.56895423 -0.017199475 0.0023975116
-0.42902535 -0.22298375 0.29666477 0.80867457 0.58792222 -0.01981906 0.0029411407
-0.35434788 -0.22061943 0.2990489 0.71213579 0.70204175 0.00015825487 6.2246334e-05
0.11899265 -0.22437462 0.29892841 -0.70207924 0.71209872 -2.1813386e-05 2.0105623e-05
0.18043406 -0.22435261 0.29576024 -0.84707803 0.53146404 0.002166562 0.0001680155
0.12648882 -0.21698405 0.29845691 -0.7020759 0.71210223 1.1602039e-05 9.5550613e-06
-0.37261009 -0.20209634 0.29444376 0.74626881 0.66534942 -0.019826667 0.00076704152
-0.36842865 -0.20633753 0.29210246 0.72627002 0.68736082 -0.008180894 0.00053437095
0.14353281 -0.20018014 0.29123855 -0.78071117 0.62487185 -0.0050178678 0.0023327051
-0.37708828 -0.19755417 0.29631081 0.7684285 0.63921589 -0.030342991 0.00085635262
0.14415313 -0.19956854 0.2912707 -0.78070295 0.62488264 -0.0049602785 0.0023547504
0.19793023 -0.19558173 0.296837 -0.85443836 0.51955277 1.5977866e-05 5.1246648e-06
-0.38645229 -0.18425947 0.29942751 0.82176787 0.56975842 -0.0085451854 0.0013417515
0.15428019 -0.18421061 0.2958037 -0.83952773 0.54325742 -0.0080355452 0.00065244915
0.20575047 -0.18272203 0.29626158 -0.85441506 0.51959103 0.00010094023 2.1245671e-05
-0.45448864 -0.17669171 0.29394853 0.87718678 0.48014942 7.6568667e-06 3.250131e-05
0.15778747 -0.17823415 0.29305995 -0.85435021 0.51968431 0.0037323774 0.00014965903
0.20805259 -0.17893641 0.29544401 -0.85443091 0.51956505 2.8698857e-06 3.6884834e-05
0.21380505 -0.16947702 0.29178458 -0.86259311 0.50587136 0.0052192062 0.00020515514
-0.40438643 -0.15268146 0.29476666 0.86952448 0.4938899 0.00012313196 2.8923992e-05
-0.4710457 -0.14644377 0.29575017 0.90222871 0.4304086 -0.027052004 0.0018219389
-0.4093909 -0.14386976 0.29896367 0.86956263 0.4938226 6.5176355e-05 0
0.17447558 -0.14979722 0.29804572 -0.8624534 0.50613654 -1.3433289e-05 0
0.18284208 -0.13554049 0.29473972 -0.87670708 0.48096991 -0.0072590066 0.00096049404
0.23031884 -0.13084471 0.29826978 -0.9592098 0.2826941 -0.00078934146 0
-0.47905198 -0.1253396 0.29883766 0.96130925 0.27541995 0.0053326897 0.00070695597
-0.42190689 -0.12183189 0.29845113 0.91131115 0.41165039 -0.0074872444 0.0023644415
-0.41886783 -0.12718304 0.29444981 0.88722283 0.4613339 -0.0025831002 0.0010764014
0.18720356 -0.12810847 0.29372242 -0.90203834 0.43151411 -0.011060971 0.0023947607
0.19058955 -0.12233864 0.29137972 -0.92628187 0.37683135 -0.00032157169 0.001964095
-0.48211694 -0.11276221 0.29942572 0.97035074 0.24169755 0.0012936982 8.9948015e-05
-0.42470738 -0.11601209 0.29119417 0.93632829 0.35085112 0.013883623 0.0019121262
-0.42730045 -0.10605256 0.29731938 0.9574694 0.28841087 0.0084564872 0.00085841498
0.19432184 -0.10915931 0.29526615 -0.95032412 0.31083015 -0.016389361 0.001319385
0.23694941 -0.10817681 0.29192835 -0.95977378 0.28077438 1.3106209e-06 2.0358437e-05
0.24141912 -0.092896208 0.2988421 -0.95976907 0.28079054 7.4145326e-05 3.5967641e-05
-0.48770702 -0.08982265 0.29099703 0.97157288 0.23674074 -2.318214e-05 0
-0.43235123 -0.08665356 0.29272726 0.96773034 0.25198781 1.3519965e-05 0
0.20191881 -0.081590615 0.29877114 -0.96406287 0.26567391 -4.8592905e-05 0
0.24411154 -0.083691664 0.29851601 -0.95977581 0.28076762 4.9299306e-05 2.8798691e-05
0.48347381 -0.080626994 0.2954061 -0.21105663 0.97639388 -0.045935031 0.11047378
-0.49051094 -0.078316391 0.29699683 0.97156465 0.23677449 9.7594377e-05 5.9526632e-05
-0.43620658 -0.071845844 0.2945469 0.96773094 0.25198582 -9.7482058e-05 7.489277e-05
0.24578744 -0.077962235 0.29510656 -0.96357536 0.26738042 -0.0055112075 0.00024660374
0.47267863 -0.079624102 0.29148069 -0.24056228 -0.97043937 0.019420551 0.09403684
-0.49411306 -0.063534826 0.29420197 0.97157067 0.23674966 -9.2431299e-05 0
-0.43866387 -0.062407807 0.29142967 0.96772754 0.25199869 -1.5200295e-05 4.1420746e-05
0.20639333 -0.065352991 0.29702389 -0.96406984 0.26564875 -6.0971124e-05 0
0.24939717 -0.065621726 0.29775491 -0.9752956 0.2208887 -0.0025880211 0.0013023774
0.44992781 -0.062523253 0.2919552 -0.8342976 -0.55038655 -0.031971205 0.040065356
0.45367652 -0.062608637 0.29691821 -0.77623826 -0.63029879 0.013326066 0.032088712
0.46175095 -0.064748332 0.29696462 -0.69331855 -0.72046071 0.015674654 0.035138577
0.49702632 -0.065866865 0.2967422 -0.89302915 0.44727245 0.049459938 0.057882264
-0.49581158 -0.05656454 0.297077 0.97898495 0.20392577 0.0016374345 0.00056703732
0.21050319 -0.050438799 0.29284889 -0.97887492 0.20375574 -0.016951878 0.0015478788
0.25176024 -0.052048765 0.29581392 -0.99396855 0.10787126 -0.019755485 0.0020068362
0.44769478 -0.056020662 0.29061574 -0.93463522 -0.34952083 -0.06551411 0.044577695
-0.44298482 -0.045811869 0.29546431 0.97974086 0.20026909 0.00025427825 0.0016494705
0.44797719 -0.043621931 0.29664114 -0.98756784 -0.15395105 -0.031760484 0.030224094
0.49790549 -0.040396124 0.29878598 -0.99964821 0.026524397 -5.8879981e-05 0
0.21355855 -0.039351199 0.2947273 -0.98676944 0.16087341 -0.020143697 0.0020571433
0.2521531 -0.034799352 0.294633 -0.99974102 0.022758316 -2.4894234e-05 0
0.44826007 -0.031199645 0.29210305 -0.99974108 0.022756599 9.5712312e-05 5.1870746e-05
0.49799693 -0.036380529 0.29260039 -0.99964887 0.026489154 -0.00065430085 4.6825022e-05
-0.49924004 -0.023798252 0.29819122 0.99997354 -0.0011834415 0.0071761319 0.00041175599
-0.44611466 -0.025043482 0.29653376 0.9985466 0.053859249 -0.0019724856 0.0018637397
0.21396406 -0.024229521 0.29501322 -0.99896145 0.045476999 -0.0028095071 0.00089786929
0.25233358 -0.026873834 0.29230306 -0.9997409 0.022763142 3.1733609e-05 0
-0.49894172 -0.010699959 0.29304248 0.99974084 -0.022764983 8.4267922e-05 0.0001181784
-0.4460465 -0.015434018 0.29636732 0.99998522 -0.0051024775 -0.0018637485 2.2627639e-05
0.21401122 -0.017581835 0.29227892 -0.99970073 0.024464164 1.0965757e-05 0.00030370394
0.44859681 -0.016415261 0.29708391 -0.99974042 0.022782 -3.1832631e-05 0
0.49849984 -0.014299144 0.29124674 -0.99974102 0.022760218 -0.0001092704 0
-0.49891448 -0.0095035583 0.29212332 0.9997409 -0.022761598 5.2959418e-05 6.636398e-05
0.21409598 -0.0056324773 0.29552817 -0.99997264 0.0073951674 -0.00019693132 0
0.44876963 -0.0088264719 0.29764724 -0.99974108 0.022758162 4.1255684e-05 2.4456271e-05
-0.49852824 0.0074564507 0.29239571 0.99974084 -0.022763856 -6.2064748e-05 6.46876e-05
-0.44592863 0.0011883024 0.29618531 0.99997497 -0.0070813256 0.0001326401 0.00019001176
0.25307381 0.0056290301 0.29427776 -0.99974072 0.022770759 -3.6465612e-05 0
0.44907889 0.0047521191 0.29073229 -0.99974054 0.022777354 -0.00012527757 4.1276144e-05
0.49905252 0.0099672526 0.29213914 -0.99974078 0.02276637 -2.1829959e-05 0
-0.44579786 0.019624529 0.29793611 0.99997497 -0.0070818104 -0.00010850545 0
0.21422666 0.012792096 0.29631722 -0.99997479 0.0070933029 -1.36793e-05 8.4280209e-06
0.4991433 0.013953289 0.29332101 -0.99947065 -0.032502249 0.0013875861 0.0025778404
-0.49811029 0.025805762 0.29862049 0.99974066 -0.022775939 1.6876173e-05 8.12457e-05
0.21430743 0.024177128 0.29368511 -0.99997473 0.0071032657 -5.4168708e-05 0
0.44955373 0.025601342 0.29034251 -0.82080114 0.57121384 -0.00043479956 0.052237488
0.49941492 0.025880208 0.29422757 -0.93983644 -0.33353513 0.073903762 0.030081021
-0.44570288 0.033010583 0.29420531 0.99985909 -0.015897499 -0.0053927312 0
0.21441622 0.039515063 0.2941817 -0.99893063 -0.046038095 0.0042564557 0.0015569493
0.25378153 0.036704414 0.29787132 -0.99516898 -0.09643729 0.018396011 0.0023995228
0.45484102 0.036320604 0.29207987 -0.60048217 0.79954916 -0.011927716 0.031072272
0.46409479 0.036510251 0.29989901 -0.5075649 0.86155951 -0.0096485084 0.036063358
-0.44562712 0.043697078 0.29418638 0.99892539 -0.04169222 -0.020243395 0.0012307846
0.21445037 0.044330467 0.29656482 -0.99819571 -0.059982393 0.002723058 0.0015505294
0.46861795 0.041317757 0.29840237 -0.35555407 0.93410289 -0.032140631 0.022699133
0.47385341 0.043846294 0.29669872 -0.20775992 0.97630924 0.060464934 0.010224288
0.48294705 0.045350939 0.29301938 -0.13841985 -0.99037141 -0.0021120463 0.079292424
0.49473849 0.040930383 0.2917363 -0.72532064 -0.68834126 -0.0098130321 0.088138036
-0.49744949 0.054822594 0.29789165 0.99296314 -0.11840524 0.0020996796 0.0023239092
-0.44496188 0.055503085 0.29704121 0.98589444 -0.16726209 -0.0059540151 0.0026377102
0.25136003 0.05122624 0.29488188 -0.97820544 -0.20747413 0.008285556 0.00049723091
-0.49404988 0.069381334 0.29586953 0.96921921 -0.2461755 -0.0034344268 0.00078052515
0.24798332 0.065083213 0.29125881 -0.97312272 -0.23028263 -0.0014566318 0.00010799879
-0.49231237 0.075321257 0.29650262 0.96314031 -0.26899266 -0.001906421 0.0001071821
-0.43994018 0.073726341 0.29377669 0.96473205 -0.26323223 -0.00093244162 0
0.24553934 0.075112388 0.29646385 -0.9715656 -0.23677066 6.0555562e-05 3.8686085e-05
-0.43607858 0.087739706 0.2937811 0.96406186 -0.26567796 -4.7768692e-05 9.061247e-05
0.24194184 0.089875087 0.29743513 -0.97155905 -0.23679724 5.425503e-05 0
-0.48692131 0.093751714 0.29512048 0.95977342 -0.28077564 -2.7975033e-05 0
0.20269053 0.093940727 0.29990399 -0.9677304 -0.25198779 2.3869496e-05 9.6019821e-06
-0.43147963 0.10442878 0.29927593 0.96406811 -0.26565525 -5.8668284e-05 0
0.19932503 0.10686699 0.29240853 -0.96741509 -0.25319549 -0.00013758724 1.9044248e-05
0.23717417 0.10943974 0.29261947 -0.97156715 -0.23676428 2.8566043e-05 0
-0.47929442 0.11982569 0.29004589 0.95977628 -0.28076604 8.912749e-05 9.2427006e-05
-0.42839625 0.11561802 0.29954854 0.96246028 -0.27141693 -0.0017601642 4.5740857e-05
0.2360615 0.11400571 0.29542696 -0.96937346 -0.24558005 -0.0023481648 0.00010888162
-0.42563048 0.12565474 0.29598463 0.94638294 -0.32299295 -0.0059070736 0.0010105608
0.23351204 0.12446773 0.29425091 -0.96460611 -0.2636402 0.0053678141 0.00044472804
-0.42299613 0.13521455 0.29566443 0.92779368 -0.37305555 -0.0053290348 0.0016384228
0.19229206 0.13326778 0.29323453 -0.9250176 -0.3799147 -0.0026939383 0.0020636402
0.2312811 0.13362269 0.29311723 -0.94874656 -0.31560013 0.016627604 0.0018867574
-0.4716785 0.14586225 0.29161966 0.93467426 -0.35537595 0.0095843561 0.0012581937
-0.41675419 0.14685777 0.2909143 0.88654959 -0.4626154 0.0040889024 0.0015027602
0.18400271 0.14786345 0.29108179 -0.87636191 -0.48163217 -0.0045070653 0.0002235392
-0.47028956 0.1506107 0.29671502 0.91205156 -0.41006637 -0.002752221 0.001641407
-0.46316153 0.1635505 0.29373205 0.86716986 -0.49801221 0.00065485481 0.00048858783
-0.40621716 0.16481319 0.29152799 0.86241674 -0.50619888 -0.00012052947 0
0.17164576 0.16962129 0.2962358 -0.869555 -0.49383596 -1.7636062e-06 0
0.21246874 0.16987279 0.29762352 -0.87718153 -0.48015901 -7.2613952e-06 3.0438949e-05
-0.45744324 0.17295374 0.29028773 0.85612863 -0.51676267 -0.00040640825 2.9831968e-05
-0.39211363 0.18884587 0.29601866 0.8624621 -0.50612164 -5.0571693e-05 2.1493264e-05
0.16141999 0.18762654 0.29521364 -0.86952704 -0.49388534 -2.0653857e-05 0
-0.44342047 0.19601293 0.29969105 0.85440326 -0.51961046 -0.00028819178 3.5356665e-05
0.1982697 0.19581293 0.292566 -0.87714726 -0.48022142 -0.00011171219 0
-0.44064182 0.20058218 0.2930527 0.85449064 -0.51946676 -4.0385139e-06 1.3740956e-05
-0.43900502 0.20327374 0.29799378 0.85443991 -0.51955026 -9.2101975e-05 6.8859904e-06
-0.3844617 0.20188498 0.29370707 0.83792442 -0.54570973 0.0091415355 0.00063776871
