# .PCD v0.7 - Point Cloud Data file format
VERSION 0.7
FIELDS x y z normal_x normal_y normal_z curvature
SIZE 4 4 4 4 4 4 4
TYPE F F F F F F F
COUNT 1 1 1 1 1 1 1
WIDTH 582
HEIGHT 1
VIEWPOINT 0 0 0 1 0 0 0
POINTS 582
DATA ascii
-0.3334192 -0.25184631 -0.12244189 0.60556406 0.79579657 2.0289747e-06 0
-0.32785416 -0.25611651 -0.12421729 0.58526868 0.81081414 -0.0064042439 0.00063979748
0.0048480695 -0.25686297 -0.12375319 -0.58698636 0.80954862 0.008843787 0.00058748981
-0.39352426 -0.24521387 -0.1277798 0.65070021 0.75928271 0.0088856155 0.0010699264
-0.38931653 -0.24844263 -0.12019375 0.63660753 0.77117813 0.0038954869 0.00043024481
-0.34429571 -0.24350061 -0.12500155 0.60888779 0.79325628 9.0310941e-06 0
0.019511186 -0.24561155 -0.12617712 -0.60877001 0.79334676 -4.7162794e-06 3.0445804e-06
0.06613683 -0.24932186 -0.1259032 -0.63321888 0.77396053 -0.004348577 0.00055208744
-0.40348193 -0.23608983 -0.12032089 0.72112638 0.69280237 0.0012694432 0.001643513
-0.35590604 -0.23459177 -0.12841016 0.60922194 0.7929998 0.00011384118 3.2852156e-05
0.027205644 -0.23970737 -0.12769791 -0.60876405 0.79335129 1.7598568e-06 0
0.033638828 -0.23477098 -0.12423678 -0.61010927 0.79231727 0.00028312611 8.6243481e-06
0.083474919 -0.23344824 -0.12306651 -0.74265301 0.66957295 0.011772817 0.002267749
-0.41479158 -0.22135098 -0.12206188 0.79035515 0.61264819 0.00094510039 0.00011476212
-0.37472451 -0.22015202 -0.12101707 0.68974477 0.72405183 -0.0010789742 0.002061805
-0.36497545 -0.22763264 -0.124008 0.61849678 0.78578335 -0.002472443 0.00027164482
0.047763355 -0.22393282 -0.1235228 -0.65090394 0.75913733 -0.005874401 0.0010889855
-0.3772366 -0.21822447 -0.12025796 0.69800049 0.716093 0.0024940956 0.0024243924
0.056399807 -0.2169708 -0.12440281 -0.71151012 0.70261723 -0.0090789404 0.0024240857
0.060921609 -0.21137916 -0.1206845 -0.74852699 0.66310436 0.00021707942 0.0013748941
0.095003858 -0.21842365 -0.12295042 -0.79335093 0.60876453 4.3158584e-06 5.8350793e-07
-0.42727378 -0.20508412 -0.12886244 0.79325318 0.60889196 1.2627296e-05 0
-0.39060104 -0.20141536 -0.12930705 0.7844854 0.62014693 0.00074174756 0.00028067129
-0.38834521 -0.20435521 -0.12285967 0.77304673 0.63434798 0.0012229906 0.00076072372
-0.39681679 -0.1933147 -0.12245733 0.79335368 0.60876089 1.6901606e-05 0
0.073784992 -0.19461508 -0.12543499 -0.79254419 0.60981441 0.00021034316 0
-0.44558555 -0.1812201 -0.12129268 0.8229211 0.56809258 -0.0084653003 0.00090668502
-0.40231648 -0.18614723 -0.12540223 0.79333413 0.60878652 9.0231379e-06 3.4632671e-05
-0.3997232 -0.18952695 -0.12370038 0.79331976 0.60880524 5.575244e-05 0
0.078051984 -0.18905415 -0.12070012 -0.79336005 0.60875261 2.2813036e-05 7.9343399e-06
0.081592798 -0.18443961 -0.12688845 -0.79336613 0.60874474 1.538823e-05 1.6984792e-05
0.1214518 -0.18395653 -0.12405428 -0.79958856 0.60054356 0.0023923467 8.9301022e-05
-0.45125735 -0.17382857 -0.12595052 0.85379595 0.5205279 -0.0091193179 0.0020926949
-0.44842604 -0.17751835 -0.12642282 0.83917385 0.54379362 -0.0086988267 0.0015881021
-0.41261441 -0.17272659 -0.12302499 0.79929096 0.60093856 -0.0026239827 0
-0.40816557 -0.17852452 -0.12482597 0.79334074 0.60877794 -2.5504829e-05 5.454004e-05
0.088209115 -0.17581697 -0.12402251 -0.79454941 0.60719937 -0.00028251414 1.8724612e-06
0.090356179 -0.17301883 -0.12784813 -0.79839969 0.60212773 -0.00040003753 9.9299534e-05
-0.41503119 -0.16957697 -0.12699558 0.8008408 0.59885824 -0.0047781677 0.00011162603
0.097396001 -0.16384426 -0.1264202 -0.82047337 0.57168245 -0.0016022892 0.0012209134
0.13330895 -0.16766211 -0.12735385 -0.88989806 0.45607609 -0.0087186927 0.0018244868
-0.46180537 -0.15205993 -0.12392769 0.91352135 0.40678981 0.0008969208 0.00061494159
-0.42732278 -0.15344384 -0.12575577 0.86019498 0.50996345 0.0014152474 0.0022917027
0.10245583 -0.15715486 -0.12653573 -0.84705114 0.53147978 -0.005806888 0.0022897068
0.14021213 -0.15099591 -0.12308625 -0.92108387 0.38932738 -0.0053548627 9.8753597e-05
-0.4637458 -0.14737523 -0.12486116 0.92073089 0.39019817 -0.00019549702 0.00019602319
-0.43163255 -0.14303921 -0.12586558 0.89812428 0.43950397 0.014459756 0.001622339
0.10881174 -0.14493877 -0.1258271 -0.89421839 0.44761711 -0.0035255097 0.0017580448
0.14245759 -0.14557478 -0.12508142 -0.92387885 0.38268518 -4.6793125e-06 0
-0.46940595 -0.13371021 -0.1201198 0.92389405 0.38264847 -2.9320323e-05 1.1564149e-05
-0.43324822 -0.1391387 -0.12276904 0.9171108 0.39855048 0.0080794515 0.00055919908
0.11253139 -0.13595885 -0.12143715 -0.91975552 0.39248723 -0.0019230061 0.00013329153
0.14658372 -0.13561316 -0.12471673 -0.92387426 0.38269594 -5.8648207e-06 0
-0.47329861 -0.12431227 -0.12661959 0.92388165 0.3826783 -1.9920553e-05 0
-0.43787795 -0.12796156 -0.12245361 0.92373466 0.38303295 -0.00017780064 0
0.1157678 -0.12814552 -0.12538198 -0.92349112 0.38361946 -0.00055819465 6.3428615e-06
0.15010986 -0.12710007 -0.12094556 -0.92387271 0.38269967 -2.5134134e-06 0
-0.47739646 -0.11441882 -0.12283408 0.9238407 0.38277709 4.9148279e-05 0
-0.44339329 -0.11464655 -0.12661459 0.92386371 0.38272151 1.7396833e-06 0.00011183787
0.12131257 -0.11475937 -0.12557352 -0.92387509 0.38269413 5.5768523e-06 0
0.15513752 -0.11496191 -0.12617423 -0.92388242 0.38267642 -5.676809e-06 0
-0.48224962 -0.10270204 -0.12057334 0.93945092 0.34247091 0.012068205 0.00088257523
-0.44725442 -0.10532513 -0.12570511 0.92387319 0.3826986 -9.6136991e-06 6.0700309e-05
0.12415695 -0.10789251 -0.12772067 -0.92388111 0.38267967 -9.1063275e-06 0
-0.48370713 -0.099183209 -0.12756017 0.93851769 0.34522 -0.0027802207 0.00093558978
-0.45145199 -0.095191389 -0.129163 0.92721289 0.37452269 -0.0029992445 0
-0.44956291 -0.099751949 -0.12570459 0.92696536 0.3751457 -0.00094746874 6.2095191e-06
0.12798503 -0.098650783 -0.12424077 -0.92651415 0.37626001 0.0002170073 5.9177179e-05
0.13121456 -0.090854093 -0.12764302 -0.93966961 0.34198201 0.0083297426 0.0011055177
0.16361351 -0.09449856 -0.12790936 -0.95037329 0.31093192 -0.010582531 0.0013048637
-0.48930034 -0.081268616 -0.12598877 0.97517753 0.22120057 0.0099487109 0.0021450846
-0.45667872 -0.082573019 -0.12256155 0.95999408 0.27986795 0.0092329178 0.0022998105
0.13283771 -0.086935468 -0.12817392 -0.94448304 0.3283321 0.012241182 0.0011913594
0.16679916 -0.084817246 -0.12802447 -0.96974325 0.24406804 0.0053748172 0.0018551674
-0.49014005 -0.074890703 -0.122044 0.98106664 0.19297092 0.01644673 0.0016966069
-0.48973078 -0.077999353 -0.12482348 0.97757727 0.2091317 0.024631614 0.0016379915
0.13625838 -0.076789074 -0.12307009 -0.96834713 0.24933057 -0.011755182 0.002066561
0.16812828 -0.074721932 -0.12677249 -0.98533428 0.17019562 0.012238746 0.0010910744
-0.49110976 -0.067525432 -0.12335718 0.99111503 0.13300644 0.00045983994 0
0.13723277 -0.069387369 -0.12663013 -0.98285103 0.18439995 0.00067082065 0.0011467518
-0.49251068 -0.05688468 -0.12517276 0.99143904 0.13056998 -4.3781358e-05 9.1373317e-05
-0.46128762 -0.054038554 -0.12571892 0.9909966 0.13388392 -0.00090389565 0.00012714518
0.17121129 -0.051305048 -0.12885323 -0.99144453 0.13052818 -1.6482509e-05 7.4805139e-06
-0.49422181 -0.04388795 -0.1270925 0.99144495 0.13052545 1.2119743e-05 0
-0.46295053 -0.041407604 -0.12211265 0.9914369 0.13058636 -5.1704716e-05 0.00022313598
0.14062518 -0.043618646 -0.12116158 -0.99144465 0.13052739 -1.2998637e-05 1.014087e-05
0.17189077 -0.04614415 -0.12382399 -0.99144417 0.13053173 8.2447841e-06 0
-0.49510872 -0.037151575 -0.12357976 0.99144411 0.13053188 -2.8257797e-05 2.7743166e-05
-0.46401098 -0.033352654 -0.12531695 0.9914425 0.13054383 2.6785596e-05 0
0.14155994 -0.036518607 -0.12528643 -0.99144447 0.13052945 8.4156754e-06 0
0.17296426 -0.037990466 -0.1230873 -0.99144363 0.13053583 -1.2411046e-05 0
-0.46554375 -0.021710191 -0.12128367 0.9929533 0.1185043 0.0006882684 2.9211291e-05
0.14284235 -0.026777826 -0.12072051 -0.99120724 0.13231546 0.00087580871 1.066796e-05
0.17420571 -0.028561076 -0.1261453 -0.98999399 0.14110936 -0.00019365831 0.00066832907
-0.49815822 -0.013989178 -0.12530331 0.99575752 0.091947392 0.0035519053 0.00098426547
-0.46636513 -0.015471083 -0.12401127 0.99498773 0.099934854 -0.0035320534 0.00068996917
0.14454266 -0.013862801 -0.12735003 -0.99580437 0.09146703 0.002733377 0.00091328844
0.17602015 -0.014779542 -0.12526919 -0.96414936 0.26298425 0.035429388 0.065648451
-0.46766302 -0.0056130691 -0.12744707 0.99804127 0.06254866 -0.0011238814 0.0015019836
0.14622471 -0.0010872351 -0.12526739 -0.99964583 0.026493652 0.002512513 0.0018753028
0.17667931 -0.0097730048 -0.12156405 -0.97041273 0.24144219 -0.0021826483 0.070006207
-0.49929273 0.0053720535 -0.12397906 0.99850935 -0.054243945 0.0060541094 0.0017051118
-0.4677507 0.0049467995 -0.12415006 0.99878544 -0.049221605 0.0022098888 0.0018623713
0.14570823 0.0050113141 -0.12347911 -0.99909145 -0.041944012 0.0075474624 0.001575207
0.17796454 0.0011408293 -0.12663826 -0.98507053 0.060840659 0.16104174 0.11053362
0.18059158 0 -0.12926704 -0.98330837 -0.040213324 0.17744729 0.15646784
0.19356918 0 -0.12621242 0.14660612 -0.94818467 0.28187308 0.12112679
0.21606128 0 -0.12735471 0.14777102 -0.90220392 0.40520579 0.065044589
0.22559817 0 -0.12448326 0.21892107 -0.7794922 0.5869118 0.075177871
0.23603402 0.0021192108 -0.124922 0.12349218 -0.80237764 0.58390057 0.088078976
0.24274465 0.00036143337 -0.12557971 0.18986951 -0.86454898 0.4653005 0.092943668
0.25894573 0.0068121571 -0.12482163 0.051965464 -0.40558288 0.91257995 0.055796809
0.26566967 0.0028004411 -0.12502964 0.044083275 -0.28748631 0.9567697 0.035503231
0.28850511 0 -0.12248901 -0.027590495 -0.62172812 0.78274697 0.10876409
0.30618104 0 -0.1229469 -0.085595943 -0.88612366 0.45547593 0.091919474
0.31087905 0 -0.12330435 -0.1547967 -0.88390565 0.44130358 0.079965554
0.32263571 0 -0.12530743 -0.077152789 -0.91036493 0.40655032 0.077873014
0.33231646 0 -0.12548271 -0.10003456 -0.89700735 0.43054715 0.077801362
0.34014338 0 -0.12688228 -0.0793771 -0.9439078 0.32052675 0.069587089
0.36766165 0 -0.12275894 -0.02469502 -0.99758363 0.064939618 0.0047820834
0.38359305 0 -0.12821557 -0.055427417 0.99613553 0.068130679 0.011569814
0.39319342 0 -0.12334315 -0.054495756 0.99451822 0.089240022 0.013255533
0.40614295 0 -0.12485234 -0.20061329 0.95393032 0.22309488 0.052985415
0.42512599 0.0086112078 -0.12546334 -0.55545139 0.51008463 0.65672469 0.053008858
0.43005502 0.0024133283 -0.12090158 -0.51959175 0.48952544 0.70027792 0.056840673
-0.49831218 0.012819614 -0.12541606 0.99683124 -0.079410292 0.0046345419 0.00145835
-0.46649158 0.014510944 -0.12448446 0.99685287 -0.079268388 0.00095838669 0.0010587722
0.14464709 0.013071349 -0.12646429 -0.99611032 -0.087657355 0.0089652734 0.0011755411
0.17621279 0.013316482 -0.12651235 -0.97977382 -0.13707151 0.14578976 0.098612398
0.2395841 0.012840126 -0.12086844 0.25819138 -0.37505671 0.89031994 0.083906531
0.25621608 0.015543479 -0.124977 0.032502268 -0.26920444 0.96253443 0.051918983
0.27899289 0.016520102 -0.12306356 -0.074923247 -0.2046565 0.97596216 0.027757742
0.30473146 0.01023561 -0.12080639 -0.22594407 -0.48336726 0.84575725 0.068467826
0.42732808 0.015959773 -0.12342531 -0.62960392 0.33055943 0.70308566 0.047554538
-0.49605224 0.029985197 -0.12796918 0.99144536 -0.13052242 7.1186437e-06 0
-0.46446484 0.029905062 -0.12174121 0.99144405 -0.13053264 5.0886258e-05 1.9346357e-05
0.14357132 0.021242678 -0.1285942 -0.99270815 -0.12051261 0.0026840882 0.00027228426
0.17456597 0.025824722 -0.12706028 -0.97183239 -0.11823516 0.20386811 0.05680858
0.23878673 0.021020198 -0.12067147 0.23139392 -0.14793301 0.96154702 0.020464253
0.25214976 0.027160302 -0.12397251 0.077205323 -0.073590875 0.99429566 0.0078914687
0.27752906 0.028369404 -0.12319194 -0.068664536 -0.0083217584 0.99760509 0.00052835164
0.28969926 0.028952692 -0.12212464 -0.096705012 -0.0068566566 0.99528944 0.00010131612
0.30622241 0.02256982 -0.12067564 -0.21967311 -0.1811489 0.95860773 0.041306999
0.42910546 0.021192808 -0.1217804 -0.65824389 0.19912502 0.72599196 0.03856504
0.43043298 0.02789202 -0.12055178 -0.67212355 0.063570373 0.73770499 0.010954982
-0.49515548 0.036796235 -0.12614845 0.99144429 -0.13053031 2.0943637e-06 8.6407592e-05
-0.46389359 0.034244347 -0.12490691 0.99144411 -0.13053185 5.1841987e-05 2.3239387e-05
0.14171632 0.035332557 -0.12626091 -0.99144453 -0.13052878 -1.2380951e-06 0
0.24263009 0.031994253 -0.12162089 0.21874803 0.039489638 0.97498196 0.0052860342
0.25082937 0.035683211 -0.12364634 0.11161167 0.12092654 0.98636687 0.016313206
0.26562601 0.035011232 -0.12423578 -0.042098861 0.040974122 0.99827296 0.0073853387
0.27404663 0.039158449 -0.12349733 -0.079487979 0.14718403 0.98591 0.032876518
0.28661641 0.032916639 -0.12239501 -0.080181204 0.054287232 0.99530089 0.0061403923
-0.46250081 0.044823866 -0.12264235 0.99144548 -0.13052128 9.0444541e-05 4.6545207e-05
0.13980033 0.049885929 -0.12170748 -0.99144363 -0.13053581 1.1807062e-05 0
0.14082956 0.042068098 -0.12505673 -0.99144477 -0.13052726 -9.5193282e-06 0
0.1719701 0.045541611 -0.12454298 -0.98309058 -0.048703615 0.17652436 0.11333781
0.23627335 0.041418675 -0.12005059 0.24329783 0.17685421 0.95369214 0.027272686
0.24366397 0.044171937 -0.12187628 0.22034551 0.31482038 0.92322046 0.080368228
0.25458625 0.044247109 -0.12457439 -0.017494526 0.30769402 0.95132446 0.076181352
0.26162121 0.048238132 -0.12458699 0.0091235386 0.40499711 0.91427249 0.080742218
0.27845931 0.040150911 -0.12311035 -0.084946685 0.14877376 0.98521584 0.033975165
0.28128928 0.044392362 -0.12286218 -0.076037101 0.15591648 0.98483932 0.039447114
0.29416221 0.047440741 -0.12173326 -0.078727834 0.31122011 0.94707125 0.072637379
0.30428818 0.045124549 -0.12084526 -0.11702268 0.2331796 0.96536672 0.044048775
-0.49323931 0.051350553 -0.12563138 0.99144417 -0.13053109 2.6581096e-05 4.1191906e-05
-0.46118328 0.054831162 -0.12331842 0.99143898 -0.13057071 5.0385199e-05 0
0.13952565 0.051972229 -0.12159297 -0.99144292 -0.13054059 9.4974721e-06 0
0.17049211 0.05676749 -0.12713489 -0.93077815 -0.33317077 0.15049693 0.22656967
0.26450914 0.054166507 -0.12433373 -0.12320616 0.42348972 0.89748359 0.088514209
0.27867329 0.055546012 -0.12309159 -0.059138816 0.33084336 0.94183081 0.080100179
0.28270555 0.058552515 -0.12273797 -0.076012902 0.44563842 0.89198005 0.093578964
0.29720896 0.05833295 -0.12146608 -0.14834283 0.5954355 0.78958911 0.072560668
0.42354482 0.057965178 -0.12692668 -0.42139694 -0.77688777 0.4678354 0.063044876
-0.46050185 0.060006894 -0.12065937 0.98940402 -0.14517829 -0.0017123451 0.00032807799
-0.4593398 0.068833411 -0.12725466 0.98204958 -0.18861118 -0.0020960635 0.001291642
0.137637 0.066317707 -0.12540054 -0.98386109 -0.17877428 -0.0075516445 0.000967014
0.16942918 0.064841054 -0.1258292 -0.91616213 -0.31144843 0.25228304 0.14906293
0.18204856 0.060433 -0.12925966 0.02998112 -0.99954987 0.0010770967 0.12698722
0.19639443 0.060433 -0.12225879 0.019286491 -0.93122041 -0.36394575 0.097847037
0.21475789 0.060433 -0.12600674 -0.15689962 -0.90572482 -0.39375758 0.10088643
0.22428727 0.060433 -0.12595595 -0.11948025 -0.85071266 -0.51187152 0.091050014
0.23209256 0.060433 -0.12217044 -0.22204717 -0.81340712 -0.53764659 0.08260648
0.24729162 0.060433 -0.12802544 0.10781082 0.74205244 0.66161543 0.096605644
0.26714885 0.060433 -0.1263655 -0.069598131 0.65924972 0.74869615 0.099950224
0.27401593 0.060433 -0.12391185 -0.12354638 0.7113691 0.69187444 0.10799398
0.28814948 0.060433 -0.12693799 -0.032528304 0.74793947 0.66296947 0.1092601
0.29157448 0.060433 -0.12838638 -0.0010668919 0.86060035 0.50927973 0.096614249
0.30481744 0.060433 -0.12761818 0.057174042 -0.9498952 -0.30729491 0.048303343
0.31534332 0.060433 -0.12701216 -0.051994611 0.91252476 0.40570325 0.072392799
0.32395154 0.060433 -0.12569025 -0.17300546 0.89462566 0.41196373 0.086309172
0.33295774 0.060432997 -0.12706998 -0.099829525 0.93534827 0.33934897 0.060544901
0.35824329 0.060433 -0.12871528 -0.00024667443 -0.99861246 -0.052658457 0.0043555256
0.36116153 0.060433 -0.12428493 0.030953178 -0.99396586 -0.10523149 0.021642823
0.38278964 0.060433 -0.12850638 -0.031060552 -0.99892342 0.034455977 0.0040998328
0.40314871 0.060433 -0.12061535 -0.15194035 -0.97879922 0.13735428 0.035005569
-0.48985302 0.07707113 -0.12928797 0.97892296 -0.20378859 -0.013421897 0.0013665431
-0.45820877 0.077424318 -0.1216087 0.9728238 -0.23154666 0.00011477987 0.0019290041
0.13653126 0.074716486 -0.12420085 -0.97668052 -0.21467568 -0.0030900964 0.0015369288
0.16796416 0.075968452 -0.12836054 -0.96079826 -0.27351564 0.045341749 0.027045736
-0.45569038 0.084958971 -0.12869073 0.95511758 -0.29622674 -0.00030870561 0.0018630802
0.13365313 0.084966853 -0.12447502 -0.95117694 -0.30855325 -0.0075666807 0.0014028323
-0.48456028 0.097123384 -0.12423082 0.95129603 -0.30824086 0.0048333537 0.00092530571
-0.45306015 0.091308914 -0.12356623 0.93946046 -0.3425386 0.0090177925 0.0010452586
0.13142832 0.090338007 -0.12714495 -0.94169629 -0.33644545 0.0035593149 0.00099523203
0.16228917 0.097695857 -0.12845236 -0.94643015 -0.32272464 0.010897675 0.00073817576
0.12522528 0.10531336 -0.12744346 -0.92387956 -0.3826834 -3.6426852e-07 1.0958272e-06
0.15999274 0.1032401 -0.12457545 -0.93826675 -0.34589821 0.0031570892 0.00071070693
-0.47730529 0.114639 -0.12434318 0.92386156 -0.38272691 -7.2171271e-05 6.9206013e-05
-0.44122982 0.11986955 -0.12729371 0.9238407 -0.38277707 1.4819519e-05 7.4583731e-05
0.1197255 0.11859088 -0.12597492 -0.92388225 -0.38267684 6.3891639e-06 0
0.12142317 0.11449236 -0.1231307 -0.92388034 -0.38268143 -1.9487477e-06 0
0.15586293 0.1132106 -0.12676588 -0.92387778 -0.3826876 -1.6545e-05 2.1142646e-06
-0.47173464 0.12808807 -0.1290687 0.92389226 -0.38265279 2.2784498e-05 0
-0.43847829 0.12651226 -0.12691242 0.9231863 -0.38435265 -4.6576595e-05 0
0.11727489 0.1245071 -0.12312329 -0.92388517 -0.3826699 -9.6753365e-06 4.521497e-06
-0.46818423 0.13665973 -0.12511374 0.92383546 -0.38278997 8.4322846e-06 0.00012266754
-0.43530446 0.13417462 -0.12954691 0.9195959 -0.39286426 0.00098277745 0.00010590428
0.11248394 0.13607338 -0.12432095 -0.91648614 -0.40005901 -0.0024445262 0.00030609997
0.14583248 0.13742691 -0.12518221 -0.92388493 -0.38267034 -2.0513887e-06 7.8816647e-06
-0.43190324 0.14238572 -0.12361252 0.90318108 -0.42919451 -0.0074809836 0.0015226763
-0.42894644 0.14952403 -0.12605396 0.87682551 -0.48070759 -0.0098646078 0.0018091475
0.10835117 0.14605065 -0.12306303 -0.90236473 -0.43097261 0.00065269292 0.0014741755
0.11017905 0.1416378 -0.12015466 -0.91000712 -0.41456151 0.0050756009 0.00075258414
-0.46245271 0.15049729 -0.12253611 0.92180955 -0.38764161 0.0011082464 0
-0.45940024 0.15786664 -0.12744239 0.9110623 -0.41226608 0.0014628035 0.00092296186
-0.42670405 0.15387791 -0.12491588 0.86404073 -0.50341588 0.0024724863 0.0021691951
0.10418625 0.1547197 -0.12578604 -0.85591 -0.51681864 -0.017788706 0.0019951158
-0.42122874 0.16150001 -0.12797202 0.82569164 -0.56410813 -0.0039184806 0.00087038154
-0.41701466 0.16699198 -0.12164934 0.81490427 -0.57959193 -0.0020602967 0.00077832025
0.093909726 0.1683877 -0.12480685 -0.80438197 -0.59410751 0.002416756 0.00045728087
0.10027595 0.160091 -0.12389635 -0.84375566 -0.53667498 -0.0075094826 0.0018531479
0.13440482 0.16501638 -0.12968622 -0.87875247 -0.47713992 0.011468868 0.0016505446
-0.45246285 0.17225757 -0.12836063 0.85599977 -0.51691997 0.0076302201 0.0021837247
-0.41007596 0.17603482 -0.12545897 0.7942819 -0.60754937 0.00027954829 1.6630343e-05
0.088367276 0.17561086 -0.12977697 -0.79423845 -0.60760611 -0.0003905748 6.7387809e-06
0.091517046 0.17150594 -0.12034605 -0.79436886 -0.60743564 -2.3449917e-05 1.3266291e-05
0.12898867 0.17413446 -0.12662762 -0.83949763 -0.54335481 0.0030415305 0.0020401031
0.13214514 0.17002092 -0.12461186 -0.87636203 -0.48165181 -0.0010485442 0.0017050367
-0.44236952 0.18541121 -0.12448015 0.80087799 -0.59882599 0.0013640143 0.00014568713
-0.40400681 0.18394437 -0.12582594 0.79338431 -0.60872102 -3.4960121e-05 6.7185824e-06
0.077619269 0.18961808 -0.12694032 -0.79335791 -0.60875553 4.3587752e-06 4.5503316e-06
0.084392458 0.18079098 -0.12631367 -0.7933591 -0.60875392 -2.857417e-06 3.9736537e-06
0.12082194 0.18477738 -0.12639263 -0.79733646 -0.60353506 -8.2541228e-05 0.00012695866
-0.39572427 0.19473854 -0.12361201 0.79328662 -0.60884833 4.5812176e-05 0
0.071632065 0.19742087 -0.12548813 -0.79098356 -0.61183727 0.00026546631 2.6658325e-05
0.11163893 0.19674474 -0.12462419 -0.79334342 -0.6087743 -4.3559257e-07 0
-0.39026266 0.20185632 -0.12772387 0.78191549 -0.6233803 -0.0023053642 0.00025331471
-0.38679504 0.20637543 -0.12840182 0.7745052 -0.63254523 -0.0053036325 0.00050187943
0.064781711 0.20634852 -0.12539679 -0.77129334 -0.63646549 -0.00427385 0.00098535395
0.1058252 0.20432124 -0.12429232 -0.79334158 -0.60877669 -7.2326534e-06 0
-0.38233024 0.21219417 -0.12046941 0.73521936 -0.67776561 -0.0092899892 0.0020963722
-0.3764329 0.21884114 -0.12313127 0.69473267 -0.71912432 -0.014374258 0.0021990638
0.055796575 0.21761751 -0.1237273 -0.70840538 -0.70579088 0.0045970655 0.0024350907
0.097347677 0.21536916 -0.12835038 -0.79334891 -0.60876727 -4.2124575e-06 2.0323052e-06
-0.41310453 0.22354956 -0.12545803 0.78087574 -0.62467688 0.0034452258 0.00032667562
-0.40930355 0.22850306 -0.12083945 0.75524461 -0.65541416 0.0061482252 0.0013371252
-0.37277466 0.22164816 -0.12505463 0.67607808 -0.7367453 -0.011172838 0.0021530208
-0.36544198 0.22727463 -0.12517364 0.61597925 -0.78776139 -0.0011730939 0.00027288488
0.043881677 0.22691134 -0.12410793 -0.64212233 -0.76660186 -0.00068118243 0.0011450599
0.051219605 0.22128074 -0.12656519 -0.67930782 -0.73385227 -0.0013693637 0.001880882
-0.40393567 0.23549846 -0.12405303 0.73317951 -0.67996931 0.0094608534 0.0016886278
-0.35479608 0.23544344 -0.12026085 0.60880184 -0.79332232 -8.0511654e-06 0
0.031071164 0.23674123 -0.12498044 -0.60876173 -0.79335314 -1.247433e-06 0
0.08407522 0.23266591 -0.12806278 -0.74661803 -0.66506958 0.015621303 0.0012525311
-0.39507985 0.24402027 -0.12504932 0.66906929 -0.74307472 0.013644852 0.0019091641
-0.38811314 0.24936599 -0.12015578 0.63832623 -0.7696805 0.011468569 0.00081518182
-0.34564668 0.24246395 -0.12043429 0.60876179 -0.79335308 -6.1193623e-06 3.053512e-05
0.017161001 0.2474149 -0.12668422 -0.60830945 -0.79369998 0.00016320273 0
0.065518484 0.24979633 -0.12371743 -0.63002741 -0.77657074 0.0018606287 0.00068704371
0.075130098 0.24242097 -0.12547447 -0.67674619 -0.73621243 -0.0023984632 0.0022877653
-0.38530651 0.25151959 -0.12455723 0.62077314 -0.78397489 0.0049089896 0.0003332773
-0.37938133 0.25606614 -0.12627202 0.60868007 -0.79341578 -7.0421949e-05 5.4660199e-05
-0.33393341 0.25145179 -0.12666973 0.60638058 -0.79517454 0.00017940612 4.6983168e-05
-0.32651389 0.25714487 -0.12470443 0.59611028 -0.80290115 0.0015032575 0.00037512832
0.0033326924 0.25802577 -0.12469064 -0.56714988 -0.8236146 -0.0001185949 0.0012764864
0.011952168 0.25141183 -0.12372618 -0.60408837 -0.79691499 -0.0019537183 5.3772488e-05
0.053665578 0.25889152 -0.12472612 -0.60876626 -0.79334968 1.4103247e-05 0
0.061851837 0.25260988 -0.12183198 -0.61845618 -0.7858187 0.00095920765 0.00033021622
-0.37246352 0.26137435 -0.127839 0.60871494 -0.7933889 -1.7442995e-05 2.0096071e-05
-0.36688921 0.2656517 -0.12533104 0.60874146 -0.79336864 -4.1631549e-05 7.8830686e-05
-0.32077867 0.26154563 -0.12933402 0.54905003 -0.83578765 -0.0017298084 0.0017310206
-0.31442621 0.26588938 -0.12440016 0.50457865 -0.86327428 0.012564903 0.0021149716
-0.30715245 0.26933306 -0.1291669 0.4459095 -0.89507675 0.0015173348 0.0015467393
-0.013463077 0.26874584 -0.12453677 -0.47310385 -0.88100618 -0.00092779641 0.0018469268
-0.0054733851 0.26470873 -0.12462088 -0.53009522 -0.8479318 -0.0032782557 0.0019614263
0.039803173 0.26952866 -0.12650666 -0.60876453 -0.79335088 -1.8926634e-05 0
0.044780597 0.26570931 -0.12463146 -0.60878104 -0.79333836 6.3133907e-06 0
-0.35187137 0.27717531 -0.12043323 0.60882765 -0.79330254 2.652188e-05 0
-0.29509711 0.27432656 -0.12486579 0.40386951 -0.91481644 -0.00054281967 0.0002954393
-0.28623626 0.2779969 -0.12655292 0.38265285 -0.92389214 1.989981e-05 3.2290616e-05
-0.034900092 0.27762532 -0.12651786 -0.38268447 -0.92387909 -7.6167198e-06 0
-0.022435334 0.27246228 -0.12209326 -0.41686732 -0.90896589 -0.0016229906 0.00099477719
0.034071762 0.27392662 -0.12472885 -0.60876739 -0.79334879 -4.1511476e-06 0
-0.33553821 0.2897082 -0.12434983 0.52036756 -0.85379243 -0.015999068 0.0018705755
-0.2739476 0.28308704 -0.12310129 0.38272095 -0.92386401 -3.5556957e-05 5.872248e-06
-0.26112834 0.28839704 -0.12792437 0.38058698 -0.92474484 0.00077639834 0
-0.25793839 0.28971836 -0.12659085 0.36234912 -0.93204105 -0.0015902941 0.00055283704
-0.062824391 0.2891919 -0.12678452 -0.37220469 -0.92815053 -0.00041586725 0.00013691623
-0.053117536 0.28517121 -0.12596673 -0.38270858 -0.92386907 -3.8455091e-05 2.7878659e-05
-0.044175208 0.28146723 -0.12165496 -0.38268042 -0.92388082 -4.874713e-05 0
-0.24840014 0.29366928 -0.12318798 0.31218472 -0.94999343 0.0072867037 0.0014097559
-0.23052695 0.29823375 -0.12632877 0.20266196 -0.97922587 -0.0066875592 0.0016045973
-0.22676077 0.29872957 -0.12471805 0.1706086 -0.98532391 -0.0054361476 0.00084949826
-0.21845926 0.29982248 -0.12133807 0.13295153 -0.99112236 -0.00053094822 5.9026992e-05
-0.10483173 0.299988 -0.12321001 -0.1341814 -0.99095678 9.6868192e-05 4.0226354e-05
-0.086058386 0.29751641 -0.12522285 -0.22978595 -0.97314703 -0.01354079 0.0019089301
-0.072959825 0.29339013 -0.12436163 -0.33168957 -0.943308 -0.012324918 0.00089030562
-0.066523537 0.29072416 -0.12658672 -0.36824667 -0.92972726 0.0012515816 0.00016728688
-0.004293934 0.29885691 -0.12510884 -0.41453528 -0.90999556 -0.0082878629 0.00066487899
0.0067771627 0.29427123 -0.1208091 -0.48679638 -0.87347955 -0.0079191988 0.0032701227
0.010701007 0.29185989 -0.12481321 -0.50581539 -0.86255598 -0.0121654 0.0035159241
-0.31185526 0.30129409 -0.12572594 0.3966305 -0.91797638 -0.0018919259 0.00014743462
-0.29673383 0.30755752 -0.12505175 0.38270304 -0.92387134 3.4980898e-05 0
-0.21183221 0.30069497 -0.12502714 0.13056584 -0.99143958 -2.4198431e-05 2.7514796e-05
-0.19893718 0.30239266 -0.12270427 0.13051437 -0.99144644 8.2281958e-06 7.3610624e-07
-0.18830173 0.30379286 -0.12248494 0.1303041 -0.99147403 0.00015593744 0
-0.17527722 0.3055076 -0.12517138 0.098168403 -0.99514472 0.0070757354 0.00070827897
-0.16631351 0.30668768 -0.12183405 0.038433578 -0.99925852 0.0023017381 0.0018947166
-0.15562212 0.30667472 -0.1249008 -0.029470181 -0.99954736 -0.0060565178 0.0016994703
-0.14224635 0.30491376 -0.12384006 -0.12142269 -0.99260074 -0.00059462804 9.6286691e-05
-0.1342362 0.3038592 -0.12679355 -0.12847868 -0.99171215 0.00043812953 0
-0.1214407 0.30217463 -0.12895161 -0.13051793 -0.99144596 3.3782158e-05 0
-0.11489966 0.30131346 -0.12382415 -0.1305234 -0.99144524 3.4930203e-05 0
-0.022585886 0.3064335 -0.12612942 -0.38268179 -0.92388016 1.4278871e-05 0
-0.01615572 0.30377012 -0.12758833 -0.38619965 -0.9224152 -0.00018410303 5.4558848e-05
-0.0092343567 0.30090326 -0.12405321 -0.39321008 -0.91944647 -0.0020094402 0.00010736401
-0.28661627 0.3117483 -0.12435856 0.38280645 -0.9238286 2.9944675e-05 0
-0.053170107 0.3191016 -0.1261403 -0.38021696 -0.92489707 0.0006285439 0
-0.040700778 0.31393674 -0.12738714 -0.38266814 -0.92388588 -1.9260326e-06 0
-0.2412833 0.32841533 -0.12686138 0.17763603 -0.98405093 -0.0094478987 0.001370447
-0.074044712 0.32741678 -0.12289457 -0.27195165 -0.96173531 0.033278435 0.0018367229
-0.0651263 0.32405388 -0.12442945 -0.32033429 -0.94663846 0.035518672 0.0014498862
-0.057502609 0.32089612 -0.12232832 -0.35701102 -0.93397182 0.015485189 0.00081370393
-0.22443685 0.33063328 -0.12494998 0.13127097 -0.99134648 -0.00026383728 2.0892829e-05
-0.20276424 0.33348668 -0.12728935 0.13048318 -0.99145055 -3.274859e-05 3.8498671e-05
-0.19147837 0.33497256 -0.129554 0.13011231 -0.99149925 -2.7693143e-06 3.0222604e-05
-0.1817804 0.33624935 -0.12507387 0.12006173 -0.99276537 -0.0014536855 0.00010247218
-0.17523178 0.3371115 -0.12233565 0.092300981 -0.99572569 -0.003293199 0.001057282
-0.16231453 0.33881217 -0.1286808 0.035170823 -0.99905688 -0.025464714 0.0028137453
-0.14695805 0.33713204 -0.12350596 -0.093792275 -0.99558842 -0.0025758641 0.0011476587
-0.12550652 0.33430779 -0.12696052 -0.13064533 -0.99142915 -3.7632057e-05 1.7378878e-05
-0.1091004 0.33214778 -0.12668777 -0.13053109 -0.99144423 -1.4498303e-06 2.7698703e-05
-0.096014276 0.33042488 -0.12053795 -0.1442562 -0.98953986 -0.00097502995 9.3140668e-05
-0.22217074 -0.3309316 -0.11592658 0.13058327 0.99143738 3.4668774e-05 0
-0.21607792 -0.33173382 -0.11035574 0.1305622 0.99144012 8.5508623e-07 0
-0.18608153 -0.33568305 -0.11906926 0.12805845 0.99176627 -0.00081044418 1.8172786e-05
-0.16709761 -0.33818242 -0.1163874 0.025137316 0.9996528 0.0078885369 0.0028035475
-0.15080538 -0.33763856 -0.1110471 -0.061936453 0.99805957 0.0064001009 0.0012282698
-0.14096349 -0.33634281 -0.11401085 -0.10634212 0.99429595 0.0081701986 0.00033910319
-0.10504541 -0.3316139 -0.11457342 -0.13053018 0.99144429 2.3272305e-05 2.0282285e-05
-0.095375523 -0.3303408 -0.11191522 -0.142772 0.98975551 -0.00048712769 0.00017116158
-0.26661268 -0.32003397 -0.11026163 0.36851045 0.92961812 -0.0032008546 0.00040706433
-0.25433484 -0.32511955 -0.11469439 0.30013511 0.95389271 0.0027429846 0.0015414541
-0.23612903 -0.3290939 -0.11684907 0.18283533 0.98314178 -0.0018721157 0.00091301871
-0.080757976 -0.32841629 -0.11346252 -0.21856479 0.97582245 0.00020653507 0.0019618704
-0.056577731 -0.32051304 -0.11491938 -0.35058787 0.93644565 0.012556945 0.00071562192
-0.28966016 -0.31048751 -0.11809677 0.38273862 0.92385668 1.7355909e-05 0
-0.27753463 -0.31551 -0.11372462 0.38265398 0.92389172 -4.7094101e-05 2.1893207e-05
-0.054774396 -0.3197661 -0.11020888 -0.36267334 0.93190491 0.0046147895 0.0004373416
-0.046352617 -0.31627777 -0.11814177 -0.38266554 0.9238869 1.0568629e-05 0
-0.29487801 -0.30832621 -0.11753571 0.38271597 0.92386603 1.1071406e-05 0
-0.21500552 -0.3002772 -0.1151411 0.14010887 0.99013525 -0.0012884489 0.00011516001
-0.20629162 -0.30142441 -0.11538684 0.13054211 0.9914428 -4.1651794e-05 0
-0.18417332 -0.30433637 -0.11079735 0.11915373 0.99287564 0.00067643094 0.00027580871
-0.17463458 -0.30559218 -0.11650357 0.085288279 0.99635613 0.00056838308 0.00094537513
-0.16545808 -0.30680031 -0.11532528 0.027623398 0.99943697 0.019047219 0.0017719145
-0.15685949 -0.30683765 -0.1186781 0.010443925 0.99992758 0.0059896554 0.002137833
-0.14654523 -0.30547974 -0.11296959 -0.077565409 0.99688047 -0.014591179 0.0014292772
-0.11040502 -0.30072173 -0.11677979 -0.13052341 0.99144524 -3.5863375e-06 1.2329229e-05
-0.33014208 -0.29371953 -0.11176478 0.46129701 0.8872053 -0.0084776646 0.0019016606
-0.32039237 -0.29775795 -0.11346409 0.41467744 0.90996844 -0.00010435265 0.00087892485
-0.25275537 -0.29186526 -0.11745346 0.35109535 0.93633109 -0.0040036538 0.0011463793
-0.24422486 -0.29539874 -0.1142958 0.27438298 0.96161038 -0.0043933243 0.0026078618
-0.23962843 -0.29703549 -0.11584699 0.24083696 0.97051036 -0.010353831 0.0025804574
-0.22460139 -0.29901385 -0.11638094 0.161476 0.98686248 -0.0052902959 0.00089067029
-0.21816143 -0.29986173 -0.11250156 0.14265844 0.9897697 -0.0020938353 0.00019263556
-0.10454582 -0.29995036 -0.11386505 -0.1336502 0.99102855 -0.00010768827 3.5300476e-05
-0.096909545 -0.29894498 -0.11097557 -0.15731309 0.98754865 -0.00047071045 0.0005951621
-0.085049622 -0.29738361 -0.11131446 -0.23601024 0.97174859 0.0019401718 0.002173068
-0.079960227 -0.2962898 -0.11729625 -0.27577746 0.96118486 -0.0084002791 0.0021923576
-0.0020709368 -0.29793614 -0.11387372 -0.42849132 0.90349251 0.0098205609 0.00064486504
3.0656345e-05 -0.29706565 -0.1122514 -0.43179095 0.90193892 0.0079146782 0.00075732346
-0.27601811 -0.28222945 -0.11771858 0.38263774 0.92389846 -5.1862212e-06 0
-0.26771706 -0.28566787 -0.11969032 0.38267779 0.92388189 5.6087891e-05 5.1896623e-06
-0.061791644 -0.28876415 -0.11536682 -0.3731069 0.92778176 0.003501883 0.00013568903
-0.05397455 -0.28552622 -0.11528828 -0.38268679 0.92387813 3.0827679e-05 1.3950245e-05
-0.046712145 -0.282518 -0.11454337 -0.38267419 0.92388332 1.2535706e-05 0
0.013148008 -0.28998223 -0.11914319 -0.55433249 0.83218241 -0.013707286 0.0013035439
-0.35436296 -0.27526343 -0.11273362 0.60891533 0.7932353 5.4634995e-05 0
-0.3036398 -0.27078807 -0.11355364 0.4411639 0.89742428 -0.0020398262 0.0014013159
-0.2944327 -0.27460179 -0.11468497 0.39410973 0.91906208 -0.0015654088 0.00019314836
-0.28228754 -0.27963251 -0.11594744 0.38272187 0.92386365 1.4978124e-05 0
-0.040047325 -0.27975738 -0.11278374 -0.38267684 0.92388225 1.6230661e-05 0
-0.035425853 -0.27784312 -0.1140082 -0.3826988 0.92387313 2.7723232e-05 1.375055e-05
-0.024388496 -0.27327132 -0.11702953 -0.39322555 0.91943991 0.0019932345 0.00019208157
0.029034261 -0.2777921 -0.11594517 -0.60880113 0.79332292 -1.1579451e-05 1.8242567e-05
0.033878122 -0.27407521 -0.11112794 -0.60876554 0.79335022 1.1737905e-05 0
-0.32100791 -0.26136976 -0.11420596 0.54636526 0.83752263 -0.0063848593 0.0015076412
-0.31546745 -0.26562101 -0.11016319 0.50053 0.86571908 0.00025100022 0.0023675668
-0.30622196 -0.26971847 -0.1171165 0.45172665 0.89213896 0.0055835466 0.0016553879
-0.011469495 -0.26792011 -0.11552081 -0.47982156 0.87736148 -0.0028334828 0.0023708064
-0.0032675101 -0.26309031 -0.11366222 -0.51938128 0.85453731 0.0030070404 0.0019752444
0.044045758 -0.2662732 -0.11633365 -0.60876983 0.79334682 8.9918564e-07 0
-0.37501517 -0.2594164 -0.11442585 0.60890692 0.79324168 -3.9558341e-05 0
-0.32750678 -0.256383 -0.11645573 0.58354634 0.81207657 -0.0022807023 0.00066177989
0.0078047006 -0.25459427 -0.11540854 -0.60126978 0.79904461 0.001528592 0.00010140265
0.011285592 -0.25192326 -0.1100885 -0.60451078 0.79659587 0.0013142049 9.0276902e-05
0.055958588 -0.25713202 -0.11521294 -0.60884625 0.79328829 -1.399395e-05 5.1579249e-05
0.062385358 -0.25220048 -0.11844777 -0.62665284 0.77929688 -0.0016620912 0.00030290405
-0.39948076 -0.24064329 -0.11538351 0.6910553 0.72280085 -0.0012227085 0.0019388444
-0.38882354 -0.24882087 -0.11528922 0.63733447 0.77057427 -0.0044898465 0.00073079031
-0.34498259 -0.24297355 -0.11427781 0.60876727 0.79334885 -3.2490698e-05 8.4881416e-05
-0.33987409 -0.24689335 -0.11960275 0.60867822 0.79341716 -4.2646145e-05 0.00010559285
0.017155034 -0.24741949 -0.11515129 -0.60877877 0.79333997 -1.0101215e-05 1.2566538e-05
0.02215305 -0.24358436 -0.11409082 -0.60876942 0.79334724 2.9146542e-05 0
0.07280869 -0.24420227 -0.11464122 -0.66610062 0.74585855 -0.0022256437 0.0013622962
-0.40572587 -0.23316553 -0.11998284 0.74436873 0.66774869 -0.0051805479 0.0015602998
-0.36032325 -0.23120236 -0.11361422 0.6126703 0.7903378 -0.001102933 0.00013470137
-0.35763526 -0.23326491 -0.11408917 0.61138457 0.7913335 -0.00054294028 7.633624e-05
-0.34940267 -0.23958193 -0.11513665 0.6087712 0.79334581 8.8806576e-07 6.693969e-05
0.029819282 -0.23770183 -0.11135747 -0.6087963 0.79332662 -3.1996178e-06 2.4718185e-05
0.032469798 -0.23566802 -0.11350248 -0.6087662 0.79334968 5.1244697e-06 0
0.081611857 -0.23587617 -0.11288677 -0.71903551 0.69496584 -0.0032350796 0.0019666646
-0.37037617 -0.2234886 -0.11381367 0.65631688 0.75448537 -0.00022312213 0.00161517
-0.36240131 -0.22960785 -0.11523661 0.61305118 0.79004258 -0.00094065041 0.00014480592
0.044191014 -0.22667399 -0.11435117 -0.63676083 0.77106082 0.00088029535 0.00083744235
0.087771907 -0.22784838 -0.11470342 -0.78373623 0.62109292 -0.0010642165 0.00041161117
0.092742622 -0.22137052 -0.11939581 -0.79332983 0.60879207 6.4933811e-06 0
-0.38029253 -0.21484978 -0.11101898 0.7228803 0.69091833 0.0087188063 0.0024519109
0.060822066 -0.21150889 -0.11481347 -0.75389069 0.65689462 0.011767485 0.001392728
-0.42625201 -0.20641576 -0.11606582 0.79334098 0.60877758 -6.5575216e-05 0.00011579919
-0.3904216 -0.20164914 -0.1194741 0.78568023 0.61862725 0.0026105302 0.000192333
-0.38773066 -0.2051561 -0.11777814 0.77731609 0.62910956 -0.0009381299 0.00049932272
0.064988419 -0.20607913 -0.11716095 -0.76336533 0.64596492 -0.0016557731 0.0012068972
0.10324956 -0.20767781 -0.11663969 -0.79336005 0.60875267 -1.5463971e-05 2.06857e-05
-0.43296957 -0.19766138 -0.11518357 0.79332435 0.60879922 7.7287878e-06 0
-0.39535865 -0.19521506 -0.11626906 0.79250044 0.60987109 0.0004985297 0
0.069911174 -0.19966358 -0.11017925 -0.79285675 0.6094079 0.00045146479 0
0.1103624 -0.19840832 -0.11969945 -0.79334229 0.60877585 -4.2423098e-06 0
-0.44549501 -0.18133813 -0.11154111 0.81716859 0.57630062 -0.010635136 0.0011492884
-0.40006596 -0.18908027 -0.11511443 0.79336452 0.60874683 5.3880412e-05 0
0.078259706 -0.18878344 -0.11051303 -0.79335761 0.60875583 -5.77522e-06 6.1941541e-06
0.12237103 -0.1827586 -0.11047171 -0.80010158 0.59986377 -0.00091119687 0.00013348792
-0.44759911 -0.178596 -0.11460727 0.82289952 0.56817341 -0.0039008763 0.0010305926
-0.41060007 -0.17535177 -0.11859115 0.79585224 0.60549074 -0.0004018133 0
-0.40714154 -0.17985904 -0.11657962 0.79333395 0.6087867 4.1538249e-05 0
0.08753325 -0.17669779 -0.11672497 -0.79432988 0.60748661 9.47187e-05 5.0315966e-06
0.090938486 -0.17225993 -0.11616045 -0.79453385 0.60721976 0.00034255857 1.2143028e-05
0.12994838 -0.17288375 -0.11311857 -0.83691078 0.54733777 0.0012859446 0.0025324742
-0.45754769 -0.16233915 -0.11587616 0.88305742 0.46920961 -0.0072116777 0.0015060456
-0.4183619 -0.16523623 -0.11103107 0.8189165 0.57386613 -0.0073226099 0.00075622369
0.094401278 -0.1677471 -0.1182062 -0.81104654 0.58497953 0.0015638478 0.00055721839
0.13317871 -0.16797654 -0.11793129 -0.88141543 0.47215247 -0.013374247 0.0024083271
-0.45942128 -0.1578158 -0.11255193 0.89416873 0.44761929 -0.0099641941 0.0016905646
-0.42801541 -0.15154031 -0.11492026 0.86488199 0.50192386 0.0071867779 0.0029940547
0.10519311 -0.15317921 -0.11810296 -0.85975915 0.5106982 0.0012855461 0.0026174721
-0.43152934 -0.14328846 -0.11680262 0.90183067 0.43208 -0.0028812482 0.0014901673
-0.4292134 -0.14887948 -0.11555892 0.87648326 0.48122305 0.014194054 0.0026132548
0.10908552 -0.14427781 -0.11559851 -0.89831364 0.43933314 0.0043589673 0.0016738222
0.14372812 -0.14250737 -0.1174939 -0.92387944 0.38268372 -1.0880168e-06 1.6277043e-05
-0.46779802 -0.13759211 -0.11437674 0.92387354 0.38269785 -2.9368293e-05 1.2449086e-05
0.11310679 -0.13456967 -0.1135989 -0.92021322 0.39141661 0.00085161626 0.00010655651
-0.47281748 -0.12547377 -0.11562486 0.92386979 0.38270697 -1.2614916e-05 0
-0.43862057 -0.12616885 -0.11752465 0.92370278 0.38311002 -9.2247028e-05 0
0.11767187 -0.12354873 -0.11053396 -0.92387623 0.38269144 -5.554356e-06 0
0.14989372 -0.12762192 -0.11622882 -0.92387873 0.38268524 -3.0197314e-06 0
0.15186128 -0.12287168 -0.11294246 -0.92388034 0.38268146 -4.3194982e-06 0
-0.47696018 -0.11547224 -0.11097017 0.923868 0.38271138 -2.2899846e-06 0
-0.4434053 -0.11461756 -0.11478376 0.92384541 0.38276586 -4.3583454e-06 0
0.11969489 -0.11866474 -0.11510364 -0.92387539 0.38269362 -1.3248645e-05 6.0618918e-06
0.12124865 -0.11491367 -0.1165075 -0.92387867 0.38268557 -3.6529959e-06 0
0.15669018 -0.11121339 -0.11786457 -0.92387015 0.38270608 8.3758459e-06 0
-0.48255497 -0.1019648 -0.11125239 0.9368549 0.34971502 0.0015466707 0.00060835347
-0.44666564 -0.1067465 -0.11336099 0.92386931 0.38270798 1.4868802e-07 2.7994001e-05
-0.48483312 -0.096464701 -0.11555073 0.95166391 0.30713955 -0.0010318086 0.0014373888
-0.45097193 -0.096350297 -0.11101101 0.92768818 0.37335587 0.00020261736 5.3733977e-05
0.12862837 -0.097097605 -0.11688141 -0.92626452 0.37687254 0.0010763406 6.047649e-05
0.16283157 -0.096386388 -0.11520065 -0.9478718 0.31857282 -0.0070979893 0.0014569984
-0.48789307 -0.089077175 -0.1189781 0.96164304 0.27430001 0.0014417154 0.0024644244
-0.4558304 -0.084620975 -0.11500977 0.95087314 0.30957958 0.00081002334 0.0019364713
0.13310842 -0.086281925 -0.11391564 -0.95058811 0.31045252 -0.0012141593 0.0015717223
0.16703011 -0.083063006 -0.1111366 -0.98103786 0.19379845 0.0026201035 0.0011643616
-0.45821729 -0.077359527 -0.11531576 0.96900958 0.24699074 -0.0039975033 0.0025815379
0.13608813 -0.078082301 -0.11432513 -0.97011352 0.24244584 0.0099868225 0.0021361455
0.16797827 -0.075861298 -0.11026686 -0.98576248 0.16808468 0.0044696047 0.00082218234
-0.49105757 -0.06792181 -0.11742848 0.98898107 0.14803307 0.0016417905 0.00066384888
-0.46038169 -0.060919531 -0.11861195 0.9901439 0.1400522 0.00068581972 4.0099592e-05
-0.45974267 -0.065773614 -0.11971023 0.98951352 0.14443599 0.0010732196 0.00027117232
0.13816786 -0.062284205 -0.11139965 -0.98886704 0.14880136 0.00030014597 0.0004937714
0.16876993 -0.069848336 -0.11700363 -0.98747611 0.15771821 0.0039850189 0.00065979123
0.13947351 -0.05236626 -0.11327804 -0.991445 0.13052502 -1.2757123e-05 4.6534246e-06
-0.4942199 -0.043902557 -0.11695652 0.99144262 0.13054335 -5.7252149e-05 0
-0.4630354 -0.040762961 -0.11405577 0.9914434 0.13053744 -4.6365214e-05 8.676148e-05
0.13988687 -0.049226522 -0.11157779 -0.99144471 0.13052768 -2.0611953e-05 1.1499949e-05
0.1404911 -0.044637125 -0.1118676 -0.99144453 0.13052872 -1.424067e-05 2.7207604e-06
-0.49578741 -0.031996496 -0.11351106 0.99144417 0.13053121 -1.1693423e-05 0
-0.46380481 -0.034918822 -0.11671319 0.99144232 0.13054532 4.2188426e-06 0.00010665112
0.14191289 -0.033837557 -0.11593959 -0.99144506 0.13052471 1.8522978e-06 0
-0.46508619 -0.025185714 -0.11720894 0.99144381 0.13053395 1.5336089e-05 1.8010307e-05
0.14259753 -0.028637387 -0.11974713 -0.9912079 0.13231076 0.00086779561 1.1216574e-05
0.17468688 -0.024906427 -0.11269613 -0.9826268 0.18552302 0.0050831847 0.0061062765
-0.46682277 -0.011995235 -0.11231603 0.99726856 0.073430143 0.0079608597 0.0016449004
0.14440778 -0.014887179 -0.11219849 -0.9959237 0.090195648 -0.00093387871 0.001177139
-0.49997547 -0.00018629261 -0.11811244 0.99989295 0.0025574868 -0.014401454 0.0017422882
-0.46775138 -0.0049420977 -0.11360609 0.99964434 0.026644347 0.0011736926 0.0018043605
0.1465175 -0.0011362354 -0.11034349 -0.99993676 9.7255383e-05 0.01124396 0.0022330305
0.17720321 -0.0057937587 -0.11206146 -0.98067236 0.15378293 -0.120965 0.11320179
-0.46774054 0.0050244387 -0.11459871 0.99845046 -0.053543929 0.015159438 0.0016972455
0.14529544 0.0081468746 -0.11655296 -0.99829239 -0.058373071 0.0022088657 0.0018065295
0.17690498 0.0080590155 -0.11121636 -0.99827701 0.058597159 -0.0030627574 0.20344296
0.18511398 0 -0.11526507 -0.90522224 0.40288633 -0.1351123 0.16111918
0.19497889 0 -0.1151598 -0.26601902 0.89057648 -0.36892745 0.16011398
0.20167556 0.0067799687 -0.11150396 0.21920833 -0.72932577 0.64809853 0.089271002
0.2151636 0.00095745432 -0.11606272 0.13735153 -0.6896103 0.71103597 0.070049852
0.22390389 0.0076689282 -0.11699498 0.20526655 -0.47245288 0.85711956 0.065147668
0.31944221 0.00019255115 -0.11641335 -0.10282751 -0.6659556 0.73887038 0.07472612
0.32075191 0.00072756445 -0.11583303 -0.17351454 -0.64045733 0.74813575 0.071307003
0.33725929 0 -0.11514242 -0.27220634 -0.63290781 0.72479749 0.073512755
0.35179329 0 -0.11672261 -0.34432852 -0.81850243 0.45988232 0.071648248
0.3644762 0 -0.11539771 -0.059558112 -0.96674186 0.24872287 0.050872225
0.3746264 0 -0.11120407 -0.067563474 -0.98246896 0.17375249 0.028450748
0.38569662 0 -0.11530224 0 -1 0 0
0.4186919 0 -0.11358802 -0.18331717 0.93932551 0.28993538 0.050803591
0.42348781 0 -0.11247285 -0.27066153 0.89610171 0.35177281 0.079453297
0.43272269 0.0034655414 -0.11678635 -0.47210684 0.7044301 0.52999365 0.070137516
-0.46614206 0.017165603 -0.11906853 0.99536741 -0.096090533 0.0032061401 0.00065247843
0.14449075 0.014258957 -0.11177239 -0.99527711 -0.097072653 -0.00061495736 0.0009667509
0.1756267 0.017768018 -0.11248714 -0.99093634 -0.12563576 0.047547858 0.1343337
0.19711894 0.017251944 -0.11037835 0.23386368 -0.20047483 0.95137668 0.12077928
0.20656379 0.011362957 -0.1127115 0.31736878 -0.36045647 0.87712502 0.083136372
0.21653286 0.013958786 -0.11517413 0.27454221 -0.30912235 0.91053283 0.071099967
0.31714886 0.015974279 -0.11742949 -0.27320933 -0.36066121 0.89178479 0.076308548
0.32485542 0.015602124 -0.11401486 -0.25270489 -0.41415256 0.87442434 0.068774141
0.33277816 0.017709844 -0.1105044 -0.38205686 -0.37180027 0.846048 0.066297516
0.43601069 0.011675833 -0.11538966 -0.65516376 0.35209322 0.66842413 0.041692358
0.44134992 0.010603307 -0.1104483 -0.63571155 0.46425435 0.61671609 0.062153935
-0.49669653 0.025091374 -0.11359532 0.9914825 -0.1302402 0.0001209772 0
-0.46497065 0.026063435 -0.11435327 0.99144316 -0.13053934 -1.3120732e-05 6.1448569e-05
0.142986 0.025688393 -0.11054194 -0.99144459 -0.13052806 -1.5800149e-05 5.0629847e-06
0.17509326 0.021819726 -0.11492414 -0.96467847 -0.1632223 0.20677046 0.13935387
0.19827729 0.021592278 -0.11066449 0.21661615 -0.17626934 0.96021175 0.09499868
0.20438404 0.026870288 -0.11217304 0.23382674 -0.038197607 0.97152764 0.015398332
0.22687902 0.025538888 -0.11772992 0.24594635 -0.10472351 0.96360958 0.010452235
-0.49499419 0.038021177 -0.11379731 0.99144351 -0.13053629 -1.0134871e-05 0
-0.46386576 0.034455985 -0.11409104 0.99144477 -0.13052699 2.7070157e-05 0
0.14177658 0.034874994 -0.11841965 -0.99144465 -0.13052778 -6.4418862e-07 9.1756169e-07
0.20441435 0.037805974 -0.11218052 0.31748909 0.087341592 0.94423097 0.018317526
0.21465367 0.035141692 -0.11470992 0.25579998 0.069704704 0.96421349 0.01140611
0.31997561 0.03686177 -0.11617702 -0.28899479 0.19297421 0.93767959 0.027302224
0.44112265 0.033574864 -0.11065862 -0.72070611 -0.028728997 0.69264525 0.0037586836
-0.46207052 0.048091449 -0.11728069 0.99144459 -0.13052845 9.4461881e-05 0
0.14055607 0.04414542 -0.11389317 -0.99144375 -0.13053483 1.6643457e-05 0
0.17196754 0.045561135 -0.11342293 -0.97160268 0.12162387 0.20296767 0.14734314
0.20793961 0.04147847 -0.11305136 0.19336927 0.22677542 0.95455813 0.06352739
0.22288886 0.042047288 -0.11674425 0.26507157 0.14147191 0.95379388 0.025769565
0.23036265 0.042107191 -0.11859048 0.265071 0.20965606 0.94115978 0.028169444
0.31331345 0.044638477 -0.11912891 -0.17569578 0.23751165 0.95536345 0.04484741
0.32437387 0.048565708 -0.11422822 -0.16917276 0.51612705 0.83963883 0.057694186
0.43399075 0.045285869 -0.11725909 -0.65336818 -0.35190225 0.67027956 0.075530216
-0.4929716 0.05338395 -0.1199498 0.99144405 -0.13053246 -1.4984944e-05 0
-0.4610346 0.055960249 -0.11600661 0.99041945 -0.13807528 -0.0021211805 0.00021615763
0.13907099 0.055425733 -0.11607707 -0.99077398 -0.13552049 0.0011052369 8.3410858e-05
0.1972505 0.054555889 -0.11041084 0.30547708 0.42752415 0.85082716 0.079915725
0.21927932 0.058493547 -0.11585259 -0.20811756 -0.74315971 -0.63592511 0.098075643
0.22230256 0.055112615 -0.11659941 0.23952734 0.5096367 0.8263759 0.087950416
0.23346266 0.055282455 -0.11935627 0.23340783 0.58059508 0.78001934 0.084851272
0.31632376 0.052285746 -0.11779508 -0.12253339 0.77400649 0.62120813 0.072966933
0.32458505 0.056559496 -0.11413464 -0.17178051 0.71342844 0.67934626 0.068889871
0.43982589 0.050130419 -0.11185874 -0.59814435 -0.39701611 0.69613332 0.084026009
-0.49127606 0.066262349 -0.11850929 0.98954898 -0.14418019 0.0022170204 0.00021752993
-0.46014962 0.062682211 -0.11298166 0.98696065 -0.16095918 0.00086650695 0.00084994396
-0.45925817 0.069453694 -0.1167933 0.98218411 -0.18791693 0.0012235596 0.001288566
0.13802069 0.063403323 -0.11131542 -0.98721546 -0.15938811 0.0010333485 0.00069626048
0.16880906 0.069551006 -0.11253729 -0.92374086 -0.38010862 -0.047120903 0.1304428
0.18366776 0.060433 -0.11432807 -0.80631113 -0.52138466 -0.27932137 0.2141194
0.19592941 0.060433 -0.11029245 -0.32363617 -0.54366773 -0.7743932 0.097025186
0.20367935 0.060433 -0.11380577 -0.15975162 -0.72635502 -0.66849673 0.11851613
0.22765651 0.060149219 -0.11792199 0.1601478 0.68496042 0.71076149 0.10768621
0.33825928 0.060433 -0.11800314 -0.29525056 0.83579993 0.46288827 0.060507983
0.34326363 0.060433 -0.11587173 -0.22595352 0.87840766 0.42112345 0.058842491
0.353154 0.060433 -0.1140998 -0.31616843 0.83340877 0.45328507 0.067122392
