# .PCD v0.7 - Point Cloud Data file format
VERSION 0.7
FIELDS x y z normal_x normal_y normal_z curvature
SIZE 4 4 4 4 4 4 4
TYPE F F F F F F F
COUNT 1 1 1 1 1 1 1
WIDTH 588
HEIGHT 1
VIEWPOINT 0 0 0 1 0 0 0
POINTS 588
DATA ascii
0.17055809 -0.19000275 -0.11335033 -0.8164376 0.57409549 0.062000144 0.050502032
-0.43050295 -0.18195161 -0.11867239 0.79480726 0.59953856 0.093994305 0.051039483
-0.4277505 -0.18630362 -0.11786804 0.81211972 0.57150519 0.11765772 0.052167367
-0.41445771 -0.18811393 -0.11845978 0.86876404 0.48700771 0.089847535 0.048594736
0.15941057 -0.18934724 -0.11112788 -0.79313737 0.60707074 0.048970655 0.052537065
0.17206351 -0.18653642 -0.11781847 -0.84052581 0.53195131 0.10268494 0.04825959
-0.43506658 -0.17522644 -0.11676466 0.8406803 0.53472149 0.085612737 0.052470375
0.17960496 -0.17695054 -0.11105657 -0.86618119 0.49082905 0.093898945 0.053743269
0.1816216 -0.17244188 -0.11234979 -0.89292198 0.43244088 0.12524033 0.052156154
-0.43955922 -0.16746989 -0.11269563 0.84525776 0.52769345 0.084136091 0.047434442
-0.42721927 -0.16950285 -0.11420351 0.83620071 0.54347444 0.073510937 0.052866712
0.17220807 -0.16934747 -0.11136933 -0.88884693 0.44273877 0.11804023 0.05515724
0.18214868 -0.16926317 -0.11853717 -0.92545652 0.36443058 0.10354015 0.044833232
-0.4463208 -0.15337239 -0.11383516 0.8988927 0.41169456 0.14999859 0.059387855
-0.43598676 -0.15195462 -0.11344536 0.90459782 0.41660568 0.090235628 0.059961759
0.17871851 -0.1560615 -0.11162923 -0.8974843 0.42336529 0.1236274 0.051397603
-0.44848472 -0.14869793 -0.11477141 0.91971642 0.36349547 0.1482999 0.05518667
-0.43860385 -0.14689764 -0.11272258 0.90861803 0.399813 0.12067669 0.058149301
0.19650686 -0.1425263 -0.11151754 -0.86789429 0.45335975 0.20303822 0.04275189
-0.45632485 -0.132991 -0.11156884 0.93643248 0.29102582 0.19595423 0.04959593
-0.44462451 -0.13370399 -0.11576008 0.93107796 0.33194691 0.151344 0.062121052
0.20113607 -0.13219765 -0.1110161 -0.89724994 0.40925029 0.16570067 0.049093321
-0.44782817 -0.12623145 -0.11340246 0.93945372 0.32779789 0.09987583 0.048777264
0.19335625 -0.12118584 -0.11748586 -0.9072088 0.3544867 0.22652034 0.051422637
0.20319584 -0.12316092 -0.11747897 -0.91648024 0.3455869 0.20157777 0.056069825
-0.45069149 -0.11699259 -0.11522919 0.94519037 0.30070376 0.1272496 0.058046926
0.20565167 -0.11890779 -0.11098808 -0.9164694 0.34236193 0.20705575 0.051967856
-0.46553367 -0.10352474 -0.11670706 0.93130267 0.3554627 0.07950864 0.049329776
-0.45500061 -0.10436085 -0.11497299 0.93262166 0.33494186 0.13427852 0.052237492
-0.45887798 -0.093030766 -0.1148818 0.935642 0.32015821 0.1485686 0.046860389
0.20201264 -0.097347438 -0.11395121 -0.94245929 0.27851298 0.18493517 0.047824573
0.2123924 -0.099166073 -0.11072916 -0.95252514 0.25666064 0.16377133 0.046407752
-0.47188061 -0.08088278 -0.1155057 0.96835846 0.22464561 0.10870183 0.048687775
-0.461465 -0.084609687 -0.11244345 0.95903015 0.25717801 0.11883066 0.052476138
0.20563149 -0.085104391 -0.1137086 -0.96043932 0.23710337 0.14607635 0.056317545
0.21465188 -0.08881063 -0.11637087 -0.94800371 0.27986586 0.15153886 0.053257991
-0.47274503 -0.075008735 -0.1175449 0.98033994 0.16017343 0.11523109 0.049761366
-0.46294689 -0.07552924 -0.11465609 0.95684606 0.24544516 0.15557139 0.051184841
-0.47588363 -0.061229121 -0.11503167 0.96740055 0.2015034 0.153403 0.050188463
-0.46497846 -0.061343357 -0.11961982 0.96799189 0.2452265 0.05343847 0.054498293
0.20883161 -0.067234442 -0.11615987 -0.97906947 0.15795054 0.12835379 0.047645692
-0.47818017 -0.052266646 -0.11151846 0.97231913 0.21360409 0.094703965 0.046214379
-0.46636105 -0.055328399 -0.11848354 0.97781622 0.20680933 0.033247363 0.047559053
0.28449714 -0.052411482 -0.11353429 -0.48179686 -0.58897078 0.64883387 0.087223165
0.30791703 -0.055112269 -0.11285117 -0.2071936 -0.97101927 0.11913177 0.066420063
0.31972978 -0.055439644 -0.11400749 -0.13691281 0.97692209 0.16394548 0.078925371
0.32593697 -0.055575181 -0.11281616 -0.24662915 0.95655018 0.15551807 0.052436844
0.33413824 -0.055774741 -0.1118138 -0.25183612 0.93329054 0.25602189 0.055175927
-0.47866726 -0.046420664 -0.11590437 0.98445505 0.17206453 0.03524353 0.04541773
-0.4692072 -0.043436006 -0.1138618 0.96726388 0.25265142 0.023831321 0.043969825
0.21339387 -0.044819444 -0.11520299 -0.97848791 0.13615127 0.15499763 0.052146062
0.22367774 -0.045660336 -0.11233298 -0.975923 0.15969852 0.1485623 0.050001211
0.27866459 -0.041854125 -0.1194997 -0.6795193 -0.081451319 0.72912228 0.016555071
-0.48033521 -0.034795884 -0.11003881 0.99502808 0.090932444 0.04062603 0.049986217
0.21339667 -0.038179822 -0.1181362 -0.98174298 0.14229244 0.12622805 0.054497305
0.22317863 -0.036770523 -0.11989713 -0.99138063 0.043482721 0.12358728 0.05974292
0.28216684 -0.032713912 -0.11621737 -0.68222028 -0.046035655 0.72969604 0.013811352
0.33112496 -0.035369031 -0.11997389 -0.74096113 0.26597339 0.61663181 0.040637851
-0.48013878 -0.025817316 -0.11548522 0.99768168 0.059388444 0.033230908 0.041971497
-0.47969618 -0.026128089 -0.11816546 0.99693048 0.05090313 0.059485666 0.046702396
0.21428129 -0.024953574 -0.11802744 -0.98384285 0.075288609 0.16243447 0.052774962
0.28362209 -0.029022112 -0.11485147 -0.6977368 -0.039681584 0.71525431 0.010515294
-0.48087996 -0.016351052 -0.11466148 0.99409205 0.068742245 0.083997168 0.04362005
-0.47051978 -0.011900853 -0.11901164 0.99486178 0.0023871514 0.1012145 0.050205857
0.21570227 -0.012208614 -0.11421029 -0.97882712 0.084034868 0.18664294 0.055892199
0.22465947 -0.017218921 -0.11865687 -0.99212235 0.075366892 0.10006551 0.052492209
0.3352547 -0.013629225 -0.11598398 -0.73204827 0.017972253 0.68101561 0.0001909437
0.34052679 -0.012012285 -0.11008295 -0.73643035 0.015393924 0.6763382 4.5192697e-05
-0.48190206 -0.0029214914 -0.11367496 0.99763358 -0.021561235 0.065286234 0.051723789
-0.47154972 -0.005107393 -0.11531847 0.99705452 -0.013202627 0.075550899 0.050864499
0.21582258 -0.0050402689 -0.11644974 -0.97132957 0.075170703 0.2255401 0.060748395
0.22642311 -0.0041964194 -0.11265654 -0.97574651 0.024959963 0.21747579 0.05193245
0.28384459 -0.0032968994 -0.11512981 -0.69395918 0.012536633 0.71990526 8.5685744e-05
0.33624768 -0.0054858774 -0.11503767 -0.73353463 0.01779527 0.6794191 5.2132065e-05
-0.48136276 0.0060154744 -0.1160027 0.99507332 -0.033064745 0.093464807 0.060039397
-0.47178173 0.0066699926 -0.11299209 0.99318308 -0.073425889 0.090531416 0.05985406
0.21603759 0.0040791258 -0.11556362 -0.98335308 0.0078343116 0.18153572 0.061281081
0.22537932 0.0046044933 -0.11932131 -0.99038082 -0.029201878 0.1352523 0.057451308
0.28178516 0.0096600233 -0.11741488 -0.68521899 0.018963903 0.72809017 0.00015388661
0.33942825 0.0063648606 -0.11170679 -0.73593497 0.013640186 0.67691475 0.00010092913
0.34024221 0.005591311 -0.11077418 -0.73743755 0.013005488 0.67529017 0.00012404665
-0.48083955 0.013440685 -0.11608958 0.98308295 -0.12820822 0.13080768 0.062584132
-0.47062615 0.013930191 -0.11752462 0.97301704 -0.14271156 0.18130453 0.05225303
0.21548374 0.014333565 -0.11476207 -0.97580189 -0.086493991 0.20082191 0.057001721
0.22527258 0.01420253 -0.11603538 -0.98360801 -0.076401643 0.16333415 0.058942694
0.28538623 0.015066117 -0.11396261 -0.6988979 0.015573426 0.71505183 3.6502239e-05
0.33592302 0.016959243 -0.11582404 -0.72592497 0.012387464 0.68766236 7.7181561e-05
0.21463686 0.029255835 -0.1138479 -0.9795562 -0.11642045 0.16406077 0.050559282
0.28506106 0.025894457 -0.11449345 -0.6809687 0.04411504 0.73098254 0.0031981873
0.33793604 0.022349013 -0.11372341 -0.72978419 0.011491593 0.68358099 8.2503735e-05
0.34086251 0.020534761 -0.11039071 -0.73710221 0.014133197 0.67563349 0.00010842078
-0.47002554 0.036155134 -0.11176625 0.98183537 -0.11984923 0.14709024 0.050546609
-0.46914473 0.033719093 -0.11867055 0.97980583 -0.095538631 0.17564996 0.054772153
0.22429505 0.034413323 -0.1136775 -0.96764725 -0.14209272 0.20849098 0.048150349
0.28548607 0.03332198 -0.11421744 -0.66334373 0.18378027 0.72539639 0.045242891
0.34076154 0.037187312 -0.11085518 -0.70610398 -0.17459977 0.68624496 0.030484805
-0.47875601 0.04540126 -0.11485447 0.98093659 -0.10415377 0.16405874 0.05467559
-0.4687331 0.049345765 -0.11071227 0.97946775 -0.12863386 0.15522969 0.053344514
0.21249652 0.04820542 -0.11689291 -0.99497688 -0.087932773 0.047840834 0.051806442
0.28374374 0.048662744 -0.11623541 -0.61708266 0.56737208 0.54525036 0.11049871
0.33838549 0.047919359 -0.11375614 -0.644086 -0.37558737 0.66639882 0.076285049
0.3413927 0.042408332 -0.11025464 -0.6681208 -0.21119389 0.71345049 0.039502475
-0.46781024 0.05117768 -0.11453079 0.97457278 -0.19633637 0.10798091 0.051220637
0.28525901 0.051718675 -0.11479784 -0.58486861 0.68579316 0.43314707 0.12344652
0.29156703 0.053858884 -0.11602376 -0.55916512 0.77338827 0.29867196 0.11309129
0.30467802 0.053610675 -0.11182857 0.13948505 -0.98881447 -0.05281911 0.088805132
0.31359661 0.053259462 -0.11766124 -0.15377332 -0.97467172 0.16238464 0.095715024
0.32336852 0.053161532 -0.11038752 -0.16728543 -0.97389054 0.15346926 0.045354705
0.33524033 0.052809637 -0.11207646 -0.48625803 -0.67249823 0.55794191 0.066165544
-0.47507155 0.067178994 -0.11249194 0.96293706 -0.16702287 0.21179128 0.051486418
-0.4653964 0.065521181 -0.1115257 0.97226018 -0.15929401 0.17127621 0.05505573
0.20966965 0.063265383 -0.11581029 -0.98536807 -0.12360938 0.11734765 0.052507821
0.21064217 0.062344737 -0.11046398 -0.97357672 -0.15528572 0.16743536 0.052262317
-0.46340966 0.074926868 -0.11231694 0.95562392 -0.13403082 0.2623331 0.053517777
-0.47170296 0.08586818 -0.11010513 0.9623493 -0.17374632 0.20903587 0.053757459
-0.4699868 0.08966773 -0.1165881 0.94992864 -0.19210471 0.24643698 0.055384092
0.20511369 0.086076722 -0.11597732 -0.94343579 -0.30143428 0.13808075 0.05237636
0.21502225 0.088457629 -0.11437648 -0.948906 -0.29833952 0.10281461 0.054809861
-0.46905762 0.094043046 -0.11478882 0.95189947 -0.16695964 0.25692758 0.045402195
-0.45920429 0.090344399 -0.11844171 0.95447272 -0.21941026 0.20209168 0.051814608
0.20337713 0.090957269 -0.11890224 -0.94083905 -0.31167403 0.13297072 0.054876331
0.2118865 0.096852966 -0.1188935 -0.93884528 -0.3222242 0.12141313 0.056768771
0.19834071 0.10952348 -0.11090627 -0.94099224 -0.3002511 0.15615042 0.046442077
-0.45016792 0.11720483 -0.11796142 0.95585889 -0.27684933 0.098428503 0.049530469
0.20688149 0.11267392 -0.11673748 -0.94183844 -0.30754125 0.13549465 0.048893984
-0.45897517 0.12486561 -0.11228102 0.9187535 -0.38205698 0.099621259 0.049399681
-0.4475033 0.12683737 -0.11421503 0.91902655 -0.39191851 0.042309839 0.048096418
0.1910031 0.12949316 -0.11459593 -0.93462354 -0.34278259 0.09475673 0.060143016
0.20137075 0.12900823 -0.11645599 -0.95690686 -0.27328393 0.098209299 0.055759478
-0.45494089 0.13517666 -0.11580829 0.92474073 -0.3763265 0.056858622 0.060748905
-0.4464584 0.13156833 -0.11051077 0.93787158 -0.34566787 0.030176781 0.054219935
0.19953232 0.13357997 -0.11822601 -0.94340008 -0.30258858 0.13578029 0.061646372
-0.45140457 0.14317925 -0.11353092 0.92365867 -0.37871826 0.058541324 0.051191553
-0.44384977 0.143866 -0.1123966 0.91228217 -0.40409407 0.066702619 0.049020074
-0.43767026 0.14751141 -0.11642221 0.91702569 -0.37962964 0.1222504 0.055046555
0.18431239 0.14337081 -0.11564479 -0.89015716 -0.40649673 0.20586579 0.05424932
0.19452637 0.14550985 -0.11465646 -0.9201389 -0.3564274 0.16218507 0.056739368
-0.44518718 0.15552714 -0.11425994 0.91485614 -0.40014178 0.054082386 0.046110421
-0.43289703 0.15855348 -0.11246432 0.87072575 -0.48884955 0.053505205 0.048934277
0.17961885 0.15363802 -0.11347269 -0.87374598 -0.45278764 0.17762734 0.048064832
-0.4410651 0.16245669 -0.1184337 0.87583059 -0.46527743 0.12820926 0.050790746
-0.43097472 0.16200265 -0.11384876 0.84902507 -0.51938486 0.096932031 0.047564253
-0.43585476 0.17454006 -0.11377134 0.88200474 -0.46084851 0.098418921 0.050204646
-0.42289764 0.17636812 -0.11533685 0.81828123 -0.56318581 0.11505486 0.055058163
0.1707314 0.17082864 -0.11592038 -0.85419285 -0.49074429 0.17182711 0.058228455
0.18180643 0.17076506 -0.1163131 -0.87083668 -0.46631902 0.15553187 0.049169566
-0.43177772 0.18155271 -0.11316167 0.82447219 -0.55222923 0.12364632 0.05133044
-0.4274123 0.18845564 -0.11172994 0.83187711 -0.54004997 0.12777498 0.056148726
-0.41796842 0.18362677 -0.11579669 0.86513394 -0.48838916 0.11410158 0.064425848
0.17672682 0.18136102 -0.11106279 -0.83155185 -0.53455496 0.1509054 0.049426559
-0.4222157 0.19472447 -0.11739293 0.83483762 -0.53723067 0.12012244 0.063979663
-0.41265565 0.19088498 -0.11820401 0.79697967 -0.58891672 0.13416564 0.058333553
-0.40961117 0.19583684 -0.11683644 0.8107993 -0.57152456 0.12634951 0.054652434
0.15773448 0.19130424 -0.11326438 -0.77874994 -0.61166704 0.13932674 0.054344825
-0.41546759 0.20494126 -0.11695736 0.82908517 -0.55032003 0.098821007 0.05201456
-0.40438855 0.20481382 -0.1124559 0.81287843 -0.5779025 0.072508469 0.046067752
0.14837536 0.20457646 -0.11608801 -0.82474893 -0.55305433 0.11798294 0.061924346
0.1610706 0.20455821 -0.11197003 -0.7489273 -0.63594681 0.18622427 0.048562463
-0.41084975 0.2115466 -0.11804424 0.80916947 -0.58168215 0.083010584 0.046082966
-0.39604241 0.21561396 -0.11194204 0.7795397 -0.6207754 0.083401382 0.050124727
0.14280383 0.21224208 -0.11537401 -0.8033461 -0.56011796 0.20224459 0.052638378
0.15554808 0.21269302 -0.11230496 -0.84916759 -0.50518495 0.1539562 0.05145571
-0.4034614 0.22195426 -0.11328797 0.78358948 -0.61866254 0.056957625 0.049198799
-0.3998203 0.22604927 -0.11354868 0.77104557 -0.63334477 0.066055141 0.050998122
-0.38632163 0.22554642 -0.11709274 0.75538188 -0.62093908 0.20936307 0.051815365
-0.39549914 0.2313417 -0.11186945 0.78950435 -0.60814112 0.082748316 0.05218184
-0.38043943 0.23257065 -0.11578029 0.69052428 -0.71224344 0.12603727 0.050622009
-0.37800899 0.23622946 -0.11170002 0.70833635 -0.69316912 0.13332772 0.046989199
0.12410942 0.23330124 -0.1164503 -0.72039217 -0.65858382 0.21749146 0.049142871
0.13295412 0.23779374 -0.11859818 -0.71911287 -0.65195793 0.2404736 0.043974422
-0.38347617 0.24364167 -0.11808442 0.69448721 -0.70745277 0.13114153 0.049220607
-0.37502956 0.24308665 -0.11859726 0.72389936 -0.68085366 0.11139113 0.050546248
-0.36454248 0.24923831 -0.1144488 0.71486449 -0.69501209 0.076986328 0.048620079
-0.37282008 0.25568858 -0.1119649 0.7205978 -0.69100392 0.057029907 0.046657246
-0.36563152 0.25532097 -0.11224778 0.68268061 -0.72460794 0.094289146 0.049430471
0.10359142 0.25303754 -0.11902646 -0.70362306 -0.68080413 0.20351996 0.047259312
0.11729673 0.25515854 -0.11466172 -0.67721605 -0.69540721 0.24038973 0.053137921
-0.36389089 0.2637136 -0.11094643 0.66183418 -0.74439865 0.088579141 0.054042656
-0.35553437 0.26934841 -0.11940257 0.63387042 -0.77100146 0.061359935 0.045836676
-0.34106824 0.26965076 -0.11535806 0.56905657 -0.81811821 0.082808174 0.054919366
0.090519235 0.26432973 -0.11982951 -0.6229822 -0.76056319 0.18285751 0.051685307
-0.35047916 0.2749289 -0.11381067 0.59101164 -0.80456364 0.058158759 0.047217254
-0.34067458 0.2702018 -0.1142794 0.56909078 -0.81809032 0.082848288 0.054894928
-0.33572483 0.27388898 -0.11608363 0.5792194 -0.81259573 0.064753413 0.060751196
-0.32907718 0.27934006 -0.11025718 0.50232941 -0.85576236 0.12383861 0.047166031
0.074658565 0.27770585 -0.11538357 -0.54035723 -0.83276564 0.12048026 0.05415025
0.091125473 0.27740848 -0.11807717 -0.61179572 -0.76828295 0.18827447 0.045154646
-0.33955032 0.28402135 -0.11193415 0.5714339 -0.81093127 0.12591201 0.05491066
-0.32205915 0.28269199 -0.1177839 0.47609597 -0.87178326 0.1154409 0.042334661
-0.3119829 0.28964928 -0.11656175 0.5667575 -0.81061137 0.14729248 0.043246802
0.058858685 0.288331 -0.11499104 -0.52968025 -0.83050734 0.17232636 0.047805917
0.064077988 0.28516558 -0.1130719 -0.54642689 -0.83268261 0.08976201 0.054907065
0.075874791 0.28477851 -0.11581367 -0.54980105 -0.82424033 0.13544957 0.055359796
0.086731315 0.28167745 -0.11479841 -0.51502764 -0.83986223 0.1713997 0.047095772
-0.30237034 0.2958644 -0.11769915 0.51402068 -0.83766389 0.18466678 0.044944491
-0.29745513 0.29886359 -0.11715418 0.53702021 -0.82504839 0.17579672 0.042187255
0.053317081 0.29153982 -0.11756674 -0.52863163 -0.83881927 0.13011852 0.05087002
-0.29993188 0.30852756 -0.11832454 0.51553118 -0.83848792 0.1765379 0.044415738
-0.27873135 0.30919844 -0.11041876 0.47342268 -0.87536448 0.098020218 0.049487982
0.024657305 0.30761138 -0.11572894 -0.41686556 -0.90025789 0.12553425 0.050561436
0.035835482 0.30190259 -0.11685671 -0.44474551 -0.89184314 0.082566373 0.059586171
0.051664881 0.30532593 -0.11371435 -0.50084275 -0.85280448 0.14792262 0.06046832
-0.28434339 0.31653345 -0.11645203 0.45871535 -0.87920016 0.12879165 0.055294726
-0.26108962 0.31692106 -0.1164104 0.2609801 -0.93649441 0.23423859 0.043645605
-0.25557882 0.31970197 -0.11224139 0.33341512 -0.92490143 0.18273394 0.047728568
0.0080446247 0.31640926 -0.11203013 -0.33587939 -0.92459804 0.17973204 0.050268762
0.013901457 0.31249729 -0.11816039 -0.3894079 -0.91259837 0.12460195 0.053096399
0.028568845 0.31739819 -0.11193807 -0.40549177 -0.90449512 0.1321549 0.047442351
0.036350477 0.31344259 -0.11267664 -0.45080698 -0.88439113 0.1209357 0.049206659
-0.27405086 0.32137042 -0.1178795 0.33381626 -0.92280561 0.19234528 0.050988905
-0.26671016 0.32536414 -0.11563745 0.27062723 -0.93675143 0.22194068 0.047908485
-0.25874919 0.32840425 -0.11693958 0.34642357 -0.90877193 0.23264621 0.047320243
-0.24328443 0.32266349 -0.1197781 0.39549574 -0.88970971 0.22803456 0.047361933
-0.23135841 0.32741854 -0.11557928 0.38924816 -0.90624678 0.16493244 0.049762931
-0.029071819 0.32929862 -0.11412494 -0.34849653 -0.91655892 0.19613734 0.052612547
-0.018171605 0.32505211 -0.11753276 -0.34804103 -0.92347449 0.16143818 0.046798609
-0.0046436931 0.32122806 -0.11265842 -0.36855325 -0.91569614 0.1602158 0.050646462
0.012260482 0.32541484 -0.11209962 -0.29868582 -0.9448635 0.13423806 0.053657252
-0.2450328 0.33397833 -0.11100654 0.40385371 -0.90509528 0.13305913 0.048441779
-0.23514555 0.3370761 -0.11271418 0.42147863 -0.89450437 0.1490562 0.048235539
-0.22683929 0.33979797 -0.11336011 0.25542483 -0.95193493 0.16905047 0.052110136
-0.19631086 0.33597189 -0.11842526 0.15431322 -0.96719205 0.20180909 0.04723876
-0.050228361 0.33414179 -0.11866745 -0.22568898 -0.96548665 0.12999968 0.052345037
-0.043312624 0.33327502 -0.11552162 -0.27192664 -0.95551467 0.11422615 0.054130759
-0.038385972 0.33228207 -0.11463533 -0.26788056 -0.95338327 0.13892613 0.061458435
-0.021209827 0.33771113 -0.1103458 -0.36988258 -0.90633929 0.20429373 0.046845552
-0.22129162 0.34184036 -0.11230906 0.23625812 -0.96345973 0.12620369 0.047633275
-0.20001775 0.34551442 -0.11761154 0.13287553 -0.9754706 0.17550258 0.045219265
-0.19733652 0.34643 -0.11516038 0.16752937 -0.97494328 0.14635444 0.04897232
-0.18782645 0.34828481 -0.1153722 0.22370405 -0.95166844 0.21043719 0.050608534
-0.17948619 0.34021258 -0.11261536 0.11846294 -0.97703856 0.1770938 0.050109625
-0.16067249 0.34253782 -0.11127878 0.10638113 -0.98837686 0.10860097 0.044048212
-0.15596616 0.3427 -0.11229657 0.091807604 -0.9884671 0.12043281 0.049390234
-0.13520549 0.34358406 -0.11561169 0.077495679 -0.9801507 0.18248039 0.0494247
-0.12599257 0.34338826 -0.11916037 -0.003699197 -0.98489088 0.17313677 0.045907415
-0.10753022 0.3430022 -0.11381269 -0.11446328 -0.99035949 0.078013338 0.049881611
-0.098442927 0.34234005 -0.11428393 -0.038496498 -0.98719072 0.15483072 0.051238801
-0.088387698 0.34104371 -0.1184154 -0.045881517 -0.98248601 0.18059897 0.050282538
-0.077057332 0.34979549 -0.11762559 -0.12853661 -0.9843142 0.12084675 0.059160773
-0.068504035 0.3488242 -0.11284244 -0.17171626 -0.97984123 0.10210124 0.054341901
-0.056675423 0.34604678 -0.11574533 -0.21777143 -0.9675737 0.12797131 0.05321122
-0.042674255 0.34310275 -0.11673114 -0.25273925 -0.96115637 0.11091142 0.052455474
-0.031080522 0.34070402 -0.11270906 -0.32310688 -0.9301331 0.17451157 0.055925187
-0.15336438 0.3517895 -0.11922944 0.024003891 -0.97733527 0.21033196 0.05071786
-0.14520824 0.35351801 -0.11132307 0.036967188 -0.98441571 0.1719275 0.051138949
-0.12836273 0.35478902 -0.11016145 -0.0096218148 -0.97918016 0.20276481 0.051505055
-0.11240646 0.35255012 -0.11866868 -0.052888595 -0.99204826 0.11420643 0.053613998
-0.10287094 0.35266697 -0.11384183 -0.060660202 -0.99254465 0.10571364 0.048897214
-0.094993725 0.35221997 -0.1133604 -0.070866473 -0.98087323 0.18128878 0.051603723
-0.083020896 0.3514657 -0.11314914 -0.11641896 -0.98712492 0.10968595 0.052386113
-0.077787429 0.35091519 -0.11117084 -0.14862223 -0.98225939 0.11435851 0.054001313
-0.18364672 -0.35086766 -0.10347851 0.22032832 0.97373676 0.057378635 0.052166548
-0.16315018 -0.35369307 -0.10192263 0.092794478 0.98411238 0.1513669 0.055462759
-0.1534521 -0.35373905 -0.10602407 0.12512287 0.97521937 0.18245924 0.051881813
-0.14179723 -0.35501033 -0.10249531 0.075639717 0.98780322 0.13610087 0.05077951
-0.13572368 -0.35533541 -0.10300364 0.038165387 0.99204439 0.11996418 0.048076462
-0.12783015 -0.35604358 -0.10162825 -0.023848929 0.99366254 0.10984517 0.055495586
-0.11896971 -0.35533911 -0.10259175 -0.030761095 0.99146241 0.12671226 0.053737652
-0.10525671 -0.3542726 -0.1037585 -0.069462702 0.99687093 0.037726033 0.048028376
-0.086994752 -0.3529731 -0.10447091 -0.10707038 0.98669463 0.12235016 0.049442206
-0.22424239 -0.34230396 -0.10263296 0.2287001 0.96418178 0.13434917 0.061886184
-0.21718635 -0.34386253 -0.10576012 0.20511118 0.97098464 0.12295668 0.057326019
-0.18479072 -0.34062719 -0.10256362 0.24231459 0.9671424 0.076936647 0.049894366
-0.17681898 -0.34156957 -0.10696308 0.19609767 0.97351229 0.1175559 0.051467624
-0.16528887 -0.34348261 -0.10260049 0.10507628 0.98480141 0.13829401 0.057599831
-0.12775683 -0.3455894 -0.10504469 -0.02401221 0.99062932 0.13445039 0.054654866
-0.11577874 -0.34493208 -0.10415652 -0.044564139 0.99248308 0.11398044 0.053527907
-0.10360377 -0.34447402 -0.10179199 -0.081087053 0.99517733 0.055199172 0.0514189
-0.087882176 -0.3435775 -0.10085978 -0.10801586 0.98747677 0.11498839 0.049634598
-0.074250266 -0.34100309 -0.10475498 -0.16255473 0.97845936 0.1272525 0.053521868
-0.06158457 -0.34932196 -0.10002229 -0.22802114 0.96214736 0.14926031 0.049787629
-0.057386428 -0.34826991 -0.10150492 -0.2276614 0.96263546 0.14663979 0.057430599
-0.25285301 -0.33172137 -0.10837959 0.33316898 0.93744642 0.10095822 0.054286528
-0.2409492 -0.33604264 -0.10652816 0.28781044 0.95195508 0.10462596 0.054737948
-0.21048716 -0.33463776 -0.10856968 0.15611202 0.96824539 0.19526896 0.047908187
-0.1895054 -0.33920199 -0.10589666 0.17222831 0.9732461 0.15208367 0.051743865
-0.068960458 -0.33919775 -0.1099055 -0.18885808 0.96051693 0.20430328 0.054484386
-0.057497863 -0.33803949 -0.10223435 -0.25942272 0.958718 0.11644605 0.058440208
-0.03933588 -0.33339682 -0.10927863 -0.3167398 0.94357026 0.096700944 0.046611831
-0.010563798 -0.3354257 -0.101575 -0.25195929 0.95982534 0.1234986 0.050720658
0.0029914023 -0.33060592 -0.10301588 -0.31920588 0.94282669 0.095840789 0.04943781
-0.27483743 -0.32240757 -0.10920746 0.40274885 0.89897782 0.17214017 0.049430892
-0.26936197 -0.32562041 -0.10600168 0.40386802 0.90609032 0.12605903 0.051272769
-0.25417167 -0.32175139 -0.10186769 0.35507685 0.92900461 0.10426359 0.055922702
-0.24256475 -0.32523838 -0.10485909 0.31510291 0.94397217 0.098115928 0.054052692
-0.23160222 -0.32963642 -0.10039016 0.34758291 0.92937285 0.12430724 0.052293301
-0.023031972 -0.32810956 -0.10843659 -0.2761488 0.95147634 0.1357743 0.050015789
-0.017286554 -0.32722294 -0.10141249 -0.26675609 0.95233661 0.14797358 0.053440806
-0.0030125228 -0.32206318 -0.10348887 -0.309268 0.94334924 0.12018931 0.051877037
0.0071076956 -0.32832071 -0.10816866 -0.35859042 0.92206812 0.14561351 0.050921347
0.017255016 -0.3241775 -0.10443585 -0.39029127 0.90900916 0.14620212 0.06002165
-0.29396382 -0.31433177 -0.1007273 0.38651812 0.91525877 0.1136004 0.046797156
-0.27452865 -0.3127414 -0.10122268 0.46590051 0.87910408 0.10056134 0.04797975
-0.26947698 -0.31527013 -0.10098848 0.39543715 0.91269797 0.10301371 0.050418861
0.019001411 -0.31241518 -0.10322101 -0.36227089 0.92260277 0.13252907 0.054408871
0.021492308 -0.31162974 -0.10045154 -0.41272727 0.90010017 0.13955568 0.054244433
0.031690657 -0.31705502 -0.10445926 -0.45416144 0.88366652 0.11344962 0.047069572
0.045623638 -0.3103202 -0.10360759 -0.46565765 0.87470251 0.13438198 0.059145872
-0.31401131 -0.3026073 -0.10311519 0.49916169 0.84491575 0.19223696 0.0510538
-0.30449322 -0.30776241 -0.1082623 0.48985258 0.86420846 0.11483958 0.046548095
-0.29758015 -0.30102986 -0.10337377 0.44317794 0.88868994 0.11757334 0.052562986
0.02533485 -0.30889788 -0.10568512 -0.47423324 0.87387937 0.10694667 0.050182909
0.054344311 -0.30450565 -0.10809155 -0.56732649 0.81205857 0.13675374 0.053462856
-0.32797939 -0.29278427 -0.10595493 0.56664062 0.81488663 0.12197609 0.05302541
-0.3129853 -0.29105425 -0.10468355 0.533225 0.83723587 0.12127313 0.05671414
-0.29998967 -0.29908863 -0.10808302 0.47213128 0.87384552 0.11612927 0.050176643
0.04885764 -0.29685241 -0.10433091 -0.54782593 0.81934822 0.16898285 0.052578669
0.066559546 -0.29705554 -0.1039656 -0.60253799 0.79253 0.094043024 0.04887123
-0.32537425 -0.28267053 -0.10529572 0.62197179 0.77920491 0.077400558 0.050644513
0.071698688 -0.28190821 -0.10248658 -0.59437573 0.79050148 0.14773297 0.051255174
0.080969349 -0.28678274 -0.1077017 -0.68066949 0.69924241 0.2185159 0.049230684
-0.34505051 -0.27457765 -0.10591727 0.61181474 0.78228623 0.11709397 0.048571657
-0.33438286 -0.27679449 -0.10446367 0.61153299 0.78650182 0.086268641 0.051882576
0.079416156 -0.2755923 -0.10920653 -0.6391058 0.74038935 0.20824809 0.051963393
-0.36890808 -0.26043707 -0.10505812 0.65720141 0.73526949 0.16572618 0.049715057
-0.35305524 -0.26082769 -0.10650374 0.67671818 0.72158754 0.14616428 0.053838942
-0.3456614 -0.26833895 -0.10112077 0.56364357 0.81798124 0.11494586 0.045321576
0.093181841 -0.26489556 -0.10509584 -0.62532973 0.75443143 0.19948907 0.048889853
0.10892832 -0.26420748 -0.10569749 -0.56714344 0.81823206 0.094045341 0.050622758
-0.3712883 -0.25787744 -0.10753316 0.68060708 0.71974611 0.13689241 0.049656384
-0.36112621 -0.25465965 -0.101734 0.65765232 0.73334414 0.17233655 0.050306886
0.099730924 -0.25975084 -0.10195814 -0.621589 0.76843721 0.1520898 0.051044852
0.10501786 -0.25456133 -0.10485744 -0.61944407 0.77337509 0.13483292 0.047968648
0.1132427 -0.25981233 -0.10890317 -0.60892272 0.78248388 0.13012356 0.04849425
0.1246058 -0.2506007 -0.10380799 -0.65912551 0.73697281 0.14974852 0.053377032
-0.38425466 -0.24524139 -0.10691361 0.74183959 0.65738624 0.13235293 0.055465452
-0.37321728 -0.24400881 -0.10105551 0.69685584 0.70423335 0.13582104 0.052332256
0.1157465 -0.24480516 -0.10581858 -0.66510296 0.72593468 0.17509104 0.056244332
0.12595987 -0.24928652 -0.10275118 -0.6779967 0.71478581 0.17146927 0.053767037
0.13287011 -0.2409718 -0.10475132 -0.75520211 0.63070071 0.17856744 0.061238963
-0.39429742 -0.23438835 -0.10416242 0.71813357 0.68948805 0.094288573 0.055516772
-0.38394669 -0.23066646 -0.1061487 0.69966942 0.7018277 0.13379255 0.053881802
0.12479424 -0.23512313 -0.10459195 -0.73791152 0.64617008 0.19480972 0.058526125
0.13773099 -0.2351923 -0.10584006 -0.74765772 0.62727368 0.2180271 0.051839814
-0.40703946 -0.22034092 -0.10194834 0.78566569 0.59951138 0.1526943 0.058721479
-0.39512256 -0.22487012 -0.10890318 0.73594481 0.64732921 0.19836846 0.050120369
0.13308562 -0.22572307 -0.10434199 -0.73702973 0.64736068 0.19419391 0.050712179
0.14410143 -0.22849047 -0.10325534 -0.7801367 0.60067779 0.17485148 0.050786123
-0.4096525 -0.2177227 -0.10028735 0.78055167 0.60950828 0.13870399 0.061613828
-0.39712009 -0.21578066 -0.10552641 0.78814989 0.59545547 0.15573235 0.062555127
0.13907179 -0.21899697 -0.10388347 -0.78053355 0.60822564 0.14432216 0.057187919
0.14571449 -0.21178773 -0.10220447 -0.78915489 0.60731173 0.09169016 0.055580817
0.1577442 -0.21027149 -0.10912257 -0.78048462 0.62027818 0.078094356 0.051298331
-0.41490683 -0.20904797 -0.1044616 0.82644606 0.54158187 0.15387021 0.055512436
0.14732783 -0.2090704 -0.10477766 -0.7677151 0.6387015 0.051710472 0.052183561
0.15204181 -0.20210229 -0.10444007 -0.78348589 0.61468351 0.091181159 0.055992592
0.16307303 -0.20397101 -0.10263438 -0.80271232 0.59492433 0.041448511 0.052538365
-0.41200238 -0.19518378 -0.10561918 0.84341288 0.51685387 0.14668621 0.049009942
0.15870747 -0.19134685 -0.1074582 -0.79628307 0.60170066 0.062366214 0.052714184
0.16837312 -0.19513154 -0.10614986 -0.79458183 0.60435897 0.058222961 0.049924139
0.17085996 -0.19128276 -0.10664159 -0.80625099 0.59129953 0.018004091 0.045327973
-0.42119896 -0.180765 -0.10815476 0.81111741 0.55722409 0.17773543 0.046763387
-0.41984811 -0.18451515 -0.10146086 0.82515043 0.55042028 0.12713829 0.046258751
0.16466656 -0.18290852 -0.1055972 -0.85245037 0.51947153 0.058972772 0.051186979
0.17351893 -0.18850856 -0.10197257 -0.82931644 0.55359209 0.075960375 0.048947711
-0.43731993 -0.17542461 -0.1020469 0.86116022 0.49127668 0.13057698 0.050329618
-0.42428076 -0.17756821 -0.10267243 0.77422082 0.61667222 0.14246918 0.0418014
-0.44340828 -0.16338108 -0.10123415 0.88100958 0.46727726 0.073986351 0.054556627
-0.4295564 -0.16887283 -0.10153387 0.86585224 0.48359218 0.12821281 0.051534746
0.17661561 -0.16147445 -0.10808678 -0.88546175 0.43865374 0.15342876 0.05317777
0.18381533 -0.16878253 -0.10991612 -0.89886457 0.42148367 0.11997484 0.04756752
-0.44975263 -0.15064125 -0.10084827 0.90186006 0.41938353 0.10375901 0.058364112
-0.43370438 -0.15926602 -0.10521924 0.86550814 0.48616394 0.12058361 0.056039058
0.17797646 -0.1584779 -0.1088178 -0.89410007 0.4299919 0.12526752 0.052758232
0.18874928 -0.15909958 -0.10892193 -0.90783608 0.40048718 0.12427241 0.051108845
0.19061774 -0.15676668 -0.10443234 -0.8921867 0.4323729 0.13060112 0.054077398
-0.45238015 -0.1433925 -0.10677189 0.93294328 0.33737057 0.12569001 0.059853751
-0.44137517 -0.14385048 -0.10478953 0.91829413 0.37203765 0.13536613 0.067382358
-0.43886358 -0.14950502 -0.10305791 0.90956593 0.40894374 0.073856898 0.057241365
0.19636451 -0.14625849 -0.10090036 -0.88330978 0.45360109 0.11836298 0.049772404
-0.45631492 -0.13657922 -0.10317721 0.92822134 0.34523794 0.1386216 0.054417536
-0.44610387 -0.13340029 -0.10726908 0.92744994 0.34219491 0.15079527 0.05374869
0.1876834 -0.13931888 -0.10720026 -0.8689723 0.46454999 0.17052996 0.043751445
0.20144372 -0.1317686 -0.10994675 -0.88594544 0.43417919 0.16306141 0.050586674
-0.45015997 -0.12321129 -0.10480179 0.90897363 0.35718638 0.21490654 0.04916624
-0.448477 -0.12935707 -0.1021392 0.91853017 0.35292271 0.17817943 0.052984994
0.19395338 -0.12555236 -0.10394936 -0.89620441 0.4115186 0.16574118 0.053017836
0.20558244 -0.12325386 -0.10170591 -0.9112708 0.38801837 0.13793935 0.050861321
-0.46445632 -0.1135473 -0.10145807 0.91287446 0.33320183 0.23587464 0.052716572
-0.45212036 -0.11805851 -0.10340718 0.92555147 0.31825241 0.20510946 0.047370881
0.19668186 -0.11794347 -0.10298821 -0.91644835 0.36597696 0.16181239 0.051336776
0.2070391 -0.1165106 -0.10720076 -0.92009896 0.34117898 0.19239248 0.051086146
-0.46567178 -0.10794649 -0.10598518 0.92273843 0.34343693 0.1749424 0.055090602
-0.45536977 -0.10673422 -0.10733287 0.92611766 0.33388403 0.17557779 0.050834503
0.20565067 -0.10600378 -0.10522407 -0.93625641 0.28821301 0.2008909 0.046192992
0.21092094 -0.10665413 -0.10366249 -0.93465018 0.27635452 0.2237349 0.046640847
-0.45842311 -0.099040687 -0.10441657 0.92293298 0.30944744 0.22899128 0.050100185
0.20441297 -0.094632253 -0.1041895 -0.95450747 0.23279706 0.18633558 0.051585764
0.21439937 -0.096106485 -0.10433647 -0.96241128 0.22152346 0.1571365 0.049061157
-0.47241619 -0.087936036 -0.10241602 0.95241237 0.24019569 0.18766113 0.053323328
0.20792499 -0.083416253 -0.10038477 -0.97011924 0.19015057 0.15070282 0.060187247
0.21841049 -0.08027406 -0.10233906 -0.96518189 0.17936106 0.19040371 0.055647314
-0.47432688 -0.073791608 -0.10858926 0.9537586 0.25234878 0.16329329 0.047210246
-0.46457875 -0.07535398 -0.10374211 0.95476687 0.23423877 0.18317319 0.047520813
0.20854835 -0.078047797 -0.10342444 -0.97212547 0.18107101 0.14894718 0.060929339
0.21973979 -0.072154865 -0.10429245 -0.97424275 0.11617512 0.19327311 0.051875569
0.22118336 -0.063263454 -0.10651542 -0.9681564 0.1678185 0.18576869 0.051928047
-0.46800503 -0.05362054 -0.10987599 0.98093969 0.18745027 0.051183794 0.049173843
0.21323736 -0.054070782 -0.10397357 -0.97315413 0.14282517 0.1804771 0.054681178
0.29682559 -0.052373998 -0.10198632 -0.5965386 -0.77004611 0.22620949 0.088071257
0.31320339 -0.05514593 -0.10800228 0.072771169 0.99712354 0.021192284 0.082763113
0.32033968 -0.055254433 -0.10427365 -0.02093149 0.99884099 0.043341484 0.092601918
0.33530283 -0.055612214 -0.10193537 -0.32907987 0.9186635 0.21854921 0.062682636
0.34763497 -0.05213606 -0.10123497 -0.47238928 0.74299717 0.47413453 0.07688836
-0.48081535 -0.043094967 -0.1029143 0.98381752 0.12817049 0.12520112 0.052890595
-0.47007984 -0.044265643 -0.10768984 0.9869436 0.13700092 0.08469367 0.052763447
0.21495894 -0.042037793 -0.10577878 -0.97547239 0.16619521 0.14433551 0.054008726
0.29492283 -0.046953328 -0.10334221 -0.57854903 -0.73223752 0.35931781 0.090813108
0.34294733 -0.041627504 -0.1067338 -0.62272412 0.36712632 0.69096524 0.077676721
-0.47084576 -0.031655435 -0.10811158 0.99791229 0.061660875 -0.019206563 0.04365943
0.21552131 -0.037135046 -0.1041019 -0.9712258 0.12045434 0.20545384 0.057571795
0.29095483 -0.032307208 -0.10754511 -0.64701557 -0.086287647 0.75757861 0.022059686
0.34864938 -0.031799246 -0.10052162 -0.69018841 0.13681293 0.71057874 0.026806183
0.21585183 -0.025958793 -0.10689803 -0.9642545 0.14470167 0.22197902 0.056768078
0.22665352 -0.02714988 -0.10058947 -0.96439439 0.13150042 0.22945829 0.042374074
0.29029334 -0.025547072 -0.10832935 -0.6953631 0.010908004 0.71857584 5.7211077e-05
0.34860465 -0.020561311 -0.10080887 -0.75233954 0.014021911 0.65862626 6.9490787e-05
-0.47288269 -0.016161431 -0.10100627 0.99568069 0.083614044 0.040355925 0.056889016
0.21649364 -0.016908344 -0.10655966 -0.96415812 0.10701941 0.24278778 0.04954055
0.22616063 -0.01730076 -0.10850867 -0.97534376 0.087123886 0.20276542 0.053221744
0.29268867 -0.012522373 -0.10621561 -0.70264441 0.0137752 0.71140784 8.0084792e-06
0.3438994 -0.016361147 -0.10619449 -0.74106574 0.014870345 0.67126775 4.0862764e-05
-0.48253804 -0.0017571136 -0.10978102 0.99520016 -0.031256471 0.092735134 0.060044412
-0.47303981 -0.0041656904 -0.10538208 0.99409431 -0.014728893 0.10751541 0.059555687
0.21704513 -0.0095180664 -0.10609363 -0.97917384 0.092724055 0.18061244 0.055507541
0.22680324 -0.0042697564 -0.10997887 -0.97837591 0.045749214 0.20171164 0.052056666
0.2957212 -0.0073433323 -0.10332055 -0.70774996 0.012986253 0.70634365 4.2783533e-05
0.34336424 -0.00086695235 -0.10712346 -0.7419014 0.014155224 0.67035967 5.1218209e-05
-0.48296341 0.0038983016 -0.10584429 0.99314827 0.036441762 0.11103363 0.066423416
-0.47318122 0.0041265581 -0.10441626 0.99788105 -0.013317855 0.063686498 0.053422336
0.21765761 0.0063007455 -0.10330112 -0.98430634 -0.10459557 0.14212942 0.053519815
0.28934693 0.0022678114 -0.10980275 -0.69972235 0.014559291 0.7142666 3.7627999e-06
0.29512393 0.0042935391 -0.10413573 -0.70776469 0.013810627 0.70631325 5.2748794e-05
0.34415889 0.0045627998 -0.10634324 -0.74206364 0.013675373 0.67018998 0.00010364178
-0.47172076 0.019958599 -0.10735775 0.98480755 -0.13711604 0.10655177 0.045632135
0.2268793 0.015250302 -0.10444418 -0.97362417 -0.12001549 0.19404204 0.05075784
-0.47187918 0.022036854 -0.10530815 0.98961473 -0.10204416 0.10124007 0.048150919
0.22710004 0.021400478 -0.10010447 -0.97748065 -0.13949046 0.15834771 0.050731227
0.29293174 0.024582472 -0.1066938 -0.70265818 0.014008785 0.7113896 2.9105056e-05
0.34490785 0.021759568 -0.10586245 -0.74438184 0.014549104 0.66759568 3.8097118e-05
-0.47129738 0.035655454 -0.10314572 0.98332107 -0.093892023 0.15576878 0.047383513
0.2953026 0.033676736 -0.10452799 -0.68934965 0.26243687 0.67522138 0.059798218
0.215186 0.04114043 -0.10460957 -0.97202289 -0.095715426 0.21449983 0.040357657
0.34707361 0.043420196 -0.10388065 -0.69106698 -0.2789501 0.66679329 0.078938112
-0.47903609 0.053596899 -0.10385594 0.94256443 -0.18694402 0.2768108 0.04842243
-0.469111 0.053369261 -0.10265532 0.95229703 -0.19061112 0.23832275 0.053040177
0.22315691 0.054807339 -0.10452204 -0.98280042 -0.11777406 0.14224137 0.048148409
0.29744536 0.051687356 -0.10276012 -0.48666748 0.74930227 0.44911122 0.1314036
0.30180538 0.053857807 -0.10356735 -0.24012622 0.93386871 0.26500696 0.081177719
0.34444931 0.052749887 -0.10245472 -0.24336252 -0.92200679 0.30112806 0.060281526
0.35005623 0.050514407 -0.10067235 -0.66369545 -0.51808769 0.53953093 0.091763265
-0.47631145 0.065154642 -0.10676657 0.9727267 -0.11872148 0.19926843 0.053196304
-0.46679857 0.063293353 -0.10496819 0.9732343 -0.15180546 0.1725401 0.050002553
0.22059798 0.063999459 -0.10951723 -0.96948099 -0.18668771 0.15891598 0.049619086
-0.47462562 0.075598508 -0.1040889 0.96718764 -0.1471352 0.20712152 0.050005432
-0.46408772 0.07834027 -0.1030376 0.96568412 -0.16961674 0.19668344 0.04934245
0.20984459 0.072777584 -0.10172942 -0.95260763 -0.27928013 0.12058789 0.057527024
0.21840461 0.076732509 -0.10719599 -0.9384008 -0.33226424 0.094891936 0.054293074
-0.47220817 0.08632791 -0.10602562 0.95775598 -0.20487884 0.201812 0.058479305
-0.46243662 0.083992504 -0.10663939 0.96898687 -0.14062062 0.20320027 0.053321231
0.21717939 0.082655095 -0.10751853 -0.95029449 -0.28469825 0.12604472 0.054051369
-0.46030197 0.091105253 -0.10979597 0.93917781 -0.27510867 0.20557295 0.053115752
0.20371543 0.096494719 -0.10462077 -0.92366278 -0.34977016 0.15654975 0.052369561
0.21578211 0.091510966 -0.10465682 -0.93396068 -0.31623831 0.1664653 0.052822761
-0.45573112 0.10650982 -0.10545024 0.93395019 -0.31832173 0.16250664 0.046151854
0.19903684 0.1094097 -0.10656562 -0.94663352 -0.29107267 0.13842545 0.04470614
0.20243998 0.10106489 -0.10279939 -0.91853803 -0.3642433 0.15367094 0.049720876
-0.46065217 0.12332606 -0.10465884 0.92360711 -0.37559795 0.076655373 0.048914112
-0.45023543 0.12418067 -0.10213087 0.90581214 -0.40409264 0.12733234 0.052813571
0.19324926 0.12649475 -0.10648608 -0.94908404 -0.29109922 0.12041879 0.048347391
-0.44486153 0.1370133 -0.104073 0.91552269 -0.38226664 0.12526132 0.051222883
0.18814348 0.13799028 -0.10842037 -0.9345628 -0.33458021 0.12103033 0.05520473
0.19499046 0.13611221 -0.1060839 -0.93811625 -0.33079961 0.10251618 0.047133364
0.20005268 0.13666449 -0.10742091 -0.93783581 -0.33740994 0.081355043 0.04933935
-0.45111418 0.14699148 -0.10358957 0.89808422 -0.42858028 0.098811567 0.052229114
-0.43933842 0.14776123 -0.10546589 0.91959172 -0.38528624 0.076848045 0.057010435
0.1948784 0.14802736 -0.1047384 -0.92426139 -0.37547421 0.068992801 0.052134991
-0.43869215 0.15018946 -0.1020191 0.90196067 -0.41508439 0.11904556 0.055570383
0.17974055 0.15566158 -0.10647164 -0.88588017 -0.41658086 0.20414871 0.050969049
0.19062857 0.15780745 -0.10115509 -0.88046038 -0.42198327 0.21614727 0.045941927
-0.42904103 0.16831395 -0.10647928 0.88355517 -0.46306649 0.069997147 0.05245734
0.18683434 0.1642921 -0.1048847 -0.89382023 -0.40202355 0.19865146 0.043888129
-0.42546043 0.17500103 -0.1057769 0.84133673 -0.53013736 0.10538927 0.056414925
0.1783558 0.17973769 -0.10790721 -0.80386996 -0.57298392 0.15963212 0.048527926
0.1823364 0.17338496 -0.1049711 -0.86140639 -0.48548386 0.14927955 0.056644998
-0.43099737 0.18360709 -0.10972754 0.83320969 -0.53722429 0.13096485 0.056172293
-0.4252671 0.18414468 -0.10617252 0.83692157 -0.52951372 0.13848332 0.059511915
0.16137931 0.18729572 -0.10766077 -0.81024402 -0.56286317 0.16336928 0.047372032
0.17522262 0.18581264 -0.10253882 -0.79134303 -0.5914126 0.15494294 0.048029885
-0.4244749 0.19466028 -0.10472436 0.83111823 -0.54303384 0.11981928 0.058878943
-0.41329494 0.1940307 -0.10259248 0.81196856 -0.57205135 0.11603557 0.057013765
-0.41965747 0.20225678 -0.10322674 0.81410366 -0.56840664 0.11894999 0.056896187
0.14867505 0.20828384 -0.10001409 -0.84350771 -0.49763814 0.20211644 0.05130868
0.14607884 0.21024616 -0.10738163 -0.82411152 -0.53273296 0.19244677 0.055764735
0.15664805 0.2127237 -0.1059773 -0.83998632 -0.49819651 0.214996 0.047103405
-0.3975842 0.22966787 -0.10863468 0.77621257 -0.62670553 0.068804748 0.05412145
0.12905061 0.22922988 -0.10937232 -0.76198512 -0.60577863 0.22893435 0.049661569
0.14667429 0.22443774 -0.10840099 -0.7606234 -0.61099893 0.21939065 0.045120828
-0.39194259 0.23675299 -0.10563634 0.74763632 -0.66231322 0.048798051 0.050933484
-0.38369411 0.23187405 -0.1019212 0.72806561 -0.67789257 0.10189281 0.054210652
0.13452801 0.23819232 -0.10883868 -0.73747587 -0.63077807 0.24134704 0.046664145
-0.3758654 0.24019477 -0.10470787 0.72739071 -0.67639273 0.11573941 0.04719859
-0.36799434 0.24780503 -0.10609364 0.67428774 -0.72218198 0.15423764 0.054992426
0.1131095 0.24809921 -0.10153449 -0.66271061 -0.73296535 0.15354635 0.048726346
0.12616567 0.2489406 -0.10326262 -0.69750559 -0.67383325 0.24379227 0.045972478
0.13274476 0.24195696 -0.10087937 -0.69600743 -0.68875742 0.20294553 0.046004064
-0.374852 0.25512308 -0.10558932 0.69749737 -0.70363873 0.1356097 0.056302529
-0.36520657 0.25356215 -0.10607611 0.72442853 -0.67822862 0.12332575 0.051182978
0.11626434 0.25753748 -0.10693768 -0.61004961 -0.77734864 0.15352081 0.046346929
-0.36699402 0.26190269 -0.10617469 0.67534781 -0.72774166 0.11957207 0.053906202
-0.34638512 0.26747143 -0.10234212 0.61550093 -0.77652115 0.13480955 0.057626002
0.095646456 0.26363084 -0.10039558 -0.62942129 -0.76633066 0.12870921 0.045737982
0.10796171 0.26525125 -0.10467122 -0.70438105 -0.69213396 0.15747343 0.04768496
-0.35646629 0.27188697 -0.10223486 0.62074137 -0.77003098 0.14741932 0.053597506
-0.33279997 0.2772972 -0.10767975 0.54795849 -0.83211982 0.085546084 0.04953403
-0.32952273 0.27985209 -0.10556358 0.56990546 -0.81404078 0.11200681 0.052828237
0.074993595 0.27960306 -0.10308689 -0.5316959 -0.83042049 0.16643685 0.052048422
0.082105406 0.27385274 -0.10887396 -0.52821761 -0.83563405 0.15067138 0.053397804
0.1002453 0.27289799 -0.1000611 -0.64861661 -0.74922717 0.13399665 0.042861417
-0.33955082 0.28588805 -0.10111183 0.57785589 -0.81279993 0.073748752 0.052980877
0.063635625 0.28685445 -0.10504664 -0.5717454 -0.80234736 0.17130652 0.054925334
0.077047959 0.2891053 -0.10942703 -0.53083408 -0.83706111 0.13245346 0.049103715
0.086734846 0.2829684 -0.10678633 -0.55300355 -0.82667446 0.1039059 0.052955471
-0.32395723 0.29525203 -0.10722855 0.53830367 -0.82777888 0.15814932 0.047590327
-0.31606165 0.29498279 -0.10468268 0.4970018 -0.85322535 0.15810017 0.04652914
-0.30743718 0.29425374 -0.1076259 0.60331362 -0.78711665 0.12829657 0.039725449
0.045507953 0.29826009 -0.1090263 -0.51388347 -0.83972567 0.17545579 0.056020871
0.057115961 0.29055673 -0.10883888 -0.51824033 -0.84114558 0.15459946 0.054652661
0.063284814 0.29907787 -0.10492663 -0.52914804 -0.83674985 0.14089708 0.057253256
0.070453405 0.29379299 -0.10779584 -0.56045216 -0.81425625 0.1512617 0.054044403
-0.29492375 0.3027612 -0.10073963 0.52617061 -0.84425348 0.10188518 0.04777329
0.023999151 0.30941698 -0.1065561 -0.39363083 -0.91096598 0.12327136 0.044835839
0.03474633 0.30464616 -0.10324837 -0.39905563 -0.90594888 0.1414611 0.047608797
0.041512977 0.30066067 -0.10730511 -0.50971699 -0.84896773 0.13943578 0.05402166
0.053357325 0.30544502 -0.10646932 -0.51375836 -0.83876801 0.1803349 0.053403601
-0.29235017 0.31457731 -0.10416861 0.49681395 -0.85940921 0.12079597 0.050324008
-0.28542536 0.31761116 -0.10655158 0.49454594 -0.86254138 0.10698935 0.045563787
-0.27389944 0.31289178 -0.10222515 0.39111316 -0.9158023 0.091305055 0.052702706
0.0022876218 0.31953976 -0.10827069 -0.39434668 -0.89792645 0.19549587 0.05014817
0.014392469 0.31391901 -0.10802747 -0.41565648 -0.89476222 0.16318813 0.052630484
0.023431597 0.31064653 -0.10061772 -0.41691628 -0.88789058 0.19450212 0.045600727
0.045449268 0.31052673 -0.10285345 -0.4864026 -0.86369359 0.1320833 0.057815541
-0.27432966 0.32328641 -0.10527883 0.39694619 -0.91241527 0.09965986 0.054342825
-0.26456398 0.32760957 -0.10835941 0.37441224 -0.91724938 0.13590068 0.051455081
-0.25398716 0.32195151 -0.10095945 0.37551627 -0.91325986 0.1579369 0.053344239
-0.23962766 0.32649529 -0.10314207 0.38262627 -0.91698563 0.11284705 0.049567223
-0.015169669 0.32616866 -0.10363242 -0.30937412 -0.93923515 0.14874513 0.050667007
-0.00065480382 0.32080126 -0.10653707 -0.38216203 -0.89924818 0.21284929 0.045275506
0.0090120751 0.32861426 -0.10211015 -0.42166841 -0.89363188 0.15368083 0.056010921
-0.23364861 0.3387315 -0.10513914 0.33762166 -0.93452168 0.11260964 0.053114686
-0.21430546 0.33454037 -0.10404456 0.20685303 -0.97368288 0.095673852 0.04609777
-0.2044197 0.33596504 -0.10774768 0.12471732 -0.98316813 0.13351494 0.041600127
-0.19806409 0.3373155 -0.10715751 0.14841247 -0.97778869 0.14799653 0.044992898
-0.069006346 0.33974129 -0.10625155 -0.18730512 -0.97838426 0.087641999 0.05477288
-0.05280444 0.3365615 -0.105959 -0.27664837 -0.95647049 0.092897743 0.051611375
-0.043013137 0.33483899 -0.10442054 -0.23231193 -0.96896869 0.084443845 0.053185184
-0.027905641 0.33032432 -0.10474031 -0.32238799 -0.92658645 0.19365838 0.05302994
-0.019430425 0.33778515 -0.10586826 -0.37318456 -0.90759146 0.19238202 0.048999596
-0.0055241929 0.33307457 -0.10580168 -0.3632057 -0.90648222 0.21534081 0.05334745
0.00278535 0.33043486 -0.10460676 -0.404441 -0.89128083 0.20505118 0.054628223
-0.22414577 0.34227014 -0.10307322 0.23315752 -0.96867287 0.08550062 0.04816106
-0.20425047 0.34692612 -0.10240492 0.10561824 -0.99118388 0.079996377 0.043359816
-0.19170943 0.34927601 -0.10339528 0.25479093 -0.95670605 0.14069535 0.055045411
-0.1862659 0.34342548 -0.10455107 0.15915492 -0.9793734 0.12448892 0.052656449
-0.17803338 0.34215528 -0.10130658 0.10245007 -0.98793447 0.11614423 0.052221544
-0.15341315 0.34375566 -0.10611684 0.12413574 -0.9829784 0.13543914 0.045949578
-0.14569326 0.34444132 -0.10486685 0.079279706 -0.97988307 0.18314961 0.050025161
-0.12638333 0.34535509 -0.1051324 0.015996454 -0.98456299 0.17429835 0.05441431
-0.11247927 0.3444024 -0.1063358 -0.10092381 -0.97906613 0.17675984 0.054027259
-0.10365529 0.34380278 -0.10648421 -0.025703818 -0.98554921 0.16742782 0.052032657
-0.090768151 0.34332559 -0.10392806 -0.11039225 -0.97594839 0.18798499 0.057248995
-0.062949508 0.34850144 -0.10749402 -0.18198229 -0.97629273 0.11719615 0.05721011
-0.044788092 0.34580588 -0.10122156 -0.24070986 -0.96924931 0.051133022 0.050558735
-0.18631253 0.35047939 -0.10250797 0.11047351 -0.97786695 0.17768492 0.05194395
-0.17101032 0.35247236 -0.10683399 0.05786559 -0.99144047 0.11703552 0.049158417
-0.14771655 0.35421318 -0.10534306 0.089642674 -0.98659545 0.13635856 0.055194307
-0.13448292 0.35517672 -0.10467392 0.10977257 -0.97702098 0.18270177 0.047626182
-0.12032676 0.35516506 -0.10442171 -0.065107599 -0.98526961 0.15812856 0.05573092
-0.11197181 0.35479385 -0.10319532 -0.058018804 -0.96811008 0.24371423 0.065001406
-0.10531589 0.35434356 -0.10329326 -0.059621874 -0.98377228 0.16922607 0.055289619
-0.076929763 0.35188144 -0.10339728 -0.16684809 -0.97454727 0.149731 0.05459027
-0.18977006 -0.35061377 -0.09688697 0.17388298 0.97681409 0.12489528 0.051194023
-0.16575885 -0.3543117 -0.096431151 0.13338922 0.98695391 0.090162568 0.052509509
-0.14341806 -0.35591903 -0.09543591 0.10463532 0.9865275 0.12575765 0.055046629
-0.13184428 -0.35607028 -0.099660605 0.058207855 0.99331361 0.099699043 0.056166962
-0.11212381 -0.35637727 -0.092248626 -0.077074155 0.99700868 -0.0057715103 0.04755735
-0.10882518 -0.35581756 -0.094638474 -0.10316796 0.99375856 0.042428799 0.056283489
-0.095189698 -0.35472167 -0.096045315 -0.084375896 0.99630994 0.015717261 0.048266135
