# .PCD v0.7 - Point Cloud Data file format
VERSION 0.7
FIELDS x y z normal_x normal_y normal_z curvature
SIZE 4 4 4 4 4 4 4
TYPE F F F F F F F
COUNT 1 1 1 1 1 1 1
WIDTH 581
HEIGHT 1
VIEWPOINT 0 0 0 1 0 0 0
POINTS 581
DATA ascii
0.29598317 0.04447867 -0.30773404 -0.35397083 -0.26372537 0.89730346 0.011869513
-0.46054775 0.051783442 -0.30983147 0.66664821 -0.1306427 0.73383421 0.11004955
0.13866638 0.056999315 -0.30435172 -0.77424157 -0.189602 0.60382205 0.080909044
0.29942542 0.056056019 -0.30242801 -0.26638713 -0.56517226 0.78078049 0.044522434
0.30554813 0.055251502 -0.30016795 -0.28357106 -0.55810982 0.77980822 0.056014802
-0.45897502 0.063729301 -0.30032295 0.88334 -0.17029583 0.43670326 0.079872243
0.13744134 0.066304401 -0.30239215 -0.76854265 -0.22780076 0.59787035 0.072884716
0.1696943 0.069205061 -0.30954251 -0.88184994 -0.42828673 0.19725908 0.11563498
0.17610176 0.065282293 -0.30681306 -0.79939884 -0.58635181 0.13096993 0.19261563
0.18467076 0.065282293 -0.30450785 -0.32845095 -0.87239307 0.36200869 0.20942284
0.19078942 0.065282293 -0.30028847 -0.10601887 -0.98440254 0.14039846 0.099171974
0.20543301 0.065282293 -0.30849969 -0.013718926 -0.87899411 0.47663519 0.062515609
0.21419385 0.065282293 -0.30675071 -0.028281448 -0.88531882 0.46412352 0.062544353
0.22546059 0.065282293 -0.30317599 -0.08422979 -0.94126737 0.32698777 0.066456139
0.23461553 0.065282293 -0.30336207 -0.058135845 -0.9128893 0.40404615 0.047900219
0.24663673 0.065282285 -0.30396166 0.00046082985 -0.89653403 0.44297481 0.036645975
0.25713199 0.065282293 -0.30539066 -0.078748442 -0.80284345 0.59096622 0.0432324
0.26787329 0.065282293 -0.3020193 -0.062974468 -0.8842411 0.4627654 0.048503272
0.27143976 0.065282293 -0.30793807 -0.14834166 -0.72467995 0.67292923 0.03921904
0.28560203 0.06337674 -0.30289274 -0.21735333 -0.78831488 0.57560164 0.063967951
0.29500666 0.060089782 -0.30291417 -0.22767127 -0.65043348 0.72463924 0.049823154
-0.45710826 0.077908896 -0.30862799 0.83300948 -0.21195106 0.51104993 0.068292812
0.13604021 0.076946959 -0.30311203 -0.90420967 -0.20397732 0.37523052 0.073256634
0.16913699 0.07343848 -0.30693081 -0.9053517 -0.40216652 0.13638383 0.065028772
-0.48935008 0.080894306 -0.3093341 0.97307289 -0.23046993 0.0035606076 0.0024639324
0.13401432 0.083509505 -0.30494323 -0.851161 -0.21808058 0.47745755 0.069308132
0.16789177 0.082896829 -0.30508572 -0.90119094 -0.42118877 0.10224953 0.037132531
-0.4873752 0.090402886 -0.30277982 0.95663887 -0.29111904 -0.0095792441 0.0021239624
-0.45150355 0.092455223 -0.30955228 0.72011352 -0.24650514 0.64859217 0.10483897
0.1287715 0.096166782 -0.30904379 -0.77993101 -0.30403885 0.54705393 0.086601533
0.1624295 0.099458575 -0.30983174 -0.94201839 -0.33556008 0.00091433967 0.0012410502
-0.48123857 0.10521793 -0.30229768 0.93033308 -0.36669537 0.0038468901 0.00027680863
0.12474585 0.10588556 -0.30753204 -0.71509206 -0.19573772 0.6710664 0.080786079
0.15874775 0.10834712 -0.30750188 -0.92960697 -0.36855102 -0.0010579511 0.00018870867
0.15479913 0.1178799 -0.30694246 -0.92388564 -0.38266861 -1.4815759e-05 1.5575377e-05
-0.43823692 0.12448367 -0.30253947 0.86079586 -0.33062741 0.38693142 0.07876882
0.11639227 0.12605287 -0.30648294 -0.81074202 -0.40858927 0.41922808 0.078571677
-0.46946651 0.13363823 -0.30726138 0.92385757 -0.38273636 -8.3662395e-05 0
0.10801015 0.14628907 -0.30726472 -0.79557306 -0.37961397 0.47218302 0.072199494
-0.46014249 0.15614842 -0.30384672 0.90909654 -0.41657677 0.0026789508 0.0010379674
-0.42755541 0.15027104 -0.30370626 0.76859492 -0.41083837 0.49038124 0.06793493
0.10622357 0.15060227 -0.30399403 -0.79099888 -0.38381368 0.47645342 0.064960413
-0.45523626 0.16799305 -0.30664897 0.84827 -0.52951276 0.0073624123 0.0013353473
-0.42061964 0.16074248 -0.30230796 0.75425476 -0.42733121 0.49848548 0.066575989
-0.41461521 0.16856757 -0.30524823 0.63878018 -0.43201396 0.6366505 0.075134672
0.093141817 0.1689308 -0.30865407 -0.61934078 -0.43206808 0.65554112 0.10947023
0.13572301 0.16393377 -0.30447152 -0.88728392 -0.46122259 0.00096778665 0.0016511914
-0.44775748 0.17852569 -0.30551931 0.8270058 -0.56219041 -0.0018431181 0.0012747105
-0.41211426 0.17182685 -0.3012692 0.72578335 -0.53694749 0.4300302 0.079630941
-0.40706491 0.17840727 -0.30920213 0.58868724 -0.4209469 0.69010943 0.081699803
0.085141085 0.17935754 -0.30675793 -0.63699192 -0.6210615 0.45664421 0.080466062
0.12997088 0.17408426 -0.30363357 -0.84910178 -0.52822864 0.00084353663 0.0018802945
0.13056222 0.17331359 -0.30661088 -0.85288757 -0.52208191 -0.0036536581 0.0021889624
-0.44229022 0.18565078 -0.30395216 0.80020237 -0.59972554 -0.0023386599 8.0400394e-05
-0.4038997 0.18253228 -0.30420512 0.74148184 -0.53862423 0.40011099 0.072127849
0.078106485 0.18852521 -0.30567506 -0.64793468 -0.60708761 0.46002752 0.069467224
0.081767887 0.18375359 -0.30239889 -0.68025404 -0.60415 0.41503876 0.080071554
0.11787464 0.18984838 -0.30311054 -0.79333425 -0.60878623 -1.0808876e-05 0
0.12272656 0.18352522 -0.30683884 -0.80955243 -0.58704746 -0.00048579805 0.00068536185
-0.43729818 0.19215654 -0.30735928 0.79334414 -0.60877341 2.5594312e-05 8.4358817e-06
-0.39439118 0.19492403 -0.30417728 0.66317946 -0.59811479 0.44994649 0.092736326
-0.39038828 0.2001407 -0.30168486 0.74261945 -0.60319322 0.29098839 0.055935457
-0.38382012 0.20870049 -0.30486596 0.70122313 -0.5606553 0.44039956 0.06995824
0.063923702 0.20700857 -0.3035475 -0.61491311 -0.53190225 0.58220434 0.080294311
0.10479535 0.20689365 -0.30203223 -0.79335308 -0.60876179 -2.9817078e-05 3.8306639e-06
-0.38148516 0.21174344 -0.30163777 0.75136739 -0.57519776 0.32341093 0.066137575
-0.37423158 0.21943697 -0.30388296 0.6737082 -0.61781639 0.4054876 0.091043949
0.059610367 0.21262982 -0.30691966 -0.61056715 -0.59355009 0.52431488 0.088042036
0.097311221 0.21664718 -0.30501562 -0.79336387 -0.60874778 -8.6818669e-05 1.1280249e-05
0.10134955 0.21138433 -0.30428344 -0.7933597 -0.60875314 -1.9357913e-05 0
-0.41539311 0.22070381 -0.30336487 0.79331744 -0.6088081 -3.0969029e-05 0
-0.37301266 0.22037226 -0.30060193 0.66578841 -0.66574621 0.33690888 0.076974906
-0.36615101 0.22563744 -0.30765635 0.47312406 -0.6920166 0.54522169 0.069813862
0.039812908 0.22958413 -0.30768883 -0.57632208 -0.65578628 0.48764458 0.095950343
0.088811457 0.22772428 -0.30390298 -0.77341127 -0.63389969 0.0024706405 0.00057892059
0.090059467 0.22609785 -0.30537188 -0.77623177 -0.63044411 0.0020975356 0.0005057138
-0.35605633 0.23338334 -0.30632332 0.4330101 -0.62371695 0.6507529 0.078156717
0.026390947 0.23988315 -0.30469972 -0.45645547 -0.7687757 0.44792005 0.1009292
0.034030147 0.2340214 -0.30440584 -0.62225485 -0.74340165 0.24526085 0.062142387
0.084745213 0.23302349 -0.30531701 -0.75494272 -0.65575105 0.0072097033 0.0016190631
-0.39267856 0.24606557 -0.30861372 0.62995183 -0.77657896 -0.0092714168 0.00052988454
-0.3372767 0.24779347 -0.30415666 0.50984776 -0.76840001 0.38680315 0.064748473
0.02447835 0.24135076 -0.30387574 -0.45646977 -0.76881605 0.44783625 0.10093636
0.070711397 0.24665834 -0.30346096 -0.66812992 -0.74403059 -0.0045679212 0.0014740365
-0.38694906 0.250462 -0.30933073 0.61298203 -0.79009557 0.0013877217 1.0088652e-05
-0.37521011 0.25946957 -0.30086982 0.608944 -0.79321325 0.00013960381 0
-0.33247003 0.25148174 -0.3026363 0.56140459 -0.75200307 0.34542167 0.060561094
-0.32589975 0.25652331 -0.30831257 0.44329965 -0.73076165 0.5191077 0.069776505
0.0083084386 0.25375837 -0.30844578 -0.52387327 -0.70551705 0.47728661 0.090578385
0.055764124 0.25812778 -0.30146348 -0.60875976 -0.79335469 5.0072445e-05 0
-0.36537382 0.26701722 -0.3090992 0.60879803 -0.79332519 5.6993835e-05 0
-0.31142023 0.26672953 -0.30198523 0.50698167 -0.80320656 0.31277591 0.043611269
-0.30874181 0.26783898 -0.30154645 0.46964955 -0.80111909 0.37099546 0.048711799
-0.016195027 0.26938903 -0.30545384 -0.36906499 -0.8274883 0.42314789 0.072181061
-0.0096518621 0.26667878 -0.30988181 -0.36413854 -0.82267219 0.43659306 0.098531
0.041543875 0.26903933 -0.3038044 -0.6087516 -0.79336083 6.4205844e-05 0
-0.35165435 0.2775445 -0.30764517 0.60870367 -0.79339767 -4.8328191e-05 2.2373852e-05
-0.29149899 0.27498117 -0.30609369 0.32717678 -0.86695093 0.37596729 0.056329522
-0.28997624 0.27561191 -0.30808794 0.31540197 -0.85835612 0.40465593 0.058125742
-0.040729806 0.27955166 -0.30512765 -0.36195451 -0.74083215 0.56582385 0.078921504
-0.022464612 0.27198598 -0.30531806 -0.29359376 -0.83111519 0.47228208 0.1067112
0.037336696 0.27226764 -0.30737269 -0.60879874 -0.79332465 -3.1207095e-05 2.3411756e-05
-0.33949074 0.28687799 -0.30762067 0.55200243 -0.83379507 -0.0088949716 0.0015693188
-0.27543655 0.28163442 -0.3013466 0.29374337 -0.86616868 0.40431011 0.085014202
-0.25658149 0.28944445 -0.30590135 0.37728032 -0.8209092 0.42868134 0.068785451
-0.063442454 0.28895956 -0.30727509 -0.29870734 -0.69291103 0.65623796 0.079890445
0.016128119 0.28854153 -0.30263093 -0.53617799 -0.8440572 -0.0089772586 0.002374531
-0.33329076 0.29163539 -0.30407932 0.52291071 -0.85234368 -0.0086360117 0.0023755764
-0.32127622 0.29766852 -0.30080152 0.43368468 -0.90104347 0.0061875684 0.0013679279
-0.31848741 0.29882371 -0.30730188 0.42045477 -0.90731066 0.0022443642 0.00084513408
-0.25113213 0.29170167 -0.30467564 0.28836268 -0.7215482 0.62945634 0.072546013
-0.24604836 0.29380742 -0.30576158 0.25215298 -0.780222 0.57242686 0.10861777
-0.23898847 0.2964474 -0.30665904 0.19026759 -0.73159307 0.65465254 0.093245238
-0.22516637 0.29826713 -0.30510297 0.047875319 -0.76615518 0.64086998 0.070950128
-0.10113993 0.29894012 -0.30741531 -0.21366501 -0.83194697 0.51206589 0.078287348
-0.093913816 0.29798874 -0.30342948 -0.16203825 -0.86911106 0.46732172 0.075389817
-0.085948557 0.29694015 -0.30863535 -0.17692959 -0.77636337 0.60494292 0.073590361
-0.070569433 0.29191163 -0.30775934 -0.24960406 -0.79905689 0.54699719 0.078970999
0.0063965097 0.29505277 -0.30315658 -0.4812147 -0.87659085 -0.0045727827 0.0021565855
-0.31387916 0.30073249 -0.30617723 0.40992585 -0.91211373 0.0030544919 0.00067566714
-0.30819488 0.303087 -0.30442607 0.39091045 -0.92042643 -0.0020573465 0.00015026062
-0.295019 0.30854464 -0.30713421 0.38276401 -0.92384613 9.283585e-05 0
-0.21108067 0.30012155 -0.30615807 0.038580082 -0.68170553 0.73060876 0.075018898
-0.20363003 0.30110246 -0.3040418 0.12102877 -0.64409196 0.75531292 0.080080532
-0.192514 0.30256587 -0.30101416 0.15797476 -0.81557983 0.5566628 0.090268902
-0.18361388 0.30373761 -0.30430254 0.094810389 -0.77910644 0.61968064 0.059506465
-0.17623001 0.30470973 -0.30641228 0.017812116 -0.77269965 0.63452178 0.069735415
-0.15990742 0.30667695 -0.30383697 -0.0063960925 -0.92577088 0.37803087 0.059472006
-0.14154369 0.30425933 -0.30531627 -0.061142195 -0.92714459 0.36968169 0.04945413
-0.13326246 0.30316907 -0.30151042 -0.087010957 -0.94897747 0.30310211 0.050209362
-0.12362574 0.30190039 -0.30374983 -0.079910785 -0.94725442 0.31035984 0.057104278
-0.11932059 0.30133361 -0.30605504 -0.13326763 -0.94173163 0.30883855 0.051515661
-0.023423923 0.30740482 -0.30181623 -0.38268927 -0.92387712 1.9730344e-06 0
-0.012169571 0.30274311 -0.30608073 -0.38313958 -0.9236905 -4.9034988e-05 3.6610596e-05
-0.0079515548 0.30099598 -0.30883795 -0.39911556 -0.91690063 -0.00016573275 0.00047738821
-0.28495944 0.31271145 -0.30432951 0.38280609 -0.92382872 2.7583434e-05 0
-0.27637911 0.31626555 -0.3019639 0.38260239 -0.92391306 2.0853535e-05 5.8302153e-06
-0.052355357 0.31938863 -0.30925554 -0.3745555 -0.92720312 0.0015672519 6.8265494e-05
-0.035487428 0.31240171 -0.3042559 -0.38268423 -0.92387921 -3.1817806e-05 6.4834617e-06
-0.26369357 0.32152003 -0.30236268 0.34923112 -0.93701327 0.0066100694 0.00055474899
-0.24180016 0.32871211 -0.30140731 0.22611193 -0.97394997 -0.017168717 0.0021160326
-0.23803638 0.32920763 -0.30268708 0.1988036 -0.97977507 -0.022757636 0.0018999379
-0.083117343 0.3292022 -0.30559283 -0.20306538 -0.97916317 -0.0020083135 0.0019510461
-0.07620582 0.32829228 -0.30338758 -0.23157899 -0.97280526 -0.004592746 0.0025415637
-0.069349766 0.32642794 -0.3048231 -0.27566212 -0.96125323 -0.0016038448 0.0021886057
-0.055471964 0.32067958 -0.30339473 -0.35384378 -0.93530202 0.0021612726 0.0007701104
-0.22812723 0.33051217 -0.30096596 0.14490479 -0.989443 0.0022556393 0.00019770216
-0.2070068 0.33329275 -0.30486813 0.13046935 -0.99145228 4.146502e-05 0
-0.19240184 0.33521551 -0.30812755 0.13055149 -0.99144149 -1.1971434e-05 0
-0.18244493 0.33652639 -0.306999 0.11858773 -0.99294317 -0.00096675893 0.00020021113
-0.15141845 0.33819425 -0.30787221 -0.083173379 -0.99649149 -0.0093257409 0.0012895514
-0.14845544 0.33780417 -0.30470651 -0.088982724 -0.99602538 -0.0039363452 0.001124975
-0.10477293 0.33205321 -0.30541703 -0.13054442 -0.99144244 -7.6261667e-06 1.8182756e-05
-0.094922639 0.33075643 -0.30800039 -0.14049049 -0.99008191 0.00040300528 8.5338703e-05
-0.20927015 -0.33299476 -0.29128808 0.13058195 0.99143749 -1.8904664e-05 0
-0.19740996 -0.33455619 -0.29397941 0.13057053 0.99143898 9.0482106e-05 0
-0.18523495 -0.33615905 -0.29139394 0.12355989 0.99233711 -0.00014778008 5.7015197e-05
-0.17805904 -0.33710378 -0.29451948 0.11476989 0.99339199 -0.00041445371 0.00013307788
-0.16224757 -0.33918542 -0.29352999 0.024217576 0.99969637 -0.0045541441 0.0022448965
-0.15555394 -0.33873868 -0.2970534 -0.054506201 0.99841577 0.01396743 0.0022617991
-0.13080819 -0.33548087 -0.29264647 -0.1305016 0.9914481 -2.6167536e-05 0
-0.11406957 -0.33327717 -0.29589069 -0.13051717 0.99144602 -1.0405203e-06 0
-0.10396453 -0.33194682 -0.29510489 -0.13050765 0.99144727 2.3927078e-05 0
-0.26345226 -0.32162002 -0.29170161 0.34654555 0.93803316 1.0376197e-05 0.00098485767
-0.25760978 -0.32404006 -0.29606563 0.32545462 0.94554973 -0.0038743904 0.0017496846
-0.24786094 -0.32791418 -0.29019779 0.26413038 0.96448368 -0.002521581 0.0019960233
-0.23516579 -0.32958555 -0.29363889 0.17711625 0.9841882 0.0018535209 0.0015466593
-0.082688086 -0.32914573 -0.29245496 -0.19858533 0.98004526 -0.0086709931 0.001307874
-0.07005839 -0.32672143 -0.29956138 -0.30346623 0.95284152 -0.0011756998 0.0020605808
-0.061000578 -0.32296959 -0.29702979 -0.33930996 0.9406746 0.0003020904 0.0010309577
-0.058293287 -0.32184821 -0.2952829 -0.34664297 0.93798792 -0.004167045 0.001013883
-0.2906222 -0.31036589 -0.29767025 0.38274243 0.92385507 -4.6289064e-05 5.2431787e-05
-0.28350249 -0.31331491 -0.29383072 0.38276148 0.9238472 5.8195092e-05 0
-0.27833697 -0.31545454 -0.29284358 0.38267055 0.92388487 0.00016509532 0
-0.048724134 -0.31788453 -0.29171038 -0.38267875 0.92388147 1.4769864e-05 0
-0.038463295 -0.31363434 -0.29197168 -0.38268352 0.9238795 3.3259072e-05 0
-0.31284723 -0.30115992 -0.29308224 0.41054508 0.91183859 0.0017457312 0.00071425154
-0.30733794 -0.30344197 -0.2947073 0.38662791 0.92223465 0.0015012956 4.3157637e-05
-0.29747403 -0.30752775 -0.29089692 0.38269424 0.92387503 4.1415944e-05 1.9027148e-05
-0.20690006 -0.30067194 -0.29664147 0.16227278 0.93668705 0.31029803 0.057207409
-0.19763041 -0.30189231 -0.29976821 0.1302018 0.92299581 0.36211362 0.074777968
-0.18667614 -0.30333447 -0.29626772 0.090752162 0.96448278 0.24806662 0.05324899
-0.16767263 -0.30583632 -0.2988317 0.068784177 0.94236046 0.32745311 0.05241701
-0.15764755 -0.30637944 -0.29882756 0.021654524 0.96345019 0.26701069 0.047181789
-0.14300212 -0.30445135 -0.29467151 -0.072309375 0.97561777 0.20722283 0.042008176
-0.12601262 -0.30221465 -0.29497153 -0.10403105 0.97373515 0.20252754 0.052309379
-0.11503357 -0.30076921 -0.2920931 -0.10929463 0.98829889 0.10639501 0.027896844
-0.10953721 -0.30004561 -0.29072294 -0.12180866 0.9914633 0.046509467 0.0036905182
-0.027255675 -0.308992 -0.29411104 -0.38269809 0.92387342 7.191768e-06 1.5628251e-05
-0.015159115 -0.30398142 -0.29418081 -0.38293651 0.92377466 -8.9367044e-05 9.573866e-06
-0.0083070248 -0.3011432 -0.29186404 -0.40182447 0.91571581 -0.0012861917 0.00040311457
-0.33195442 -0.29266083 -0.2975328 0.48962405 0.87192792 -0.0031649256 0.0015332389
-0.32518131 -0.296051 -0.29001597 0.47025809 0.88252008 -0.0039602877 0.0017308815
-0.31724581 -0.29933801 -0.29102081 0.41547909 0.90960222 -0.00093462202 0.00083535712
-0.25019228 -0.29209098 -0.29738936 0.27222493 0.92509371 0.26475486 0.056741036
-0.24330293 -0.29494464 -0.29369968 0.21860349 0.95222044 0.21328069 0.043376487
-0.23780994 -0.29660258 -0.29046544 0.19831081 0.96508235 0.17113967 0.035389848
-0.22930852 -0.2977218 -0.29317763 0.10746357 0.95013356 0.29274178 0.051070094
-0.10573463 -0.29954499 -0.29130876 -0.17608996 0.97949493 0.097887062 0.020122306
-0.084575534 -0.29675934 -0.2965093 -0.29579073 0.91629344 0.27002612 0.041804362
-0.072768599 -0.29282257 -0.29428041 -0.32122007 0.91137302 0.25732633 0.065759338
-0.069540709 -0.29148552 -0.29769942 -0.29601336 0.90947479 0.29194456 0.060342409
-0.001505397 -0.2983259 -0.29699987 -0.44042867 0.89778674 0.001241719 0.001553577
0.0018280121 -0.29694515 -0.29932943 -0.47086674 0.88219112 -0.0048427195 0.001767861
-0.34446967 -0.28305757 -0.29739985 0.59427452 0.80426192 -0.00076089584 0.00052150205
-0.33871111 -0.28747627 -0.29921794 0.54640132 0.83748454 -0.0080709495 0.0019057626
-0.27666113 -0.28112721 -0.29716527 0.40264237 0.89016932 0.21325502 0.034601789
-0.26742262 -0.28495389 -0.29021007 0.43526587 0.89097357 0.12926607 0.024680508
-0.061564874 -0.28818184 -0.29738057 -0.29723603 0.913791 0.27683324 0.050319809
-0.05635811 -0.28602514 -0.29581261 -0.31292421 0.91513592 0.25417465 0.035435583
0.019638387 -0.28584802 -0.29295176 -0.56153232 0.82744414 0.0042148237 0.00093958224
0.021438135 -0.28446704 -0.29350537 -0.56678206 0.8238678 -4.342994e-05 0.00094918261
-0.35658011 -0.27376488 -0.29726842 0.60872447 0.79338169 6.8625544e-05 7.0675032e-06
-0.29707158 -0.27267295 -0.29815441 0.4027032 0.88247752 0.24302985 0.040997457
-0.28390977 -0.27812472 -0.29641858 0.36815232 0.90714258 0.20385315 0.032183494
-0.041304857 -0.27978987 -0.29129803 -0.3598032 0.92053002 0.15220436 0.029788351
-0.020446183 -0.27114993 -0.29858673 -0.44283479 0.83871776 0.31693828 0.063179076
0.034528576 -0.27442241 -0.29397753 -0.60877281 0.79334462 -1.7094213e-05 1.423857e-05
-0.37234357 -0.26166913 -0.29710364 0.60878056 0.79333872 -2.576901e-05 8.7031214e-05
-0.36553815 -0.26689109 -0.29417717 0.60880411 0.79332066 8.602607e-05 0
-0.31724811 -0.26316199 -0.29695618 0.55765313 0.7750417 0.29720914 0.067735851
-0.30580276 -0.26905635 -0.29762077 0.3802529 0.90089756 0.20926385 0.036813777
-0.017473239 -0.26991847 -0.29442549 -0.4657298 0.86880261 0.1681601 0.025769765
-0.0063056326 -0.26497215 -0.29085284 -0.51206958 0.84802157 0.13654356 0.024304247
0.043592505 -0.26746741 -0.29054222 -0.60876393 0.79335141 2.1472772e-05 0
0.052364204 -0.26073664 -0.29636404 -0.60878658 0.79333395 -8.051133e-05 1.8541319e-05
-0.380247 -0.25560462 -0.29354221 0.60878766 0.79333311 5.6768367e-06 8.0611193e-05
-0.37748727 -0.25772223 -0.29160812 0.60872567 0.7933808 -2.9680405e-05 7.9861311e-05
-0.33329615 -0.25084785 -0.29574019 0.66055822 0.6725055 0.3337653 0.073675029
-0.32394189 -0.25802565 -0.29458195 0.57969236 0.78488135 0.21890201 0.04885719
0.0062701628 -0.25532243 -0.29634926 -0.54230714 0.81213462 0.2152677 0.043025404
0.012087601 -0.25085852 -0.29058355 -0.61080545 0.79157746 0.01794387 0.00066758448
0.06128167 -0.25389403 -0.29382354 -0.61965287 0.78487593 -0.00047441627 0.00014636708
-0.39779994 -0.24213576 -0.29625458 0.68357158 0.72924471 -0.030528456 0.002045607
-0.3375127 -0.24761236 -0.2991617 0.56657559 0.66658348 0.48441565 0.083761916
0.021864055 -0.24335678 -0.29539376 -0.58950257 0.77538878 0.22640428 0.06476099
-0.40387127 -0.23571937 -0.29788229 0.74536622 0.66659647 -0.0088530835 0.0015548257
-0.35815126 -0.23177586 -0.29358646 0.58411109 0.78043151 0.22302656 0.037779085
0.031548098 -0.23592594 -0.29252279 -0.61821932 0.77252746 0.14493547 0.033637613
0.08091858 -0.23801048 -0.29769844 -0.7251845 0.68855417 0.00073457684 0.002578364
-0.41221225 -0.22484913 -0.2954573 0.78097624 0.62455362 0.0029863713 0.0002097004
-0.37326348 -0.22017983 -0.29244414 0.63714314 0.7516287 0.17059553 0.029479763
-0.36320049 -0.22790146 -0.2940214 0.6030587 0.76639432 0.22126903 0.038282879
0.03966359 -0.2296987 -0.29330969 -0.62220478 0.7781623 0.085583702 0.0096500479
0.089907616 -0.22629574 -0.29245675 -0.78487873 0.61955816 -0.010630384 0.00031274825
0.06036349 -0.21164834 -0.29066229 -0.74854839 0.66051954 0.05821684 0.0076987892
0.097868167 -0.21592133 -0.29309955 -0.7933628 0.60874915 -6.2225103e-05 1.2951336e-05
-0.43007147 -0.20157453 -0.29309434 0.79334003 0.60877872 -5.9290078e-06 2.7662156e-05
-0.38432217 -0.20804621 -0.29484943 0.75049257 0.63504642 0.18296702 0.02119397
0.063039675 -0.20816067 -0.29639065 -0.73561406 0.65682107 0.16570468 0.043011695
0.10559861 -0.20584679 -0.29380298 -0.7933591 0.60875386 -1.5078876e-05 1.1728069e-05
-0.43609369 -0.19372623 -0.29811862 0.79333383 0.60878688 -3.4587977e-06 0
-0.39639166 -0.19231695 -0.29729077 0.72669429 0.62221575 0.29114065 0.052609973
0.07536865 -0.19209324 -0.29296803 -0.78635991 0.60901004 0.10365731 0.016030613
0.11500001 -0.19359468 -0.29618022 -0.79334235 0.60877568 4.9855367e-05 0
-0.4434458 -0.18414482 -0.29012263 0.81117445 0.58477986 -0.005346383 0.00072516681
-0.4395732 -0.18919167 -0.29522324 0.79521966 0.60632122 -0.00044971591 2.7898506e-05
-0.40068689 -0.1867193 -0.29065794 0.73331118 0.65746695 0.17318155 0.021168154
0.07730788 -0.18956599 -0.29104787 -0.80163324 0.59268236 0.078177296 0.011307364
0.12088373 -0.18592685 -0.29201335 -0.80244678 0.59671569 -0.0030725624 0.0002557933
-0.45404333 -0.17033388 -0.29144844 0.84542435 0.53402358 0.0087513253 0.0016466792
-0.41315776 -0.17046693 -0.2985045 0.75345671 0.57187027 0.32444945 0.045460965
0.091641143 -0.17088652 -0.29103231 -0.80126911 0.50853562 0.31521291 0.027896792
0.12947053 -0.17473629 -0.29561937 -0.83545917 0.54947603 -0.0091654873 0.001634323
-0.4178336 -0.16437326 -0.29394126 0.81479925 0.55198616 0.17723872 0.018845299
0.13487363 -0.16598433 -0.29656979 -0.88359338 0.468243 0.0033288721 0.0019271177
-0.42331094 -0.15723506 -0.29416648 0.83291936 0.50225985 0.23233679 0.030465001
-0.46652097 -0.14074938 -0.29227722 0.92387289 0.3826994 -0.00015900309 0.00011261426
-0.42777088 -0.14975093 -0.29657987 0.85193086 0.45725346 0.25521183 0.034035277
0.10899006 -0.14392339 -0.29547143 -0.86870044 0.45820031 0.18818091 0.035193689
0.1441557 -0.14357544 -0.2961598 -0.92386913 0.38270849 4.3023965e-06 1.9245029e-07
-0.46874291 -0.13538513 -0.29610574 0.92383528 0.3827903 8.2954633e-05 2.319261e-05
0.14852776 -0.13302037 -0.29664439 -0.92387885 0.38268512 3.2719876e-05 0
-0.47285193 -0.12546507 -0.29526776 0.92384791 0.38275978 5.7932975e-05 0
-0.43775842 -0.12563887 -0.29356015 0.89989752 0.40603894 0.15911284 0.034118436
0.11476381 -0.12998432 -0.29786634 -0.89505202 0.39984739 0.19749403 0.04219098
0.15253949 -0.1233352 -0.29946718 -0.9238767 0.38269037 2.0197409e-05 5.9589047e-06
-0.44371885 -0.11124909 -0.29840931 0.91260982 0.34421504 0.22058854 0.039053082
0.11919355 -0.11928995 -0.2961463 -0.88416761 0.38931745 0.2582238 0.075266846
0.12009655 -0.11710994 -0.29220104 -0.9055385 0.38681898 0.17427291 0.048682023
0.15592369 -0.11516503 -0.29810297 -0.92387241 0.38270077 -4.3285881e-06 0
-0.48273057 -0.101616 -0.2963025 0.93377769 0.35783255 -0.0038972509 0.00075436395
-0.44574496 -0.1063576 -0.29365569 0.93096292 0.3365235 0.14163318 0.023219245
0.12342671 -0.10907023 -0.2965278 -0.86652136 0.41537279 0.27677843 0.077156931
0.15933685 -0.10692487 -0.29082403 -0.92822134 0.37201372 -0.0032995625 0.00023766868
0.16135591 -0.10205048 -0.29725632 -0.94108891 0.33815908 0.00022101554 0.0011774985
-0.4859623 -0.093813866 -0.29185963 0.95762414 0.2880159 -0.0017071224 0.0021714983
-0.45070142 -0.094391719 -0.29606664 0.92442101 0.323605 0.2018057 0.040420435
-0.44904047 -0.098401621 -0.29306069 0.92734015 0.33964214 0.15710972 0.026796302
0.16233191 -0.099694222 -0.29497337 -0.94323206 0.332095 0.0051156855 0.0013370106
-0.48862711 -0.086385779 -0.29208735 0.96635151 0.25719765 0.0037601581 0.0031967994
-0.45597702 -0.08165516 -0.29688138 0.93688095 0.29247916 0.19159871 0.035657097
0.13264948 -0.086804479 -0.29991212 -0.93462086 0.24409659 0.25865188 0.062374018
-0.49057126 -0.071618803 -0.29157585 0.98736608 0.15834388 -0.0059541822 0.0010326952
-0.48949465 -0.079796314 -0.29476383 0.97860742 0.20573549 0.00060948863 0.0023059696
-0.45750776 -0.074874274 -0.2956945 0.94665402 0.24724247 0.20668183 0.035615996
0.13647446 -0.073648587 -0.29352283 -0.97737956 0.066614471 0.20072807 0.032989129
0.16911246 -0.073624894 -0.29578456 -0.93193853 0.35966438 -0.046174824 0.083843336
-0.49115306 -0.067199208 -0.29558095 0.9903391 0.13866639 -0.0003448785 0.00037544404
-0.45878994 -0.06513501 -0.29631579 0.93782347 0.23909974 0.2516315 0.064135276
0.13774423 -0.064003587 -0.29262269 -0.9752214 0.15463057 0.15821715 0.034768209
0.16966161 -0.069453709 -0.29241347 -0.96666694 0.22517297 -0.12186892 0.090047441
0.17129262 -0.064992473 -0.29262224 -0.98197436 0.11419392 -0.15061937 0.13471141
0.19069026 -0.065257199 -0.29751423 -0.029828992 0.98206264 0.18618056 0.091147281
0.20598388 -0.065257199 -0.29745111 -0.01109336 0.98242539 0.18632546 0.073654354
0.21648321 -0.065257199 -0.29642898 -0.030948808 0.99555838 0.088914357 0.037141684
0.22991326 -0.065257199 -0.29304159 -0.039646685 0.99748886 -0.058686651 0.046141583
0.2358193 -0.065257199 -0.29490843 0.0054466105 0.99932939 -0.036210001 0.040982373
0.2421997 -0.065257199 -0.29234713 0.052882295 0.99487668 -0.086161889 0.057970759
0.25689378 -0.065257199 -0.29611 -0.024175217 0.99710977 0.072025746 0.043382794
0.29214516 -0.065257199 -0.29434922 -0.16660887 0.84658372 0.50550717 0.049050294
0.30191869 -0.065013543 -0.29636037 -0.24455129 0.73926926 0.62743562 0.055865727
0.31444567 -0.065257199 -0.29048762 -0.16340955 0.88602787 0.43388012 0.05475042
0.32007912 -0.062224954 -0.29187384 -0.28923133 0.60780382 0.73954028 0.038781833
-0.4925915 -0.056273185 -0.29841962 0.99144369 0.13053539 7.4496624e-05 8.4251596e-06
-0.46008602 -0.055290237 -0.29676032 0.98942912 0.076878853 0.12296221 0.017592965
0.17128766 -0.05710255 -0.29078138 -0.99298263 0.084529139 -0.08270622 0.12619247
0.31940207 -0.058222756 -0.29347292 -0.27259579 0.55766302 0.78403032 0.038194668
0.32755202 -0.051918197 -0.29219544 -0.40437755 0.37482616 0.83425671 0.021151874
0.33118692 -0.053339075 -0.29022947 -0.42937365 0.44016954 0.78859943 0.023434075
-0.49410722 -0.044760328 -0.29627669 0.99144262 0.13054305 -0.00010684009 3.9580715e-05
0.32837117 -0.048578769 -0.29295957 -0.40062812 0.37650332 0.83530968 0.023853393
0.33660287 -0.041994728 -0.29174468 -0.47396597 0.20489806 0.85637206 0.008538954
-0.46277025 -0.034901489 -0.29174221 0.97918046 0.093978509 0.17992698 0.031671349
0.17381859 -0.037877966 -0.29201627 -0.98908436 0.13304645 -0.063330464 0.021126434
0.3280189 -0.036429327 -0.29624355 -0.39094338 0.11642808 0.91302115 0.0033773822
0.34009001 -0.033912599 -0.29125029 -0.4732174 0.11053178 0.87398404 0.0051714922
-0.49676543 -0.024569131 -0.2912381 0.99143773 0.13058035 -0.00021237312 0.00018502449
-0.46389169 -0.026383318 -0.29221776 0.97406614 0.12678573 0.18740506 0.030214004
0.17557918 -0.024505034 -0.29429221 -0.99234247 0.12242836 -0.016360307 0.011938755
0.31974876 -0.020238589 -0.29967591 -0.38597217 0.013802269 0.92240715 0.00022921385
0.32496822 -0.023356335 -0.29751393 -0.39735341 0.059544422 0.91573185 0.0012377747
-0.46555305 -0.013764165 -0.29543746 0.93596333 0.20100445 0.28908473 0.05043162
0.14392826 -0.017031362 -0.2976577 -0.94252825 0.12570725 0.30957764 0.067747705
0.17745155 -0.010283165 -0.29413563 -0.99731469 0.068078622 -0.026996246 0.0061634472
0.3265149 -0.015307237 -0.29687327 -0.40632105 -0.0041236617 0.91372108 0.0005472342
0.33825451 -0.012208184 -0.29201058 -0.44840714 -0.003692711 0.89382184 0.0020963601
-0.49879092 -0.0091838632 -0.2938332 0.99859375 0.053011149 0.00057547103 0.0019892771
-0.4665716 -0.0060271714 -0.29556617 0.9595719 0.12627399 0.25154835 0.049222589
0.14609808 -0.0005499486 -0.29805648 -0.95001823 0.029890928 0.31076029 0.066554725
0.17837858 -0.0032414931 -0.29575267 -0.99771976 0.014071605 -0.066009596 0.024043407
0.32968444 -0.0078957994 -0.29556042 -0.41148433 -0.0073440406 0.91138726 0.00051461608
0.33337793 -0.0079887491 -0.29403052 -0.43238544 -0.0065094191 0.90166539 0.0010580807
-0.46687081 0.0037547036 -0.29900974 0.95050251 -0.007634942 0.31062296 0.071779534
0.14553246 0.0048461957 -0.2970458 -0.96189314 -0.063992456 0.26583198 0.052516535
0.17784128 0.0073228395 -0.29753637 -0.99046755 -0.065143034 -0.12136918 0.035858519
0.14454621 0.012337555 -0.29660282 -0.95057398 -0.11010095 0.29032198 0.061172824
0.17675993 0.015536552 -0.29429021 -0.99489033 -0.098627284 -0.021583615 0.029942978
0.31949162 0.017777903 -0.2997824 -0.38746044 -0.011999102 0.92180824 0.00027061536
0.32257855 0.015713992 -0.29850376 -0.39072549 0.00025668842 0.92050713 0.00010041868
-0.46407688 0.02497673 -0.29680744 0.95924008 -0.080016129 0.27102748 0.069458626
0.32482025 0.025191177 -0.29757521 -0.39473343 -0.065073803 0.91648841 0.0022821312
0.33005518 0.024622783 -0.29540685 -0.41662148 -0.069513649 0.9064185 0.0020803555
-0.46313593 0.032124057 -0.29746437 0.94888759 -0.21165922 0.23412108 0.056820784
0.14201286 0.031580273 -0.29886559 -0.92550731 -0.12043077 0.35907182 0.08291807
0.32287014 0.0363601 -0.29838297 -0.38800791 -0.15207317 0.90902346 0.0022652063
0.33480808 0.033288904 -0.29343814 -0.45455393 -0.13913077 0.87978601 0.0038417673
-0.49468434 0.040376384 -0.29768068 0.99144775 -0.13050473 -2.1136832e-06 0
0.14055941 0.042620257 -0.29535741 -0.95474786 -0.1293337 0.26782343 0.067116745
0.31335413 0.047446951 -0.29953933 -0.38129354 -0.29473108 0.87621278 0.012070017
0.3266882 0.045707449 -0.29461378 -0.37343898 -0.28235042 0.88364112 0.011729413
-0.45996112 0.056239039 -0.2937364 0.9622547 -0.14928487 0.22755213 0.047010079
0.13878132 0.056126207 -0.29494196 -0.96867913 -0.1253842 0.21433496 0.045910124
0.17181984 0.053068019 -0.29151553 -0.99735123 0.071634583 0.012608097 0.10199378
0.3165729 0.055413768 -0.29557317 -0.34771454 -0.64580977 0.67972362 0.058322374
0.32393214 0.053763308 -0.29308617 -0.40194154 -0.5715332 0.715397 0.07132262
0.33100331 0.053877648 -0.29013574 -0.39946654 -0.48918295 0.77532363 0.034347959
-0.49107572 0.06778647 -0.29689452 0.99061877 -0.1366469 0.0014481941 0
0.18660399 0.065282293 -0.29627714 -0.20546493 -0.97093827 0.12273182 0.1193498
0.19102027 0.065282293 -0.29302812 -0.0087525062 -0.99840224 0.055824313 0.07666748
0.20878488 0.065282293 -0.29396063 -0.011607916 -0.99559528 -0.093034349 0.043009304
0.21954042 0.065282293 -0.29806775 -0.0080330642 -0.99918151 0.039647382 0.029754505
0.22664936 0.065282293 -0.29797694 -0.0073702745 -0.99573201 0.091996409 0.041859511
0.2326798 0.065282293 -0.29732415 -0.056313206 -0.9950065 0.082406722 0.021715153
0.26250961 0.065282293 -0.29359046 0.064968795 -0.99619812 0.058038231 0.033504866
0.27486074 0.065282293 -0.29445529 -0.14107904 -0.93609798 0.32220691 0.037117381
0.28035825 0.0652823 -0.29774374 -0.22542518 -0.8601861 0.4574531 0.049733821
0.29588169 0.0652823 -0.29791516 -0.19835298 -0.8745842 0.44244602 0.059049744
0.31651926 0.062398825 -0.29329115 -0.26970595 -0.81740963 0.50901884 0.060300138
-0.48987406 0.076914184 -0.29724723 0.9842909 -0.1765513 -0.00097948825 0.00083494064
0.13578297 0.078900836 -0.29138738 -0.96260589 -0.22796339 0.14636448 0.031968929
0.13315728 0.085578546 -0.2938216 -0.94045144 -0.22211565 0.25732413 0.05181421
0.16736421 0.086904034 -0.2921561 -0.93956494 -0.34185672 -0.018753676 0.014098088
-0.45106182 0.093521617 -0.29826006 0.8743062 -0.42200786 0.23978743 0.049427692
0.12759316 0.099011511 -0.2924377 -0.91154557 -0.39016384 0.1298344 0.034290086
0.13123351 0.090222947 -0.29524928 -0.85250789 -0.28684869 0.4369759 0.089712352
-0.44455737 0.10922471 -0.29887027 0.87493384 -0.34908506 0.33560467 0.050243203
0.12445863 0.10657896 -0.29531726 -0.89841253 -0.41444182 0.14523381 0.027041588
0.15949701 0.10653825 -0.29417783 -0.93079436 -0.36554176 -0.0010634138 0.00016500374
-0.47516671 0.11987665 -0.29888222 0.92387843 -0.38268602 -4.7873615e-05 0
0.12227456 0.11185175 -0.29449821 -0.90436637 -0.39889553 0.15166989 0.027374558
0.15769209 0.11089568 -0.29536539 -0.92717719 -0.37461209 -0.002883292 8.3428313e-05
-0.4376418 0.1259204 -0.297115 0.90733075 -0.3590813 0.21865834 0.035116851
0.11810693 0.12191331 -0.2912136 -0.91382396 -0.38279372 0.13562737 0.023777071
0.15380129 0.12028889 -0.29410523 -0.92388099 -0.38267988 8.0604732e-06 1.6075129e-06
-0.43473902 0.13292827 -0.2940872 0.92770368 -0.32554093 0.18272644 0.032399025
0.11252761 0.13538297 -0.29687065 -0.90267909 -0.25253409 0.34842086 0.065509811
0.14581138 0.13957822 -0.29959553 -0.92387474 -0.38269508 4.1465528e-06 0
-0.46564648 0.14286059 -0.2914418 0.92386407 -0.38272086 -1.7054534e-05 0
-0.43017012 0.14395854 -0.29206061 0.90077031 -0.40718561 0.15103884 0.029381782
0.14527403 0.14087555 -0.29397768 -0.92387205 -0.38270137 4.8957681e-05 0
-0.42529672 0.1542832 -0.29549664 0.82951444 -0.50051898 0.24776284 0.055177893
0.10367205 0.15520751 -0.2904146 -0.85504651 -0.51795501 0.02486065 0.0044011665
0.13839212 0.15748993 -0.29738468 -0.90721905 -0.42065805 0.00054729037 0.00075292232
0.14054166 0.15230049 -0.29415786 -0.9143405 -0.40494594 -0.00048161106 0.0003620183
-0.45617437 0.16572818 -0.29949033 0.87048066 -0.49220267 0.00019698421 0.0023905651
-0.41852796 0.16346838 -0.29371977 0.82967526 -0.52014357 0.20270586 0.03349217
0.094462313 0.16720991 -0.29504633 -0.80745131 -0.56385863 0.17345275 0.037648771
0.13520636 0.1651811 -0.29722756 -0.88466763 -0.46616799 0.0071073221 0.0017924542
0.087716475 0.17600124 -0.2959379 -0.80314839 -0.56959599 0.17467985 0.039494622
0.12947528 0.17473012 -0.29724109 -0.84338593 -0.53724235 -0.0084141567 0.0014020471
-0.44080815 0.18758225 -0.29198778 0.79876804 -0.60163409 0.0024905361 0.00012901892
-0.40200609 0.18500005 -0.29382783 0.74643701 -0.62935865 0.21619299 0.05663364
0.078493029 0.18802147 -0.29633397 -0.6877138 -0.63230795 0.35670215 0.071791515
0.082219243 0.18316537 -0.29983193 -0.64191753 -0.64088625 0.42095929 0.081285365
-0.43473896 0.19549176 -0.29404363 0.79332793 -0.60879457 0.00015908506 5.2347827e-06
-0.39733741 0.19108443 -0.29954857 0.75459868 -0.56048477 0.34122968 0.068839796
0.069743976 0.19942345 -0.29684019 -0.76046419 -0.55032527 0.34472626 0.071378596
0.11449391 0.19425423 -0.29131165 -0.79335511 -0.60875916 3.904989e-05 1.8261775e-05
-0.42697692 0.20560746 -0.29498625 0.7933253 -0.60879803 7.7262943e-05 0
-0.38628709 0.20548543 -0.29874232 0.74043638 -0.60409594 0.29465601 0.054137673
0.062488616 0.20887882 -0.29372948 -0.74981695 -0.63932669 0.1703992 0.040816415
0.10623042 0.20502342 -0.29316828 -0.79333031 -0.60879147 4.0222898e-05 0
-0.37357014 0.21994452 -0.29877678 0.66578698 -0.66572607 0.33695173 0.076997437
0.09613727 0.21817708 -0.29563579 -0.7933408 -0.60877764 7.7454621e-05 0
0.10085732 0.21202581 -0.29763198 -0.79336941 -0.60874051 -6.3003892e-05 4.6622508e-06
-0.41340104 0.22329989 -0.29444349 0.77520078 -0.63162053 -0.010922254 0.00043646927
-0.37340504 0.22007123 -0.29513544 0.6917187 -0.7011705 0.17287351 0.038638588
-0.36997241 0.22270519 -0.29662028 0.63651192 -0.71845043 0.28050229 0.074199624
0.044399947 0.22606435 -0.29510629 -0.62550139 -0.76105565 0.17187878 0.043674178
0.0876984 0.22917485 -0.29441106 -0.77429128 -0.63276863 0.0087638777 0.00058140745
-0.40646195 0.23234306 -0.29388976 0.74931604 -0.66178715 -0.02373293 0.00071773597
-0.35823196 0.23171392 -0.29619956 0.55983078 -0.78493559 0.26545367 0.060402155
-0.34820998 0.23940405 -0.29546729 0.54204357 -0.78953832 0.28778115 0.058857903
0.036667805 0.23199745 -0.29596233 -0.61210245 -0.7617715 0.21221417 0.056229368
-0.39524776 0.24409415 -0.29647893 0.66921508 -0.7426281 -0.025589328 0.0019683957
-0.3460075 0.2410941 -0.29552472 0.57758266 -0.79368538 0.19094972 0.048433371
0.019885955 0.24487463 -0.29715371 -0.53769553 -0.8191762 0.19958393 0.045495216
0.073985755 0.24414584 -0.29104334 -0.67993975 -0.73326749 -0.00081174844 0.002191121
-0.38014442 0.25568333 -0.29644644 0.60869598 -0.79340357 -3.4541808e-05 5.0336616e-06
-0.33202404 0.25182396 -0.29457334 0.6124801 -0.76496232 0.1992505 0.031257372
-0.32678315 0.25584546 -0.29035166 0.56439215 -0.81867445 0.10598898 0.016865473
0.0054166089 0.25597733 -0.29297382 -0.58697927 -0.80945939 0.015196486 0.00088780507
-0.36662969 0.26605356 -0.29307938 0.60885942 -0.79327816 6.9106805e-05 0
-0.3212094 0.26012236 -0.29314044 0.51973629 -0.83548647 0.17842793 0.025266955
-0.31361142 0.26564282 -0.29447556 0.50650185 -0.83076894 0.23082204 0.025273286
-0.30624086 0.26887488 -0.29459623 0.45103461 -0.86766398 0.20911005 0.030533724
-0.0029279427 0.26238036 -0.29711393 -0.48186606 -0.86800104 0.11991315 0.022419948
0.045142852 0.26627776 -0.29653442 -0.60876399 -0.79335135 -2.5131842e-06 0
0.051444422 0.26144239 -0.29630312 -0.60875773 -0.79335618 -5.8604555e-06 7.0249462e-07
-0.35361788 0.27603787 -0.29898345 0.60878617 -0.79333431 2.8334789e-05 0
-0.34966809 0.27906865 -0.29277125 0.60173231 -0.79869753 0.00064591749 0.00019229997
-0.28683746 0.27691203 -0.29658997 0.27888951 -0.91165233 0.3018457 0.052524377
-0.040854387 0.27960327 -0.29918647 -0.40492088 -0.80601734 0.43171191 0.080471247
-0.036832273 0.27793726 -0.2966018 -0.3653779 -0.87415195 0.31993356 0.063530132
-0.02553243 0.27325669 -0.29139772 -0.37680772 -0.90600932 0.19277756 0.033305351
0.028883561 0.27875394 -0.29342675 -0.6034196 -0.79742289 0.001219916 4.9865859e-05
0.032690894 0.27583247 -0.29941314 -0.60879731 -0.79332572 -2.5283352e-05 2.2356631e-05
-0.33785978 0.28812948 -0.29017168 0.5457164 -0.83796215 -0.0036113984 0.0015877245
-0.26861858 0.28445855 -0.29154316 0.37997442 -0.90822554 0.17534457 0.031929787
-0.059837326 0.28746626 -0.29409811 -0.32812083 -0.92528659 0.19021426 0.035251863
-0.048832096 0.28290775 -0.2904076 -0.38349929 -0.91785133 0.10235789 0.011854917
0.023903443 0.28257531 -0.29147178 -0.60193229 -0.79854512 0.0018197465 0.00010850021
-0.33270237 0.2920869 -0.29939887 0.51361746 -0.85801768 0.0016746453 0.0024468414
-0.32629058 0.2955915 -0.29792449 0.47474191 -0.8801204 0.0028733502 0.0021295631
-0.31676179 0.29953849 -0.29827693 0.42465839 -0.90533262 0.0061678207 0.00099035073
-0.25270253 0.29105118 -0.29300815 0.4379946 -0.85287207 0.28420076 0.059573736
-0.24768856 0.29312801 -0.29753095 0.38534805 -0.83990753 0.3821809 0.071631327
-0.235641 0.29688811 -0.29565397 0.20340416 -0.94566005 0.25368065 0.045896623
-0.21390739 0.29974937 -0.29633936 0.13329278 -0.93379784 0.33204606 0.070630826
-0.10001447 0.29879194 -0.29617983 -0.16073157 -0.95001501 0.26765031 0.059054554
-0.090856522 0.29758629 -0.29167202 -0.21257539 -0.96736658 0.13788928 0.02368919
-0.085039616 0.29682046 -0.2915875 -0.22707307 -0.96462566 0.13392189 0.02723722
-0.077539548 0.29479876 -0.29479885 -0.28595772 -0.91788816 0.27515373 0.05804595
-0.066155002 0.29008311 -0.29808566 -0.28792307 -0.91504747 0.28246853 0.057252802
0.0072190952 0.29467902 -0.29381096 -0.49593309 -0.86835921 -0.0016444845 0.0023915872
-0.31343815 0.30091515 -0.29886922 0.40342394 -0.91501248 -0.001134477 0.00064431131
-0.30204222 0.30563551 -0.29846954 0.38269898 -0.92387307 1.6024644e-05 0
-0.29792491 0.30734095 -0.29435906 0.38279507 -0.92383325 1.9863654e-05 0
-0.2087113 0.30043349 -0.29278657 0.18398403 -0.97140872 0.15005001 0.031603221
-0.18608966 0.30341166 -0.29467085 0.075391881 -0.95643616 0.28203899 0.062379561
-0.17860268 0.30439734 -0.29500702 0.054673582 -0.97542632 0.21343471 0.040435214
-0.16595335 0.30606267 -0.29602209 0.014945891 -0.96527606 0.26080421 0.04790445
-0.15409419 0.30591163 -0.29072818 -0.062300563 -0.98844218 0.13820565 0.024683075
-0.14209265 0.30433163 -0.29193401 -0.085487463 -0.97528183 0.20375767 0.036179047
-0.11480736 0.30073944 -0.29349816 -0.15673059 -0.97172123 0.17661665 0.027949464
-0.027329378 0.30902252 -0.29460952 -0.38267681 -0.92388225 2.8539187e-05 0
-0.013905155 0.30346203 -0.29468536 -0.38402161 -0.92332405 -0.00033600852 0
-0.0088383313 0.30136326 -0.29489973 -0.39759654 -0.91755676 0.0025558532 0.00049741892
-0.28912747 0.310985 -0.29186016 0.38264817 -0.92389417 1.9743384e-06 0
-0.27533254 0.31669903 -0.29869682 0.38270906 -0.92386895 3.8918122e-05 0
-0.26887861 0.31937233 -0.29084072 0.37334645 -0.92769134 0.0010932869 0.0001254864
-0.036999222 0.31302789 -0.2934536 -0.38271081 -0.92386824 2.0600884e-05 3.6153262e-05
-0.26677144 0.32024518 -0.29028362 0.36356926 -0.9315598 0.0037037143 0.00020292324
-0.24487226 0.32817224 -0.29345855 0.26200628 -0.96506184 0.0028786371 0.0018711068
-0.088259116 0.32987916 -0.2973935 -0.16146988 -0.98687768 -0.0001210837 0.00043213385
-0.06517525 0.32469878 -0.29881233 -0.31536987 -0.94896686 -0.0019459104 0.0011556735
-0.056990966 0.32130873 -0.29419297 -0.35263637 -0.93575197 0.0040023872 0.0006298871
-0.21490039 0.33225355 -0.29621026 0.13052087 -0.99144554 -9.8398496e-06 6.7114024e-06
-0.18667872 0.335969 -0.29537058 0.12786734 -0.99179113 -0.00051372708 1.5245972e-05
-0.17474869 0.33753958 -0.29694653 0.078831628 -0.99679059 0.013930187 0.00069293688
-0.16607191 0.33868194 -0.29692298 0.05074672 -0.99870288 -0.0041584219 0.0017954985
-0.15587077 0.33878043 -0.29463008 -0.015160574 -0.99984765 -0.0086469213 0.0021793498
-0.12530406 0.33475623 -0.29334718 -0.13049343 -0.99144918 2.7144846e-05 0
-0.11072531 0.3328369 -0.29908031 -0.13049926 -0.9914484 6.6905224e-05 0
-0.10501397 0.33208498 -0.29673105 -0.1305629 -0.99144 -3.8081951e-05 7.1462928e-05
-0.094887093 0.33075175 -0.29892832 -0.14225321 -0.98982674 0.002662634 0.00010210986
-0.22292066 -0.33119765 -0.28654227 0.13056216 0.99144006 2.3369332e-05 0
-0.21703674 -0.3319723 -0.28385663 0.13053456 0.99144375 -8.2530845e-05 6.2177605e-05
-0.20390654 -0.3337009 -0.28114447 0.13057335 0.99143863 -9.2494673e-05 2.4267061e-05
-0.1870321 -0.33592248 -0.28243947 0.1303134 0.9914729 -1.2537866e-05 7.7814613e-05
-0.16042671 -0.3393802 -0.2843585 0.029891307 0.99954116 -0.0049011102 0.0021438284
-0.15606517 -0.338806 -0.28741848 -0.019712204 0.99973452 -0.011929448 0.0029964887
-0.14432068 -0.3372598 -0.28686363 -0.11028232 0.99388802 -0.0049436614 0.00036464926
-0.13049205 -0.33543923 -0.28545052 -0.13050571 0.99144751 7.6075543e-05 0
-0.11401697 -0.33327025 -0.28326488 -0.1305593 0.99144047 3.0415608e-06 0
-0.094898954 -0.33075333 -0.28167623 -0.14118282 0.98998308 0.00090463029 0.00014222598
-0.089383945 -0.33002722 -0.28601617 -0.15519539 0.98787415 -0.0043692966 0.00035345712
-0.26649958 -0.3203578 -0.28046203 0.35791704 0.93375289 0.00097537693 0.00050724659
-0.25545096 -0.32493424 -0.28284246 0.31925136 0.9476459 0.0067649684 0.0013020601
-0.24086107 -0.3288357 -0.28982517 0.21607848 0.97637373 0.0020929233 0.0020921605
-0.084013961 -0.32932025 -0.28740948 -0.19919161 0.97994828 -0.0049041905 0.0014763067
-0.071227223 -0.3272056 -0.28524148 -0.28362557 0.9587968 -0.016285168 0.0023094637
-0.067825072 -0.32579637 -0.28875273 -0.2806865 0.95953995 -0.022322427 0.0024531027
-0.058977272 -0.32213148 -0.28642064 -0.34624434 0.93805903 0.012657274 0.0010171136
-0.27262503 -0.31782055 -0.28551573 0.38173103 0.92427343 0.0003135328 0
-0.052071463 -0.31927106 -0.28041169 -0.38272545 0.92386216 2.6678661e-05 1.4094257e-05
-0.044993185 -0.31633914 -0.28539899 -0.38268104 0.92388052 -9.310942e-06 3.0105623e-06
-0.30696344 -0.30359709 -0.2829814 0.38403067 0.92332023 8.3046718e-05 0
-0.29517102 -0.30848169 -0.28802672 0.38269359 0.92387533 -1.0089063e-05 8.3056257e-05
-0.20175816 -0.30134887 -0.28276134 0.13044426 0.99145561 -7.6161346e-06 0
-0.19529434 -0.30219984 -0.28583643 0.098369077 0.99279213 0.068463877 0.004853812
-0.18089157 -0.30409601 -0.28967467 0.10076807 0.98287338 0.15429106 0.022475448
-0.17611571 -0.30472475 -0.28250051 0.098900639 0.99509698 -0.00081689691 0.00085717277
-0.16251555 -0.30651525 -0.28426397 0.0032067392 0.99992496 0.011824827 0.0019326779
-0.15275916 -0.30573586 -0.28271386 -0.02822572 0.99940783 0.019677071 0.0020368272
-0.14390029 -0.3045696 -0.28069699 -0.11120579 0.99378169 0.0055922633 0.00042541389
-0.13789219 -0.30377859 -0.28917789 -0.10574149 0.99161279 0.074315518 0.0092489989
-0.11608806 -0.30090803 -0.28590026 -0.1349632 0.98959261 0.049914479 0.003743645
-0.024369463 -0.30779648 -0.28266037 -0.38268492 0.92387897 2.3395489e-05 0
-0.01781291 -0.30508071 -0.2813639 -0.38291836 0.92378223 1.7030074e-05 0
-0.33121717 -0.29322654 -0.28443587 0.47918025 0.87770987 -0.0034176018 0.0017420332
-0.32594267 -0.29573566 -0.2840766 0.47507709 0.87990642 -0.0081519373 0.0017966432
-0.31957307 -0.29837403 -0.28566715 0.43276232 0.90150446 0.0025350433 0.0012431139
-0.22081114 -0.29884052 -0.28012422 0.15000458 0.98868513 -0.00068336225 0.00042613561
-0.21627387 -0.29943782 -0.28108388 0.13045958 0.99145359 -1.3013145e-05 1.4321679e-05
-0.10354624 -0.29925689 -0.28607625 -0.13402495 0.99091119 0.011507345 0.00046649214
-0.091036305 -0.29760993 -0.28612459 -0.20632342 0.97846931 0.0053298953 0.0018763602
-0.084354497 -0.29673028 -0.28012222 -0.24339339 0.96991372 0.0052035903 0.0016896694
-0.070483431 -0.29187602 -0.281674 -0.32674825 0.94510478 -0.0035528706 0.00085342978
-0.069072463 -0.29129159 -0.28926918 -0.36182597 0.92601538 0.10759863 0.022548145
-0.0024331433 -0.29871017 -0.2853604 -0.43039325 0.90264148 0.0001801219 0.0016129885
0.005624278 -0.29530454 -0.28721869 -0.48226592 0.87601751 0.0035812978 0.0015474611
0.010864836 -0.29258019 -0.28431845 -0.52895081 0.84864956 0.0022328272 0.0014804237
-0.34575343 -0.28207245 -0.28146923 0.59291798 0.80526012 0.0021046943 0.00047519043
-0.3374407 -0.28845105 -0.28169903 0.54244316 0.84009159 -0.0012322207 0.0016823572
-0.26593 -0.28557217 -0.28220531 0.38271067 0.92386824 -2.8971175e-05 2.272637e-05
-0.25901279 -0.2884374 -0.28748089 0.39083833 0.91635954 0.086779594 0.019176818
-0.063140161 -0.28883433 -0.28501335 -0.35734424 0.9339599 0.0049026832 0.00044702276
0.016233783 -0.28846049 -0.28806061 -0.54637969 0.83753383 -0.002534095 0.0013034283
0.023322264 -0.28302127 -0.28830153 -0.58614451 0.81020623 0.00052511366 0.00044944382
-0.35693982 -0.27348885 -0.28412539 0.60883611 0.79329592 5.0781979e-05 0
-0.30056855 -0.27122444 -0.28369826 0.41387385 0.91032583 0.0039221356 0.00090726366
-0.032199375 -0.27601823 -0.28220206 -0.38479206 0.92300326 0.00017022007 3.441377e-05
-0.021660745 -0.27165303 -0.2847327 -0.39245361 0.9197706 -0.0014884284 0.00015415599
0.033846091 -0.27494609 -0.28470582 -0.60876113 0.79335362 -2.0796337e-05 0
-0.36641589 -0.26621759 -0.28311342 0.60893589 0.79321951 -2.5606816e-05 0
0.051397324 -0.26147854 -0.28249162 -0.60877824 0.7933405 -1.6325155e-05 1.3126273e-05
-0.38450146 -0.25234005 -0.28192878 0.60880435 0.79332042 0.00013405881 0
-0.37636274 -0.2585851 -0.28532785 0.60874665 0.79336464 4.6828442e-05 0
-0.32731873 -0.25543451 -0.288715 0.59515691 0.79811424 0.093819052 0.018335966
0.0053711543 -0.25601223 -0.28306359 -0.58992773 0.80743241 0.0061795702 0.00056836905
0.013147937 -0.25004488 -0.28114361 -0.60872203 0.79338354 6.889743e-06 3.9382624e-07
0.064133272 -0.25170588 -0.28985539 -0.62515968 0.78048986 -0.0033229939 0.00037950062
-0.39736095 -0.24247265 -0.28454554 0.69116795 0.72269261 -0.0014771823 0.001798206
-0.38925299 -0.24869408 -0.28631783 0.63852477 0.76956648 0.0073191114 0.0010052649
-0.34357482 -0.24296074 -0.28646064 0.6203841 0.78056419 0.076439768 0.0077913194
-0.33585742 -0.24888252 -0.28090748 0.60652602 0.79506332 -0.00077249744 2.5395289e-05
0.017696034 -0.246555 -0.28503364 -0.60499948 0.79607046 0.01573197 0.00070284336
0.022170771 -0.24312142 -0.28299099 -0.60876137 0.79335338 1.565506e-05 0
0.069931522 -0.24725676 -0.28209287 -0.64641285 0.76289004 0.012219961 0.0016259598
