ply
format ascii 1.0
comment PCL generated
element vertex 1392
property float x
property float y
property float z
element camera 0
property float view_px
property float view_py
property float view_pz
property float x_axisx
property float x_axisy
property float x_axisz
property float y_axisx
property float y_axisy
property float y_axisz
property float z_axisx
property float z_axisy
property float z_axisz
property float focal
property float scalex
property float scaley
property float centerx
property float centery
property int viewportx
property int viewporty
property float k1
property float k2
end_header
-0.36893144 -0.46114215 0.29999644
-0.35985512 -0.46385103 0.30100703
-0.34259552 -0.46179754 0.29964417
-0.32494867 -0.46370855 0.29797679
-0.30359969 -0.46594459 0.29226467
-0.3008354 -0.46296909 0.29981577
-0.27812853 -0.46371177 0.29788581
-0.25910172 -0.46417391 0.29687458
-0.25040486 -0.46325228 0.29882377
-0.23547623 -0.46315667 0.29828578
-0.21720728 -0.46456525 0.29746687
-0.20398965 -0.46179754 0.29964426
-0.18867791 -0.46412963 0.29767251
-0.18010004 -0.46245298 0.29929191
-0.16315135 -0.46370867 0.29806164
-0.13978133 -0.46371222 0.29805136
-0.11642435 -0.46371141 0.29804415
-0.095762178 -0.46310449 0.30058759
-0.080630571 -0.4624472 0.29927993
-0.069646738 -0.46341941 0.30183068
-0.053887829 -0.46179467 0.29963827
-0.042691588 -0.4640612 0.30207348
-0.022497535 -0.46179467 0.29963827
-0.0010543563 -0.46179467 0.29963818
0.020388912 -0.46179467 0.29963827
0.040578928 -0.46405569 0.30207407
0.051779065 -0.46179467 0.29963827
0.067537971 -0.46341941 0.30183065
0.078521982 -0.4624472 0.29927993
0.093653612 -0.46310249 0.3005836
0.11431383 -0.46370867 0.29804459
0.13767284 -0.46371078 0.29804835
0.16104053 -0.46371007 0.29805839
0.17799242 -0.4624472 0.29927993
0.18656684 -0.46412611 0.2976729
0.2018815 -0.46179467 0.29963827
0.21509896 -0.46456331 0.29746288
0.23336574 -0.46315122 0.29828227
0.2482961 -0.46325237 0.2988238
0.25699043 -0.46416578 0.29686928
0.2760202 -0.46371034 0.29788274
0.29872718 -0.46296716 0.29981178
0.30148479 -0.46593434 0.29226568
0.32283887 -0.4637045 0.29797411
0.34048769 -0.46179467 0.29963827
0.35774744 -0.4638482 0.30100104
0.36682266 -0.46114206 0.29999661
0.38480204 -0.46293744 0.30110019
0.39682728 -0.4624472 0.29927993
0.41557318 -0.46292466 0.30153936
0.43375194 -0.46360508 0.30223298
0.42748556 -0.44106808 0.29985154
0.42213523 -0.422636 0.30207017
0.43283585 -0.41861367 0.29763287
-0.43747866 -0.39360747 0.2914471
0.4301137 -0.3979902 0.29705
-0.41909745 -0.38702294 0.30365273
0.41698152 -0.38704112 0.30365407
0.42748556 -0.37973833 0.29985154
0.42213523 -0.36407104 0.30207017
-0.43758899 -0.3525438 0.29466838
0.43415803 -0.35353139 0.29615059
0.42748556 -0.33885184 0.29985154
-0.41927326 -0.32366124 0.29949647
0.41715753 -0.32367852 0.29949772
0.42213523 -0.32502776 0.30207017
-0.43770823 -0.31031445 0.29798102
0.43019024 -0.30920333 0.29922801
0.42748556 -0.28820449 0.29985154
-0.43782517 -0.26684564 0.30139118
-0.41945019 -0.26243809 0.29548031
0.41733456 -0.26245484 0.29548159
0.43023115 -0.26745996 0.30036432
0.42748556 -0.24731797 0.29985154
0.42748556 -0.22687472 0.29985154
-0.43795151 -0.22210605 0.30490065
0.43584284 -0.22210614 0.30490053
-0.41961434 -0.20328002 0.29159975
0.41749889 -0.20329614 0.29160106
0.42748556 -0.20643145 0.29985154
0.42748556 -0.1859882 0.29985154
0.42213523 -0.16885455 0.30207017
0.42748556 -0.15578413 0.29985154
0.43283585 -0.14087051 0.29763287
-0.43820947 -0.12853403 0.29151034
0.43035933 -0.12595463 0.29707074
0.42213523 -0.11028958 0.30207017
0.42748556 -0.094454356 0.29985154
-0.43834132 -0.079574458 0.29503113
0.43453738 -0.078182027 0.29633132
0.42213523 -0.071246274 0.30207017
0.42748556 -0.053567834 0.29985154
-0.43848366 -0.029093517 0.29866099
-0.42008179 -0.037097402 0.30242115
0.41797316 -0.037097402 0.30242112
0.4304508 -0.031785518 0.29945424
0.42748556 -0.012681326 0.29985154
-0.42023218 0.014831988 0.29867393
0.41812354 0.014831988 0.29867378
0.42748556 0.007761931 0.29985154
-0.43863052 0.022995429 0.30240649
0.43049979 0.026463738 0.30070272
0.42213523 0.045883626 0.30207017
0.43283585 0.05141326 0.29763287
-0.42037156 0.065144375 0.29504362
0.41826293 0.065144375 0.29504353
0.42748556 0.069091707 0.29985154
0.42213523 0.084926926 0.30207017
0.42748556 0.099295773 0.29985154
-0.42051303 0.11394034 0.29152247
0.41839811 0.11392728 0.29152364
0.43283585 0.11550783 0.29763287
0.42748556 0.13042146 0.29985154
0.42213523 0.14349188 0.30207017
0.42748556 0.16062553 0.29985154
0.42748556 0.18106881 0.29985154
-0.43910053 0.18971604 0.29158375
0.4369919 0.18971604 0.2915836
-0.42077109 0.20718729 0.30491436
0.41866252 0.20718738 0.30491433
0.42748556 0.20151207 0.29985154
0.42748556 0.22195531 0.29985154
0.42748556 0.24239856 0.29985154
-0.43926099 0.24908763 0.29546502
-0.42090049 0.25178921 0.30140322
0.4187859 0.25177741 0.30140442
0.43715915 0.2490707 0.29546356
0.42748556 0.26284182 0.29985154
0.42748556 0.28328508 0.29985154
-0.42102033 0.29510126 0.29799396
0.41890582 0.2950899 0.29799497
0.42213523 0.29966509 0.30207017
-0.43943396 0.31049699 0.29947937
0.42748556 0.31348917 0.29985154
0.43733224 0.31047952 0.29947782
0.43283585 0.32915646 0.29763287
-0.42113677 0.33718941 0.29468101
0.4190281 0.33718941 0.29468101
0.42213523 0.3387084 0.30207017
0.42748556 0.35437569 0.29985154
-0.43961307 0.37406901 0.30363494
-0.42125562 0.37811574 0.29145926
0.41914126 0.3781051 0.29146034
0.42748556 0.37481892 0.29985154
0.43751138 0.37405083 0.30363342
0.43283585 0.39325103 0.29763287
0.42213523 0.39727336 0.30207017
0.42748556 0.41570541 0.29985154
0.42748556 0.43614873 0.29985154
-0.43854001 0.45082393 0.30540553
-0.41773742 0.44990107 0.30453217
-0.4089056 0.45079044 0.30408868
-0.379592 0.45075759 0.30278605
-0.35059428 0.45072481 0.30149752
-0.32190683 0.45069256 0.30022281
-0.30932912 0.45001382 0.29124525
-0.2935254 0.45066053 0.29896158
-0.28703141 0.45003921 0.29232615
-0.26497757 0.45035252 0.29556486
-0.23972221 0.45034972 0.29549846
-0.21884975 0.45011649 0.29563132
-0.21015649 0.45057794 0.29525617
-0.18931645 0.45034495 0.2954008
-0.17229061 0.45016932 0.29788834
-0.15602608 0.45051661 0.29285079
-0.14866982 0.45019606 0.29903334
-0.12709855 0.4503549 0.29592821
-0.10186835 0.45035368 0.29592603
-0.076402485 0.45027801 0.30253655
-0.051825494 0.45029512 0.30372888
-0.027010204 0.45032322 0.30493176
0.024893431 0.45031232 0.30493289
0.049708985 0.4502843 0.30372995
0.074286245 0.45026737 0.30253762
0.09975142 0.45035386 0.29592603
0.12498163 0.45035508 0.29592809
0.14655395 0.45018554 0.29903448
0.15390794 0.45052797 0.2928496
0.17017485 0.4501588 0.29788941
0.18719955 0.45034531 0.29540074
0.20803809 0.45058921 0.29525495
0.21673428 0.45010602 0.29563233
0.23760532 0.45035017 0.29549837
0.26286069 0.45035315 0.29556489
0.28491637 0.45002887 0.29232717
0.2914063 0.45067203 0.2989603
0.30721435 0.45000365 0.29124635
0.31978768 0.4507041 0.3002215
0.34847483 0.45073652 0.30149627
0.37747246 0.45076919 0.3027848
0.40678579 0.45080242 0.3040874
0.4156231 0.449891 0.30453336
0.43641993 0.45083591 0.30540425
-0.43444169 -0.4595466 0.30848175
-0.41576403 -0.45936766 0.30677226
-0.39121887 -0.46603122 0.30671334
-0.36962301 -0.46601239 0.3078512
-0.34782419 -0.46599349 0.30899963
-0.32581329 -0.46596405 0.31016016
-0.30359969 -0.46594459 0.31133056
-0.27799097 -0.46562606 0.31640697
-0.25852749 -0.46589488 0.3137061
-0.24683979 -0.46536255 0.31894004
-0.23566912 -0.46587479 0.31491053
-0.21586685 -0.46562132 0.31686008
-0.19052038 -0.46562341 0.31680793
-0.16519943 -0.46561974 0.31676942
-0.13990243 -0.46562693 0.31674245
-0.1112818 -0.46550581 0.31234539
-0.085009255 -0.46552911 0.31106758
-0.058996383 -0.46556336 0.30980164
-0.033256799 -0.46558604 0.30854982
-0.019562431 -0.46564195 0.3060827
-0.007769065 -0.46561989 0.30730936
0.0056604831 -0.46561971 0.30730939
0.01745376 -0.46564195 0.30608261
0.031148037 -0.46558613 0.30854982
0.056887709 -0.46556336 0.30980164
0.082891755 -0.46554038 0.31106639
0.10917304 -0.46550599 0.31234539
0.1377937 -0.46562693 0.31674248
0.163086 -0.46562546 0.31676871
0.18840826 -0.46561795 0.31680861
0.21375816 -0.46562129 0.31686005
0.23355383 -0.46586436 0.31491166
0.2447312 -0.46536237 0.3189401
0.25641221 -0.46588436 0.31370729
0.2758823 -0.46562606 0.31640691
0.30148479 -0.46593434 0.31133178
0.32369852 -0.46595377 0.31016141
0.34570953 -0.46598321 0.30900079
0.3675085 -0.46600214 0.3078523
0.38911018 -0.46603113 0.30671322
0.4136526 -0.45936251 0.30677277
-0.43444169 -0.44011766 0.30848175
-0.42373946 -0.44221982 0.30719268
-0.43736577 -0.43353206 0.30705214
0.43525711 -0.43353206 0.30705202
-0.43444169 -0.42068875 0.30848175
-0.42373946 -0.4207429 0.30719268
-0.43596017 -0.39743367 0.30946329
-0.42373946 -0.39926597 0.30719268
0.43536994 -0.39360738 0.3104448
-0.43444169 -0.38183087 0.30848175
-0.42373946 -0.37778902 0.30719268
-0.43444169 -0.36240196 0.30848175
-0.43758899 -0.3525438 0.3139348
-0.42373946 -0.3563121 0.30719268
0.43548039 -0.35254389 0.31393462
-0.43444169 -0.34297302 0.30848175
-0.42373946 -0.33483517 0.30719268
-0.43444169 -0.32354411 0.30848175
-0.43607497 -0.30721483 0.31300253
-0.42373946 -0.31335825 0.30719268
0.43559968 -0.31031454 0.31752324
-0.42373946 -0.29188135 0.30719268
-0.43444169 -0.28468624 0.30848175
-0.42373946 -0.27040443 0.30719268
-0.43444169 -0.26525733 0.30848175
-0.41945019 -0.26243809 0.31868094
0.41733465 -0.26245484 0.31868237
-0.43444169 -0.24582842 0.30848175
-0.42373946 -0.24892749 0.30719268
-0.43444169 -0.2263995 0.30848175
-0.42373946 -0.22745056 0.30719268
-0.43444169 -0.20697057 0.30848175
-0.42167693 -0.20462684 0.31080252
0.4174988 -0.20329623 0.3144137
-0.43444169 -0.18754165 0.30848175
-0.42373946 -0.18449673 0.30719268
-0.43625858 -0.17206351 0.30849916
0.43597296 -0.17602699 0.30851522
-0.42373946 -0.16301981 0.30719268
-0.43444169 -0.1486838 0.30848175
-0.42175964 -0.14379777 0.30873775
0.41766441 -0.14606823 0.31028408
-0.43632558 -0.12889446 0.31036136
-0.42373946 -0.12006595 0.30719268
0.43610695 -0.12854691 0.31223947
-0.43444169 -0.10982595 0.30848175
-0.43444169 -0.090397015 0.30848175
-0.42183641 -0.094641209 0.30674055
0.41782463 -0.090693399 0.30628818
-0.43834144 -0.079574555 0.31608182
-0.42373946 -0.077112094 0.30719268
0.43623886 -0.079587966 0.31608039
-0.43444169 -0.070968099 0.30848175
-0.43444169 -0.051539175 0.30848175
-0.42373946 -0.055635177 0.30719268
-0.43646267 -0.030601883 0.3142617
-0.42373946 -0.034158252 0.30719268
0.43638131 -0.029107383 0.32004023
-0.43444169 -0.012681326 0.30848175
-0.42373946 -0.012681326 0.30719268
-0.43444169 0.0067475978 0.30848175
-0.42198583 0.011813793 0.3136242
0.41812354 0.014831899 0.32005569
-0.43444169 0.026176522 0.30848175
-0.42373946 0.030272523 0.30719268
-0.43444169 0.045605451 0.30848175
-0.42373946 0.051749445 0.30719268
-0.43661192 0.07090231 0.30737752
-0.42205551 0.069185376 0.31164408
0.41826293 0.065144375 0.31609529
0.43667349 0.076770261 0.30627313
-0.43444169 0.084463291 0.30848175
-0.43444169 0.10389221 0.30848175
-0.42373946 0.094703294 0.30719268
-0.42212623 0.11506023 0.3097235
0.41839811 0.11392728 0.31225556
-0.43669015 0.12781769 0.30937451
-0.42373946 0.13765714 0.30719268
0.43683004 0.13231426 0.31026706
-0.43444169 0.14275005 0.30848175
-0.43444169 0.16217898 0.30848175
-0.42219171 0.16019794 0.30786103
0.41853535 0.16126183 0.30852923
-0.43444169 0.18160792 0.30848175
-0.42373946 0.180611 0.30719268
-0.43910044 0.18971622 0.31439471
0.4369919 0.18971604 0.31439459
-0.43444169 0.20103684 0.30848175
-0.42373946 0.20208792 0.30719268
-0.43444169 0.22046576 0.30848175
-0.42373946 0.22356485 0.30719268
-0.43444169 0.23989466 0.30848175
-0.43926099 0.24908763 0.31866425
-0.42373946 0.24504176 0.30719268
0.43715915 0.24907088 0.31866258
-0.43444169 0.2593236 0.30848175
-0.42373946 0.26651868 0.30719268
-0.43444169 0.27875254 0.30848175
-0.42373946 0.28799561 0.30719268
-0.43444169 0.29818144 0.30848175
-0.42102024 0.29510117 0.31753743
0.41890582 0.2950899 0.31753856
-0.43444169 0.31761038 0.30848175
-0.42373946 0.30947253 0.30719268
-0.42373946 0.33094946 0.30719268
-0.43444169 0.33703929 0.30848175
-0.4211368 0.3371895 0.31394821
0.41902807 0.33718932 0.31394827
-0.43444169 0.35646823 0.30848175
-0.42373946 0.35242638 0.30719268
-0.43444169 0.37589717 0.30848175
-0.42249757 0.37600958 0.30882537
0.41914129 0.3781051 0.3104592
-0.43444169 0.39532608 0.30848175
-0.42373946 0.39538026 0.30719268
-0.43444169 0.41475502 0.30848175
-0.42255256 0.41738206 0.30712879
0.41925147 0.41789672 0.30706608
-0.43979847 0.43992004 0.30793965
-0.43444169 0.43418393 0.30848175
-0.42373946 0.43833408 0.30719268
0.4376899 0.43991968 0.30793947
-0.43444169 0.45361286 0.30848175
-0.4151015 0.45483592 0.31334716
-0.39645901 0.4499253 0.30564964
-0.39209887 0.45483601 0.31334716
-0.37203932 0.45239273 0.31006232
-0.35330477 0.44997412 0.30791596
-0.3460936 0.45483601 0.31334716
-0.32725725 0.45241749 0.3112061
-0.30932915 0.45001391 0.3102262
-0.29680687 0.45274821 0.31685835
-0.2820586 0.45243752 0.31237221
-0.26497766 0.45035243 0.31579316
-0.25408319 0.45483592 0.31334716
-0.23684169 0.45184505 0.31492674
-0.21884979 0.45011657 0.31497774
-0.20911723 0.45270693 0.31483716
-0.18790272 0.45184201 0.31485003
-0.17229061 0.45016932 0.31742287
-0.15904938 0.45267627 0.31352517
-0.14386992 0.45251605 0.31600523
-0.12709856 0.45035481 0.31616378
-0.11606744 0.45483601 0.31334716
-0.098036103 0.45264634 0.31224009
-0.076904431 0.45042729 0.30986774
-0.070062377 0.45483592 0.31334737
-0.049063295 0.45261702 0.31098121
-0.024773816 0.45260254 0.31036133
-0.0019450467 0.45035157 0.30614686
-0.00061312132 0.45258826 0.30974767
0.022660935 0.45260808 0.31036067
0.046950277 0.45262253 0.31098071
0.067953527 0.45483592 0.31334716
0.074787021 0.45043847 0.30986646
0.095922969 0.45265198 0.31223953
0.11395877 0.45483601 0.31334716
0.12498158 0.45035505 0.31616369
0.14175762 0.45251068 0.31600595
0.15693593 0.45268196 0.31352466
0.17017485 0.4501588 0.31742412
0.18578854 0.45184219 0.31484997
0.20700365 0.45271257 0.31483668
0.21673432 0.45010611 0.31497902
0.23472747 0.45184544 0.31492665
0.25197446 0.45483601 0.31334716
0.26286072 0.45035303 0.31579307
0.27994668 0.45243242 0.31237274
0.29469302 0.45275399 0.31685776
0.30721426 0.45000365 0.31022727
0.32514554 0.45241246 0.3112067
0.34398484 0.45483592 0.31334737
0.35119024 0.44996402 0.30791706
0.36992764 0.45238763 0.31006297
0.38999006 0.45483592 0.31334716
0.39434457 0.44991496 0.30565071
0.41299275 0.45483592 0.31334716
0.43599534 0.45483601 0.31334716
-0.43411893 -0.46175176 0.32715717
-0.41694248 -0.46130657 0.32798213
-0.39049268 -0.46562713 0.32565811
-0.36962301 -0.46601239 0.32664946
-0.36056435 -0.46524918 0.32447198
-0.34782419 -0.46599349 0.32788628
-0.32874495 -0.46561962 0.32610151
-0.30359969 -0.46594459 0.33039647
-0.30308792 -0.46531212 0.32167548
-0.28116789 -0.4659147 0.33167022
-0.25852743 -0.46589479 0.33295479
-0.23566917 -0.46587488 0.33425176
-0.21258293 -0.46584409 0.33556265
-0.13782692 -0.46548229 0.33448339
-0.11463135 -0.46562812 0.32709879
-0.093738437 -0.4657183 0.32239109
-0.085009255 -0.46552911 0.33170044
-0.069262072 -0.46569669 0.32368064
-0.058996383 -0.46556336 0.33032894
-0.038898751 -0.4656305 0.32697797
-0.019562431 -0.46564195 0.32630014
-0.0077691549 -0.46561971 0.32762897
0.0056603933 -0.46561989 0.327629
0.01745376 -0.46564195 0.32630002
0.036786046 -0.46562517 0.32697862
0.056887802 -0.46556327 0.330329
0.067153491 -0.46569687 0.32368064
0.082891755 -0.46554038 0.33169907
0.091629758 -0.4657183 0.32239097
0.11251892 -0.46562272 0.32709944
0.13571824 -0.46548229 0.33448344
0.21047431 -0.46584418 0.33556256
0.23355378 -0.46586427 0.33425295
0.25641221 -0.46588436 0.33295611
0.27905926 -0.4659147 0.33167005
0.30097929 -0.46531212 0.32167578
0.30148473 -0.46593425 0.33039767
0.3266333 -0.46561441 0.3261022
0.3457095 -0.46598321 0.32788759
0.35845572 -0.46524918 0.32447201
0.3675085 -0.46600214 0.32665062
0.38838404 -0.46562713 0.32565814
0.414832 -0.46130323 0.32798254
0.42693281 -0.46280298 0.32402134
-0.43441954 -0.43808848 0.33130813
-0.42370766 -0.4444966 0.33527046
0.42751813 -0.4411692 0.32526904
-0.43736577 -0.43353206 0.32578892
-0.42370766 -0.42290589 0.33527046
0.43525711 -0.43353206 0.32578886
-0.43441954 -0.41875181 0.33130813
0.42751813 -0.42071626 0.32526904
-0.43594909 -0.39651126 0.33037543
-0.42370766 -0.40131509 0.33527046
0.4301354 -0.39804468 0.32666022
-0.43441954 -0.38007843 0.33130813
-0.42140257 -0.38337365 0.33147052
0.41698152 -0.38704112 0.32767218
0.42751813 -0.3798103 0.32526904
-0.43441954 -0.36074173 0.33130813
0.42216146 -0.36239499 0.32503533
-0.43758899 -0.3525438 0.33320099
-0.42370766 -0.35813358 0.33527046
0.43417758 -0.35443172 0.3293519
-0.43441954 -0.34140506 0.33130813
-0.42370766 -0.33654281 0.33527046
0.42751813 -0.33890435 0.32526904
-0.43441954 -0.32206836 0.33130813
-0.41927326 -0.32366124 0.32309878
0.41715753 -0.32367852 0.32310027
0.42216146 -0.32353792 0.32503533
-0.43441954 -0.30273169 0.33130813
-0.42370766 -0.31495205 0.33527046
0.42751813 -0.3087371 0.32526904
-0.42370766 -0.29336128 0.33527046
0.43287483 -0.29188749 0.32550281
-0.43441954 -0.28339499 0.33130813
-0.42370766 -0.27177051 0.33527046
0.42751813 -0.27754548 0.32526904
-0.43612239 -0.265452 0.32626283
0.42894191 -0.26605484 0.32312584
-0.43441954 -0.24472161 0.33130813
-0.42370766 -0.25017974 0.33527046
0.42751813 -0.24737823 0.32526904
-0.43441954 -0.22538491 0.33130813
-0.42370766 -0.22858897 0.33527046
0.42751813 -0.22692528 0.32526904
-0.43795151 -0.22210605 0.32501951
0.43584284 -0.22210605 0.32501942
-0.43441954 -0.20604824 0.33130813
-0.42370766 -0.20699821 0.33527046
0.42751813 -0.20647229 0.32526904
-0.43441954 -0.18671153 0.33130813
-0.42370766 -0.18540746 0.33527046
0.42751813 -0.18601935 0.32526904
-0.43624756 -0.17169461 0.33012244
0.42906719 -0.17206831 0.32698527
-0.42370766 -0.16381669 0.33527046
0.43287483 -0.16302311 0.32550281
-0.43441954 -0.14803816 0.33130813
-0.42174375 -0.14413929 0.33399519
0.41766441 -0.14606823 0.33272147
0.42751813 -0.14511341 0.32526904
-0.43631449 -0.1286177 0.33213985
-0.42370766 -0.12063515 0.33527046
0.43038106 -0.12595592 0.32783607
-0.43441954 -0.10936478 0.33130813
0.42216146 -0.10982402 0.32503533
-0.43441954 -0.090028085 0.33130813
-0.42182046 -0.094868891 0.33181643
0.41782463 -0.090693399 0.32836226
0.42751813 -0.094493188 0.32526904
-0.42370766 -0.077453621 0.33527046
0.43287483 -0.077113517 0.32550281
-0.43441954 -0.070691392 0.33130813
0.42216146 -0.070966937 0.32503533
-0.43441954 -0.051354706 0.33130813
-0.42370766 -0.055862859 0.33527046
0.42751813 -0.053587258 0.32526904
-0.43441954 -0.032018013 0.33130813
-0.42189473 -0.035684746 0.32970709
0.41797319 -0.037097402 0.32414353
0.42751813 -0.033134293 0.32526904
-0.43441954 -0.012681326 0.33130813
-0.42370766 -0.012681326 0.33527046
0.42751813 -0.012681326 0.32526904
-0.43441954 0.0066553634 0.33130813
-0.42370766 0.0089094397 0.33527046
0.42751813 0.007771641 0.32526904
-0.43652502 0.024493741 0.3277179
-0.42370766 0.030500205 0.33527046
0.43052149 0.026476746 0.32488811
-0.43441954 0.045328744 0.33130813
0.42216146 0.045604281 0.32503533
-0.42370766 0.052090973 0.33527046
0.43287483 0.051750869 0.32550281
-0.43660083 0.070717849 0.32982704
-0.42370766 0.073681742 0.33527046
0.43056989 0.071677111 0.32629466
-0.43441954 0.084002122 0.33130813
0.42216146 0.084461354 0.32503533
-0.43441954 0.10333881 0.33130813
-0.42370766 0.095272496 0.33527046
0.42751813 0.099297769 0.32526904
-0.43441954 0.1226755 0.33130813
-0.42211035 0.1154018 0.33412814
0.41839817 0.11392737 0.33298725
0.43287483 0.11618305 0.32550281
-0.43893868 0.13231426 0.33270305
0.43062213 0.13109772 0.32774696
-0.43441954 0.14201218 0.33130813
-0.42370766 0.13845402 0.33527046
0.42216146 0.14274696 0.32503533
-0.43441954 0.16134886 0.33130813
-0.42217585 0.16065331 0.33211055
0.41853538 0.16126192 0.32895058
0.42751813 0.16065666 0.32526904
-0.43441954 0.18068558 0.33130813
-0.42370766 0.18163556 0.33527046
0.42751813 0.18110964 0.32526904
-0.43441954 0.20002225 0.33130813
-0.42223939 0.20520681 0.33015245
0.41866243 0.20718721 0.32503426
0.42751813 0.20156263 0.32526904
-0.43441954 0.21935895 0.33130813
-0.42370766 0.2248171 0.33527046
0.42751813 0.22201557 0.32526904
-0.43441954 0.23869562 0.33130813
0.42216146 0.23988965 0.32503533
-0.43441954 0.25803232 0.33130813
-0.42230409 0.24909851 0.32825062
0.41878593 0.2517775 0.3212319
0.43287483 0.24504745 0.32550281
-0.42370766 0.26799864 0.33527046
0.42751813 0.26292151 0.32526904
-0.43441954 0.27736902 0.33130813
0.42751813 0.28337446 0.32526904
-0.43441954 0.29670569 0.33130813
-0.42370766 0.28958938 0.33527046
0.42216146 0.29817528 0.32503533
-0.43943396 0.31049699 0.32307988
-0.43441954 0.31604239 0.33130813
-0.42370766 0.31118017 0.33527046
0.42751813 0.31354171 0.32526904
0.43733224 0.31047952 0.32307827
-0.42370766 0.33277091 0.33527046
0.43287483 0.33095703 0.32550281
-0.43441954 0.33537909 0.33130813
-0.42113671 0.33718932 0.33321559
0.41902816 0.3371895 0.33321565
0.42216146 0.33703232 0.32503533
-0.43441954 0.35471579 0.33130813
-0.42370766 0.35436168 0.33527046
0.42751813 0.35444766 0.32526904
-0.43961307 0.37406901 0.32765108
-0.43441954 0.37405246 0.33130813
-0.42248166 0.3770341 0.33236367
0.41914135 0.37810519 0.32945818
0.42751813 0.37490064 0.32526904
0.43751159 0.37405047 0.32764938
-0.43441954 0.39338917 0.33130813
-0.42370766 0.39754322 0.33527046
0.42751813 0.39535359 0.32526904
-0.43441954 0.41272584 0.33130813
-0.4225367 0.41852045 0.33053654
0.41925141 0.41789663 0.32580388
0.42751813 0.41580653 0.32526904
-0.43979856 0.43991968 0.33238614
-0.43441954 0.43206257 0.33130813
0.42751813 0.43625948 0.32526904
0.4376899 0.43991968 0.33238605
-0.43514276 0.45186052 0.33044988
-0.41810134 0.44799474 0.3303293
-0.40268227 0.45035791 0.32512069
-0.38642073 0.4520579 0.328592
-0.37431094 0.45165396 0.32906771
-0.35264289 0.45135245 0.32749915
-0.33442006 0.45335841 0.33264226
-0.32666522 0.45034575 0.32485104
-0.31206971 0.45168611 0.33092463
-0.29520056 0.45335832 0.33264217
-0.28131106 0.45169872 0.33155519
-0.26452091 0.45006469 0.33174139
-0.25598091 0.45335841 0.33264226
-0.23908304 0.45172441 0.33283436
-0.21780562 0.4517374 0.33348322
-0.19641729 0.45175055 0.33413827
-0.17754199 0.45335841 0.33264226
-0.15697916 0.45193753 0.33359897
-0.13832256 0.45335832 0.33264217
-0.12937984 0.45048663 0.33315635
-0.11871283 0.45335832 0.33264217
-0.10094643 0.45135704 0.32853535
-0.078198627 0.45189565 0.33152717
-0.076402619 0.45027819 0.32245845
-0.054258544 0.45135245 0.32848254
-0.040273622 0.45336398 0.33265379
-0.024388243 0.45135218 0.32846922
-0.0019450467 0.45035157 0.32636946
-0.00061307626 0.45185223 0.32951236
0.022274079 0.45135218 0.32846919
0.038164999 0.45336407 0.33265397
0.052144393 0.45135254 0.32848245
0.074286155 0.45026729 0.3224597
0.076085605 0.45190123 0.33152646
0.098832257 0.45135722 0.32853544
0.11660361 0.45336398 0.33265379
0.12726207 0.45049772 0.33315495
0.13621324 0.45336393 0.33265379
0.15486544 0.45194599 0.33360404
0.1754325 0.45336398 0.33265379
0.19430465 0.4517481 0.33414489
0.21569306 0.45173496 0.3334896
0.23697048 0.45172203 0.33284086
0.25387114 0.45336407 0.33265397
0.26240572 0.45005435 0.33174264
0.27919856 0.45169643 0.33156163
0.29309043 0.45336393 0.33265379
0.30995721 0.45168382 0.33093107
0.32454821 0.4503465 0.32485104
0.33230972 0.45336398 0.33265379
0.35052815 0.45135483 0.32750297
0.37219849 0.45165172 0.32907408
0.38430557 0.45206663 0.32859707
0.40056518 0.45035869 0.32512057
0.41318572 0.45162749 0.32786512
0.42929068 0.45221969 0.32621661
-0.43304178 -0.46432799 0.3427887
-0.41486138 -0.46460745 0.34539449
-0.39134985 -0.46461064 0.3453095
-0.37154329 -0.46429503 0.34474045
-0.35721371 -0.46391347 0.34512752
-0.34104335 -0.46428558 0.34540308
-0.32874504 -0.46561944 0.34640586
-0.30913085 -0.46426117 0.34674782
-0.29907465 -0.46394503 0.34361285
-0.27714765 -0.46461001 0.34552109
-0.25135022 -0.46397012 0.34213105
-0.23626021 -0.46257767 0.34403324
-0.2179057 -0.46398532 0.34139544
-0.19270028 -0.46460629 0.3394109
-0.1774596 -0.46257201 0.34402168
-0.16275498 -0.46460739 0.33937988
-0.14011815 -0.46417186 0.34179574
-0.11831936 -0.46416122 0.34247655
-0.096397825 -0.46414515 0.34316474
-0.079456672 -0.46257204 0.3440218
-0.069262162 -0.46569687 0.34369653
-0.059426252 -0.46406773 0.34743905
-0.039350964 -0.46461105 0.34617227
-0.020108681 -0.46410698 0.34526968
-0.007769065 -0.46561989 0.34794867
0.0023030974 -0.46409589 0.34598529
0.01800001 -0.46410704 0.34526959
0.037239648 -0.46460745 0.34617275
0.057317577 -0.46406773 0.34743905
0.067153439 -0.46569678 0.34369642
0.077347994 -0.4625721 0.3440218
0.094289221 -0.46414515 0.34316474
0.11620704 -0.46415588 0.34247717
0.13800946 -0.4641718 0.34179571
0.16064078 -0.46460766 0.33937988
0.17535101 -0.46257204 0.3440218
0.19058934 -0.46460271 0.33941135
0.21579705 -0.46398532 0.34139544
0.23415278 -0.46257204 0.3440218
0.24924229 -0.46396723 0.34212536
0.27503952 -0.46460807 0.34551722
0.29696688 -0.46394211 0.34360713
0.30701995 -0.46425322 0.34674272
0.3266333 -0.46561441 0.34640655
0.3389326 -0.46427765 0.34539801
0.355106 -0.4639107 0.3451218
0.36943272 -0.4642871 0.34473532
0.38923991 -0.46460542 0.3453061
0.41275159 -0.46460226 0.34539115
0.42694587 -0.46174231 0.34466404
0.42218748 -0.43808007 0.34778264
-0.43736577 -0.43353206 0.34452561
0.43525702 -0.43353197 0.34452564
0.42218748 -0.41874376 0.34778264
-0.43747866 -0.39360756 0.34844041
0.42877874 -0.39650744 0.34811148
0.42218748 -0.38007113 0.34778264
0.42218748 -0.36073485 0.34778264
0.42218748 -0.34139854 0.34778264
-0.41927344 -0.32366106 0.34670109
0.41715753 -0.32367852 0.34670264
0.42218748 -0.32206222 0.34778264
-0.43770823 -0.31031445 0.33706561
0.42889357 -0.30652019 0.34242409
0.42218748 -0.28338963 0.34778264
-0.43782517 -0.26684564 0.34104407
-0.41945019 -0.26243809 0.34188163
0.41733456 -0.26245484 0.34188312
0.42895493 -0.26545534 0.34441257
0.42218748 -0.24471702 0.34778264
0.42218748 -0.22538069 0.34778264
-0.43795151 -0.22210605 0.34513849
0.43584284 -0.22210614 0.34513843
-0.41961434 -0.20327993 0.33722493
0.41750571 -0.20328002 0.33722478
0.42218748 -0.20604438 0.34778264
0.42218748 -0.18670809 0.34778264
-0.43807557 -0.17601438 0.34935698
0.42908022 -0.17169939 0.34856904
0.42218748 -0.14803548 0.34778264
0.42218748 -0.12869918 0.34778264
0.42218748 -0.10936286 0.34778264
-0.41993329 -0.090693399 0.35043645
0.41782463 -0.090693399 0.35043633
0.42218748 -0.09002655 0.34778264
-0.43834132 -0.079574458 0.33713245
0.43623886 -0.079587966 0.3371309
0.42218748 -0.070690244 0.34778264
0.42218748 -0.051353939 0.34778264
-0.43848366 -0.029093426 0.34142229
-0.42008838 -0.037083082 0.34586453
0.41797319 -0.037097402 0.34586596
0.42928442 -0.030562596 0.34460169
0.42218748 -0.012681326 0.34778264
-0.42023218 0.014831899 0.34143767
0.41812354 0.014831988 0.34143752
0.42218748 0.0066549815 0.34778264
-0.43863052 0.022995429 0.3458488
0.42935786 0.024486067 0.34681493
0.42218748 0.045327596 0.34778264
-0.43878216 0.076770261 0.35041857
-0.42037156 0.065144375 0.33714733
0.41826293 0.065144375 0.33714724
0.42943048 0.070717081 0.34910059
0.42218748 0.0840002 0.34778264
0.42218748 0.10333651 0.34778264
0.42218748 0.12267282 0.34778264
0.42218748 0.14200912 0.34778264
-0.42064404 0.16126192 0.34937191
0.41853535 0.16126183 0.34937185
0.42218748 0.16134542 0.34778264
0.42218748 0.18068172 0.34778264
-0.43910053 0.18971604 0.33720571
0.43699181 0.18971613 0.33720562
-0.42077109 0.20718721 0.34515446
0.41866243 0.20718721 0.34515435
0.42218748 0.20001805 0.34778264
0.42218748 0.21935436 0.34778264
0.42218748 0.23869064 0.34778264
-0.43926099 0.24908763 0.34186327
-0.42090052 0.25178921 0.34105816
0.41878593 0.2517775 0.34105954
0.42218748 0.25802696 0.34778264
0.43715924 0.2490707 0.34186155
0.42218748 0.27736327 0.34778264
-0.42102033 0.29510117 0.33708072
0.41890582 0.2950899 0.33708197
0.42218748 0.29669958 0.34778264
-0.43943396 0.31049699 0.34668055
0.42218748 0.31603587 0.34778264
0.43733224 0.31047952 0.34667867
0.42218748 0.33537218 0.34778264
0.42218748 0.35470849 0.34778264
-0.42125565 0.37811574 0.34845567
0.41914126 0.3781051 0.34845695
0.42218748 0.37404478 0.34778264
0.42218748 0.39338109 0.34778264
-0.42136565 0.417907 0.34454051
0.41925147 0.41789672 0.34454173
0.42218748 0.4127174 0.34778264
0.42218748 0.43205374 0.34778264
-0.43854001 0.45082402 0.34939319
-0.41773733 0.44990098 0.34161818
-0.40268224 0.45035779 0.3453722
-0.37959209 0.45075741 0.34629738
-0.37498239 0.44994953 0.34420884
-0.35194945 0.45034951 0.3451485
-0.32666522 0.45034572 0.3450582
-0.30932915 0.45001391 0.3481881
-0.2935254 0.45066053 0.34177753
-0.28703141 0.45003921 0.34953925
-0.26543432 0.45064026 0.34030128
-0.23764977 0.45060891 0.3388423
-0.21015657 0.45057786 0.33739835
-0.18295009 0.45054716 0.33596969
-0.17229061 0.45016932 0.33695745
-0.14866982 0.45019606 0.33829331
-0.1248172 0.45022309 0.33964223
-0.10072938 0.45025054 0.34100458
-0.076402485 0.45027801 0.3423804
-0.051446162 0.45034659 0.34662169
-0.026250463 0.45034617 0.34660023
-0.0019450467 0.45035157 0.34659237
-0.00017181871 0.45034069 0.34659365
0.024133462 0.45034632 0.34660017
0.049329273 0.45034677 0.34662166
0.074286155 0.45026729 0.34238178
0.098613001 0.45023975 0.34100586
0.12270118 0.45021245 0.3396436
0.14655399 0.45018563 0.33829463
0.17017476 0.45015863 0.33695871
0.18083188 0.4505583 0.33596823
0.20803809 0.45058921 0.33739698
0.23553118 0.45062035 0.33884081
0.26331568 0.45065168 0.34029996
0.28491637 0.45002887 0.34954062
0.29140639 0.45067194 0.34177607
0.30721435 0.45000365 0.34818941
0.32454821 0.45034641 0.34505808
0.34983248 0.45035031 0.34514844
0.37286791 0.44993946 0.34421021
0.37747246 0.45076919 0.34629595
0.40056518 0.45035869 0.34537208
0.4156231 0.449891 0.34161943
0.42930374 0.4511129 0.34858713
-0.4341079 -0.46070108 0.35700047
-0.41576403 -0.45936763 0.35915676
-0.39880699 -0.46097004 0.36172274
-0.39121887 -0.46603122 0.3628456
-0.37251636 -0.4634912 0.36298436
-0.3520126 -0.46097013 0.36172253
-0.34782419 -0.4659934 0.36565948
-0.32861546 -0.46097004 0.36172274
-0.30521822 -0.46097004 0.36172274
-0.30308792 -0.46531212 0.3647092
-0.27831751 -0.46315372 0.36241388
-0.25847557 -0.46343243 0.35696307
-0.24683988 -0.46536237 0.36151767
-0.23534782 -0.46342248 0.35765791
-0.21586683 -0.46562138 0.35747153
-0.21162929 -0.46097004 0.36172274
-0.18975763 -0.46407226 0.35884279
-0.16508032 -0.46407345 0.35880706
-0.14041422 -0.46407464 0.35878122
-0.11576773 -0.46407548 0.35876548
-0.094190836 -0.46334422 0.36197352
-0.085009255 -0.4655292 0.35233325
-0.07025408 -0.46333352 0.36271751
-0.047848761 -0.46097013 0.36172253
-0.044540744 -0.46567518 0.36521536
-0.024451615 -0.46096995 0.36172274
-0.0010543789 -0.46097004 0.36172274
0.022342857 -0.46097004 0.36172274
0.042424057 -0.46566418 0.36521685
0.045740139 -0.46097004 0.36172274
0.068145387 -0.46333343 0.36271757
0.082891755 -0.46554047 0.35233176
0.092082165 -0.46334419 0.36197358
0.1136565 -0.46407187 0.35876596
0.13830541 -0.46407464 0.35878128
0.16296601 -0.46407366 0.35880703
0.18764658 -0.46406865 0.35884333
0.20952056 -0.46097013 0.36172253
0.21375816 -0.46562138 0.35747164
0.23323579 -0.4634172 0.35765857
0.2447312 -0.46536237 0.36151779
0.25636363 -0.46342725 0.35696366
0.27620879 -0.46315372 0.36241394
0.30097911 -0.4653123 0.36470938
0.30310944 -0.46097004 0.36172274
0.32650664 -0.46097004 0.36172274
0.3457095 -0.46598321 0.36566088
0.34990382 -0.46097004 0.36172274
0.37040484 -0.46348614 0.36298501
0.38910452 -0.46602103 0.36284697
0.39669833 -0.46097013 0.36172253
0.41580021 -0.45989829 0.36001253
0.43170413 -0.46606812 0.36008364
-0.43439737 -0.43607852 0.35391885
-0.42368743 -0.44679534 0.36363688
0.43290266 -0.4445062 0.35367823
-0.43736577 -0.43353206 0.36326247
-0.42368743 -0.42508963 0.36363688
0.43407989 -0.42822349 0.35847035
-0.43439737 -0.41683319 0.35391885
-0.43439737 -0.39758787 0.35391885
-0.42368743 -0.40338394 0.36363688
0.43290266 -0.40132371 0.35367823
-0.43439737 -0.37834254 0.35391885
-0.42139244 -0.38435057 0.35766268
0.41698152 -0.38704112 0.35169017
0.43290266 -0.37973246 0.35367823
-0.43599322 -0.35582057 0.35319301
-0.42368743 -0.35997251 0.36363688
0.43419144 -0.35534248 0.3530727
-0.43439737 -0.33985189 0.35391885
-0.42368743 -0.33826682 0.36363688
0.43290266 -0.33654997 0.35367823
-0.43439737 -0.32060656 0.35391885
-0.42368743 -0.3165611 0.36363688
-0.43605283 -0.30583784 0.35526335
0.43425116 -0.31263658 0.35514301
-0.42368743 -0.29485542 0.36363688
0.43290266 -0.29336748 0.35367823
-0.43439737 -0.28211591 0.35391885
-0.42368743 -0.2731497 0.36363688
0.43290266 -0.27177626 0.35367823
-0.43611127 -0.26485813 0.3573947
-0.4194501 -0.26243809 0.36508226
0.41733456 -0.26245484 0.36508378
0.43572241 -0.26685745 0.36086893
-0.43439737 -0.24362525 0.35391885
-0.42368743 -0.25144401 0.36363688
0.43290266 -0.25018498 0.35367823
-0.42368743 -0.22973832 0.36363688
0.43290266 -0.22859377 0.35367823
-0.43617442 -0.22324304 0.35958809
0.43584275 -0.22210597 0.36525735
-0.43439737 -0.2051346 0.35391885
-0.42165092 -0.20565628 0.36183721
0.41750571 -0.20328002 0.36003739
0.43290266 -0.20700251 0.35367823
-0.43439737 -0.18588929 0.35391885
-0.42368743 -0.18632694 0.36363688
0.43290266 -0.18541129 0.35367823
-0.43439737 -0.16664396 0.35391885
-0.42368743 -0.16462123 0.36363688
0.43290266 -0.16382004 0.35367823
-0.43439737 -0.14739864 0.35391885
-0.42173365 -0.14448404 0.35939702
0.41766441 -0.14606823 0.35515869
0.43290266 -0.1422288 0.35367823
-0.43630344 -0.12834361 0.35381052
-0.42368743 -0.12120983 0.36363688
0.43450481 -0.12459227 0.35368937
-0.43439737 -0.10890797 0.35391885
-0.43439737 -0.089662634 0.35391885
-0.42368743 -0.099504121 0.36363688
0.43290266 -0.099046297 0.35367823
-0.43834138 -0.079574458 0.35818309
-0.42368743 -0.077798419 0.36363688
0.43457076 -0.078521512 0.35592985
-0.43439737 -0.070417307 0.35391885
-0.43439737 -0.051171981 0.35391885
-0.42368743 -0.056092724 0.36363688
0.43290266 -0.055863813 0.35367823
-0.43644053 -0.030510085 0.35836095
-0.42368743 -0.034387022 0.36363688
0.43464199 -0.031690024 0.35823977
-0.43439737 -0.012681326 0.35391885
-0.42368743 -0.012681326 0.36363688
0.43290266 -0.012681326 0.35367823
-0.43439737 0.0065640025 0.35391885
-0.42195979 0.011928182 0.36322814
0.41812354 0.014831988 0.36281928
0.43290266 0.0089099184 0.35367823
-0.43439737 0.025809331 0.35391885
-0.42368743 0.030730074 0.36363688
0.43290266 0.030501163 0.35367823
-0.43439737 0.045054659 0.35391885
-0.42368743 0.052435771 0.36363688
0.43290266 0.052092411 0.35367823
-0.43439737 0.064299986 0.35391885
-0.4220295 0.069642924 0.36091799
0.41826293 0.065144375 0.358199
0.43290266 0.073683649 0.35367823
-0.43439737 0.083545305 0.35391885
-0.43439737 0.10279064 0.35391885
-0.42368743 0.095847175 0.36363688
0.43290266 0.095274888 0.35367823
-0.43439737 0.12203596 0.35391885
-0.42210022 0.11574655 0.35867727
0.41839811 0.11392728 0.35371903
0.43290266 0.11686613 0.35367823
-0.43893868 0.13231426 0.35513878
0.43682998 0.13231435 0.3551386
-0.43439737 0.14128128 0.35391885
-0.42368743 0.13925855 0.36363688
0.43290266 0.13845737 0.35367823
-0.43439737 0.16052662 0.35391885
-0.42368743 0.16096425 0.36363688
0.43290266 0.16004862 0.35367823
-0.43439737 0.17977194 0.35391885
-0.42368743 0.18266998 0.36363688
0.43290266 0.18163987 0.35367823
-0.43909389 0.18973225 0.36001837
0.4369919 0.18971604 0.36001664
-0.43439737 0.19901727 0.35391885
-0.42222929 0.20578153 0.36445564
0.41866252 0.20718738 0.36527437
0.43290266 0.20323111 0.35367823
-0.43439737 0.2182626 0.35391885
-0.42368743 0.22608136 0.36363688
0.43290266 0.22482234 0.35367823
-0.43439737 0.23750794 0.35391885
-0.43926099 0.24908763 0.36506245
-0.43439737 0.25675327 0.35391885
-0.42229399 0.24978811 0.36226127
0.41878593 0.2517775 0.36088705
0.43290266 0.24641359 0.35367823
0.43715924 0.2490707 0.36506057
-0.42368743 0.26949275 0.36363688
0.43290266 0.26800483 0.35367823
-0.43439737 0.27599859 0.35391885
-0.43439737 0.29524392 0.35391885
-0.42235386 0.29314986 0.36013049
0.41890582 0.2950899 0.3566255
0.43290266 0.28959608 0.35367823
-0.43439737 0.31448925 0.35391885
-0.42368743 0.31290415 0.36363688
0.43290266 0.31118733 0.35367823
-0.43439737 0.33373457 0.35391885
0.43290266 0.33277857 0.35367823
-0.4224121 0.33589962 0.35805988
0.4190281 0.33718941 0.35248291
-0.43439737 0.3529799 0.35391885
-0.42368743 0.35631555 0.36363688
0.43290266 0.35436982 0.35367823
-0.43961307 0.37406901 0.35166728
-0.43439737 0.37222522 0.35391885
-0.42368743 0.37802127 0.36363688
0.43290266 0.37596104 0.35367823
0.43751147 0.37405065 0.35166538
-0.43439737 0.39147055 0.35391885
-0.42368743 0.39972696 0.36363688
0.43290266 0.39755228 0.35367823
-0.43439737 0.41071588 0.35391885
-0.42252657 0.41966987 0.36345756
0.41925141 0.41789663 0.36327976
0.43290266 0.41914356 0.35367823
-0.43979856 0.43991968 0.35683286
-0.43439737 0.4299612 0.35391885
0.4376899 0.43991968 0.35683262
-0.43439737 0.44920653 0.35391885
-0.42071238 0.44651967 0.36189902
-0.39645892 0.44992512 0.3615365
-0.37498239 0.44994953 0.36292458
-0.35330477 0.44997412 0.36432573
-0.32666519 0.45034572 0.36526534
-0.2935254 0.45066053 0.36318558
-0.26497763 0.45035258 0.35624957
-0.23972225 0.45034963 0.35615239
-0.21884979 0.45011657 0.35367066
-0.21015657 0.45057786 0.35846964
-0.18931645 0.45034495 0.35600269
-0.17229065 0.45016941 0.35649186
-0.15602608 0.45051661 0.35540819
-0.14866988 0.45019615 0.35792321
-0.12709855 0.4503549 0.35663486
-0.10186835 0.45035359 0.35661897
-0.076904431 0.45042729 0.35093343
-0.07640253 0.4502781 0.36230224
-0.051825449 0.45029503 0.36379257
-0.027010204 0.45032322 0.36529624
0.024893431 0.45031223 0.36529782
0.049708985 0.4502843 0.36379403
0.0742862 0.45026729 0.36230373
0.074787021 0.45043847 0.35093194
0.09975142 0.45035386 0.35661888
0.12498163 0.45035514 0.35663491
0.1465539 0.45018545 0.3579247
0.15390794 0.45052797 0.35540667
0.17017476 0.45015863 0.35649335
0.1871995 0.45034531 0.3560026
0.20803809 0.45058921 0.358468
0.21673423 0.45010594 0.35367212
0.23760532 0.45035017 0.35615224
0.26286066 0.45035297 0.35624951
0.29140639 0.45067194 0.36318403
0.32454818 0.45034641 0.36526525
0.35119024 0.44996402 0.36432707
0.37286791 0.44993946 0.36292601
0.3943446 0.44991505 0.36153769
0.4156231 0.449891 0.3601625
0.43290266 0.44073477 0.35367823
-0.4340969 -0.45966026 0.37746847
-0.41595984 -0.46562237 0.37569308
-0.38976648 -0.46522307 0.36962852
-0.36056435 -0.46524918 0.36797157
-0.32874507 -0.46561953 0.36671016
-0.30359963 -0.4659445 0.36852831
-0.28116789 -0.4659147 0.369984
-0.25852743 -0.46589479 0.37145212
-0.23566921 -0.46587488 0.37293428
-0.21258298 -0.46584418 0.37443247
-0.19052039 -0.46562344 0.37770027
-0.16520301 -0.46562511 0.37763944
-0.13990238 -0.46562693 0.37759447
-0.11463135 -0.46562812 0.37756565
-0.085009255 -0.4655292 0.37296605
-0.058996476 -0.46556327 0.37138364
-0.03325671 -0.46558622 0.36981881
-0.019562431 -0.46564195 0.36673492
-0.0077691549 -0.46561971 0.36826831
0.0056603933 -0.46561989 0.36826825
0.01745376 -0.46564195 0.36673483
0.031139573 -0.4655973 0.36981723
0.056887709 -0.46556336 0.37138367
0.082891755 -0.46554029 0.37296453
0.11251897 -0.46562272 0.37756652
0.13779376 -0.46562696 0.37759447
0.163086 -0.46562546 0.37763935
0.18840821 -0.46561801 0.37770116
0.21047422 -0.46584401 0.37443238
0.23355378 -0.46586427 0.37293571
0.2564123 -0.46588445 0.37145352
0.27905926 -0.4659147 0.36998382
0.30148479 -0.46593434 0.3685298
0.32663324 -0.46561435 0.3667109
0.35845572 -0.46524918 0.36797172
0.38765782 -0.46522307 0.36962867
0.41384834 -0.46561727 0.3756938
0.42695346 -0.46069276 0.37446523
0.42220268 -0.43607226 0.37030879
-0.43437549 -0.43408746 0.37631664
-0.43437549 -0.41493261 0.37631664
0.42220268 -0.4168272 0.37030879
-0.43592709 -0.39469266 0.37187743
0.42878631 -0.39559478 0.36887342
-0.43437549 -0.37662297 0.37631664
-0.41909745 -0.38702294 0.37570637
0.41698152 -0.38704112 0.37570828
0.42220268 -0.37833712 0.37030879
-0.43598223 -0.35500601 0.37402502
0.4288415 -0.35581791 0.37102109
-0.43437549 -0.33831334 0.37631664
0.42220268 -0.33984706 0.37030879
-0.43437549 -0.31915849 0.37631664
-0.41927326 -0.32366124 0.37030339
0.41715753 -0.32367852 0.37030506
0.42220268 -0.320602 0.37030879
-0.43770829 -0.31031445 0.37615016
0.42890111 -0.30583569 0.37322944
-0.43437549 -0.30000368 0.37631664
-0.43437549 -0.28084886 0.37631664
0.42220268 -0.28211191 0.37030879
-0.43610033 -0.26426983 0.37850681
0.42896253 -0.26486212 0.37550205
-0.43437549 -0.24253921 0.37631664
0.42220268 -0.24362184 0.37030879
-0.43437549 -0.22338438 0.37631664
0.42220268 -0.2243768 0.37030879
-0.43437549 -0.20422958 0.37631664
0.42220268 -0.20513174 0.37030879
-0.43437549 -0.18507475 0.37631664
0.42220268 -0.18588673 0.37030879
-0.4362255 -0.1709671 0.3730469
0.42908782 -0.17133433 0.37004215
-0.43437549 -0.14676511 0.37631664
-0.41977975 -0.14605273 0.37759441
0.41766441 -0.14606823 0.37759611
0.42220268 -0.14739664 0.37030879
-0.43629247 -0.12807216 0.37537473
0.42915174 -0.12834276 0.37237078
-0.43437549 -0.10845546 0.37631664
0.42220268 -0.10890654 0.37030879
-0.43437549 -0.089300618 0.37631664
-0.41993332 -0.09069331 0.37251043
0.41782463 -0.090693399 0.37251037
0.42220268 -0.089661494 0.37030879
-0.43834132 -0.079574458 0.37923384
0.43623886 -0.079587966 0.37923202
-0.43437549 -0.070145801 0.37631664
0.42220268 -0.070416451 0.37030879
-0.43437549 -0.050990976 0.37631664
0.42220268 -0.051171407 0.37030879
-0.43437549 -0.031836152 0.37631664
-0.42008838 -0.037083082 0.36758691
0.41797316 -0.037097402 0.36758858
0.42220268 -0.031926367 0.37030879
-0.43437549 -0.012681326 0.37631664
0.42220268 -0.012681326 0.37030879
-0.43437549 0.0064734984 0.37631664
0.42220268 0.0065637156 0.37030879
-0.43650299 0.024311876 0.37194332
0.42936227 0.024402095 0.36893934
-0.43437549 0.044783145 0.37631664
0.42220268 0.045053802 0.37030879
-0.43657559 0.070361637 0.37440485
-0.42037156 0.065144375 0.37925088
0.41826302 0.065144464 0.37925079
0.42943805 0.07053455 0.37140006
-0.43437549 0.083092794 0.37631664
0.42220268 0.083543882 0.37030879
-0.43437549 0.10224762 0.37631664
0.42220268 0.10278893 0.37030879
-0.43437549 0.12140244 0.37631664
-0.42051297 0.11394025 0.37444931
0.41839811 0.11392728 0.37445092
0.42220268 0.12203398 0.37030879
-0.43893212 0.13232975 0.37757629
0.43683007 0.13231418 0.37757435
-0.43437549 0.14055726 0.37631664
0.42220268 0.141279 0.37030879
-0.43437549 0.15971208 0.37631664
-0.42064404 0.16126192 0.36979321
0.41853535 0.16126183 0.36979312
0.42220268 0.16052404 0.37030879
-0.43437549 0.17886692 0.37631664
0.42220268 0.17976908 0.37030879
-0.43437549 0.19802174 0.37631664
0.42220268 0.19901414 0.37030879
-0.43437549 0.21717657 0.37631664
0.42220268 0.21825919 0.37030879
-0.43437549 0.23633137 0.37631664
0.42220268 0.23750421 0.37030879
-0.43437549 0.25548622 0.37631664
-0.42090052 0.25178921 0.38071305
0.41878593 0.2517775 0.38071465
0.42220268 0.25674927 0.37030879
-0.43437549 0.27464104 0.37631664
0.42220268 0.2759943 0.37030879
-0.43437549 0.29379585 0.37631664
-0.42102033 0.29510126 0.37616739
0.41890582 0.2950899 0.37616885
0.42220268 0.29523936 0.37030879
-0.43943396 0.31049699 0.37028101
-0.43437549 0.3129507 0.37631664
0.42220268 0.31448442 0.37030879
0.43733224 0.31047952 0.37027895
-0.43437549 0.33210549 0.37631664
0.42220268 0.33372945 0.37030879
-0.4211368 0.3371895 0.37175012
0.41902816 0.3371895 0.37175
-0.43437549 0.35126033 0.37631664
0.42220268 0.35297447 0.37030879
-0.43961307 0.37406901 0.37568337
-0.43437549 0.37041518 0.37631664
-0.42125562 0.37811574 0.3674545
0.41914126 0.3781051 0.36745584
0.42220268 0.3722195 0.37030879
0.43751147 0.37405065 0.37568134
-0.43437549 0.38956997 0.37631664
0.42220268 0.39146456 0.37030879
-0.43437549 0.40872478 0.37631664
0.42220268 0.41070962 0.37030879
-0.43437549 0.42787963 0.37631664
0.42220268 0.42995465 0.37030879
-0.43303722 0.4503659 0.37465373
-0.41773725 0.4499009 0.37870413
-0.40280551 0.45224023 0.37536329
-0.38356933 0.45199841 0.37215534
-0.37190017 0.45412278 0.37578845
-0.35055333 0.45299238 0.37265754
-0.32916692 0.45412615 0.37577981
-0.30831024 0.45275542 0.37290955
-0.29092366 0.45323926 0.37625757
-0.28448847 0.45252603 0.37195617
-0.26488602 0.45277235 0.37387499
-0.25227439 0.45323926 0.37625757
-0.23662493 0.4527809 0.37436461
-0.21623747 0.45167786 0.37463737
-0.21093969 0.45279542 0.37742135
-0.19031216 0.45223555 0.37599158
-0.17363325 0.45170426 0.37614202
-0.15886165 0.452923 0.37594008
-0.14508495 0.45260456 0.37642759
-0.13017461 0.45131636 0.37666616
-0.11754721 0.45412612 0.37577981
-0.099024728 0.45223987 0.37631482
-0.077628672 0.45183325 0.37386191
-0.071277067 0.45501295 0.37530202
-0.05265484 0.45288345 0.37382001
-0.0397036 0.45323926 0.37625757
-0.02344382 0.45287383 0.37330347
-0.0019450467 0.45035157 0.36681509
-0.00076016213 0.45286429 0.37279207
0.021332357 0.45287743 0.37330306
0.037594933 0.45323926 0.37625757
0.050543357 0.45288715 0.37381953
0.069168486 0.45501304 0.37530202
0.075515516 0.45183888 0.37386113
0.096911922 0.45223996 0.37631482
0.1154386 0.45412612 0.37577981
0.1280604 0.45131645 0.37666619
0.14297259 0.45259914 0.3764284
0.15674981 0.45292673 0.37593949
0.17152107 0.45169899 0.3761428
0.18819937 0.45223573 0.37599155
0.20882615 0.45280108 0.37742051
0.21412542 0.4516727 0.37463808
0.23451412 0.45277745 0.37436503
0.25016579 0.45323935 0.37625766
0.26277512 0.45276883 0.37387544
0.28237662 0.45252091 0.37195688
0.28881508 0.45323926 0.37625757
0.30619949 0.45275199 0.37291002
0.32705823 0.45412612 0.37577981
0.34844115 0.45299619 0.37265706
0.36978951 0.45412889 0.37578538
0.38145438 0.45200703 0.37216011
0.40069154 0.4522438 0.37536168
0.41795281 0.45245197 0.37700379
0.42931128 0.45001778 0.37084705
-0.42599812 -0.46269333 0.38746276
-0.41910365 -0.45892996 0.3872993
-0.40668252 -0.4626933 0.38746268
-0.38945079 -0.46464917 0.38683859
-0.36883715 -0.46435288 0.38525355
-0.35465002 -0.46397123 0.38859212
-0.34782419 -0.4659934 0.3845461
-0.32897002 -0.46464413 0.38716394
-0.30685201 -0.46431893 0.38752842
-0.29693836 -0.46400276 0.38684446
-0.27799097 -0.46562609 0.38682404
-0.26500025 -0.46429408 0.38908172
-0.24949868 -0.46402782 0.38513458
-0.23425555 -0.46428406 0.38986915
-0.21508667 -0.4646453 0.38748407
-0.19174483 -0.46425849 0.39146781
-0.17489497 -0.4626933 0.38746268
-0.15557933 -0.4626933 0.38746268
-0.1362638 -0.46269333 0.38746276
-0.11411493 -0.46409959 0.3913826
-0.095685512 -0.46420586 0.38480192
-0.081663005 -0.46411121 0.39053082
-0.069262117 -0.46569678 0.38372844
-0.058998816 -0.46412838 0.38968676
-0.039160989 -0.46465153 0.38767862
-0.019966187 -0.46416765 0.38720754
-0.0077691549 -0.46561971 0.38858777
0.0023030974 -0.46415651 0.3880254
0.017857539 -0.46416762 0.38720745
0.03704685 -0.46465153 0.38767862
0.056890186 -0.46412832 0.38968685
0.067153439 -0.46569678 0.38372844
0.079549991 -0.46411687 0.39052996
0.093576819 -0.46420586 0.38480192
0.11200631 -0.46409956 0.39138272
0.13415509 -0.46269333 0.38746276
0.15347081 -0.4626933 0.38746268
0.17278634 -0.4626933 0.38746268
0.18963273 -0.46425322 0.39146852
0.21297795 -0.46464536 0.3874841
0.23214352 -0.46427882 0.3898699
0.24739006 -0.46402782 0.3851347
0.2628884 -0.46428886 0.38908255
0.2758823 -0.465626 0.38682404
0.29482979 -0.4640027 0.38684446
0.30474022 -0.46431372 0.38752919
0.32685933 -0.46464071 0.38716447
0.34570953 -0.46598321 0.38454759
0.35254148 -0.4639712 0.38859212
0.36672562 -0.46434772 0.38525414
0.38734019 -0.4646458 0.38683909
0.40457395 -0.46269333 0.38746276
0.41699502 -0.45892996 0.3872993
0.42222816 -0.45323581 0.3926293
-0.42365491 -0.44912103 0.39231774
0.43293083 -0.44680741 0.38215381
-0.43736571 -0.43353197 0.38199928
-0.42365491 -0.42729905 0.39231774
0.43013871 -0.43090481 0.38559413
