ply
format ascii 1.0
comment PCL generated
element vertex 1067
property float x
property float y
property float z
element camera 1
property float view_px
property float view_py
property float view_pz
property float x_axisx
property float x_axisy
property float x_axisz
property float y_axisx
property float y_axisy
property float y_axisz
property float z_axisx
property float z_axisy
property float z_axisz
property float focal
property float scalex
property float scaley
property float centerx
property float centery
property int viewportx
property int viewporty
property float k1
property float k2
end_header
-0.3038519 -0.30283019 -0.81866002
-0.30373693 -0.29030323 -0.81937099
-0.29662764 -0.34464383 -0.78468084
-0.29391164 -0.3208243 -0.80208516
-0.28214845 -0.30519384 -0.79672766
-0.28826702 -0.27981561 -0.79778552
-0.29605287 -0.2489768 -0.78841472
-0.29075307 -0.35551885 -0.76723599
-0.27472281 -0.34153533 -0.75920796
-0.27355638 -0.31475717 -0.76762581
-0.27467334 -0.28334919 -0.75956535
-0.28619596 -0.24394889 -0.76905489
-0.27617085 -0.25838861 -0.7487576
-0.29485703 -0.21604638 -0.76247573
-0.30156374 -0.19327113 -0.75262022
-0.29882461 -0.38503617 -0.72770214
-0.27891415 -0.37822819 -0.7289598
-0.27691755 -0.36308548 -0.74336886
-0.27755049 -0.2395388 -0.738801
-0.27919188 -0.21398036 -0.72695541
-0.29625875 -0.17818195 -0.73593545
-0.28077209 -0.19469777 -0.71555114
-0.3018111 -0.15044372 -0.72237372
-0.30761242 -0.12845072 -0.71333289
-0.29053527 -0.41026765 -0.69340897
-0.27405268 -0.38711998 -0.69107008
-0.27022138 -0.34969425 -0.6949296
-0.27014583 -0.31609342 -0.69550633
-0.27030164 -0.28269789 -0.69431591
-0.27074638 -0.24939084 -0.69091797
-0.27174968 -0.21618612 -0.68325067
-0.28167564 -0.1749911 -0.70903063
-0.28936625 -0.14181173 -0.70159459
-0.29491597 -0.11500794 -0.6907568
-0.29700649 -0.44513386 -0.64807463
-0.29346365 -0.42715874 -0.67291188
-0.27519983 -0.42305028 -0.65688705
-0.27319664 -0.18276653 -0.672194
-0.27465522 -0.14208883 -0.66104865
-0.28677404 -0.10128517 -0.67223597
-0.27643919 -0.11467689 -0.64741659
-0.29590678 -0.076605231 -0.66526532
-0.2970162 -0.052724056 -0.64795732
-0.30072331 -0.46371746 -0.62201476
-0.27953333 -0.45645434 -0.62377286
-0.27717295 -0.10081661 -0.64180994
-0.27820489 -0.079865277 -0.63392425
-0.29635859 -0.036048047 -0.63630795
-0.28009862 -0.051495068 -0.61945367
-0.30081737 -0.0096405149 -0.6211772
-0.30931729 0.012093589 -0.61097312
-0.29062951 -0.48325297 -0.59309268
-0.27096266 -0.4500463 -0.58005023
-0.27012503 -0.42037219 -0.58685136
-0.26973957 -0.38434368 -0.5899806
-0.26964948 -0.34869474 -0.59071183
-0.26868939 -0.27705836 -0.59850693
-0.2695111 -0.24913903 -0.59183574
-0.27001727 -0.21387932 -0.58772612
-0.27010065 -0.18540534 -0.58704901
-0.28162348 -0.029898793 -0.6078012
-0.28321955 -0.0079699755 -0.59560513
-0.29470837 0.024459034 -0.5892148
-0.29724085 -0.5218215 -0.54409313
-0.29390901 -0.50231445 -0.56876397
-0.27341279 -0.48239586 -0.56015754
-0.27241528 -0.31542373 -0.56825638
-0.27415189 -0.17192625 -0.55415702
-0.2745446 -0.14298436 -0.55096865
-0.27456814 -0.10668291 -0.55077767
-0.27451369 -0.077644654 -0.5512197
-0.27495241 -0.055741645 -0.54765725
-0.28600442 0.029251471 -0.57432461
-0.29361027 0.062257007 -0.56019688
-0.30336124 0.089114651 -0.55252767
-0.30113113 -0.54260629 -0.5152564
-0.27723557 -0.51761878 -0.52912068
-0.27657717 -0.03326726 -0.53446627
-0.27614021 -0.0042173564 -0.53801394
-0.2763257 0.025151953 -0.53650808
-0.27825916 0.055922657 -0.52081037
-0.29623234 0.10109884 -0.53336096
-0.27942646 0.07904996 -0.51133323
-0.3028574 0.12723398 -0.52054095
-0.30954701 0.15366137 -0.50788593
-0.29038867 -0.56456292 -0.48316002
-0.28070033 -0.54568136 -0.50099039
-0.28113723 0.10295527 -0.49744272
-0.28709513 0.13638023 -0.48932815
-0.2972399 0.16401982 -0.48847032
-0.29432708 -0.5867461 -0.45222211
-0.27240956 -0.48898965 -0.44374323
-0.27183396 -0.45747346 -0.44872785
-0.27151883 -0.41882482 -0.4514575
-0.27138481 -0.38045195 -0.45261788
-0.27185804 -0.35038441 -0.44851947
-0.27092841 -0.31899285 -0.45657039
-0.27175111 -0.29672754 -0.44944525
-0.27277002 -0.17454824 -0.44062161
-0.28537405 0.16783801 -0.4630444
-0.29402298 0.19964728 -0.45442367
-0.30212545 0.23075032 -0.45113754
-0.3029561 0.26256153 -0.44479012
-0.30290365 0.30080497 -0.44519067
-0.29852718 -0.60990179 -0.41920495
-0.27697897 -0.58219647 -0.40417099
-0.27612963 -0.55718088 -0.41152692
-0.27390099 -0.52221584 -0.43082714
-0.27356064 -0.27491346 -0.43377495
-0.27404609 -0.24433365 -0.42957067
-0.27392197 -0.21338503 -0.43064547
-0.27324229 -0.19004005 -0.43653154
-0.27328348 -0.15154721 -0.43617487
-0.27433825 -0.11296279 -0.42704058
-0.27523753 -0.074081503 -0.41925263
-0.27528328 -0.04302159 -0.41885638
-0.27587637 -0.011638537 -0.41371989
-0.27690786 0.012324244 -0.40478683
-0.2888436 0.23368719 -0.43487501
-0.28930378 0.26523861 -0.43113899
-0.28925216 0.29603389 -0.43155813
-0.29752922 0.32792941 -0.4268465
-0.30243248 -0.63300776 -0.38845301
-0.27984354 -0.61940962 -0.37936306
-0.27779394 -0.599473 -0.39711285
-0.27717757 0.028145641 -0.40245104
-0.27859724 0.060624197 -0.39015627
-0.27977759 0.1011385 -0.37993383
-0.27918845 0.13214001 -0.38503623
-0.27819088 0.16249904 -0.39367557
-0.27734923 0.19279769 -0.40096474
-0.27745694 0.23216036 -0.40003181
-0.27751189 0.27143586 -0.39955568
-0.26340777 0.29806063 -0.38449812
-0.23240246 0.31123573 -0.37840176
-0.29615068 0.34755123 -0.37554908
-0.26678303 0.33955884 -0.38280797
-0.23252168 0.33530548 -0.37712574
-0.27262712 0.36399212 -0.37314343
-0.29865277 -0.65721369 -0.3552351
-0.28236288 -0.64062154 -0.35754514
-0.26756957 0.24166301 -0.34629893
-0.25838453 0.26375934 -0.35699868
-0.22750312 0.27423164 -0.34429932
-0.20398067 0.2757937 -0.33618307
-0.22333558 0.29221544 -0.36144662
-0.19479704 0.29700854 -0.35099268
-0.1633257 0.30735531 -0.339926
-0.19373664 0.3259362 -0.36558318
-0.16244949 0.32821417 -0.35514927
-0.1307354 0.32990557 -0.34738207
-0.098667942 0.33884153 -0.34348965
-0.21991356 0.35599637 -0.33898044
-0.19455382 0.35244235 -0.35437036
-0.16265067 0.3529948 -0.35197759
-0.13050371 0.35278735 -0.35287642
-0.098689511 0.36312553 -0.34307694
-0.06649363 0.36391526 -0.33968997
-0.29564536 -0.68428171 -0.31303525
-0.28529727 -0.66308248 -0.33213258
-0.27076805 0.20609653 -0.31662035
-0.25924411 0.23498651 -0.32269812
-0.23312017 0.24229071 -0.31185055
-0.20619048 0.24853659 -0.30747652
-0.22892171 0.26108387 -0.32828021
-0.19322239 0.26315039 -0.31681252
-0.16767922 0.27501813 -0.3118248
-0.16412288 0.29400802 -0.32596755
-0.13202399 0.30395088 -0.31687999
-0.099521056 0.31319726 -0.31181836
-0.075143993 0.31517419 -0.30230737
-0.099050015 0.32579446 -0.32926297
-0.066670038 0.33512506 -0.32356882
-0.030015087 0.34147471 -0.3133204
0.007020656 0.34815019 -0.30179238
-0.026062774 0.36582083 -0.33149719
0.014724802 0.36822 -0.32120275
0.044906422 0.3728877 -0.31294942
0.080749087 0.3800185 -0.30598569
-0.058545336 0.39194712 -0.32414603
-0.017898608 0.39176372 -0.32489133
0.014665198 0.39220253 -0.32310939
0.047446713 0.4017922 -0.31736588
0.080204546 0.40231737 -0.31522965
0.11334682 0.40393111 -0.30872583
0.14644235 0.41309598 -0.3049109
-0.29923928 -0.70871234 -0.28303671
-0.27563316 0.13823518 -0.27147794
-0.27423829 0.16146967 -0.28442073
-0.26520103 0.19363391 -0.2913065
-0.24252158 0.20528036 -0.26905107
-0.2563988 0.21742877 -0.29712391
-0.22985239 0.22459021 -0.28678918
-0.2026422 0.23093873 -0.28179908
-0.1754761 0.23783061 -0.27391028
-0.16350022 0.25723875 -0.28934741
-0.13756552 0.26922727 -0.28391171
-0.10888435 0.27115795 -0.27375293
-0.12479183 0.28409389 -0.29305387
-0.10010603 0.29290667 -0.29009366
-0.0655092 0.29946312 -0.28187633
-0.033954766 0.30416754 -0.27520657
-0.022430727 0.32445046 -0.28937817
0.015767727 0.33602184 -0.28160954
0.040799603 0.34508556 -0.27815175
0.056875914 0.35904378 -0.28984761
0.082194872 0.36108184 -0.28086782
0.11510193 0.37676004 -0.28478861
0.14008285 0.38548908 -0.28306222
0.15073779 0.39536485 -0.28775597
0.17951511 0.40447792 -0.28647113
0.21516787 0.41130528 -0.27914858
0.089909241 0.43336579 -0.29016566
0.10591002 0.43138906 -0.29771805
0.14701939 0.43123665 -0.2983005
0.18037979 0.44059882 -0.29410696
0.21365644 0.44121888 -0.29174685
0.24803127 0.43553719 -0.28172874
0.28145427 0.44427893 -0.28012323
0.30672121 0.45322284 -0.27779555
0.25715107 0.47041729 -0.27572012
0.28221446 0.47063383 -0.27493787
0.31843305 0.46533462 -0.27401853
0.34935963 0.47150692 -0.27178764
-0.29582596 -0.73695421 -0.24095154
-0.27954531 -0.69617772 -0.23517752
-0.279365 -0.48407406 -0.23685098
-0.27796346 -0.45673254 -0.24985552
-0.27838764 -0.42355788 -0.24591947
-0.27928975 -0.38238668 -0.23754907
-0.27864167 -0.35636601 -0.2435627
-0.27858439 -0.32255998 -0.24409413
-0.27758616 -0.28812027 -0.25335646
-0.2782616 -0.25486031 -0.24708915
-0.27732593 -0.22080448 -0.25577116
-0.27720058 -0.18716809 -0.25693417
-0.27755243 -0.14526094 -0.25366926
-0.27819622 -0.10317367 -0.24769568
-0.27786016 -0.069553129 -0.25081396
-0.27881074 -0.035524473 -0.24199367
-0.27949673 -0.0098441169 -0.23562813
-0.27910817 0.07454218 -0.23923397
-0.27783048 0.098664284 -0.25108886
-0.27632171 0.12230507 -0.26508927
-0.26201019 0.16730613 -0.24105167
-0.2458159 0.17684871 -0.2333889
-0.25956491 0.18911529 -0.265486
-0.23292869 0.19674921 -0.25147676
-0.20534681 0.20325989 -0.24547863
-0.17764238 0.20994806 -0.23873472
-0.19275291 0.22264591 -0.26485109
-0.16543511 0.22979644 -0.25510955
-0.13790973 0.2371552 -0.24454665
-0.11000165 0.24400222 -0.23746777
-0.12595731 0.25645161 -0.26277328
-0.098229304 0.26315615 -0.25637054
-0.067555614 0.26762834 -0.24706268
-0.033822704 0.2768546 -0.24291825
-0.021318484 0.29474705 -0.2593987
0.013820615 0.303523 -0.25028872
0.050801851 0.31151769 -0.23848414
0.024535783 0.32257521 -0.2666986
0.052741215 0.32987916 -0.25837731
0.08399722 0.33451146 -0.24964571
0.11537941 0.33889037 -0.24228454
0.14422382 0.34629354 -0.23415947
0.11701322 0.35777739 -0.25866771
0.15107843 0.3675077 -0.25261116
0.18578961 0.36988351 -0.24215031
0.2201048 0.3793712 -0.23776484
0.19196999 0.39025214 -0.26310301
0.21818908 0.39246568 -0.25382662
0.2526148 0.40230182 -0.24777818
0.28751934 0.41273966 -0.2397387
0.28488922 0.42520025 -0.25726318
0.31912363 0.43461481 -0.25315452
0.35375565 0.44452086 -0.24754596
0.38967043 0.44747588 -0.23625517
0.35094631 0.4571918 -0.26306415
0.38572478 0.46736047 -0.25638795
0.41490704 0.47265485 -0.23704219
0.30874598 0.49002847 -0.26527071
0.35103399 0.49082819 -0.26246381
-0.29154286 -0.7559185 -0.20348835
-0.28083014 -0.72481906 -0.22325587
-0.28081244 -0.66514695 -0.22342062
-0.28172103 -0.63297892 -0.21498942
-0.28092778 -0.5972299 -0.22234988
-0.28055304 -0.56243968 -0.22582698
-0.28098392 -0.52913022 -0.22182941
-0.28031698 -0.50250435 -0.22801757
-0.28052577 -0.40072849 -0.22607994
-0.28100297 0.0079606622 -0.22165251
-0.28001153 0.032859087 -0.23085165
-0.2801035 0.058408275 -0.22999859
-0.26465157 0.14523384 -0.21465707
-0.23622747 0.16815171 -0.21364355
-0.21328637 0.17935544 -0.21529818
-0.19069733 0.18552798 -0.21164966
-0.16206926 0.2010344 -0.2130549
-0.14478695 0.21322942 -0.21742058
-0.12217157 0.21972838 -0.21201873
-0.093517952 0.23464242 -0.21692848
-0.067871131 0.24702248 -0.21963453
-0.042282894 0.24874625 -0.20945621
-0.021782896 0.26432818 -0.21802163
0.014776941 0.27665845 -0.21295786
0.025600649 0.29582131 -0.23211598
0.048927508 0.29339808 -0.2149415
0.082889616 0.30964994 -0.21924472
0.10355517 0.30911326 -0.20750332
0.12797023 0.33123279 -0.22504568
0.15010731 0.33332348 -0.2147851
0.18592222 0.34506178 -0.21328664
0.21956988 0.36107811 -0.21826959
0.24843104 0.37175378 -0.21490884
0.27497935 0.37746683 -0.20878601
0.2896207 0.39917096 -0.22572851
0.31982166 0.4018372 -0.21430612
0.35778117 0.41447702 -0.20941544
0.35714024 0.43242237 -0.22883296
0.39119154 0.43048725 -0.21392679
0.42035341 0.44552925 -0.21083832
-0.30352753 -0.79027057 -0.17425394
-0.28599849 -0.7725563 -0.17529964
-0.2621083 0.12609833 -0.18203664
-0.24955542 0.14791265 -0.19290757
-0.22145465 0.15472355 -0.18430781
-0.19295663 0.16126844 -0.17833972
-0.16451427 0.16839686 -0.16836691
-0.15496632 0.18365383 -0.18427753
-0.12344275 0.19615379 -0.17754793
-0.08591482 0.20324934 -0.16885066
-0.085519828 0.21754926 -0.18936157
-0.059602056 0.22655138 -0.18687367
-0.036494873 0.23061991 -0.17952466
-0.0074159391 0.23765215 -0.17202377
0.00098858401 0.25222751 -0.18890023
0.035865851 0.2621778 -0.18120575
0.070970416 0.27223146 -0.17364812
0.070012599 0.28612125 -0.19276094
0.10802241 0.29354611 -0.18370986
0.13745765 0.30058822 -0.17707658
0.17611247 0.30831471 -0.16719866
0.14729448 0.31964129 -0.19789696
0.17412554 0.32164437 -0.18788815
0.20946686 0.33157456 -0.18144369
0.24512102 0.34181595 -0.17412663
0.25162596 0.35563448 -0.19082332
0.28112596 0.36241329 -0.18603182
0.3111282 0.36977625 -0.17884564
0.3411867 0.37703201 -0.17241859
0.34731752 0.39099625 -0.18742704
0.38276488 0.4006407 -0.18306041
0.41937685 0.41157976 -0.17373013
0.41596776 0.42488363 -0.19044042
0.44394523 0.44460377 -0.1808815
-0.30763489 -0.81836605 -0.13868284
-0.28826326 -0.79611182 -0.15428567
-0.26576662 0.095045894 -0.14448476
-0.25307688 0.11747546 -0.15478659
-0.22728129 0.12700772 -0.1477282
-0.19243024 0.13654625 -0.14175558
-0.182622 0.15222728 -0.1578753
-0.1539976 0.15963054 -0.14527011
-0.12170633 0.17164525 -0.14354348
-0.095483825 0.17302114 -0.13303065
-0.11239059 0.1870338 -0.15988445
-0.086296521 0.18856496 -0.14883399
-0.059918143 0.19776347 -0.14581275
-0.033441443 0.20685518 -0.1441977
-0.0068228729 0.20841935 -0.13350224
-0.024750786 0.22219133 -0.15921068
0.004608687 0.22907001 -0.15243864
0.034141481 0.23602432 -0.14554644
0.063809827 0.24287355 -0.13972402
0.071902908 0.25797817 -0.15494394
0.10743462 0.26777545 -0.14885116
0.14329481 0.278016 -0.14097738
0.15071936 0.29264498 -0.15745068
0.17816839 0.29478627 -0.14586043
0.21052955 0.30659658 -0.14542174
0.25000668 0.31439099 -0.13562536
0.24753861 0.32821676 -0.15505052
0.28352165 0.33818096 -0.14906311
0.31950414 0.34803057 -0.14422631
0.34808439 0.35063627 -0.13168979
0.32573414 0.36223847 -0.16018367
0.35618079 0.36960569 -0.1530664
0.39006972 0.37443593 -0.14435005
0.41733289 0.38419744 -0.14032006
0.42754722 0.39415428 -0.14813828
0.45191562 0.41869745 -0.14390326
0.44773859 0.43157354 -0.16328263
-0.29102933 -0.82138729 -0.12861943
-0.2746855 0.059231192 -0.11439228
-0.2571387 0.086404875 -0.11081648
-0.2334605 0.098538667 -0.10849738
-0.20395555 0.10507636 -0.1031549
-0.1937975 0.12113273 -0.12085199
-0.16145372 0.13370878 -0.11449981
-0.12325681 0.14150402 -0.098820686
-0.12246335 0.15668601 -0.1216743
-0.084051616 0.16386461 -0.11157656
-0.060161244 0.17548117 -0.11423278
-0.033271547 0.17733446 -0.10007095
-0.033360116 0.19220084 -0.12259412
0.0054534487 0.19973448 -0.11107111
0.038396806 0.21210426 -0.10830855
0.046655834 0.22730401 -0.12600279
0.076695867 0.23441854 -0.11824465
0.10687494 0.24144033 -0.11151028
0.14578548 0.25656796 -0.11014652
0.18118672 0.27372453 -0.11451459
0.20814408 0.28296494 -0.1130259
0.2256514 0.29127079 -0.11631966
0.25046849 0.29571939 -0.10831618
0.27970862 0.30977446 -0.11292529
0.29738677 0.31848302 -0.11436272
0.32071048 0.32973158 -0.11760974
0.34365082 0.32928929 -0.10471988
0.38028741 0.3390606 -0.10087013
0.36717653 0.35221905 -0.12407517
0.38624698 0.35364527 -0.11721253
0.41766959 0.36134306 -0.10879683
0.4413861 0.37313166 -0.10964513
-0.29544723 -0.85177755 -0.08762598
-0.27977768 -0.00056907535 -0.063508034
-0.27763888 0.025407851 -0.084880352
-0.26011223 0.062108979 -0.078626871
-0.23350349 0.071894884 -0.070729017
-0.2230778 0.088503018 -0.088103533
-0.19331755 0.095044851 -0.08234787
-0.16045047 0.10793999 -0.074540377
-0.15062463 0.12434649 -0.091031313
-0.12404483 0.12597504 -0.075921059
-0.090760596 0.13810989 -0.075423479
-0.060509596 0.14494973 -0.068980455
-0.060339339 0.1604524 -0.091097593
-0.033186167 0.1621407 -0.077389717
-0.0059292801 0.1714265 -0.075462341
0.012205787 0.18031842 -0.077269316
0.036292925 0.19187045 -0.081151247
0.072775237 0.20448235 -0.077346563
0.084365115 0.21530807 -0.0864048
0.11489931 0.22216448 -0.080651522
0.14835221 0.23462835 -0.078430653
0.17660579 0.23636371 -0.067159176
0.18409923 0.2518428 -0.084242344
0.22101985 0.26189852 -0.077943087
0.24849333 0.27136645 -0.075889826
0.26785535 0.27290463 -0.066807985
0.26498348 0.28726232 -0.0887537
0.29228151 0.29654276 -0.087277889
0.31540358 0.29589909 -0.074052334
0.34919 0.30852264 -0.071510315
0.37805855 0.31016639 -0.062613487
0.35520554 0.32324037 -0.089641333
0.38413298 0.32517168 -0.079606771
0.41770965 0.33756641 -0.077953577
0.45116705 0.34672305 -0.062586546
0.44586891 0.35970089 -0.088077068
-0.29951602 -0.88177633 -0.049872398
-0.28207129 -0.83859563 -0.040588856
-0.28200161 -0.80151224 -0.041285276
-0.28167471 -0.7637589 -0.044551849
-0.28095663 -0.72513771 -0.051727533
-0.28134766 -0.6893152 -0.047819853
-0.28193715 -0.65383327 -0.041929245
-0.28266484 -0.61845815 -0.034658194
-0.28252399 -0.59045279 -0.036065817
-0.28278083 -0.51694751 -0.033498764
-0.28232303 -0.47927877 -0.03807354
-0.28194287 -0.49715859 -0.041872501
-0.28308287 -0.45260003 -0.030480862
-0.28306466 -0.31366765 -0.030662298
-0.28280443 -0.27646419 -0.03326273
-0.28284061 -0.035928652 -0.032901525
-0.28170571 -0.017948106 -0.044242382
-0.26307642 0.037144229 -0.04653883
-0.24603549 0.038255706 -0.030495167
-0.23535292 0.055444807 -0.047824383
-0.20170136 0.067713499 -0.047279835
-0.17166139 0.074858159 -0.035732746
-0.16158625 0.091850534 -0.051864624
-0.12820365 0.10471001 -0.045155764
-0.097640052 0.11143006 -0.039663553
-0.07914006 0.12029111 -0.042755604
-0.060684256 0.1291683 -0.04629159
-0.042282894 0.13024646 -0.036287308
-0.033104952 0.14641392 -0.056300879
0.0068279989 0.1539357 -0.044047356
0.040677615 0.16645363 -0.042372704
0.068968825 0.16822046 -0.028028488
0.049203791 0.18260399 -0.05980444
0.077327468 0.18433893 -0.046546698
0.11105601 0.19660595 -0.046297073
0.15176636 0.20417982 -0.036142826
0.1500629 0.21957946 -0.057201862
0.1871535 0.22948512 -0.052041054
0.21009447 0.22854492 -0.037760258
0.24417268 0.24114287 -0.036116362
0.25121266 0.25676209 -0.053811312
0.28270537 0.26396376 -0.04699707
0.31442648 0.27128267 -0.039878845
0.34633505 0.27867281 -0.032748461
0.35253686 0.29389897 -0.051270008
0.39349431 0.30116487 -0.044708729
0.41802907 0.31344876 -0.044847727
0.43846011 0.31531194 -0.034761906
0.43390244 0.32941955 -0.057533741
0.45739758 0.33421633 -0.032609701
-0.2947619 -0.90460157 -0.0071644783
-0.28361905 -0.87102377 -0.025122643
-0.28504521 -0.57662761 -0.01087141
-0.28538701 -0.55855811 -0.0074560642
-0.28469592 -0.53868818 -0.014361858
-0.28479427 -0.41759211 -0.013379812
-0.28477436 -0.38026568 -0.013578415
-0.28502542 -0.35252085 -0.011069775
-0.28483158 -0.33368444 -0.013006449
-0.28350294 -0.29544932 -0.026283026
-0.28601083 -0.25029695 -0.0012226105
-0.28540766 -0.21266027 -0.0072495937
-0.28567564 -0.17522508 -0.0045716763
-0.28645828 -0.10966825 0.0032484531
-0.28535074 -0.081734255 -0.0078186989
-0.28385299 -0.054121658 -0.022784948
-0.26694 0.0025991499 -0.0047140121
-0.26493591 0.019984514 -0.026408672
-0.23551711 0.027352855 -0.0074961185
-0.2012832 0.039922029 -0.0064458847
-0.19079658 0.057191253 -0.025136709
-0.16057521 0.064532563 -0.010289907
-0.13566719 0.076994523 -0.010503531
-0.11693119 0.086119547 -0.012423992
-0.092189789 0.08982718 -0.0058960915
-0.061042942 0.096669659 0.0003027916
-0.060867801 0.11315286 -0.022448301
-0.029852707 0.12020893 -0.013738155
0.0013395473 0.12704995 -0.007840395
0.032760367 0.13420054 0.0004029274
0.041480988 0.15069437 -0.01922965
0.082425125 0.15835667 -0.0066010952
0.11667775 0.17074272 -0.0075502396
0.14572302 0.17235872 0.0055699348
0.12478338 0.18711862 -0.025304556
0.15357673 0.18863279 -0.013735294
0.18168284 0.19812238 -0.012198448
0.21004944 0.20797291 -0.0087695122
0.239491 0.20967776 0.0035350323
0.2468356 0.22592926 -0.01378727
0.28123695 0.23859414 -0.012057543
0.32339174 0.24658301 -0.0007815361
0.32993394 0.26237661 -0.019079685
0.35794938 0.27178144 -0.018313169
0.38159716 0.27047291 -0.0073683262
0.40540797 0.28193238 -0.01350069
0.423953 0.29112265 -0.014065981
0.44294459 0.30078885 -0.01235652
-0.28876799 -0.92478728 0.026328325
-0.2873283 -0.13786796 0.011942863
-0.25697899 -0.0084916353 0.024292707
-0.23196883 0.004329294 0.027394056
-0.21366338 0.0048450679 0.036965609
-0.20282948 0.022672325 0.017235518
-0.16851354 0.035615042 0.02295661
-0.13741958 0.042795271 0.035024643
-0.12729889 0.060508311 0.017953396
-0.089858398 0.061920434 0.036297083
-0.080056906 0.079306155 0.016795397
-0.061244294 0.080124736 0.026460171
-0.035978112 0.092282131 0.02143693
0.0052772872 0.099755153 0.033704042
0.014298666 0.11673608 0.013354778
0.046060055 0.12393636 0.022551298
0.0807724 0.13656333 0.022327662
0.10985079 0.13778308 0.033644438
0.11817247 0.1546725 0.015220881
0.14746264 0.15616739 0.02816844
0.17249511 0.16842178 0.025174141
0.21476732 0.17617965 0.036592484
0.21235986 0.19218677 0.013422251
0.25471318 0.20011261 0.02593708
0.28964788 0.2129465 0.027124405
0.29647398 0.22912583 0.0080683231
0.31830871 0.22260758 0.028681517
0.34922874 0.23777601 0.024255753
0.38346237 0.24998057 0.021286488
0.4180603 0.26249677 0.020874739
0.45244259 0.27113506 0.035098314
0.44757688 0.28604588 0.010787964
-0.3096956 -0.94979 0.04458189
-0.26646894 -0.038792029 0.059693098
-0.22466259 -0.013251007 0.057451963
-0.19597813 -0.0036246777 0.059001207
-0.1674428 0.0063655674 0.065180302
-0.15699033 0.024492294 0.046790123
-0.12894112 0.025647238 0.065543175
-0.11871298 0.043516859 0.045441151
-0.090306461 0.044517949 0.059889078
-0.061434198 0.063062206 0.051128864
-0.032631658 0.064243928 0.066478968
-0.023170697 0.081783339 0.046048641
0.0057842024 0.082973093 0.060098171
0.041008867 0.095775157 0.060328484
0.083206698 0.103192 0.070908785
0.081960656 0.12000461 0.046018362
0.11134574 0.12119573 0.057919502
0.13680209 0.13375646 0.05593276
0.17928547 0.14126259 0.065930367
0.18711828 0.1583007 0.046641827
0.21728216 0.15993279 0.060776949
0.25507039 0.17847514 0.055230618
0.28419882 0.18838367 0.058079004
0.31318665 0.19818062 0.059223175
0.34445679 0.20027784 0.075249195
0.35075587 0.21664134 0.0537889
0.3896091 0.22660613 0.056761026
0.41869706 0.23649147 0.058428526
0.43966854 0.23783228 0.067594528
0.43510878 0.25346243 0.043900967
0.45975083 0.25772902 0.071613073
-0.27570716 -0.070094809 0.090193272
-0.25649858 -0.050554164 0.093067646
-0.23062651 -0.037564747 0.094251871
-0.19861822 -0.030741177 0.10187078
-0.1688419 -0.011603281 0.093123674
-0.12981021 0.0077389479 0.090668201
-0.10100508 0.0085676908 0.10604644
-0.090821519 0.026934534 0.086446285
-0.061826721 0.027899757 0.10211897
-0.061632153 0.045692474 0.0768435
-0.032529384 0.046741128 0.091979265
0.0031137653 0.05961372 0.091061831
0.045761243 0.067159474 0.10435486
0.054767855 0.08506082 0.084753752
0.0844751 0.086036772 0.096279144
0.11380655 0.095879644 0.097878218
0.14318261 0.10580045 0.099145412
0.15133725 0.12325525 0.078500509
0.18152986 0.12453249 0.091263294
0.21727435 0.13756806 0.092160702
0.25075638 0.14505243 0.10109615
0.24787705 0.16170907 0.076159954
0.27868193 0.16331735 0.090088606
0.30988222 0.16502017 0.10483408
0.31672764 0.18202969 0.084089279
0.36072785 0.19002646 0.096540213
0.38556278 0.2021572 0.089609385
0.41673177 0.2035912 0.10056806
0.42279083 0.22035438 0.080586672
0.44492954 0.22234207 0.094931364
-0.28055179 -0.10859512 0.14263797
-0.26837033 -0.079293713 0.11725259
-0.23055044 -0.068991467 0.13796973
-0.21925782 -0.049795479 0.11771441
-0.18705288 -0.042938836 0.12777853
-0.16079178 -0.029693589 0.12909412
-0.14149083 -0.02924291 0.14079905
-0.13074264 -0.010473885 0.1175797
-0.091836169 -0.0094780028 0.13914013
-0.081580482 0.0090907216 0.11575437
-0.062015869 0.0096798688 0.12668991
-0.035714671 0.022691473 0.12483621
0.0072444417 0.029987127 0.13601375
0.016640335 0.048318863 0.11475205
0.046621181 0.049321786 0.12922883
0.076241776 0.059166759 0.12943578
0.10609421 0.06935665 0.13289571
0.14512524 0.088532701 0.12575436
0.18111928 0.10149333 0.12404513
0.21470837 0.1087718 0.13131237
0.23565786 0.10978402 0.14226961
0.24313872 0.12742528 0.12016892
0.27463055 0.12904149 0.13631797
0.2820226 0.14670226 0.11640573
0.32638925 0.15460446 0.12897587
0.35214317 0.16736877 0.12517381
0.38338953 0.16852266 0.13516688
0.38964057 0.18567532 0.11368799
0.4213832 0.18722188 0.12624407
0.45021266 0.20644617 0.12238312
-0.28273684 -0.12845093 0.16629148
-0.26321483 -0.108366 0.17238355
-0.26091981 -0.088698737 0.14528036
-0.23242509 -0.088417143 0.16357422
-0.19580822 -0.075082764 0.16468334
-0.1619958 -0.048642419 0.15516162
-0.12906367 -0.041710153 0.16466951
-0.092338398 -0.028297 0.16537499
-0.062230945 -0.0087625906 0.15462875
-0.032226652 -0.0080281273 0.17053008
-0.022364635 0.010976925 0.15075922
0.0077889897 0.011694372 0.16407132
0.047534034 0.031188875 0.15552711
0.078180864 0.032167375 0.17141795
0.1075816 0.051363423 0.15869808
0.14421614 0.064680487 0.15914679
0.17793335 0.071745947 0.16393113
0.19892752 0.072557867 0.17448044
0.19640945 0.090350389 0.14722157
0.21737181 0.091256946 0.15792751
0.24770771 0.10153548 0.1615665
0.29097778 0.11812912 0.16084647
0.31702602 0.13105002 0.15639019
0.34921265 0.13253355 0.17121482
0.35606986 0.15039587 0.15067863
0.38761032 0.1514712 0.16065454
0.42398429 0.16459677 0.15916204
0.4553144 0.19001132 0.14889264
-0.28677416 -0.16919941 0.20999694
-0.28452313 -0.14863753 0.18562865
-0.26542276 -0.12845072 0.19845724
-0.23455979 -0.10820923 0.19276762
-0.2049716 -0.10811481 0.20503664
-0.18396942 -0.087969072 0.19267559
-0.16389164 -0.077835754 0.19620824
-0.13364156 -0.067532137 0.20115852
-0.09287627 -0.047463864 0.19342971
-0.062557131 -0.037272505 0.1970017
-0.032126982 -0.027054474 0.19765496
-0.0015115142 -0.026522398 0.21148014
0.0083194301 -0.0070527866 0.19164658
0.039103858 -0.0063706338 0.20641327
0.048562959 0.012835786 0.18525696
0.079485305 0.013612092 0.1996603
0.10616812 0.026713833 0.19314694
0.15106586 0.034353614 0.20691776
0.15935887 0.053026736 0.18270469
0.18034625 0.053700402 0.1924262
0.21076189 0.063854769 0.19339013
0.25233823 0.074721679 0.20259118
0.25993228 0.093173698 0.18056154
0.28126305 0.093987167 0.19016767
0.31364495 0.095263213 0.20523882
0.32069743 0.11353619 0.18288612
0.35305542 0.11482333 0.19682169
0.38976604 0.12804705 0.19419622
0.42429996 0.13526991 0.19855785
0.44702041 0.13658851 0.2117331
0.44216394 0.15414333 0.18544674
-0.29023346 -0.6863395 0.24744511
-0.28959972 -0.66430378 0.24058461
-0.28985474 -0.21097483 0.24334502
-0.28865749 -0.19004434 0.23038435
-0.25798881 -0.14899737 0.23236132
-0.23652522 -0.12845087 0.219661
-0.20666546 -0.12845083 0.23254156
-0.18615948 -0.11822461 0.23331809
-0.16574258 -0.10787414 0.23628187
-0.13462955 -0.087400004 0.22964001
-0.097011015 -0.073758908 0.22921109
-0.062883742 -0.066648409 0.23942971
-0.032015376 -0.046444379 0.22653985
0.0090387315 -0.036045767 0.23175502
0.040005051 -0.025590897 0.23568058
0.059836105 -0.0059080049 0.21643066
0.070848599 -0.015319422 0.23616695
0.10182844 -0.0049267337 0.237674
0.12133718 0.01471661 0.22016001
0.1424388 0.015221447 0.22952914
0.17314936 0.025418684 0.22905302
0.21497212 0.03617911 0.23655891
0.22296248 0.055180579 0.21379256
0.25539416 0.056301758 0.2299757
0.28625685 0.06656675 0.2307117
0.30625594 0.076571852 0.22662616
0.32806283 0.077296719 0.23604131
0.35465783 0.09051533 0.23045754
0.38940698 0.097672388 0.23369002
0.41154909 0.098465204 0.24305153
0.4181366 0.11709417 0.22140431
0.45352226 0.11945179 0.24692559
-0.29077241 -0.64613712 0.25327921
-0.29120076 -0.62628657 0.25791597
-0.2922706 -0.59716058 0.26949739
-0.29257774 -0.27445608 0.27282262
-0.2919367 -0.24290738 0.26588345
-0.26432949 -0.17706007 0.26754999
-0.23048598 -0.17027366 0.27977896
-0.22855964 -0.1491483 0.25197482
-0.19850719 -0.14928514 0.26975489
-0.1670377 -0.12845083 0.2643218
-0.14577869 -0.10775181 0.25220084
-0.12537774 -0.10767711 0.2618854
-0.10485498 -0.10759341 0.27275205
-0.083713084 -0.087020606 0.25427127
-0.063101865 -0.086812846 0.26776505
-0.035365954 -0.07307601 0.2628305
0.0098978691 -0.06585677 0.2737062
0.019798517 -0.045675725 0.25150537
0.040841073 -0.045326836 0.26283145
0.062021583 -0.045007378 0.273211
0.081968293 -0.02490814 0.25341845
0.11709289 -0.01761502 0.2638371
0.14451684 -0.003917776 0.25952315
0.17673305 -0.0033084452 0.27271485
0.18522982 0.016329944 0.25009894
0.21781777 0.017191797 0.26609254
0.24903519 0.027555317 0.26639628
0.28040957 0.038088664 0.2675662
0.32097226 0.058356613 0.25963688
0.35385209 0.059192002 0.27169323
0.37611562 0.059828579 0.28087926
0.38278013 0.078891516 0.25675821
0.42504644 0.089623317 0.26156712
-0.2942884 -0.55894619 0.29134059
-0.29450434 -0.5173164 0.293679
-0.29367685 -0.48459235 0.2847209
-0.29516387 -0.4550699 0.3008182
-0.29636908 -0.42488462 0.31386471
-0.29612893 -0.38229695 0.31126571
-0.29616421 -0.35059878 0.31164718
-0.29482555 -0.31785774 0.29715562
-0.29353875 -0.29595476 0.28322577
-0.27465877 -0.21295127 0.30752993
-0.25288048 -0.1916303 0.29904461
-0.23268002 -0.19191656 0.31144714
-0.20010336 -0.17054453 0.29736805
-0.15823931 -0.14953904 0.30273175
-0.10549919 -0.12845093 0.30064702
-0.14692082 -0.12845072 0.28187418
-0.12629864 -0.12845072 0.29179239
-0.084400475 -0.11797214 0.29891872
-0.063329361 -0.10740446 0.29731774
-0.042282894 -0.10732188 0.3080368
-0.021315144 -0.086515464 0.28709197
0.010456052 -0.086278066 0.30250859
0.041726232 -0.065444052 0.29157734
0.073904 -0.065087095 0.30703282
0.083414093 -0.044652864 0.2847209
0.11572926 -0.044188343 0.29981017
0.14631319 -0.02367527 0.28545189
0.17903686 -0.023068644 0.30121303
0.22055207 -0.0022982061 0.29458642
0.25363421 -0.0016292334 0.30907011
0.28399074 0.018888637 0.2975812
0.31543869 0.029310703 0.29679537
0.34711242 0.039928511 0.2974422
0.38059264 0.040699363 0.30995893
0.39814949 0.060305923 0.28777003
0.42052943 0.060881376 0.29607773
0.44441617 0.061996624 0.31217408
0.43923098 0.080902845 0.28288794
-0.29662985 -0.40399337 0.31668782
-0.27695394 -0.23511952 0.3346343
-0.2551322 -0.21359059 0.32829499
-0.23474309 -0.21398875 0.34122443
-0.20182237 -0.192278 0.32710218
-0.15946129 -0.17107207 0.33163047
-0.12804708 -0.17133301 0.34857464
-0.12717763 -0.14967459 0.32033896
-0.095649891 -0.1498068 0.33752179
-0.031570982 -0.12845087 0.34163165
-0.063535601 -0.12845072 0.32410955
-0.021080578 -0.10724851 0.3175633
0.011036672 -0.107132 0.33268118
0.043488756 -0.10700804 0.34881711
0.042628735 -0.085995093 0.32088757
0.07518997 -0.085740119 0.33744335
0.11747831 -0.064556651 0.3300035
0.15054829 -0.064173579 0.34658027
0.14844953 -0.043680795 0.3162868
0.18153931 -0.043192409 0.33215141
0.21492352 -0.042715266 0.34764242
0.21219547 -0.022418283 0.3181107
0.24559383 -0.021837614 0.33319569
0.28470623 -0.0076452047 0.33361554
0.32121664 -0.00015692413 0.34094691
0.3437981 0.00024296343 0.34960127
0.35119689 0.020426452 0.32611728
0.39391589 0.031110242 0.327631
0.4166466 0.031618088 0.33638287
0.45066303 0.043008551 0.34745598
-0.26838189 -0.24688804 0.3604362
-0.22634538 -0.23673338 0.37656498
-0.21395959 -0.21428929 0.35098314
-0.19329877 -0.2147457 0.36580682
-0.16070372 -0.19306168 0.36103392
-0.12903665 -0.19351609 0.38071227
-0.096202075 -0.17160608 0.36631274
-0.063980892 -0.17184696 0.38195348
-0.063770138 -0.14993806 0.35457587
-0.03145723 -0.15006708 0.37134027
0.011623319 -0.12845087 0.36315918
0.044449709 -0.12845083 0.38002515
0.076375842 -0.10687979 0.36544704
0.10946627 -0.10677248 0.3794148
0.10804103 -0.085501082 0.35296583
0.14135101 -0.085247286 0.36946487
0.18090855 -0.070890456 0.36920071
0.21769653 -0.063456178 0.37766171
0.24869971 -0.042239189 0.3631072
0.28273761 -0.041778758 0.37806153
0.31351006 -0.020640157 0.36430407
0.35714716 -0.0097257718 0.36827445
0.38911253 0.00096772611 0.36529708
0.41226584 0.0014201254 0.37509203
0.43107831 0.022164002 0.35836625
0.45644987 0.023337305 0.38013959
-0.28381777 -0.30411261 0.41569209
-0.27172869 -0.28145215 0.40264964
-0.25964004 -0.25886494 0.38685298
-0.22830418 -0.25977421 0.40653563
-0.19484206 -0.23742175 0.39444637
-0.17390911 -0.23813945 0.41309237
-0.1620584 -0.21558252 0.39298534
-0.13001084 -0.21617886 0.41235042
-0.096785709 -0.19387837 0.39639473
-0.064227968 -0.19428623 0.41404963
-0.031336475 -0.17214489 0.40130901
0.0016747527 -0.17240861 0.41843414
0.012182005 -0.15022726 0.3921392
0.045412011 -0.15037464 0.41127729
0.077713117 -0.12845087 0.39694738
0.11121684 -0.12845083 0.41190147
0.14320011 -0.10663217 0.39763498
0.17710915 -0.10651159 0.41328764
0.19755909 -0.084843159 0.39570022
0.22036831 -0.084675662 0.40658426
0.24891634 -0.070251435 0.40047455
0.28620183 -0.062753901 0.4080627
0.30931306 -0.062526412 0.41790485
0.31700343 -0.04135552 0.3918066
0.35192305 -0.040849507 0.4082377
0.37510842 -0.0405792 0.41702366
0.38226491 -0.019596145 0.39142871
0.42647922 -0.0085555986 0.39574718
-0.28621385 -0.32803094 0.44398856
-0.26413971 -0.30593628 0.4453063
-0.23031299 -0.28331596 0.43723917
-0.19646813 -0.2606096 0.4246223
-0.16391695 -0.25008479 0.43563318
-0.13094696 -0.23928086 0.44275188
-0.10901153 -0.23966533 0.4527359
-0.09736149 -0.21659884 0.42598629
-0.064457051 -0.21714747 0.44380903
-0.03122836 -0.19466874 0.43061829
0.013020057 -0.18382123 0.43867683
0.046284899 -0.17273481 0.43962479
0.068921447 -0.17293255 0.45247459
0.078943208 -0.15048771 0.42596555
0.11299108 -0.15063287 0.44482732
0.14520435 -0.12845083 0.42835617
0.17967547 -0.12845072 0.44662499
0.21162067 -0.10637434 0.43112755
0.24631102 -0.1062513 0.44710493
0.26624465 -0.084375411 0.42608047
0.2898739 -0.084163368 0.43986344
0.32270443 -0.07318531 0.43716121
0.35606003 -0.062060304 0.43809342
0.37964278 -0.061830983 0.44802547
0.39797974 -0.040398322 0.42289114
0.42188251 -0.040038392 0.43458009
0.44665951 -0.039552256 0.45036864
0.44136077 -0.018531844 0.41908121
-0.23256728 -0.30756474 0.47174597
-0.19808805 -0.28425598 0.45468497
-0.17673609 -0.28531289 0.474298
-0.15375987 -0.26222324 0.45955849
-0.13196105 -0.26296824 0.47568464
-0.098371014 -0.25179312 0.47549295
-0.064698189 -0.24052742 0.4751339
-0.042282894 -0.24099313 0.48723459
-0.031117 -0.21762557 0.45933485
0.0025652871 -0.21814713 0.47627616
0.024631254 -0.19536498 0.4607687
0.047298625 -0.19563714 0.47254682
0.080944344 -0.18451652 0.47465491
0.11463957 -0.17328595 0.47541928
0.14732081 -0.1507552 0.46070576
0.18196587 -0.15087558 0.4763782
0.21439324 -0.12845093 0.46243906
0.24958603 -0.12845093 0.47983122
0.281452 -0.10612595 0.46339846
0.3168875 -0.10600276 0.47940159
0.34845769 -0.083797202 0.46363926
0.39362574 -0.072599739 0.46747351
0.4174161 -0.072422326 0.47654271
0.45264536 -0.060960598 0.48571396
-0.29020005 -0.35383004 0.49106312
-0.26784158 -0.33145362 0.49339437
-0.2353792 -0.3329308 0.51471329
-0.20014061 -0.30885974 0.49277544
-0.17833905 -0.30985898 0.50900364
-0.15513459 -0.28644323 0.49527478
-0.13285676 -0.28695482 0.50477362
-0.11044617 -0.2874983 0.51485777
-0.087436318 -0.26391119 0.49610209
-0.064923957 -0.26429728 0.50446177
-0.030985937 -0.25316858 0.50810742
0.0145404 -0.24205896 0.51492929
0.025339447 -0.21861395 0.49143434
0.048237175 -0.21897091 0.50302696
0.071253262 -0.21927984 0.51305747
0.093083799 -0.19613409 0.49407578
0.11632009 -0.19642362 0.50660563
0.14617553 -0.18126822 0.50125122
0.18436657 -0.17378066 0.50756478
0.20786928 -0.17393303 0.51745796
0.21710457 -0.15100445 0.49310493
0.2526747 -0.15113986 0.51069427
0.32109207 -0.12845093 0.5135386
0.28516811 -0.12845072 0.49671173
0.35282165 -0.10587481 0.49602985
0.38847613 -0.10577936 0.50841951
0.41261679 -0.10570599 0.51796198
0.43269897 -0.083214492 0.5014894
-0.2024263 -0.33434951 0.53519273
-0.15616399 -0.3106606 0.52201891
-0.12245318 -0.31174642 0.53964877
-0.087903172 -0.28812179 0.5264256
-0.065175742 -0.2887007 0.53716898
-0.042282894 -0.28923193 0.54702759
0.003572654 -0.26601762 0.54170609
0.026721343 -0.26645941 0.55127263
-0.019439222 -0.26551276 0.53078151
0.049078099 -0.24265204 0.53033686
0.072466105 -0.24319991 0.54456758
0.094512641 -0.21964784 0.5250113
0.11805761 -0.2200743 0.53885078
0.14158045 -0.22038262 0.54886985
0.18679465 -0.19717392 0.53910589
0.21056189 -0.19740866 0.54925585
0.16316941 -0.196935 0.52874994
0.23174925 -0.17412291 0.52978659
0.2558465 -0.17431688 0.54238915
0.27998698 -0.17448917 0.5535934
0.27674305 -0.15123838 0.52349353
0.31288648 -0.15136357 0.53972721
0.39319503 -0.12845093 0.54068255
0.41784793 -0.12845093 0.5519383
0.34517199 -0.12845072 0.52399921
0.36927032 -0.12845072 0.53343081
0.43799287 -0.10558049 0.53423738
-0.088418327 -0.31299245 0.55988526
-0.019223487 -0.28986675 0.55880594
0.00410055 -0.29079315 0.57599473
0.050067171 -0.266976 0.56245732
0.07360854 -0.26752037 0.57424927
0.10785444 -0.24393116 0.56356502
0.14327508 -0.2444247 0.57638741
0.16724107 -0.2448528 0.58751893
0.17726213 -0.22087908 0.56499696
0.21330751 -0.2213929 0.5816803
0.2436571 -0.20577134 0.57508516
0.28325737 -0.19820946 0.58393836
0.31658816 -0.17475355 0.57075667
0.35385048 -0.17505492 0.59031534
0.34959996 -0.15150285 0.55783558
0.38590777 -0.15159565 0.56989813
0.4231025 -0.15172012 0.58606863
0.44375378 -0.12845072 0.56987357
0.10972822 -0.26873338 0.60050702
0.19158284 -0.24538369 0.6013062
0.21626331 -0.24597172 0.61658597
0.26180476 -0.22201619 0.601928
0.28641146 -0.22236344 0.61320472
0.32027632 -0.19861977 0.60170341
0.35750574 -0.19900167 0.61824632
0.39056349 -0.17524347 0.60257578
0.42844051 -0.17552298 0.62073922
0.44966173 -0.15187669 0.60642004
0.31170183 -0.22284663 0.62889886
0.38257706 -0.19926083 0.62946439
0.40841365 -0.19961339 0.64473271
0 0 0 1 0 0 0 1 0 0 0 1 0 0 0 0 0 1067 1 0 0
