ply
format ascii 1.0
comment PCL generated
element vertex 1339
property float x
property float y
property float z
element camera 0
property float view_px
property float view_py
property float view_pz
property float x_axisx
property float x_axisy
property float x_axisz
property float y_axisx
property float y_axisy
property float y_axisz
property float z_axisx
property float z_axisy
property float z_axisz
property float focal
property float scalex
property float scaley
property float centerx
property float centery
property int viewportx
property int viewporty
property float k1
property float k2
end_header
0.023425473 0.17579861 -0.25403106
0.0066194292 -0.19570766 -0.24984241
0.040656015 -0.17938246 -0.24233907
0.05746416 -0.16214769 -0.24629831
0.074211523 -0.14497399 -0.25025368
0.091729902 -0.14568117 -0.23877072
0.10847329 -0.12847917 -0.24274284
0.12515649 -0.11133884 -0.24670076
0.14177907 -0.094259724 -0.2506547
0.15964761 -0.094701596 -0.23917586
0.1762657 -0.077594467 -0.24314654
0.19282305 -0.060548536 -0.24711329
0.20932198 -0.043564074 -0.25105542
0.22754036 -0.043740697 -0.23958075
0.24403326 -0.026728421 -0.24355
0.26046553 -0.009777138 -0.24751532
0.26043451 0.0071416739 -0.24775237
0.24400268 0.024121391 -0.24379832
0.20929649 0.040897697 -0.25129169
0.2275116 0.041162431 -0.23982996
0.1927993 0.057910681 -0.24735034
0.17624274 0.074984841 -0.24339485
0.14176089 0.091591001 -0.25089109
0.1596265 0.092120588 -0.23942506
0.12513936 0.1086982 -0.2469483
0.10845798 0.12586693 -0.24299133
0.074200593 0.14230289 -0.25049007
0.091716468 0.14309752 -0.23901999
0.057454623 0.15950434 -0.24654603
0.040648371 0.17676763 -0.24258763
0.006615473 0.19303235 -0.25009942
0.023781488 0.1940933 -0.23861486
-0.010133401 -0.23146242 -0.23036468
0.0068575274 -0.21403901 -0.2343775
0.023787251 -0.19667952 -0.23836541
0.04113581 -0.19766244 -0.22675747
0.058061332 -0.18027206 -0.23078322
0.074926026 -0.1629454 -0.23478425
0.1094325 -0.14639588 -0.22716695
0.12623101 -0.12910156 -0.2311914
0.14296949 -0.11187053 -0.23519081
0.17770302 -0.095147565 -0.22758681
0.19437559 -0.077949978 -0.23159927
0.21098791 -0.060814433 -0.23559719
0.24594902 -0.043919042 -0.22799611
0.26249504 -0.026817219 -0.23200709
0.27898133 -0.0097772209 -0.23600352
0.27894813 0.007230306 -0.23624307
0.29765517 0.0073198117 -0.2246232
0.26246357 0.024299281 -0.23224759
0.24591927 0.04143016 -0.22823745
0.21096098 0.058264837 -0.23584729
0.19435151 0.075429544 -0.23183978
0.17768073 0.092656195 -0.2278282
0.14295024 0.10931831 -0.23544097
0.12621434 0.12657882 -0.23143196
0.10941699 0.14390135 -0.2274189
0.07491447 0.16039044 -0.23503441
0.058051661 0.17774589 -0.23103452
0.041128047 0.19516534 -0.22700953
0.0068536755 0.21148142 -0.23462784
-0.010135416 0.22893257 -0.23062629
-0.010012222 -0.25021163 -0.21462321
0.0070991684 -0.23263146 -0.21868265
0.024148399 -0.21511523 -0.2227273
0.04162211 -0.21620181 -0.21096432
0.058667399 -0.19865492 -0.21503717
0.07565067 -0.18117182 -0.21909511
0.092572264 -0.16375223 -0.22313845
0.11040474 -0.16456686 -0.21137989
0.12732153 -0.14711729 -0.21545112
0.14417678 -0.12973122 -0.21950758
0.16097082 -0.11240823 -0.22354919
0.17916182 -0.11295108 -0.21179509
0.1959502 -0.095598809 -0.21586478
0.21267752 -0.078309625 -0.21991974
0.22934411 -0.061083205 -0.22395992
0.24789332 -0.061354578 -0.21221012
0.26455337 -0.044099472 -0.21627843
0.28115287 -0.026907101 -0.22033185
0.29769209 -0.0097771799 -0.2243706
0.31659928 -0.0097772209 -0.21262509
0.31656161 0.0074101929 -0.2128697
0.28111774 0.02447875 -0.22058541
0.26452008 0.041700386 -0.21653289
0.22931494 0.058623031 -0.22421265
0.24786319 0.058985136 -0.21245492
0.21265018 0.075878695 -0.22017342
0.19592471 0.09319704 -0.21611923
0.16094942 0.1099455 -0.22380197
0.17913918 0.11057927 -0.21203989
0.14415726 0.12729758 -0.21976131
0.12730388 0.14471288 -0.21570575
0.092558637 0.1612868 -0.22339123
0.11038901 0.16219173 -0.21163541
0.075638957 0.17873542 -0.21934897
0.058657594 0.19624773 -0.2152918
0.024142554 0.21264708 -0.22298026
0.041614234 0.21382396 -0.21122003
0.0070952605 0.23019244 -0.21893656
-0.010014184 0.2478018 -0.21487796
-0.027186112 -0.26908749 -0.19988358
-0.0098892283 -0.2692304 -0.19864565
-0.027186112 -0.25180012 -0.19988358
0.0073442589 -0.25148982 -0.20276332
-0.027186112 -0.23451275 -0.19988358
0.024514699 -0.23381399 -0.20686603
-0.027186112 -0.21722543 -0.19988352
-0.009907037 -0.21712607 -0.20095903
0.059282146 -0.21730101 -0.19906557
-0.027186112 -0.19993813 -0.19988358
-0.009907037 -0.19984706 -0.20095891
0.076385677 -0.19965881 -0.20318174
-0.027186112 -0.1826507 -0.19988352
-0.009907037 -0.18256794 -0.20095903
0.0073556621 -0.18248601 -0.20202267
0.093426652 -0.18208109 -0.20728302
-0.027186112 -0.16536337 -0.19988358
-0.009907037 -0.16528884 -0.20095909
0.0073556621 -0.16521512 -0.20202267
0.12842767 -0.16539097 -0.19948542
-0.027186112 -0.14807594 -0.19988358
-0.009907037 -0.14800982 -0.20095891
0.0073556621 -0.14794432 -0.20202261
0.14540133 -0.14784718 -0.20360005
-0.027186112 -0.13078871 -0.19988352
-0.009907037 -0.1307307 -0.20095903
0.0073556621 -0.13067344 -0.20202261
0.024601763 -0.13061555 -0.20309603
0.16231203 -0.13036688 -0.20771044
-0.027186112 -0.11350132 -0.19988352
-0.009907037 -0.11345156 -0.20095909
0.0073554981 -0.11340202 -0.20203334
0.024601763 -0.11335286 -0.20309603
0.19754735 -0.11350033 -0.19990498
-0.027186112 -0.096213944 -0.19988358
-0.009907037 -0.096172541 -0.20095891
0.0073554981 -0.09613122 -0.20203334
0.024601763 -0.096090302 -0.20309591
0.041831374 -0.096049085 -0.20416832
0.21439126 -0.09605477 -0.20401829
-0.027186112 -0.078926556 -0.19988352
-0.009907037 -0.07889346 -0.20095903
0.0073554981 -0.078860343 -0.2020334
0.024601763 -0.078827657 -0.20309591
0.041831374 -0.078794643 -0.20416832
0.23117234 -0.078672774 -0.20812702
-0.027186112 -0.061639205 -0.1998837
-0.009907037 -0.061614335 -0.20095903
0.0073554981 -0.061589621 -0.20203334
0.024601763 -0.061565042 -0.20309603
0.041831374 -0.061540268 -0.20416832
0.05904492 -0.061515771 -0.20522892
0.2666412 -0.061629049 -0.20032465
-0.027186112 -0.044351794 -0.1998837
-0.009907037 -0.04433535 -0.20095891
0.0073554981 -0.044318743 -0.20203334
0.024601763 -0.044302382 -0.20309609
0.041831374 -0.044285938 -0.20416826
0.05904492 -0.044269577 -0.20522892
0.28335544 -0.044281855 -0.20443624
-0.027186112 -0.027064424 -0.19989443
-0.009907037 -0.027056307 -0.20095903
0.0073554981 -0.027048022 -0.20203334
0.024601763 -0.02703982 -0.20309591
0.041831374 -0.027031494 -0.20416826
0.05904492 -0.027023377 -0.20522892
0.30000699 -0.026997857 -0.20854348
0.3190636 -0.02708957 -0.1966188
-0.027186112 -0.0097771799 -0.19989431
-0.009907037 -0.0097771799 -0.20095909
0.076241694 -0.0097771799 -0.20629925
0.33570921 -0.0097771799 -0.20074391
0.0073554981 -0.009777138 -0.20203334
0.024601763 -0.009777138 -0.20309603
0.041831374 -0.009777138 -0.20416832
0.05904492 -0.009777138 -0.20522892
-0.027186112 0.007510107 -0.19989431
-0.009907037 0.0075018648 -0.20095891
0.0073554981 0.0074936207 -0.20203334
0.024601763 0.0074855033 -0.20309603
0.041831374 0.0074771773 -0.20416814
0.05904492 0.0074690599 -0.20522892
0.076241694 0.0074607749 -0.20629919
0.33566925 0.0075016581 -0.20099121
-0.027186112 0.024797352 -0.19989431
-0.009907037 0.024780991 -0.20095903
0.0073554981 0.02476442 -0.2020334
0.024601763 0.024748186 -0.20309603
0.041831374 0.024731575 -0.20416832
0.05904492 0.024715172 -0.20522887
0.29997107 0.02466047 -0.20878905
0.31902543 0.024844063 -0.19686699
-0.027186112 0.042084724 -0.19989431
-0.009907037 0.042060077 -0.20095909
0.0073554981 0.042035304 -0.2020334
0.024601763 0.042010657 -0.20309591
0.041831374 0.041986018 -0.20416832
0.05904492 0.041961372 -0.20522892
0.2833198 0.041973814 -0.20469338
-0.027186112 0.059371889 -0.19989431
-0.009907037 0.059339121 -0.20095891
0.0073554981 0.059306026 -0.20203334
0.024601763 0.059273303 -0.20309603
0.041831374 0.059240334 -0.20416832
0.05904451 0.059207357 -0.20523959
0.2666074 0.059350736 -0.20058274
-0.027186112 0.076659217 -0.19989431
-0.009907037 0.076618247 -0.20095891
0.0073554981 0.076576911 -0.20203334
0.024601763 0.076535985 -0.20309609
0.041831374 0.076494686 -0.20416826
0.23114397 0.07633283 -0.20837253
-0.027186112 0.093946457 -0.19989425
-0.009907037 0.093897335 -0.20095903
0.0073554981 0.093847625 -0.20203334
0.024601763 0.093798548 -0.20309591
0.041831374 0.093749069 -0.20416832
0.21436355 0.093744151 -0.20427549
-0.027186112 0.11123375 -0.19989431
-0.009907037 0.11117633 -0.20095891
0.0073554981 0.11111847 -0.2020334
0.024601763 0.11106121 -0.20309591
0.19752151 0.11121923 -0.20016325
-0.027186112 0.12852097 -0.19989425
-0.009907037 0.12845546 -0.20095891
0.0073554981 0.12838927 -0.20203322
0.024601521 0.1283232 -0.20310676
0.16229123 0.12802452 -0.20795608
-0.027186112 0.14580829 -0.19989431
-0.009907037 0.14573456 -0.20095903
0.0073554981 0.14566006 -0.2020334
0.14538153 0.14553376 -0.20385742
-0.027186112 0.16309556 -0.19989431
-0.009907037 0.16301359 -0.20095891
0.0073554981 0.16293086 -0.20203334
0.12840977 0.16310719 -0.19974369
-0.027186112 0.18038282 -0.19989431
-0.009907037 0.18029264 -0.20095903
0.0073554981 0.18020168 -0.20203334
0.093412831 0.17973547 -0.20753944
-0.027186112 0.19767018 -0.19989431
-0.009907037 0.19757174 -0.20095903
0.076373793 0.19734262 -0.20343912
-0.027186112 0.21495733 -0.19989431
-0.009907119 0.21484974 -0.20096976
0.059272207 0.21501449 -0.19932401
-0.027186112 0.23224469 -0.19989431
0.024508772 0.23146567 -0.20712262
-0.027186112 0.24953188 -0.19989431
0.0073402952 0.24917085 -0.20302093
-0.027186112 0.26681927 -0.19989431
-0.0098912176 0.26694116 -0.19890404
0.0075928811 -0.27061966 -0.18661481
0.024886014 -0.25278047 -0.19078755
0.042115711 -0.23500814 -0.19493419
0.059905767 -0.23621605 -0.18286353
0.077131264 -0.21841188 -0.18703938
0.094292723 -0.20067252 -0.19121045
0.11139157 -0.18299931 -0.19535559
0.12954976 -0.18392812 -0.18328953
0.14664268 -0.16622303 -0.18747461
0.1636734 -0.1485841 -0.19163334
0.18064152 -0.13100998 -0.19577676
0.19916753 -0.13165994 -0.18371522
0.21612848 -0.11405482 -0.18789881
0.23302807 -0.096515268 -0.192056
0.24986552 -0.079040125 -0.19619793
0.26875767 -0.079411037 -0.18415177
0.28558818 -0.061906166 -0.18832278
0.30235669 -0.044465907 -0.19247848
0.33832273 -0.027182365 -0.18457717
0.3550218 -0.0097772628 -0.18874657
0.35497949 0.0075939521 -0.18899649
0.33828393 0.025029445 -0.18481702
0.30232027 0.042250119 -0.19272751
0.28555354 0.059720583 -0.1885727
0.24983494 0.07679189 -0.19644606
0.26872483 0.077255413 -0.18440264
0.23299928 0.094296992 -0.19230503
0.21610154 0.11186671 -0.18814886
0.18061759 0.12875861 -0.19603598
0.19914131 0.12950127 -0.18397719
0.1636523 0.14636333 -0.19188255
0.14662342 0.16403228 -0.18772471
0.11137562 0.1807452 -0.19561476
0.12953161 0.18176667 -0.18355143
0.094278708 0.19844826 -0.19147062
0.077119201 0.21621765 -0.1873005
0.042107724 0.23275121 -0.19519353
0.059895672 0.23405179 -0.18312573
0.024880005 0.25055337 -0.19104791
0.0075888615 0.26842257 -0.186876
-0.044657536 -0.2718485 -0.17597222
0.025262957 -0.27202258 -0.1744656
-0.044657536 -0.2543771 -0.17597222
0.042616442 -0.25408605 -0.17867237
-0.044657536 -0.23690566 -0.17597222
0.077887163 -0.23743592 -0.17067373
-0.044657536 -0.21943434 -0.17597204
0.095171928 -0.21953383 -0.17489463
-0.044657536 -0.20196289 -0.17597204
0.11239268 -0.20169799 -0.17909986
-0.044657536 -0.18449147 -0.17597204
0.14790288 -0.18486618 -0.17110431
-0.044657536 -0.16702005 -0.17597204
0.16505449 -0.16706501 -0.17532349
-0.044657536 -0.14954863 -0.1759721
0.18214259 -0.14932959 -0.17952722
-0.044657536 -0.13207714 -0.17597204
0.21789207 -0.13231632 -0.17153466
-0.044657536 -0.11460568 -0.1759721
0.23491065 -0.11461586 -0.17575222
-0.044657536 -0.097134262 -0.1759721
0.25186619 -0.096981056 -0.17995429
-0.044657536 -0.079662837 -0.1759721
0.28785479 -0.079786256 -0.17196482
-0.044657536 -0.062191442 -0.1759721
0.3047404 -0.062186569 -0.17618102
-0.044657536 -0.044720024 -0.1759721
0.32156354 -0.044652082 -0.18038142
-0.044657536 -0.027248558 -0.1759721
0.35779107 -0.02727616 -0.17239487
0.37454385 -0.0097771799 -0.1766094
-0.044657536 -0.009777138 -0.17597222
-0.044657536 0.0076942816 -0.17597222
0.37449908 0.0076874141 -0.17686188
-0.044657536 0.025165701 -0.17597222
0.35774815 0.025216827 -0.17264849
-0.044657536 0.042637162 -0.17597222
0.32152477 0.042529427 -0.18063301
-0.044657536 0.060108505 -0.17597204
0.30470347 0.060094349 -0.17643362
-0.044657536 0.077579923 -0.17597204
0.28781965 0.077724382 -0.1722185
-0.044657536 0.095051341 -0.1759721
0.25183517 0.09485589 -0.18020624
-0.044657536 0.11252277 -0.1759721
0.23488148 0.11252102 -0.17600507
-0.044657536 0.12999421 -0.1759721
0.21786474 0.13025193 -0.17178839
-0.044657536 0.14746568 -0.1759721
0.1821183 0.14720111 -0.17979008
-0.044657536 0.16493711 -0.1759721
0.16503307 0.16496754 -0.17557645
-0.044657536 0.18240853 -0.1759721
0.14788333 0.18279925 -0.17135817
0.11237648 0.19956674 -0.17936289
-0.044657536 0.19987996 -0.1759721
-0.044657536 0.21735138 -0.17597222
0.095157698 0.21743274 -0.17515856
-0.044657536 0.23482274 -0.17597222
0.077875428 0.23536642 -0.1709277
-0.044657454 0.25229296 -0.17598319
0.042608343 0.25195205 -0.17893547
-0.044657454 0.26976433 -0.17598319
0.025256859 0.26991868 -0.17472959
0.043124475 -0.27344185 -0.16217387
0.060538009 -0.25540465 -0.16643733
0.096063942 -0.23867016 -0.15834075
0.11340834 -0.22066878 -0.16260761
0.13068737 -0.2027337 -0.16686928
0.1664557 -0.18581516 -0.1587761
0.18366449 -0.16791512 -0.16305232
0.20081013 -0.1500825 -0.16730142
0.21968141 -0.15084428 -0.15493178
0.23682068 -0.13298035 -0.15921098
0.25389463 -0.11518239 -0.16348565
0.2709063 -0.097451404 -0.16773319
0.29015449 -0.097927369 -0.15536815
0.30715886 -0.080165595 -0.15964597
0.32409811 -0.062469698 -0.16391885
0.34097591 -0.044840209 -0.16816473
0.36060074 -0.04503046 -0.15580457
0.37747028 -0.027370911 -0.16008061
0.39427701 -0.009777138 -0.16434091
0.39422983 0.0077817906 -0.16459614
0.37742493 0.02540637 -0.16033685
0.34093478 0.042811558 -0.16841918
0.3605572 0.043096937 -0.15606171
0.32406047 0.060472153 -0.16416317
0.30712137 0.078198478 -0.15990233
0.27087301 0.095420152 -0.1679877
0.29011884 0.095991164 -0.15562552
0.25386453 0.11318249 -0.16373003
0.23679106 0.13101064 -0.15946752
0.20078465 0.14804876 -0.16755593
0.21965367 0.14890553 -0.15518904
0.18364087 0.16591203 -0.16330785
0.16643398 0.18384296 -0.15903264
0.13066971 0.20069724 -0.16712415
0.14916162 0.20184009 -0.15475255
0.11339192 0.21866211 -0.16287434
0.096049517 0.23669411 -0.15860862
0.060528204 0.25336576 -0.16669214
0.043116249 0.27143228 -0.16244072
-0.062572569 -0.27517557 -0.14715892
0.061179936 -0.27487534 -0.14975947
-0.062572569 -0.25748235 -0.14715892
0.078654602 -0.25673884 -0.15405828
0.096969061 -0.25808752 -0.14154392
-0.062572569 -0.23978917 -0.14715892
0.11443819 -0.2399167 -0.14588469
-0.062572569 -0.22209591 -0.14715904
0.1318424 -0.22181523 -0.15019798
-0.062572569 -0.20440267 -0.14715904
0.14918144 -0.20378141 -0.15449512
0.16787653 -0.2048398 -0.14199686
-0.062572569 -0.18670948 -0.14715904
0.18520971 -0.18677375 -0.14632463
-0.062572569 -0.1690163 -0.14715892
0.20247789 -0.16877525 -0.15063626
-0.062572569 -0.15132298 -0.14715892
0.23875745 -0.1516137 -0.14243829
-0.062572397 -0.13362914 -0.14717025
0.25595415 -0.13365099 -0.14676446
-0.062572397 -0.11593602 -0.14717025
0.27308637 -0.11575563 -0.15107441
-0.062572397 -0.098242871 -0.14717025
0.30961114 -0.098408058 -0.14287955
-0.062572397 -0.08054968 -0.14717025
0.32667151 -0.080548644 -0.14720404
-0.062572397 -0.06285654 -0.14717025
0.34366792 -0.06275633 -0.15151238
-0.062572397 -0.04516343 -0.14717025
0.38043976 -0.045222923 -0.1433093
-0.062572397 -0.02747041 -0.14717019
0.39736393 -0.027466662 -0.1476323
0.41422254 -0.0097772209 -0.15195006
-0.062572397 -0.009777138 -0.14717019
-0.062572397 0.0079159662 -0.14717019
0.41417289 0.0078771673 -0.15220821
-0.062572397 0.02560907 -0.14717025
0.3973161 0.025598081 -0.14789128
-0.062572397 0.04330226 -0.14717025
0.38039371 0.043385439 -0.14356941
-0.062572397 0.060995452 -0.14717025
0.34362617 0.060853779 -0.15177065
-0.062572397 0.078688554 -0.14717025
0.32663333 0.078677729 -0.147452
-0.062572397 0.096381664 -0.14717025
0.30957472 0.096568331 -0.1431284
-0.062572397 0.11407485 -0.14717025
0.27305257 0.11385054 -0.1513328
-0.062572397 0.13176803 -0.14717025
0.25592357 0.13177764 -0.14701241
-0.062572397 0.14946114 -0.14717025
0.23872869 0.14977175 -0.14268726
-0.062572397 0.16715428 -0.14717025
0.20245203 0.16686752 -0.1508947
-0.062572397 0.18484743 -0.14717036
0.18518575 0.18489709 -0.14658409
-0.062572397 0.20254053 -0.14717019
0.16785447 0.20299435 -0.14225721
-0.062572397 0.22023359 -0.14717025
0.13182449 0.21990488 -0.15045643
-0.062572397 0.23792681 -0.14717025
0.11442223 0.23803736 -0.14614415
-0.062572397 0.25562 -0.14717019
0.078642696 0.25479481 -0.15431589
0.09695442 0.25623831 -0.14181566
-0.062572397 0.27331311 -0.14717025
0.061169989 0.27296239 -0.15001798
0.079433344 -0.2763257 -0.13719815
0.11548395 -0.25944984 -0.12890363
0.13301446 -0.24117801 -0.13328087
0.15047885 -0.22297509 -0.13764137
0.18677776 -0.20591071 -0.12935013
0.2041702 -0.18774357 -0.13372552
0.22149709 -0.16964495 -0.13808447
0.25804406 -0.15239225 -0.1297965
0.27529857 -0.13432971 -0.13417017
0.29248646 -0.11633468 -0.13853866
0.32928291 -0.098894455 -0.13024253
0.34639958 -0.080936395 -0.13461465
0.36345175 -0.063046001 -0.13897014
0.40049434 -0.045417257 -0.13068849
0.41747326 -0.027563579 -0.13505888
0.45477557 -0.0097772209 -0.12673753
0.43438822 -0.009777138 -0.13941276
0.43433598 0.0079736672 -0.13967371
0.45472074 0.0080712084 -0.1270014
0.41742289 0.025791625 -0.13532078
0.40044788 0.043677144 -0.13094002
0.36340752 0.061239868 -0.13923115
0.3463572 0.079161733 -0.13487667
0.3292442 0.097151875 -0.13049406
0.29245183 0.1145265 -0.13878864
0.27526426 0.1325524 -0.13443226
0.25801164 0.15064652 -0.1300596
0.22146893 0.16783354 -0.13834572
0.20414396 0.18596363 -0.13398784
0.18675342 0.20416231 -0.12961334
0.15045872 0.22116117 -0.13790262
0.13299629 0.23939537 -0.13354313
0.11546774 0.25769877 -0.1291669
0.079421259 0.27450922 -0.13745952
-0.080948055 -0.27858683 -0.11761636
0.097886965 -0.27779078 -0.12450993
-0.080948055 -0.26066625 -0.1176163
0.13420393 -0.26082829 -0.11611241
-0.080948055 -0.24274553 -0.11761647
0.15179458 -0.24245207 -0.12054938
-0.080948055 -0.22482495 -0.11761647
0.16931933 -0.22414668 -0.12495816
-0.080948055 -0.20690429 -0.11761636
0.20588765 -0.20699345 -0.11656368
-0.080948055 -0.18898369 -0.11761636
0.22333841 -0.18872322 -0.12099904
-0.080948055 -0.17106304 -0.1176163
0.24072413 -0.17052332 -0.12540609
-0.080948055 -0.15314236 -0.1176163
0.27754208 -0.15317865 -0.11702663
-0.080948055 -0.13522168 -0.11761647
0.29485452 -0.1350152 -0.1214487
-0.080948055 -0.11730103 -0.11761647
0.31210133 -0.1169205 -0.12585396
0.33193314 -0.11751296 -0.11302882
-0.080948055 -0.099380434 -0.11761636
0.34916991 -0.099385761 -0.1174776
-0.080948055 -0.081459731 -0.11761636
0.36634302 -0.081327885 -0.12189794
-0.080948055 -0.063539162 -0.11761636
0.38345104 -0.06333854 -0.12630159
0.40367338 -0.063634574 -0.1134814
-0.080948055 -0.045618497 -0.1176163
0.42077225 -0.045613796 -0.11791706
-0.080948055 -0.027697757 -0.11761636
0.43780616 -0.027661411 -0.12233567
-0.080948055 -0.0097771799 -0.11761636
0.47538576 -0.0097772209 -0.1139338
-0.080948055 0.0081434809 -0.11761636
0.47532824 0.0081697498 -0.11420053
-0.080948055 0.0260641 -0.11761636
0.43775317 0.025987374 -0.12260044
-0.080948055 0.043984756 -0.1176163
0.42072108 0.043971643 -0.11818272
-0.080947787 0.061905041 -0.11762786
0.38340631 0.061630279 -0.12655413
0.40362406 0.062024482 -0.11374825
-0.080947787 0.079825625 -0.11762786
0.36630008 0.079651564 -0.12215137
-0.080947787 0.097746156 -0.11762792
0.34912878 0.097741365 -0.11773205
-0.080947787 0.11566674 -0.11762792
0.31206441 0.11520983 -0.12610644
0.33189383 0.11590087 -0.11328417
-0.080947787 0.13358735 -0.11762792
0.29481941 0.1333364 -0.12170213
-0.080947787 0.15150787 -0.11762792
0.2775088 0.1515319 -0.11728108
-0.080947787 0.16942845 -0.11762792
0.24069495 0.16881023 -0.12565881
0.26013216 0.16979676 -0.11284304
-0.080947787 0.18734904 -0.11762792
0.22331105 0.187042 -0.12125266
-0.080947787 0.20526953 -0.11762804
0.20586102 0.20534325 -0.11682999
-0.080947787 0.22319005 -0.1176281
0.16929697 0.22243005 -0.12522227
-0.080947787 0.24111067 -0.1176278
0.15177505 0.24076842 -0.12080324
-0.080947787 0.25903118 -0.11762792
0.13418548 0.25917545 -0.11637866
-0.080947787 0.27695173 -0.11762792
0.097872719 0.2760717 -0.12477422
0.11654527 -0.27927357 -0.1116699
0.15313087 -0.26222089 -0.10319078
0.17078365 -0.24374147 -0.10766536
0.18836913 -0.22533239 -0.11212301
0.20762961 -0.22653009 -0.099157155
0.22520845 -0.20808718 -0.10364729
0.24272014 -0.18971466 -0.1081202
0.26016504 -0.17141224 -0.11257601
0.27982065 -0.17231014 -0.099615097
0.29725796 -0.15397452 -0.10410339
0.31462866 -0.13570887 -0.10857475
0.35198355 -0.1181114 -0.10007286
0.36927941 -0.099882923 -0.10455948
0.38650921 -0.081724174 -0.10902894
0.42412052 -0.063933983 -0.1005187
0.44127512 -0.045812711 -0.10500371
0.45836425 -0.027760576 -0.10947144
0.49622747 -0.0097772209 -0.10097623
0.49616727 0.0082694553 -0.101246
0.45830861 0.026185328 -0.10973924
0.44122133 0.044269808 -0.10527247
0.4240686 0.062423557 -0.10078859
0.38646388 0.08014676 -0.10928518
0.36923581 0.098337896 -0.10481679
0.35194179 0.11659876 -0.10033107
0.31459117 0.13412906 -0.10883099
0.29722229 0.15242705 -0.10436064
0.27978685 0.17079511 -0.099873364
0.24269055 0.18813232 -0.10837656
0.2251807 0.20653728 -0.10390455
0.18834443 0.22371432 -0.11239028
0.20760375 0.22501262 -0.099415421
0.17076094 0.24215545 -0.10793352
0.15311103 0.26066855 -0.10344809
0.11652882 0.27765268 -0.11193717
0.13539247 0.2792514 -0.098957479
-0.099802069 -0.28208697 -0.087304413
0.13541037 -0.28077126 -0.098698854
0.15448722 -0.28228715 -0.085570991
-0.099802069 -0.26393303 -0.087304473
0.17226994 -0.26363033 -0.090113163
-0.099802069 -0.24577899 -0.087304473
0.18998323 -0.24504398 -0.094649673
-0.099802069 -0.22762503 -0.087304473
0.22710665 -0.2277424 -0.086034179
-0.099802069 -0.20947108 -0.087304413
0.24474613 -0.20919411 -0.090574682
-0.099802069 -0.19131711 -0.087304413
0.26231638 -0.1907163 -0.095109463
-0.099802069 -0.17316307 -0.087304473
0.29969752 -0.17321892 -0.086497307
-0.099802069 -0.15500911 -0.087304473
0.3171939 -0.15477934 -0.091035962
-0.099802069 -0.13685507 -0.087304473
0.33462125 -0.1364097 -0.095569074
-0.099802069 -0.1187011 -0.087304473
0.37225994 -0.11871696 -0.086960375
-0.099802069 -0.10054706 -0.087304473
0.3896133 -0.1003857 -0.091497183
-0.099802069 -0.082393184 -0.087304413
0.40690002 -0.082124829 -0.096016645
-0.099802069 -0.064239144 -0.087304473
0.44479385 -0.064236395 -0.087423146
-0.099802069 -0.046085179 -0.087304473
0.4620043 -0.046013497 -0.091958225
-0.099802069 -0.027931139 -0.087304413
0.47914872 -0.027860574 -0.09647584
-0.099802069 -0.0097771799 -0.087304473
0.5173021 -0.0097772209 -0.087873816
-0.099802069 0.0083768219 -0.087304473
0.51723909 0.0083703268 -0.088146567
-0.099802069 0.026530823 -0.087304533
0.47909036 0.026385447 -0.096746624
-0.099802069 0.044684738 -0.087304413
0.46195027 0.044571377 -0.092218161
-0.099802069 0.062838785 -0.087304413
0.44474164 0.062827125 -0.087684155
-0.099802069 0.080992743 -0.087304473
0.40684998 0.080647081 -0.096287608
-0.099802069 0.099146791 -0.087304473
0.38956726 0.098941088 -0.091757298
-0.099802069 0.11730074 -0.087304473
0.37221572 0.11730524 -0.087221444
-0.099802069 0.13545479 -0.087304473
0.33458313 0.13493052 -0.095816314
-0.099802069 0.15360874 -0.087304473
0.31715584 0.15333214 -0.091296136
-0.099802069 0.1717627 -0.087304413
0.29966134 0.17180471 -0.086758435
-0.099802069 0.18991674 -0.087304413
0.26228446 0.18923387 -0.095368743
-0.099802069 0.20807062 -0.087304473
0.24471606 0.20774452 -0.090834916
-0.099802069 0.22622466 -0.087304473
0.22707848 0.22632566 -0.086295605
-0.099802069 0.2443787 -0.087304473
0.18995927 0.24355911 -0.094909132
-0.099802069 0.26253271 -0.087304473
0.1722469 0.26217702 -0.090385318
-0.099802069 0.28068665 -0.087304533
0.15446712 0.28086805 -0.085832238
0.19162282 -0.26505426 -0.076900601
0.20939901 -0.24636233 -0.081476212
0.24680136 -0.22896717 -0.072775781
0.26450163 -0.21031252 -0.077367365
0.28213355 -0.1917299 -0.081941247
0.31979617 -0.17413718 -0.073244214
0.33735177 -0.1555924 -0.077833831
0.35483956 -0.13711911 -0.082405865
0.39276215 -0.11932889 -0.073712289
0.41017318 -0.10089376 -0.078300178
0.42751691 -0.082529686 -0.082870424
0.46570191 -0.064542592 -0.074168265
0.48296848 -0.046216734 -0.078754485
0.50016844 -0.027961738 -0.083323002
0.53861362 -0.0097772209 -0.074624121
0.53854489 0.0084721986 -0.074911952
0.50010729 0.026587898 -0.083596766
0.48290923 0.044875912 -0.079029322
0.46564454 0.063234776 -0.074444234
0.42746651 0.081153318 -0.083132386
0.41012457 0.099550523 -0.078563213
0.39271754 0.11801959 -0.073964357
0.35479718 0.13574024 -0.082668066
0.33731127 0.15424666 -0.078096986
0.31975928 0.17282562 -0.073496342
0.28209925 0.1903487 -0.082203329
0.26446924 0.20896432 -0.07763046
0.24677084 0.2276521 -0.073040068
0.20937276 0.24497847 -0.081738532
0.19159849 0.26370367 -0.077163935
0.21119526 -0.26649562 -0.063526869
0.2290336 -0.24769545 -0.068154275
0.26672015 -0.23020686 -0.059355438
0.28448159 -0.21144448 -0.063998997
0.30217239 -0.19275409 -0.068636656
0.34012377 -0.17506664 -0.059829056
0.35773888 -0.15641524 -0.064470887
0.37528354 -0.13783571 -0.069106579
0.41349828 -0.11994824 -0.060302556
0.43096715 -0.10140782 -0.064942479
0.44836822 -0.082939424 -0.069564342
0.4868463 -0.064852118 -0.060763597
0.50416923 -0.04642231 -0.065401852
0.52142483 -0.028064191 -0.070021987
0.52136087 0.026792558 -0.070298731
0.50410712 0.045184143 -0.065679789
0.48678616 0.063647464 -0.061042666
0.44831523 0.081665337 -0.069829226
0.43091601 0.10016733 -0.065208375
0.41344896 0.11874148 -0.060569584
0.37524071 0.13655992 -0.069359541
0.35769588 0.15517224 -0.064736843
0.34008265 0.1738572 -0.060096145
0.30213732 0.19147599 -0.068889618
0.28444678 0.21019892 -0.064265251
0.26668721 0.228995 -0.059622586
0.22900499 0.24641396 -0.068419516
0.21116862 0.26524755 -0.063793302
-0.11915401 -0.26728731 -0.056180537
0.23098864 -0.26795188 -0.050013661
-0.11915401 -0.24889371 -0.056180596
0.24888931 -0.24904253 -0.05469352
-0.11915401 -0.2305001 -0.056180596
0.28686392 -0.23145956 -0.045794487
-0.11915401 -0.21210656 -0.056180537
0.3046867 -0.21258841 -0.050490975
-0.11915401 -0.19371301 -0.056180537
0.32243985 -0.19379082 -0.055169165
-0.11915401 -0.17531933 -0.056180596
0.36068061 -0.17600583 -0.046273589
-0.11915401 -0.15692581 -0.056180596
0.37835541 -0.15724677 -0.050968349
-0.11915401 -0.1385323 -0.056180537
0.39596117 -0.1385611 -0.055644512
-0.11915354 -0.12013816 -0.056192696
0.43447021 -0.12057466 -0.046740174
-0.11915354 -0.10174465 -0.056192696
0.45199719 -0.10192783 -0.051433027
-0.11915354 -0.083351195 -0.056192696
0.46945575 -0.083353691 -0.056107521
-0.11915354 -0.064957649 -0.056192696
0.50822836 -0.065164931 -0.047218919
-0.11915354 -0.046564184 -0.056192696
0.52560765 -0.046630092 -0.051909864
-0.11915354 -0.028170684 -0.056192696
0.54291904 -0.028167645 -0.05658251
-0.11915354 -0.009777138 -0.056192696
-0.11915354 0.0086162817 -0.056192696
-0.11915354 0.027009746 -0.056192696
0.54285222 0.026999461 -0.056862414
-0.11915354 0.045403287 -0.056192696
0.52554554 0.045495957 -0.052178681
-0.11915354 0.063796751 -0.056192696
0.5081681 0.064064816 -0.047488928
-0.11915354 0.082190298 -0.056192696
0.46939754 0.08218281 -0.056387603
-0.11915354 0.10058376 -0.056192696
0.45194337 0.10079117 -0.051702023
-0.11915354 0.11897718 -0.056192756
0.4344182 0.11947205 -0.047010303
-0.11915354 0.13737072 -0.056192696
0.39591584 0.13738871 -0.055900276
-0.11915354 0.15576425 -0.056192696
0.3783119 0.15610842 -0.051225126
-0.11915354 0.17415772 -0.056192696
0.36063892 0.17490138 -0.046531558
-0.11915354 0.1925512 -0.056192696
0.32240239 0.19261613 -0.055425167
-0.11915354 0.2109447 -0.056192756
0.30465108 0.21144769 -0.050747991
-0.11915354 0.22933811 -0.056192756
0.28683019 0.23035286 -0.046052575
-0.11915354 0.24773158 -0.056192756
0.24885832 0.24786426 -0.05496192
-0.11915354 0.26612523 -0.056192696
0.23096095 0.26680902 -0.050270736
0.25100929 -0.26942617 -0.036333919
0.26897264 -0.25040615 -0.041067362
0.30723971 -0.23272772 -0.032066345
0.32512414 -0.21374629 -0.036816597
0.34293827 -0.19483946 -0.041548252
0.38147449 -0.17695652 -0.032550931
0.39920926 -0.15808864 -0.037299275
0.41687435 -0.13929476 -0.042029023
0.45567945 -0.1212077 -0.033035398
0.47326472 -0.10245325 -0.037781835
0.4907808 -0.083772495 -0.042509556
0.49072245 0.082706481 -0.042780638
0.51229167 0.083236195 -0.029017806
0.47321072 0.10142217 -0.038041472
0.45562729 0.12021104 -0.03329587
0.41682425 0.13822629 -0.042300224
0.39916325 0.15705515 -0.037559152
0.3814303 0.17595761 -0.032811761
0.34289652 0.19376831 -0.041819572
0.32508609 0.21271051 -0.037076592
0.30720353 0.23172653 -0.032327294
0.26893923 0.24933253 -0.041338563
0.25097784 0.26838678 -0.036606312
-0.13902302 -0.2707299 -0.02423656
0.27125838 -0.27091616 -0.022509217
-0.13902302 -0.25209045 -0.024236798
0.28928459 -0.25178421 -0.027297258
-0.13902302 -0.23345101 -0.02423656
0.32784811 -0.23400937 -0.018192649
-0.13902302 -0.2148115 -0.024236679
0.34579432 -0.21491647 -0.022997856
-0.13902302 -0.19617204 -0.02423656
0.36366963 -0.19589897 -0.027783751
-0.13902302 -0.17753252 -0.024236679
0.40250534 -0.17791735 -0.018682957
-0.13902302 -0.15889306 -0.024236798
0.42030025 -0.15893932 -0.023486018
-0.13902302 -0.14025357 -0.02423656
0.43802479 -0.14003626 -0.028270006
-0.13902302 -0.12161402 -0.02423656
0.47713509 -0.12184861 -0.019160271
-0.13902302 -0.10297468 -0.02423656
0.49477878 -0.10298517 -0.023961425
-0.13902302 -0.084335096 -0.024236679
0.51235282 -0.084196344 -0.028743625
-0.13902302 -0.065695643 -0.024236679
-0.13902302 -0.047056139 -0.02423656
-0.13902302 -0.028416639 -0.02423656
-0.13902302 -0.0097771799 -0.024236798
-0.13902302 0.0088623222 -0.024236679
-0.13902302 0.027501864 -0.024236679
-0.13902302 0.0461412 -0.02423656
-0.13902302 0.064780787 -0.02423656
-0.13902245 0.083419785 -0.024249077
-0.13902245 0.10205912 -0.024249077
0.49471948 0.10205971 -0.02423656
-0.13902245 0.12069858 -0.024249196
0.47707769 0.12095786 -0.019436598
-0.13902245 0.13933791 -0.024249315
0.43797439 0.13907412 -0.02853179
-0.13902245 0.15797737 -0.024249077
0.42025167 0.158012 -0.023748636
-0.13902245 0.17661665 -0.024249077
0.40246087 0.17702593 -0.018934131
-0.13902245 0.19525608 -0.024249315
0.36362731 0.19493456 -0.028045535
-0.13902245 0.21389557 -0.024249077
0.34575385 0.21398687 -0.023260593
-0.13902245 0.23253483 -0.024249077
0.32780951 0.23311463 -0.018456697
-0.13902302 0.25117567 -0.02423656
0.28925031 0.25081757 -0.027559161
-0.13902302 0.26981509 -0.024236798
0.27122602 0.26998416 -0.022772312
0.29174289 -0.27242455 -0.0085126162
0.30983227 -0.25317937 -0.01335597
0.34869674 -0.23530692 -0.0041459799
0.36670512 -0.21610115 -0.0090067387
0.38464192 -0.19697171 -0.013848066
0.42378172 -0.17889008 -0.0046417713
0.44163698 -0.15980062 -0.0095005035
0.45942128 -0.14078681 -0.014340043
0.49883893 -0.12249684 -0.0051248074
0.49877873 0.121714 -0.0054042339
0.45936829 0.13993198 -0.014604688
0.44158581 0.1589808 -0.0097663403
0.42373243 0.1781055 -0.0049086809
0.38459706 0.19611442 -0.014112949
0.36666211 0.21527894 -0.0092725754
0.34865564 0.23451991 -0.0044128895
0.30979556 0.25231972 -0.013620853
0.29170805 0.27160007 -0.0087785721
-0.15943049 -0.27426592 0.0085729361
0.31246361 -0.27394918 0.0056339502
-0.15943049 -0.25537387 0.0085729361
0.33061638 -0.25458938 0.00073421001
-0.15943049 -0.23648183 0.0085729361
0.36978811 -0.23661961 0.010064363
-0.15943049 -0.21758975 0.0085729361
0.38785666 -0.21729854 0.0051339865
-0.15943049 -0.1986977 0.0085729361
0.40585509 -0.19805601 0.00023651123
-0.15943049 -0.17980567 0.0085729361
0.44530571 -0.17987427 0.0095627308
-0.15943049 -0.16091363 0.0085729361
0.46322158 -0.16067187 0.0046473742
-0.15943049 -0.14202155 0.0085729361
0.48106584 -0.14154613 -0.00024855137
-0.15943049 -0.12312951 0.0085729361
-0.15943049 -0.10423743 0.0085729361
-0.15943049 -0.085345358 0.0085729361
-0.15943049 -0.066453367 0.0085729361
-0.15943049 -0.047561288 0.0085729361
-0.15943049 -0.028669214 0.0085729361
-0.15943049 -0.0097771799 0.0085729361
-0.15943049 0.0091148969 0.0085729361
-0.15943049 0.028006932 0.0085729361
-0.15943049 0.046898969 0.0085729361
-0.15943049 0.065791041 0.0085729361
-0.15943049 0.084683076 0.0085729361
-0.15943049 0.10357516 0.0085729361
-0.15943049 0.12246723 0.0085729361
-0.15943049 0.14135924 0.0085729361
0.48100749 0.14079875 -0.00052917004
-0.15943049 0.16025129 0.0085729361
0.46316773 0.15996066 0.004378438
-0.15943049 0.17914332 0.0085729361
0.44525373 0.17919882 0.0092927217
-0.15943049 0.1980354 0.0085729361
0.40580994 0.1973079 -1.8835068e-05
-0.15943049 0.21692747 0.0085729361
0.3878133 0.2165861 0.0048780441
-0.15943049 0.2358195 0.0085729361
0.36974442 0.23594169 0.0097942352
-0.15943049 0.2547116 0.0085729361
0.33057716 0.25383785 0.00046622753
-0.15943049 0.27360359 0.0085729361
0.31242809 0.2732347 0.0053777695
0.33342817 -0.27549303 0.019958735
0.35164472 -0.25601727 0.015001655
0.39112419 -0.23794647 0.024428129
0.40925747 -0.21851109 0.019452929
0.42731783 -0.19915384 0.014497995
0.46707907 -0.180869 0.023920417
0.48505566 -0.16155253 0.018947601
0.48499909 0.16095118 0.018675447
0.46702701 0.18030487 0.023660302
0.42726773 0.19851424 0.014226794
0.40921158 0.21790859 0.019193769
0.39108014 0.23738021 0.024167895
0.35160294 0.25537524 0.014730334
0.33338839 0.274887 0.019686341
0.35463926 -0.27705494 0.034451723
0.37291762 -0.25746045 0.029423237
0.41271371 -0.23929012 0.038973927
0.43090981 -0.21973784 0.033940196
0.44903234 -0.20026457 0.02892673
0.44897953 0.19973573 0.028652549
0.43085894 0.21924536 0.033664823
0.41266474 0.23883422 0.038697362
0.37287536 0.2569305 0.029161811
0.35459685 0.2765601 0.03417635
-0.18039942 -0.2779004 0.042297006
0.37609902 -0.27863395 0.049103022
-0.18039942 -0.2587488 0.042297125
0.3944436 -0.25892198 0.044028163
-0.18039942 -0.23959711 0.042297125
0.43455657 -0.24064846 0.053678751
-0.18039942 -0.22044553 0.042297125
0.45281562 -0.22097799 0.048585415
-0.18039942 -0.2012938 0.042297125
0.4710004 -0.20138735 0.043512464
-0.18039942 -0.18214211 0.042297006
-0.18039942 -0.16299056 0.042297125
-0.18039942 -0.14383878 0.042297125
-0.18039942 -0.12468717 0.042297125
-0.18039861 -0.10553499 0.042283893
-0.18039861 -0.086383425 0.042284012
-0.18039861 -0.067231819 0.042283893
-0.18039861 -0.048080303 0.042283893
-0.18039861 -0.028928783 0.042283893
-0.18039861 -0.0097770961 0.042283893
-0.18039861 0.009374423 0.042283893
-0.18039861 0.028525902 0.042283893
-0.18039861 0.047677502 0.042284012
-0.18039861 0.066829108 0.042283893
-0.18039861 0.085980631 0.042283893
-0.18039861 0.10513223 0.042284012
-0.18039861 0.12428366 0.042284012
-0.18039861 0.14343531 0.042283893
-0.18039861 0.16258691 0.042284012
-0.18039861 0.18173835 0.042284012
-0.18039861 0.20089003 0.042283893
0.47094747 0.20097168 0.043248296
-0.18039861 0.22004163 0.042284012
0.45276454 0.22059911 0.048319817
-0.18039861 0.23919307 0.042283893
0.43450734 0.24030684 0.053412437
-0.18039861 0.25834465 0.042284012
0.39439884 0.25850427 0.043763638
-0.18039861 0.27749634 0.042284012
0.3760561 0.27825302 0.048837543
0.39781612 -0.28023314 0.063941836
0.41622278 -0.26039958 0.058793068
0.45666212 -0.24202432 0.068572283
0.4566102 0.24179696 0.068302631
0.4161754 0.26009512 0.058525562
0.39777061 0.27996609 0.063673139
-0.20195173 -0.28163478 0.076947451
-0.20195173 -0.26221633 0.076947451
0.43826437 -0.26189613 0.073747754
-0.20195173 -0.24279808 0.076947451
-0.20195173 -0.2233796 0.076947451
-0.20195173 -0.20396122 0.076947331
-0.20195173 -0.18454272 0.076947331
-0.20195173 -0.16512443 0.07694757
-0.20195173 -0.14570597 0.076947451
-0.20195173 -0.12628755 0.076947331
-0.20195173 -0.10686909 0.076947331
-0.20195173 -0.087450802 0.07694757
-0.20195173 -0.068032347 0.07694757
-0.20195173 -0.048613973 0.076947451
-0.20195173 -0.029195555 0.07694757
-0.20195173 -0.0097771799 0.07694757
-0.20195173 0.0096412357 0.076947451
-0.20195173 0.029059695 0.076947451
-0.20195173 0.04847794 0.076947451
-0.20195173 0.067896441 0.076947451
-0.20195173 0.087314904 0.076947331
-0.20195079 0.10673257 0.076933861
-0.20195173 0.12615161 0.07694757
-0.20195173 0.14557005 0.076947451
-0.20195173 0.16498852 0.076947451
-0.20195173 0.18440673 0.07694757
-0.20195173 0.20382518 0.07694757
-0.20195173 0.22324368 0.076947451
-0.20195173 0.24266215 0.076947451
-0.20195173 0.2620804 0.07694757
0.43821433 0.26170644 0.073476911
-0.20195173 0.28149882 0.076947451
0.41974255 0.28169811 0.078672767
-0.22411285 -0.26578194 0.1125766
-0.22411285 -0.24608932 0.11257672
-0.22411285 -0.22639659 0.11257672
-0.22411285 -0.20670395 0.1125766
-0.22411285 -0.18701127 0.11257672
-0.22411285 -0.16731863 0.1125766
-0.22411285 -0.14762591 0.11257648
-0.22411285 -0.12793322 0.11257672
-0.22411285 -0.10824058 0.1125766
-0.22411285 -0.088547818 0.1125766
-0.22411285 -0.068855181 0.1125766
-0.22411285 -0.049162537 0.1125766
-0.22411285 -0.029469861 0.11257684
-0.22411285 -0.0097772209 0.1125766
-0.22411285 0.0099155009 0.1125766
-0.22411285 0.029608181 0.11257672
-0.22411285 0.04930082 0.1125766
-0.22411285 0.068993583 0.1125766
-0.22411285 0.088686228 0.11257672
-0.22411285 0.10837895 0.11257672
-0.22411285 0.12807146 0.1125766
-0.22411285 0.14776418 0.1125766
-0.22411285 0.16745694 0.1125766
-0.22411285 0.18714958 0.11257684
-0.22411285 0.2068423 0.1125766
-0.22411285 0.2265349 0.11257648
-0.22411285 0.24622758 0.11257672
-0.22411285 0.26592031 0.1125766
-0.2469102 -0.26945117 0.14924121
-0.2469102 -0.24947615 0.14924109
-0.2469102 -0.22950126 0.14924109
-0.2469102 -0.20952632 0.14924097
-0.2469102 -0.18955146 0.14924121
-0.2469102 -0.16957657 0.14924109
-0.2469102 -0.14960155 0.14924109
-0.2469102 -0.12962669 0.14924121
-0.2469102 -0.10965174 0.14924121
-0.24690899 -0.089676432 0.14922678
-0.24690899 -0.069701575 0.14922667
-0.24690899 -0.049726807 0.14922678
-0.24690899 -0.029751951 0.14922667
-0.24690899 -0.009777138 0.14922667
-0.24690899 0.010197593 0.14922678
-0.24690899 0.030172529 0.14922678
-0.24690899 0.05014734 0.14922678
-0.24690899 0.070122078 0.14922678
-0.24690899 0.090096928 0.14922667
-0.24690899 0.11007174 0.14922678
-0.24690899 0.13004647 0.14922678
-0.24690899 0.15002136 0.14922667
-0.24690899 0.16999613 0.14922678
-0.24690899 0.18997087 0.14922678
-0.2469102 0.20994684 0.14924121
-0.2469102 0.22992186 0.14924121
-0.2469102 0.2498969 0.14924121
-0.2469102 0.26987162 0.14924121
-0.27036917 -0.27322543 0.186957
-0.27036917 -0.25296023 0.186957
-0.27036917 -0.23269497 0.18695712
-0.27036917 -0.2124297 0.186957
-0.27036917 -0.19216451 0.186957
-0.27036917 -0.17189924 0.18695712
-0.27036917 -0.15163402 0.18695712
-0.27036917 -0.1313687 0.186957
-0.27036917 -0.11110345 0.186957
-0.27036917 -0.090838224 0.18695712
-0.27036917 -0.070572913 0.186957
-0.27036917 -0.050307721 0.186957
-0.27036917 -0.030042453 0.18695712
-0.27036917 -0.0097771799 0.186957
-0.27036917 0.010488009 0.186957
-0.27036917 0.030753283 0.18695712
-0.27036917 0.05101864 0.18695712
-0.27036917 0.071283743 0.186957
-0.27036917 0.091549017 0.186957
-0.27036917 0.11181442 0.186957
-0.27036917 0.13207968 0.18695712
-0.27036917 0.15234478 0.18695712
-0.27036917 0.17261013 0.186957
-0.27036917 0.19287542 0.18695712
-0.27036917 0.21314056 0.18695712
-0.27036917 0.23340587 0.186957
-0.27036917 0.2536712 0.18695712
-0.27036917 0.27393642 0.18695712
-0.29452017 -0.27711126 0.22578549
-0.29452017 -0.25654703 0.22578549
-0.29452017 -0.23598287 0.22578549
-0.29452017 -0.21541871 0.22578549
-0.29452017 -0.19485457 0.22578549
-0.29452017 -0.17429045 0.22578549
-0.29452017 -0.15372625 0.22578549
-0.29452017 -0.13316211 0.22578549
-0.29452017 -0.11259792 0.22578549
-0.29452017 -0.092033781 0.22578549
-0.29452017 -0.071469642 0.22578549
-0.29452017 -0.050905503 0.22578549
-0.29452017 -0.030341279 0.22578549
-0.29452017 -0.0097770961 0.22578549
-0.29452017 0.010787087 0.22578549
-0.29452017 0.031351186 0.22578549
-0.29452017 0.05191537 0.22578549
-0.29452017 0.072479472 0.22578549
-0.29452017 0.093043648 0.22578549
-0.29452017 0.11360762 0.22578561
-0.29452017 0.13417189 0.22578561
-0.29452017 0.15473612 0.22578561
-0.29452017 0.17530017 0.22578561
-0.29452017 0.19586435 0.22578561
-0.29452017 0.21642844 0.22578561
-0.29452017 0.23699263 0.22578561
-0.29452017 0.25755695 0.22578561
-0.29452017 0.27812096 0.22578561
-0.31939593 -0.26024273 0.26579237
-0.31939593 -0.23937057 0.26579225
-0.31939593 -0.21849845 0.26579225
-0.31939593 -0.19762632 0.26579237
-0.31939593 -0.17675428 0.26579225
-0.31939593 -0.15588205 0.26579225
-0.31939593 -0.13500999 0.26579225
-0.31939593 -0.11413785 0.26579237
-0.31939426 -0.093265265 0.26577663
-0.31939426 -0.072393179 0.26577663
-0.31939426 -0.051521227 0.26577663
-0.31939426 -0.030649222 0.26577652
-0.31939426 -0.0097772628 0.26577652
-0.31939426 0.011094905 0.26577663
-0.31939426 0.03196691 0.26577663
-0.31939426 0.052838869 0.26577652
-0.31939426 0.073710784 0.26577675
-0.31939426 0.094582789 0.26577663
-0.31939593 0.11545562 0.26579249
-0.31939593 0.13632782 0.26579225
-0.31939593 0.15719979 0.26579225
-0.31939593 0.17807195 0.26579225
-0.31939593 0.19894408 0.26579237
-0.31939593 0.21981633 0.26579225
-0.31939593 0.24068843 0.26579237
-0.31939593 0.26156044 0.26579237
-0.31939593 0.28243265 0.26579225
-0.34502625 -0.26404929 0.30699944
-0.34502625 -0.24285991 0.30699933
-0.34502625 -0.22167055 0.30699933
-0.34502625 -0.20048125 0.30699944
-0.34502625 -0.17929193 0.30699944
-0.34502625 -0.15810259 0.30699933
-0.34502625 -0.13691318 0.30699933
-0.34502625 -0.11572395 0.30699944
-0.34502625 -0.094534509 0.30699944
-0.34502625 -0.073345199 0.30699944
-0.34502625 -0.05215589 0.30699933
-0.34502625 -0.030966617 0.30699944
-0.34502625 -0.009777138 0.30699944
-0.34502625 0.011412175 0.30699944
-0.34502625 0.032601491 0.30699944
-0.34502625 0.0537908 0.30699944
-0.34502625 0.074980237 0.30699944
-0.34502625 0.096169554 0.30699944
-0.34502625 0.11735895 0.30699944
-0.34502625 0.13854812 0.30699944
-0.34502625 0.15973748 0.30699944
-0.34502625 0.18092696 0.30699944
-0.34502625 0.20211631 0.30699933
-0.34502625 0.22330551 0.30699944
-0.34502625 0.2444949 0.30699944
-0.34502625 0.26568428 0.30699933
-0.37144765 -0.2679733 0.34947824
-0.37144765 -0.24645704 0.34947824
-0.37144765 -0.22494063 0.34947848
-0.37144765 -0.2034243 0.34947848
-0.37144765 -0.18190801 0.34947848
-0.37144765 -0.16039157 0.34947824
-0.37144765 -0.13887522 0.34947824
-0.37144765 -0.11735888 0.34947824
-0.37144765 -0.0958426 0.34947848
-0.37144765 -0.074326187 0.34947848
-0.37144765 -0.052809954 0.34947824
-0.37144765 -0.031293586 0.34947848
-0.37144765 -0.0097771799 0.34947848
-0.37144765 0.011739142 0.34947824
-0.37144765 0.033255547 0.34947848
-0.37144765 0.054771915 0.34947848
-0.37144765 0.076288156 0.34947824
-0.37144765 0.097804561 0.34947824
-0.37144765 0.11932089 0.34947848
-0.37144765 0.14083716 0.34947848
-0.37144971 0.16235465 0.34949493
-0.37144971 0.18387111 0.34949505
-0.37144971 0.2053875 0.34949493
-0.37144971 0.22690403 0.34949505
-0.37144971 0.24842052 0.34949505
-0.37144971 0.26993692 0.34949505
-0.39869958 -0.27202198 0.39330614
-0.39869958 -0.25016826 0.39330614
-0.39869958 -0.22831449 0.39330614
-0.39869958 -0.20646074 0.39330614
-0.39869958 -0.18460704 0.39330614
-0.39869958 -0.16275325 0.39330614
-0.39869958 -0.1408996 0.39330614
-0.39869958 -0.11904581 0.39330614
-0.39869958 -0.097192101 0.39330614
-0.39869732 -0.075337902 0.39328897
-0.39869958 -0.053484663 0.39330614
-0.39869958 -0.031630963 0.39330614
-0.39869958 -0.009777138 0.39330614
-0.39869958 0.012076521 0.39330614
-0.39869958 0.03393022 0.39330614
-0.39869958 0.055784047 0.39330614
-0.39869958 0.077637829 0.39330614
-0.39869958 0.099491574 0.39330614
-0.39869958 0.12134518 0.39330614
-0.39869958 0.14319897 0.39330614
-0.39869958 0.16505267 0.39330614
-0.39869958 0.18690637 0.39330614
-0.39869958 0.20876011 0.39330614
-0.39869958 0.23061381 0.39330614
-0.39869958 0.25246751 0.39330614
-0.39869958 0.27432141 0.39330614
-0.42681727 -0.27619794 0.43851268
-0.42681727 -0.25399622 0.43851256
-0.42681727 -0.23179445 0.43851256
-0.42681727 -0.20959276 0.43851256
-0.42681727 -0.18739094 0.43851256
-0.42681727 -0.16518933 0.43851256
-0.42681727 -0.14298768 0.43851268
-0.42681727 -0.12078589 0.43851268
-0.42681727 -0.09858416 0.43851268
-0.42681727 -0.076382384 0.43851268
-0.42681727 -0.054180607 0.43851268
-0.42681727 -0.031978998 0.43851256
-0.42681727 -0.0097772209 0.43851256
-0.42681727 0.012424555 0.43851268
-0.42681727 0.03462629 0.43851256
-0.42681727 0.056828029 0.43851268
-0.42681727 0.079029679 0.43851256
-0.42681727 0.10123146 0.43851256
-0.42681727 0.12343324 0.43851256
-0.42681727 0.14563501 0.43851268
-0.42681727 0.16783665 0.43851256
-0.42681727 0.19003835 0.43851256
-0.42681727 0.21224013 0.43851256
-0.42681727 0.23444194 0.43851256
-0.42681974 0.2566452 0.43853033
-0.42681974 0.27884704 0.43853021
-0.455845 -0.25794807 0.48518193
-0.455845 -0.23538725 0.48518217
-0.455845 -0.21282615 0.48518193
-0.455845 -0.19026513 0.48518193
-0.455845 -0.16770418 0.48518193
-0.455845 -0.14514317 0.48518193
-0.455845 -0.12258223 0.48518217
-0.455845 -0.10002113 0.48518193
-0.455845 -0.07746017 0.48518193
-0.455845 -0.054899156 0.48518193
-0.455845 -0.032338187 0.48518193
-0.455845 -0.0097772209 0.48518193
-0.45584765 0.012783956 0.48520041
-0.45584765 0.035345092 0.48520029
-0.45584765 0.05790627 0.48520029
-0.45584765 0.080467366 0.48520029
-0.45584765 0.10302845 0.48520029
-0.45584765 0.12558953 0.48520041
-0.45584765 0.14815073 0.48520029
-0.45584765 0.17071198 0.48520029
-0.45584765 0.1932729 0.48520029
-0.45584765 0.21583417 0.48520029
-0.45584765 0.23839535 0.48520029
-0.45584765 0.26095644 0.48520041
-0.48583049 -0.26203156 0.53340554
-0.48583049 -0.23909943 0.53340578
-0.48583049 -0.2161672 0.53340554
-0.48583049 -0.19323485 0.53340554
-0.48583049 -0.17030285 0.53340578
-0.48583049 -0.14737046 0.53340554
-0.48583049 -0.12443835 0.53340578
-0.48583049 -0.10150602 0.53340554
-0.48583049 -0.078573793 0.53340554
-0.48583049 -0.055641606 0.53340554
-0.48583049 -0.032709457 0.53340554
-0.48583049 -0.009777138 0.53340578
-0.48583049 0.013155011 0.53340578
-0.48583049 0.036087289 0.53340554
-0.48583049 0.059019603 0.53340554
-0.48583049 0.081951715 0.53340554
-0.48583049 0.10488386 0.53340554
-0.48583049 0.12781617 0.53340578
-0.48583049 0.15074828 0.53340578
-0.48583049 0.1736806 0.53340554
-0.48583049 0.19661275 0.53340554
-0.48583049 0.21954502 0.53340578
-0.48583049 0.24247716 0.53340554
-0.48583049 0.26540929 0.53340578
-0.51681608 -0.26624998 0.5832231
-0.51681608 -0.24293427 0.5832231
-0.51681608 -0.21961862 0.5832231
-0.51681608 -0.19630279 0.5832231
-0.51681608 -0.1729873 0.58322334
-0.51681608 -0.1496716 0.58322334
-0.51681608 -0.12635583 0.58322334
-0.51681608 -0.10304017 0.58322334
-0.51681608 -0.079724386 0.58322334
-0.51681608 -0.056408614 0.58322334
-0.51681608 -0.033092961 0.58322334
-0.51681608 -0.0097772209 0.5832231
-0.51681608 0.013538599 0.58322334
-0.51681608 0.036854252 0.5832231
-0.51681608 0.060169913 0.5832231
-0.51681608 0.083485648 0.58322334
-0.51681608 0.1068013 0.58322334
-0.51681924 0.13011807 0.58324277
-0.51681924 0.15343389 0.58324277
-0.51681924 0.17674971 0.58324277
-0.51681924 0.20006557 0.58324277
-0.51681924 0.22338147 0.58324277
-0.51681924 0.24669729 0.58324277
-0.51681924 0.27001309 0.58324277
