ply
format ascii 1.0
comment PCL generated
element vertex 1350
property float x
property float y
property float z
element camera 0
property float view_px
property float view_py
property float view_pz
property float x_axisx
property float x_axisy
property float x_axisz
property float y_axisx
property float y_axisy
property float y_axisz
property float z_axisx
property float z_axisy
property float z_axisz
property float focal
property float scalex
property float scaley
property float centerx
property float centery
property int viewportx
property int viewporty
property float k1
property float k2
end_header
0.29682738 0.3371256 -0.26577318
0.31721503 0.3371256 -0.26577318
-0.31629032 0.44157529 -0.2536906
-0.29580966 0.44157529 -0.2536906
-0.27532899 0.44157529 -0.2536906
-0.2548483 0.44157529 -0.2536906
-0.23436768 0.44157529 -0.2536906
-0.21388702 0.44157529 -0.2536906
-0.19340634 0.44157529 -0.2536906
-0.17292568 0.44157529 -0.2536906
-0.15244503 0.44157529 -0.2536906
-0.13196437 0.44157529 -0.2536906
-0.11148371 0.44157529 -0.2536906
-0.091003038 0.44157529 -0.2536906
-0.070522383 0.44157529 -0.2536906
-0.05004172 0.44157529 -0.2536906
-0.029561056 0.44157529 -0.2536906
-0.0090803932 0.44157529 -0.2536906
0.011400269 0.44157529 -0.2536906
0.03188093 0.44157529 -0.2536906
0.052361593 0.44157529 -0.2536906
0.072842255 0.44157529 -0.2536906
0.093322918 0.44157529 -0.2536906
0.11380357 0.44157529 -0.2536906
0.13428424 0.44157529 -0.2536906
0.15476491 0.44157529 -0.2536906
0.17524557 0.44157529 -0.2536906
0.19572622 0.44157529 -0.2536906
0.21620688 0.44157529 -0.2536906
0.23668756 0.44157529 -0.2536906
0.25716823 0.44157529 -0.2536906
0.27764887 0.44157529 -0.2536906
0.29812956 0.44157529 -0.2536906
0.31861022 0.44157529 -0.2536906
-0.3176423 0.29990044 -0.24271369
-0.29707715 0.29990044 -0.24271369
-0.27651197 0.29990044 -0.24271369
-0.25594682 0.29990044 -0.24271369
-0.23538166 0.29990044 -0.24271369
-0.21481651 0.29990044 -0.24271369
-0.19425134 0.29990044 -0.24271369
-0.17368618 0.29990044 -0.24271369
-0.15312101 0.29990044 -0.24271369
-0.13255586 0.29990044 -0.24271369
-0.1119907 0.29990044 -0.24271369
-0.091425538 0.29990044 -0.24271369
-0.070860378 0.29990044 -0.24271369
-0.050295211 0.29990044 -0.24271369
-0.029730054 0.29990044 -0.24271369
-0.0091648921 0.29990044 -0.24271369
0.011400269 0.29990044 -0.24271369
0.031965431 0.29990044 -0.24271369
0.052530594 0.29990044 -0.24271369
0.073095754 0.29990044 -0.24271369
0.093660913 0.29990044 -0.24271369
0.11422607 0.29990044 -0.24271369
0.13479124 0.29990044 -0.24271369
0.15535639 0.29990044 -0.24271369
0.17592154 0.29990044 -0.24271369
0.19648671 0.29990044 -0.24271369
0.21705188 0.29990044 -0.24271369
0.23761705 0.29990044 -0.24271369
0.2581822 0.29990044 -0.24271369
0.27874738 0.29990044 -0.24271369
0.29931253 0.29990044 -0.24271369
-0.2997866 0.26202163 -0.21924889
-0.27904081 0.26202163 -0.21924889
-0.25829503 0.26202163 -0.21924889
-0.23754923 0.26202163 -0.21924889
-0.21680346 0.26202163 -0.21924889
-0.19605765 0.26202163 -0.21924889
-0.17531185 0.26202163 -0.21924889
-0.15456605 0.26202163 -0.21924889
-0.13382028 0.26202163 -0.21924889
-0.11307448 0.26202163 -0.21924889
-0.09232869 0.26202163 -0.21924889
-0.071582898 0.26202163 -0.21924889
-0.050837107 0.26202163 -0.21924889
-0.030091314 0.26202163 -0.21924889
-0.0093455222 0.26202163 -0.21924889
0.011400269 0.26202163 -0.21924889
0.032146059 0.26202163 -0.21924889
0.05289185 0.26202163 -0.21924889
0.073637642 0.26202163 -0.21924889
0.094383433 0.26202163 -0.21924889
0.11512922 0.26202163 -0.21924889
0.13587502 0.26202163 -0.21924889
0.15662082 0.26202163 -0.21924889
0.17736658 0.26202163 -0.21924889
0.19811238 0.26202163 -0.21924889
0.21885818 0.26202163 -0.21924889
0.239604 0.26202163 -0.21924889
0.26034978 0.26202163 -0.21924889
0.28109559 0.26202163 -0.21924889
0.30184138 0.26202163 -0.21924889
-0.29842597 0.28104386 -0.23103273
-0.27777088 0.28104386 -0.23103273
-0.25711578 0.28104386 -0.23103273
-0.23646072 0.28104386 -0.23103273
-0.21580563 0.28104386 -0.23103273
-0.19515055 0.28104386 -0.23103273
-0.17449549 0.28104386 -0.23103273
-0.15384038 0.28104386 -0.23103273
-0.13318531 0.28104386 -0.23103273
-0.11253022 0.28104386 -0.23103273
-0.091875143 0.28104386 -0.23103273
-0.071220055 0.28104386 -0.23103273
-0.050564975 0.28104386 -0.23103273
-0.029909892 0.28104386 -0.23103273
-0.0092548113 0.28104386 -0.23103273
0.011400269 0.28104386 -0.23103273
0.032055348 0.28104386 -0.23103273
0.052710429 0.28104386 -0.23103273
0.073365517 0.28104386 -0.23103273
0.09402059 0.28104386 -0.23103273
0.11467568 0.28104386 -0.23103273
0.13533077 0.28104386 -0.23103273
0.15598585 0.28104386 -0.23103273
0.17664091 0.28104386 -0.23103273
0.19729602 0.28104386 -0.23103273
0.21795109 0.28104386 -0.23103273
0.23860617 0.28104386 -0.23103273
0.25926125 0.28104386 -0.23103273
0.27991635 0.28104386 -0.23103273
0.30057144 0.28104386 -0.23103273
-0.30115926 0.24283147 -0.2073617
-0.28032196 0.24283147 -0.2073617
-0.25948465 0.24283147 -0.2073617
-0.23864739 0.24283147 -0.2073617
-0.21781006 0.24283147 -0.2073617
-0.19697276 0.24283147 -0.2073617
-0.17613544 0.24283147 -0.2073617
-0.15529816 0.24283147 -0.2073617
-0.13446085 0.24283147 -0.2073617
-0.11362356 0.24283147 -0.2073617
-0.092786245 0.24283147 -0.2073617
-0.071948946 0.24283147 -0.2073617
-0.051111646 0.24283147 -0.2073617
-0.030274337 0.24283147 -0.2073617
-0.0094370339 0.24283147 -0.2073617
0.011400269 0.24283147 -0.2073617
0.032237574 0.24283147 -0.2073617
0.053074874 0.24283147 -0.2073617
0.073912181 0.24283147 -0.2073617
0.09474948 0.24283147 -0.2073617
0.11558678 0.24283147 -0.2073617
0.13642409 0.24283147 -0.2073617
0.15726139 0.24283147 -0.2073617
0.17809869 0.24283147 -0.2073617
0.19893597 0.24283147 -0.2073617
0.21977329 0.24283147 -0.2073617
0.2406106 0.24283147 -0.2073617
0.26144794 0.24283147 -0.2073617
0.28228521 0.24283147 -0.2073617
0.30312252 0.24283147 -0.2073617
-0.30162925 0.47291905 -0.2032913
-0.28076062 0.47291905 -0.2032913
-0.25989199 0.47291905 -0.2032913
-0.23902337 0.47291905 -0.2032913
-0.21815473 0.47291905 -0.2032913
-0.19728608 0.47291905 -0.2032913
-0.17641744 0.47291905 -0.2032913
-0.15554883 0.47291905 -0.2032913
-0.13468018 0.47291905 -0.2032913
-0.11381155 0.47291905 -0.2032913
-0.092942908 0.47291905 -0.2032913
-0.072074279 0.47291905 -0.2032913
-0.051205643 0.47291905 -0.2032913
-0.030337004 0.47291905 -0.2032913
-0.0094683673 0.47291905 -0.2032913
0.011400269 0.47291905 -0.2032913
0.032268904 0.47291905 -0.2032913
0.053137541 0.47291905 -0.2032913
0.074006177 0.47291905 -0.2032913
0.094874814 0.47291905 -0.2032913
0.11574344 0.47291905 -0.2032913
0.13661209 0.47291905 -0.2032913
0.15748072 0.47291905 -0.2032913
0.17834936 0.47291905 -0.2032913
0.19921798 0.47291905 -0.2032913
0.22008662 0.47291905 -0.2032913
0.24095526 0.47291905 -0.2032913
0.26182392 0.47291905 -0.2032913
0.28269255 0.47291905 -0.2032913
0.30356118 0.47291905 -0.2032913
-0.30254409 0.2234714 -0.19536865
-0.28161448 0.2234714 -0.19536865
-0.26068482 0.2234714 -0.19536865
-0.23975523 0.2234714 -0.19536865
-0.21882561 0.2234714 -0.19536865
-0.19789599 0.2234714 -0.19536865
-0.17696637 0.2234714 -0.19536865
-0.15603673 0.2234714 -0.19536865
-0.13510711 0.2234714 -0.19536865
-0.11417748 0.2234714 -0.19536865
-0.093247861 0.2234714 -0.19536865
-0.072318234 0.2234714 -0.19536865
-0.051388606 0.2234714 -0.19536865
-0.030458981 0.2234714 -0.19536865
-0.0095293559 0.2234714 -0.19536865
0.011400269 0.2234714 -0.19536865
0.032329895 0.2234714 -0.19536865
0.053259522 0.2234714 -0.19536865
0.074189141 0.2234714 -0.19536865
0.095118769 0.2234714 -0.19536865
0.1160484 0.2234714 -0.19536865
0.13697802 0.2234714 -0.19536865
0.15790765 0.2234714 -0.19536865
0.17883727 0.2234714 -0.19536865
0.1997669 0.2234714 -0.19536865
0.22069652 0.2234714 -0.19536865
0.24162614 0.2234714 -0.19536865
0.26255578 0.2234714 -0.19536865
0.28348538 0.2234714 -0.19536865
0.30441505 0.2234714 -0.19536865
-0.30535087 0.1842317 -0.17106128
-0.28423414 0.1842317 -0.17106128
-0.26311737 0.1842317 -0.17106128
-0.24200065 0.1842317 -0.17106128
-0.22088391 0.1842317 -0.17106128
-0.19976716 0.1842317 -0.17106128
-0.17865042 0.1842317 -0.17106128
-0.15753368 0.1842317 -0.17106128
-0.13641694 0.1842317 -0.17106128
-0.11530019 0.1842317 -0.17106128
-0.094183445 0.1842317 -0.17106128
-0.073066704 0.1842317 -0.17106128
-0.051949963 0.1842317 -0.17106128
-0.030833216 0.1842317 -0.17106128
-0.0097164717 0.1842317 -0.17106128
0.011400269 0.1842317 -0.17106128
0.032517008 0.1842317 -0.17106128
0.053633757 0.1842317 -0.17106128
0.074750498 0.1842317 -0.17106128
0.095867239 0.1842317 -0.17106128
0.11698398 0.1842317 -0.17106128
0.13810073 0.1842317 -0.17106128
0.15921748 0.1842317 -0.17106128
0.18033421 0.1842317 -0.17106128
0.20145096 0.1842317 -0.17106128
0.22256769 0.1842317 -0.17106128
0.24368444 0.1842317 -0.17106128
0.2648012 0.1842317 -0.17106128
0.28591794 0.1842317 -0.17106128
0.3070347 0.1842317 -0.17106128
-0.30394125 0.20393881 -0.1832689
-0.28291845 0.20393881 -0.1832689
-0.26189569 0.20393881 -0.1832689
-0.24087293 0.20393881 -0.1832689
-0.21985017 0.20393881 -0.1832689
-0.19882742 0.20393881 -0.1832689
-0.17780465 0.20393881 -0.1832689
-0.15678188 0.20393881 -0.1832689
-0.1357591 0.20393881 -0.1832689
-0.11473633 0.20393881 -0.1832689
-0.093713574 0.20393881 -0.1832689
-0.072690807 0.20393881 -0.1832689
-0.051668033 0.20393881 -0.1832689
-0.030645268 0.20393881 -0.1832689
-0.0096224975 0.20393881 -0.1832689
0.011400269 0.20393881 -0.1832689
0.032423034 0.20393881 -0.1832689
0.053445809 0.20393881 -0.1832689
0.074468568 0.20393881 -0.1832689
0.095491342 0.20393881 -0.1832689
0.11651411 0.20393881 -0.1832689
0.13753687 0.20393881 -0.1832689
0.15855964 0.20393881 -0.1832689
0.17958242 0.20393881 -0.1832689
0.20060518 0.20393881 -0.1832689
0.22162795 0.20393881 -0.1832689
0.2426507 0.20393881 -0.1832689
0.26367348 0.20393881 -0.1832689
0.28469625 0.20393881 -0.1832689
0.30571902 0.20393881 -0.1832689
-0.30677319 0.16434762 -0.15874374
-0.28556159 0.16434762 -0.15874374
-0.26435006 0.16434762 -0.15874374
-0.24313848 0.16434762 -0.15874374
-0.22192693 0.16434762 -0.15874374
-0.20071538 0.16434762 -0.15874374
-0.17950381 0.16434762 -0.15874374
-0.15829223 0.16434762 -0.15874374
-0.13708067 0.16434762 -0.15874374
-0.1158691 0.16434762 -0.15874374
-0.094657555 0.16434762 -0.15874374
-0.073445983 0.16434762 -0.15874374
-0.052234419 0.16434762 -0.15874374
-0.031022856 0.16434762 -0.15874374
-0.0098112933 0.16434762 -0.15874374
0.011400269 0.16434762 -0.15874374
0.032611832 0.16434762 -0.15874374
0.053823397 0.16434762 -0.15874374
0.075034954 0.16434762 -0.15874374
0.096246518 0.16434762 -0.15874374
0.11745809 0.16434762 -0.15874374
0.13866964 0.16434762 -0.15874374
0.1598812 0.16434762 -0.15874374
0.18109277 0.16434762 -0.15874374
0.20230435 0.16434762 -0.15874374
0.22351591 0.16434762 -0.15874374
0.24472746 0.16434762 -0.15874374
0.26593903 0.16434762 -0.15874374
0.28715062 0.16434762 -0.15874374
0.30836216 0.16434762 -0.15874374
-0.30820832 0.1442841 -0.1463151
-0.28690106 0.1442841 -0.1463151
-0.2655938 0.1442841 -0.1463151
-0.24428661 0.1442841 -0.1463151
-0.22297935 0.1442841 -0.1463151
-0.20167211 0.1442841 -0.1463151
-0.18036488 0.1442841 -0.1463151
-0.15905763 0.1442841 -0.1463151
-0.1377504 0.1442841 -0.1463151
-0.11644317 0.1442841 -0.1463151
-0.09513592 0.1442841 -0.1463151
-0.073828682 0.1442841 -0.1463151
-0.052521452 0.1442841 -0.1463151
-0.031214206 0.1442841 -0.1463151
-0.0099069681 0.1442841 -0.1463151
0.011400269 0.1442841 -0.1463151
0.032707505 0.1442841 -0.1463151
0.054014742 0.1442841 -0.1463151
0.075321987 0.1442841 -0.1463151
0.096629217 0.1442841 -0.1463151
0.11793645 0.1442841 -0.1463151
0.13924371 0.1442841 -0.1463151
0.16055094 0.1442841 -0.1463151
0.18185817 0.1442841 -0.1463151
0.20316541 0.1442841 -0.1463151
0.22447264 0.1442841 -0.1463151
0.24577989 0.1442841 -0.1463151
0.26708716 0.1442841 -0.1463151
0.28839436 0.1442841 -0.1463151
0.30970162 0.1442841 -0.1463151
-0.3076736 0.50547349 -0.15094554
-0.28640202 0.50547349 -0.15094554
-0.2651304 0.50547349 -0.15094554
-0.24385886 0.50547349 -0.15094554
-0.22258724 0.50547349 -0.15094554
-0.20131564 0.50547349 -0.15094554
-0.18004405 0.50547349 -0.15094554
-0.15877247 0.50547349 -0.15094554
-0.13750088 0.50547349 -0.15094554
-0.1162293 0.50547349 -0.15094554
-0.094957687 0.50547349 -0.15094554
-0.073686101 0.50547349 -0.15094554
-0.052414514 0.50547349 -0.15094554
-0.031142915 0.50547349 -0.15094554
-0.0098713227 0.50547349 -0.15094554
0.011400269 0.50547349 -0.15094554
0.032671861 0.50547349 -0.15094554
0.053943455 0.50547349 -0.15094554
0.075215049 0.50547349 -0.15094554
0.096486636 0.50547349 -0.15094554
0.11775822 0.50547349 -0.15094554
0.13902983 0.50547349 -0.15094554
0.16030142 0.50547349 -0.15094554
0.181573 0.50547349 -0.15094554
0.20284459 0.50547349 -0.15094554
0.22411618 0.50547349 -0.15094554
0.24538778 0.50547349 -0.15094554
0.26665941 0.50547349 -0.15094554
0.28793097 0.50547349 -0.15094554
0.30920258 0.50547349 -0.15094554
-0.31111774 0.10360938 -0.12111843
-0.28961655 0.10360938 -0.12111843
-0.26811534 0.10360938 -0.12111843
-0.24661414 0.10360938 -0.12111843
-0.22511294 0.10360938 -0.12111843
-0.20361175 0.10360938 -0.12111843
-0.18211055 0.10360938 -0.12111843
-0.16060935 0.10360938 -0.12111843
-0.13910815 0.10360938 -0.12111843
-0.11760694 0.10360938 -0.12111843
-0.096105739 0.10360938 -0.12111843
-0.074604541 0.10360938 -0.12111843
-0.053103335 0.10360938 -0.12111843
-0.031602137 0.10360938 -0.12111843
-0.010100933 0.10360938 -0.12111843
0.011400269 0.10360938 -0.12111843
0.032901473 0.10360938 -0.12111843
0.054402672 0.10360938 -0.12111843
0.07590387 0.10360938 -0.12111843
0.097405076 0.10360938 -0.12111843
0.11890627 0.10360938 -0.12111843
0.14040747 0.10360938 -0.12111843
0.16190869 0.10360938 -0.12111843
0.18340988 0.10360938 -0.12111843
0.20491108 0.10360938 -0.12111843
0.22641228 0.10360938 -0.12111843
0.24791348 0.10360938 -0.12111843
0.26941469 0.10360938 -0.12111843
0.29091591 0.10360938 -0.12111843
0.31241712 0.10360938 -0.12111843
-0.30965644 0.12403887 -0.13377392
-0.28825265 0.12403887 -0.13377392
-0.26684886 0.12403887 -0.13377392
-0.24544512 0.12403887 -0.13377392
-0.22404131 0.12403887 -0.13377392
-0.20263754 0.12403887 -0.13377392
-0.18123376 0.12403887 -0.13377392
-0.15982999 0.12403887 -0.13377392
-0.1384262 0.12403887 -0.13377392
-0.11702242 0.12403887 -0.13377392
-0.095618635 0.12403887 -0.13377392
-0.074214853 0.12403887 -0.13377392
-0.052811079 0.12403887 -0.13377392
-0.031407289 0.12403887 -0.13377392
-0.010003511 0.12403887 -0.13377392
0.011400269 0.12403887 -0.13377392
0.03280405 0.12403887 -0.13377392
0.054207832 0.12403887 -0.13377392
0.075611614 0.12403887 -0.13377392
0.097015388 0.12403887 -0.13377392
0.11841917 0.12403887 -0.13377392
0.13982296 0.12403887 -0.13377392
0.16122673 0.12403887 -0.13377392
0.18263052 0.12403887 -0.13377392
0.2040343 0.12403887 -0.13377392
0.22543807 0.12403887 -0.13377392
0.24684185 0.12403887 -0.13377392
0.26824567 0.12403887 -0.13377392
0.28964943 0.12403887 -0.13377392
0.31105322 0.12403887 -0.13377392
-0.31259242 0.082992949 -0.10834742
-0.29099289 0.082992949 -0.10834742
-0.26939341 0.082992949 -0.10834742
-0.2477939 0.082992949 -0.10834742
-0.22619438 0.082992949 -0.10834742
-0.20459487 0.082992949 -0.10834742
-0.18299535 0.082992949 -0.10834742
-0.16139585 0.082992949 -0.10834742
-0.13979632 0.082992949 -0.10834742
-0.11819682 0.082992949 -0.10834742
-0.096597299 0.082992949 -0.10834742
-0.07499779 0.082992949 -0.10834742
-0.053398274 0.082992949 -0.10834742
-0.031798758 0.082992949 -0.10834742
-0.010199245 0.082992949 -0.10834742
0.011400269 0.082992949 -0.10834742
0.032999784 0.082992949 -0.10834742
0.0545993 0.082992949 -0.10834742
0.076198809 0.082992949 -0.10834742
0.097798325 0.082992949 -0.10834742
0.11939783 0.082992949 -0.10834742
0.14099735 0.082992949 -0.10834742
0.16259685 0.082992949 -0.10834742
0.18419638 0.082992949 -0.10834742
0.20579588 0.082992949 -0.10834742
0.2273954 0.082992949 -0.10834742
0.24899492 0.082992949 -0.10834742
0.27059445 0.082992949 -0.10834742
0.29219398 0.082992949 -0.10834742
0.31379345 0.082992949 -0.10834742
-0.31408066 0.062187098 -0.095458984
-0.29238191 0.062187098 -0.095458984
-0.2706832 0.062187098 -0.095458984
-0.24898447 0.062187098 -0.095458984
-0.22728576 0.062187098 -0.095458984
-0.20558701 0.062187098 -0.095458984
-0.18388829 0.062187098 -0.095458984
-0.16218956 0.062187098 -0.095458984
-0.14049083 0.062187098 -0.095458984
-0.1187921 0.062187098 -0.095458984
-0.097093374 0.062187098 -0.095458984
-0.075394645 0.062187098 -0.095458984
-0.053695917 0.062187098 -0.095458984
-0.031997189 0.062187098 -0.095458984
-0.010298459 0.062187098 -0.095458984
0.011400269 0.062187098 -0.095458984
0.033098996 0.062187098 -0.095458984
0.054797724 0.062187098 -0.095458984
0.076496452 0.062187098 -0.095458984
0.09819518 0.062187098 -0.095458984
0.11989391 0.062187098 -0.095458984
0.14159264 0.062187098 -0.095458984
0.16329136 0.062187098 -0.095458984
0.18499009 0.062187098 -0.095458984
0.20668882 0.062187098 -0.095458984
0.22838755 0.062187098 -0.095458984
0.25008631 0.062187098 -0.095458984
0.27178502 0.062187098 -0.095458984
0.29348376 0.062187098 -0.095458984
0.31518248 0.062187098 -0.095458984
-0.31395599 0.5393098 -0.096538663
-0.29226553 0.5393098 -0.096538663
-0.27057514 0.5393098 -0.096538663
-0.24888475 0.5393098 -0.096538663
-0.22719432 0.5393098 -0.096538663
-0.2055039 0.5393098 -0.096538663
-0.18381348 0.5393098 -0.096538663
-0.16212307 0.5393098 -0.096538663
-0.14043264 0.5393098 -0.096538663
-0.11874224 0.5393098 -0.096538663
-0.097051814 0.5393098 -0.096538663
-0.075361401 0.5393098 -0.096538663
-0.053670987 0.5393098 -0.096538663
-0.031980567 0.5393098 -0.096538663
-0.010290148 0.5393098 -0.096538663
0.011400269 0.5393098 -0.096538663
0.033090688 0.5393098 -0.096538663
0.054781102 0.5393098 -0.096538663
0.076471522 0.5393098 -0.096538663
0.098161936 0.5393098 -0.096538663
0.11985235 0.5393098 -0.096538663
0.14154278 0.5393098 -0.096538663
0.16323318 0.5393098 -0.096538663
0.1849236 0.5393098 -0.096538663
0.20661402 0.5393098 -0.096538663
0.22830443 0.5393098 -0.096538663
0.24999486 0.5393098 -0.096538663
0.2716853 0.5393098 -0.096538663
0.2933757 0.5393098 -0.096538663
0.3150661 0.5393098 -0.096538663
-0.3155826 0.04118932 -0.08245182
-0.29378375 0.04118932 -0.08245182
-0.27198491 0.04118932 -0.08245182
-0.25018603 0.04118932 -0.08245182
-0.22838718 0.04118932 -0.08245182
-0.20658834 0.04118932 -0.08245182
-0.18478948 0.04118932 -0.08245182
-0.1629906 0.04118932 -0.08245182
-0.14119175 0.04118932 -0.08245182
-0.11939289 0.04118932 -0.08245182
-0.097594038 0.04118932 -0.08245182
-0.075795166 0.04118932 -0.08245182
-0.05399631 0.04118932 -0.08245182
-0.032197446 0.04118932 -0.08245182
-0.010398589 0.04118932 -0.08245182
0.011400269 0.04118932 -0.08245182
0.033199128 0.04118932 -0.08245182
0.054997988 0.04118932 -0.08245182
0.076796845 0.04118932 -0.08245182
0.098595701 0.04118932 -0.08245182
0.12039457 0.04118932 -0.08245182
0.14219342 0.04118932 -0.08245182
0.16399229 0.04118932 -0.08245182
0.18579113 0.04118932 -0.08245182
0.20759001 0.04118932 -0.08245182
0.22938888 0.04118932 -0.08245182
0.25118771 0.04118932 -0.08245182
0.27298659 0.04118932 -0.08245182
0.29478547 0.04118932 -0.08245182
0.31658432 0.04118932 -0.08245182
-0.2966266 -0.0013931319 -0.056073427
-0.27462468 -0.0013931319 -0.056073427
-0.25262275 -0.0013931319 -0.056073427
-0.23062085 -0.0013931319 -0.056073427
-0.20861894 -0.0013931319 -0.056073427
-0.18661702 -0.0013931319 -0.056073427
-0.16461508 -0.0013931319 -0.056073427
-0.14261317 -0.0013931319 -0.056073427
-0.12061125 -0.0013931319 -0.056073427
-0.098609336 -0.0013931319 -0.056073427
-0.076607406 -0.0013931319 -0.056073427
-0.054605491 -0.0013931319 -0.056073427
-0.032603569 -0.0013931319 -0.056073427
-0.010601649 -0.0013931319 -0.056073427
0.011400269 -0.0013931319 -0.056073427
0.03340219 -0.0013931319 -0.056073427
0.055404104 -0.0013931319 -0.056073427
0.077406026 -0.0013931319 -0.056073427
0.099407941 -0.0013931319 -0.056073427
0.12140987 -0.0013931319 -0.056073427
0.14341179 -0.0013931319 -0.056073427
0.16541371 -0.0013931319 -0.056073427
0.18741561 -0.0013931319 -0.056073427
0.20941755 -0.0013931319 -0.056073427
0.23141947 -0.0013931319 -0.056073427
0.2534214 -0.0013931319 -0.056073427
0.27542332 -0.0013931319 -0.056073427
0.29742524 -0.0013931319 -0.056073427
-0.3170985 0.019996874 -0.069323659
-0.29519859 0.019996874 -0.069323659
-0.27329865 0.019996874 -0.069323659
-0.25139874 0.019996874 -0.069323659
-0.22949885 0.019996874 -0.069323659
-0.20759892 0.019996874 -0.069323659
-0.185699 0.019996874 -0.069323659
-0.16379908 0.019996874 -0.069323659
-0.14189917 0.019996874 -0.069323659
-0.11999924 0.019996874 -0.069323659
-0.098099329 0.019996874 -0.069323659
-0.076199405 0.019996874 -0.069323659
-0.054299489 0.019996874 -0.069323659
-0.032399565 0.019996874 -0.069323659
-0.010499649 0.019996874 -0.069323659
0.011400269 0.019996874 -0.069323659
0.033300187 0.019996874 -0.069323659
0.055200107 0.019996874 -0.069323659
0.077100024 0.019996874 -0.069323659
0.09899994 0.019996874 -0.069323659
0.12089986 0.019996874 -0.069323659
0.14279978 0.019996874 -0.069323659
0.1646997 0.019996874 -0.069323659
0.18659961 0.019996874 -0.069323659
0.20849954 0.019996874 -0.069323659
0.23039946 0.019996874 -0.069323659
0.2522994 0.019996874 -0.069323659
0.27419931 0.019996874 -0.069323659
0.29609922 0.019996874 -0.069323659
0.31799915 0.019996874 -0.069323659
-0.29806796 -0.022983193 -0.042699099
-0.2759631 -0.022983193 -0.042699099
-0.25385821 -0.022983193 -0.042699099
-0.23175335 -0.022983193 -0.042699099
-0.20964849 -0.022983193 -0.042699099
-0.18754362 -0.022983193 -0.042699099
-0.16543873 -0.022983193 -0.042699099
-0.14333385 -0.022983193 -0.042699099
-0.12122898 -0.022983193 -0.042699099
-0.099124111 -0.022983193 -0.042699099
-0.07701923 -0.022983193 -0.042699099
-0.054914355 -0.022983193 -0.042699099
-0.032809481 -0.022983193 -0.042699099
-0.010704605 -0.022983193 -0.042699099
0.011400269 -0.022983193 -0.042699099
0.033505142 -0.022983193 -0.042699099
0.055610016 -0.022983193 -0.042699099
0.07771489 -0.022983193 -0.042699099
0.099819764 -0.022983193 -0.042699099
0.12192465 -0.022983193 -0.042699099
0.14402951 -0.022983193 -0.042699099
0.16613439 -0.022983193 -0.042699099
0.18823926 -0.022983193 -0.042699099
0.21034415 -0.022983193 -0.042699099
0.23244902 -0.022983193 -0.042699099
0.25455388 -0.022983193 -0.042699099
0.27665877 -0.022983193 -0.042699099
0.29876366 -0.022983193 -0.042699099
-0.29836464 0.57450533 -0.039946437
-0.27623856 0.57450533 -0.039946437
-0.25411251 0.57450533 -0.039946437
-0.23198645 0.57450533 -0.039946437
-0.2098604 0.57450533 -0.039946437
-0.18773434 0.57450533 -0.039946437
-0.16560826 0.57450533 -0.039946437
-0.14348219 0.57450533 -0.039946437
-0.12135613 0.57450533 -0.039946437
-0.099230066 0.57450533 -0.039946437
-0.077103995 0.57450533 -0.039946437
-0.054977931 0.57450533 -0.039946437
-0.03285186 0.57450533 -0.039946437
-0.010725796 0.57450533 -0.039946437
0.011400269 0.57450533 -0.039946437
0.033526335 0.57450533 -0.039946437
0.055652402 0.57450533 -0.039946437
0.077778466 0.57450533 -0.039946437
0.09990453 0.57450533 -0.039946437
0.1220306 0.57450533 -0.039946437
0.14415666 0.57450533 -0.039946437
0.16628273 0.57450533 -0.039946437
0.18840879 0.57450533 -0.039946437
0.21053487 0.57450533 -0.039946437
0.23266093 0.57450533 -0.039946437
0.254787 0.57450533 -0.039946437
0.27691308 0.57450533 -0.039946437
0.29903913 0.57450533 -0.039946437
-0.29952288 -0.044776358 -0.029199004
-0.2773141 -0.044776358 -0.029199004
-0.25510529 -0.044776358 -0.029199004
-0.23289651 -0.044776358 -0.029199004
-0.21068771 -0.044776358 -0.029199004
-0.1884789 -0.044776358 -0.029199004
-0.16627012 -0.044776358 -0.029199004
-0.14406131 -0.044776358 -0.029199004
-0.12185252 -0.044776358 -0.029199004
-0.099643722 -0.044776358 -0.029199004
-0.07743492 -0.044776358 -0.029199004
-0.055226125 -0.044776358 -0.029199004
-0.033017322 -0.044776358 -0.029199004
-0.010808527 -0.044776358 -0.029199004
0.011400269 -0.044776358 -0.029199004
0.033609066 -0.044776358 -0.029199004
0.055817865 -0.044776358 -0.029199004
0.07802666 -0.044776358 -0.029199004
0.10023545 -0.044776358 -0.029199004
0.12244426 -0.044776358 -0.029199004
0.14465305 -0.044776358 -0.029199004
0.16686185 -0.044776358 -0.029199004
0.18907066 -0.044776358 -0.029199004
0.21127944 -0.044776358 -0.029199004
0.23348825 -0.044776358 -0.029199004
0.25569704 -0.044776358 -0.029199004
0.27790585 -0.044776358 -0.029199004
0.30011466 -0.044776358 -0.029199004
-0.30099156 -0.066775307 -0.015571475
-0.27867785 -0.066775307 -0.015571475
-0.25636417 -0.066775307 -0.015571475
-0.23405047 -0.066775307 -0.015571475
-0.21173675 -0.066775307 -0.015571475
-0.18942305 -0.066775307 -0.015571475
-0.16710936 -0.066775307 -0.015571475
-0.14479566 -0.066775307 -0.015571475
-0.12248196 -0.066775307 -0.015571475
-0.10016824 -0.066775307 -0.015571475
-0.077854544 -0.066775307 -0.015571475
-0.055540845 -0.066775307 -0.015571475
-0.033227138 -0.066775307 -0.015571475
-0.010913434 -0.066775307 -0.015571475
0.011400269 -0.066775307 -0.015571475
0.033713974 -0.066775307 -0.015571475
0.056027673 -0.066775307 -0.015571475
0.07834138 -0.066775307 -0.015571475
0.10065508 -0.066775307 -0.015571475
0.12296878 -0.066775307 -0.015571475
0.14528249 -0.066775307 -0.015571475
0.16759619 -0.066775307 -0.015571475
0.18990989 -0.066775307 -0.015571475
0.21222359 -0.066775307 -0.015571475
0.23453729 -0.066775307 -0.015571475
0.25685102 -0.066775307 -0.015571475
0.27916473 -0.066775307 -0.015571475
0.30147842 -0.066775307 -0.015571475
-0.3039709 -0.11140274 0.012073517
-0.2814444 -0.11140274 0.012073517
-0.2589179 -0.11140274 0.012073517
-0.2363914 -0.11140274 0.012073517
-0.21386488 -0.11140274 0.012073517
-0.19133838 -0.11140274 0.012073517
-0.16881187 -0.11140274 0.012073517
-0.14628533 -0.11140274 0.012073517
-0.12375882 -0.11140274 0.012073517
-0.10123231 -0.11140274 0.012073517
-0.078705795 -0.11140274 0.012073517
-0.056179278 -0.11140274 0.012073517
-0.03365276 -0.11140274 0.012073517
-0.011126246 -0.11140274 0.012073517
0.011400269 -0.11140274 0.012073517
0.033926785 -0.11140274 0.012073517
0.056453303 -0.11140274 0.012073517
0.078979813 -0.11140274 0.012073517
0.10150633 -0.11140274 0.012073517
0.12403284 -0.11140274 0.012073517
0.14655936 -0.11140274 0.012073517
0.16908586 -0.11140274 0.012073517
0.19161241 -0.11140274 0.012073517
0.21413891 -0.11140274 0.012073517
0.23666541 -0.11140274 0.012073517
0.25919193 -0.11140274 0.012073517
0.28171846 -0.11140274 0.012073517
0.30424497 -0.11140274 0.012073517
-0.30247417 -0.088983133 -0.0018146038
-0.28005457 -0.088983133 -0.0018146038
-0.25763494 -0.088983133 -0.0018146038
-0.23521537 -0.088983133 -0.0018146038
-0.21279576 -0.088983133 -0.0018146038
-0.19037616 -0.088983133 -0.0018146038
-0.16795655 -0.088983133 -0.0018146038
-0.14553696 -0.088983133 -0.0018146038
-0.12311734 -0.088983133 -0.0018146038
-0.10069775 -0.088983133 -0.0018146038
-0.078278147 -0.088983133 -0.0018146038
-0.055858538 -0.088983133 -0.0018146038
-0.033438936 -0.088983133 -0.0018146038
-0.011019334 -0.088983133 -0.0018146038
0.011400269 -0.088983133 -0.0018146038
0.033819873 -0.088983133 -0.0018146038
0.056239478 -0.088983133 -0.0018146038
0.078659073 -0.088983133 -0.0018146038
0.10107868 -0.088983133 -0.0018146038
0.12349828 -0.088983133 -0.0018146038
0.14591788 -0.088983133 -0.0018146038
0.16833749 -0.088983133 -0.0018146038
0.19075708 -0.088983133 -0.0018146038
0.2131767 -0.088983133 -0.0018146038
0.2355963 -0.088983133 -0.0018146038
0.2580159 -0.088983133 -0.0018146038
0.2804355 -0.088983133 -0.0018146038
0.30285513 -0.088983133 -0.0018146038
-0.305482 -0.13403714 0.026094675
-0.28284755 -0.13403714 0.026094675
-0.26021314 -0.13403714 0.026094675
-0.23757869 -0.13403714 0.026094675
-0.21494423 -0.13403714 0.026094675
-0.19230978 -0.13403714 0.026094675
-0.16967535 -0.13403714 0.026094675
-0.14704087 -0.13403714 0.026094675
-0.12440644 -0.13403714 0.026094675
-0.10177198 -0.13403714 0.026094675
-0.079137534 -0.13403714 0.026094675
-0.056503087 -0.13403714 0.026094675
-0.033868633 -0.13403714 0.026094675
-0.011234181 -0.13403714 0.026094675
0.011400269 -0.13403714 0.026094675
0.034034722 -0.13403714 0.026094675
0.056669168 -0.13403714 0.026094675
0.079303622 -0.13403714 0.026094675
0.10193807 -0.13403714 0.026094675
0.12457252 -0.13403714 0.026094675
0.14720698 -0.13403714 0.026094675
0.16984141 -0.13403714 0.026094675
0.19247589 -0.13403714 0.026094675
0.21511032 -0.13403714 0.026094675
0.23774476 -0.13403714 0.026094675
0.26037923 -0.13403714 0.026094675
0.2830137 -0.13403714 0.026094675
0.30564812 -0.13403714 0.026094675
-0.30471376 0.61114365 0.018965721
-0.28213418 0.61114365 0.018965721
-0.25955459 0.61114365 0.018965721
-0.23697503 0.61114365 0.018965721
-0.21439545 0.61114365 0.018965721
-0.19181588 0.61114365 0.018965721
-0.16923632 0.61114365 0.018965721
-0.14665675 0.61114365 0.018965721
-0.12407717 0.61114365 0.018965721
-0.10149759 0.61114365 0.018965721
-0.078918025 0.61114365 0.018965721
-0.056338452 0.61114365 0.018965721
-0.033758879 0.61114365 0.018965721
-0.011179304 0.61114365 0.018965721
0.011400269 0.61114365 0.018965721
0.033979841 0.61114365 0.018965721
0.056559414 0.61114365 0.018965721
0.079138987 0.61114365 0.018965721
0.10171856 0.61114365 0.018965721
0.12429813 0.61114365 0.018965721
0.14687771 0.61114365 0.018965721
0.16945729 0.61114365 0.018965721
0.19203685 0.61114365 0.018965721
0.21461642 0.61114365 0.018965721
0.23719598 0.61114365 0.018965721
0.25977558 0.61114365 0.018965721
0.28235516 0.61114365 0.018965721
0.30493474 0.61114365 0.018965721
-0.30700767 -0.15688954 0.040250897
-0.28426424 -0.15688954 0.040250897
-0.2615208 -0.15688954 0.040250897
-0.23877738 -0.15688954 0.040250897
-0.21603397 -0.15688954 0.040250897
-0.19329056 -0.15688954 0.040250897
-0.17054713 -0.15688954 0.040250897
-0.14780371 -0.15688954 0.040250897
-0.12506028 -0.15688954 0.040250897
-0.10231685 -0.15688954 0.040250897
-0.07957343 -0.15688954 0.040250897
-0.056830004 -0.15688954 0.040250897
-0.034086578 -0.15688954 0.040250897
-0.011343155 -0.15688954 0.040250897
0.011400269 -0.15688954 0.040250897
0.034143694 -0.15688954 0.040250897
0.05688712 -0.15688954 0.040250897
0.079630539 -0.15688954 0.040250897
0.10237397 -0.15688954 0.040250897
0.12511739 -0.15688954 0.040250897
0.14786081 -0.15688954 0.040250897
0.17060424 -0.15688954 0.040250897
0.19334766 -0.15688954 0.040250897
0.2160911 -0.15688954 0.040250897
0.2388345 -0.15688954 0.040250897
0.26157793 -0.15688954 0.040250897
0.28432137 -0.15688954 0.040250897
0.3070648 -0.15688954 0.040250897
-0.30854806 -0.17996311 0.054544091
-0.2856946 -0.17996311 0.054544091
-0.26284117 -0.17996311 0.054544091
-0.23998772 -0.17996311 0.054544091
-0.21713427 -0.17996311 0.054544091
-0.19428082 -0.17996311 0.054544091
-0.17142735 -0.17996311 0.054544091
-0.14857391 -0.17996311 0.054544091
-0.12572046 -0.17996311 0.054544091
-0.102867 -0.17996311 0.054544091
-0.080013551 -0.17996311 0.054544091
-0.057160094 -0.17996311 0.054544091
-0.034306638 -0.17996311 0.054544091
-0.011453185 -0.17996311 0.054544091
0.011400269 -0.17996311 0.054544091
0.034253724 -0.17996311 0.054544091
0.05710718 -0.17996311 0.054544091
0.079960629 -0.17996311 0.054544091
0.10281409 -0.17996311 0.054544091
0.12566754 -0.17996311 0.054544091
0.14852099 -0.17996311 0.054544091
0.17137444 -0.17996311 0.054544091
0.19422789 -0.17996311 0.054544091
0.21708135 -0.17996311 0.054544091
0.2399348 -0.17996311 0.054544091
0.26278827 -0.17996311 0.054544091
0.28564173 -0.17996311 0.054544091
0.30849516 -0.17996311 0.054544091
-0.31010345 -0.20326096 0.068976164
-0.28713888 -0.20326096 0.068976164
-0.26417434 -0.20326096 0.068976164
-0.24120979 -0.20326096 0.068976164
-0.21824525 -0.20326096 0.068976164
-0.19528069 -0.20326096 0.068976164
-0.17231616 -0.20326096 0.068976164
-0.1493516 -0.20326096 0.068976164
-0.12638704 -0.20326096 0.068976164
-0.10342249 -0.20326096 0.068976164
-0.080457941 -0.20326096 0.068976164
-0.057493389 -0.20326096 0.068976164
-0.034528837 -0.20326096 0.068976164
-0.011564283 -0.20326096 0.068976164
0.011400269 -0.20326096 0.068976164
0.03436482 -0.20326096 0.068976164
0.057329372 -0.20326096 0.068976164
0.080293924 -0.20326096 0.068976164
0.10325848 -0.20326096 0.068976164
0.12622303 -0.20326096 0.068976164
0.14918758 -0.20326096 0.068976164
0.17215213 -0.20326096 0.068976164
0.1951167 -0.20326096 0.068976164
0.21808122 -0.20326096 0.068976164
0.24104579 -0.20326096 0.068976164
0.26401034 -0.20326096 0.068976164
0.28697491 -0.20326096 0.068976164
0.30993944 -0.20326096 0.068976164
-0.31167403 -0.22678643 0.08354938
-0.28859729 -0.22678643 0.08354938
-0.26552054 -0.22678643 0.08354938
-0.24244384 -0.22678643 0.08354938
-0.2193671 -0.22678643 0.08354938
-0.19629037 -0.22678643 0.08354938
-0.17321362 -0.22678643 0.08354938
-0.15013689 -0.22678643 0.08354938
-0.12706015 -0.22678643 0.08354938
-0.10398342 -0.22678643 0.08354938
-0.080906674 -0.22678643 0.08354938
-0.057829939 -0.22678643 0.08354938
-0.034753203 -0.22678643 0.08354938
-0.011676466 -0.22678643 0.08354938
0.011400269 -0.22678643 0.08354938
0.034477003 -0.22678643 0.08354938
0.057553738 -0.22678643 0.08354938
0.080630474 -0.22678643 0.08354938
0.10370721 -0.22678643 0.08354938
0.12678395 -0.22678643 0.08354938
0.14986068 -0.22678643 0.08354938
0.17293742 -0.22678643 0.08354938
0.19601415 -0.22678643 0.08354938
0.21909091 -0.22678643 0.08354938
0.24216764 -0.22678643 0.08354938
0.26524439 -0.22678643 0.08354938
0.28832111 -0.22678643 0.08354938
0.31139785 -0.22678643 0.08354938
-0.31132853 0.64931518 0.080343843
-0.28827649 0.64931518 0.080343843
-0.26522443 0.64931518 0.080343843
-0.24217238 0.64931518 0.080343843
-0.21912032 0.64931518 0.080343843
-0.19606826 0.64931518 0.080343843
-0.17301621 0.64931518 0.080343843
-0.14996414 0.64931518 0.080343843
-0.12691209 0.64931518 0.080343843
-0.10386003 0.64931518 0.080343843
-0.080807969 0.64931518 0.080343843
-0.05775591 0.64931518 0.080343843
-0.034703851 0.64931518 0.080343843
-0.01165179 0.64931518 0.080343843
0.011400269 0.64931518 0.080343843
0.034452327 0.64931518 0.080343843
0.057504386 0.64931518 0.080343843
0.080556445 0.64931518 0.080343843
0.1036085 0.64931518 0.080343843
0.12666057 0.64931518 0.080343843
0.14971262 0.64931518 0.080343843
0.17276467 0.64931518 0.080343843
0.19581674 0.64931518 0.080343843
0.21886879 0.64931518 0.080343843
0.24192086 0.64931518 0.080343843
0.26497293 0.64931518 0.080343843
0.28802499 0.64931518 0.080343843
0.31107706 0.64931518 0.080343843
-0.31326002 -0.25054288 0.098265648
-0.29007 -0.25054288 0.098265648
-0.26687998 -0.25054288 0.098265648
-0.24368997 -0.25054288 0.098265648
-0.22049996 -0.25054288 0.098265648
-0.19730994 -0.25054288 0.098265648
-0.17411992 -0.25054288 0.098265648
-0.15092988 -0.25054288 0.098265648
-0.12773986 -0.25054288 0.098265648
-0.10454985 -0.25054288 0.098265648
-0.081359826 -0.25054288 0.098265648
-0.058169797 -0.25054288 0.098265648
-0.034979776 -0.25054288 0.098265648
-0.011789754 -0.25054288 0.098265648
0.011400269 -0.25054288 0.098265648
0.034590293 -0.25054288 0.098265648
0.057780318 -0.25054288 0.098265648
0.080970332 -0.25054288 0.098265648
0.10416036 -0.25054288 0.098265648
0.12735039 -0.25054288 0.098265648
0.1505404 -0.25054288 0.098265648
0.17373042 -0.25054288 0.098265648
0.19692045 -0.25054288 0.098265648
0.22011048 -0.25054288 0.098265648
0.2433005 -0.25054288 0.098265648
0.26649052 -0.25054288 0.098265648
0.28968054 -0.25054288 0.098265648
0.31287056 -0.25054288 0.098265648
-0.31486169 -0.27453372 0.11312711
-0.29155725 -0.27453372 0.11312711
-0.26825282 -0.27453372 0.11312711
-0.2449484 -0.27453372 0.11312711
-0.22164398 -0.27453372 0.11312711
-0.19833957 -0.27453372 0.11312711
-0.17503513 -0.27453372 0.11312711
-0.15173072 -0.27453372 0.11312711
-0.12842628 -0.27453372 0.11312711
-0.10512186 -0.27453372 0.11312711
-0.081817433 -0.27453372 0.11312711
-0.058513008 -0.27453372 0.11312711
-0.035208583 -0.27453372 0.11312711
-0.011904156 -0.27453372 0.11312711
0.011400269 -0.27453372 0.11312711
0.034704693 -0.27453372 0.11312711
0.058009118 -0.27453372 0.11312711
0.081313543 -0.27453372 0.11312711
0.10461797 -0.27453372 0.11312711
0.1279224 -0.27453372 0.11312711
0.15122682 -0.27453372 0.11312711
0.17453125 -0.27453372 0.11312711
0.19783567 -0.27453372 0.11312711
0.2211401 -0.27453372 0.11312711
0.24444452 -0.27453372 0.11312711
0.26774895 -0.27453372 0.11312711
0.29105338 -0.27453372 0.11312711
0.31435782 -0.27453372 0.11312711
-0.31811285 -0.32323256 0.14329433
-0.2945762 -0.32323256 0.14329433
-0.27103955 -0.32323256 0.14329433
-0.24750291 -0.32323256 0.14329433
-0.22396627 -0.32323256 0.14329433
-0.20042962 -0.32323256 0.14329433
-0.17689295 -0.32323256 0.14329433
-0.1533563 -0.32323256 0.14329433
-0.12981965 -0.32323256 0.14329433
-0.106283 -0.32323256 0.14329433
-0.082746342 -0.32323256 0.14329433
-0.059209689 -0.32323256 0.14329433
-0.035673037 -0.32323256 0.14329433
-0.012136383 -0.32323256 0.14329433
0.011400269 -0.32323256 0.14329433
0.03493692 -0.32323256 0.14329433
0.058473572 -0.32323256 0.14329433
0.082010224 -0.32323256 0.14329433
0.10554688 -0.32323256 0.14329433
0.12908354 -0.32323256 0.14329433
0.15262018 -0.32323256 0.14329433
0.17615683 -0.32323256 0.14329433
0.19969349 -0.32323256 0.14329433
0.22323015 -0.32323256 0.14329433
0.24676681 -0.32323256 0.14329433
0.27030346 -0.32323256 0.14329433
0.29384011 -0.32323256 0.14329433
0.31737676 -0.32323256 0.14329433
-0.31647921 -0.29876244 0.12813592
-0.29305923 -0.29876244 0.12813592
-0.26963928 -0.29876244 0.12813592
-0.24621932 -0.29876244 0.12813592
-0.22279936 -0.29876244 0.12813592
-0.1993794 -0.29876244 0.12813592
-0.17595944 -0.29876244 0.12813592
-0.15253948 -0.29876244 0.12813592
-0.12911952 -0.29876244 0.12813592
-0.10569955 -0.29876244 0.12813592
-0.082279585 -0.29876244 0.12813592
-0.058859624 -0.29876244 0.12813592
-0.035439655 -0.29876244 0.12813592
-0.012019694 -0.29876244 0.12813592
0.011400269 -0.29876244 0.12813592
0.034820233 -0.29876244 0.12813592
0.058240198 -0.29876244 0.12813592
0.081660159 -0.29876244 0.12813592
0.10508012 -0.29876244 0.12813592
0.12850009 -0.29876244 0.12813592
0.15192005 -0.29876244 0.12813592
0.17534001 -0.29876244 0.12813592
0.19875997 -0.29876244 0.12813592
0.22217993 -0.29876244 0.12813592
0.2455999 -0.29876244 0.12813592
0.26901987 -0.29876244 0.12813592
0.29243985 -0.29876244 0.12813592
0.31585979 -0.29876244 0.12813592
-0.29610837 -0.34794784 0.15860438
-0.27245384 -0.34794784 0.15860438
-0.24879934 -0.34794784 0.15860438
-0.22514485 -0.34794784 0.15860438
-0.20149033 -0.34794784 0.15860438
-0.17783582 -0.34794784 0.15860438
-0.15418129 -0.34794784 0.15860438
-0.1305268 -0.34794784 0.15860438
-0.10687229 -0.34794784 0.15860438
-0.083217777 -0.34794784 0.15860438
-0.059563264 -0.34794784 0.15860438
-0.035908751 -0.34794784 0.15860438
-0.012254242 -0.34794784 0.15860438
0.011400269 -0.34794784 0.15860438
0.035054781 -0.34794784 0.15860438
0.058709294 -0.34794784 0.15860438
0.082363799 -0.34794784 0.15860438
0.10601831 -0.34794784 0.15860438
0.12967283 -0.34794784 0.15860438
0.15332733 -0.34794784 0.15860438
0.17698182 -0.34794784 0.15860438
0.20063636 -0.34794784 0.15860438
0.22429086 -0.34794784 0.15860438
0.24794538 -0.34794784 0.15860438
0.27159989 -0.34794784 0.15860438
0.29525441 -0.34794784 0.15860438
-0.31822795 0.68912297 0.14436221
-0.29468307 0.68912297 0.14436221
-0.27113819 0.68912297 0.14436221
-0.24759336 0.68912297 0.14436221
-0.22404847 0.68912297 0.14436221
-0.2005036 0.68912297 0.14436221
-0.17695872 0.68912297 0.14436221
-0.15341385 0.68912297 0.14436221
-0.12986897 0.68912297 0.14436221
-0.1063241 0.68912297 0.14436221
-0.082779229 0.68912297 0.14436221
-0.059234351 0.68912297 0.14436221
-0.035689481 0.68912297 0.14436221
-0.012144605 0.68912297 0.14436221
0.011400269 0.68912297 0.14436221
0.034945145 0.68912297 0.14436221
0.058490016 0.68912297 0.14436221
0.082034886 0.68912297 0.14436221
0.10557976 0.68912297 0.14436221
0.12912464 0.68912297 0.14436221
0.1526695 0.68912297 0.14436221
0.17621438 0.68912297 0.14436221
0.19975926 0.68912297 0.14436221
0.22330414 0.68912297 0.14436221
0.246849 0.68912297 0.14436221
0.27039391 0.68912297 0.14436221
0.29393876 0.68912297 0.14436221
0.31748363 0.68912297 0.14436221
-0.29765594 -0.37291178 0.17406869
-0.27388239 -0.37291178 0.17406869
-0.25010881 -0.37291178 0.17406869
-0.22633527 -0.37291178 0.17406869
-0.20256171 -0.37291178 0.17406869
-0.17878817 -0.37291178 0.17406869
-0.1550146 -0.37291178 0.17406869
-0.13124107 -0.37291178 0.17406869
-0.1074675 -0.37291178 0.17406869
-0.083693951 -0.37291178 0.17406869
-0.0599204 -0.37291178 0.17406869
-0.036146842 -0.37291178 0.17406869
-0.012373285 -0.37291178 0.17406869
0.011400269 -0.37291178 0.17406869
0.035173826 -0.37291178 0.17406869
0.058947377 -0.37291178 0.17406869
0.082720935 -0.37291178 0.17406869
0.10649449 -0.37291178 0.17406869
0.13026804 -0.37291178 0.17406869
0.1540416 -0.37291178 0.17406869
0.17781514 -0.37291178 0.17406869
0.20158871 -0.37291178 0.17406869
0.22536224 -0.37291178 0.17406869
0.24913581 -0.37291178 0.17406869
0.27290937 -0.37291178 0.17406869
0.29668295 -0.37291178 0.17406869
-0.29921916 -0.39812839 0.18968928
-0.27532533 -0.39812839 0.18968928
-0.25143155 -0.39812839 0.18968928
-0.22753775 -0.39812839 0.18968928
-0.20364396 -0.39812839 0.18968928
-0.17975016 -0.39812839 0.18968928
-0.15585634 -0.39812839 0.18968928
-0.13196254 -0.39812839 0.18968928
-0.10806874 -0.39812839 0.18968928
-0.084174946 -0.39812839 0.18968928
-0.060281135 -0.39812839 0.18968928
-0.036387339 -0.39812839 0.18968928
-0.012493534 -0.39812839 0.18968928
0.011400269 -0.39812839 0.18968928
0.035294071 -0.39812839 0.18968928
0.059187874 -0.39812839 0.18968928
0.08308167 -0.39812839 0.18968928
0.10697548 -0.39812839 0.18968928
0.13086928 -0.39812839 0.18968928
0.15476307 -0.39812839 0.18968928
0.17865688 -0.39812839 0.18968928
0.20255069 -0.39812839 0.18968928
0.2264445 -0.39812839 0.18968928
0.25033829 -0.39812839 0.18968928
0.27423212 -0.39812839 0.18968928
0.29812589 -0.39812839 0.18968928
-0.30079827 -0.42360127 0.20546901
-0.27678302 -0.42360127 0.20546901
-0.25276774 -0.42360127 0.20546901
-0.22875246 -0.42360127 0.20546901
-0.2047372 -0.42360127 0.20546901
-0.18072192 -0.42360127 0.20546901
-0.15670666 -0.42360127 0.20546901
-0.13269138 -0.42360127 0.20546901
-0.1086761 -0.42360127 0.20546901
-0.084660828 -0.42360127 0.20546901
-0.060645558 -0.42360127 0.20546901
-0.03663028 -0.42360127 0.20546901
-0.012615005 -0.42360127 0.20546901
0.011400269 -0.42360127 0.20546901
0.035415545 -0.42360127 0.20546901
0.059430815 -0.42360127 0.20546901
0.083446093 -0.42360127 0.20546901
0.10746136 -0.42360127 0.20546901
0.13147664 -0.42360127 0.20546901
0.15549192 -0.42360127 0.20546901
0.1795072 -0.42360127 0.20546901
0.20352246 -0.42360127 0.20546901
0.22753774 -0.42360127 0.20546901
0.251553 -0.42360127 0.20546901
0.27556831 -0.42360127 0.20546901
0.29958358 -0.42360127 0.20546901
-0.30239356 -0.44933456 0.22140968
-0.27825555 -0.44933456 0.22140968
-0.25411755 -0.44933456 0.22140968
-0.22997959 -0.44933456 0.22140968
-0.20584162 -0.44933456 0.22140968
-0.18170361 -0.44933456 0.22140968
-0.15756564 -0.44933456 0.22140968
-0.13342765 -0.44933456 0.22140968
-0.10928966 -0.44933456 0.22140968
-0.085151672 -0.44933456 0.22140968
-0.061013691 -0.44933456 0.22140968
-0.036875702 -0.44933456 0.22140968
-0.012737716 -0.44933456 0.22140968
0.011400269 -0.44933456 0.22140968
0.035538256 -0.44933456 0.22140968
0.059676237 -0.44933456 0.22140968
0.083814226 -0.44933456 0.22140968
0.10795221 -0.44933456 0.22140968
0.1320902 -0.44933456 0.22140968
0.15622818 -0.44933456 0.22140968
0.18036617 -0.44933456 0.22140968
0.20450415 -0.44933456 0.22140968
0.22864215 -0.44933456 0.22140968
0.25278014 -0.44933456 0.22140968
0.27691811 -0.44933456 0.22140968
0.30105612 -0.44933456 0.22140968
-0.30136779 0.73066509 0.21116006
-0.2773087 0.73066509 0.21116006
-0.25324965 0.73066509 0.21116006
-0.22919056 0.73066509 0.21116006
-0.20513149 0.73066509 0.21116006
-0.18107238 0.73066509 0.21116006
-0.1570133 0.73066509 0.21116006
-0.13295422 0.73066509 0.21116006
-0.10889515 0.73066509 0.21116006
-0.084836058 0.73066509 0.21116006
-0.060776979 0.73066509 0.21116006
-0.036717892 0.73066509 0.21116006
-0.012658812 0.73066509 0.21116006
0.011400269 0.73066509 0.21116006
0.035459351 0.73066509 0.21116006
0.059518434 0.73066509 0.21116006
0.083577514 0.73066509 0.21116006
0.10763659 0.73066509 0.21116006
0.13169569 0.73066509 0.21116006
0.15575476 0.73066509 0.21116006
0.17981383 0.73066509 0.21116006
0.20387292 0.73066509 0.21116006
0.22793202 0.73066509 0.21116006
0.25199109 0.73066509 0.21116006
0.27605021 0.73066509 0.21116006
0.30010927 0.73066509 0.21116006
-0.30400518 -0.47533214 0.23751438
-0.27974322 -0.47533214 0.23751438
-0.25548127 -0.47533214 0.23751438
-0.23121932 -0.47533214 0.23751438
-0.20695737 -0.47533214 0.23751438
-0.1826954 -0.47533214 0.23751438
-0.15843344 -0.47533214 0.23751438
-0.13417149 -0.47533214 0.23751438
-0.10990953 -0.47533214 0.23751438
-0.085647568 -0.47533214 0.23751438
-0.061385609 -0.47533214 0.23751438
-0.03712365 -0.47533214 0.23751438
-0.01286169 -0.47533214 0.23751438
0.011400269 -0.47533214 0.23751438
0.035662226 -0.47533214 0.23751438
0.059924185 -0.47533214 0.23751438
0.084186144 -0.47533214 0.23751438
0.1084481 -0.47533214 0.23751438
0.13271007 -0.47533214 0.23751438
0.15697202 -0.47533214 0.23751438
0.18123397 -0.47533214 0.23751438
0.20549594 -0.47533214 0.23751438
0.22975791 -0.47533214 0.23751438
0.25401986 -0.47533214 0.23751438
0.27828184 -0.47533214 0.23751438
0.30254379 -0.47533214 0.23751438
-0.30563346 -0.50159812 0.25378513
-0.28124624 -0.50159812 0.25378513
-0.25685903 -0.50159812 0.25378513
-0.23247185 -0.50159812 0.25378513
-0.20808464 -0.50159812 0.25378513
-0.18369743 -0.50159812 0.25378513
-0.15931021 -0.50159812 0.25378513
-0.134923 -0.50159812 0.25378513
-0.11053579 -0.50159812 0.25378513
-0.086148582 -0.50159812 0.25378513
-0.061761364 -0.50159812 0.25378513
-0.037374154 -0.50159812 0.25378513
-0.012986943 -0.50159812 0.25378513
0.011400269 -0.50159812 0.25378513
0.035787482 -0.50159812 0.25378513
0.060174696 -0.50159812 0.25378513
0.084561899 -0.50159812 0.25378513
0.10894912 -0.50159812 0.25378513
0.13333634 -0.50159812 0.25378513
0.15772353 -0.50159812 0.25378513
0.18211074 -0.50159812 0.25378513
0.20649797 -0.50159812 0.25378513
0.23088518 -0.50159812 0.25378513
0.25527239 -0.50159812 0.25378513
0.2796596 -0.50159812 0.25378513
0.30404681 -0.50159812 0.25378513
-0.30727866 -0.52813673 0.27022481
-0.28276488 -0.52813673 0.27022481
-0.25825113 -0.52813673 0.27022481
-0.23373736 -0.52813673 0.27022481
-0.20922363 -0.52813673 0.27022481
-0.18470985 -0.52813673 0.27022481
-0.16019608 -0.52813673 0.27022481
-0.13568231 -0.52813673 0.27022481
-0.11116855 -0.52813673 0.27022481
-0.08665479 -0.52813673 0.27022481
-0.062141024 -0.52813673 0.27022481
-0.037627257 -0.52813673 0.27022481
-0.013113495 -0.52813673 0.27022481
0.011400269 -0.52813673 0.27022481
0.035914034 -0.52813673 0.27022481
0.0604278 -0.52813673 0.27022481
0.084941559 -0.52813673 0.27022481
0.10945532 -0.52813673 0.27022481
0.13396908 -0.52813673 0.27022481
0.15848285 -0.52813673 0.27022481
0.18299662 -0.52813673 0.27022481
0.20751038 -0.52813673 0.27022481
0.23202416 -0.52813673 0.27022481
0.25653791 -0.52813673 0.27022481
0.2810517 -0.52813673 0.27022481
0.30556545 -0.52813673 0.27022481
-0.30894101 -0.55495226 0.28683591
-0.28429937 -0.55495226 0.28683591
-0.25965774 -0.55495226 0.28683591
-0.23501612 -0.55495226 0.28683591
-0.21037446 -0.55495226 0.28683591
-0.18573284 -0.55495226 0.28683591
-0.16109119 -0.55495226 0.28683591
-0.13644956 -0.55495226 0.28683591
-0.11180793 -0.55495226 0.28683591
