ply
format ascii 1.0
comment PCL generated
element vertex 1324
property float x
property float y
property float z
element camera 0
property float view_px
property float view_py
property float view_pz
property float x_axisx
property float x_axisy
property float x_axisz
property float y_axisx
property float y_axisy
property float y_axisz
property float z_axisx
property float z_axisy
property float z_axisz
property float focal
property float scalex
property float scaley
property float centerx
property float centery
property int viewportx
property int viewporty
property float k1
property float k2
end_header
-0.17253089 -0.44353306 -0.31045002
-0.15290698 -0.44353306 -0.31045002
-0.13328309 -0.44353306 -0.31045002
-0.11365919 -0.44353306 -0.31045002
-0.09403529 -0.44353306 -0.31045002
-0.074411392 -0.44353306 -0.31045002
-0.054787494 -0.44353306 -0.31045002
-0.035163589 -0.44353306 -0.31045002
-0.015539693 -0.44353306 -0.31045002
0.0040842071 -0.44353306 -0.31045002
0.023708107 -0.44353306 -0.31045002
0.043332007 -0.44353306 -0.31045002
0.062955908 -0.44353306 -0.31045002
0.082579806 -0.44353306 -0.31045002
0.1022037 -0.44353306 -0.31045002
0.1218276 -0.44353306 -0.31045002
0.14145151 -0.44353306 -0.31045002
0.1610754 -0.44353306 -0.31045002
0.1806993 -0.44353306 -0.31045002
0.20032319 -0.44353306 -0.31045002
0.2199471 -0.44353306 -0.31045002
0.23957101 -0.44353306 -0.31045002
0.25919491 -0.44353306 -0.31045002
0.27881879 -0.44353306 -0.31045002
0.29844269 -0.44353306 -0.31045002
0.3180666 -0.44353306 -0.31045002
0.3376905 -0.44353306 -0.31045002
-0.32878733 -0.4228887 -0.31575269
-0.30920425 -0.4228887 -0.31575269
-0.28962114 -0.4228887 -0.31575269
-0.2700381 -0.4228887 -0.31575269
-0.25045499 -0.4228887 -0.31575269
-0.23087195 -0.4228887 -0.31575269
-0.21128884 -0.4228887 -0.31575269
-0.19170578 -0.4228887 -0.31575269
-0.17212269 -0.4228887 -0.31575269
-0.15253961 -0.4228887 -0.31575269
-0.13295652 -0.4228887 -0.31575269
-0.11337344 -0.4228887 -0.31575269
-0.093790367 -0.4228887 -0.31575269
-0.074207291 -0.4228887 -0.31575269
-0.054624207 -0.4228887 -0.31575269
-0.035041131 -0.4228887 -0.31575269
-0.015458049 -0.4228887 -0.31575269
0.0041250288 -0.4228887 -0.31575269
0.023708107 -0.4228887 -0.31575269
0.043291185 -0.4228887 -0.31575269
0.062874265 -0.4228887 -0.31575269
0.082457341 -0.4228887 -0.31575269
0.10204042 -0.4228887 -0.31575269
0.1216235 -0.4228887 -0.31575269
0.14120658 -0.4228887 -0.31575269
0.16078965 -0.4228887 -0.31575269
0.18037273 -0.4228887 -0.31575269
0.19995582 -0.4228887 -0.31575269
0.2195389 -0.4228887 -0.31575269
0.23912199 -0.4228887 -0.31575269
0.25870505 -0.4228887 -0.31575269
0.27828816 -0.4228887 -0.31575269
0.2978712 -0.4228887 -0.31575269
0.31745431 -0.4228887 -0.31575269
0.33703735 -0.4228887 -0.31575269
-0.33028978 -0.40530872 -0.30490977
-0.31062323 -0.40530872 -0.30490977
-0.29095668 -0.40530872 -0.30490977
-0.27129012 -0.40530872 -0.30490977
-0.2516236 -0.40530872 -0.30490977
-0.23195702 -0.40530872 -0.30490977
-0.2122905 -0.40530872 -0.30490977
-0.19262393 -0.40530872 -0.30490977
-0.17295739 -0.40530872 -0.30490977
-0.15329084 -0.40530872 -0.30490977
-0.13362429 -0.40530872 -0.30490977
-0.11395775 -0.40530872 -0.30490977
-0.094291195 -0.40530872 -0.30490977
-0.074624643 -0.40530872 -0.30490977
-0.05495809 -0.40530872 -0.30490977
-0.035291545 -0.40530872 -0.30490977
-0.015624991 -0.40530872 -0.30490977
0.0040415581 -0.40530872 -0.30490977
0.023708107 -0.40530872 -0.30490977
0.043374658 -0.40530872 -0.30490977
0.063041203 -0.40530872 -0.30490977
0.082707755 -0.40530872 -0.30490977
0.1023743 -0.40530872 -0.30490977
0.12204085 -0.40530872 -0.30490977
0.14170741 -0.40530872 -0.30490977
0.16137396 -0.40530872 -0.30490977
0.1810405 -0.40530872 -0.30490977
0.20070705 -0.40530872 -0.30490977
0.2203736 -0.40530872 -0.30490977
0.24004014 -0.40530872 -0.30490977
0.25970671 -0.40530872 -0.30490977
0.27937323 -0.40530872 -0.30490977
0.29903981 -0.40530872 -0.30490977
0.31870633 -0.40530872 -0.30490977
0.33837289 -0.40530872 -0.30490977
-0.33180344 -0.3875764 -0.29398596
-0.31205279 -0.3875764 -0.29398596
-0.29230213 -0.3875764 -0.29398596
-0.27255151 -0.3875764 -0.29398596
-0.25280088 -0.3875764 -0.29398596
-0.23305023 -0.3875764 -0.29398596
-0.21329957 -0.3875764 -0.29398596
-0.19354895 -0.3875764 -0.29398596
-0.17379829 -0.3875764 -0.29398596
-0.15404767 -0.3875764 -0.29398596
-0.13429701 -0.3875764 -0.29398596
-0.11454639 -0.3875764 -0.29398596
-0.094795734 -0.3875764 -0.29398596
-0.075045094 -0.3875764 -0.29398596
-0.055294454 -0.3875764 -0.29398596
-0.035543814 -0.3875764 -0.29398596
-0.015793173 -0.3875764 -0.29398596
0.0039574672 -0.3875764 -0.29398596
0.023708107 -0.3875764 -0.29398596
0.043458745 -0.3875764 -0.29398596
0.063209385 -0.3875764 -0.29398596
0.082960024 -0.3875764 -0.29398596
0.10271066 -0.3875764 -0.29398596
0.1224613 -0.3875764 -0.29398596
0.14221194 -0.3875764 -0.29398596
0.1619626 -0.3875764 -0.29398596
0.18171322 -0.3875764 -0.29398596
0.20146388 -0.3875764 -0.29398596
0.2212145 -0.3875764 -0.29398596
0.24096516 -0.3875764 -0.29398596
0.26071578 -0.3875764 -0.29398596
0.28046644 -0.3875764 -0.29398596
0.30021709 -0.3875764 -0.29398596
0.31996772 -0.3875764 -0.29398596
0.33971834 -0.3875764 -0.29398596
-0.33333176 -0.3696937 -0.28295606
-0.3134962 -0.3696937 -0.28295606
-0.29366064 -0.3696937 -0.28295606
-0.27382511 -0.3696937 -0.28295606
-0.25398958 -0.3696937 -0.28295606
-0.23415402 -0.3696937 -0.28295606
-0.21431847 -0.3696937 -0.28295606
-0.19448292 -0.3696937 -0.28295606
-0.17464738 -0.3696937 -0.28295606
-0.15481183 -0.3696937 -0.28295606
-0.13497627 -0.3696937 -0.28295606
-0.11514074 -0.3696937 -0.28295606
-0.095305182 -0.3696937 -0.28295606
-0.075469635 -0.3696937 -0.28295606
-0.055634081 -0.3696937 -0.28295606
-0.035798535 -0.3696937 -0.28295606
-0.015962986 -0.3696937 -0.28295606
0.0038725585 -0.3696937 -0.28295606
0.023708107 -0.3696937 -0.28295606
0.043543655 -0.3696937 -0.28295606
0.063379198 -0.3696937 -0.28295606
0.083214752 -0.3696937 -0.28295606
0.10305029 -0.3696937 -0.28295606
0.12288585 -0.3696937 -0.28295606
0.1427214 -0.3696937 -0.28295606
0.16255695 -0.3696937 -0.28295606
0.18239248 -0.3696937 -0.28295606
0.20222804 -0.3696937 -0.28295606
0.22206359 -0.3696937 -0.28295606
0.24189913 -0.3696937 -0.28295606
0.26173469 -0.3696937 -0.28295606
0.28157023 -0.3696937 -0.28295606
0.30140579 -0.3696937 -0.28295606
0.32124132 -0.3696937 -0.28295606
-0.3362138 -0.47319454 -0.26215667
-0.31621814 -0.47319454 -0.26215667
-0.29622248 -0.47319454 -0.26215667
-0.27622682 -0.47319454 -0.26215667
-0.25623116 -0.47319454 -0.26215667
-0.2362355 -0.47319454 -0.26215667
-0.21623984 -0.47319454 -0.26215667
-0.19624417 -0.47319454 -0.26215667
-0.17624851 -0.47319454 -0.26215667
-0.15625286 -0.47319454 -0.26215667
-0.13625719 -0.47319454 -0.26215667
-0.11626153 -0.47319454 -0.26215667
-0.096265867 -0.47319454 -0.26215667
-0.0762702 -0.47319454 -0.26215667
-0.056274541 -0.47319454 -0.26215667
-0.036278881 -0.47319454 -0.26215667
-0.016283216 -0.47319454 -0.26215667
0.0037124455 -0.47319454 -0.26215667
0.023708107 -0.47319454 -0.26215667
0.043703768 -0.47319454 -0.26215667
0.063699432 -0.47319454 -0.26215667
0.083695091 -0.47319454 -0.26215667
0.10369075 -0.47319454 -0.26215667
0.12368641 -0.47319454 -0.26215667
0.14368208 -0.47319454 -0.26215667
0.16367774 -0.47319454 -0.26215667
0.1836734 -0.47319454 -0.26215667
0.20366907 -0.47319454 -0.26215667
0.22366472 -0.47319454 -0.26215667
0.24366038 -0.47319454 -0.26215667
0.26365605 -0.47319454 -0.26215667
0.28365171 -0.47319454 -0.26215667
0.30364737 -0.47319454 -0.26215667
0.32364303 -0.47319454 -0.26215667
-0.33487329 -0.35165668 -0.27183121
-0.31495211 -0.35165668 -0.27183121
-0.29503092 -0.35165668 -0.27183121
-0.27510971 -0.35165668 -0.27183121
-0.25518852 -0.35165668 -0.27183121
-0.23526734 -0.35165668 -0.27183121
-0.21534616 -0.35165668 -0.27183121
-0.19542496 -0.35165668 -0.27183121
-0.17550378 -0.35165668 -0.27183121
-0.15558259 -0.35165668 -0.27183121
-0.13566141 -0.35165668 -0.27183121
-0.11574021 -0.35165668 -0.27183121
-0.095819026 -0.35165668 -0.27183121
-0.075897835 -0.35165668 -0.27183121
-0.055976652 -0.35165668 -0.27183121
-0.036055461 -0.35165668 -0.27183121
-0.016134271 -0.35165668 -0.27183121
0.0037869178 -0.35165668 -0.27183121
0.023708107 -0.35165668 -0.27183121
0.043629296 -0.35165668 -0.27183121
0.063550487 -0.35165668 -0.27183121
0.083471671 -0.35165668 -0.27183121
0.10339286 -0.35165668 -0.27183121
0.12331405 -0.35165668 -0.27183121
0.14323524 -0.35165668 -0.27183121
0.16315642 -0.35165668 -0.27183121
0.18307762 -0.35165668 -0.27183121
0.2029988 -0.35165668 -0.27183121
0.22291999 -0.35165668 -0.27183121
0.24284117 -0.35165668 -0.27183121
0.26276237 -0.35165668 -0.27183121
0.28268355 -0.35165668 -0.27183121
0.30260473 -0.35165668 -0.27183121
0.32252592 -0.35165668 -0.27183121
-0.33642817 -0.33346307 -0.26060969
-0.31642058 -0.33346307 -0.26060969
-0.29641303 -0.33346307 -0.26060969
-0.27640545 -0.33346307 -0.26060969
-0.2563979 -0.33346307 -0.26060969
-0.23639032 -0.33346307 -0.26060969
-0.21638274 -0.33346307 -0.26060969
-0.19637519 -0.33346307 -0.26060969
-0.17636761 -0.33346307 -0.26060969
-0.15636003 -0.33346307 -0.26060969
-0.13635246 -0.33346307 -0.26060969
-0.1163449 -0.33346307 -0.26060969
-0.096337318 -0.33346307 -0.26060969
-0.076329753 -0.33346307 -0.26060969
-0.05632218 -0.33346307 -0.26060969
-0.036314607 -0.33346307 -0.26060969
-0.016307035 -0.33346307 -0.26060969
0.0037005357 -0.33346307 -0.26060969
0.023708107 -0.33346307 -0.26060969
0.043715678 -0.33346307 -0.26060969
0.063723251 -0.33346307 -0.26060969
0.083730817 -0.33346307 -0.26060969
0.10373839 -0.33346307 -0.26060969
0.12374596 -0.33346307 -0.26060969
0.14375353 -0.33346307 -0.26060969
0.16376111 -0.33346307 -0.26060969
0.18376867 -0.33346307 -0.26060969
0.20377624 -0.33346307 -0.26060969
0.22378382 -0.33346307 -0.26060969
0.2437914 -0.33346307 -0.26060969
0.26379895 -0.33346307 -0.26060969
0.28380653 -0.33346307 -0.26060969
0.30381411 -0.33346307 -0.26060969
0.32382166 -0.33346307 -0.26060969
-0.31790027 -0.31510931 -0.24930286
-0.29780567 -0.31510931 -0.24930286
-0.27771106 -0.31510931 -0.24930286
-0.25761643 -0.31510931 -0.24930286
-0.23752183 -0.31510931 -0.24930286
-0.21742722 -0.31510931 -0.24930286
-0.19733261 -0.31510931 -0.24930286
-0.17723802 -0.31510931 -0.24930286
-0.1571434 -0.31510931 -0.24930286
-0.13704878 -0.31510931 -0.24930286
-0.11695416 -0.31510931 -0.24930286
-0.096859559 -0.31510931 -0.24930286
-0.076764956 -0.31510931 -0.24930286
-0.056670338 -0.31510931 -0.24930286
-0.036575727 -0.31510931 -0.24930286
-0.016481115 -0.31510931 -0.24930286
0.0036134962 -0.31510931 -0.24930286
0.023708107 -0.31510931 -0.24930286
0.043802716 -0.31510931 -0.24930286
0.063897327 -0.31510931 -0.24930286
0.083991937 -0.31510931 -0.24930286
0.10408655 -0.31510931 -0.24930286
0.12418117 -0.31510931 -0.24930286
0.14427577 -0.31510931 -0.24930286
0.16437037 -0.31510931 -0.24930286
0.18446499 -0.31510931 -0.24930286
0.20455961 -0.31510931 -0.24930286
0.22465423 -0.31510931 -0.24930286
0.24474882 -0.31510931 -0.24930286
0.26484343 -0.31510931 -0.24930286
0.28493804 -0.31510931 -0.24930286
0.30503264 -0.31510931 -0.24930286
0.32512727 -0.31510931 -0.24930286
-0.31939453 -0.29659683 -0.23788482
-0.29921204 -0.29659683 -0.23788482
-0.27902952 -0.29659683 -0.23788482
-0.258847 -0.29659683 -0.23788482
-0.23866451 -0.29659683 -0.23788482
-0.21848199 -0.29659683 -0.23788482
-0.19829948 -0.29659683 -0.23788482
-0.17811698 -0.29659683 -0.23788482
-0.15793447 -0.29659683 -0.23788482
-0.13775197 -0.29659683 -0.23788482
-0.11756945 -0.29659683 -0.23788482
-0.097386941 -0.29659683 -0.23788482
-0.077204436 -0.29659683 -0.23788482
-0.057021931 -0.29659683 -0.23788482
-0.036839418 -0.29659683 -0.23788482
-0.016656911 -0.29659683 -0.23788482
0.0035255998 -0.29659683 -0.23788482
0.023708107 -0.29659683 -0.23788482
0.043890614 -0.29659683 -0.23788482
0.064073123 -0.29659683 -0.23788482
0.084255628 -0.29659683 -0.23788482
0.10443814 -0.29659683 -0.23788482
0.12462065 -0.29659683 -0.23788482
0.14480315 -0.29659683 -0.23788482
0.16498566 -0.29659683 -0.23788482
0.18516818 -0.29659683 -0.23788482
0.20535068 -0.29659683 -0.23788482
0.22553319 -0.29659683 -0.23788482
0.24571569 -0.29659683 -0.23788482
0.2658982 -0.29659683 -0.23788482
0.28608072 -0.29659683 -0.23788482
0.30626321 -0.29659683 -0.23788482
0.32644573 -0.29659683 -0.23788482
-0.3209019 -0.27792174 -0.22636616
-0.30063075 -0.27792174 -0.22636616
-0.28035954 -0.27792174 -0.22636616
-0.26008838 -0.27792174 -0.22636616
-0.2398172 -0.27792174 -0.22636616
-0.21954603 -0.27792174 -0.22636616
-0.19927485 -0.27792174 -0.22636616
-0.17900367 -0.27792174 -0.22636616
-0.15873249 -0.27792174 -0.22636616
-0.13846132 -0.27792174 -0.22636616
-0.11819014 -0.27792174 -0.22636616
-0.097918965 -0.27792174 -0.22636616
-0.077647783 -0.27792174 -0.22636616
-0.057376608 -0.27792174 -0.22636616
-0.037105426 -0.27792174 -0.22636616
-0.01683425 -0.27792174 -0.22636616
0.0034369286 -0.27792174 -0.22636616
0.023708107 -0.27792174 -0.22636616
0.043979287 -0.27792174 -0.22636616
0.064250462 -0.27792174 -0.22636616
0.084521644 -0.27792174 -0.22636616
0.10479282 -0.27792174 -0.22636616
0.125064 -0.27792174 -0.22636616
0.14533518 -0.27792174 -0.22636616
0.16560635 -0.27792174 -0.22636616
0.18587753 -0.27792174 -0.22636616
0.2061487 -0.27792174 -0.22636616
0.22641988 -0.27792174 -0.22636616
0.24669106 -0.27792174 -0.22636616
0.26696226 -0.27792174 -0.22636616
0.28723341 -0.27792174 -0.22636616
0.30750459 -0.27792174 -0.22636616
0.32777575 -0.27792174 -0.22636616
-0.32278216 -0.5040015 -0.21199858
-0.30240038 -0.5040015 -0.21199858
-0.2820186 -0.5040015 -0.21199858
-0.26163682 -0.5040015 -0.21199858
-0.24125504 -0.5040015 -0.21199858
-0.22087206 -0.50399882 -0.21201134
-0.2004904 -0.50399882 -0.21201134
-0.18010871 -0.50399882 -0.21201134
-0.15972701 -0.50399882 -0.21201134
-0.13934536 -0.50399882 -0.21201134
-0.11896367 -0.50399882 -0.21201134
-0.098581977 -0.50399882 -0.21201134
-0.078200303 -0.50399882 -0.21201134
-0.057818621 -0.50399882 -0.21201134
-0.037436932 -0.50399882 -0.21201134
-0.017055256 -0.50399882 -0.21201134
0.0033264253 -0.50399882 -0.21201134
0.023708107 -0.50399882 -0.21201134
0.044089787 -0.50399882 -0.21201134
0.064471468 -0.50399882 -0.21201134
0.08485315 -0.50399882 -0.21201134
0.10523483 -0.50399882 -0.21201134
0.12561652 -0.50399882 -0.21201134
0.14599819 -0.50399882 -0.21201134
0.16638057 -0.5040015 -0.21199858
0.18676235 -0.5040015 -0.21199858
0.20714414 -0.5040015 -0.21199858
0.2275269 -0.50400424 -0.21198571
0.24790877 -0.50400424 -0.21198571
0.26829067 -0.50400424 -0.21198571
0.28867254 -0.50400424 -0.21198571
0.30905303 -0.5040015 -0.21199858
0.32943481 -0.5040015 -0.21199858
-0.32242092 -0.25908017 -0.21475887
-0.3020604 -0.25908017 -0.21475887
-0.28169984 -0.25908017 -0.21475887
-0.26133934 -0.25908017 -0.21475887
-0.24097878 -0.25908017 -0.21475887
-0.22061826 -0.25908017 -0.21475887
-0.20025772 -0.25908017 -0.21475887
-0.1798972 -0.25908017 -0.21475887
-0.15953666 -0.25908017 -0.21475887
-0.13917615 -0.25908017 -0.21475887
-0.11881562 -0.25908017 -0.21475887
-0.098455079 -0.25908017 -0.21475887
-0.078094549 -0.25908017 -0.21475887
-0.05773402 -0.25908017 -0.21475887
-0.037373483 -0.25908017 -0.21475887
-0.017012956 -0.25908017 -0.21475887
0.0033475757 -0.25908017 -0.21475887
0.023708107 -0.25908017 -0.21475887
0.044068638 -0.25908017 -0.21475887
0.064429171 -0.25908017 -0.21475887
0.084789701 -0.25908017 -0.21475887
0.10515023 -0.25908017 -0.21475887
0.12551077 -0.25908017 -0.21475887
0.1458713 -0.25908017 -0.21475887
0.16623183 -0.25908017 -0.21475887
0.18659236 -0.25908017 -0.21475887
0.20695287 -0.25908017 -0.21475887
0.22731341 -0.25908017 -0.21475887
0.24767393 -0.25908017 -0.21475887
0.26803449 -0.25908017 -0.21475887
0.28839499 -0.25908017 -0.21475887
0.30875555 -0.25908017 -0.21475887
0.32911605 -0.25908017 -0.21475887
-0.32395506 -0.24007325 -0.20303583
-0.30350429 -0.24007325 -0.20303583
-0.28305352 -0.24007325 -0.20303583
-0.26260275 -0.24007325 -0.20303583
-0.24215198 -0.24007325 -0.20303583
-0.22170119 -0.24007325 -0.20303583
-0.20125042 -0.24007325 -0.20303583
-0.18079965 -0.24007325 -0.20303583
-0.16034888 -0.24007325 -0.20303583
-0.13989809 -0.24007325 -0.20303583
-0.11944732 -0.24007325 -0.20303583
-0.098996542 -0.24007325 -0.20303583
-0.078545772 -0.24007325 -0.20303583
-0.058094993 -0.24007325 -0.20303583
-0.037644215 -0.24007325 -0.20303583
-0.017193442 -0.24007325 -0.20303583
0.0032573342 -0.24007325 -0.20303583
0.023708107 -0.24007325 -0.20303583
0.04415888 -0.24007325 -0.20303583
0.064609654 -0.24007325 -0.20303583
0.085060433 -0.24007325 -0.20303583
0.1055112 -0.24007325 -0.20303583
0.12596199 -0.24007325 -0.20303583
0.14641276 -0.24007325 -0.20303583
0.16686353 -0.24007325 -0.20303583
0.1873143 -0.24007325 -0.20303583
0.20776509 -0.24007325 -0.20303583
0.22821586 -0.24007325 -0.20303583
0.24866663 -0.24007325 -0.20303583
0.26911741 -0.24007325 -0.20303583
0.28956819 -0.24007325 -0.20303583
0.31001896 -0.24007325 -0.20303583
0.33046973 -0.24007325 -0.20303583
-0.3255029 -0.22089715 -0.19120836
-0.30496106 -0.22089715 -0.19120836
-0.28441924 -0.22089715 -0.19120836
-0.26387739 -0.22089715 -0.19120836
-0.24333557 -0.22089715 -0.19120836
-0.22279376 -0.22089715 -0.19120836
-0.20225194 -0.22089715 -0.19120836
-0.18171012 -0.22089715 -0.19120836
-0.16116831 -0.22089715 -0.19120836
-0.14062648 -0.22089715 -0.19120836
-0.12008464 -0.22089715 -0.19120836
-0.099542826 -0.22089715 -0.19120836
-0.079001009 -0.22089715 -0.19120836
-0.058459185 -0.22089715 -0.19120836
-0.037917361 -0.22089715 -0.19120836
-0.017375538 -0.22089715 -0.19120836
0.0031662844 -0.22089715 -0.19120836
0.023708107 -0.22089715 -0.19120836
0.044249929 -0.22089715 -0.19120836
0.064791754 -0.22089715 -0.19120836
0.085333571 -0.22089715 -0.19120836
0.1058754 -0.22089715 -0.19120836
0.12641722 -0.22089715 -0.19120836
0.14695904 -0.22089715 -0.19120836
0.16750085 -0.22089715 -0.19120836
0.18804269 -0.22089715 -0.19120836
0.20858452 -0.22089715 -0.19120836
0.22912633 -0.22089715 -0.19120836
0.24966815 -0.22089715 -0.19120836
0.27020997 -0.22089715 -0.19120836
0.29075179 -0.22089715 -0.19120836
0.3112936 -0.22089715 -0.19120836
0.33183545 -0.22089715 -0.19120836
-0.32706451 -0.2015496 -0.17927527
-0.30643085 -0.2015496 -0.17927527
-0.28579715 -0.2015496 -0.17927527
-0.26516348 -0.2015496 -0.17927527
-0.24452981 -0.2015496 -0.17927527
-0.2238961 -0.2015496 -0.17927527
-0.20326243 -0.2015496 -0.17927527
-0.18262874 -0.2015496 -0.17927527
-0.16199505 -0.2015496 -0.17927527
-0.14136137 -0.2015496 -0.17927527
-0.12072769 -0.2015496 -0.17927527
-0.100094 -0.2015496 -0.17927527
-0.079460315 -0.2015496 -0.17927527
-0.058826633 -0.2015496 -0.17927527
-0.038192943 -0.2015496 -0.17927527
-0.017559262 -0.2015496 -0.17927527
0.0030744225 -0.2015496 -0.17927527
0.023708107 -0.2015496 -0.17927527
0.044341791 -0.2015496 -0.17927527
0.064975478 -0.2015496 -0.17927527
0.08560916 -0.2015496 -0.17927527
0.10624284 -0.2015496 -0.17927527
0.12687653 -0.2015496 -0.17927527
0.14751022 -0.2015496 -0.17927527
0.1681439 -0.2015496 -0.17927527
0.18877758 -0.2015496 -0.17927527
0.20941126 -0.2015496 -0.17927527
0.23004495 -0.2015496 -0.17927527
0.25067866 -0.2015496 -0.17927527
0.27131233 -0.2015496 -0.17927527
0.29194602 -0.2015496 -0.17927527
0.31257969 -0.2015496 -0.17927527
0.33321336 -0.2015496 -0.17927527
-0.32863846 -0.18202698 -0.16724801
-0.3079122 -0.18202698 -0.16724801
-0.28718594 -0.18202698 -0.16724801
-0.26645964 -0.18202698 -0.16724801
-0.24573338 -0.18202698 -0.16724801
-0.22500712 -0.18202698 -0.16724801
-0.20428085 -0.18202698 -0.16724801
-0.1835546 -0.18202698 -0.16724801
-0.16282831 -0.18202698 -0.16724801
-0.14210205 -0.18202698 -0.16724801
-0.12137577 -0.18202698 -0.16724801
-0.10064951 -0.18202698 -0.16724801
-0.07992325 -0.18202698 -0.16724801
-0.059196971 -0.18202698 -0.16724801
-0.0384707 -0.18202698 -0.16724801
-0.017744431 -0.18202698 -0.16724801
0.0029818378 -0.18202698 -0.16724801
0.023708107 -0.18202698 -0.16724801
0.044434376 -0.18202698 -0.16724801
0.065160647 -0.18202698 -0.16724801
0.085886911 -0.18202698 -0.16724801
0.10661318 -0.18202698 -0.16724801
0.12733947 -0.18202698 -0.16724801
0.14806572 -0.18202698 -0.16724801
0.16879198 -0.18202698 -0.16724801
0.18951826 -0.18202698 -0.16724801
0.21024452 -0.18202698 -0.16724801
0.23097081 -0.18202698 -0.16724801
0.25169706 -0.18202698 -0.16724801
0.27242333 -0.18202698 -0.16724801
0.29314959 -0.18202698 -0.16724801
0.31387585 -0.18202698 -0.16724801
0.33460215 -0.18202698 -0.16724801
-0.32960469 -0.53602165 -0.1598649
-0.30882156 -0.53602165 -0.1598649
-0.28803846 -0.53602165 -0.1598649
-0.26725537 -0.53602165 -0.1598649
-0.24647227 -0.53602165 -0.1598649
-0.22568792 -0.53601873 -0.15987825
-0.20490493 -0.53601873 -0.15987825
-0.18412192 -0.53601873 -0.15987825
-0.16333891 -0.53601873 -0.15987825
-0.14255591 -0.53601873 -0.15987825
-0.12177292 -0.53601873 -0.15987825
-0.10098991 -0.53601873 -0.15987825
-0.080206908 -0.53601873 -0.15987825
-0.059423901 -0.53601873 -0.15987825
-0.038640901 -0.53601873 -0.15987825
-0.017857896 -0.53601873 -0.15987825
0.0029251054 -0.53601873 -0.15987825
0.023708107 -0.53601873 -0.15987825
0.044491109 -0.53601873 -0.15987825
0.065274112 -0.53601873 -0.15987825
0.086057425 -0.53602165 -0.1598649
0.10684052 -0.53602165 -0.1598649
0.12762363 -0.53602165 -0.1598649
0.14840735 -0.53602475 -0.15985155
0.16919056 -0.53602475 -0.15985155
0.18997376 -0.53602475 -0.15985155
0.2107579 -0.53602773 -0.15983808
0.23154017 -0.53602475 -0.15985155
0.25232339 -0.53602475 -0.15985155
0.2731066 -0.53602475 -0.15985155
0.29388848 -0.53602165 -0.1598649
0.31467158 -0.53602165 -0.1598649
0.33545467 -0.53602165 -0.1598649
-0.33022836 -0.16232941 -0.15509915
-0.30940855 -0.16232941 -0.15509915
-0.28858876 -0.16232941 -0.15509915
-0.26776898 -0.16232941 -0.15509915
-0.2469492 -0.16232941 -0.15509915
-0.2261294 -0.16232941 -0.15509915
-0.2053096 -0.16232941 -0.15509915
-0.18448982 -0.16232941 -0.15509915
-0.16367003 -0.16232941 -0.15509915
-0.14285022 -0.16232941 -0.15509915
-0.12203044 -0.16232941 -0.15509915
-0.10121065 -0.16232941 -0.15509915
-0.080390856 -0.16232941 -0.15509915
-0.059571058 -0.16232941 -0.15509915
-0.038751267 -0.16232941 -0.15509915
-0.017931474 -0.16232941 -0.15509915
0.0028883163 -0.16232941 -0.15509915
0.023708107 -0.16232941 -0.15509915
0.044527896 -0.16232941 -0.15509915
0.065347686 -0.16232941 -0.15509915
0.086167485 -0.16232941 -0.15509915
0.10698727 -0.16232941 -0.15509915
0.12780707 -0.16232941 -0.15509915
0.14862686 -0.16232941 -0.15509915
0.16944665 -0.16232941 -0.15509915
0.19026643 -0.16232941 -0.15509915
0.21108624 -0.16232941 -0.15509915
0.23190603 -0.16232941 -0.15509915
0.25272581 -0.16232941 -0.15509915
0.27354562 -0.16232941 -0.15509915
0.29436541 -0.16232941 -0.15509915
0.31518519 -0.16232941 -0.15509915
0.33600497 -0.16232941 -0.15509915
-0.33183268 -0.14245333 -0.14284003
-0.31091851 -0.14245333 -0.14284003
-0.29000434 -0.14245333 -0.14284003
-0.26909018 -0.14245333 -0.14284003
-0.24817601 -0.14245333 -0.14284003
-0.22726184 -0.14245333 -0.14284003
-0.20634769 -0.14245333 -0.14284003
-0.18543352 -0.14245333 -0.14284003
-0.16451935 -0.14245333 -0.14284003
-0.14360522 -0.14245333 -0.14284003
-0.12269104 -0.14245333 -0.14284003
-0.10177687 -0.14245333 -0.14284003
-0.080862708 -0.14245333 -0.14284003
-0.059948549 -0.14245333 -0.14284003
-0.039034382 -0.14245333 -0.14284003
-0.01812022 -0.14245333 -0.14284003
0.0027939435 -0.14245333 -0.14284003
0.023708107 -0.14245333 -0.14284003
0.044622272 -0.14245333 -0.14284003
0.065536432 -0.14245333 -0.14284003
0.086450592 -0.14245333 -0.14284003
0.10736476 -0.14245333 -0.14284003
0.12827893 -0.14245333 -0.14284003
0.14919308 -0.14245333 -0.14284003
0.17010725 -0.14245333 -0.14284003
0.19102143 -0.14245333 -0.14284003
0.21193556 -0.14245333 -0.14284003
0.23284973 -0.14245333 -0.14284003
0.25376391 -0.14245333 -0.14284003
0.27467805 -0.14245333 -0.14284003
0.29559222 -0.14245333 -0.14284003
0.31650639 -0.14245333 -0.14284003
0.33742055 -0.14245333 -0.14284003
-0.33344978 -0.12239526 -0.13048291
-0.31244048 -0.12239526 -0.13048291
-0.29143122 -0.12239526 -0.13048291
-0.27042192 -0.12239526 -0.13048291
-0.24941263 -0.12239526 -0.13048291
-0.22840336 -0.12239526 -0.13048291
-0.20739408 -0.12239526 -0.13048291
-0.18638477 -0.12239526 -0.13048291
-0.1653755 -0.12239526 -0.13048291
-0.14436619 -0.12239526 -0.13048291
-0.12335691 -0.12239526 -0.13048291
-0.10234763 -0.12239526 -0.13048291
-0.081338331 -0.12239526 -0.13048291
-0.060329042 -0.12239526 -0.13048291
-0.039319761 -0.12239526 -0.13048291
-0.018310467 -0.12239526 -0.13048291
0.0026988201 -0.12239526 -0.13048291
0.023708107 -0.12239526 -0.13048291
0.044717394 -0.12239526 -0.13048291
0.065726683 -0.12239526 -0.13048291
0.086735971 -0.12239526 -0.13048291
0.10774525 -0.12239526 -0.13048291
0.12875454 -0.12239526 -0.13048291
0.14976384 -0.12239526 -0.13048291
0.17077312 -0.12239526 -0.13048291
0.1917824 -0.12239526 -0.13048291
0.21279171 -0.12239526 -0.13048291
0.23380098 -0.12239526 -0.13048291
0.2548103 -0.12239526 -0.13048291
0.27581957 -0.12239526 -0.13048291
0.29682884 -0.12239526 -0.13048291
0.31783813 -0.12239526 -0.13048291
0.33884743 -0.12239526 -0.13048291
-0.33508348 -0.10215479 -0.1179992
-0.31397811 -0.10215479 -0.1179992
-0.29287273 -0.10215479 -0.1179992
-0.27176732 -0.10215479 -0.1179992
-0.25066194 -0.10215479 -0.1179992
-0.22955656 -0.10215479 -0.1179992
-0.20845117 -0.10215479 -0.1179992
-0.18734577 -0.10215479 -0.1179992
-0.16624039 -0.10215479 -0.1179992
-0.14513502 -0.10215479 -0.1179992
-0.12402961 -0.10215479 -0.1179992
-0.10292423 -0.10215479 -0.1179992
-0.081818834 -0.10215479 -0.1179992
-0.060713448 -0.10215479 -0.1179992
-0.039608061 -0.10215479 -0.1179992
-0.018502669 -0.10215479 -0.1179992
0.0026027188 -0.10215479 -0.1179992
0.023708107 -0.10215479 -0.1179992
0.044813495 -0.10215479 -0.1179992
0.065918885 -0.10215479 -0.1179992
0.087024271 -0.10215479 -0.1179992
0.10812966 -0.10215479 -0.1179992
0.12923504 -0.10215479 -0.1179992
0.15034044 -0.10215479 -0.1179992
0.17144582 -0.10215479 -0.1179992
0.19255123 -0.10215479 -0.1179992
0.2136566 -0.10215479 -0.1179992
0.23476198 -0.10215479 -0.1179992
0.25586739 -0.10215479 -0.1179992
0.27697277 -0.10215479 -0.1179992
0.29807815 -0.10215479 -0.1179992
0.31918353 -0.10215479 -0.1179992
-0.33670124 -0.56932825 -0.10563707
-0.31550074 -0.56932825 -0.10563707
-0.29430017 -0.56932825 -0.10563707
-0.27309963 -0.56932825 -0.10563707
-0.25189906 -0.56932825 -0.10563707
-0.2306985 -0.56932825 -0.10563707
-0.20949678 -0.56932509 -0.10565078
-0.18829633 -0.56932509 -0.10565078
-0.1670959 -0.56932509 -0.10565078
-0.14589545 -0.56932509 -0.10565078
-0.124695 -0.56932509 -0.10565078
-0.10349455 -0.56932509 -0.10565078
-0.082294114 -0.56932509 -0.10565078
-0.061093673 -0.56932509 -0.10565078
-0.039893225 -0.56932509 -0.10565078
-0.018692782 -0.56932509 -0.10565078
0.0025075544 -0.56932825 -0.10563707
0.023708107 -0.56932825 -0.10563707
0.044908658 -0.56932825 -0.10563707
0.066109426 -0.56933135 -0.10562313
0.087310076 -0.56933135 -0.10562313
0.10851074 -0.56933135 -0.10562313
0.12971194 -0.56933469 -0.10560918
0.15091269 -0.56933469 -0.10560918
0.17211346 -0.56933469 -0.10560918
0.19331422 -0.56933469 -0.10560918
0.21451499 -0.56933469 -0.10560918
0.23571469 -0.56933135 -0.10562313
0.25691536 -0.56933135 -0.10562313
0.27811599 -0.56933135 -0.10562313
0.29931527 -0.56932825 -0.10563707
0.32051584 -0.56932825 -0.10563707
-0.33673221 -0.081728294 -0.10540056
-0.31552982 -0.081728294 -0.10540056
-0.29432747 -0.081728294 -0.10540056
-0.27312511 -0.081728294 -0.10540056
-0.25192273 -0.081728294 -0.10540056
-0.23072034 -0.081728294 -0.10540056
-0.20951797 -0.081728294 -0.10540056
-0.18831562 -0.081728294 -0.10540056
-0.16711324 -0.081728294 -0.10540056
-0.14591086 -0.081728294 -0.10540056
-0.1247085 -0.081728294 -0.10540056
-0.10350612 -0.081728294 -0.10540056
-0.082303755 -0.081728294 -0.10540056
-0.061101377 -0.081728294 -0.10540056
-0.039899006 -0.081728294 -0.10540056
-0.018696634 -0.081728294 -0.10540056
0.0025057364 -0.081728294 -0.10540056
0.023708107 -0.081728294 -0.10540056
0.044910476 -0.081728294 -0.10540056
0.066112846 -0.081728294 -0.10540056
0.087315217 -0.081728294 -0.10540056
0.10851759 -0.081728294 -0.10540056
0.12971997 -0.081728294 -0.10540056
0.15092233 -0.081728294 -0.10540056
0.17212471 -0.081728294 -0.10540056
0.19332707 -0.081728294 -0.10540056
0.21452945 -0.081728294 -0.10540056
0.23573183 -0.081728294 -0.10540056
0.2569342 -0.081728294 -0.10540056
0.27813655 -0.081728294 -0.10540056
0.29933894 -0.081728294 -0.10540056
0.32054132 -0.081728294 -0.10540056
-0.31709591 -0.061113209 -0.092685819
-0.29579565 -0.061113209 -0.092685819
-0.27449539 -0.061113209 -0.092685819
-0.25319517 -0.061113209 -0.092685819
-0.23189491 -0.061113209 -0.092685819
-0.21059464 -0.061113209 -0.092685819
-0.18929441 -0.061113209 -0.092685819
-0.16799416 -0.061113209 -0.092685819
-0.1466939 -0.061113209 -0.092685819
-0.12539364 -0.061113209 -0.092685819
-0.1040934 -0.061113209 -0.092685819
-0.082793154 -0.061113209 -0.092685819
-0.061492898 -0.061113209 -0.092685819
-0.040192649 -0.061113209 -0.092685819
-0.018892394 -0.061113209 -0.092685819
0.0024078563 -0.061113209 -0.092685819
0.023708107 -0.061113209 -0.092685819
0.045008358 -0.061113209 -0.092685819
0.06630861 -0.061113209 -0.092685819
0.087608859 -0.061113209 -0.092685819
0.10890911 -0.061113209 -0.092685819
0.13020937 -0.061113209 -0.092685819
0.15150961 -0.061113209 -0.092685819
0.17280985 -0.061113209 -0.092685819
0.19411011 -0.061113209 -0.092685819
0.21541037 -0.061113209 -0.092685819
0.23671062 -0.061113209 -0.092685819
0.25801086 -0.061113209 -0.092685819
0.27931112 -0.061113209 -0.092685819
0.30061138 -0.061113209 -0.092685819
0.3219116 -0.061113209 -0.092685819
-0.31867474 -0.040306397 -0.079867125
-0.29727581 -0.040306397 -0.079867125
-0.27587688 -0.040306397 -0.079867125
-0.25447795 -0.040306397 -0.079867125
-0.23307905 -0.040306397 -0.079867125
-0.2116801 -0.040306397 -0.079867125
-0.19028118 -0.040306397 -0.079867125
-0.16888225 -0.040306397 -0.079867125
-0.14748332 -0.040306397 -0.079867125
-0.12608439 -0.040306397 -0.079867125
-0.10468547 -0.040306397 -0.079867125
-0.083286539 -0.040306397 -0.079867125
-0.061887607 -0.040306397 -0.079867125
-0.040488683 -0.040306397 -0.079867125
-0.019089749 -0.040306397 -0.079867125
0.0023091789 -0.040306397 -0.079867125
0.023708107 -0.040306397 -0.079867125
0.045107037 -0.040306397 -0.079867125
0.066505961 -0.040306397 -0.079867125
0.087904893 -0.040306397 -0.079867125
0.10930382 -0.040306397 -0.079867125
0.13070275 -0.040306397 -0.079867125
0.15210168 -0.040306397 -0.079867125
0.1735006 -0.040306397 -0.079867125
0.19489953 -0.040306397 -0.079867125
0.21629846 -0.040306397 -0.079867125
0.23769739 -0.040306397 -0.079867125
0.25909632 -0.040306397 -0.079867125
0.28049526 -0.040306397 -0.079867125
0.30189416 -0.040306397 -0.079867125
0.32329309 -0.040306397 -0.079867125
-0.32027006 -0.019306295 -0.066914916
-0.29877141 -0.019306295 -0.066914916
-0.27727279 -0.019306295 -0.066914916
-0.25577414 -0.019306295 -0.066914916
-0.23427552 -0.019306295 -0.066914916
-0.21277687 -0.019306295 -0.066914916
-0.19127823 -0.019306295 -0.066914916
-0.16977961 -0.019306295 -0.066914916
-0.14828098 -0.019306295 -0.066914916
-0.12678234 -0.019306295 -0.066914916
-0.10528371 -0.019306295 -0.066914916
-0.083785065 -0.019306295 -0.066914916
-0.062286437 -0.019306295 -0.066914916
-0.040787801 -0.019306295 -0.066914916
-0.019289164 -0.019306295 -0.066914916
0.0022094715 -0.019306295 -0.066914916
0.023708107 -0.019306295 -0.066914916
0.04520674 -0.019306295 -0.066914916
0.066705376 -0.019306295 -0.066914916
0.088204011 -0.019306295 -0.066914916
0.10970265 -0.019306295 -0.066914916
0.13120128 -0.019306295 -0.066914916
0.15269992 -0.019306295 -0.066914916
0.17419855 -0.019306295 -0.066914916
0.19569719 -0.019306295 -0.066914916
0.21719582 -0.019306295 -0.066914916
0.23869444 -0.019306295 -0.066914916
0.26019308 -0.019306295 -0.066914916
0.28169173 -0.019306295 -0.066914916
0.30319035 -0.019306295 -0.066914916
0.324689 -0.019306295 -0.066914916
-0.32245368 -0.60400009 -0.04918611
-0.30081856 -0.60400009 -0.04918611
-0.27918345 -0.60400009 -0.04918611
-0.25754836 -0.60400009 -0.04918611
-0.23591322 -0.60400009 -0.04918611
-0.21427688 -0.60399669 -0.049200535
-0.1926419 -0.60399669 -0.049200535
-0.1710069 -0.60399669 -0.049200535
-0.14937189 -0.60399669 -0.049200535
-0.1277369 -0.60399669 -0.049200535
-0.1061019 -0.60399669 -0.049200535
-0.084466897 -0.60399669 -0.049200535
-0.062831894 -0.60399669 -0.049200535
-0.041196898 -0.60399669 -0.049200535
-0.019561892 -0.60399669 -0.049200535
0.0020728838 -0.60400361 -0.049171567
0.023708107 -0.60400361 -0.049171567
0.04534344 -0.60400701 -0.049157143
0.066978775 -0.60400701 -0.049157143
0.088614106 -0.60400701 -0.049157143
0.11024989 -0.60401046 -0.049142599
0.13188533 -0.60401046 -0.049142599
0.15352011 -0.60400701 -0.049157143
0.17515545 -0.60400701 -0.049157143
0.19679078 -0.60400701 -0.049157143
0.21842512 -0.60400361 -0.049171567
0.24006034 -0.60400361 -0.049171567
0.26169556 -0.60400361 -0.049171567
0.28332943 -0.60400009 -0.04918611
0.30496457 -0.60400009 -0.04918611
0.32659966 -0.60400009 -0.04918611
-0.32188028 0.0018904358 -0.053841352
-0.30028099 0.0018904358 -0.053841352
-0.27868176 0.0018904358 -0.053841352
-0.25708246 0.0018904358 -0.053841352
-0.2354832 0.0018904358 -0.053841352
-0.21388391 0.0018904358 -0.053841352
-0.19228463 0.0018904358 -0.053841352
-0.17068537 0.0018904358 -0.053841352
-0.14908609 0.0018904358 -0.053841352
-0.12748682 0.0018904358 -0.053841352
-0.10588755 0.0018904358 -0.053841352
-0.084288262 0.0018904358 -0.053841352
-0.062688991 0.0018904358 -0.053841352
-0.041089721 0.0018904358 -0.053841352
-0.019490441 0.0018904358 -0.053841352
0.0021088328 0.0018904358 -0.053841352
0.023708107 0.0018904358 -0.053841352
0.045307383 0.0018904358 -0.053841352
0.066906653 0.0018904358 -0.053841352
0.088505931 0.0018904358 -0.053841352
0.1101052 0.0018904358 -0.053841352
0.13170448 0.0018904358 -0.053841352
0.15330376 0.0018904358 -0.053841352
0.17490304 0.0018904358 -0.053841352
0.1965023 0.0018904358 -0.053841352
0.21810158 0.0018904358 -0.053841352
0.23970084 0.0018904358 -0.053841352
0.26130012 0.0018904358 -0.053841352
0.28289941 0.0018904358 -0.053841352
0.30449867 0.0018904358 -0.053841352
0.32609797 0.0018904358 -0.053841352
-0.32350388 0.02328676 -0.040659428
-0.30180314 0.02328676 -0.040659428
-0.28010237 0.02328676 -0.040659428
-0.25840163 0.02328676 -0.040659428
-0.23670086 0.02328676 -0.040659428
-0.21500012 0.02328676 -0.040659428
-0.19329938 0.02328676 -0.040659428
-0.17159861 0.02328676 -0.040659428
-0.1498979 0.02328676 -0.040659428
-0.12819713 0.02328676 -0.040659428
-0.10649638 0.02328676 -0.040659428
-0.084795639 0.02328676 -0.040659428
-0.063094892 0.02328676 -0.040659428
-0.041394137 0.02328676 -0.040659428
-0.019693391 0.02328676 -0.040659428
0.0020073578 0.02328676 -0.040659428
0.023708107 0.02328676 -0.040659428
0.045408856 0.02328676 -0.040659428
0.067109607 0.02328676 -0.040659428
0.088810347 0.02328676 -0.040659428
0.1105111 0.02328676 -0.040659428
0.13221185 0.02328676 -0.040659428
0.15391259 0.02328676 -0.040659428
0.17561334 0.02328676 -0.040659428
0.19731411 0.02328676 -0.040659428
0.21901482 0.02328676 -0.040659428
0.24071559 0.02328676 -0.040659428
0.26241633 0.02328676 -0.040659428
0.28411707 0.02328676 -0.040659428
0.30581784 0.02328676 -0.040659428
0.32751858 0.02328676 -0.040659428
-0.32514459 0.044885043 -0.027338505
-0.3033413 0.044885043 -0.027338505
-0.28153801 0.044885043 -0.027338505
-0.25973472 0.044885043 -0.027338505
-0.23793143 0.044885043 -0.027338505
-0.21612813 0.044885043 -0.027338505
-0.19432485 0.044885043 -0.027338505
-0.17252156 0.044885043 -0.027338505
-0.15071826 0.044885043 -0.027338505
-0.12891495 0.044885043 -0.027338505
-0.10711166 0.044885043 -0.027338505
-0.085308373 0.044885043 -0.027338505
-0.063505068 0.044885043 -0.027338505
-0.041701779 0.044885043 -0.027338505
-0.01989848 0.044885043 -0.027338505
0.0019048136 0.044885043 -0.027338505
0.023708107 0.044885043 -0.027338505
0.045511402 0.044885043 -0.027338505
0.067314692 0.044885043 -0.027338505
0.089117989 0.044885043 -0.027338505
0.11092128 0.044885043 -0.027338505
0.13272458 0.044885043 -0.027338505
0.15452787 0.044885043 -0.027338505
0.17633116 0.044885043 -0.027338505
0.19813447 0.044885043 -0.027338505
0.21993777 0.044885043 -0.027338505
0.24174106 0.044885043 -0.027338505
0.26354435 0.044885043 -0.027338505
0.28534764 0.044885043 -0.027338505
0.30715093 0.044885043 -0.027338505
0.32895422 0.044885043 -0.027338505
-0.32680091 0.066688292 -0.013890862
-0.30489409 0.066688292 -0.013890862
-0.28298727 0.066688292 -0.013890862
-0.26108047 0.066688292 -0.013890862
-0.23917365 0.066688292 -0.013890862
-0.21726684 0.066688292 -0.013890862
-0.19536002 0.066688292 -0.013890862
-0.17345321 0.066688292 -0.013890862
-0.1515464 0.066688292 -0.013890862
-0.12963958 0.066688292 -0.013890862
-0.10773277 0.066688292 -0.013890862
-0.085825957 0.066688292 -0.013890862
-0.063919149 0.066688292 -0.013890862
-0.042012334 0.066688292 -0.013890862
-0.02010552 0.066688292 -0.013890862
0.0018012933 0.066688292 -0.013890862
0.023708107 0.066688292 -0.013890862
0.045614921 0.066688292 -0.013890862
0.067521736 0.066688292 -0.013890862
0.089428544 0.066688292 -0.013890862
0.11133536 0.066688292 -0.013890862
0.13324217 0.066688292 -0.013890862
0.15514898 0.066688292 -0.013890862
0.17705579 0.066688292 -0.013890862
0.19896261 0.066688292 -0.013890862
0.22086942 0.066688292 -0.013890862
0.24277623 0.066688292 -0.013890862
0.26468307 0.066688292 -0.013890862
0.28658986 0.066688292 -0.013890862
0.30849668 0.066688292 -0.013890862
0.33040348 0.066688292 -0.013890862
-0.328473 0.088699564 -0.00031507015
-0.30646169 0.088699564 -0.00031507015
-0.28445038 0.088699564 -0.00031507015
-0.26243904 0.088699564 -0.00031507015
-0.24042773 0.088699564 -0.00031507015
-0.21841642 0.088699564 -0.00031507015
-0.1964051 0.088699564 -0.00031507015
-0.17439379 0.088699564 -0.00031507015
-0.15238245 0.088699564 -0.00031507015
-0.13037114 0.088699564 -0.00031507015
-0.10835981 0.088699564 -0.00031507015
-0.086348496 0.088699564 -0.00031507015
-0.064337172 0.088699564 -0.00031507015
-0.042325854 0.088699564 -0.00031507015
-0.020314531 0.088699564 -0.00031507015
0.0016967878 0.088699564 -0.00031507015
0.023708107 0.088699564 -0.00031507015
0.045719426 0.088699564 -0.00031507015
0.067730747 0.088699564 -0.00031507015
0.089742064 0.088699564 -0.00031507015
0.11175338 0.088699564 -0.00031507015
0.13376471 0.088699564 -0.00031507015
0.15577602 0.088699564 -0.00031507015
0.17778735 0.088699564 -0.00031507015
0.19979866 0.088699564 -0.00031507015
0.22181 0.088699564 -0.00031507015
0.24382131 0.088699564 -0.00031507015
0.26583263 0.088699564 -0.00031507015
0.28784394 0.088699564 -0.00031507015
0.30985525 0.088699564 -0.00031507015
0.33186659 0.088699564 -0.00031507015
-0.32969764 -0.64012325 0.0096276999
-0.30760977 -0.64012325 0.0096276999
-0.28552192 -0.64012325 0.0096276999
-0.26343408 -0.64012325 0.0096276999
-0.24134621 -0.64012325 0.0096276999
-0.21925707 -0.64011949 0.0096124411
-0.19716933 -0.64011949 0.0096124411
-0.17508158 -0.64011949 0.0096124411
-0.15299384 -0.64011949 0.0096124411
-0.13090609 -0.64011949 0.0096124411
-0.10881835 -0.64011949 0.0096124411
-0.086730614 -0.64011949 0.0096124411
-0.064642869 -0.64011949 0.0096124411
-0.042555124 -0.64011949 0.0096124411
-0.02046738 -0.64011949 0.0096124411
0.0016203634 -0.64011949 0.0096124411
0.023708107 -0.64011949 0.0096124411
0.04579585 -0.64011949 0.0096124411
0.06788452 -0.64013433 0.0096728802
0.089972727 -0.64013433 0.0096728802
0.11206093 -0.64013433 0.0096728802
0.13414915 -0.64013433 0.0096728802
0.15623665 -0.64013058 0.0096577406
0.17832474 -0.64013058 0.0096577406
0.20041284 -0.64013058 0.0096577406
0.22249989 -0.64012688 0.0096428394
0.24458787 -0.64012688 0.0096428394
0.26667583 -0.64012688 0.0096428394
0.28876242 -0.64012325 0.0096276999
0.31085029 -0.64012325 0.0096276999
0.33293813 -0.64012325 0.0096276999
-0.33015931 0.11092176 0.013375759
-0.30804259 0.11092176 0.013375759
-0.28592587 0.11092176 0.013375759
-0.26380917 0.11092176 0.013375759
-0.24169242 0.11092176 0.013375759
-0.21957573 0.11092176 0.013375759
-0.19745903 0.11092176 0.013375759
-0.17534232 0.11092176 0.013375759
-0.1532256 0.11092176 0.013375759
-0.13110888 0.11092176 0.013375759
-0.10899216 0.11092176 0.013375759
-0.086875461 0.11092176 0.013375759
-0.064758748 0.11092176 0.013375759
-0.042642027 0.11092176 0.013375759
-0.02052532 0.11092176 0.013375759
0.0015913937 0.11092176 0.013375759
0.023708107 0.11092176 0.013375759
0.045824818 0.11092176 0.013375759
0.067941532 0.11092176 0.013375759
0.090058237 0.11092176 0.013375759
0.11217496 0.11092176 0.013375759
0.13429168 0.11092176 0.013375759
0.15640837 0.11092176 0.013375759
0.17852509 0.11092176 0.013375759
0.20064181 0.11092176 0.013375759
0.22275853 0.11092176 0.013375759
0.24487524 0.11092176 0.013375759
0.26699194 0.11092176 0.013375759
0.28910863 0.11092176 0.013375759
0.31122538 0.11092176 0.013375759
0.33334208 0.11092176 0.013375759
-0.33186367 0.13335803 0.027213693
-0.30964044 0.13335803 0.027213693
-0.2874172 0.13335803 0.027213693
-0.26519397 0.13335803 0.027213693
-0.24297073 0.13335803 0.027213693
-0.22074749 0.13335803 0.027213693
-0.19852425 0.13335803 0.027213693
-0.17630102 0.13335803 0.027213693
-0.15407778 0.13335803 0.027213693
-0.13185455 0.13335803 0.027213693
-0.10963131 0.13335803 0.027213693
-0.087408073 0.13335803 0.027213693
-0.065184839 0.13335803 0.027213693
-0.042961605 0.13335803 0.027213693
-0.020738365 0.13335803 0.027213693
0.0014848709 0.13335803 0.027213693
0.023708107 0.13335803 0.027213693
0.045931343 0.13335803 0.027213693
0.068154581 0.13335803 0.027213693
0.090377815 0.13335803 0.027213693
0.11260105 0.13335803 0.027213693
0.13482429 0.13335803 0.027213693
0.15704753 0.13335803 0.027213693
0.17927076 0.13335803 0.027213693
0.20149399 0.13335803 0.027213693
0.22371723 0.13335803 0.027213693
0.24594046 0.13335803 0.027213693
0.26816371 0.13335803 0.027213693
0.29038695 0.13335803 0.027213693
0.31261018 0.13335803 0.027213693
0.33483341 0.13335803 0.027213693
-0.33358458 0.15601143 0.041185617
-0.31125376 0.15601143 0.041185617
-0.288923 0.15601143 0.041185617
-0.2665922 0.15601143 0.041185617
-0.24426138 0.15601143 0.041185617
-0.22193061 0.15601143 0.041185617
-0.1995998 0.15601143 0.041185617
-0.17726903 0.15601143 0.041185617
-0.15493824 0.15601143 0.041185617
-0.13260745 0.15601143 0.041185617
-0.11027664 0.15601143 0.041185617
-0.087945849 0.15601143 0.041185617
-0.065615065 0.15601143 0.041185617
-0.043284267 0.15601143 0.041185617
-0.020953478 0.15601143 0.041185617
0.0013773143 0.15601143 0.041185617
0.023708107 0.15601143 0.041185617
0.0460389 0.15601143 0.041185617
0.068369694 0.15601143 0.041185617
0.090700477 0.15601143 0.041185617
0.11303128 0.15601143 0.041185617
0.13536206 0.15601143 0.041185617
0.15769285 0.15601143 0.041185617
0.18002366 0.15601143 0.041185617
0.20235445 0.15601143 0.041185617
0.22468524 0.15601143 0.041185617
0.24701601 0.15601143 0.041185617
0.26934683 0.15601143 0.041185617
0.29167759 0.15601143 0.041185617
0.31400841 0.15601143 0.041185617
0.33633921 0.15601143 0.041185617
-0.33532217 0.17888534 0.055293322
-0.31288278 0.17888534 0.055293322
-0.29044339 0.17888534 0.055293322
-0.268004 0.17888534 0.055293322
-0.24556461 0.17888534 0.055293322
-0.22312522 0.17888534 0.055293322
-0.20068583 0.17888534 0.055293322
-0.17824642 0.17888534 0.055293322
-0.15580703 0.17888534 0.055293322
-0.13336764 0.17888534 0.055293322
-0.11092825 0.17888534 0.055293322
-0.088488862 0.17888534 0.055293322
-0.066049464 0.17888534 0.055293322
-0.043610074 0.17888534 0.055293322
-0.021170678 0.17888534 0.055293322
0.0012687147 0.17888534 0.055293322
0.023708107 0.17888534 0.055293322
0.046147499 0.17888534 0.055293322
0.068586893 0.17888534 0.055293322
0.091026284 0.17888534 0.055293322
0.11346567 0.17888534 0.055293322
0.13590507 0.17888534 0.055293322
0.15834446 0.17888534 0.055293322
0.18078385 0.17888534 0.055293322
0.20322324 0.17888534 0.055293322
0.22566263 0.17888534 0.055293322
0.24810204 0.17888534 0.055293322
0.27054143 0.17888534 0.055293322
0.29298082 0.17888534 0.055293322
0.31542021 0.17888534 0.055293322
0.3378596 0.17888534 0.055293322
-0.33725128 -0.67779034 0.070955276
-0.31469131 -0.67779034 0.070955276
-0.29213133 -0.67779034 0.070955276
-0.26957139 -0.67779034 0.070955276
-0.24701142 -0.67779034 0.070955276
-0.22445147 -0.67779034 0.070955276
-0.20189029 -0.67778635 0.070939541
-0.17933045 -0.67778635 0.070939541
-0.15677062 -0.67778635 0.070939541
-0.13421077 -0.67778635 0.070939541
-0.11165093 -0.67778635 0.070939541
-0.089091092 -0.67778635 0.070939541
-0.066531256 -0.67778635 0.070939541
-0.043971412 -0.67778635 0.070939541
-0.021411574 -0.67778635 0.070939541
0.0011482667 -0.67778635 0.070939541
0.023708107 -0.67778635 0.070939541
0.046267949 -0.67778635 0.070939541
0.068827786 -0.67778635 0.070939541
0.091387622 -0.67778635 0.070939541
0.11394747 -0.67778635 0.070939541
0.13650912 -0.67779839 0.070986867
0.15906931 -0.67779839 0.070986867
0.18162952 -0.67779839 0.070986867
0.20418973 -0.67779839 0.070986867
0.22674884 -0.67779434 0.070971131
0.24930891 -0.67779434 0.070971131
0.271869 -0.67779434 0.070971131
0.29442763 -0.67779034 0.070955276
0.3169876 -0.67779034 0.070955276
-0.33707485 0.20198199 0.069523096
-0.3145259 0.20198199 0.069523096
-0.29197699 0.20198199 0.069523096
-0.26942807 0.20198199 0.069523096
-0.2468791 0.20198199 0.069523096
-0.22433019 0.20198199 0.069523096
-0.20178124 0.20198199 0.069523096
-0.17923231 0.20198199 0.069523096
-0.15668337 0.20198199 0.069523096
-0.13413444 0.20198199 0.069523096
-0.1115855 0.20198199 0.069523096
-0.089036569 0.20198199 0.069523096
-0.066487633 0.20198199 0.069523096
-0.043938696 0.20198199 0.069523096
-0.021389762 0.20198199 0.069523096
0.0011591725 0.20198199 0.069523096
0.023708107 0.20198199 0.069523096
0.046257041 0.20198199 0.069523096
0.068805978 0.20198199 0.069523096
0.091354907 0.20198199 0.069523096
0.11390384 0.20198199 0.069523096
0.13645278 0.20198199 0.069523096
0.15900171 0.20198199 0.069523096
0.18155065 0.20198199 0.069523096
0.20409958 0.20198199 0.069523096
0.22664852 0.20198199 0.069523096
0.24919745 0.20198199 0.069523096
0.2717464 0.20198199 0.069523096
0.29429531 0.20198199 0.069523096
0.31684428 0.20198199 0.069523096
-0.31618699 0.22530603 0.083908558
-0.29352733 0.22530603 0.083908558
-0.27086765 0.22530603 0.083908558
-0.24820799 0.22530603 0.083908558
-0.22554831 0.22530603 0.083908558
-0.20288864 0.22530603 0.083908558
-0.18022895 0.22530603 0.083908558
-0.15756929 0.22530603 0.083908558
-0.13490961 0.22530603 0.083908558
-0.11224994 0.22530603 0.083908558
-0.089590266 0.22530603 0.083908558
-0.066930592 0.22530603 0.083908558
-0.044270918 0.22530603 0.083908558
-0.021611242 0.22530603 0.083908558
0.0010484327 0.22530603 0.083908558
0.023708107 0.22530603 0.083908558
0.046367779 0.22530603 0.083908558
0.069027454 0.22530603 0.083908558
0.091687128 0.22530603 0.083908558
0.1143468 0.22530603 0.083908558
0.13700648 0.22530603 0.083908558
0.15966615 0.22530603 0.083908558
0.18232583 0.22530603 0.083908558
0.2049855 0.22530603 0.083908558
0.22764516 0.22530603 0.083908558
0.25030485 0.22530603 0.083908558
0.27296454 0.22530603 0.083908558
0.2956242 0.22530603 0.083908558
0.31828386 0.22530603 0.083908558
-0.31786448 0.2488603 0.098435879
-0.29509297 0.2488603 0.098435879
-0.27232146 0.2488603 0.098435879
-0.24954996 0.2488603 0.098435879
-0.22677845 0.2488603 0.098435879
-0.20400694 0.2488603 0.098435879
-0.18123545 0.2488603 0.098435879
-0.15846394 0.2488603 0.098435879
