ply
format ascii 1.0
comment PCL generated
element vertex 1356
property float x
property float y
property float z
element camera 0
property float view_px
property float view_py
property float view_pz
property float x_axisx
property float x_axisy
property float x_axisz
property float y_axisx
property float y_axisy
property float y_axisz
property float z_axisx
property float z_axisy
property float z_axisz
property float focal
property float scalex
property float scaley
property float centerx
property float centery
property int viewportx
property int viewporty
property float k1
property float k2
end_header
0.1069952 -0.2584618 -0.22500837
0.13025531 -0.2584618 -0.22500837
0.15351546 -0.2584618 -0.22500837
0.17677559 -0.2584618 -0.22500837
0.20003572 -0.2584618 -0.22500837
0.22329585 -0.2584618 -0.22500837
0.24655597 -0.2584618 -0.22500837
0.26981613 -0.2584618 -0.22500837
0.29307625 -0.2584618 -0.22500837
0.31633636 -0.2584618 -0.22500837
0.33959651 -0.2584618 -0.22500837
0.36285666 -0.2584618 -0.22500837
-0.26622471 -0.51670325 -0.21355724
-0.24329662 -0.51773465 -0.20859516
-0.22029336 -0.51876938 -0.20361698
-0.19693579 -0.51897109 -0.20264626
-0.17350352 -0.51897109 -0.20264626
-0.15007126 -0.51897109 -0.20264626
-0.12663898 -0.51897109 -0.20264626
-0.10320671 -0.51897109 -0.20264626
-0.079774424 -0.51897109 -0.20264626
-0.056342155 -0.51897109 -0.20264626
-0.032909878 -0.51897109 -0.20264626
-0.0094776051 -0.51897109 -0.20264626
0.013954668 -0.51897109 -0.20264626
0.037386943 -0.51897109 -0.20264626
0.060819216 -0.51897109 -0.20264626
0.084251493 -0.51897109 -0.20264626
0.10768376 -0.51897109 -0.20264626
0.13111605 -0.51897109 -0.20264626
0.15454832 -0.51897109 -0.20264626
0.1779806 -0.51897109 -0.20264626
0.20141286 -0.51897109 -0.20264626
0.22474375 -0.5186671 -0.20410955
0.24778168 -0.51763248 -0.20908618
0.27074435 -0.51660168 -0.21404636
-0.35985547 -0.23674682 -0.21162772
-0.33649236 -0.23674682 -0.21162772
-0.31312925 -0.23674682 -0.21162772
-0.28976607 -0.23674682 -0.21162772
-0.26640296 -0.23674682 -0.21162772
-0.24303982 -0.23674682 -0.21162772
-0.21967667 -0.23674682 -0.21162772
-0.19631353 -0.23674682 -0.21162772
-0.1729504 -0.23674682 -0.21162772
-0.14958729 -0.23674682 -0.21162772
-0.12622415 -0.23674682 -0.21162772
-0.102861 -0.23674682 -0.21162772
-0.079497866 -0.23674682 -0.21162772
-0.056134738 -0.23674682 -0.21162772
-0.032771599 -0.23674682 -0.21162772
-0.0094084637 -0.23674682 -0.21162772
0.013954668 -0.23674682 -0.21162772
0.037317801 -0.23674682 -0.21162772
0.060680937 -0.23674682 -0.21162772
0.084044077 -0.23674682 -0.21162772
0.1074072 -0.23674682 -0.21162772
0.13077034 -0.23674682 -0.21162772
0.15413348 -0.23674682 -0.21162772
0.17749663 -0.23674682 -0.21162772
0.20085974 -0.23674682 -0.21162772
0.22422287 -0.23674682 -0.21162772
0.24758601 -0.23674682 -0.21162772
0.27094916 -0.23674682 -0.21162772
0.2943123 -0.23674682 -0.21162772
0.31767541 -0.23674682 -0.21162772
0.34103858 -0.23674682 -0.21162772
0.3644017 -0.23674682 -0.21162772
-0.36152005 -0.21484005 -0.1981132
-0.3380529 -0.21484005 -0.1981132
-0.31458572 -0.21484005 -0.1981132
-0.29111853 -0.21484005 -0.1981132
-0.26765138 -0.21484005 -0.1981132
-0.2441842 -0.21484005 -0.1981132
-0.22071704 -0.21484005 -0.1981132
-0.19724986 -0.21484005 -0.1981132
-0.17378269 -0.21484005 -0.1981132
-0.15031552 -0.21484005 -0.1981132
-0.12684835 -0.21484005 -0.1981132
-0.10338119 -0.21484005 -0.1981132
-0.079914011 -0.21484005 -0.1981132
-0.056446843 -0.21484005 -0.1981132
-0.032979671 -0.21484005 -0.1981132
-0.0095125018 -0.21484005 -0.1981132
0.013954668 -0.21484005 -0.1981132
0.037421837 -0.21484005 -0.1981132
0.060889009 -0.21484005 -0.1981132
0.084356181 -0.21484005 -0.1981132
0.10782335 -0.21484005 -0.1981132
0.13129053 -0.21484005 -0.1981132
0.15475769 -0.21484005 -0.1981132
0.17822486 -0.21484005 -0.1981132
0.20169203 -0.21484005 -0.1981132
0.2251592 -0.21484005 -0.1981132
0.24862638 -0.21484005 -0.1981132
0.27209353 -0.21484005 -0.1981132
0.29556072 -0.21484005 -0.1981132
0.31902787 -0.21484005 -0.1981132
0.34249505 -0.21484005 -0.1981132
0.36596224 -0.21484005 -0.1981132
-0.36319765 -0.19273597 -0.18449283
-0.33962563 -0.19273597 -0.18449283
-0.3160536 -0.19273597 -0.18449283
-0.2924816 -0.19273597 -0.18449283
-0.26890957 -0.19273597 -0.18449283
-0.24533755 -0.19273597 -0.18449283
-0.22176553 -0.19273597 -0.18449283
-0.19819351 -0.19273597 -0.18449283
-0.17462148 -0.19273597 -0.18449283
-0.15104946 -0.19273597 -0.18449283
-0.12747745 -0.19273597 -0.18449283
-0.10390543 -0.19273597 -0.18449283
-0.080333412 -0.19273597 -0.18449283
-0.056761391 -0.19273597 -0.18449283
-0.033189371 -0.19273597 -0.18449283
-0.0096173519 -0.19273597 -0.18449283
0.013954668 -0.19273597 -0.18449283
0.037526689 -0.19273597 -0.18449283
0.06109871 -0.19273597 -0.18449283
0.08467073 -0.19273597 -0.18449283
0.10824275 -0.19273597 -0.18449283
0.13181476 -0.19273597 -0.18449283
0.15538679 -0.19273597 -0.18449283
0.1789588 -0.19273597 -0.18449283
0.20253082 -0.19273597 -0.18449283
0.22610284 -0.19273597 -0.18449283
0.24967487 -0.19273597 -0.18449283
0.27324688 -0.19273597 -0.18449283
0.29681891 -0.19273597 -0.18449283
0.32039094 -0.19273597 -0.18449283
0.34396294 -0.19273597 -0.18449283
0.36753497 -0.19273597 -0.18449283
-0.3641777 -0.54803145 -0.17653537
-0.34113148 -0.54912722 -0.17145169
-0.31800878 -0.55022657 -0.16635096
-0.29480928 -0.55132973 -0.16123331
0.29892075 -0.55122054 -0.16173971
0.32215595 -0.55011785 -0.16685581
0.3453142 -0.54901874 -0.17195475
0.36839589 -0.54792333 -0.177037
-0.36489218 -0.17043492 -0.17073476
-0.34121427 -0.17043492 -0.17073476
-0.31753632 -0.17043492 -0.17073476
-0.29385841 -0.17043492 -0.17073476
-0.27018046 -0.17043492 -0.17073476
-0.24650255 -0.17043492 -0.17073476
-0.22282462 -0.17043492 -0.17073476
-0.1991467 -0.17043492 -0.17073476
-0.17546876 -0.17043492 -0.17073476
-0.15179083 -0.17043492 -0.17073476
-0.1281129 -0.17043492 -0.17073476
-0.10443497 -0.17043492 -0.17073476
-0.080757044 -0.17043492 -0.17073476
-0.057079114 -0.17043492 -0.17073476
-0.033401188 -0.17043492 -0.17073476
-0.0097232601 -0.17043492 -0.17073476
0.013954668 -0.17043492 -0.17073476
0.037632596 -0.17043492 -0.17073476
0.061310526 -0.17043492 -0.17073476
0.084988452 -0.17043492 -0.17073476
0.10866638 -0.17043492 -0.17073476
0.13234431 -0.17043492 -0.17073476
0.15602224 -0.17043492 -0.17073476
0.17970017 -0.17043492 -0.17073476
0.2033781 -0.17043492 -0.17073476
0.22705604 -0.17043492 -0.17073476
0.25073394 -0.17043492 -0.17073476
0.27441189 -0.17043492 -0.17073476
0.2980898 -0.17043492 -0.17073476
0.32176775 -0.17043492 -0.17073476
0.34544566 -0.17043492 -0.17073476
0.36912361 -0.17043492 -0.17073476
-0.27153111 -0.55243325 -0.15611386
-0.24817687 -0.55354357 -0.15096211
-0.22474463 -0.5546577 -0.14579296
0.22874862 -0.55454755 -0.14630449
0.25221682 -0.55343378 -0.15147197
0.27560693 -0.5523237 -0.15662193
-0.3666001 -0.14793116 -0.15686822
-0.34281543 -0.14793116 -0.15686822
-0.31903076 -0.14793116 -0.15686822
-0.29524609 -0.14793116 -0.15686822
-0.2714614 -0.14793116 -0.15686822
-0.24767676 -0.14793116 -0.15686822
-0.22389206 -0.14793116 -0.15686822
-0.2001074 -0.14793116 -0.15686822
-0.17632271 -0.14793116 -0.15686822
-0.15253805 -0.14793116 -0.15686822
-0.12875336 -0.14793116 -0.15686822
-0.1049687 -0.14793116 -0.15686822
-0.081184022 -0.14793116 -0.15686822
-0.057399347 -0.14793116 -0.15686822
-0.033614676 -0.14793116 -0.15686822
-0.0098300045 -0.14793116 -0.15686822
0.013954668 -0.14793116 -0.15686822
0.03773934 -0.14793116 -0.15686822
0.061524015 -0.14793116 -0.15686822
0.085308686 -0.14793116 -0.15686822
0.10909336 -0.14793116 -0.15686822
0.13287804 -0.14793116 -0.15686822
0.1566627 -0.14793116 -0.15686822
0.18044738 -0.14793116 -0.15686822
0.20423205 -0.14793116 -0.15686822
0.22801673 -0.14793116 -0.15686822
0.2518014 -0.14793116 -0.15686822
0.2755861 -0.14793116 -0.15686822
0.29937074 -0.14793116 -0.15686822
0.32315543 -0.14793116 -0.15686822
0.3469401 -0.14793116 -0.15686822
0.37072477 -0.14793116 -0.15686822
-0.36832544 -0.12522475 -0.14286041
-0.34443292 -0.12522475 -0.14286041
-0.32054043 -0.12522475 -0.14286041
-0.29664791 -0.12522475 -0.14286041
-0.27275538 -0.12522475 -0.14286041
-0.24886289 -0.12522475 -0.14286041
-0.22497039 -0.12522475 -0.14286041
-0.20107789 -0.12522475 -0.14286041
-0.1771854 -0.12522475 -0.14286041
-0.15329288 -0.12522475 -0.14286041
-0.12940036 -0.12522475 -0.14286041
-0.10550786 -0.12522475 -0.14286041
-0.081615359 -0.12522475 -0.14286041
-0.057722844 -0.12522475 -0.14286041
-0.033830345 -0.12522475 -0.14286041
-0.0099378387 -0.12522475 -0.14286041
0.013954668 -0.12522475 -0.14286041
0.037847176 -0.12522475 -0.14286041
0.061739683 -0.12522475 -0.14286041
0.085632183 -0.12522475 -0.14286041
0.1095247 -0.12522475 -0.14286041
0.13341719 -0.12522475 -0.14286041
0.1573097 -0.12522475 -0.14286041
0.18120222 -0.12522475 -0.14286041
0.20509474 -0.12522475 -0.14286041
0.22898723 -0.12522475 -0.14286041
0.25287971 -0.12522475 -0.14286041
0.27677223 -0.12522475 -0.14286041
0.30066472 -0.12522475 -0.14286041
0.32455724 -0.12522475 -0.14286041
0.34844977 -0.12522475 -0.14286041
0.37234226 -0.12522475 -0.14286041
-0.20123404 -0.55577564 -0.14060688
-0.17764464 -0.55689728 -0.13540304
-0.15397607 -0.55802262 -0.13018191
-0.13022792 -0.55915189 -0.12494338
-0.10621322 -0.55923986 -0.12453485
-0.082179643 -0.55923986 -0.12453485
-0.05814606 -0.55923986 -0.12453485
-0.034112487 -0.55923986 -0.12453485
-0.01007891 -0.55923986 -0.12453485
0.013954668 -0.55923986 -0.12453485
0.037988245 -0.55923986 -0.12453485
0.062021825 -0.55923986 -0.12453485
0.086055398 -0.55923986 -0.12453485
0.11008898 -0.55923986 -0.12453485
0.13408686 -0.55903995 -0.1254617
0.15787144 -0.55791128 -0.13069868
0.18157631 -0.55678618 -0.13591802
0.20520189 -0.55566502 -0.14112008
-0.37006646 -0.10231158 -0.12872493
-0.34606513 -0.10231158 -0.12872493
-0.32206383 -0.10231158 -0.12872493
-0.2980625 -0.10231158 -0.12872493
-0.27406117 -0.10231158 -0.12872493
-0.25005984 -0.10231158 -0.12872493
-0.22605854 -0.10231158 -0.12872493
-0.20205721 -0.10231158 -0.12872493
-0.1780559 -0.10231158 -0.12872493
-0.15405458 -0.10231158 -0.12872493
-0.13005325 -0.10231158 -0.12872493
-0.10605194 -0.10231158 -0.12872493
-0.082050614 -0.10231158 -0.12872493
-0.058049291 -0.10231158 -0.12872493
-0.034047972 -0.10231158 -0.12872493
-0.010046653 -0.10231158 -0.12872493
0.013954668 -0.10231158 -0.12872493
0.037955988 -0.10231158 -0.12872493
0.061957311 -0.10231158 -0.12872493
0.08595863 -0.10231158 -0.12872493
0.10995995 -0.10231158 -0.12872493
0.13396128 -0.10231158 -0.12872493
0.15796259 -0.10231158 -0.12872493
0.18196392 -0.10231158 -0.12872493
0.20596524 -0.10231158 -0.12872493
0.22996655 -0.10231158 -0.12872493
0.25396788 -0.10231158 -0.12872493
0.27796918 -0.10231158 -0.12872493
0.30197051 -0.10231158 -0.12872493
0.32597184 -0.10231158 -0.12872493
0.34997317 -0.10231158 -0.12872493
-0.37142834 -0.58480644 -0.11766779
-0.34795168 -0.5859853 -0.11238694
-0.32439566 -0.58716822 -0.10708821
0.32808465 -0.58705115 -0.10761249
0.35167763 -0.58586872 -0.11290944
-0.37182146 -0.079187736 -0.11447608
-0.34771046 -0.079187736 -0.11447608
-0.32359946 -0.079187736 -0.11447608
-0.29948846 -0.079187736 -0.11447608
-0.27537742 -0.079187736 -0.11447608
-0.25126642 -0.079187736 -0.11447608
-0.22715542 -0.079187736 -0.11447608
-0.2030444 -0.079187736 -0.11447608
-0.1789334 -0.079187736 -0.11447608
-0.15482239 -0.079187736 -0.11447608
-0.13071138 -0.079187736 -0.11447608
-0.10660037 -0.079187736 -0.11447608
-0.082489364 -0.079187736 -0.11447608
-0.058378354 -0.079187736 -0.11447608
-0.034267347 -0.079187736 -0.11447608
-0.01015634 -0.079187736 -0.11447608
0.013954668 -0.079187736 -0.11447608
0.038065676 -0.079187736 -0.11447608
0.062176686 -0.079187736 -0.11447608
0.086287692 -0.079187736 -0.11447608
0.1103987 -0.079187736 -0.11447608
0.13450971 -0.079187736 -0.11447608
0.15862072 -0.079187736 -0.11447608
0.18273173 -0.079187736 -0.11447608
0.20684274 -0.079187736 -0.11447608
0.23095374 -0.079187736 -0.11447608
0.25506476 -0.079187736 -0.11447608
0.27917576 -0.079187736 -0.11447608
0.30328676 -0.079187736 -0.11447608
0.32739779 -0.079187736 -0.11447608
0.3515088 -0.079187736 -0.11447608
-0.27704385 -0.58954608 -0.096436739
-0.25324586 -0.59073746 -0.091099858
0.23290971 -0.59182143 -0.086244345
0.2568247 -0.5906229 -0.09161377
0.2806586 -0.58942819 -0.096964598
-0.30075985 -0.58835506 -0.10177147
0.30441177 -0.58823776 -0.10229778
-0.34937274 -0.055852562 -0.10008037
-0.32515091 -0.055852562 -0.10008037
-0.3009291 -0.055852562 -0.10008037
-0.27670726 -0.055852562 -0.10008037
-0.25248542 -0.055852562 -0.10008037
-0.2282636 -0.055852562 -0.10008037
-0.20404176 -0.055852562 -0.10008037
-0.17981994 -0.055852562 -0.10008037
-0.15559812 -0.055852562 -0.10008037
-0.1313763 -0.055852562 -0.10008037
-0.10715447 -0.055852562 -0.10008037
-0.082932636 -0.055852562 -0.10008037
-0.058710814 -0.055852562 -0.10008037
-0.034488983 -0.055852562 -0.10008037
-0.010267158 -0.055852562 -0.10008037
0.013954668 -0.055852562 -0.10008037
0.038176496 -0.055852562 -0.10008037
0.062398322 -0.055852562 -0.10008037
0.086620152 -0.055852562 -0.10008037
0.11084197 -0.055852562 -0.10008037
0.1350638 -0.055852562 -0.10008037
0.15928563 -0.055852562 -0.10008037
0.18350746 -0.055852562 -0.10008037
0.20772928 -0.055852562 -0.10008037
0.2319511 -0.055852562 -0.10008037
0.25617293 -0.055852562 -0.10008037
0.28039476 -0.055852562 -0.10008037
0.3046166 -0.055852562 -0.10008037
0.32883844 -0.055852562 -0.10008037
0.35306025 -0.055852562 -0.10008037
-0.22936836 -0.59193659 -0.085729003
-0.20540944 -0.59313953 -0.080339789
-0.18136869 -0.594347 -0.07493186
-0.15724567 -0.59555829 -0.069505572
0.16067377 -0.59544206 -0.070026398
0.18483464 -0.59423101 -0.075450778
0.20891316 -0.59302425 -0.080856562
-0.35104847 -0.032300919 -0.085567951
-0.32671496 -0.032300919 -0.085567951
-0.3023814 -0.032300919 -0.085567951
-0.27804786 -0.032300919 -0.085567951
-0.25371432 -0.032300919 -0.085567951
-0.22938079 -0.032300919 -0.085567951
-0.20504723 -0.032300919 -0.085567951
-0.18071368 -0.032300919 -0.085567951
-0.15638015 -0.032300919 -0.085567951
-0.1320466 -0.032300919 -0.085567951
-0.10771306 -0.032300919 -0.085567951
-0.083379507 -0.032300919 -0.085567951
-0.059045963 -0.032300919 -0.085567951
-0.034712419 -0.032300919 -0.085567951
-0.010378876 -0.032300919 -0.085567951
0.013954668 -0.032300919 -0.085567951
0.038288213 -0.032300919 -0.085567951
0.062621757 -0.032300919 -0.085567951
0.086955301 -0.032300919 -0.085567951
0.11128885 -0.032300919 -0.085567951
0.1356224 -0.032300919 -0.085567951
0.15995593 -0.032300919 -0.085567951
0.18428949 -0.032300919 -0.085567951
0.20862302 -0.032300919 -0.085567951
0.23295657 -0.032300919 -0.085567951
0.25729012 -0.032300919 -0.085567951
0.28162366 -0.032300919 -0.085567951
0.3059572 -0.032300919 -0.085567951
0.33029073 -0.032300919 -0.085567951
0.3546243 -0.032300919 -0.085567951
-0.35274166 -0.0085318238 -0.070904613
-0.32829523 -0.0085318238 -0.070904613
-0.30384883 -0.0085318238 -0.070904613
-0.27940241 -0.0085318238 -0.070904613
-0.25495598 -0.0085318238 -0.070904613
-0.23050956 -0.0085318238 -0.070904613
-0.20606314 -0.0085318238 -0.070904613
-0.18161671 -0.0085318238 -0.070904613
-0.15717028 -0.0085318238 -0.070904613
-0.13272387 -0.0085318238 -0.070904613
-0.10827745 -0.0085318238 -0.070904613
-0.08383102 -0.0085318238 -0.070904613
-0.059384599 -0.0085318238 -0.070904613
-0.034938175 -0.0085318238 -0.070904613
-0.010491754 -0.0085318238 -0.070904613
0.013954668 -0.0085318238 -0.070904613
0.03840109 -0.0085318238 -0.070904613
0.06284751 -0.0085318238 -0.070904613
0.087293938 -0.0085318238 -0.070904613
0.11174036 -0.0085318238 -0.070904613
0.13618678 -0.0085318238 -0.070904613
0.16063321 -0.0085318238 -0.070904613
0.18507962 -0.0085318238 -0.070904613
0.20952605 -0.0085318238 -0.070904613
0.23397247 -0.0085318238 -0.070904613
0.25841889 -0.0085318238 -0.070904613
0.28286532 -0.0085318238 -0.070904613
0.30731174 -0.0085318238 -0.070904613
0.33175817 -0.0085318238 -0.070904613
0.35620457 -0.0085318238 -0.070904613
-0.35503903 -0.62428713 -0.05100894
0.35829198 -0.62416542 -0.051535726
-0.13303997 -0.59677374 -0.064060807
-0.10875115 -0.59799349 -0.058597207
-0.084378295 -0.59921384 -0.053131342
0.087692626 -0.59909987 -0.053640962
0.11210319 -0.59787655 -0.05912137
0.13643008 -0.59665716 -0.064583302
-0.35444874 0.015459277 -0.056120992
-0.32988849 0.015459277 -0.056120992
-0.30532828 0.015459277 -0.056120992
-0.28076804 0.015459277 -0.056120992
-0.25620782 0.015459277 -0.056120992
-0.2316476 0.015459277 -0.056120992
-0.20708738 0.015459277 -0.056120992
-0.18252714 0.015459277 -0.056120992
-0.15796691 0.015459277 -0.056120992
-0.13340668 0.015459277 -0.056120992
-0.10884646 0.015459277 -0.056120992
-0.084286235 0.015459277 -0.056120992
-0.059726007 0.015459277 -0.056120992
-0.035165783 0.015459277 -0.056120992
-0.010605558 0.015459277 -0.056120992
0.013954668 0.015459277 -0.056120992
0.038514894 0.015459277 -0.056120992
0.063075118 0.015459277 -0.056120992
0.087635346 0.015459277 -0.056120992
0.11219557 0.015459277 -0.056120992
0.13675579 0.015459277 -0.056120992
0.16131602 0.015459277 -0.056120992
0.18587625 0.015459277 -0.056120992
0.21043648 0.015459277 -0.056120992
0.23499672 0.015459277 -0.056120992
0.25955692 0.015459277 -0.056120992
0.28411716 0.015459277 -0.056120992
0.30867738 0.015459277 -0.056120992
0.33323762 0.015459277 -0.056120992
0.35779783 0.015459277 -0.056120992
-0.30694428 -0.6268357 -0.039972901
-0.28277212 -0.62811661 -0.034426212
0.28590918 -0.62799382 -0.034958482
0.31012011 -0.62671328 -0.040503502
-0.33103311 -0.62555921 -0.045500398
0.33424756 -0.62543702 -0.046029091
-0.059922099 -0.60044181 -0.04763031
-0.035378691 -0.60163355 -0.042292118
-0.010712012 -0.60163355 -0.042292118
0.013954668 -0.60163355 -0.042292118
0.038618799 -0.60155952 -0.042623281
0.06319797 -0.60032761 -0.048141599
-0.35617366 0.039674528 -0.041182637
-0.33149844 0.039674528 -0.041182637
-0.30682322 0.039674528 -0.041182637
-0.28214797 0.039674528 -0.041182637
-0.25747278 0.039674528 -0.041182637
-0.23279756 0.039674528 -0.041182637
-0.20812233 0.039674528 -0.041182637
-0.18344711 0.039674528 -0.041182637
-0.15877189 0.039674528 -0.041182637
-0.13409665 0.039674528 -0.041182637
-0.10942145 0.039674528 -0.041182637
-0.084746219 0.039674528 -0.041182637
-0.060070992 0.039674528 -0.041182637
-0.035395775 0.039674528 -0.041182637
-0.010720554 0.039674528 -0.041182637
0.013954668 0.039674528 -0.041182637
0.038629889 0.039674528 -0.041182637
0.06330511 0.039674528 -0.041182637
0.08798033 0.039674528 -0.041182637
0.11265556 0.039674528 -0.041182637
0.13733079 0.039674528 -0.041182637
0.16200599 0.039674528 -0.041182637
0.18668123 0.039674528 -0.041182637
0.21135645 0.039674528 -0.041182637
0.23603167 0.039674528 -0.041182637
0.2607069 0.039674528 -0.041182637
0.28538212 0.039674528 -0.041182637
0.31005731 0.039674528 -0.041182637
0.33473256 0.039674528 -0.041182637
0.35940778 0.039674528 -0.041182637
-0.25851619 -0.62940204 -0.02886045
-0.23417476 -0.63068819 -0.023292065
-0.20975012 -0.63198245 -0.01768744
-0.18524037 -0.63328123 -0.012063384
0.18822217 -0.63316035 -0.012586236
0.21277128 -0.63186193 -0.018208504
0.2372352 -0.63056803 -0.023811221
0.26161432 -0.62927878 -0.029394627
-0.3579129 0.064117849 -0.026120305
-0.33312172 0.064117849 -0.026120305
-0.30833054 0.064117849 -0.026120305
-0.28353938 0.064117849 -0.026120305
-0.2587482 0.064117849 -0.026120305
-0.23395705 0.064117849 -0.026120305
-0.20916587 0.064117849 -0.026120305
-0.18437469 0.064117849 -0.026120305
-0.15958352 0.064117849 -0.026120305
-0.13479236 0.064117849 -0.026120305
-0.11000119 0.064117849 -0.026120305
-0.08521001 0.064117849 -0.026120305
-0.060418844 0.064117849 -0.026120305
-0.035627671 0.064117849 -0.026120305
-0.010836503 0.064117849 -0.026120305
0.013954668 0.064117849 -0.026120305
0.038745839 0.064117849 -0.026120305
0.063537009 0.064117849 -0.026120305
0.088328183 0.064117849 -0.026120305
0.11311935 0.064117849 -0.026120305
0.13791053 0.064117849 -0.026120305
0.1627017 0.064117849 -0.026120305
0.18749286 0.064117849 -0.026120305
0.21228403 0.064117849 -0.026120305
0.23707521 0.064117849 -0.026120305
0.26186639 0.064117849 -0.026120305
0.28665754 0.064117849 -0.026120305
0.31144872 0.064117849 -0.026120305
0.33623987 0.064117849 -0.026120305
0.36103106 0.064117849 -0.026120305
-0.16064513 -0.63458455 -0.0064197779
-0.13596389 -0.63589239 -0.00075626373
-0.11119621 -0.63720489 0.0049270391
0.11405858 -0.637079 0.0043815374
0.13886653 -0.6357708 -0.0012828112
0.16358739 -0.63446343 -0.0069442987
-0.35967049 0.088791937 -0.010899186
-0.33476216 0.088791937 -0.010899186
-0.30985382 0.088791937 -0.010899186
-0.28494546 0.088791937 -0.010899186
-0.26003712 0.088791937 -0.010899186
-0.23512878 0.088791937 -0.010899186
-0.21022044 0.088791937 -0.010899186
-0.18531209 0.088791937 -0.010899186
-0.16040374 0.088791937 -0.010899186
-0.13549539 0.088791937 -0.010899186
-0.11058705 0.088791937 -0.010899186
-0.085678712 0.088791937 -0.010899186
-0.060770363 0.088791937 -0.010899186
-0.035862021 0.088791937 -0.010899186
-0.010953677 0.088791937 -0.010899186
0.013954668 0.088791937 -0.010899186
0.038863014 0.088791937 -0.010899186
0.06377136 0.088791937 -0.010899186
0.088679701 0.088791937 -0.010899186
0.11358805 0.088791937 -0.010899186
0.13849638 0.088791937 -0.010899186
0.16340473 0.088791937 -0.010899186
0.18831308 0.088791937 -0.010899186
0.21322143 0.088791937 -0.010899186
0.23812978 0.088791937 -0.010899186
0.2630381 0.088791937 -0.010899186
0.28794646 0.088791937 -0.010899186
0.3128548 0.088791937 -0.010899186
0.33776316 0.088791937 -0.010899186
0.36267149 0.088791937 -0.010899186
-0.36144283 0.11370025 0.0044497252
-0.33641633 0.11370025 0.0044497252
-0.31138983 0.11370025 0.0044497252
-0.28636333 0.11370025 0.0044497252
-0.26133683 0.11370025 0.0044497252
-0.23631033 0.11370025 0.0044497252
-0.21128383 0.11370025 0.0044497252
-0.18625735 0.11370025 0.0044497252
-0.16123083 0.11370025 0.0044497252
-0.13620433 0.11370025 0.0044497252
-0.11117783 0.11370025 0.0044497252
-0.086151339 0.11370025 0.0044497252
-0.061124831 0.11370025 0.0044497252
-0.036098335 0.11370025 0.0044497252
-0.011071834 0.11370025 0.0044497252
0.013954668 0.11370025 0.0044497252
0.038981169 0.11370025 0.0044497252
0.06400767 0.11370025 0.0044497252
0.08903417 0.11370025 0.0044497252
0.11406068 0.11370025 0.0044497252
0.13908717 0.11370025 0.0044497252
0.16411367 0.11370025 0.0044497252
0.18914017 0.11370025 0.0044497252
0.21416669 0.11370025 0.0044497252
0.23919317 0.11370025 0.0044497252
0.26421967 0.11370025 0.0044497252
0.28924617 0.11370025 0.0044497252
0.31427267 0.11370025 0.0044497252
0.33929917 0.11370025 0.0044497252
0.36432567 0.11370025 0.0044497252
-0.36240947 -0.66411901 0.012821078
-0.33793616 -0.66548657 0.018552184
-0.31337667 -0.66685903 0.024303079
0.31605726 -0.66673136 0.023768544
0.34065714 -0.6653595 0.018019199
0.36517066 -0.66399217 0.01229012
-0.086341634 -0.63852203 0.010630131
-0.061399341 -0.63983977 0.016336322
-0.036362868 -0.64106274 0.021631718
-0.0112041 -0.64106274 0.021631718
0.013954668 -0.64106274 0.021631718
0.039112773 -0.64104283 0.021545768
0.064182483 -0.63971686 0.015804291
0.089164265 -0.63839555 0.01008296
-0.36323407 0.13884616 0.019962311
-0.33808815 0.13884616 0.019962311
-0.31294224 0.13884616 0.019962311
-0.28779629 0.13884616 0.019962311
-0.2626504 0.13884616 0.019962311
-0.23750448 0.13884616 0.019962311
-0.21235856 0.13884616 0.019962311
-0.18721265 0.13884616 0.019962311
-0.16206674 0.13884616 0.019962311
-0.13692081 0.13884616 0.019962311
-0.11177491 0.13884616 0.019962311
-0.086628988 0.13884616 0.019962311
-0.06148307 0.13884616 0.019962311
-0.03633716 0.13884616 0.019962311
-0.011191246 0.13884616 0.019962311
0.013954668 0.13884616 0.019962311
0.039100584 0.13884616 0.019962311
0.064246498 0.13884616 0.019962311
0.089392409 0.13884616 0.019962311
0.11453833 0.13884616 0.019962311
0.13968424 0.13884616 0.019962311
0.16483015 0.13884616 0.019962311
0.18997608 0.13884616 0.019962311
0.21512198 0.13884616 0.019962311
0.2402679 0.13884616 0.019962311
0.26541382 0.13884616 0.019962311
0.29055974 0.13884616 0.019962311
0.31570563 0.13884616 0.019962311
0.34085158 0.13884616 0.019962311
0.36599749 0.13884616 0.019962311
-0.28873044 -0.66823626 0.030074477
-0.26399714 -0.66961849 0.035866499
-0.23917487 -0.67100132 0.041661382
0.24173504 -0.67087662 0.04113853
0.2665967 -0.66948998 0.035328031
0.29137063 -0.66810822 0.029538274
-0.36504245 0.16423325 0.035623193
-0.33977595 0.16423325 0.035623193
-0.31450948 0.16423325 0.035623193
-0.28924301 0.16423325 0.035623193
-0.26397654 0.16423325 0.035623193
-0.23871008 0.16423325 0.035623193
-0.21344359 0.16423325 0.035623193
-0.18817714 0.16423325 0.035623193
-0.16291064 0.16423325 0.035623193
-0.13764417 0.16423325 0.035623193
-0.1123777 0.16423325 0.035623193
-0.087111235 0.16423325 0.035623193
-0.061844751 0.16423325 0.035623193
-0.036578283 0.16423325 0.035623193
-0.011311808 0.16423325 0.035623193
0.013954668 0.16423325 0.035623193
0.039221145 0.16423325 0.035623193
0.064487621 0.16423325 0.035623193
0.08975409 0.16423325 0.035623193
0.11502057 0.16423325 0.035623193
0.14028704 0.16423325 0.035623193
0.16555351 0.16423325 0.035623193
0.19081998 0.16423325 0.035623193
0.21608648 0.16423325 0.035623193
0.24135293 0.16423325 0.035623193
0.26661941 0.16423325 0.035623193
0.29188588 0.16423325 0.035623193
0.31715235 0.16423325 0.035623193
0.34241882 0.16423325 0.035623193
0.36768529 0.16423325 0.035623193
-0.21426605 -0.6723932 0.047494173
-0.18926866 -0.67379034 0.053347945
-0.16418231 -0.675192 0.059222341
0.16661829 -0.6750617 0.058676243
0.19174577 -0.67366028 0.052803636
0.21678521 -0.67226803 0.046969533
-0.36686623 0.18986432 0.051417828
-0.34147817 0.18986432 0.051417828
-0.31609011 0.18986432 0.051417828
-0.29070204 0.18986432 0.051417828
-0.26531401 0.18986432 0.051417828
-0.23992592 0.18986432 0.051417828
-0.21453787 0.18986432 0.051417828
-0.18914981 0.18986432 0.051417828
-0.16376175 0.18986432 0.051417828
-0.13837369 0.18986432 0.051417828
-0.11298563 0.18986432 0.051417828
-0.087597571 0.18986432 0.051417828
-0.062209509 0.18986432 0.051417828
-0.036821451 0.18986432 0.051417828
-0.011433392 0.18986432 0.051417828
0.013954668 0.18986432 0.051417828
0.039342728 0.18986432 0.051417828
0.064730786 0.18986432 0.051417828
0.090118848 0.18986432 0.051417828
0.11550691 0.18986432 0.051417828
0.14089496 0.18986432 0.051417828
0.16628303 0.18986432 0.051417828
0.19167109 0.18986432 0.051417828
0.21705915 0.18986432 0.051417828
0.24244721 0.18986432 0.051417828
0.26783526 0.18986432 0.051417828
0.29322335 0.18986432 0.051417828
0.31861138 0.18986432 0.051417828
0.34399945 0.18986432 0.051417828
0.36938751 0.18986432 0.051417828
-0.37008038 -0.70557451 0.079253078
0.37232974 -0.70544267 0.078718066
-0.13900648 -0.67659903 0.065117836
-0.11374068 -0.67801082 0.071034193
-0.088281445 -0.67862952 0.073627114
-0.062722415 -0.67862952 0.073627114
-0.037163388 -0.67862952 0.073627114
-0.01160436 -0.67862952 0.073627114
0.013954668 -0.67862952 0.073627114
0.039513696 -0.67862952 0.073627114
0.065072723 -0.67862952 0.073627114
0.090631753 -0.67862952 0.073627114
0.11609401 -0.67787957 0.070484281
0.1414012 -0.67646813 0.064569712
-0.36870968 0.21574411 0.067382574
-0.34319875 0.21574411 0.067382574
-0.31768778 0.21574411 0.067382574
-0.29217684 0.21574411 0.067382574
-0.26666585 0.21574411 0.067382574
-0.24115491 0.21574411 0.067382574
-0.21564394 0.21574411 0.067382574
-0.19013301 0.21574411 0.067382574
-0.16462204 0.21574411 0.067382574
-0.13911109 0.21574411 0.067382574
-0.11360012 0.21574411 0.067382574
-0.088089168 0.21574411 0.067382574
-0.062578209 0.21574411 0.067382574
-0.037067249 0.21574411 0.067382574
-0.011556291 0.21574411 0.067382574
0.013954668 0.21574411 0.067382574
0.039465629 0.21574411 0.067382574
0.064976588 0.21574411 0.067382574
0.090487547 0.21574411 0.067382574
0.11599851 0.21574411 0.067382574
0.14150946 0.21574411 0.067382574
0.16702043 0.21574411 0.067382574
0.19253138 0.21574411 0.067382574
0.21804234 0.21574411 0.067382574
0.24355328 0.21574411 0.067382574
0.26906425 0.21574411 0.067382574
0.29457518 0.21574411 0.067382574
0.32008618 0.21574411 0.067382574
0.34559712 0.21574411 0.067382574
0.37110808 0.21574411 0.067382574
-0.34512115 -0.70704448 0.085220337
-0.32007217 -0.70851958 0.091208935
-0.29493299 -0.71000016 0.09721911
0.29705438 -0.70986247 0.096660137
0.3222357 -0.70838249 0.090652108
0.34732848 -0.70691216 0.084683418
-0.37056905 0.24187472 0.083485007
-0.34493414 0.24187472 0.083485007
-0.31929922 0.24187472 0.083485007
-0.29366431 0.24187472 0.083485007
-0.26802939 0.24187472 0.083485007
-0.24239448 0.24187472 0.083485007
-0.21675956 0.24187472 0.083485007
-0.19112463 0.24187472 0.083485007
-0.16548973 0.24187472 0.083485007
-0.13985482 0.24187472 0.083485007
-0.1142199 0.24187472 0.083485007
-0.088584989 0.24187472 0.083485007
-0.062950075 0.24187472 0.083485007
-0.03731516 0.24187472 0.083485007
-0.011680246 0.24187472 0.083485007
0.013954668 0.24187472 0.083485007
0.039589584 0.24187472 0.083485007
0.065224499 0.24187472 0.083485007
0.090859413 0.24187472 0.083485007
0.11649433 0.24187472 0.083485007
0.14212924 0.24187472 0.083485007
0.16776416 0.24187472 0.083485007
0.19339907 0.24187472 0.083485007
0.21903397 0.24187472 0.083485007
0.2446689 0.24187472 0.083485007
0.27030382 0.24187472 0.083485007
0.29593873 0.24187472 0.083485007
0.32157364 0.24187472 0.083485007
0.34720856 0.24187472 0.083485007
0.37284347 0.24187472 0.083485007
-0.26970312 -0.71148598 0.10325086
-0.24438205 -0.71297729 0.10930443
-0.21896805 -0.71446943 0.11536181
0.22096342 -0.71433473 0.11481524
0.24641873 -0.71283853 0.10874152
0.27178222 -0.71134794 0.1026901
-0.37244862 0.26826167 0.099762797
-0.34668842 0.26826167 0.099762797
-0.32092819 0.26826167 0.099762797
-0.29516798 0.26826167 0.099762797
-0.26940775 0.26826167 0.099762797
-0.24364752 0.26826167 0.099762797
-0.21788731 0.26826167 0.099762797
-0.19212708 0.26826167 0.099762797
-0.16636688 0.26826167 0.099762797
-0.14060666 0.26826167 0.099762797
-0.11484642 0.26826167 0.099762797
-0.089086212 0.26826167 0.099762797
-0.063325994 0.26826167 0.099762797
-0.037565771 0.26826167 0.099762797
-0.011805552 0.26826167 0.099762797
0.013954668 0.26826167 0.099762797
0.039714888 0.26826167 0.099762797
0.065475106 0.26826167 0.099762797
0.091235332 0.26826167 0.099762797
0.11699555 0.26826167 0.099762797
0.14275576 0.26826167 0.099762797
0.168516 0.26826167 0.099762797
0.19427621 0.26826167 0.099762797
0.22003642 0.26826167 0.099762797
0.24579665 0.26826167 0.099762797
0.27155685 0.26826167 0.099762797
0.29731709 0.26826167 0.099762797
0.32307732 0.26826167 0.099762797
0.34883752 0.26826167 0.099762797
-0.34845796 0.29490662 0.11618221
-0.32257134 0.29490662 0.11618221
-0.29668471 0.29490662 0.11618221
-0.27079812 0.29490662 0.11618221
-0.24491149 0.29490662 0.11618221
-0.21902487 0.29490662 0.11618221
-0.19313826 0.29490662 0.11618221
-0.16725165 0.29490662 0.11618221
-0.14136502 0.29490662 0.11618221
-0.11547841 0.29490662 0.11618221
-0.089591794 0.29490662 0.11618221
-0.063705176 0.29490662 0.11618221
-0.037818562 0.29490662 0.11618221
-0.011931947 0.29490662 0.11618221
0.013954668 0.29490662 0.11618221
0.039841283 0.29490662 0.11618221
0.065727897 0.29490662 0.11618221
0.091614515 0.29490662 0.11618221
0.11750113 0.29490662 0.11618221
0.14338775 0.29490662 0.11618221
0.16927436 0.29490662 0.11618221
0.19516098 0.29490662 0.11618221
0.2210476 0.29490662 0.11618221
0.24693421 0.29490662 0.11618221
0.27282083 0.29490662 0.11618221
0.29870746 0.29490662 0.11618221
0.32459405 0.29490662 0.11618221
0.35048068 0.29490662 0.11618221
-0.19346325 -0.71597147 0.12145925
-0.16785096 -0.71741104 0.12730384
-0.14187872 -0.71741104 0.12730384
-0.11590649 -0.71741104 0.12730384
-0.08993426 -0.71741104 0.12730384
-0.063962027 -0.71741104 0.12730384
-0.037989795 -0.71741104 0.12730384
-0.012017564 -0.71741104 0.12730384
0.013954668 -0.71741104 0.12730384
0.039926901 -0.71741104 0.12730384
0.065899134 -0.71741104 0.12730384
0.091871366 -0.71741104 0.12730384
0.1178436 -0.71741104 0.12730384
0.14381583 -0.71741104 0.12730384
0.16977535 -0.71734333 0.12702858
0.19541579 -0.71583629 0.12091088
-0.35024697 0.3218154 0.13278174
-0.32423255 0.3218154 0.13278174
-0.29821816 0.3218154 0.13278174
-0.27220374 0.3218154 0.13278174
-0.24618936 0.3218154 0.13278174
-0.22017494 0.3218154 0.13278174
-0.19416054 0.3218154 0.13278174
-0.16814615 0.3218154 0.13278174
-0.14213175 0.3218154 0.13278174
-0.11611734 0.3218154 0.13278174
-0.090102933 0.3218154 0.13278174
-0.064088538 0.3218154 0.13278174
-0.038074132 0.3218154 0.13278174
-0.012059732 0.3218154 0.13278174
0.013954668 0.3218154 0.13278174
0.039969068 0.3218154 0.13278174
0.065983467 0.3218154 0.13278174
0.091997877 0.3218154 0.13278174
0.11801227 0.3218154 0.13278174
0.14402668 0.3218154 0.13278174
0.17004108 0.3218154 0.13278174
0.19605549 0.3218154 0.13278174
0.22206987 0.3218154 0.13278174
0.24808428 0.3218154 0.13278174
0.27409869 0.3218154 0.13278174
0.30011308 0.3218154 0.13278174
0.3261275 0.3218154 0.13278174
0.35214189 0.3218154 0.13278174
0.35427612 -0.75019264 0.15410817
-0.35205168 0.3489902 0.14952767
-0.32590836 0.3489902 0.14952767
-0.29976505 0.3489902 0.14952767
-0.27362174 0.3489902 0.14952767
-0.24747843 0.3489902 0.14952767
-0.22133513 0.3489902 0.14952767
-0.1951918 0.3489902 0.14952767
-0.1690485 0.3489902 0.14952767
-0.14290519 0.3489902 0.14952767
-0.11676188 0.3489902 0.14952767
-0.090618566 0.3489902 0.14952767
-0.064475261 0.3489902 0.14952767
-0.038331948 0.3489902 0.14952767
-0.01218864 0.3489902 0.14952767
0.013954668 0.3489902 0.14952767
0.040097978 0.3489902 0.14952767
0.066241287 0.3489902 0.14952767
0.092384599 0.3489902 0.14952767
0.1185279 0.3489902 0.14952767
0.14467122 0.3489902 0.14952767
0.17081453 0.3489902 0.14952767
0.19695784 0.3489902 0.14952767
0.22310114 0.3489902 0.14952767
0.24924447 0.3489902 0.14952767
0.27538776 0.3489902 0.14952767
0.30153108 0.3489902 0.14952767
0.32767439 0.3489902 0.14952767
0.3538177 0.3489902 0.14952767
-0.35260564 -0.75033462 0.1546675
-0.32704732 -0.7519201 0.1609087
-0.30139506 -0.75351155 0.16717279
0.27718654 -0.75496495 0.17289424
0.30297753 -0.75336814 0.16660917
0.32867387 -0.75177753 0.1603471
-0.35387641 0.37643671 0.16645885
-0.32760274 0.37643671 0.16645885
-0.30132911 0.37643671 0.16645885
-0.27505547 0.37643671 0.16645885
-0.24878183 0.37643671 0.16645885
-0.22250816 0.37643671 0.16645885
-0.19623452 0.37643671 0.16645885
-0.16996087 0.37643671 0.16645885
-0.14368722 0.37643671 0.16645885
-0.11741358 0.37643671 0.16645885
-0.09113992 0.37643671 0.16645885
-0.064866275 0.37643671 0.16645885
-0.038592625 0.37643671 0.16645885
-0.012318979 0.37643671 0.16645885
0.013954668 0.37643671 0.16645885
0.040228315 0.37643671 0.16645885
0.06650196 0.37643671 0.16645885
0.092775613 0.37643671 0.16645885
0.11904926 0.37643671 0.16645885
0.14532292 0.37643671 0.16645885
0.17159656 0.37643671 0.16645885
0.19787021 0.37643671 0.16645885
0.22414386 0.37643671 0.16645885
0.2504175 0.37643671 0.16645885
0.27669117 0.37643671 0.16645885
0.30296481 0.37643671 0.16645885
0.32923844 0.37643671 0.16645885
0.35551208 0.37643671 0.16645885
-0.2756483 -0.75510859 0.17345989
-0.24980649 -0.7567116 0.17977011
-0.22363777 -0.75747192 0.18276334
-0.19723861 -0.75747192 0.18276334
-0.17083944 -0.75747192 0.18276334
-0.14444028 -0.75747192 0.18276334
-0.11804113 -0.75747192 0.18276334
-0.09164197 -0.75747192 0.18276334
-0.065242805 -0.75747192 0.18276334
-0.03884365 -0.75747192 0.18276334
-0.01244449 -0.75747192 0.18276334
0.013954668 -0.75747192 0.18276334
0.040353827 -0.75747192 0.18276334
0.066752985 -0.75747192 0.18276334
0.093152143 -0.75747192 0.18276334
0.11955131 -0.75747192 0.18276334
0.14595047 -0.75747192 0.18276334
0.17234962 -0.75747192 0.18276334
0.19874878 -0.75747192 0.18276334
0.22514795 -0.75747192 0.18276334
0.25130039 -0.75656736 0.17920232
-0.35571736 0.40415677 0.18354118
-0.32931221 0.40415677 0.18354118
-0.30290708 0.40415677 0.18354118
-0.27650192 0.40415677 0.18354118
-0.2500968 0.40415677 0.18354118
-0.22369163 0.40415677 0.18354118
-0.19728652 0.40415677 0.18354118
-0.17088135 0.40415677 0.18354118
-0.14447621 0.40415677 0.18354118
-0.11807106 0.40415677 0.18354118
-0.091665916 0.40415677 0.18354118
-0.065260768 0.40415677 0.18354118
-0.038855623 0.40415677 0.18354118
-0.012450478 0.40415677 0.18354118
0.013954668 0.40415677 0.18354118
0.040359814 0.40415677 0.18354118
0.066764958 0.40415677 0.18354118
0.093170106 0.40415677 0.18354118
0.11957525 0.40415677 0.18354118
0.1459804 0.40415677 0.18354118
0.17238554 0.40415677 0.18354118
0.19879068 0.40415677 0.18354118
0.22519585 0.40415677 0.18354118
0.25160095 0.40415677 0.18354118
0.27800614 0.40415677 0.18354118
0.30441126 0.40415677 0.18354118
0.33081642 0.40415677 0.18354118
0.35722154 0.40415677 0.18354118
-0.3575789 0.43215761 0.20081413
-0.3310408 0.43215761 0.20081413
-0.3045027 0.43215761 0.20081413
-0.27796456 0.43215761 0.20081413
-0.25142646 0.43215761 0.20081413
-0.22488835 0.43215761 0.20081413
-0.19835024 0.43215761 0.20081413
-0.17181212 0.43215761 0.20081413
-0.14527401 0.43215761 0.20081413
-0.11873589 0.43215761 0.20081413
-0.092197783 0.43215761 0.20081413
-0.065659672 0.43215761 0.20081413
-0.039121557 0.43215761 0.20081413
-0.012583445 0.43215761 0.20081413
0.013954668 0.43215761 0.20081413
0.040492781 0.43215761 0.20081413
0.067030892 0.43215761 0.20081413
0.09356901 0.43215761 0.20081413
0.12010712 0.43215761 0.20081413
0.14664523 0.43215761 0.20081413
0.17318335 0.43215761 0.20081413
0.19972146 0.43215761 0.20081413
0.22625957 0.43215761 0.20081413
0.25279769 0.43215761 0.20081413
0.2793358 0.43215761 0.20081413
0.3058739 0.43215761 0.20081413
0.33241203 0.43215761 0.20081413
0.35895014 0.43215761 0.20081413
-0.36040875 -0.79546797 0.22707176
0.36152142 -0.79532039 0.22650766
-0.35945722 0.46044001 0.21824265
-0.33278495 0.46044001 0.21824265
-0.30611268 0.46044001 0.21824265
-0.27944037 0.46044001 0.21824265
-0.25276813 0.46044001 0.21824265
-0.22609583 0.46044001 0.21824265
-0.19942355 0.46044001 0.21824265
-0.17275128 0.46044001 0.21824265
-0.146079 0.46044001 0.21824265
-0.11940673 0.46044001 0.21824265
-0.092734441 0.46044001 0.21824265
-0.066062167 0.46044001 0.21824265
-0.039389886 0.46044001 0.21824265
-0.012717609 0.46044001 0.21824265
0.013954668 0.46044001 0.21824265
0.040626947 0.46044001 0.21824265
0.067299224 0.46044001 0.21824265
0.093971506 0.46044001 0.21824265
0.12064378 0.46044001 0.21824265
0.14731607 0.46044001 0.21824265
0.17398834 0.46044001 0.21824265
0.20066062 0.46044001 0.21824265
0.22733289 0.46044001 0.21824265
0.25400516 0.46044001 0.21824265
0.28067747 0.46044001 0.21824265
0.30734971 0.46044001 0.21824265
0.33402202 0.46044001 0.21824265
0.36069429 0.46044001 0.21824265
-0.33431998 -0.79717195 0.23358166
-0.30812782 -0.79886675 0.24005723
-0.28128761 -0.79886675 0.24005723
-0.2544474 -0.79886675 0.24005723
-0.22760719 -0.79886675 0.24005723
-0.20076698 -0.79886675 0.24005723
-0.17392677 -0.79886675 0.24005723
-0.14708658 -0.79886675 0.24005723
-0.12024637 -0.79886675 0.24005723
-0.093406156 -0.79886675 0.24005723
-0.066565953 -0.79886675 0.24005723
-0.039725743 -0.79886675 0.24005723
-0.012885538 -0.79886675 0.24005723
0.013954668 -0.79886675 0.24005723
0.040794875 -0.79886675 0.24005723
0.067635082 -0.79886675 0.24005723
0.094475292 -0.79886675 0.24005723
0.12131549 -0.79886675 0.24005723
0.1481557 -0.79886675 0.24005723
0.17499591 -0.79886675 0.24005723
0.20183611 -0.79886675 0.24005723
0.22867632 -0.79886675 0.24005723
0.25551653 -0.79886675 0.24005723
0.28235674 -0.79886675 0.24005723
0.3091538 -0.79873347 0.23954773
0.33538669 -0.79702377 0.23301542
-0.36135674 0.48901159 0.23586798
-0.33454877 0.48901159 0.23586798
-0.30774084 0.48901159 0.23586798
-0.28093284 0.48901159 0.23586798
-0.25412491 0.48901159 0.23586798
-0.22731695 0.48901159 0.23586798
-0.200509 0.48901159 0.23586798
-0.17370102 0.48901159 0.23586798
-0.14689308 0.48901159 0.23586798
-0.12008512 0.48901159 0.23586798
-0.093277164 0.48901159 0.23586798
-0.066469207 0.48901159 0.23586798
-0.039661247 0.48901159 0.23586798
-0.01285329 0.48901159 0.23586798
0.013954668 0.48901159 0.23586798
0.040762626 0.48901159 0.23586798
0.067570582 0.48901159 0.23586798
0.094378546 0.48901159 0.23586798
0.1211865 0.48901159 0.23586798
0.14799446 0.48901159 0.23586798
0.17480242 0.48901159 0.23586798
0.20161036 0.48901159 0.23586798
0.22841834 0.48901159 0.23586798
0.25522628 0.48901159 0.23586798
0.28203425 0.48901159 0.23586798
0.30884218 0.48901159 0.23586798
0.33565018 0.48901159 0.23586798
0.36245811 0.48901159 0.23586798
-0.36327568 0.51787579 0.2536732
-0.33633065 0.51787579 0.2536732
-0.30938563 0.51787579 0.2536732
-0.28244057 0.51787579 0.2536732
-0.25549558 0.51787579 0.2536732
-0.22855055 0.51787579 0.2536732
-0.20160551 0.51787579 0.2536732
-0.1746605 0.51787579 0.2536732
-0.14771548 0.51787579 0.2536732
-0.12077045 0.51787579 0.2536732
-0.09382543 0.51787579 0.2536732
-0.066880405 0.51787579 0.2536732
-0.03993538 0.51787579 0.2536732
-0.012990356 0.51787579 0.2536732
0.013954668 0.51787579 0.2536732
0.040899694 0.51787579 0.2536732
0.067844719 0.51787579 0.2536732
0.094789743 0.51787579 0.2536732
0.12173477 0.51787579 0.2536732
0.14867979 0.51787579 0.2536732
0.17562482 0.51787579 0.2536732
0.20256984 0.51787579 0.2536732
0.22951485 0.51787579 0.2536732
0.25645989 0.51787579 0.2536732
0.28340492 0.51787579 0.2536732
0.31034991 0.51787579 0.2536732
0.33729497 0.51787579 0.2536732
0.36423999 0.51787579 0.2536732
-0.36521217 0.54703379 0.27164185
-0.33812883 0.54703379 0.27164185
-0.31104547 0.54703379 0.27164185
-0.28396213 0.54703379 0.27164185
-0.25687879 0.54703379 0.27164185
-0.22979543 0.54703379 0.27164185
-0.2027121 0.54703379 0.27164185
-0.17562874 0.54703379 0.27164185
-0.1485454 0.54703379 0.27164185
-0.12146206 0.54703379 0.27164185
-0.094378717 0.54703379 0.27164185
-0.067295365 0.54703379 0.27164185
-0.040212024 0.54703379 0.27164185
-0.013128678 0.54703379 0.27164185
0.013954668 0.54703379 0.27164185
0.041038014 0.54703379 0.27164185
0.068121359 0.54703379 0.27164185
0.095204704 0.54703379 0.27164185
0.12228806 0.54703379 0.27164185
0.1493714 0.54703379 0.27164185
0.17645474 0.54703379 0.27164185
0.20353808 0.54703379 0.27164185
0.23062144 0.54703379 0.27164185
0.25770476 0.54703379 0.27164185
0.28478813 0.54703379 0.27164185
0.31187147 0.54703379 0.27164185
0.33895481 0.54703379 0.27164185
0.36603817 0.54703379 0.27164185
-0.36717084 0.57649541 0.2898159
-0.33994758 0.57649541 0.2898159
-0.31272432 0.57649541 0.2898159
-0.28550109 0.57649541 0.2898159
-0.25827783 0.57649541 0.2898159
-0.23105457 0.57649541 0.2898159
-0.20383133 0.57649541 0.2898159
-0.17660809 0.57649541 0.2898159
-0.14938483 0.57649541 0.2898159
-0.12216158 0.57649541 0.2898159
-0.09493833 0.57649541 0.2898159
-0.067715079 0.57649541 0.2898159
-0.040491831 0.57649541 0.2898159
-0.013268582 0.57649541 0.2898159
0.013954668 0.57649541 0.2898159
0.041177917 0.57649541 0.2898159
0.068401165 0.57649541 0.2898159
0.095624417 0.57649541 0.2898159
0.12284767 0.57649541 0.2898159
0.15007092 0.57649541 0.2898159
0.17729416 0.57649541 0.2898159
0.20451742 0.57649541 0.2898159
0.23174067 0.57649541 0.2898159
0.25896391 0.57649541 0.2898159
0.28618717 0.57649541 0.2898159
0.31341043 0.57649541 0.2898159
0.34063366 0.57649541 0.2898159
0.36785692 0.57649541 0.2898159
-0.36914766 0.60626042 0.3081584
-0.34178317 0.60626042 0.3081584
-0.31441873 0.60626042 0.3081584
-0.2870543 0.60626042 0.3081584
-0.25968984 0.60626042 0.3081584
-0.23232538 0.60626042 0.3081584
-0.20496091 0.60626042 0.3081584
-0.17759649 0.60626042 0.3081584
-0.15023203 0.60626042 0.3081584
-0.12286758 0.60626042 0.3081584
-0.095503129 0.60626042 0.3081584
-0.068138681 0.60626042 0.3081584
-0.04077423 0.60626042 0.3081584
-0.013409781 0.60626042 0.3081584
0.013954668 0.60626042 0.3081584
0.041319117 0.60626042 0.3081584
0.068683565 0.60626042 0.3081584
0.09604802 0.60626042 0.3081584
0.12341247 0.60626042 0.3081584
0.15077692 0.60626042 0.3081584
0.17814137 0.60626042 0.3081584
0.20550583 0.60626042 0.3081584
0.23287025 0.60626042 0.3081584
0.26023471 0.60626042 0.3081584
0.28759918 0.60626042 0.3081584
0.31496364 0.60626042 0.3081584
0.34232807 0.60626042 0.3081584
0.3696925 0.60626042 0.3081584
-0.37114727 0.63633871 0.32671273
-0.34364 0.63633871 0.32671273
-0.31613272 0.63633871 0.32671273
-0.28862542 0.63633871 0.32671273
-0.26111814 0.63633871 0.32671273
-0.23361085 0.63633871 0.32671273
-0.20610358 0.63633871 0.32671273
-0.1785963 0.63633871 0.32671273
-0.15108903 0.63633871 0.32671273
-0.12358174 0.63633871 0.32671273
-0.096074454 0.63633871 0.32671273
-0.068567179 0.63633871 0.32671273
-0.041059893 0.63633871 0.32671273
-0.013552613 0.63633871 0.32671273
0.013954668 0.63633871 0.32671273
0.041461948 0.63633871 0.32671273
0.068969227 0.63633871 0.32671273
0.096476518 0.63633871 0.32671273
0.12398379 0.63633871 0.32671273
0.15149108 0.63633871 0.32671273
0.17899837 0.63633871 0.32671273
0.20650564 0.63633871 0.32671273
0.23401292 0.63633871 0.32671273
0.26152018 0.63633871 0.32671273
0.28902748 0.63633871 0.32671273
0.31653476 0.63633871 0.32671273
0.34404206 0.63633871 0.32671273
0.37154934 0.63633871 0.32671273
-0.37316567 0.66672933 0.34544086
-0.34551421 0.66672933 0.34544086
-0.31786275 0.66672933 0.34544086
-0.29021129 0.66672933 0.34544086
-0.26255986 0.66672933 0.34544086
-0.2349084 0.66672933 0.34544086
-0.20725693 0.66672933 0.34544086
-0.17960548 0.66672933 0.34544086
-0.15195404 0.66672933 0.34544086
-0.1243026 0.66672933 0.34544086
-0.096651137 0.66672933 0.34544086
-0.068999685 0.66672933 0.34544086
-0.041348234 0.66672933 0.34544086
-0.013696783 0.66672933 0.34544086
0.013954668 0.66672933 0.34544086
0.041606121 0.66672933 0.34544086
0.069257572 0.66672933 0.34544086
0.096909024 0.66672933 0.34544086
0.12456048 0.66672933 0.34544086
0.15221193 0.66672933 0.34544086
0.17986338 0.66672933 0.34544086
0.20751482 0.66672933 0.34544086
0.23516627 0.66672933 0.34544086
0.26281774 0.66672933 0.34544086
0.2904692 0.66672933 0.34544086
0.31812063 0.66672933 0.34544086
0.34577209 0.66672933 0.34544086
-0.34741029 0.69744372 0.36438763
-0.31961295 0.69744372 0.36438763
-0.29181567 0.69744372 0.36438763
-0.26401836 0.69744372 0.36438763
-0.23622108 0.69744372 0.36438763
-0.20842375 0.69744372 0.36438763
-0.18062645 0.69744372 0.36438763
-0.15282914 0.69744372 0.36438763
-0.12503184 0.69744372 0.36438763
-0.09723454 0.69744372 0.36438763
-0.069437236 0.69744372 0.36438763
-0.041639935 0.69744372 0.36438763
-0.013842634 0.69744372 0.36438763
0.013954668 0.69744372 0.36438763
0.04175197 0.69744372 0.36438763
0.06954927 0.69744372 0.36438763
0.097346574 0.69744372 0.36438763
0.12514387 0.69744372 0.36438763
0.15294118 0.69744372 0.36438763
0.18073848 0.69744372 0.36438763
0.20853579 0.69744372 0.36438763
0.23633309 0.69744372 0.36438763
0.26413041 0.69744372 0.36438763
0.2919277 0.69744372 0.36438763
0.31972501 0.69744372 0.36438763
0.34752229 0.69744372 0.36438763
-0.34932432 0.7284801 0.38351369
-0.32137975 0.7284801 0.38351369
-0.29343525 0.7284801 0.38351369
-0.26549068 0.7284801 0.38351369
-0.23754618 0.7284801 0.38351369
-0.20960163 0.7284801 0.38351369
-0.18165709 0.7284801 0.38351369
-0.15371254 0.7284801 0.38351369
-0.12576801 0.7284801 0.38351369
-0.097823478 0.7284801 0.38351369
-0.069878936 0.7284801 0.38351369
-0.041934405 0.7284801 0.38351369
-0.013989869 0.7284801 0.38351369
0.013954668 0.7284801 0.38351369
0.041899204 0.7284801 0.38351369
0.069843739 0.7284801 0.38351369
0.097788274 0.7284801 0.38351369
0.12573281 0.7284801 0.38351369
0.15367734 0.7284801 0.38351369
0.18162188 0.7284801 0.38351369
0.20956643 0.7284801 0.38351369
