ply
format ascii 1.0
comment PCL generated
element vertex 1343
property float x
property float y
property float z
element camera 0
property float view_px
property float view_py
property float view_pz
property float x_axisx
property float x_axisy
property float x_axisz
property float y_axisx
property float y_axisy
property float y_axisz
property float z_axisx
property float z_axisy
property float z_axisz
property float focal
property float scalex
property float scaley
property float centerx
property float centery
property int viewportx
property int viewporty
property float k1
property float k2
end_header
0.037408821 -0.10127268 -0.23774326
-0.072609924 -0.083240837 -0.2307595
0.037408821 -0.08302585 -0.23774326
-0.072609924 -0.064940274 -0.23075944
0.037408821 -0.064778976 -0.23774326
-0.072609924 -0.04663958 -0.2307595
0.037408821 -0.046532191 -0.23774326
-0.072609924 -0.028339066 -0.23075944
0.037408821 -0.02828522 -0.23774338
-0.072609924 -0.010038391 -0.23075962
0.037422821 -0.010038414 -0.23819798
-0.072609924 0.0082621919 -0.23075944
0.03742215 0.0082050981 -0.23817635
-0.072609924 0.026562866 -0.2307595
0.037408821 0.026455291 -0.23774326
-0.072609924 0.044863425 -0.23075944
0.037408821 0.044702191 -0.23774326
-0.072609924 0.063164122 -0.2307595
0.037408821 0.062948972 -0.23774326
-0.072609924 0.081464678 -0.23075944
0.037408821 0.081195824 -0.2377432
-0.072609924 0.099765375 -0.2307595
0.037408821 0.099442795 -0.23774326
-0.072609924 0.11806594 -0.23075944
0.037408821 0.11768961 -0.23774338
-0.072609924 0.13636655 -0.2307595
0.037408821 0.13593644 -0.23774326
-0.072609924 0.15466711 -0.23075944
0.037422486 0.15415251 -0.23818719
-0.072609924 0.17296779 -0.2307595
0.037423156 0.17239437 -0.23820889
0.03742215 0.1906404 -0.23817647
-0.072609924 0.19126835 -0.23075944
-0.072609924 0.20956905 -0.2307595
0.037422486 0.20888285 -0.23818713
-0.072609924 0.22786961 -0.23075944
0.037423491 0.22712305 -0.23821956
-0.072609924 0.24617031 -0.23075944
0.037423491 0.24536619 -0.23821974
-0.072609924 0.26447088 -0.23075944
0.037408821 0.26366445 -0.23774326
-0.072609924 0.28277147 -0.2307595
0.037408821 0.28191125 -0.23774326
-0.072609924 0.30107203 -0.23075944
0.037408821 0.30015814 -0.23774326
-0.072609924 0.31937274 -0.2307595
0.037408821 0.31840497 -0.2377432
-0.091918252 -0.32270628 -0.21885908
-0.091918252 -0.30431405 -0.2188592
-0.091918252 -0.28592178 -0.2188592
-0.091918252 -0.26752955 -0.2188592
-0.091918252 -0.24913727 -0.2188592
-0.091918252 -0.23074517 -0.21885908
-0.091918252 -0.21235293 -0.2188592
-0.091918252 -0.19396064 -0.2188592
-0.091918252 -0.1755684 -0.2188592
-0.091918252 -0.15717614 -0.2188592
-0.091918252 -0.13878404 -0.2188592
-0.091918252 -0.12039173 -0.21885908
-0.091918252 -0.10199954 -0.2188592
-0.091918252 -0.083607219 -0.2188592
-0.091918252 -0.065215118 -0.21885908
-0.091918252 -0.046822932 -0.2188592
-0.091918252 -0.028430626 -0.2188592
-0.091918252 -0.010038414 -0.2188592
-0.091918252 0.0083538676 -0.2188592
-0.091918252 0.026745986 -0.21885908
-0.091918252 0.045138292 -0.21885908
-0.091918252 0.063530505 -0.2188592
-0.091918252 0.081922784 -0.2188592
-0.091918252 0.100315 -0.2188592
-0.091918252 0.11870712 -0.21885908
-0.091918252 0.13709942 -0.2188592
-0.091918252 0.15549162 -0.2188592
-0.091918252 0.17388386 -0.2188592
-0.091918252 0.19227612 -0.21885931
-0.091918252 0.2106683 -0.21885908
-0.091918252 0.2290605 -0.2188592
-0.091918252 0.2474528 -0.2188592
-0.091918252 0.265845 -0.2188592
-0.091918252 0.28423712 -0.21885908
-0.091918252 0.30262941 -0.21885908
-0.091918252 0.32102165 -0.2188592
-0.11142083 -0.30579448 -0.20683914
0.054994542 -0.30551422 -0.20911533
-0.11142083 -0.28730968 -0.20683914
0.054994542 -0.28704694 -0.20911533
-0.11142083 -0.26882502 -0.20683908
0.054994542 -0.26857963 -0.20911533
-0.11142083 -0.25034022 -0.20683914
0.054994542 -0.25011247 -0.20911521
-0.11142083 -0.23185547 -0.20683914
0.054994542 -0.23164518 -0.20911521
-0.11142083 -0.21337077 -0.20683908
0.054994542 -0.21317799 -0.20911533
-0.11142083 -0.194886 -0.20683914
0.054994542 -0.1947107 -0.20911545
-0.11142083 -0.1764012 -0.20683914
0.054994542 -0.17624353 -0.20911521
-0.11142083 -0.15791643 -0.20683926
0.054994542 -0.15777628 -0.20911533
-0.11142083 -0.13943169 -0.20683908
0.054994542 -0.13930897 -0.20911533
-0.11142083 -0.12094697 -0.20683914
0.054994542 -0.12084189 -0.20911521
-0.11142083 -0.10246214 -0.20683914
0.054994542 -0.10237459 -0.20911521
-0.11142083 -0.083977513 -0.20683908
0.054994542 -0.083907336 -0.20911533
-0.11142083 -0.06549266 -0.20683908
0.054994542 -0.065440036 -0.20911533
-0.11142083 -0.047007941 -0.20683914
0.054994542 -0.046972945 -0.20911521
-0.11142083 -0.02852311 -0.20683914
0.054994542 -0.028505668 -0.20911533
-0.11142083 -0.010038461 -0.20683908
0.054994542 -0.010038391 -0.20911533
-0.11142083 0.0084463721 -0.20683914
0.054994542 0.0084288614 -0.20911533
-0.11142083 0.026931111 -0.20683914
0.054994542 0.026896045 -0.20911521
-0.11142083 0.045415808 -0.20683908
0.054994542 0.045363277 -0.20911521
-0.11142083 0.063900568 -0.20683914
0.054994542 0.063830554 -0.20911533
-0.11142083 0.082385406 -0.20683914
0.054994542 0.082297824 -0.20911533
-0.11142083 0.10087014 -0.20683926
0.054994542 0.10076499 -0.20911521
-0.11142083 0.11935489 -0.20683908
0.054994542 0.11923227 -0.20911521
-0.11142083 0.13783967 -0.20683908
0.054994542 0.13769946 -0.20911533
-0.11142083 0.15632442 -0.20683914
0.054994542 0.15616663 -0.20911521
-0.11142083 0.17480914 -0.20683897
0.054994542 0.17463391 -0.20911521
-0.11142083 0.19329391 -0.20683908
0.054994542 0.19310118 -0.20911521
-0.11142083 0.2117787 -0.20683914
0.054994542 0.21156842 -0.20911533
-0.11142083 0.23026344 -0.20683914
0.054994542 0.23003557 -0.20911515
-0.11142083 0.24874818 -0.20683908
0.054994542 0.24850285 -0.20911521
-0.11142083 0.26723292 -0.20683914
0.054994542 0.26697013 -0.20911533
-0.11142083 0.28571776 -0.20683914
0.054994542 0.28543741 -0.20911533
-0.11142083 0.30420241 -0.20683908
0.054994542 0.3039045 -0.20911521
-0.15102193 -0.30880198 -0.18242127
-0.13112178 -0.30729133 -0.19468623
-0.15102193 -0.29012927 -0.18242127
-0.13112178 -0.28871301 -0.19468635
-0.15102193 -0.2714566 -0.18242115
-0.13112178 -0.27013475 -0.19468623
-0.15102193 -0.25278389 -0.18242115
-0.13112178 -0.25155634 -0.19468635
-0.15102193 -0.23411112 -0.18242115
-0.13112178 -0.23297814 -0.19468623
-0.15102193 -0.2154384 -0.18242127
-0.13112178 -0.21439976 -0.19468635
-0.15102193 -0.19676568 -0.18242127
-0.13112178 -0.1958214 -0.19468641
-0.15102193 -0.17809294 -0.18242127
-0.13112178 -0.17724314 -0.19468623
-0.15102193 -0.15942016 -0.18242127
-0.13112178 -0.15866479 -0.19468641
-0.15102193 -0.14074755 -0.18242115
-0.13112178 -0.14008653 -0.19468635
-0.15102193 -0.12207481 -0.18242115
-0.13112178 -0.1215082 -0.19468635
-0.15102193 -0.10340208 -0.18242127
-0.13112178 -0.10292994 -0.19468623
-0.15102193 -0.084729306 -0.18242127
-0.13112178 -0.084351592 -0.19468635
-0.15102193 -0.066056587 -0.18242127
-0.13112178 -0.065773331 -0.19468623
-0.15102193 -0.047383837 -0.18242127
-0.13112178 -0.04719498 -0.19468635
-0.15102193 -0.028711136 -0.18242127
-0.13112178 -0.028616741 -0.19468623
-0.15102193 -0.010038437 -0.18242109
-0.13112178 -0.010038391 -0.19468635
-0.15102193 0.0086342851 -0.18242115
-0.13112178 0.0085399607 -0.19468641
-0.15102193 0.027307034 -0.18242127
-0.13112178 0.027118221 -0.19468623
-0.15102193 0.045979824 -0.18242115
-0.13112178 0.045696571 -0.19468635
-0.15102193 0.064652503 -0.18242127
-0.13112178 0.064274833 -0.19468623
-0.15102193 0.083325297 -0.18242127
-0.13112178 0.082853183 -0.19468641
-0.15102193 0.10199797 -0.18242127
-0.13112178 0.1014314 -0.19468623
-0.15102193 0.12067068 -0.18242115
-0.13112178 0.12000975 -0.19468635
-0.15102193 0.1393434 -0.18242115
-0.13112178 0.13858801 -0.19468623
-0.15102193 0.15801615 -0.18242115
-0.13112178 0.15716636 -0.19468635
-0.15102193 0.17668888 -0.18242115
-0.13112178 0.17574474 -0.19468641
-0.15102193 0.19536161 -0.18242127
-0.13112178 0.19432297 -0.19468635
-0.15102193 0.21403433 -0.18242127
-0.13112178 0.21290134 -0.19468641
-0.15102193 0.23270708 -0.18242127
-0.13112178 0.2314796 -0.19468635
-0.15102193 0.25137973 -0.18242115
-0.13112178 0.25005797 -0.19468635
-0.15102193 0.27005249 -0.18242115
-0.13112178 0.26863617 -0.19468623
-0.15102193 0.2887252 -0.18242115
-0.13112178 0.28721452 -0.19468635
-0.15102193 0.30739796 -0.18242127
-0.13112178 0.30579278 -0.19468623
-0.17112669 -0.31032953 -0.17001933
0.073010236 -0.30912638 -0.17978734
-0.17112669 -0.29156134 -0.17001933
0.073010236 -0.29043341 -0.17978722
-0.17112669 -0.2727932 -0.17001933
0.073010236 -0.27174044 -0.17978734
-0.17112669 -0.25402489 -0.17001939
0.073010236 -0.25304738 -0.17978734
-0.17112669 -0.23525669 -0.17001939
0.073010236 -0.23435451 -0.17978722
-0.17112669 -0.2164886 -0.17001939
0.073010236 -0.21566145 -0.17978734
-0.17112669 -0.19772038 -0.17001933
0.073010236 -0.19696838 -0.17978734
-0.17112669 -0.17895217 -0.17001933
0.073010236 -0.17827551 -0.17978722
-0.17112669 -0.16018395 -0.17001921
0.073010236 -0.15958245 -0.17978734
-0.17112669 -0.14141573 -0.17001939
0.073010236 -0.14088938 -0.17978734
-0.17112669 -0.12264758 -0.17001939
0.073010236 -0.12219638 -0.1797874
-0.17112669 -0.10387935 -0.17001933
0.073010236 -0.10350345 -0.17978722
-0.17112669 -0.085111216 -0.17001933
0.073010236 -0.084810384 -0.17978734
-0.17112669 -0.066342995 -0.17001933
0.073010236 -0.066117384 -0.17978734
-0.17112669 -0.04757484 -0.17001933
0.073010236 -0.047424458 -0.17978722
-0.17112669 -0.028806522 -0.17001939
0.073010236 -0.028731391 -0.17978734
-0.17112669 -0.010038391 -0.17001939
0.073010236 -0.010038391 -0.17978734
-0.17112669 0.008729809 -0.17001939
0.073010236 0.0086545637 -0.17978722
-0.17112669 0.027498011 -0.17001933
0.073010236 0.027347606 -0.17978722
-0.17112669 0.04626612 -0.17001933
0.073010236 0.046040602 -0.17978734
-0.17112669 0.065034322 -0.17001933
0.073010236 0.06473358 -0.17978722
-0.17112669 0.083802655 -0.17001939
0.073010236 0.083426625 -0.17978722
-0.17112669 0.10257074 -0.17001939
0.073010236 0.1021196 -0.17978734
-0.17112669 0.12133899 -0.17001939
0.073010236 0.12081258 -0.17978722
-0.17112669 0.14010717 -0.17001933
0.073010236 0.13950562 -0.17978722
-0.17112669 0.15887538 -0.17001933
0.073010236 0.1581986 -0.17978734
-0.17112669 0.17764351 -0.17001933
0.073010236 0.17689168 -0.17978734
-0.17112669 0.1964117 -0.17001921
0.073010236 0.19558461 -0.17978722
-0.17112669 0.21517999 -0.17001939
0.073010236 0.2142776 -0.17978734
-0.17112669 0.23394813 -0.17001939
0.073010236 0.23297068 -0.17978734
-0.17112669 0.25271633 -0.17001933
0.073010236 0.25166363 -0.17978722
-0.17112669 0.27148449 -0.17001933
0.073010236 0.2703566 -0.17978734
-0.17112669 0.29025275 -0.17001933
0.073010236 0.28904969 -0.17978734
-0.17112669 0.30902085 -0.17001933
0.073010236 0.3077426 -0.17978716
-0.19143668 -0.31187132 -0.15750164
0.091471799 -0.31282958 -0.14972168
-0.19143668 -0.29300681 -0.15750164
0.091471799 -0.29390511 -0.14972168
-0.19143668 -0.27414218 -0.15750152
0.091471888 -0.27497944 -0.14973336
-0.19143668 -0.2552776 -0.15750152
0.091471888 -0.25605497 -0.14973336
-0.19143668 -0.23641309 -0.15750152
0.091471888 -0.23713064 -0.1497333
-0.19143668 -0.21754853 -0.15750164
0.091471888 -0.2182063 -0.14973336
-0.19143668 -0.19868401 -0.15750164
0.091471888 -0.19928198 -0.1497333
0.091471888 -0.18035761 -0.14973336
-0.19143668 -0.17981946 -0.15750164
-0.19143668 -0.16095492 -0.15750164
0.091471888 -0.16143332 -0.1497333
-0.19143668 -0.14209029 -0.15750164
0.091471888 -0.14250891 -0.14973336
-0.19143668 -0.12322572 -0.15750152
0.091471888 -0.12358454 -0.14973348
-0.19143668 -0.10436116 -0.15750152
0.091471888 -0.10466022 -0.1497333
-0.19143668 -0.085496634 -0.15750152
0.091471888 -0.085735738 -0.14973336
-0.19143668 -0.066632077 -0.15750164
0.091471888 -0.066811487 -0.1497333
-0.19143668 -0.047767546 -0.15750164
0.091471888 -0.047887079 -0.14973336
-0.19143668 -0.028902993 -0.15750164
0.091471888 -0.028962802 -0.1497333
-0.19143668 -0.010038391 -0.15750152
0.091471888 -0.010038391 -0.1497333
-0.19143668 0.0088261636 -0.15750152
0.091471888 0.0088860216 -0.14973348
-0.19143668 0.027690716 -0.15750152
0.091471888 0.027810246 -0.1497333
-0.19143668 0.046555225 -0.15750152
0.091471888 0.046734661 -0.14973336
-0.19143668 0.065419778 -0.15750152
0.091471888 0.065658934 -0.1497333
-0.19143668 0.084284335 -0.15750152
0.091471888 0.084583342 -0.14973336
-0.19143668 0.10314891 -0.15750164
0.091471888 0.10350782 -0.14973336
-0.19143668 0.12201351 -0.15750152
0.091471888 0.1224321 -0.1497333
-0.19143668 0.14087807 -0.15750152
0.091471888 0.14135648 -0.14973336
-0.19143668 0.15974262 -0.15750152
0.091471888 0.16028078 -0.1497333
-0.19143668 0.17860712 -0.15750152
0.091471888 0.17920518 -0.1497333
-0.19143668 0.19747168 -0.15750152
0.091471888 0.19812948 -0.1497333
-0.19143668 0.21633624 -0.15750152
0.091471888 0.21705388 -0.1497333
-0.19143668 0.23520075 -0.15750152
0.091471888 0.23597828 -0.14973336
-0.19143668 0.25406542 -0.15750152
0.091471888 0.25490251 -0.1497333
-0.19143668 0.27292997 -0.15750152
0.091471888 0.27382702 -0.1497333
-0.19143668 0.29179448 -0.15750152
0.091471888 0.29275131 -0.1497333
-0.19143668 0.31065911 -0.1575014
0.091471888 0.31167561 -0.14973336
-0.21195781 -0.31343052 -0.14484292
-0.21195781 -0.29446843 -0.14484292
-0.21195781 -0.27550647 -0.14484298
-0.21195781 -0.25654444 -0.14484298
-0.21195781 -0.23758239 -0.14484292
-0.21195781 -0.21862042 -0.14484292
-0.21195781 -0.19965842 -0.14484292
-0.21195781 -0.18069644 -0.14484292
-0.21195781 -0.16173439 -0.14484292
-0.21195781 -0.14277236 -0.14484292
-0.21195781 -0.1238104 -0.14484298
-0.21195781 -0.10484844 -0.1448428
-0.21195781 -0.085886516 -0.1448428
-0.21195781 -0.066924453 -0.1448428
-0.21195781 -0.047962394 -0.1448428
-0.21195781 -0.02900045 -0.1448428
-0.21195781 -0.010038391 -0.1448428
-0.21195781 0.0089235762 -0.14484292
-0.21195781 0.027885586 -0.14484292
-0.21195781 0.046847645 -0.14484292
-0.21195781 0.065809615 -0.14484292
-0.21195781 0.084771648 -0.14484292
-0.21195781 0.10373359 -0.14484292
-0.21195781 0.12269562 -0.14484292
-0.21195781 0.14165759 -0.14484292
-0.21195781 0.16061965 -0.14484292
-0.21195781 0.17958169 -0.14484292
-0.21195781 0.19854364 -0.14484292
-0.21195781 0.21750568 -0.14484292
-0.21195781 0.23646761 -0.14484292
-0.21195781 0.25542969 -0.14484292
-0.21195781 0.27439171 -0.14484292
-0.21195781 0.29335377 -0.14484292
-0.21195781 0.3123157 -0.14484292
-0.25364104 -0.31659609 -0.1191411
-0.23269042 -0.31500432 -0.13206458
0.11039624 -0.31662402 -0.11891425
-0.25364104 -0.29743627 -0.1191411
-0.23269042 -0.29594401 -0.13206452
0.11039624 -0.29746243 -0.11891425
-0.25364104 -0.27827641 -0.11914104
-0.23269042 -0.27688354 -0.13206458
0.11039624 -0.27830082 -0.11891413
-0.25364104 -0.25911656 -0.11914104
-0.23269042 -0.25782329 -0.13206452
0.11039624 -0.25913918 -0.11891425
-0.25364104 -0.23995665 -0.1191411
-0.23269042 -0.23876281 -0.13206458
0.11039624 -0.2399776 -0.11891413
-0.25364104 -0.22079679 -0.11914104
-0.23269042 -0.21970256 -0.13206452
0.11039624 -0.22081606 -0.11891413
-0.25364104 -0.20163701 -0.11914104
-0.23269042 -0.20064209 -0.13206458
0.11039624 -0.20165449 -0.11891425
-0.25364104 -0.18247706 -0.1191411
-0.23269042 -0.18158168 -0.13206458
0.11039624 -0.18249284 -0.11891431
-0.25364104 -0.16331725 -0.1191411
-0.23269042 -0.16252138 -0.13206458
0.11039624 -0.16333121 -0.11891425
-0.25364104 -0.14415739 -0.11914104
-0.23269042 -0.14346094 -0.1320647
0.11039624 -0.14416964 -0.11891425
-0.25364104 -0.12499753 -0.11914104
-0.23269042 -0.12440064 -0.13206458
0.11039624 -0.12500806 -0.11891413
-0.25364104 -0.10583768 -0.1191411
-0.23269042 -0.10534018 -0.13206458
0.11039624 -0.10584641 -0.11891431
-0.25364104 -0.086677864 -0.11914104
-0.23269042 -0.086279921 -0.13206458
0.11039624 -0.086684801 -0.11891425
-0.25364104 -0.067518011 -0.11914104
-0.23269042 -0.067219459 -0.13206458
0.11039624 -0.067523211 -0.11891413
-0.25364104 -0.04835806 -0.1191411
-0.23269042 -0.048159178 -0.13206458
0.11039624 -0.048361655 -0.11891413
-0.25364104 -0.029198181 -0.11914104
-0.23269042 -0.029098738 -0.13206458
0.11039624 -0.029199976 -0.11891425
-0.25364104 -0.010038483 -0.11914104
-0.23269042 -0.010038483 -0.13206458
0.11039624 -0.010038345 -0.11891413
-0.25364104 0.0091213966 -0.11914104
-0.23269042 0.0090220021 -0.13206458
0.11039624 0.009123194 -0.11891413
-0.25364104 0.028281324 -0.1191411
-0.23269042 0.028082255 -0.13206458
0.11039624 0.02828487 -0.11891425
-0.25364104 0.047441203 -0.11914104
-0.23269042 0.047142744 -0.13206458
0.11039624 0.047446407 -0.11891425
-0.25364104 0.066600993 -0.11914104
-0.23269042 0.066203043 -0.13206452
0.11039624 0.066607997 -0.11891413
-0.25364104 0.085760869 -0.11914122
-0.23269042 0.085263439 -0.13206458
0.11039624 0.085769534 -0.11891413
-0.25364104 0.10492075 -0.1191411
-0.23269042 0.10432381 -0.13206452
0.11039624 0.10493121 -0.11891425
-0.25364104 0.12408055 -0.11914104
-0.23269042 0.12338418 -0.13206458
0.11039624 0.12409282 -0.11891425
-0.25364104 0.14324044 -0.11914104
-0.23269042 0.14244455 -0.13206452
0.11039624 0.14325438 -0.11891413
-0.25364104 0.16240036 -0.1191411
-0.23269042 0.16150492 -0.13206458
0.11039624 0.16241597 -0.11891413
-0.25364104 0.18156011 -0.1191411
-0.23269042 0.18056536 -0.13206458
0.11039624 0.18157767 -0.11891425
-0.25364104 0.20071994 -0.11914104
-0.23269042 0.19962561 -0.13206458
0.11039624 0.20073925 -0.11891413
-0.25364104 0.21987991 -0.1191411
-0.23269042 0.2186861 -0.1320647
0.11039624 0.21990082 -0.11891413
-0.25364104 0.23903975 -0.1191411
-0.23269042 0.23774637 -0.13206458
0.11039624 0.23906249 -0.11891425
-0.25364104 0.2581996 -0.11914104
-0.23269042 0.25680685 -0.13206458
0.11039624 0.2582241 -0.11891413
-0.25364104 0.27735943 -0.11914092
-0.23269042 0.27586713 -0.13206458
0.11039624 0.27738562 -0.11891413
-0.25364104 0.29651931 -0.1191411
-0.23269042 0.29492763 -0.13206458
0.11039624 0.29654714 -0.11891413
-0.23269042 0.31398791 -0.13206458
-0.25364104 0.31567922 -0.11914104
0.11039624 0.31570894 -0.11891425
-0.27480963 -0.31820303 -0.10609406
-0.27480963 -0.29894286 -0.10609394
-0.27480963 -0.27968252 -0.10609406
-0.27480963 -0.2604222 -0.10609394
-0.27480963 -0.2411619 -0.10609406
-0.27480963 -0.22190166 -0.10609394
-0.27480963 -0.20264129 -0.10609394
-0.27480963 -0.18338099 -0.10609394
-0.27480963 -0.16412075 -0.10609412
-0.27480963 -0.14486052 -0.10609394
-0.27480963 -0.12560016 -0.10609394
-0.27480963 -0.10633986 -0.10609394
-0.27480963 -0.087079547 -0.10609406
-0.27480963 -0.067819297 -0.10609394
-0.27480963 -0.048559014 -0.10609394
-0.27480963 -0.029298726 -0.10609406
-0.27480963 -0.010038391 -0.10609406
-0.27480963 0.0092218975 -0.10609406
-0.27480963 0.028482139 -0.10609394
-0.27480963 0.04774252 -0.10609394
-0.27480963 0.067002803 -0.10609394
-0.27480963 0.086263046 -0.10609412
-0.27480963 0.10552329 -0.10609394
-0.27480963 0.12478362 -0.10609394
-0.27480963 0.14404395 -0.10609394
-0.27480963 0.16330425 -0.10609406
-0.27480963 0.18256451 -0.10609394
-0.27480963 0.20182484 -0.10609394
-0.27480963 0.22108507 -0.10609406
-0.27480963 0.24034539 -0.10609406
-0.27480963 0.25960568 -0.10609394
-0.27480963 0.2788659 -0.10609406
-0.27480963 0.29812622 -0.10609406
-0.27480963 0.31738654 -0.10609406
-0.29620326 -0.3198286 -0.092897236
-0.29620326 -0.30046657 -0.092897236
-0.29620326 -0.2811048 -0.092897236
-0.29620326 -0.26174283 -0.092897356
-0.29620326 -0.24238096 -0.092897117
-0.29620326 -0.22301909 -0.092897236
-0.29620326 -0.20365722 -0.092897117
-0.29620326 -0.18429533 -0.092897356
-0.29620326 -0.16493347 -0.092897117
-0.29620326 -0.14557159 -0.092897236
-0.29620326 -0.12620971 -0.092897117
-0.29620326 -0.10684784 -0.092897236
-0.29620326 -0.087485969 -0.092897117
-0.29620326 -0.068124071 -0.092897236
-0.29620326 -0.048762228 -0.092897117
-0.29620326 -0.02940033 -0.092897236
-0.29620326 -0.010038345 -0.092897356
-0.29620326 0.0093234563 -0.092897236
-0.29620326 0.028685395 -0.092897356
-0.29620326 0.048047289 -0.092897236
-0.29620326 0.067409135 -0.092897356
-0.29620326 0.086771034 -0.092897117
-0.29620326 0.10613292 -0.092897356
-0.29620326 0.12549478 -0.092897117
-0.29620326 0.14485668 -0.092897356
-0.29620326 0.16421852 -0.092897117
-0.29620326 0.18358041 -0.092897236
-0.29620326 0.20294227 -0.092897117
-0.29620326 0.22230418 -0.092897236
-0.29620326 0.24166602 -0.092897117
-0.29620326 0.26102793 -0.092897236
-0.29620326 0.28038976 -0.092897236
-0.29620326 0.29975176 -0.092897236
-0.29620326 0.31911361 -0.092897058
-0.31782174 -0.32146966 -0.079572856
0.12980102 -0.32051486 -0.087324798
-0.31782174 -0.30200517 -0.079572797
0.12980102 -0.30111009 -0.087324798
-0.31782174 -0.28254074 -0.079572856
0.12980102 -0.28170529 -0.087324798
-0.31782174 -0.26307631 -0.079572856
0.12980102 -0.26230052 -0.087324798
-0.31782174 -0.2436119 -0.079572856
0.12980102 -0.24289568 -0.087324798
-0.31782174 -0.22414741 -0.079572797
0.12980102 -0.22349104 -0.087324679
-0.31782174 -0.20468296 -0.079572797
0.12980102 -0.2040862 -0.087324679
-0.31782174 -0.18521844 -0.079572976
0.12980102 -0.18468145 -0.087324679
-0.31782174 -0.16575395 -0.079572976
0.12980102 -0.16527663 -0.087324679
-0.31782174 -0.14628953 -0.079572856
0.12980102 -0.14587186 -0.087324798
-0.31782174 -0.12682512 -0.079572856
0.12980102 -0.12646699 -0.087324679
-0.31782174 -0.10736071 -0.079572856
0.12980102 -0.1070623 -0.087324798
-0.31782174 -0.087896176 -0.079572797
0.12980102 -0.087657429 -0.087324798
-0.31782174 -0.06843175 -0.079572797
0.12980102 -0.068252772 -0.087324679
-0.31782174 -0.048967328 -0.079572856
0.12980102 -0.048847981 -0.087324679
-0.31782174 -0.029502906 -0.079572797
0.12980102 -0.029443186 -0.087324679
-0.31782174 -0.010038437 -0.079572797
0.12980102 -0.010038345 -0.087324679
-0.31782174 0.0094259856 -0.079572797
0.12980102 0.0093663568 -0.087324798
-0.31782174 0.028890453 -0.079572797
0.12980102 0.028771196 -0.087324679
-0.31782174 0.048355013 -0.079572976
0.12980102 0.048175991 -0.087324798
-0.31782174 0.067819431 -0.079572976
0.12980102 0.067580692 -0.087324858
-0.31782174 0.087283857 -0.079572856
0.12980102 0.086985447 -0.087324679
-0.31782174 0.10674828 -0.079572856
0.12980102 0.10639019 -0.087324679
-0.31782174 0.12621279 -0.079572856
0.12980102 0.12579504 -0.087324679
-0.31782174 0.14567721 -0.079572797
0.12980102 0.14519979 -0.087324798
-0.31782174 0.16514164 -0.079572856
0.12980102 0.16460462 -0.087324679
-0.31782174 0.18460615 -0.079572797
0.12980102 0.18400937 -0.087324798
-0.31782174 0.20407057 -0.079572797
0.12980102 0.20341422 -0.087324798
-0.31782174 0.22353497 -0.079572797
0.12980102 0.22281894 -0.087324858
-0.31782174 0.2429994 -0.079572797
0.12980102 0.24222371 -0.087324679
-0.31782174 0.26246381 -0.079572797
0.12980102 0.26162842 -0.087324679
-0.31782174 0.28192848 -0.079572856
0.12980102 0.28103328 -0.087324679
-0.31782174 0.30139291 -0.079572856
0.12980102 0.30043811 -0.087324679
-0.31782174 0.32085735 -0.079572856
0.12980102 0.31984279 -0.087324798
-0.33967265 -0.30356163 -0.0660941
-0.33967265 -0.28399339 -0.066094041
-0.33967265 -0.26442516 -0.0660941
-0.33967265 -0.244857 -0.066094041
-0.33967265 -0.22528878 -0.0660941
-0.33967265 -0.20572059 -0.066094041
-0.33967265 -0.18615237 -0.066094041
-0.33967265 -0.16658415 -0.066094041
-0.33967265 -0.14701596 -0.066094041
-0.33967265 -0.12744774 -0.066094041
-0.33967265 -0.1078795 -0.066094041
-0.33967265 -0.088311352 -0.066094041
-0.33967265 -0.06874311 -0.066094041
-0.33967265 -0.049174782 -0.06609422
-0.33967265 -0.029606584 -0.0660941
-0.33967265 -0.010038391 -0.0660941
-0.33967265 0.009529802 -0.0660941
-0.33967265 0.029098041 -0.0660941
-0.33967265 0.048666235 -0.0660941
-0.33967265 0.068234429 -0.0660941
-0.33967265 0.087802671 -0.0660941
-0.33967265 0.10737086 -0.0660941
-0.33967265 0.12693906 -0.0660941
-0.33967265 0.14650729 -0.066094041
-0.33967265 0.1660755 -0.066094041
-0.33967265 0.18564369 -0.066094041
-0.33967265 0.20521192 -0.066094041
-0.33967265 0.2247801 -0.066094041
-0.33967265 0.24434841 -0.066094041
-0.33967265 0.26391661 -0.066094041
-0.33967265 0.28348482 -0.066094041
-0.33967265 0.30305302 -0.066094041
-0.36175546 -0.30513319 -0.05248332
0.14970484 -0.30485299 -0.05491066
-0.36175546 -0.2854602 -0.052483439
0.14970484 -0.28519863 -0.054910779
-0.36175546 -0.26578718 -0.052483559
0.14970465 -0.26554307 -0.054923177
-0.36175546 -0.24611422 -0.052483559
0.14970465 -0.24588893 -0.054923177
-0.36175546 -0.22644132 -0.05248332
0.14970465 -0.22623464 -0.054923296
-0.36175546 -0.20676833 -0.05248332
0.14970465 -0.20658043 -0.054923296
-0.36175546 -0.18709536 -0.05248332
0.14970465 -0.18692632 -0.054923177
-0.36175546 -0.16742232 -0.052483439
0.14970465 -0.16727202 -0.054923296
-0.36175546 -0.14774933 -0.052483559
0.14970465 -0.14761785 -0.054923177
-0.36175546 -0.12807629 -0.052483439
0.14970465 -0.12796365 -0.054923177
-0.36175546 -0.10840329 -0.052483439
0.14970465 -0.10830943 -0.054923296
-0.36175546 -0.088730313 -0.052483439
0.14970465 -0.088655248 -0.054923296
-0.36175546 -0.069057286 -0.052483439
0.14970465 -0.069001019 -0.054923177
-0.36175546 -0.049384397 -0.05248332
0.14970465 -0.049346842 -0.054923177
-0.36175546 -0.029711418 -0.05248332
0.14970465 -0.029692616 -0.054923296
-0.36175546 -0.010038437 -0.052483439
0.14970465 -0.010038391 -0.054923177
-0.36175546 0.0096345404 -0.052483439
0.14970465 0.0096157426 -0.054923177
-0.36175546 0.029307522 -0.052483439
0.14970465 0.029270057 -0.054923296
-0.36175546 0.048980545 -0.052483559
0.14970465 0.048924193 -0.054923177
-0.36175546 0.068653576 -0.052483439
0.14970465 0.06857837 -0.054923177
-0.36175546 0.088326596 -0.052483439
0.14970465 0.088232689 -0.054923296
-0.36175546 0.10799949 -0.05248332
0.14970465 0.10788687 -0.054923177
-0.36175546 0.12767246 -0.05248332
0.14970465 0.12754101 -0.054923177
-0.36175546 0.1473455 -0.05248332
0.14970465 0.14719528 -0.054923296
-0.36175546 0.16701849 -0.052483439
0.14970465 0.16684949 -0.054923177
-0.36175546 0.18669149 -0.052483439
0.14970465 0.18650359 -0.054923177
-0.36175546 0.20636442 -0.052483439
0.14970465 0.20615785 -0.054923296
-0.36175546 0.22603743 -0.052483559
0.14970465 0.22581208 -0.054923177
-0.36175546 0.24571043 -0.052483559
0.14970465 0.2454662 -0.054923177
-0.36175546 0.26538354 -0.052483439
0.14970465 0.26512039 -0.054923177
-0.36175546 0.28505632 -0.05248332
0.14970465 0.28477472 -0.054923296
-0.36175546 0.30472937 -0.05248332
0.14970465 0.30442888 -0.054923177
-0.38407844 -0.30672327 -0.038713336
-0.38407844 -0.28694421 -0.038713574
-0.38407844 -0.26716524 -0.038713574
-0.38407844 -0.24738629 -0.038713574
-0.38407844 -0.22760731 -0.038713455
-0.38407844 -0.20782828 -0.038713574
-0.38407844 -0.18804929 -0.038713574
-0.38407844 -0.16827033 -0.038713574
-0.38407844 -0.14849137 -0.038713455
-0.38407844 -0.1287124 -0.038713455
-0.38407844 -0.10893332 -0.038713574
-0.38407844 -0.089154385 -0.038713455
-0.38407844 -0.069375418 -0.038713455
-0.38407844 -0.049596366 -0.038713336
-0.38407844 -0.029817354 -0.038713574
-0.38407844 -0.010038345 -0.038713574
-0.38407844 0.0097405715 -0.038713574
-0.38407844 0.02951958 -0.038713336
-0.38407844 0.049298499 -0.038713336
-0.38407844 0.069077596 -0.038713574
-0.38407844 0.088856518 -0.038713455
-0.38407844 0.10863553 -0.038713336
-0.38407844 0.12841444 -0.038713336
-0.38407844 0.1481936 -0.038713574
-0.38407844 0.16797251 -0.038713455
-0.38407844 0.18775152 -0.038713455
-0.38407844 0.20753044 -0.038713455
-0.38407844 0.22730945 -0.038713336
-0.38407844 0.24708852 -0.038713455
-0.38407844 0.26686737 -0.038713574
-0.38407844 0.2866464 -0.038713455
-0.38407844 0.30642539 -0.038713336
-0.42945132 -0.30995363 -0.010736704
-0.4066408 -0.30832896 -0.024807334
0.17012693 -0.3086918 -0.021664858
-0.42945132 -0.2899594 -0.010736585
-0.4066408 -0.288443 -0.024807215
0.17012693 -0.28878155 -0.021664977
-0.42945132 -0.26996499 -0.010736823
-0.4066408 -0.26855689 -0.024807215
0.17012693 -0.26887134 -0.021664858
-0.42945132 -0.24997064 -0.010736585
-0.4066408 -0.24867097 -0.024807215
0.17012693 -0.24896115 -0.021664977
-0.42945132 -0.22997625 -0.010736704
-0.4066408 -0.22878484 -0.024807334
0.17012693 -0.22905098 -0.021664858
-0.42945132 -0.20998193 -0.010736585
-0.4066408 -0.20889871 -0.024807334
0.17012693 -0.2091407 -0.021664977
-0.42945132 -0.18998756 -0.010736704
-0.4066408 -0.18901278 -0.024807215
0.17012663 -0.18922955 -0.021677852
-0.42945132 -0.16999325 -0.010736704
-0.4066408 -0.16912667 -0.024807334
0.17012663 -0.16931936 -0.021677852
-0.42945132 -0.1499988 -0.010736704
-0.4066408 -0.14924072 -0.024807215
0.17012663 -0.14940925 -0.021677852
-0.42945132 -0.13000455 -0.010736585
-0.4066408 -0.12935461 -0.024807334
0.17012663 -0.12949917 -0.021677852
-0.42945132 -0.11001019 -0.010736823
-0.4066408 -0.10946861 -0.024807215
0.17012663 -0.10958897 -0.021677852
-0.42945132 -0.090015799 -0.010736585
-0.4066408 -0.089582555 -0.024807215
0.17012663 -0.089678913 -0.021677852
-0.42945132 -0.070021413 -0.010736585
-0.4066408 -0.069696456 -0.024807334
0.17012663 -0.069768801 -0.021677852
-0.42945132 -0.050027166 -0.010736585
-0.4066408 -0.049810544 -0.024807215
0.17012663 -0.049858697 -0.021677852
-0.42945132 -0.030032732 -0.010736585
-0.4066408 -0.029924445 -0.024807334
0.17012663 -0.029948499 -0.021677852
-0.42945132 -0.010038437 -0.010736585
-0.4066408 -0.010038391 -0.024807215
0.17012663 -0.010038391 -0.021677852
-0.42945132 0.0099559939 -0.010736704
-0.4066408 0.0098476158 -0.024807334
0.17012663 0.0098717147 -0.021677852
-0.42945132 0.029950291 -0.010736585
-0.4066408 0.029733621 -0.024807215
0.17012663 0.029781822 -0.021677852
-0.42945132 0.049944676 -0.010736704
-0.4066408 0.049619675 -0.024807334
0.17012663 0.04969202 -0.021677852
-0.42945132 0.069939017 -0.010736585
-0.4066408 0.069505684 -0.024807096
0.17012663 0.069602124 -0.021677852
-0.42945132 0.089933358 -0.010736704
-0.4066408 0.089391828 -0.024807215
0.17012663 0.089512184 -0.021677852
-0.42945132 0.10992765 -0.010736585
-0.4066408 0.10927784 -0.024807334
0.17012663 0.10942239 -0.021677852
-0.42945132 0.12992214 -0.010736585
-0.4066408 0.12916389 -0.024807215
0.17012663 0.1293325 -0.021677852
-0.42945132 0.14991643 -0.010736585
-0.4066408 0.14904989 -0.024807334
0.17012663 0.14924259 -0.021677852
-0.42945132 0.16991077 -0.010736704
-0.4066408 0.16893595 -0.024807215
0.17012663 0.16915271 -0.021677852
-0.42945132 0.18990511 -0.010736585
-0.4066408 0.18882205 -0.024807215
0.17012663 0.18906291 -0.021677852
-0.42945132 0.2098995 -0.010736585
-0.4066408 0.20870796 -0.024807215
0.17012663 0.20897301 -0.021677852
-0.42945132 0.22989388 -0.010736465
-0.4066408 0.22859411 -0.024807215
0.17012663 0.22888312 -0.021677852
-0.42945132 0.24988812 -0.010736704
-0.4066408 0.2484802 -0.024807334
0.17012663 0.24879321 -0.021677732
-0.42945132 0.26988247 -0.010736585
-0.4066408 0.26836604 -0.024807215
0.17012663 0.26870343 -0.021677852
-0.42945132 0.28987694 -0.010736585
-0.4066408 0.28825215 -0.024807334
0.17012663 0.28861353 -0.021677852
-0.42945132 0.30987132 -0.010736465
-0.4066408 0.30813819 -0.024807215
0.17012663 0.30852363 -0.021677852
-0.4525089 -0.31159472 0.0034749508
-0.4525089 -0.29149094 0.0034749508
-0.4525089 -0.27138725 0.0034749508
-0.4525089 -0.25128344 0.0034749508
-0.4525089 -0.23117977 0.0034749508
-0.4525089 -0.21107596 0.0034749508
-0.4525089 -0.19097213 0.0034749508
-0.4525089 -0.17086846 0.0034749508
-0.4525089 -0.15076467 0.0034749508
-0.4525089 -0.13066098 0.0034749508
-0.4525089 -0.11055715 0.0034749508
-0.4525089 -0.090453468 0.0034749508
-0.4525089 -0.070349596 0.0034749508
-0.4525089 -0.050245952 0.00347507
-0.4525089 -0.030142173 0.0034749508
-0.4525089 -0.010038483 0.00347507
-0.4525089 0.010065344 0.0034749508
-0.4525089 0.030169122 0.0034749508
-0.4525089 0.050272811 0.0034749508
-0.4525089 0.070376687 0.0034749508
-0.4525089 0.090480328 0.0034749508
-0.4525089 0.11058415 0.0034749508
-0.4525089 0.13068785 0.0034749508
-0.4525089 0.15079162 0.0034749508
-0.4525089 0.17089529 0.0034749508
-0.4525089 0.19099918 0.0034749508
-0.4525089 0.21110292 0.0034749508
-0.4525089 0.23120666 0.0034749508
-0.4525089 0.25131047 0.0034749508
-0.4525089 0.27141413 0.0034749508
-0.4525089 0.291518 0.0034749508
-0.4525089 0.31162158 0.0034749508
-0.47582313 -0.31325528 0.017856121
0.19108787 -0.31263199 0.012457967
-0.47582313 -0.2930409 0.01785624
0.19108787 -0.2924591 0.012457967
-0.47582313 -0.27282637 0.017856121
0.19108787 -0.27228621 0.012457967
-0.47582313 -0.25261191 0.01785624
0.19108787 -0.25211325 0.012457848
-0.47582313 -0.2323975 0.01785624
0.19108787 -0.23194036 0.012457848
-0.47582313 -0.21218298 0.017856121
0.19108787 -0.21176746 0.012457967
-0.47582313 -0.19196853 0.017856121
0.19108787 -0.19159457 0.012457967
-0.47582313 -0.17175411 0.01785624
0.19108787 -0.17142162 0.012457848
-0.47582313 -0.15153955 0.017856121
0.19108787 -0.15124872 0.012457848
-0.47582313 -0.13132513 0.01785624
0.19108787 -0.13107593 0.012457967
-0.47582313 -0.11111072 0.01785624
0.19108787 -0.11090299 0.012457967
-0.47582313 -0.090896159 0.017856121
0.19108787 -0.090730041 0.012457848
-0.47582313 -0.070681736 0.017856121
0.19108787 -0.070557095 0.012457848
-0.47582313 -0.05046732 0.01785624
0.19108787 -0.050384194 0.012457848
-0.47582313 -0.030252855 0.01785624
0.19108787 -0.030211337 0.012457967
0.19108787 -0.010038437 0.012457967
-0.47582313 -0.010038345 0.017856121
-0.47582313 0.010176073 0.01785624
0.19108787 0.010134463 0.012457848
-0.47582313 0.03039049 0.017856359
0.19108787 0.030307408 0.012457967
-0.47582313 0.050605003 0.017856121
0.19108787 0.050480355 0.012457848
-0.47582313 0.070819423 0.01785624
0.19108787 0.070653208 0.012457967
-0.47582313 0.091033883 0.017856359
0.19108787 0.090826109 0.012457967
-0.47582313 0.1112484 0.017856121
0.19108787 0.11099906 0.012457967
-0.47582313 0.13146281 0.017856121
0.19108787 0.13117196 0.012457848
-0.47582313 0.15167728 0.017856359
0.19108787 0.15134481 0.012457848
-0.47582313 0.17189179 0.017856121
0.19108787 0.17151774 0.012457967
-0.47582313 0.19210616 0.017856121
0.19108787 0.19169061 0.012457967
-0.47582313 0.21232067 0.01785624
0.19108787 0.21186361 0.012457967
-0.47582313 0.23253509 0.017856121
0.19108787 0.23203655 0.012457967
-0.47582313 0.25274965 0.017856121
0.19108787 0.25220928 0.012457967
-0.47582313 0.27296397 0.017856121
0.19108787 0.2723822 0.012457967
-0.47582313 0.29317859 0.017856121
0.19108787 0.29255521 0.012457967
-0.47582313 0.31339294 0.017856121
0.19108787 0.31272805 0.012457848
-0.49939248 -0.31493276 0.032383323
-0.49939248 -0.29460654 0.032383323
-0.49939248 -0.27428019 0.032383323
-0.49939248 -0.25395387 0.032383204
-0.49939248 -0.23362763 0.032383204
-0.49939248 -0.21330135 0.032383323
-0.49939248 -0.192975 0.032383084
-0.49939248 -0.1726487 0.032383204
-0.49939248 -0.15232244 0.032383323
-0.49939248 -0.13199618 0.032383323
-0.49939248 -0.11166985 0.032383204
-0.49939248 -0.091343597 0.032383204
-0.49939248 -0.071017288 0.032383323
-0.49939248 -0.050690945 0.032383204
-0.49939248 -0.030364692 0.032383204
-0.49939248 -0.010038483 0.032383323
-0.49939248 0.010287817 0.032383323
-0.49939248 0.030614253 0.032383323
-0.49939248 0.050940461 0.032383323
-0.49939248 0.071266718 0.032383323
-0.49939248 0.091593064 0.032383204
-0.49939248 0.11191941 0.032383323
-0.49939248 0.13224566 0.032383323
-0.49939248 0.15257187 0.032383323
-0.49939248 0.17289822 0.032383323
-0.49939248 0.19322452 0.032383323
-0.49939248 0.21355073 0.032383323
-0.49939248 0.23387717 0.032383204
-0.49939248 0.25420332 0.032383204
-0.49939248 0.27452964 0.032383323
-0.49939248 0.29485598 0.032383442
-0.49939248 0.31518227 0.032383204
-0.52322727 -0.31663042 0.047085643
0.2126098 -0.31667912 0.047506809
-0.52322727 -0.29619107 0.047085524
0.2126098 -0.29623637 0.047506928
-0.52322727 -0.27575159 0.047085524
0.21260929 -0.27579239 0.047493219
-0.52322727 -0.255312 0.047085404
0.21260929 -0.25534979 0.047493339
-0.52322727 -0.23487255 0.047085404
0.21260929 -0.23490703 0.047493219
-0.52322727 -0.21443304 0.047085524
0.21260929 -0.21446443 0.047493219
-0.52322727 -0.1939936 0.047085524
0.21260929 -0.19402185 0.047493219
-0.52322727 -0.17355411 0.047085524
0.21260929 -0.1735792 0.047493219
-0.52322727 -0.15311475 0.047085524
0.21260929 -0.15313669 0.047493219
-0.52322727 -0.13267528 0.047085524
0.21260929 -0.13269407 0.047493219
-0.52322727 -0.11223575 0.047085524
0.21260929 -0.11225142 0.047493219
-0.52322727 -0.091796331 0.047085643
0.21260929 -0.091808818 0.047493219
-0.52322727 -0.071356811 0.047085643
0.21260929 -0.071366206 0.047493219
-0.52322727 -0.05091729 0.047085524
0.21260929 -0.050923605 0.047493219
-0.52322727 -0.030477818 0.047085524
0.21260929 -0.030481044 0.047493219
-0.52322727 -0.010038391 0.047085524
0.21260929 -0.010038437 0.047493219
-0.52322727 0.010401036 0.047085524
0.21260929 0.010404169 0.047493219
-0.52322727 0.030840553 0.047085524
0.21260929 0.030846819 0.047493219
-0.52322727 0.051279981 0.047085524
0.21260929 0.05128938 0.047493339
-0.52322727 0.071719453 0.047085643
0.21260929 0.071731985 0.047493339
-0.52322727 0.092158921 0.047085643
0.21260929 0.09217459 0.047493339
-0.52322727 0.1125984 0.047085643
0.21260929 0.11261715 0.047493339
-0.52322727 0.13303782 0.047085524
0.21260929 0.13305989 0.047493219
-0.52322727 0.15347736 0.047085524
0.21260929 0.15350251 0.047493219
-0.52322727 0.17391686 0.047085524
0.21260929 0.17394501 0.047493219
-0.52322727 0.19435629 0.047085524
0.21260929 0.19438776 0.047493219
-0.52322727 0.21479575 0.047085524
0.21260929 0.21483028 0.047493219
-0.52322727 0.23523527 0.047085524
0.21260929 0.23527297 0.047493219
-0.52322727 0.25567469 0.047085524
0.21260929 0.25571552 0.047493219
-0.52322727 0.27611423 0.047085643
0.21260929 0.27615803 0.047493219
-0.52322727 0.29655364 0.047085643
0.21260929 0.29660073 0.047493219
-0.52322727 0.31699312 0.047085762
0.21260929 0.31704324 0.047493219
0.2347146 -0.3208344 0.08349216
0.2347146 -0.30011457 0.083492041
0.2347146 -0.27939484 0.08349216
0.2347146 -0.25867516 0.083491921
0.2347146 -0.23795542 0.083492041
0.2347146 -0.21723562 0.083491921
0.2347146 -0.19651604 0.08349216
0.23471396 -0.17579536 0.083477974
0.23471396 -0.15507573 0.083478093
0.23471396 -0.13435613 0.083478093
0.23471396 -0.11363654 0.083478212
0.23471396 -0.092916898 0.083478212
0.23471396 -0.072197303 0.083478212
0.23471396 -0.051477578 0.083478212
0.23471396 -0.030758031 0.083478093
0.23471396 -0.010038391 0.083478212
0.23471396 0.010681246 0.083478212
0.23471396 0.031400748 0.083478212
0.23471396 0.052120477 0.083477974
0.23471396 0.072840117 0.083478093
0.23471396 0.09355966 0.083478093
0.23471396 0.1142793 0.083478212
0.23471396 0.13499893 0.083478212
0.23471396 0.15571843 0.083478212
0.23471396 0.17643823 0.083477974
0.23471396 0.19715786 0.083478093
0.23471396 0.21787745 0.083478212
0.23471396 0.23859708 0.083478212
0.23471396 0.25931659 0.083478212
0.23471396 0.28003618 0.083478212
0.23471396 0.30075592 0.083477974
0.23471396 0.32147554 0.083478093
0.25742671 -0.30409932 0.12046587
0.25742671 -0.283095 0.12046587
0.25742671 -0.26209068 0.12046587
0.25742671 -0.24108626 0.12046587
0.25742671 -0.22008194 0.12046587
0.25742671 -0.19907755 0.12046587
0.25742671 -0.17807314 0.12046587
0.25742671 -0.15706891 0.12046587
0.25742671 -0.13606459 0.12046587
0.25742593 -0.11505967 0.12045169
0.25742593 -0.094055392 0.12045169
0.25742593 -0.07305117 0.12045169
0.25742593 -0.052046895 0.12045169
0.25742593 -0.03104271 0.12045157
0.25742593 -0.010038437 0.12045157
0.25742593 0.01096579 0.12045169
0.25742593 0.031970061 0.12045169
0.25742593 0.052974291 0.12045169
0.25742593 0.073978469 0.12045157
0.25742593 0.094982795 0.12045157
0.25742593 0.11598702 0.12045157
0.25742593 0.13699125 0.12045157
0.25742593 0.15799542 0.12045157
0.25742593 0.17899975 0.12045157
0.25742593 0.20000398 0.12045157
0.25742593 0.2210083 0.12045169
0.25742593 0.24201247 0.12045157
0.25742593 0.26301667 0.12045157
0.25742593 0.28402099 0.12045157
0.25742593 0.30502522 0.12045157
0.28077242 -0.30819669 0.15848446
0.28077149 -0.28689823 0.15846968
0.28077149 -0.26560128 0.1584698
0.28077149 -0.24430434 0.15846968
0.28077149 -0.22300744 0.15846968
0.28077149 -0.2017106 0.1584698
0.28077149 -0.18041368 0.15846968
0.28077149 -0.15911674 0.15846968
0.28077149 -0.13781981 0.15846968
0.28077149 -0.11652294 0.1584698
0.28077149 -0.095226012 0.1584698
0.28074244 -0.073918253 0.15799785
0.28077149 -0.052632201 0.15846968
0.28077149 -0.031335317 0.15846992
0.28077149 -0.010038437 0.15846968
0.28073877 0.011254481 0.15793872
0.28077149 0.032555461 0.15846968
0.28077149 0.053852297 0.1584698
0.28077149 0.075149223 0.15846992
0.28077149 0.096446104 0.15846968
0.28077149 0.11774303 0.15846968
0.28077149 0.13903987 0.15846992
0.28077149 0.16033679 0.15846968
0.28077149 0.18163373 0.15846968
0.28077149 0.2029306 0.15846968
0.28077149 0.22422744 0.1584698
0.28077149 0.24552438 0.15846968
0.28077149 0.26682144 0.1584698
0.28077149 0.28811836 0.15846968
0.28077149 0.30941519 0.15846992
0.30477679 -0.31240815 0.19756234
0.30477679 -0.29081032 0.19756234
0.30477679 -0.26921254 0.19756234
0.30477679 -0.24761474 0.19756234
0.30477679 -0.22601686 0.19756234
0.30477679 -0.20441894 0.19756234
0.30477574 -0.18282023 0.1975472
0.30477574 -0.16122241 0.19754732
0.30477574 -0.13962476 0.19754708
0.30477574 -0.11802699 0.19754708
0.30477574 -0.096429341 0.19754732
0.30477574 -0.074831553 0.1975472
0.30477574 -0.053233866 0.19754708
0.30477574 -0.031636126 0.19754708
0.30477574 -0.010038437 0.19754732
0.30474213 0.011555613 0.19706178
0.30474317 0.033149846 0.19707692
0.30477574 0.054754771 0.19754708
0.30477574 0.076352507 0.19754708
0.30477574 0.097950153 0.19754708
0.30477574 0.11954798 0.1975472
0.30477574 0.14114568 0.19754708
0.30477574 0.16274337 0.19754708
0.30477574 0.1843411 0.19754732
0.30477574 0.20593879 0.19754732
0.30477574 0.22753648 0.19754708
0.30477574 0.2491343 0.19754708
0.30477574 0.2707319 0.19754732
0.30477574 0.29232979 0.19754732
0.30477574 0.31392744 0.1975472
0.32946905 -0.31674033 0.23775995
0.32946905 -0.29483303 0.23775995
0.32946905 -0.27292576 0.23775995
0.32946905 -0.25101852 0.23775995
0.32946905 -0.22911122 0.23775995
0.32946905 -0.20720388 0.23775995
0.32946905 -0.18529667 0.23775995
0.32946905 -0.16338937 0.23775995
0.32946905 -0.14148206 0.23775995
0.32946905 -0.11957485 0.23775995
0.32946786 -0.097667046 0.23774421
0.32946786 -0.075759925 0.23774433
0.32946786 -0.053852763 0.23774433
0.32946786 -0.031945508 0.23774433
0.32946786 -0.010038391 0.23774433
0.32946786 0.011868726 0.23774445
0.32946786 0.033775933 0.23774421
0.32946786 0.055683002 0.23774421
0.32946786 0.077590212 0.23774445
0.32946786 0.099497333 0.23774421
0.32946786 0.12140454 0.23774445
0.32946786 0.14331175 0.23774421
0.32946786 0.16521892 0.23774445
0.32946786 0.18712598 0.23774445
0.32946786 0.20903333 0.23774445
0.32946786 0.23094036 0.23774445
0.32946786 0.25284737 0.23774445
0.32946786 0.27475473 0.23774421
0.32946786 0.29666176 0.23774445
0.32946786 0.31856909 0.23774421
0.35488051 -0.29897434 0.27914226
0.35487914 -0.27674708 0.27912617
0.35487914 -0.25452143 0.27912617
0.35487914 -0.23229562 0.27912617
0.35487914 -0.21006991 0.27912617
0.35487914 -0.18784419 0.27912617
0.35487914 -0.16561848 0.27912617
0.35487914 -0.14339277 0.27912617
0.35487914 -0.12116705 0.27912629
0.35487914 -0.098941341 0.27912617
0.35487914 -0.076715626 0.27912617
0.35487914 -0.054489817 0.27912629
0.35487914 -0.032264151 0.27912617
0.35487914 -0.010038483 0.27912617
0.35487777 0.01218723 0.27911019
0.35487777 0.034412805 0.27910995
0.35487777 0.05663833 0.27911019
0.35487777 0.078863956 0.27911019
0.35487777 0.10108962 0.27910995
0.35487777 0.12331511 0.27911019
0.35487777 0.14554073 0.27910995
0.35487777 0.16776635 0.27910995
0.35487777 0.18999192 0.27911007
0.35487777 0.21221749 0.27910995
0.35487777 0.23444298 0.27911019
0.35487777 0.25666866 0.27911007
0.35487777 0.27889431 0.27910995
0.35487777 0.30111974 0.27911007
0.38104036 -0.30323625 0.3217293
0.38104036 -0.28068262 0.3217293
0.38104036 -0.25812882 0.32172918
0.38104036 -0.23557521 0.3217293
0.38104036 -0.21302146 0.32172918
0.38103881 -0.19046688 0.32171273
0.38103881 -0.16791333 0.32171273
0.38103881 -0.14535968 0.32171261
0.38103881 -0.12280611 0.32171261
0.38103881 -0.10025258 0.32171261
0.38103881 -0.077699065 0.32171261
0.38103881 -0.055145536 0.32171261
0.38103881 -0.032591961 0.32171261
0.38103881 -0.010038437 0.32171261
0.38103881 0.012515134 0.32171261
0.38103881 0.035068613 0.32171261
0.38103881 0.057622187 0.32171261
0.38103881 0.080175802 0.32171273
0.38103881 0.10272933 0.32171261
0.38103881 0.1252829 0.32171273
0.38103881 0.14783637 0.32171261
0.38103881 0.17038995 0.32171273
0.38103881 0.19294357 0.32171285
0.38103881 0.21549705 0.32171261
0.38103881 0.23805062 0.32171261
0.38103881 0.26060411 0.32171261
0.38103881 0.28315777 0.32171261
0.38103881 0.30571142 0.32171261
0.40798351 -0.30762565 0.36559117
0.40798351 -0.28473434 0.36559129
0.40798351 -0.26184291 0.36559117
0.40798351 -0.23895167 0.36559129
0.40798351 -0.2160603 0.36559117
0.40798351 -0.193169 0.36559129
0.40798351 -0.17027776 0.36559141
0.40798351 -0.14738646 0.36559129
0.40798351 -0.12449513 0.36559141
0.40792722 -0.10158642 0.36502886
0.40793234 -0.078700565 0.36508012
0.40793404 -0.055813555 0.36509717
0.40792722 -0.032925442 0.36502898
0.40792891 -0.010038391 0.36504602
0.40792722 0.012848568 0.3650291
0.40792722 0.035735618 0.3650291
0.40793234 0.058623731 0.36508012
0.40798181 0.081526265 0.36557424
0.40798181 0.10441751 0.36557424
0.40798181 0.12730871 0.36557424
0.40798181 0.15019992 0.36557436
0.40798181 0.17309119 0.36557424
0.40798181 0.1959824 0.36557424
0.40798181 0.21887361 0.36557424
0.40798181 0.24176466 0.36557424
0.40798181 0.26465586 0.36557424
0.40798181 0.28754705 0.36557424
0.40798181 0.31043825 0.36557436
0.4357475 -0.31215036 0.41080427
0.43574563 -0.28890932 0.41078675
0.43574563 -0.26567009 0.41078663
0.43574563 -0.24243079 0.41078675
0.43574563 -0.21919151 0.41078675
0.43574563 -0.19595242 0.41078687
0.43574563 -0.17271318 0.41078675
0.43574563 -0.14947383 0.41078675
0.43574563 -0.12623459 0.41078675
0.43568507 -0.10297807 0.4102248
0.43568695 -0.079743534 0.41024232
0.43574563 -0.056516919 0.41078651
0.43569076 -0.033273716 0.41027749
0.43574563 -0.010038345 0.41078675
0.43569076 0.013196887 0.41027749
0.43568695 0.036431655 0.4102422
0.43574375 0.059678964 0.4107691
0.43568885 0.082902305 0.41025972
0.43574375 0.10615721 0.4107691
0.43574375 0.12939617 0.4107691
0.43574375 0.15263528 0.41076922
0.43574375 0.1758744 0.4107691
0.43574375 0.19911353 0.41076922
0.43574375 0.22235262 0.4107691
0.43574375 0.24559173 0.41076922
0.43574375 0.2688309 0.4107691
0.43574375 0.29206997 0.41076922
0.43574375 0.31530899 0.4107691
0.46436676 -0.31681281 0.45739532
0.46436676 -0.29321486 0.45739532
0.46436676 -0.26961681 0.45739532
0.46436676 -0.24601866 0.4573952
0.46436676 -0.22242069 0.45739532
0.46436676 -0.19882269 0.45739532
0.46436468 -0.17522365 0.45737708
0.46436468 -0.15162581 0.4573772
0.46436468 -0.12802789 0.4573772
0.46436468 -0.10443005 0.4573772
0.46436468 -0.080832168 0.45737708
0.46436468 -0.057234153 0.45737708
0.46436468 -0.033636317 0.45737708
0.46436468 -0.01003853 0.45737708
0.46436468 0.01355949 0.4573772
0.46436468 0.037157323 0.4573772
0.46436468 0.060755387 0.4573772
0.46436468 0.084353179 0.4573772
0.46436256 0.10795027 0.45735908
0.46436256 0.13154806 0.45735919
0.46436256 0.15514594 0.45735919
0.46436256 0.1787435 0.45735908
0.46436256 0.20234138 0.45735896
0.46436256 0.22593912 0.45735919
0.46436256 0.24953699 0.45735919
0.46436256 0.27313462 0.45735908
0.46436256 0.29673234 0.45735919
0.46436256 0.32033023 0.45735908
0.49388322 -0.29765368 0.50544679
0.49388322 -0.27368581 0.50544679
0.49388322 -0.24971779 0.50544679
0.49388322 -0.22574984 0.50544679
0.49388322 -0.20178193 0.50544679
0.49388322 -0.17781402 0.50544679
0.49388322 -0.15384604 0.50544679
0.49388322 -0.12987809 0.50544703
