ply
format ascii 1.0
comment PCL generated
element vertex 1341
property float x
property float y
property float z
element camera 0
property float view_px
property float view_py
property float view_pz
property float x_axisx
property float x_axisy
property float x_axisz
property float y_axisx
property float y_axisy
property float y_axisz
property float z_axisx
property float z_axisy
property float z_axisz
property float focal
property float scalex
property float scaley
property float centerx
property float centery
property int viewportx
property int viewporty
property float k1
property float k2
end_header
0.23414874 0.2990194 -0.32572818
-0.23486522 0.31134337 -0.33420348
-0.21493353 0.31184989 -0.33091366
-0.19489619 0.31230539 -0.32795441
-0.17475802 0.31272435 -0.32523358
0.17294006 0.31284228 -0.32446682
0.19311137 0.31242323 -0.32718921
0.21321911 0.31199393 -0.32997811
0.2331899 0.31148592 -0.33327734
-0.23506756 0.32514292 -0.33274305
-0.21470679 0.32514477 -0.33273208
-0.19434325 0.32514292 -0.33274305
-0.17402165 0.32520866 -0.33233702
-0.15383194 0.32551572 -0.3304373
-0.13361116 0.3258571 -0.32832515
-0.10654529 0.32622999 -0.32601881
-0.086189054 0.32647476 -0.32450414
-0.072584942 0.32659408 -0.32376611
0.084299803 0.32652423 -0.32419848
0.10468667 0.32629794 -0.32559872
0.12502651 0.32604435 -0.32716727
0.15204495 0.32561147 -0.32984459
0.17223965 0.32525519 -0.33204889
0.19253695 0.32514173 -0.33275044
0.21290238 0.32514641 -0.33272088
0.23326243 0.32514355 -0.33273923
-0.2385606 0.26724362 -0.30753422
-0.21784081 0.27407879 -0.30802393
-0.197557 0.27448612 -0.30491126
-0.18396927 0.27473056 -0.30304337
0.19550928 0.27459037 -0.30411446
0.21586588 0.27420539 -0.30705631
0.23658152 0.26736549 -0.30657434
-0.23696201 0.28631309 -0.31907117
-0.21431285 0.29102823 -0.31789255
-0.19621937 0.29350513 -0.3164953
-0.17595252 0.29389763 -0.31373906
-0.15560289 0.29424968 -0.31126642
-0.13547811 0.28823131 -0.30522704
-0.10806309 0.28856456 -0.30282187
0.10593829 0.28862703 -0.30237138
0.12654145 0.28839973 -0.30401182
0.15596631 0.29219395 -0.30960917
0.17400312 0.29400876 -0.31295872
0.19430342 0.29361579 -0.31571829
0.21453579 0.29320893 -0.3185755
0.23511536 0.28644514 -0.31811786
-0.15453503 0.313095 -0.32282615
-0.1345391 0.30715257 -0.31684458
-0.10729954 0.30750573 -0.31449127
-0.08681161 0.30773693 -0.31295109
-0.066265292 0.30789843 -0.31187463
-0.045691758 0.30803692 -0.31095219
-0.025086844 0.30810899 -0.31047177
-0.004470191 0.30815333 -0.31017661
0.016151723 0.30813619 -0.31029022
0.043637015 0.30806184 -0.31078577
0.064228095 0.30793813 -0.31161034
0.084789611 0.30778536 -0.31262815
0.10530864 0.30757096 -0.31405604
0.12577921 0.30733001 -0.31566215
0.15060022 0.30904302 -0.31943941
-0.23922729 0.34380189 -0.30272269
-0.21851851 0.34380192 -0.30272281
-0.19780704 0.34379786 -0.3027457
-0.17709772 0.3437967 -0.30275333
-0.15638998 0.34379786 -0.3027457
-0.13568114 0.3437973 -0.30274951
-0.1080693 0.3437961 -0.30275702
-0.087361529 0.34379786 -0.3027457
-0.064090207 0.3380962 -0.30954862
-0.045639671 0.33529493 -0.312644
-0.025049629 0.33533174 -0.3124162
-0.0044541005 0.33535591 -0.31226683
0.016144076 0.33534652 -0.31232476
0.043603048 0.3353067 -0.31257129
0.064186148 0.33524182 -0.31297255
0.085209593 0.34379786 -0.3027457
0.10591771 0.3437967 -0.30275333
0.12662593 0.3437961 -0.30275702
0.15423805 0.34379786 -0.3027457
0.17494586 0.3437967 -0.30275333
0.19565472 0.3437973 -0.30274951
0.2163654 0.34380057 -0.30273056
0.23707557 0.34380257 -0.302719
-0.24181744 0.22837928 -0.28402996
-0.22082447 0.23531529 -0.28453279
0.21858044 0.23542149 -0.28354752
0.24168457 0.23063195 -0.28475189
-0.24017668 0.247952 -0.29587114
-0.21982157 0.24834943 -0.29242885
-0.19982964 0.24219516 -0.28522956
-0.17879792 0.24905038 -0.28635812
-0.1512329 0.24943894 -0.2829932
-0.13046993 0.24969515 -0.28077459
0.13504411 0.24968261 -0.28088427
0.14890438 0.24951193 -0.28236127
0.16963825 0.24924225 -0.2846967
0.19714268 0.2488151 -0.28839672
0.2112639 0.24205835 -0.28641844
0.23806472 0.24806452 -0.29489672
-0.2188264 0.26126942 -0.30026412
-0.1984597 0.26165995 -0.29709363
-0.17543469 0.26633012 -0.29657233
-0.15017854 0.26884753 -0.29490399
-0.1295514 0.26912659 -0.29270649
-0.10883876 0.26934737 -0.2909677
-0.088080674 0.26954654 -0.2894001
-0.067264996 0.2696909 -0.28826213
-0.046419777 0.26981193 -0.28730929
-0.025542466 0.26987708 -0.28679657
-0.0046525924 0.26991707 -0.28648186
0.016242858 0.26990104 -0.28660822
0.044092089 0.26983392 -0.28713667
0.064955689 0.26972666 -0.28798103
0.085787661 0.2695905 -0.2890532
0.10657696 0.26940435 -0.290519
0.127315 0.26919231 -0.29218888
0.14798687 0.26892677 -0.29428017
0.16858743 0.26863623 -0.2965678
0.19632243 0.26175892 -0.29628992
0.21676289 0.26138967 -0.29928815
-0.087441407 0.2887806 -0.30126333
-0.066761523 0.28893438 -0.30015373
-0.046053052 0.28906381 -0.29921925
-0.025312914 0.2891323 -0.29872465
-0.0045607984 0.28917649 -0.29840636
0.016196927 0.28915787 -0.29854071
0.043862775 0.28908667 -0.29905438
0.064589351 0.28897259 -0.29987812
0.085284837 0.28882676 -0.3009305
-0.23715457 0.20200181 -0.26683402
-0.2164723 0.20231535 -0.26329112
-0.19520698 0.20930502 -0.26416445
-0.17435046 0.20957631 -0.26122856
-0.1603907 0.20974174 -0.25943649
0.17178322 0.20964687 -0.26046443
0.19269694 0.20938233 -0.26332808
0.21613225 0.2046013 -0.264063
0.23913476 0.20424792 -0.26795423
0.2490281 0.195205 -0.26413321
-0.22183616 0.22216654 -0.27656722
-0.19430263 0.22259699 -0.27226639
-0.17353667 0.22288781 -0.2693603
-0.15266132 0.22313823 -0.26685739
-0.13171543 0.22336471 -0.26459503
-0.11068662 0.22355166 -0.26272583
-0.08960519 0.22371344 -0.26110864
-0.068465739 0.22383437 -0.25990081
-0.047293827 0.22393213 -0.25892377
-0.026089335 0.22398674 -0.25837874
0.023426261 0.22399639 -0.25828278
0.044638529 0.22395061 -0.25873959
0.065828711 0.2238616 -0.25962865
0.086986437 0.22375078 -0.2607367
0.10809893 0.22359686 -0.26227486
0.12915686 0.22342052 -0.26403713
0.15014771 0.22320303 -0.26621008
0.17106177 0.22296235 -0.26861489
0.19188502 0.22267948 -0.27144134
0.21261354 0.22237714 -0.2744627
0.23322868 0.22203255 -0.27790701
-0.18652447 0.23587549 -0.27933407
-0.17273007 0.23608182 -0.2774204
-0.15194377 0.23634668 -0.27496326
-0.13108991 0.23658822 -0.27272058
-0.1098883 0.24334486 -0.27492666
-0.08894635 0.24352258 -0.27333498
-0.067946926 0.24365418 -0.27215493
-0.046915971 0.24376132 -0.27119505
-0.025853058 0.24382137 -0.2706573
-0.0047768159 0.24385621 -0.27034473
0.016305 0.2438432 -0.27046156
0.044402331 0.24378164 -0.27101314
0.065451391 0.24368465 -0.27188265
0.086468384 0.24356283 -0.27297401
0.10744115 0.24339454 -0.27448189
0.12613299 0.2410422 -0.27464545
0.14952329 0.2364158 -0.27432156
0.17034669 0.23616017 -0.27669334
0.19108026 0.23585951 -0.27948308
-0.22246365 0.36310706 -0.27166247
-0.19437374 0.36310706 -0.27166247
-0.17330627 0.36310706 -0.27166247
-0.15223885 0.36310706 -0.27166247
-0.13117138 0.36310706 -0.27166247
-0.11010394 0.36310706 -0.27166247
-0.089036472 0.36310706 -0.27166247
-0.067969017 0.36310706 -0.27166247
-0.046901576 0.36310706 -0.27166247
-0.025834126 0.36310706 -0.27166247
-0.0047666728 0.36310706 -0.27166247
0.016300779 0.36310706 -0.27166247
0.044390716 0.36310706 -0.27166247
0.065458171 0.36310706 -0.27166247
0.086525612 0.36310706 -0.27166247
0.10759307 0.36310706 -0.27166247
0.12866053 0.36310706 -0.27166247
0.14972797 0.36310706 -0.27166247
0.17079544 0.36310706 -0.27166247
0.19186287 0.36310706 -0.27166247
0.21293034 0.36310706 -0.27166247
0.23399779 0.36310706 -0.27166247
-0.24046697 0.16136396 -0.24224484
-0.21899924 0.16847906 -0.24277472
-0.19797009 0.16871214 -0.23940885
0.18106157 0.16891022 -0.2365489
0.1951758 0.16877098 -0.23855782
0.21626499 0.16855016 -0.24174595
0.23775096 0.16143291 -0.24119055
0.25117081 0.16813356 -0.24775946
-0.2387985 0.1818336 -0.25463057
-0.21798144 0.18211006 -0.25103819
-0.19704124 0.18236472 -0.24773073
-0.17599912 0.18259394 -0.24475408
-0.15485246 0.18279782 -0.24210572
-0.13362527 0.18297639 -0.23978567
-0.11231618 0.18312766 -0.23782027
0.10944231 0.18316428 -0.23734498
0.1307829 0.18302265 -0.23918414
0.15205351 0.18284802 -0.24145305
0.17324492 0.18265563 -0.24395168
0.19434182 0.18242942 -0.24689138
0.2153399 0.18218744 -0.25003493
0.23622295 0.18191317 -0.25359643
0.25009418 0.18172917 -0.25598669
-0.1961198 0.19589487 -0.25598621
-0.17517151 0.19614574 -0.25302422
-0.15153691 0.20087071 -0.2529285
-0.13266432 0.20329092 -0.25226855
-0.11149663 0.20346105 -0.25034559
-0.090274133 0.20360722 -0.24869454
-0.068992428 0.20371643 -0.24746001
-0.047677241 0.20380393 -0.24647188
-0.026329206 0.20385312 -0.24591553
-0.0049674073 0.20388219 -0.24558628
0.01640027 0.20387203 -0.24570227
0.044878215 0.20382066 -0.24628317
0.066211835 0.20374066 -0.24718618
0.087512195 0.20364055 -0.24831772
0.10876615 0.20350111 -0.24989271
0.12996501 0.20334253 -0.2516849
0.15109493 0.20314603 -0.25390542
0.1725108 0.19621165 -0.25224519
0.19351612 0.19596627 -0.25514245
0.20747779 0.19580096 -0.25709546
-0.0048713982 0.22401883 -0.25805819
0.0092782956 0.22401799 -0.25806618
-0.23368773 0.38308364 -0.23955655
-0.21939562 0.38308364 -0.23955655
-0.19795741 0.38308364 -0.23955655
-0.17651924 0.38308364 -0.23955655
-0.15508108 0.38308364 -0.23955655
-0.1336429 0.38308364 -0.23955655
-0.11220472 0.38308364 -0.23955655
-0.090766534 0.38308364 -0.23955655
-0.069328368 0.38308364 -0.23955655
-0.047890179 0.38308364 -0.23955655
-0.026452003 0.38308364 -0.23955655
-0.0050138235 0.38308364 -0.23955655
0.016424354 0.38308364 -0.23955655
0.045008592 0.38308364 -0.23955655
0.066446774 0.38308364 -0.23955655
0.087884963 0.38308364 -0.23955655
0.10932313 0.38308364 -0.23955655
0.13076131 0.38308364 -0.23955655
0.15219949 0.38308364 -0.23955655
0.17363767 0.38308364 -0.23955655
0.19507584 0.38308364 -0.23955655
0.21651401 0.38308364 -0.23955655
0.23795222 0.38308364 -0.23955655
-0.23624672 0.12672867 -0.22000229
-0.22210909 0.12684312 -0.21752584
0.22618367 0.12683497 -0.21770191
0.24033907 0.12672058 -0.22017789
-0.23513973 0.14071551 -0.22846127
-0.21449925 0.13390273 -0.22052503
-0.19985406 0.14103511 -0.22252989
-0.17852715 0.14119881 -0.21949255
-0.15710407 0.14135092 -0.21667075
0.15401223 0.14138651 -0.21600831
0.17548817 0.14124641 -0.21860945
0.19686647 0.1410819 -0.22166348
0.21609055 0.13625327 -0.22170174
0.23929636 0.14070562 -0.22864342
-0.22002721 0.15472552 -0.23442864
-0.19890779 0.15493622 -0.23100758
-0.17725551 0.16202107 -0.23219919
-0.15597145 0.16219985 -0.22946513
-0.1345998 0.16235285 -0.22712588
-0.11314832 0.16248517 -0.22510231
-0.091636278 0.16259551 -0.22341621
-0.070066243 0.16268173 -0.22209787
-0.048459433 0.1627489 -0.22106969
-0.026818866 0.16278806 -0.22047055
-0.0051633026 0.16280985 -0.22013879
0.016498178 0.16280159 -0.22026408
0.045367301 0.16276234 -0.22086525
0.066993415 0.16270092 -0.2218039
0.088584624 0.16262366 -0.22298515
0.11012809 0.16251686 -0.22461832
0.13161308 0.16239409 -0.22649527
0.15302727 0.16224314 -0.2288034
0.17212562 0.15979783 -0.2296294
0.19601731 0.15498918 -0.23014891
0.21719892 0.15479028 -0.23337829
-0.090949841 0.18325582 -0.23615503
-0.069525719 0.18335521 -0.23486459
-0.048065312 0.18343174 -0.23386908
-0.026572047 0.18347581 -0.23329675
-0.0050645797 0.1835015 -0.23296309
0.016448846 0.18349266 -0.23307848
0.045120962 0.18344738 -0.23366749
0.0665996 0.18337597 -0.23459327
0.088044316 0.18328711 -0.23574829
-0.23906326 0.091185242 -0.19848001
-0.21707951 0.098489001 -0.19903624
-0.19555137 0.098595619 -0.195575
-0.18112855 0.098659545 -0.19349766
0.19224297 0.098622799 -0.19469082
0.21385323 0.098522834 -0.19793832
0.23805092 0.093601838 -0.19926202
-0.2373649 0.11261501 -0.21145785
-0.21604611 0.11275972 -0.20769751
-0.1946113 0.1128905 -0.20429778
-0.1730597 0.11300962 -0.20120394
-0.15140919 0.11311262 -0.19852853
-0.1296698 0.11320498 -0.19612753
-0.10785335 0.11328007 -0.19417644
-0.093274869 0.11332516 -0.19300771
0.10447089 0.11329964 -0.19366932
0.12633331 0.11323219 -0.19542062
0.14810173 0.1131395 -0.19783139
0.16981539 0.1130443 -0.20030487
0.19140288 0.11292421 -0.20342159
0.21291915 0.11280174 -0.20660579
0.23428199 0.11265629 -0.21038568
-0.19367893 0.1270545 -0.21294904
-0.17222492 0.12719622 -0.20987916
-0.15067144 0.12731814 -0.20724118
-0.12871249 0.13447288 -0.2092191
-0.1070447 0.13456847 -0.20730734
-0.085315317 0.13465157 -0.20564568
-0.063533917 0.13471191 -0.20444047
-0.041714802 0.13475934 -0.20349276
-0.019868709 0.13478374 -0.20300388
-0.0052968767 0.13479462 -0.20278692
0.016564932 0.1347882 -0.20291436
0.038421374 0.13477102 -0.20325899
0.060253419 0.13472652 -0.20414722
0.082062073 0.13467494 -0.20517921
0.10381351 0.13459352 -0.20680737
0.12552598 0.13450733 -0.20853031
0.14485858 0.1320571 -0.20917952
0.16908042 0.12723774 -0.20898426
0.19057088 0.12709516 -0.21206832
-0.21621662 0.40377432 -0.20630896
-0.19439453 0.40377432 -0.20630896
-0.17257245 0.40377432 -0.20630896
-0.15075037 0.40377432 -0.20630896
-0.12892827 0.40377432 -0.20630896
-0.10710617 0.40377432 -0.20630896
-0.085284084 0.40377432 -0.20630896
-0.063461997 0.40377432 -0.20630896
-0.041639917 0.40377432 -0.20630896
-0.019817822 0.40377432 -0.20630896
-0.0052697631 0.40377432 -0.20630896
0.016552325 0.40377432 -0.20630896
0.038374413 0.40377432 -0.20630896
0.060196504 0.40377432 -0.20630896
0.082018591 0.40377432 -0.20630896
0.10384068 0.40377432 -0.20630896
0.12566276 0.40377432 -0.20630896
0.14748487 0.40377432 -0.20630896
0.16930696 0.40377432 -0.20630896
0.19112904 0.40377432 -0.20630896
0.21295112 0.40377432 -0.20630896
0.22749917 0.40377432 -0.20630896
-0.24194247 0.054850534 -0.17647874
-0.22748628 0.054870591 -0.17386842
0.21670854 0.054889224 -0.17144442
0.23846236 0.054859202 -0.17534876
-0.24078253 0.069491684 -0.18534243
-0.21917456 0.069551274 -0.18147719
-0.19745775 0.069606595 -0.17788601
-0.17560942 0.069655538 -0.17470515
-0.15366539 0.069698989 -0.17188406
0.15740013 0.069697171 -0.17199838
0.17206138 0.069669805 -0.17378092
0.19394661 0.069620445 -0.17698526
0.21574827 0.069568485 -0.18035471
0.23740308 0.069508865 -0.18422723
-0.21812198 0.084086746 -0.19029915
-0.19650014 0.08416824 -0.18677139
-0.17205942 0.089068592 -0.18621588
-0.15253067 0.091540471 -0.1852845
-0.13064165 0.091606274 -0.18283689
-0.10867408 0.091659717 -0.18084931
-0.086642601 0.09170641 -0.17911696
-0.064557754 0.091740787 -0.17784047
-0.042431675 0.091766492 -0.1768837
-0.020278802 0.091780379 -0.17636764
-0.0055019716 0.091786429 -0.17614436
0.016667468 0.091783054 -0.1762712
0.038831353 0.091773331 -0.17663014
0.060969628 0.091748178 -0.17756307
0.083084092 0.091719627 -0.17862642
0.10513828 0.091673747 -0.18033123
0.12715323 0.091625914 -0.18210697
0.14907062 0.091559306 -0.18458176
0.17093144 0.09149085 -0.18712473
0.19309084 0.084188811 -0.18587911
0.21479686 0.084112525 -0.18918288
0.22917913 0.084052876 -0.19176042
-0.078673296 0.11336579 -0.19194973
-0.064041868 0.11339296 -0.19124377
-0.042070597 0.11342981 -0.19028699
-0.020072198 0.11344913 -0.18978691
-0.0053986115 0.11345728 -0.18957114
0.016615819 0.11345268 -0.18969202
0.038624801 0.11343916 -0.1900456
0.060608841 0.11340406 -0.19095492
0.082568966 0.11336346 -0.19200993
-0.22033361 0.42522824 -0.17180502
-0.19811311 0.42522824 -0.17180502
-0.17589261 0.42522824 -0.17180502
-0.15367208 0.42522824 -0.17180502
-0.13145158 0.42522824 -0.17180502
-0.10923108 0.42522824 -0.17180502
-0.08701057 0.42522824 -0.17180502
-0.064790055 0.42522824 -0.17180502
-0.042569555 0.42522824 -0.17180502
-0.020349048 0.42522824 -0.17180502
-0.0055353763 0.42522824 -0.17180502
0.016685132 0.42522824 -0.17180502
0.038905639 0.42522824 -0.17180502
0.06112615 0.42522824 -0.17180502
0.08334665 0.42522824 -0.17180502
0.10556716 0.42522824 -0.17180502
0.12778766 0.42522824 -0.17180502
0.15000817 0.42522824 -0.17180502
0.17222868 0.42522824 -0.17180502
0.1944492 0.42522824 -0.17180502
0.21666971 0.42522824 -0.17180502
0.23148337 0.42522824 -0.17180502
-0.23903865 0.03012187 -0.16062272
-0.22183512 0.032594316 -0.15903234
-0.19989236 0.032584868 -0.15529549
-0.18471012 0.040072795 -0.15770864
-0.15520556 0.040072665 -0.15369546
-0.13295895 0.040072795 -0.1511482
0.15880013 0.040072795 -0.15381205
0.19843762 0.035081275 -0.15626371
0.21865614 0.025117196 -0.153373
0.24007176 0.032610249 -0.16186023
-0.21350802 0.047481719 -0.16677105
-0.19842428 0.054908633 -0.16891742
-0.17431293 0.049979918 -0.1623174
-0.15443186 0.054955605 -0.1628325
-0.13228904 0.054974981 -0.16030908
-0.11006733 0.054990996 -0.15822577
-0.087776519 0.055004679 -0.15645432
-0.065431632 0.055014804 -0.15513647
-0.043044068 0.055022374 -0.15415227
-0.020629101 0.055026516 -0.153615
-0.0056772642 0.055028394 -0.153373
0.01675511 0.055027325 -0.15350735
0.039181828 0.055024575 -0.15386581
0.061582029 0.055017103 -0.15483236
0.083957605 0.055008724 -0.15593207
0.10626996 0.054994974 -0.15771294
0.12882338 0.047526751 -0.15498698
0.14846446 0.049998354 -0.15877855
0.17320904 0.047506791 -0.16022789
0.19481039 0.054915782 -0.16800845
0.2176778 0.040072922 -0.16245103
-0.13162538 0.069737419 -0.16938424
-0.10950617 0.069768995 -0.16733813
-0.087319538 0.069795936 -0.1655879
-0.065079443 0.069815964 -0.16428649
-0.042797297 0.069830909 -0.16331148
-0.020488005 0.069839194 -0.16277933
-0.0056066308 0.069842622 -0.16254854
0.016719803 0.069840617 -0.16268182
0.039040498 0.069835052 -0.16304541
0.061335094 0.06982027 -0.1639986
0.083605364 0.06980367 -0.16508341
0.1058136 0.069776662 -0.16683435
0.12798232 0.069748744 -0.16864407
0.14270313 0.069722794 -0.17033589
-0.23992224 -0.012806918 -0.13417089
-0.21720456 -0.0052237399 -0.13475835
-0.1949338 -0.0053086579 -0.1310842
0.17594771 -0.0053824484 -0.12788534
0.19089244 -0.0053306893 -0.13012648
0.21322288 -0.0052493587 -0.13365173
0.23596612 -0.01283896 -0.13298309
0.25017139 -0.005094599 -0.14034915
-0.23816121 0.010079557 -0.14803576
-0.21613516 0.010017639 -0.14401948
-0.19396493 0.0099621266 -0.14040756
-0.17169231 0.0099110138 -0.13709331
-0.15677434 0.0098813809 -0.13516903
-0.13431799 0.0098413005 -0.13256371
-0.11178254 0.0098075587 -0.13037419
-0.089174084 0.0097790603 -0.12851942
0.085033938 0.009770615 -0.12796819
0.10766447 0.0097994395 -0.12984192
0.13024996 0.009829944 -0.13182259
0.1527392 0.0098698325 -0.13441527
0.17515568 0.0099132787 -0.13723886
0.19003035 0.0099475048 -0.13945901
0.21225849 0.010000914 -0.14293265
0.2343632 0.010061506 -0.14686501
0.24903826 0.010102721 -0.14954901
-0.17823148 0.025071647 -0.14745474
-0.15598586 0.025048807 -0.14448071
-0.13363524 0.025028978 -0.14190018
-0.11120517 0.025012381 -0.13974953
-0.0860577 0.030023094 -0.1408304
-0.065965936 0.032530423 -0.14125454
-0.040960468 0.030010931 -0.13856769
-0.020915624 0.02497589 -0.13500464
-0.0058206338 0.024973884 -0.13474882
0.019318897 0.030007545 -0.13804805
0.039396465 0.032525312 -0.13992488
0.059499502 0.030014597 -0.13924074
0.084671848 0.024994072 -0.13737559
0.10696324 0.032540515 -0.143857
0.12967511 0.025023252 -0.14115691
0.15205774 0.025043048 -0.14373422
0.17437111 0.025064401 -0.14650404
0.18917641 0.025081288 -0.14870298
-0.11063383 0.040072858 -0.14902711
-0.095710322 0.040072858 -0.14781141
-0.050796054 0.040072922 -0.14518571
-0.02077182 0.040072858 -0.14434505
-0.0057486417 0.040072858 -0.14410102
0.0092782956 0.040072858 -0.14412808
0.069329001 0.040072858 -0.14595354
0.084313206 0.040072922 -0.14669371
-0.2321483 0.44748014 -0.13601768
-0.21705915 0.44748014 -0.13601768
-0.1944254 0.44748014 -0.13601768
-0.17179166 0.44748014 -0.13601768
-0.1567025 0.44748014 -0.13601768
-0.13406876 0.44748014 -0.13601768
-0.111435 0.44748014 -0.13601768
-0.088801257 0.44748014 -0.13601768
-0.066167518 0.44748014 -0.13601768
-0.043533772 0.44748014 -0.13601768
-0.02090003 0.44748014 -0.13601768
-0.0058108671 0.44748014 -0.13601768
0.016822876 0.44748014 -0.13601768
0.039456621 0.44748014 -0.13601768
0.06209036 0.44748014 -0.13601768
0.084724113 0.44748014 -0.13601768
0.10735785 0.44748014 -0.13601768
0.12999159 0.44748014 -0.13601768
0.15262535 0.44748014 -0.13601768
0.1752591 0.44748014 -0.13601768
0.19034825 0.44748014 -0.13601768
0.212982 0.44748014 -0.13601768
0.23561575 0.44748014 -0.13601768
-0.23544583 -0.051698782 -0.10924506
-0.2204724 -0.051827468 -0.10645807
0.22369201 -0.05181893 -0.10664594
0.23868661 -0.051690497 -0.10942304
-0.23427533 -0.036037758 -0.11874831
-0.21937197 -0.036143929 -0.1159879
-0.196899 -0.036290735 -0.1121732
-0.17430983 -0.036422208 -0.10875773
-0.15918486 -0.036501467 -0.10670233
0.16998668 -0.036456883 -0.10785675
0.19264151 -0.036328524 -0.11119235
0.21517989 -0.0361889 -0.11481833
0.23759052 -0.036031291 -0.11891544
-0.21828312 -0.020610239 -0.12541771
-0.19591144 -0.020725437 -0.12167633
-0.17299271 -0.013107724 -0.12301576
-0.15307075 -0.015756272 -0.11885679
-0.13271706 -0.010661535 -0.11967289
-0.11265947 -0.013293382 -0.11613452
-0.089888588 -0.013344478 -0.11423874
-0.067059107 -0.013381891 -0.11285353
-0.044185631 -0.013410829 -0.11177897
-0.021281844 -0.01342592 -0.11121809
-0.0059667034 -0.0056622736 -0.1157738
0.016918276 -0.013429105 -0.11110115
0.039834477 -0.013419028 -0.11147535
0.062722206 -0.013391014 -0.11251247
0.085583195 -0.013359051 -0.11369801
0.10837722 -0.01330784 -0.11559677
0.13112359 -0.013252847 -0.11763632
0.15113904 -0.010613486 -0.12154722
0.16921417 -0.020856649 -0.11741507
0.19176278 -0.020755295 -0.12070489
0.21419694 -0.020645306 -0.12427771
-0.066508152 0.0097583216 -0.1271677
-0.043799467 0.0097420178 -0.12611353
-0.021060955 0.0097336061 -0.12556541
-0.0058933171 0.0097295959 -0.12530708
0.016863037 0.0097318273 -0.12545002
0.039613716 0.0097374246 -0.1258142
0.062336281 0.0097531788 -0.12683642
-0.23781857 -0.083475664 -0.089980841
-0.2227042 -0.083651133 -0.087129951
0.21818569 -0.083727382 -0.0858922
0.24091175 -0.083465055 -0.09015286
-0.23662649 -0.067510553 -0.099659443
-0.22158235 -0.067662209 -0.096845388
-0.19839899 -0.059940755 -0.097738743
-0.17564827 -0.060114473 -0.09426856
-0.15277389 -0.060266174 -0.09123826
-0.12947515 -0.052429505 -0.093423843
-0.11414846 -0.052497305 -0.091956496
-0.091100872 -0.052587174 -0.090009451
-0.067994297 -0.052654333 -0.08855629
-0.044840932 -0.052705154 -0.08745563
-0.021656835 -0.052732624 -0.08686173
-0.0061911885 -0.052744076 -0.086612344
0.017011967 -0.05273696 -0.086765766
0.040209152 -0.052719682 -0.087139487
0.063376628 -0.052669801 -0.088221431
0.086516298 -0.05261267 -0.089455485
0.10958799 -0.052523062 -0.091398478
0.13260765 -0.052424259 -0.093537927
0.148238 -0.060305856 -0.090446591
0.17116031 -0.060161203 -0.093335271
0.19397579 -0.059990346 -0.096748352
0.21433476 -0.062467813 -0.098369837
0.23979437 -0.067501366 -0.099829793
-0.14400756 -0.036570176 -0.10491562
-0.12880298 -0.036638953 -0.10312581
-0.11354778 -0.036693558 -0.10171056
-0.090612367 -0.036768056 -0.099772692
-0.067617603 -0.036823086 -0.098343372
-0.044576846 -0.036864854 -0.097258091
-0.021505756 -0.036887273 -0.096674681
-0.0061156293 -0.03689678 -0.096427917
0.016974235 -0.036890894 -0.096579909
0.04005811 -0.036876656 -0.096949816
0.063112751 -0.036835641 -0.0980165
0.086139925 -0.036788799 -0.099233627
0.10909969 -0.036714718 -0.10115778
0.13200907 -0.036633842 -0.10325778
0.14722775 -0.03656584 -0.10502851
-0.006040806 -0.021203604 -0.10614789
-0.22134377 0.47056723 -0.098911643
-0.19828156 0.47056723 -0.098911643
-0.17521936 0.47056723 -0.098911643
-0.15215714 0.47056723 -0.098911643
-0.12909494 0.47056723 -0.098911643
-0.11372014 0.47056723 -0.098911643
-0.090657935 0.47056723 -0.098911643
-0.06759572 0.47056723 -0.098911643
-0.044533521 0.47056723 -0.098911643
-0.021471314 0.47056723 -0.098911643
-0.0060965093 0.47056723 -0.098911643
0.016965698 0.47056723 -0.098911643
0.040027905 0.47056723 -0.098911643
0.063090108 0.47056723 -0.098911643
0.086152315 0.47056723 -0.098911643
0.10921453 0.47056723 -0.098911643
0.13227673 0.47056723 -0.098911643
0.14765154 0.47056723 -0.098911643
0.17071374 0.47056723 -0.098911643
0.19377595 0.47056723 -0.098911643
0.21683815 0.47056723 -0.098911643
-0.24023774 -0.11587477 -0.070339561
-0.2173267 -0.1162104 -0.0659796
0.21257317 -0.11630787 -0.064712882
0.23553932 -0.11597311 -0.069061637
-0.23902227 -0.099596187 -0.080207944
-0.21621998 -0.099894941 -0.075895548
-0.193284 -0.10016257 -0.072033167
-0.17791995 -0.10032588 -0.069676995
-0.1547731 -0.10054569 -0.066503525
-0.13153423 -0.10073976 -0.063703299
0.13443655 -0.10073026 -0.063840628
0.1499524 -0.10060138 -0.065701723
0.17315166 -0.10039382 -0.068696141
0.19624181 -0.10014983 -0.07221806
0.2115801 -0.099982187 -0.074636221
0.23443644 -0.099683896 -0.078942537
-0.19991949 -0.083898969 -0.083106995
-0.17700417 -0.08411555 -0.07959044
-0.15396698 -0.084307253 -0.076477051
-0.13084067 -0.084477417 -0.073714375
-0.10484876 -0.079251237 -0.074603915
-0.08409749 -0.076666057 -0.074512243
-0.068567365 -0.076714873 -0.073667884
-0.045242548 -0.076779544 -0.07254827
-0.021886447 -0.076814249 -0.071947813
-0.0063060233 -0.076828845 -0.07169497
0.017069388 -0.076820157 -0.071845651
0.040438697 -0.076797977 -0.072229743
0.063777596 -0.076733924 -0.073337674
0.087087721 -0.076660492 -0.07460928
0.10258893 -0.076584727 -0.075922966
0.12607922 -0.084518045 -0.07305336
0.1492615 -0.084356815 -0.075673461
0.1723485 -0.084174462 -0.078633785
0.19532833 -0.083960466 -0.082106709
-0.13015458 -0.068375014 -0.08361733
-0.11475565 -0.068456918 -0.082097054
0.11780229 -0.068451166 -0.082203031
0.13321152 -0.068368733 -0.083732605
-0.242706 -0.14891538 -0.050300002
-0.21957257 -0.1493257 -0.045857906
-0.19630957 -0.1497007 -0.041799903
-0.13294011 -0.13374963 -0.043411613
-0.11723916 -0.13388862 -0.041769981
0.12783143 -0.13380986 -0.042700648
0.1990369 -0.14968583 -0.04196012
0.21458982 -0.14944546 -0.044561267
0.23777886 -0.14903586 -0.048996449
-0.2414664 -0.13231413 -0.060364246
-0.21844439 -0.13268656 -0.0559659
-0.19478583 -0.12476763 -0.057026029
-0.17931132 -0.12496251 -0.054614902
-0.1559979 -0.12522668 -0.051349401
-0.13223334 -0.1171623 -0.053612709
-0.10877682 -0.11733748 -0.051337361
-0.085262179 -0.11749467 -0.049295783
-0.06953951 -0.11756292 -0.048410535
-0.0459245 -0.11765331 -0.04723525
-0.022276135 -0.11769944 -0.046637177
-0.0065010674 -0.1177208 -0.046357989
0.017166827 -0.11770847 -0.046517611
0.040828578 -0.11767867 -0.046906352
0.064458318 -0.11758886 -0.04807198
0.088057823 -0.11748619 -0.049405336
0.1037513 -0.11738221 -0.050756812
0.12724154 -0.11721568 -0.05291903
0.15100348 -0.12529282 -0.050530553
0.17437194 -0.12504488 -0.053597093
0.19763015 -0.12475435 -0.057188988
0.21357602 -0.13279447 -0.054691553
0.23665357 -0.132423 -0.059078455
-0.10819156 -0.10089411 -0.061474919
-0.084792338 -0.10103311 -0.059468389
-0.069147639 -0.10109386 -0.058591843
-0.045649499 -0.10117342 -0.057443023
-0.022119107 -0.10121557 -0.056836009
-0.0064223837 -0.10123336 -0.056579471
0.01712757 -0.10122301 -0.056727529
0.040671296 -0.10119563 -0.05712235
0.064183779 -0.10111676 -0.058261752
0.087666705 -0.10102631 -0.059566975
0.10328258 -0.10093367 -0.06090498
0.11887795 -0.10084102 -0.062241554
-0.21795689 0.49454322 -0.060383558
-0.19444981 0.49454322 -0.060383558
-0.17877842 0.49454322 -0.060383558
-0.15527132 0.49454322 -0.060383558
-0.13176423 0.49454322 -0.060383558
-0.10825714 0.49454322 -0.060383558
-0.084750064 0.49454322 -0.060383558
-0.069078662 0.49454322 -0.060383558
-0.045571581 0.49454322 -0.060383558
-0.02206449 0.49454322 -0.060383558
-0.0063930973 0.49454322 -0.060383558
0.017113991 0.49454322 -0.060383558
0.04062108 0.49454322 -0.060383558
0.064128168 0.49454322 -0.060383558
0.087635256 0.49454322 -0.060383558
0.10330666 0.49454322 -0.060383558
0.12681372 0.49454322 -0.060383558
0.15032083 0.49454322 -0.060383558
0.17382792 0.49454322 -0.060383558
0.19733502 0.49454322 -0.060383558
0.21300641 0.49454322 -0.060383558
0.22867778 0.49454322 -0.060383558
-0.24649942 -0.19971894 -0.01950109
0.24904983 -0.19969867 -0.019675016
-0.2374438 -0.18277816 -0.028357625
-0.21406151 -0.18326707 -0.023822069
-0.19837937 -0.1835586 -0.02111721
0.2009472 -0.18354087 -0.021280766
0.21664691 -0.18324733 -0.024005532
0.24006322 -0.18275955 -0.028530002
-0.24395791 -0.1656816 -0.040135622
-0.22071254 -0.16613108 -0.035644531
-0.19733928 -0.16654477 -0.031510353
-0.17382166 -0.16691498 -0.027809739
-0.1501866 -0.16723162 -0.024647593
-0.13437502 -0.16742644 -0.022700071
-0.11056995 -0.16766883 -0.020278573
0.10518643 -0.1677282 -0.019685268
0.12902935 -0.16750155 -0.02194953
0.15278824 -0.1672194 -0.024769783
0.16858341 -0.16702381 -0.026723385
0.19214569 -0.1666522 -0.030436397
0.21561274 -0.16626158 -0.034339786
0.23891532 -0.16581382 -0.038814187
-0.17290628 -0.15003766 -0.038151145
-0.1493877 -0.15032642 -0.035025597
-0.13365395 -0.1505035 -0.033107877
-0.10714327 -0.14514947 -0.033962846
-0.085975721 -0.1425173 -0.033847332
-0.070135236 -0.14259836 -0.032933116
-0.046341985 -0.14270419 -0.031737566
-0.022515146 -0.14275947 -0.03111279
-0.0066206083 -0.14278467 -0.030829191
0.01722654 -0.14276983 -0.030996084
0.041067377 -0.14273439 -0.031396151
0.064875729 -0.14262961 -0.032579422
0.088652574 -0.14250791 -0.033953309
0.10446406 -0.1423865 -0.03532517
0.12842751 -0.15057121 -0.03237474
0.15206861 -0.15031432 -0.035156727
0.16778687 -0.15013744 -0.037070632
0.1834309 -0.14991176 -0.039513469
-0.21444783 0.51948595 -0.020237803
-0.19846737 0.51948595 -0.020237803
-0.17449671 0.51948595 -0.020237803
-0.15052606 0.51948595 -0.020237803
-0.13454562 0.51948595 -0.020237803
-0.11057498 0.51948595 -0.020237803
-0.086604312 0.51948595 -0.020237803
-0.070623882 0.51948595 -0.020237803
-0.046653233 0.51948595 -0.020237803
-0.022682576 0.51948595 -0.020237803
-0.00670214 0.51948595 -0.020237803
0.017268512 0.51948595 -0.020237803
0.041239165 0.51948595 -0.020237803
0.065209821 0.51948595 -0.020237803
0.089180477 0.51948595 -0.020237803
0.10516091 0.51948595 -0.020237803
0.12913157 0.51948595 -0.020237803
0.15310222 0.51948595 -0.020237803
0.16908266 0.51948595 -0.020237803
0.19305331 0.51948595 -0.020237803
0.21702397 0.51948595 -0.020237803
-0.24909377 -0.23444748 0.0015622377
-0.2369123 -0.21148136 -0.010464907
-0.21575324 -0.20908962 -0.0081245899
-0.19996062 -0.20942475 -0.0053162575
-0.17567858 -0.20118162 -0.0068325996
-0.1518096 -0.20155911 -0.0035643578
-0.13583919 -0.20178971 -0.0015666485
-0.1117944 -0.2020781 0.00093078613
0.10616685 -0.2021486 0.0015414953
0.13025022 -0.20187818 -0.00080049038
0.15424806 -0.20154339 -0.0036994219
0.17019913 -0.20130853 -0.0057343245
0.1944669 -0.20955618 -0.0042150021
0.21821855 -0.20906854 -0.0083007812
0.2339613 -0.20870359 -0.011358857
0.25025898 -0.21697325 -0.009203434
-0.17474589 -0.18396249 -0.017368913
-0.15099359 -0.18430783 -0.014164567
-0.13510413 -0.18452214 -0.012176633
-0.11117978 -0.18478735 -0.0097148418
-0.087187089 -0.18501315 -0.007620573
-0.071148209 -0.18512125 -0.0066158772
-0.047051348 -0.18525161 -0.0054074526
-0.02292105 -0.18532252 -0.0047485828
-0.0068236943 -0.18535507 -0.004447341
0.017328091 -0.18533716 -0.0046135187
0.041472845 -0.18528913 -0.0050598383
0.065584421 -0.18515828 -0.0062733889
0.089662135 -0.18500187 -0.0077240467
0.10567439 -0.18485138 -0.0091207027
0.12963702 -0.18460321 -0.011423588
0.15351443 -0.18429457 -0.014287949
0.16938721 -0.18407957 -0.016281843
0.18518618 -0.18380989 -0.018784165
-0.086698428 -0.16787681 -0.018200278
-0.070739403 -0.16797322 -0.017236352
-0.046765313 -0.16809443 -0.016025066
-0.022757402 -0.16815923 -0.01537776
-0.0067418478 -0.16818905 -0.015079618
0.01728718 -0.16817252 -0.015244126
0.041309245 -0.16812837 -0.015686154
0.065298356 -0.16800764 -0.016892552
0.089254558 -0.16786548 -0.01831305
-0.23454322 -0.25251287 0.015398979
-0.21862772 -0.25294921 0.018546939
-0.20264657 -0.25336161 0.021523356
0.1888051 -0.25369832 0.02395308
0.21288639 -0.25313115 0.019859672
0.23682679 -0.2524896 0.015229702
-0.23330545 -0.23485547 0.0046796799
-0.21746904 -0.23526329 0.0077956915
-0.20156342 -0.23564327 0.010699749
-0.1775731 -0.23614964 0.014569283
-0.15346678 -0.23659378 0.017963171
-0.12924607 -0.23698309 0.020938396
-0.10493154 -0.23729402 0.023313165
0.10716851 -0.23728284 0.023227811
0.12340602 -0.23709461 0.021789432
0.14766471 -0.23670781 0.018833995
0.17184797 -0.23629558 0.015684724
0.19588615 -0.23578966 0.011817932
0.2198115 -0.23523986 0.007617116
0.23567061 -0.23483211 0.0045015812
-0.17662123 -0.21857691 0.0038163662
-0.15263395 -0.21898669 0.0071443319
-0.13658254 -0.21923536 0.0091625452
-0.11241623 -0.21954802 0.011701345
-0.087929629 -0.21106845 0.0084558725
-0.071768187 -0.21119204 0.0094920397
-0.047486573 -0.21134207 0.010748148
-0.02317006 -0.21142283 0.011425138
-0.0069481134 -0.21145731 0.011715055
0.017390344 -0.21143758 0.011549115
0.04172162 -0.21138382 0.011098504
0.066019043 -0.21123576 0.009857893
0.090281062 -0.2110565 0.0083559752
0.10666534 -0.21962595 0.012334228
0.13087095 -0.21933258 0.0099523067
0.15498985 -0.21896988 0.0070078373
0.17101936 -0.21871296 0.0049206018
-0.2189462 0.54542702 0.021502018
-0.19449356 0.54542702 0.021502018
-0.17004097 0.54542702 0.021502018
-0.1537392 0.54542702 0.021502018
-0.12928657 0.54542702 0.021502018
-0.10483395 0.54542702 0.021502018
-0.088532194 0.54542702 0.021502018
-0.064079575 0.54542702 0.021502018
-0.039626949 0.54542702 0.021502018
-0.023325203 0.54542702 0.021502018
-0.0070234537 0.54542702 0.021502018
0.017429169 0.54542702 0.021502018
0.041881792 0.54542702 0.021502018
0.058183543 0.54542702 0.021502018
0.08263617 0.54542702 0.021502018
0.10708879 0.54542702 0.021502018
0.12339055 0.54542702 0.021502018
0.14784317 0.54542702 0.021502018
0.17229579 0.54542702 0.021502018
0.18859756 0.54542702 0.021502018
0.21305016 0.54542702 0.021502018
-0.23705827 -0.28837597 0.037179828
-0.22098097 -0.28886896 0.040382266
-0.20484664 -0.28935021 0.043507457
0.21499562 -0.28908452 0.04178226
0.23917264 -0.28834769 0.036996245
-0.23579368 -0.27035171 0.026228189
-0.21979831 -0.27081683 0.029408574
-0.19566923 -0.27145511 0.033772349
-0.17141429 -0.27203247 0.037720084
-0.15515925 -0.27235851 0.03994894
-0.13068928 -0.27280435 0.04299736
-0.10612348 -0.27316067 0.045432806
0.10819109 -0.27315101 0.045367479
0.12459683 -0.27293468 0.043887973
0.1491037 -0.27248701 0.040827394
0.17353095 -0.27200732 0.03754735
0.18973322 -0.27162203 0.034913659
0.21393581 -0.27101561 0.030767083
0.23799369 -0.27032679 0.026057124
-0.18658489 -0.25372207 0.024123907
-0.17048372 -0.25408322 0.026730776
-0.15430906 -0.2543844 0.028904438
-0.12996429 -0.25480163 0.031916142
-0.10552471 -0.25513491 0.034320831
-0.089192502 -0.25533956 0.035797954
-0.064626411 -0.25555277 0.037336707
-0.040021472 -0.25572583 0.038585186
-0.023592712 -0.25576633 0.038877368
-0.0071593747 -0.25580534 0.039158821
0.017496048 -0.25578582 0.039018154
0.042144641 -0.25572434 0.038574219
0.058557585 -0.2556029 0.037698507
0.083145484 -0.25540462 0.0362674
0.1076774 -0.25512442 0.034245372
0.12399892 -0.25492308 0.032791972
0.14838082 -0.25450563 0.029779196
0.17268513 -0.2540594 0.026559711
-0.088683374 -0.2374852 0.024775028
-0.064243466 -0.23768249 0.026281834
-0.039765999 -0.23784488 0.027522683
-0.023422183 -0.2378813 0.027801037
-0.0070741698 -0.23791909 0.028090239
0.017453374 -0.23789817 0.027929544
0.041973993 -0.23784059 0.027490616
0.058302321 -0.23773003 0.026645303
0.082763001 -0.23754397 0.025223732
-0.23962447 -0.32498458 0.059404016
-0.22338451 -0.32554016 0.062684536
-0.20090379 -0.31392655 0.05932653
-0.17330459 -0.30849448 0.060043812
-0.15688644 -0.30887312 0.062385917
-0.13216251 -0.30937904 0.065515161
0.12581274 -0.30953047 0.066452503
0.15057401 -0.30902082 0.063299298
0.17524999 -0.30846778 0.059878111
0.19161949 -0.30803311 0.057189226
0.21407993 -0.31972325 0.06092298
0.24156617 -0.32495093 0.059205294
-0.23833472 -0.30658531 0.048234224
-0.2221771 -0.30711022 0.051481128
-0.18862073 -0.28975892 0.046162367
-0.17235452 -0.29016861 0.048823953
-0.15601833 -0.29052043 0.051108837
-0.13142221 -0.29099637 0.054200053
-0.10672913 -0.29137689 0.056671977
-0.0902263 -0.29160914 0.058180332
-0.065403789 -0.29185539 0.059779167
-0.040541008 -0.29205585 0.061081529
-0.023939332 -0.29210338 0.061390996
-0.0073328167 -0.29214945 0.061689377
0.017582661 -0.29212478 0.06152904
0.042490654 -0.29205072 0.061048508
0.059076943 -0.29191804 0.060187221
0.083921805 -0.29168636 0.058681965
0.10871019 -0.2913669 0.056606174
0.125201 -0.29113504 0.055100203
0.14983487 -0.29065788 0.052001715
0.17438558 -0.29014176 0.048649073
0.19067098 -0.28973207 0.045988202
0.22418363 -0.30708197 0.05130589
0.24036379 -0.30655551 0.048048854
-0.089706443 -0.27337888 0.046925187
-0.065012962 -0.27360868 0.048496366
-0.04027988 -0.27379569 0.049774528
-0.023765201 -0.2738404 0.050080538
-0.0072456412 -0.273882 0.050364971
0.017539127 -0.27386037 0.05021739
0.042316742 -0.27379251 0.049752593
0.058815777 -0.27366459 0.048878431
0.083531633 -0.27345073 0.04741621
-0.22362202 0.57241637 0.064888358
-0.19866844 0.57241637 0.064888358
-0.17371482 0.57241637 0.064888358
-0.15707907 0.57241637 0.064888358
-0.13212548 0.57241637 0.064888358
-0.10717186 0.57241637 0.064888358
-0.090536125 0.57241637 0.064888358
-0.065582529 0.57241637 0.064888358
-0.040628918 0.57241637 0.064888358
-0.023993181 0.57241637 0.064888358
-0.0073574428 0.57241637 0.064888358
0.017596165 0.57241637 0.064888358
0.042549774 0.57241637 0.064888358
0.059185505 0.57241637 0.064888358
0.084139124 0.57241637 0.064888358
0.10909272 0.57241637 0.064888358
0.12572846 0.57241637 0.064888358
0.15068208 0.57241637 0.064888358
0.17563567 0.57241637 0.064888358
0.19227141 0.57241637 0.064888358
0.21722503 0.57241637 0.064888358
-0.24224469 -0.3623639 0.082095623
-0.21760984 -0.3632955 0.08713758
0.21109882 -0.36356825 0.088613749
0.23579611 -0.36263707 0.083573461
-0.24092773 -0.34357646 0.070690513
-0.21641859 -0.34445879 0.075673938
-0.1917551 -0.34524122 0.080092907
-0.17523488 -0.34572738 0.08283937
-0.15864855 -0.34615901 0.085276365
-0.1420055 -0.34654132 0.08743608
-0.057827465 -0.32900885 0.083166242
-0.04107213 -0.32916361 0.084079862
-0.024293514 -0.32921705 0.084395885
-0.0075096972 -0.32926312 0.084666729
0.017671118 -0.32923812 0.084520102
0.042844377 -0.3291541 0.084023476
0.059606835 -0.32900321 0.083132386
0.15207413 -0.34632716 0.086226344
0.17700365 -0.34569556 0.082659006
0.19354463 -0.34521127 0.079924345
0.21003895 -0.3447184 0.077140212
0.23460931 -0.34383532 0.072152615
-0.19069932 -0.32655284 0.068663955
-0.17426465 -0.32701305 0.071381688
-0.15776286 -0.32741776 0.073770761
-0.13291097 -0.32795709 0.076955914
-0.10765103 -0.31908935 0.073780417
-0.091017097 -0.31934109 0.075301647
-0.068722084 -0.31648144 0.074871898
-0.0408049 -0.31050956 0.072508693
-0.024115486 -0.31056193 0.072832346
-0.007420918 -0.31061071 0.073133945
0.017626654 -0.31058356 0.072966456
0.042666577 -0.31050414 0.072474957
0.059340358 -0.31036153 0.071593523
0.0845154 -0.31942683 0.075819492
0.10949931 -0.31907457 0.07369101
0.12642793 -0.32811186 0.077869177
0.15131994 -0.327575 0.074699521
0.1761218 -0.32698283 0.071203113
0.19257699 -0.32652456 0.068497062
-0.24492204 -0.4005411 0.10528219
-0.22834416 -0.40122589 0.10870397
0.23820883 -0.40084314 0.10679138
-0.24357563 -0.38135034 0.09362185
-0.21881382 -0.38233206 0.098722935
-0.19389935 -0.38321403 0.1033051
-0.17720543 -0.38375396 0.10611069
-0.15204024 -0.38446081 0.10978401
0.14518772 -0.38464418 0.11073673
0.17041083 -0.38397351 0.10725176
0.19551086 -0.383183 0.10314429
0.21217102 -0.38262036 0.10022068
0.23699668 -0.38163996 0.095126629
-0.19282101 -0.36412582 0.091631651
-0.17621444 -0.36463863 0.094407558
-0.15117905 -0.3653037 0.09800756
-0.126047 -0.36590305 0.1012516
-0.10921787 -0.3661997 0.10285747
-0.092361465 -0.36648625 0.10440803
-0.067009881 -0.36680716 0.10614526
-0.041614696 -0.36707112 0.10757375
-0.0246548 -0.36712429 0.107862
-0.0076904707 -0.36717758 0.10815024
0.017761525 -0.36715102 0.10800612
0.043205537 -0.36705413 0.1074816
0.060148135 -0.36688587 0.10657144
0.085524507 -0.36658719 0.10495436
0.11084167 -0.36618075 0.10275424
0.12768053 -0.36587766 0.10111403
0.15283643 -0.36527947 0.097876191
0.17789492 -0.36460701 0.094236732
0.19452253 -0.36409649 0.091472745
-0.12532735 -0.34691846 0.089565992
-0.10858603 -0.34719568 0.091131926
-0.091819137 -0.34746745 0.09266603
-0.066601902 -0.3477686 0.094367623
-0.041342214 -0.34801778 0.095775127
-0.024473103 -0.34806824 0.096060157
-0.0075995997 -0.34811878 0.096345663
0.017716058 -0.3480925 0.096197248
0.043023899 -0.3480016 0.095683932
0.059875906 -0.34784225 0.094783425
0.085117444 -0.34756199 0.093201041
0.11030015 -0.34717751 0.091029763
0.12705091 -0.34689432 0.089429736
-0.22000523 0.60054362 0.11012423
-0.19452927 0.60054362 0.11012423
-0.17754529 0.60054362 0.11012423
-0.15206936 0.60054362 0.11012423
-0.12659341 0.60054362 0.11012423
-0.10960945 0.60054362 0.11012423
-0.092625484 0.60054362 0.11012423
-0.067149542 0.60054362 0.11012423
-0.041673593 0.60054362 0.11012423
-0.024689632 0.60054362 0.11012423
-0.007705668 0.60054362 0.11012423
0.017770277 0.60054362 0.11012423
0.043246225 0.60054362 0.11012423
0.060230188 0.60054362 0.11012423
0.085706137 0.60054362 0.11012423
0.11118208 0.60054362 0.11012423
0.12816603 0.60054362 0.11012423
0.14515001 0.60054362 0.11012423
0.17062595 0.60054362 0.11012423
0.19610189 0.60054362 0.11012423
0.21308586 0.60054362 0.11012423
-0.23927952 -0.43991387 0.13070345
0.23228416 -0.44024754 0.13225102
0.24906175 -0.4394941 0.12875569
-0.23794922 -0.42029434 0.11878467
-0.21290255 -0.42137972 0.12400699
-0.19609092 -0.42200798 0.12702978
-0.17921954 -0.42260361 0.12989616
-0.16229098 -0.42316431 0.13259292
0.17215319 -0.42284966 0.13107979
0.19751951 -0.42197388 0.12686539
0.21434884 -0.42133588 0.12379646
0.23943397 -0.42025188 0.11858094
-0.21171579 -0.40191519 0.11214805
-0.19498925 -0.40250692 0.11510372
-0.17820707 -0.4030745 0.11793959
-0.15291069 -0.40382463 0.12168765
-0.12750964 -0.40448809 0.12500191
-0.11050209 -0.40482569 0.12668943
-0.093463793 -0.40514293 0.12827384
-0.067839123 -0.40550521 0.1300844
-0.042167999 -0.40579501 0.13153219
-0.025023947 -0.40585634 0.13183856
-0.0078752749 -0.40592003 0.13215685
0.017853901 -0.40588933 0.13200366
0.043574549 -0.40577847 0.13144982
0.060701199 -0.40559235 0.13051975
0.086351961 -0.40525705 0.1288439
0.11194178 -0.40480223 0.12657237
0.12896016 -0.40445974 0.12486124
0.14592142 -0.40401736 0.1226505
0.17127712 -0.40330645 0.11909866
0.19650979 -0.4024744 0.11494136
0.21325356 -0.40187368 0.11193979
-0.12677439 -0.38509175 0.11306286
-0.10985652 -0.38540864 0.11470938
-0.092909664 -0.38571042 0.11627674
-0.067422241 -0.3860516 0.11805022
-0.041889846 -0.3863284 0.11948836
-0.024838282 -0.38638446 0.11977947
-0.0077824183 -0.38644513 0.12009442
0.017807439 -0.3864148 0.11993694
0.043389134 -0.3863126 0.11940658
0.060423039 -0.38613334 0.11847484
0.085936002 -0.38581771 0.11683488
0.11138903 -0.38538852 0.11460483
0.12831691 -0.38506508 0.11292386
-0.24062486 -0.45974717 0.14275694
-0.21531233 -0.46093714 0.14808702
-0.19833031 -0.46164793 0.15127158
-0.18127662 -0.46229929 0.15418887
0.18249799 -0.46226424 0.15403259
0.19957197 -0.46161038 0.15110373
0.21657395 -0.4608916 0.14788365
0.23349266 -0.46009767 0.14432728
-0.21410091 -0.44105169 0.13598204
-0.19720455 -0.44172052 0.13908494
-0.180243 -0.44234499 0.14198244
-0.15467972 -0.44318473 0.14587808
-0.12900424 -0.44391614 0.14927125
-0.11181444 -0.44429824 0.15104377
-0.094590284 -0.44464722 0.15266335
-0.077332482 -0.44494754 0.15405667
0.087198228 -0.44477934 0.15327597
0.11306765 -0.44427744 0.15094793
0.13026842 -0.44388774 0.14913952
0.14741285 -0.44339812 0.14686823
0.17303835 -0.44260418 0.14318502
0.19854018 -0.44168469 0.13891888
0.21545483 -0.4410058 0.13576925
-0.14529024 -0.4236328 0.1348474
-0.12825288 -0.42409497 0.13707054
-0.1111547 -0.42445448 0.1388005
-0.094023965 -0.42478737 0.1404022
-0.0682607 -0.42517272 0.14225602
-0.042448901 -0.42547202 0.14369607
-0.025211452 -0.42553878 0.1440177
-0.0079691485 -0.42560816 0.14435124
0.017900825 -0.42557594 0.14419639
0.043762177 -0.42545965 0.14363647
0.06098213 -0.42526174 0.14268422
0.086772457 -0.42490834 0.14098442
0.1125011 -0.4244298 0.13868189
0.12961042 -0.42406535 0.13692856
0.1466631 -0.42360088 0.13469374
-0.23484878 -0.5004943 0.16905963
-0.21715653 -0.491202 0.16651571
-0.20004372 -0.49197799 0.16982007
-0.1737254 -0.48281085 0.16799521
-0.1478481 -0.48368192 0.17176676
-0.13053188 -0.48421532 0.1740768
-0.11315588 -0.48464519 0.17593801
-0.025677258 -0.4842605 0.1742723
-0.0082019307 -0.48433393 0.17459047
0.017995901 -0.48283178 0.16808593
0.11421791 -0.48462528 0.17585206
0.13160494 -0.48418415 0.17394209
0.14893568 -0.48364234 0.17159593
0.16623402 -0.48311299 0.16930318
0.19524451 -0.48877144 0.16856062
0.21827599 -0.49115354 0.16630912
0.23594701 -0.50044483 0.16885269
-0.23351978 -0.48020887 0.15672815
-0.15557897 -0.46318918 0.15817535
-0.12976386 -0.46395504 0.16160595
-0.11248147 -0.46436054 0.16342247
-0.086486757 -0.46488464 0.16577005
-0.060423575 -0.46526569 0.16747737
-0.043020591 -0.46548301 0.16845083
-0.025593253 -0.46556473 0.16881621
-0.0081052352 -0.46404964 0.1620295
0.017996136 -0.46421397 0.16276586
0.044143282 -0.46546954 0.16839015
0.061553299 -0.46525228 0.16741657
0.078947611 -0.46502978 0.16641986
0.10497404 -0.46452159 0.16414392
0.13093302 -0.46392536 0.16147292
0.1481701 -0.46341002 0.15916431
0.16537195 -0.46289569 0.15686059
0.23471315 -0.48016161 0.15652323
-0.06004069 -0.44516021 0.15504253
-0.042733178 -0.44536769 0.1560055
-0.025401397 -0.44544289 0.15635467
-0.0080641471 -0.44551557 0.15669191
0.017948266 -0.44547912 0.15652311
0.043951683 -0.44535464 0.15594518
0.061266422 -0.44514972 0.15499449
-0.21623738 0.62988299 0.15733063
-0.19889 0.62988299 0.15733063
-0.18154265 0.62988299 0.15733063
-0.1555216 0.62988299 0.15733063
-0.12950057 0.62988299 0.15733063
-0.11215321 0.62988299 0.15733063
-0.094805852 0.62988299 0.15733063
-0.068784818 0.62988299 0.15733063
-0.042763777 0.62988299 0.15733063
-0.025416421 0.62988299 0.15733063
-0.0080690626 0.62988299 0.15733063
0.017951975 0.62988299 0.15733063
0.043973014 0.62988299 0.15733063
0.061320372 0.62988299 0.15733063
0.087341413 0.62988299 0.15733063
0.11336245 0.62988299 0.15733063
0.1307098 0.62988299 0.15733063
0.14805716 0.62988299 0.15733063
0.1740782 0.62988299 0.15733063
0.20009924 0.62988299 0.15733063
0.2174466 0.62988299 0.15733063
-0.23755227 -0.54174221 0.1941452
-0.14960149 -0.52483302 0.19707477
0.15049554 -0.52479625 0.19692504
0.22117107 -0.54263228 0.197649
0.23845695 -0.54168844 0.19393349
-0.23619244 -0.52100313 0.18152714
-0.21902786 -0.52191168 0.18521512
-0.20178245 -0.52275586 0.18864238
-0.17524922 -0.51355147 0.18684995
-0.14871994 -0.50414336 0.18435049
-0.13130841 -0.5047006 0.18668616
-0.11383715 -0.5051527 0.18858039
-0.087555572 -0.50573444 0.19101799
-0.061202191 -0.50615102 0.19276369
-0.043439433 -0.504677 0.18658721
-0.025872761 -0.50476867 0.18697071
-0.0082998052 -0.5048483 0.18730497
0.018063011 -0.51342785 0.18633938
0.044421852 -0.51346004 0.18648386
0.062141821 -0.51499504 0.19290054
0.079726249 -0.50589895 0.19170713
0.1060404 -0.5053317 0.18933058
0.13228366 -0.5046652 0.1865375
0.14971054 -0.50410217 0.18417788
0.1675429 -0.51387769 0.18819535
0.19084264 -0.5163359 0.18627846
0.22000305 -0.52185994 0.18500507
0.2371957 -0.52095467 0.1813302
-0.087018199 -0.48519617 0.17832398
-0.060810722 -0.48559487 0.18005025
-0.043311201 -0.48582208 0.18103456
0.044336826 -0.48580515 0.18096077
0.061843641 -0.48558056 0.17998874
0.079334766 -0.48535061 0.17899311
0.0967917 -0.48500764 0.1775074
-0.23892593 -0.56270885 0.20689082
-0.2215744 -0.56369579 0.21066153
-0.19538668 -0.56504124 0.21580219
-0.13288687 -0.54635859 0.21231735
-0.11522402 -0.5468666 0.21431756
