ply
format ascii 1.0
comment PCL generated
element vertex 1339
property float x
property float y
property float z
element camera 0
property float view_px
property float view_py
property float view_pz
property float x_axisx
property float x_axisy
property float x_axisz
property float y_axisx
property float y_axisy
property float y_axisz
property float z_axisx
property float z_axisy
property float z_axisz
property float focal
property float scalex
property float scaley
property float centerx
property float centery
property int viewportx
property int viewporty
property float k1
property float k2
end_header
-0.023091547 0.20388411 -0.22287071
0.012434307 0.22109117 -0.22802961
0.030063832 0.2395303 -0.22101784
0.029932199 -0.25896192 -0.20391816
0.047801308 -0.25762975 -0.21627915
0.012172986 -0.24037847 -0.21105635
-0.02361723 -0.22305001 -0.20579845
-0.041197993 -0.20459285 -0.21291399
-0.077080578 -0.18719709 -0.20766467
-0.094483338 -0.16886465 -0.21476883
-0.1304571 -0.15140109 -0.20953912
-0.1665951 -0.13385896 -0.20427424
-0.14768234 -0.13319303 -0.21663171
-0.18374845 -0.11566354 -0.2113992
-0.21997842 -0.09805426 -0.20614308
-0.2369529 -0.079982944 -0.21326751
-0.2732743 -0.06230697 -0.20801985
-0.2900731 -0.044360079 -0.21512181
-0.32648581 -0.026617641 -0.20988256
-0.36306408 -0.0087944083 -0.20461947
-0.34310821 -0.0087943655 -0.21697313
-0.34349829 0.0089919921 -0.21466959
-0.3268587 0.026887512 -0.20757592
-0.29041055 0.044607513 -0.21281451
-0.27359596 0.062627278 -0.20569849
-0.23723888 0.080280624 -0.21094555
-0.22024563 0.09842442 -0.20382899
-0.20104593 0.097854435 -0.21616906
-0.18398008 0.11601099 -0.20908463
-0.14787838 0.13351808 -0.21431637
-0.13063556 0.15179878 -0.20722055
-0.09462548 0.16923906 -0.21246082
-0.07720571 0.18764517 -0.20534247
-0.058777831 0.18660067 -0.21767753
-0.041287392 0.20501845 -0.21059132
-0.023688853 0.22354862 -0.20347267
-0.005531244 0.22231331 -0.21581638
0.012137167 0.24085461 -0.20872986
0.047801308 0.25808233 -0.21396327
0.047801308 -0.27765906 -0.196747
0.011870902 -0.26030725 -0.19143516
-0.0059279352 -0.24162115 -0.19863898
-0.041951992 -0.22420226 -0.19332469
-0.059570454 -0.20564267 -0.20051676
-0.095687799 -0.18815577 -0.19521093
-0.13196951 -0.17058812 -0.18989211
-0.11312567 -0.16972144 -0.20240259
-0.14933577 -0.15216681 -0.19710547
-0.18571144 -0.134532 -0.19178396
-0.20289779 -0.11623689 -0.19898576
-0.23936495 -0.098533861 -0.19368422
-0.25637192 -0.080364518 -0.20087421
-0.29293281 -0.062594466 -0.19556999
-0.32966092 -0.044743218 -0.19024146
-0.30976099 -0.04455059 -0.2027483
-0.34641406 -0.026713263 -0.1974526
-0.38323259 -0.0087944083 -0.19214404
-0.38366321 0.0091833249 -0.18981338
-0.36347231 0.0090870578 -0.20231348
-0.346807 0.027079144 -0.19513249
-0.31011832 0.044893607 -0.20042747
-0.2932727 0.06301067 -0.19324607
-0.25667614 0.080757789 -0.19854957
-0.23965302 0.099000953 -0.1913451
-0.20314875 0.11668068 -0.19665736
-0.18594477 0.1350494 -0.18945259
-0.16681024 0.13428001 -0.20194548
-0.14953324 0.15266119 -0.19477338
-0.11328729 0.17019291 -0.2000699
-0.095830955 0.18869999 -0.19288635
-0.059677854 0.20616393 -0.19819146
-0.042042039 0.22479831 -0.19098496
-0.0059819855 0.24219429 -0.19629872
0.011834819 0.26095429 -0.18909174
0.029914264 0.25951123 -0.20158839
0.047801308 0.27828205 -0.19441414
0.047801308 -0.2980302 -0.17688155
0.029780218 -0.27911076 -0.18417537
-0.0063859597 -0.26166832 -0.17880583
-0.024224162 -0.2428772 -0.18608791
-0.06048502 -0.22536698 -0.18071586
-0.096912824 -0.20777628 -0.17531919
-0.078140981 -0.20670366 -0.18798596
-0.11449528 -0.18912394 -0.18263412
-0.15101743 -0.17146429 -0.17724621
0.011623655 -0.17159383 -0.1753763
0.011623655 -0.15350498 -0.17537636
-0.16841829 -0.15294078 -0.18453771
-0.20503461 -0.13521235 -0.17915857
-0.0063970014 -0.13525714 -0.1783281
0.011623655 -0.13541621 -0.1753763
-0.22225374 -0.11681639 -0.18643832
-0.0063970014 -0.11719104 -0.17832804
0.011623655 -0.11732741 -0.1753763
-0.25896236 -0.099019006 -0.18107921
-0.024372444 -0.099011615 -0.18127227
-0.0063970014 -0.099124923 -0.17832792
0.011623655 -0.09923847 -0.1753763
-0.29584131 -0.081140205 -0.17568433
-0.024372444 -0.080968194 -0.18127233
-0.0063970014 -0.081058852 -0.17832792
0.011623655 -0.081149705 -0.17537618
-0.27600026 -0.080750324 -0.18834704
-0.31280369 -0.062885202 -0.18298548
-0.042302839 -0.062856883 -0.18420923
-0.024372444 -0.062924743 -0.18127233
-0.0063970014 -0.062992647 -0.1783281
0.011623655 -0.06306085 -0.1753763
-0.34977636 -0.04493773 -0.17759937
-0.042302839 -0.044836089 -0.18420929
-0.024372444 -0.044881299 -0.18127233
-0.0063970014 -0.044926554 -0.17832804
0.011623655 -0.04497198 -0.17537636
-0.36655748 -0.026810005 -0.1848886
-0.060188867 -0.02679277 -0.18712759
-0.042302839 -0.026815249 -0.18420929
-0.024372444 -0.026837854 -0.18127245
-0.0063970014 -0.026860459 -0.17832804
0.011623655 -0.02688328 -0.17537618
-0.060188867 -0.0087944083 -0.18712753
-0.0063970014 -0.0087944083 -0.17832804
0.011623655 -0.0087944083 -0.1753763
-0.40362138 -0.0087943655 -0.17952251
-0.042302839 -0.0087943655 -0.18420941
-0.024372444 -0.0087943655 -0.18127245
-0.40407044 0.0092805382 -0.17718923
-0.060188867 0.0092039537 -0.18712759
-0.042302839 0.0092264321 -0.18420929
-0.024372444 0.0092489943 -0.18127227
-0.0063970014 0.0092716422 -0.17832804
0.011623655 0.0092944633 -0.17537636
-0.36696869 0.027272629 -0.18256593
-0.060188867 0.027202273 -0.18712759
-0.042302839 0.027247271 -0.18420929
-0.024372444 0.02729244 -0.18127233
-0.0063970014 0.02733778 -0.17832792
0.011623655 0.027383251 -0.17537618
-0.35017025 0.04547444 -0.17527354
-0.33003652 0.045182414 -0.18791813
-0.042302839 0.045268111 -0.18420941
-0.024372444 0.045335881 -0.18127233
-0.0063970014 0.045403957 -0.1783281
0.011623655 0.045472078 -0.1753763
-0.042302839 0.06328886 -0.18420923
-0.31316185 0.063398235 -0.18065906
-0.024372444 0.06337937 -0.18127233
-0.0063970014 0.063470051 -0.17832804
0.011623655 0.063560948 -0.17537636
-0.27632427 0.081240468 -0.18600863
-0.024372444 0.081422813 -0.18127233
-0.0063970014 0.081536062 -0.17832804
0.011623833 0.081649259 -0.17538762
-0.25926882 0.099583291 -0.17873758
-0.024372444 0.099466264 -0.18127245
-0.0063970014 0.099602237 -0.17832804
0.011623833 0.099738047 -0.1753878
-0.22252288 0.11735693 -0.18410736
-0.0063970014 0.11766833 -0.17832804
0.011623833 0.11782679 -0.17538762
-0.20528615 0.135827 -0.17682457
-0.0063970014 0.13573438 -0.17832792
0.011623833 0.13591549 -0.17538762
-0.16863397 0.15353209 -0.18220299
0.011623833 0.15400423 -0.17538768
-0.15121636 0.17213075 -0.17489684
-0.13214928 0.17115615 -0.18755686
0.011623833 0.17209293 -0.17538762
-0.11465809 0.18976708 -0.1802842
-0.078267045 0.20732278 -0.18564671
-0.060593203 0.22606044 -0.17837363
-0.024296306 0.24354729 -0.18374479
-0.006440144 0.26241291 -0.17645979
0.02976224 0.27983069 -0.18184
0.065799147 0.297169 -0.18719542
0.065935045 -0.31706789 -0.16954207
0.029625632 -0.29960528 -0.16409391
0.06595856 -0.29931048 -0.16648769
0.011563648 -0.28057683 -0.17147863
0.06595856 -0.2811532 -0.16648769
-0.024841495 -0.26304424 -0.16603929
0.06595856 -0.2629959 -0.16648769
-0.0614153 -0.24543034 -0.16057479
-0.042718865 -0.24414685 -0.17340046
0.047801308 -0.244541 -0.16946191
0.06595856 -0.24483868 -0.16648781
-0.079219572 -0.22654444 -0.16797018
0.047801308 -0.22640668 -0.16946191
0.06595856 -0.22668141 -0.16648781
-0.11588842 -0.20885958 -0.16252601
0.029689703 -0.20802213 -0.17241699
0.047801308 -0.20827229 -0.16946197
0.06595856 -0.20852412 -0.16648781
-0.13350782 -0.19010353 -0.16990912
0.029689703 -0.18991041 -0.17241704
0.047801308 -0.19013794 -0.16946191
0.06595856 -0.19036689 -0.16648781
-0.17027277 -0.17234994 -0.16446257
0.029689703 -0.1717988 -0.17241704
0.047801308 -0.17200355 -0.16946197
0.06595856 -0.17220968 -0.16648781
-0.18770796 -0.15372315 -0.17183352
0.029689703 -0.15368731 -0.17241704
0.047801308 -0.15386923 -0.16946197
0.06595856 -0.15405233 -0.16648781
-0.22456804 -0.13590007 -0.16639572
0.029689703 -0.13557561 -0.17241716
0.047801308 -0.13573487 -0.16946197
0.06595856 -0.1358951 -0.16648781
-0.26159737 -0.11799385 -0.16094446
-0.24181819 -0.11740178 -0.1737662
0.029689703 -0.11746407 -0.17241704
0.047801308 -0.11760057 -0.16946179
0.06595856 -0.1177379 -0.16648787
-0.27877289 -0.09950944 -0.16833752
0.029689793 -0.099352054 -0.17242849
0.047801308 -0.099466182 -0.16946179
0.06595856 -0.099580631 -0.16648769
-0.31589857 -0.081534371 -0.16288352
0.029689793 -0.081240512 -0.17242843
0.047801308 -0.081331886 -0.16946191
0.06595856 -0.081423424 -0.16648769
-0.33289042 -0.063178912 -0.17026442
0.029689793 -0.063128971 -0.17242843
0.047801308 -0.063197434 -0.16946191
0.06595856 -0.063266195 -0.16648781
-0.37011081 -0.045134559 -0.16481942
0.029689793 -0.045017451 -0.17242843
0.047801308 -0.045063093 -0.16946191
0.06595856 -0.045108907 -0.16648769
-0.38691738 -0.026907692 -0.17219979
0.029689793 -0.026905887 -0.17242855
0.047801308 -0.026928749 -0.16946197
0.06595856 -0.026951613 -0.16648769
0.06595856 -0.0087944083 -0.16648781
-0.42423195 -0.0087943655 -0.1667636
0.029689793 -0.0087943655 -0.17242855
0.047801308 -0.0087943655 -0.16946197
-0.42470172 0.0093788262 -0.16441637
0.029689793 0.0093171988 -0.17242855
0.047801308 0.0093399752 -0.16946197
0.06595856 0.009362882 -0.16648781
-0.38734904 0.027468173 -0.16986328
0.029689793 0.027428718 -0.17242849
0.047801308 0.027474361 -0.16946197
0.06595856 0.027520129 -0.16648781
-0.37052503 0.045769952 -0.16247976
0.029689793 0.045540154 -0.17242855
0.047801308 0.045608617 -0.16946179
0.06595856 0.045677379 -0.16648781
-0.33326873 0.063790448 -0.16792411
0.029689793 0.063651673 -0.17242855
0.047801308 0.063742958 -0.16946179
0.06595856 0.063834585 -0.16648781
-0.31625935 0.08222077 -0.16054016
-0.29618371 0.081727996 -0.1733433
0.029689793 0.081763238 -0.17242855
0.047801308 0.081877343 -0.16946179
0.06595856 0.081991918 -0.16648781
-0.27909771 0.10017194 -0.16599321
0.029689793 0.099874668 -0.17242855
0.047801308 0.10001172 -0.16946179
0.06595856 0.10014908 -0.16648769
-0.242107 0.11804043 -0.17142135
0.029689793 0.11798623 -0.17242849
0.047801308 0.11814602 -0.16946191
0.06595856 0.11830628 -0.16648769
-0.22483915 0.13661388 -0.16404784
0.029689793 0.13609776 -0.17242849
0.047801308 0.1362804 -0.16946191
0.06595856 0.13646357 -0.16648769
-0.18794301 0.15441321 -0.16948473
0.029689793 0.15420932 -0.17242849
0.047801308 0.15441483 -0.16946191
0.06595856 0.15462083 -0.16648781
-0.17049003 0.17311509 -0.16211063
0.029689793 0.17232074 -0.17242849
0.047801308 0.1725492 -0.16946191
0.06595847 0.17277715 -0.16649926
-0.13368893 0.19084485 -0.16755652
0.029689793 0.1904323 -0.17242849
0.047801308 0.19068351 -0.16946197
0.06595847 0.19093442 -0.16649932
-0.097057022 0.20849313 -0.17297757
0.029689793 0.20854382 -0.17242843
0.047801308 0.20881781 -0.16946179
0.06595847 0.20909157 -0.16649932
-0.079345919 0.22733614 -0.16562515
0.047801308 0.2269522 -0.16946179
0.06595847 0.22724871 -0.16649926
-0.042809144 0.24491492 -0.17105484
0.047801308 0.24508649 -0.16946179
0.06595847 0.24540579 -0.16649932
-0.024914175 0.26388866 -0.163679
0.06595847 0.26356301 -0.16649914
0.0115273 0.28139764 -0.16911781
0.06595847 0.28172019 -0.16649932
0.029607521 0.30049995 -0.16174126
0.047801308 0.2988261 -0.17453152
0.065953158 0.31793892 -0.167189
0.047801308 -0.31875196 -0.15667415
0.084237471 -0.3185018 -0.15858555
0.011251096 -0.3011961 -0.1511777
0.084237471 -0.30028373 -0.15858555
-0.0068518631 -0.28206027 -0.15863186
0.084237471 -0.2820656 -0.15858555
-0.043498971 -0.26443514 -0.15313298
0.084237471 -0.26384756 -0.15858555
-0.080316775 -0.24672799 -0.14760834
0.084237471 -0.24562947 -0.15858555
-0.098158918 -0.22773482 -0.15508485
0.084237471 -0.22741134 -0.15858555
-0.13507265 -0.20995572 -0.14958096
0.084237471 -0.20919327 -0.15858555
-0.15272802 -0.19109376 -0.15704519
0.084237471 -0.19097523 -0.15858555
-0.18973893 -0.17324537 -0.15153873
0.084237471 -0.17275706 -0.15858555
-0.22692236 -0.15531369 -0.14600676
-0.20720816 -0.15451416 -0.15899056
0.084237471 -0.15453902 -0.15858555
-0.24431375 -0.13659474 -0.15350491
0.084237471 -0.13632098 -0.15858567
-0.28159338 -0.11859264 -0.14798212
0.084237471 -0.11810282 -0.15858555
-0.2987999 -0.10000519 -0.1554563
0.084237292 -0.099884368 -0.15859705
-0.33617559 -0.081932895 -0.14994246
0.084237292 -0.08166635 -0.15859717
-0.3531965 -0.063475966 -0.15740436
0.084237292 -0.063448377 -0.15859723
-0.39066571 -0.045333289 -0.15191132
0.084237292 -0.045230404 -0.15859705
-0.4283115 -0.02710633 -0.14638108
-0.40750149 -0.027006453 -0.15936089
0.084237292 -0.027012426 -0.15859717
-0.44506794 -0.0087944083 -0.15386534
0.084237292 -0.0087943655 -0.15859717
-0.44555634 0.0094781034 -0.15151554
0.084237292 0.0094235651 -0.15859705
-0.40795383 0.027666038 -0.15701038
0.084237292 0.027641585 -0.15859717
-0.39110053 0.046068251 -0.14955765
0.084237292 0.045859598 -0.15859723
-0.35359326 0.064186431 -0.15506154
0.084237292 0.064077571 -0.15859705
-0.33655673 0.08271943 -0.14758503
0.084237292 0.082295544 -0.15859705
-0.29914483 0.10076752 -0.15309799
0.084237292 0.10051361 -0.15859717
-0.26190606 0.11873218 -0.15858555
0.084237292 0.1187315 -0.15859705
-0.24460468 0.1374086 -0.1511429
0.084237292 0.13694951 -0.15859717
-0.20746157 0.15530321 -0.1566394
0.084237292 0.15516753 -0.15859717
-0.18997455 0.1741101 -0.14918435
0.084237292 0.17338543 -0.15859705
-0.15292743 0.19193427 -0.15468997
0.084237292 0.19160353 -0.15859717
-0.1352551 0.21087334 -0.14721113
-0.11605162 0.20967619 -0.16017038
0.084237292 0.20982152 -0.15859723
-0.09830419 0.22862703 -0.15272576
0.084237292 0.22803944 -0.15859705
-0.061524287 0.24629867 -0.15821517
0.084237292 0.24625745 -0.15859705
0.084237292 0.26447544 -0.15859717
-0.04358992 0.26537934 -0.15076995
-0.0069064498 0.28298032 -0.15626836
0.084237292 0.28269348 -0.15859705
0.01121448 0.30219361 -0.14879936
0.084237292 0.30091149 -0.15859705
0.047801308 0.31972402 -0.15430677
0.084237292 0.31912947 -0.15859717
0.029468369 -0.32045436 -0.14366496
-0.007325843 -0.30280587 -0.13810796
-0.044292629 -0.28507626 -0.13251299
-0.025469504 -0.28355998 -0.14564419
-0.062361702 -0.26584145 -0.14008456
-0.099426679 -0.24803987 -0.13449907
-0.11730566 -0.22893703 -0.14206982
-0.1544683 -0.21106407 -0.13649338
-0.17215931 -0.19209492 -0.14403987
-0.2094194 -0.17415054 -0.13847291
-0.24685267 -0.15612137 -0.1328916
-0.26427799 -0.13729762 -0.14046073
-0.30180988 -0.11919795 -0.13487697
-0.31904703 -0.10050654 -0.14243358
-0.35667598 -0.082335673 -0.13685906
-0.37372354 -0.063775904 -0.14441472
-0.41144893 -0.045534462 -0.1388495
-0.44935107 -0.027207455 -0.1332581
-0.46613312 -0.0087943655 -0.14082503
-0.46664011 0.0095785409 -0.1384728
-0.42878237 0.027865881 -0.14402807
-0.4119046 0.04637038 -0.1364817
-0.37414292 0.064587191 -0.14204627
-0.35707566 0.083223157 -0.13449901
-0.3194105 0.10136915 -0.14007276
-0.30215564 0.12013718 -0.13251305
-0.28192058 0.11943074 -0.14562064
-0.26458743 0.13821211 -0.13809609
-0.22719413 0.15620288 -0.14365315
-0.20967469 0.17511705 -0.13610417
-0.24574533 0.19301893 -0.141882
-0.17237818 0.19303684 -0.14167064
-0.22803038 0.19348218 -0.13641089
-0.22800589 0.21185137 -0.13662326
-0.20957175 0.21181107 -0.13705939
-0.1546692 0.21208246 -0.13412106
-0.11747009 0.22993101 -0.13969654
-0.099573039 0.24911067 -0.13212246
-0.08044406 0.24769634 -0.14524621
-0.062471494 0.26688763 -0.13770741
-0.025542721 0.28458163 -0.14326626
-0.007380832 0.3039045 -0.13572675
0.029450124 0.321527 -0.14129484
-0.0078081191 -0.32391453 -0.11722469
0.010933105 -0.3221741 -0.13052374
0.10316744 -0.3225359 -0.12775928
-0.026108466 -0.30443355 -0.12489325
0.10316744 -0.30408052 -0.12775928
-0.063324645 -0.28660926 -0.11923623
0.10316744 -0.28562504 -0.1277594
-0.081433095 -0.26726317 -0.12689185
0.10316744 -0.26716971 -0.12775922
-0.11874767 -0.24936514 -0.12125611
0.10316744 -0.24871436 -0.1277594
-0.13666475 -0.23015371 -0.12889898
0.10316744 -0.23025896 -0.1277594
-0.17407879 -0.21218452 -0.12326097
0.10316744 -0.21180362 -0.12775922
-0.21166933 -0.19413058 -0.11759621
-0.19180524 -0.19310719 -0.13089103
0.10316744 -0.1933482 -0.12775928
-0.22931772 -0.1750659 -0.12526226
0.10316744 -0.17489277 -0.1277594
-0.26700547 -0.15693876 -0.11961895
0.10316744 -0.15643753 -0.12775928
-0.28446305 -0.13800834 -0.12727213
0.10316718 -0.13798137 -0.12777126
-0.32225055 -0.11980994 -0.1216265
0.10316718 -0.11952613 -0.12777114
-0.33951801 -0.10101324 -0.12926692
0.10316718 -0.10107085 -0.12777114
-0.37740135 -0.082742751 -0.12364227
0.10316718 -0.082615495 -0.12777114
-0.41546535 -0.064386427 -0.11797947
-0.39447922 -0.064079449 -0.13127005
0.10316718 -0.064160243 -0.12777114
-0.43246216 -0.045737788 -0.12564313
0.10316718 -0.045704991 -0.12777126
-0.47062403 -0.027309611 -0.11998957
0.10316718 -0.027249657 -0.12777114
-0.48743129 -0.0087944083 -0.1276406
0.10316718 -0.0087944083 -0.12777114
-0.48795956 0.009680137 -0.1252743
0.10316718 0.0096609257 -0.12777114
-0.47113478 0.028272441 -0.11762005
-0.44984305 0.028068127 -0.13089103
0.10316718 0.028116176 -0.12777114
-0.43293658 0.046675384 -0.12327284
0.10316718 0.046571426 -0.12777108
-0.39491728 0.064992033 -0.1288991
0.10316718 0.065026805 -0.12777114
-0.37782171 0.083732352 -0.12126821
0.10316718 0.083482049 -0.12777114
-0.33989999 0.10197745 -0.12690371
0.10316718 0.10193739 -0.12777126
-0.3226167 0.12085189 -0.11924815
0.10316718 0.12039264 -0.12777114
-0.28479269 0.13902509 -0.12489319
0.10316718 0.13884793 -0.12777114
-0.26731721 0.15803307 -0.11723667
-0.24714577 0.15711336 -0.13051188
0.10316718 0.15730323 -0.12777126
-0.26683027 0.17628296 -0.12095749
-0.24788618 0.17601036 -0.12450027
-0.22959152 0.17613421 -0.12289131
0.10316718 0.17575847 -0.12777114
-0.28584531 0.19510077 -0.11729664
-0.26553187 0.19395067 -0.13087916
-0.21061242 0.19424492 -0.12740284
-0.19204259 0.19415051 -0.1285193
0.10316718 0.19421376 -0.12777114
-0.24805939 0.21310115 -0.1230939
-0.19271806 0.21322341 -0.12176967
-0.1742993 0.21330623 -0.12087399
0.10316718 0.2126691 -0.12777114
-0.21045759 0.23101753 -0.12883973
-0.19240785 0.23141475 -0.12486935
-0.13684857 0.23125045 -0.12651139
0.10316718 0.23112443 -0.12777108
-0.19279096 0.25030506 -0.12104118
-0.11891332 0.25053954 -0.11886531
0.10316718 0.2495797 -0.12777114
-0.081561334 0.26841119 -0.12451214
0.10316718 0.26803491 -0.12777114
-0.044384249 0.28619942 -0.13013268
0.10316718 0.28649023 -0.12777108
-0.026182234 0.30563563 -0.12249756
0.10316718 0.3049455 -0.12777126
0.010896213 0.32335144 -0.12812734
0.10316718 0.32340083 -0.12777114
-0.026758671 -0.3256743 -0.10377729
-0.045100212 -0.30607924 -0.11153138
-0.082569055 -0.2881594 -0.10581118
-0.10071666 -0.26870084 -0.11355245
-0.13828483 -0.25070637 -0.10785377
-0.15623903 -0.23138392 -0.11558199
-0.1939078 -0.21331744 -0.10988092
-0.23175526 -0.1951655 -0.1041528
-0.24943608 -0.17599039 -0.11191666
-0.28738314 -0.15776522 -0.10619825
-0.3048726 -0.13872693 -0.11393708
-0.34291905 -0.12042879 -0.10822803
-0.36021638 -0.10152569 -0.11595392
-0.39835963 -0.083154507 -0.11026669
-0.43668583 -0.064696766 -0.10454035
-0.45370924 -0.04594326 -0.11228979
-0.49213439 -0.027412841 -0.10657299
-0.50896621 -0.0087944511 -0.11430937
-0.50951326 0.0097827241 -0.11194074
-0.49266386 0.028479161 -0.10420126
-0.45420241 0.046983831 -0.1099171
-0.41592211 0.065401345 -0.11560595
-0.39880097 0.084247686 -0.10787797
-0.36061904 0.10259296 -0.11357647
-0.34330392 0.12157398 -0.10584754
-0.30522093 0.13984653 -0.11155546
-0.28771526 0.15896387 -0.10380143
-0.28717884 0.17730568 -0.10767257
-0.30639049 0.1962641 -0.10355914
-0.26834294 0.2143663 -0.10939854
-0.23047569 0.23237911 -0.11523384
-0.15644145 0.23258337 -0.11319178
-0.21277395 0.25178084 -0.10734648
-0.13846999 0.2519854 -0.10544813
-0.1008641 0.26995322 -0.11115813
-0.082698904 0.28949171 -0.10340154
-0.063435264 0.28783655 -0.1168412
-0.04519251 0.30738473 -0.10913318
-0.007863801 0.32519633 -0.1148138
-0.045922078 -0.32745397 -0.090178609
0.12259709 -0.32667649 -0.096119285
-0.064304575 -0.3077434 -0.098020077
0.12259709 -0.30797753 -0.096119404
-0.10202944 -0.28972706 -0.092235386
0.12259709 -0.2892786 -0.096119285
-0.1202151 -0.27015325 -0.10007584
0.12259709 -0.27057964 -0.096119404
-0.15804106 -0.25206256 -0.094301105
0.12259709 -0.25188074 -0.096119404
-0.1960476 -0.23388569 -0.088498712
-0.1760321 -0.23262779 -0.10211623
0.12259709 -0.2331817 -0.096119285
-0.21395895 -0.21446316 -0.096351147
0.12259709 -0.21448284 -0.096119225
-0.25206524 -0.19621101 -0.090570629
0.12259672 -0.1957829 -0.096131504
-0.26978105 -0.17692629 -0.098409653
0.12259672 -0.17708409 -0.096131504
-0.30798948 -0.15860102 -0.092626989
0.12259672 -0.15838517 -0.096131623
-0.32551047 -0.1394535 -0.1004526
0.12259672 -0.13968635 -0.096131504
-0.3638193 -0.12105455 -0.094679654
0.12259672 -0.12098753 -0.096131504
-0.40230876 -0.10256724 -0.088891387
-0.38114396 -0.10204331 -0.10250431
0.12259672 -0.10228862 -0.096131444
-0.41955268 -0.083571002 -0.096741021
0.12259672 -0.083589777 -0.096131623
-0.45814455 -0.06501063 -0.09095037
0.12259672 -0.064890981 -0.096131623
-0.47519422 -0.046151266 -0.098786771
0.12259672 -0.046192095 -0.096131504
-0.51388603 -0.027517362 -0.093005955
0.12259672 -0.027493251 -0.096131504
-0.53073919 -0.0087944083 -0.10084134
0.12259672 -0.0087943655 -0.096131623
-0.53130782 0.0098865964 -0.09845835
0.12259672 0.0099044777 -0.096131623
-0.51443714 0.028688157 -0.090619624
0.12259672 0.028603276 -0.096131504
-0.47570872 0.047295928 -0.096399784
0.12259672 0.047302119 -0.096131504
-0.45864135 0.066234149 -0.088560104
-0.43716377 0.065815598 -0.10215247
0.12259672 0.066001087 -0.096131623
-0.42001283 0.084768519 -0.094349921
0.12259672 0.084699847 -0.096131504
-0.38156745 0.10321483 -0.10011238
0.12259672 0.10339869 -0.096131504
-0.36422497 0.12230489 -0.092284501
0.12259672 0.12209757 -0.096131444
-0.32587934 0.14067788 -0.098056614
0.12259672 0.14079645 -0.096131623
-0.30834037 0.15990432 -0.090227664
0.12259672 0.15949522 -0.096131623
0.12259672 0.17819411 -0.096131504
0.12259672 0.19689295 -0.096131444
-0.28885913 0.21564594 -0.095546067
0.12259672 0.21559191 -0.096131623
-0.25072095 0.23375501 -0.10148495
-0.17625424 0.23393242 -0.099711299
0.12259672 0.23429063 -0.096131623
-0.23298591 0.25327373 -0.093494892
-0.15824601 0.25344765 -0.091880739
0.12259672 0.2529895 -0.096131504
-0.19495595 0.27131012 -0.099407315
-0.12038282 0.27151251 -0.09765476
0.12259672 0.2716884 -0.096131444
-0.10217874 0.29116565 -0.089810908
0.12259672 0.29038718 -0.096131623
-0.064416029 0.30915481 -0.095607102
0.12259672 0.30908605 -0.096131623
-0.026832998 0.32705992 -0.10136342
0.12259672 0.32778496 -0.096131504
-0.06530194 -0.32925352 -0.076426506
-0.083725162 -0.30942637 -0.084356606
-0.12170859 -0.29131091 -0.078518987
-0.13993362 -0.27162322 -0.086435556
-0.17802006 -0.25343418 -0.080595613
-0.21628937 -0.23515785 -0.074727535
-0.23423603 -0.21562177 -0.082668662
-0.27260602 -0.19726932 -0.076822996
-0.29035503 -0.1778726 -0.084750473
-0.32882833 -0.15944621 -0.078902483
-0.34638041 -0.14018834 -0.08681643
-0.38495299 -0.12168687 -0.080990672
-0.42371276 -0.10309723 -0.075124621
-0.44098446 -0.083992131 -0.083063245
-0.47984564 -0.065328009 -0.077207088
-0.49692094 -0.046361424 -0.085131943
-0.53588021 -0.027622826 -0.079298019
-0.55275971 -0.0087943655 -0.087209761
-0.55335033 0.0099915918 -0.084811985
-0.53645313 0.028899474 -0.076897264
-0.49745435 0.047611378 -0.082742691
-0.48036397 0.066657729 -0.074802041
-0.44146597 0.085295506 -0.080657244
-0.40275341 0.10384431 -0.086484849
-0.38537967 0.12304333 -0.078580856
-0.34676814 0.14151774 -0.084418178
-0.3292 0.1608562 -0.076488376
-0.30961016 0.21693911 -0.081546068
-0.27120012 0.23514792 -0.087565899
-0.25343537 0.25478783 -0.079446435
-0.17770788 0.2542997 -0.083974838
-0.21513358 0.27292165 -0.085451961
-0.14012113 0.27308926 -0.083999574
-0.12187675 0.29285553 -0.076091886
-0.083855323 0.31094313 -0.081941009
-0.065414809 0.33085394 -0.073982835
-0.046015553 0.32894632 -0.087750077
-0.084901951 -0.33107379 -0.06251812
0.14254595 -0.33092618 -0.063645601
0.14254595 -0.31197718 -0.063645601
-0.10336562 -0.31112826 -0.070538402
-0.14161184 -0.29291409 -0.064634323
0.14254645 -0.29302981 -0.063632965
-0.15987518 -0.27310994 -0.072640896
0.14254645 -0.27408072 -0.063633204
-0.19822562 -0.25482127 -0.066734791
0.14254645 -0.25513175 -0.063633204
-0.23676121 -0.23644444 -0.060799837
0.14254645 -0.23618269 -0.063632965
-0.25474131 -0.21679243 -0.068843842
0.14254645 -0.21723366 -0.063633084
-0.29338008 -0.19833961 -0.06291914
0.14254645 -0.19828464 -0.063633204
-0.31116191 -0.17882966 -0.070936799
0.14254645 -0.17933568 -0.063632965
-0.34990364 -0.16030112 -0.06502223
0.14254595 -0.16038582 -0.063645601
-0.36748642 -0.14093143 -0.073026299
0.14254595 -0.14143689 -0.063645601
-0.40632844 -0.12232684 -0.06713438
0.14254595 -0.122488 -0.063645601
-0.44536 -0.10363311 -0.061201453
0.14254595 -0.10353908 -0.063645601
-0.462659 -0.084418118 -0.069230318
0.14254595 -0.084590107 -0.063645601
-0.50179309 -0.065649003 -0.063307405
0.14254595 -0.06564118 -0.063645601
-0.5188936 -0.046574071 -0.07132256
0.14254595 -0.046692304 -0.063645601
-0.55812669 -0.027729666 -0.065422416
0.14254595 -0.027743377 -0.063645601
-0.57502931 -0.0087944511 -0.073423862
0.14254595 -0.0087944083 -0.063645601
-0.57563901 0.010097787 -0.071023941
0.14254595 0.010154516 -0.063645601
-0.55872172 0.029113369 -0.063006878
0.14254595 0.029103396 -0.063645601
-0.51944882 0.047930568 -0.068918586
0.14254595 0.048052326 -0.063645601
-0.50233048 0.06708587 -0.060900211
0.14254595 0.067001291 -0.063645601
-0.4631595 0.085827984 -0.066822171
0.14254595 0.085950211 -0.063645601
-0.42417639 0.1044802 -0.072715521
0.14254595 0.10489918 -0.063645601
-0.4067764 0.12379082 -0.064709544
0.14254595 0.12384811 -0.06364572
-0.36789516 0.14236799 -0.070613146
0.14254595 0.14279708 -0.063645601
-0.35029629 0.16181885 -0.062593222
0.14254595 0.161746 -0.063645601
-0.3115173 0.18032064 -0.068507075
0.14254595 0.18069488 -0.06364572
0.14254595 0.19964381 -0.06364572
0.14254595 0.21859269 -0.063645601
-0.29191586 0.23655693 -0.073485851
0.14254595 0.23754178 -0.063645601
-0.27412084 0.25631803 -0.065247416
0.14254595 0.25649068 -0.063645601
-0.23554471 0.27455157 -0.071335077
-0.16008171 0.27468237 -0.070202112
0.14254595 0.27543959 -0.063645601
-0.21754038 0.29445323 -0.06311965
-0.14179984 0.29456747 -0.062192082
0.14254595 0.29438847 -0.063645601
-0.1035153 0.31275347 -0.068107963
0.14254595 0.31333739 -0.063645601
-0.12322889 -0.31284803 -0.056575298
-0.1617423 -0.29453567 -0.050591469
-0.18004367 -0.27461353 -0.058689594
-0.21866164 -0.25622424 -0.052715659
-0.25746557 -0.23774453 -0.046725631
-0.27548167 -0.21797748 -0.054848909
-0.3143914 -0.19942215 -0.048856497
-0.33220565 -0.17979755 -0.056965709
-0.37121949 -0.16116558 -0.050983667
-0.41042054 -0.14244245 -0.044985056
-0.38883033 -0.14168233 -0.059091687
-0.42794755 -0.12297407 -0.053119898
-0.46725476 -0.10417514 -0.047119021
-0.48458052 -0.084848918 -0.055239797
-0.52398831 -0.065973349 -0.049261808
-0.54111338 -0.046788871 -0.057368636
-0.58062708 -0.027837751 -0.051388383
-0.58124131 0.029329369 -0.048970342
-0.54169059 0.048253238 -0.05494976
-0.52455062 0.067519158 -0.046827078
-0.48510277 0.086367004 -0.052816629
-0.44584519 0.10512403 -0.058777452
-0.42841712 0.12454669 -0.050679922
-0.38926247 0.14322782 -0.056651115
-0.37163341 0.16279247 -0.048539519
-0.33258015 0.18139639 -0.054533601
-0.31287235 0.23798233 -0.059242368
-0.29504791 0.25786614 -0.050882339
-0.25619498 0.27620217 -0.057041287
-0.18027037 0.27629521 -0.056235552
-0.23815495 0.29622564 -0.048729658
-0.16194934 0.29629746 -0.048146605
-0.12339919 0.31458429 -0.054117203
-0.14332038 -0.31458911 -0.042440057
-0.18210387 -0.29617578 -0.036387205
-0.20044291 -0.27613428 -0.044578195
-0.23933202 -0.25764331 -0.038535833
-0.27840942 -0.23906083 -0.032476783
-0.29645973 -0.21917619 -0.040693641
-0.33564416 -0.20051719 -0.034632206
-0.35349041 -0.18077654 -0.042834997
-0.39277774 -0.16203925 -0.036796689
-0.43225917 -0.14321135 -0.0307163
-0.44981465 -0.12362886 -0.038944602
-0.48940116 -0.10472348 -0.032874703
-0.50675321 -0.085284658 -0.041088939
-0.54644126 -0.066301778 -0.035042286
-0.56359047 -0.047006376 -0.043242335
-0.56419003 0.048579864 -0.04080832
-0.54702598 0.06795752 -0.032592177
-0.50729752 0.086912297 -0.03865087
-0.48992741 0.10643315 -0.030433178
-0.46776164 0.10577522 -0.044679999
-0.45030606 0.12531142 -0.036489487
-0.41087428 0.14409746 -0.042529106
-0.39321318 0.16377649 -0.034337282
-0.35388607 0.18248521 -0.040387392
-0.33602148 0.20230815 -0.032181382
-0.2770839 0.27786908 -0.042605519
-0.18233112 0.29804882 -0.033926845
-0.14351082 0.31643623 -0.039966226
-0.1636433 -0.31635019 -0.028141737
0.16303602 -0.31608692 -0.030278921
-0.20270053 -0.29783499 -0.022018909
0.16303602 -0.29688117 -0.030278802
-0.22107691 -0.27767262 -0.03030467
0.16303602 -0.27767539 -0.03027904
-0.26023933 -0.25907737 -0.024205446
0.16303602 -0.25846961 -0.03027916
-0.29959548 -0.24039222 -0.018063307
0.16303602 -0.23926379 -0.03027904
-0.31767955 -0.22038861 -0.026375175
0.16303602 -0.22005801 -0.03027904
-0.35714245 -0.20162472 -0.020243645
0.16303602 -0.2008523 -0.030278921
-0.37502027 -0.18176691 -0.028541088
0.16303602 -0.18164645 -0.03027904
-0.41458705 -0.16292389 -0.022433162
0.16303602 -0.16244069 -0.030278921
-0.45435053 -0.14398915 -0.016282201
0.16303602 -0.14323491 -0.030278921
-0.47193396 -0.12429114 -0.024606109
0.16303602 -0.12402906 -0.03027904
-0.51180363 -0.10527809 -0.018465757
0.16303602 -0.10482335 -0.03027904
-0.52917844 -0.085725002 -0.026788116
0.16303602 -0.085617512 -0.03027904
-0.56915367 -0.066633902 -0.020658612
0.16303602 -0.066411756 -0.03027904
0.16303602 -0.047205962 -0.03027904
0.16303602 -0.028000206 -0.030278802
0.16303602 -0.0087943655 -0.03027904
0.16303602 0.010411346 -0.030278921
0.16303602 0.029617144 -0.03027904
0.16303602 0.048823029 -0.03027904
-0.56976098 0.068400875 -0.018193007
0.16303602 0.068028733 -0.030278921
-0.52974504 0.087463342 -0.024334669
0.16303602 0.087234534 -0.03027904
0.16303602 0.10644029 -0.030278921
-0.51235211 0.10709934 -0.016009092
-0.47244483 0.12608424 -0.022148371
0.16303602 0.12564613 -0.03027904
-0.43273231 0.14497635 -0.028257608
0.16303602 0.14485174 -0.03027904
0.16303602 0.16405772 -0.030278921
-0.41504428 0.16477273 -0.019958258
-0.37543738 0.1835867 -0.026078343
0.16303602 0.18326353 -0.03027904
-0.35754326 0.20352896 -0.01776433
0.16303602 0.20246923 -0.030278921
0.16303602 0.22167507 -0.03027904
0.16303602 0.24088074 -0.030278921
0.16303602 0.26008654 -0.03027904
0.16303602 0.27929229 -0.03027904
-0.20294824 0.29982045 -0.019543171
0.16303602 0.29849821 -0.030278921
-0.16385412 0.3183094 -0.025652289
0.16303602 0.31770393 -0.030278802
-0.18420166 -0.31813172 -0.013677955
-0.22353637 -0.29951337 -0.0074837208
-0.24194974 -0.27922878 -0.015865922
-0.2813907 -0.26052943 -0.0096957684
-0.32102799 -0.24173921 -0.0034818649
-0.33914542 -0.22161508 -0.011890769
-0.37889063 -0.20274532 -0.0056878328
-0.39679721 -0.1827677 -0.01409483
-0.43664959 -0.16381872 -0.0079028606
-0.47669899 -0.14477593 -0.0016803741
-0.4943099 -0.12496106 -0.01010108
-0.53446364 -0.10583855 -0.0039024353
-0.55186653 -0.086170882 -0.012308359
-0.5524556 0.088021271 -0.0098395348
-0.49484295 0.12686671 -0.0076278448
-0.45484573 0.14586622 -0.01380825
-0.43712893 0.16578057 -0.005412221
-0.39723831 0.18470101 -0.011603475
-0.37931097 0.20476165 -0.0032058954
-0.3395257 0.22360173 -0.0094211102
-0.18443188 0.32020265 -0.011185527
-0.20499957 -0.31993389 0.00095462799
0.18408921 -0.32030961 0.0040045977
-0.24461561 -0.30121133 0.0072209835
0.18408921 -0.30083987 0.0040045977
-0.26306397 -0.28080153 -0.0012720823
0.18408921 -0.28137025 0.0040047169
-0.30278891 -0.26199844 0.0049833059
0.18408921 -0.26190051 0.0040045977
-0.34271127 -0.24310188 0.011269927
0.18408921 -0.24243079 0.0040045977
-0.3608616 -0.22285597 0.0027626753
0.18408921 -0.22296119 0.0040047169
-0.40089068 -0.20387782 0.0090248585
0.18408921 -0.20349145 0.0040045977
-0.41883001 -0.18378118 0.00053262711
0.18408921 -0.18402167 0.0040045977
-0.45896977 -0.16472393 0.0067970753
0.18408921 -0.16455194 0.0040045977
0.18408921 -0.14508231 0.0040047169
-0.51694697 -0.12563884 0.0045733452
0.18408921 -0.12561259 0.0040045977
0.18408921 -0.10614287 0.0040045977
0.18408921 -0.086673237 0.0040045977
0.18408921 -0.067203522 0.0040045977
0.18408921 -0.047733717 0.0040045977
0.18408921 -0.028264126 0.0040047169
0.18408921 -0.0087943655 0.0040045977
0.18408921 0.010675309 0.0040045977
0.18408921 0.030144984 0.0040047169
0.18408921 0.049614705 0.0040045977
0.18408921 0.069084421 0.0040045977
0.18408921 0.088554092 0.0040045977
-0.53503764 0.10777339 -0.0014169216
0.18408921 0.10802381 0.0040045977
-0.51750255 0.12765831 0.0070621967
0.18408921 0.12749358 0.0040045977
-0.47721648 0.14676641 0.00080955029
0.18408921 0.14696316 0.0040047169
-0.45946878 0.16679911 0.0092903376
0.18408921 0.16643289 0.0040045977
-0.41929081 0.18582726 0.0030268431
0.18408921 0.1859026 0.0040045977
-0.40133521 0.20601001 0.011535883
0.18408921 0.20537223 0.0040047169
-0.36126554 0.22495799 0.0052611828
0.18408921 0.224842 0.0040045977
0.18408921 0.24431166 0.0040045977
0.18408921 0.26378131 0.0040045977
0.18408921 0.28325102 0.0040045977
0.18408921 0.30272087 0.0040045977
-0.20525056 0.3221195 0.0034627914
0.18408921 0.32219055 0.0040048361
-0.22604123 -0.32175735 0.015758514
-0.26594087 -0.30292764 0.022085309
-0.28442693 -0.28239414 0.013505578
-0.32443833 -0.26348466 0.019834638
-0.36464971 -0.24448077 0.026195407
-0.38283247 -0.22411133 0.017587781
-0.42315161 -0.20502481 0.023923993
-0.44112107 -0.18480642 0.015331626
-0.48155224 -0.16563991 0.021669745
-0.49930918 -0.14557204 0.013092756
-0.53984654 -0.12632403 0.019406319
-0.54042506 0.12845849 0.021911263
-0.4998464 0.14767632 0.015585065
-0.48207378 0.16783066 0.024178982
-0.44160414 0.18696782 0.017841816
-0.4236185 0.20727301 0.026450992
-0.38325834 0.22632903 0.020102382
-0.34309441 0.24528775 0.013758659
-0.32480675 0.26575896 0.02235353
-0.26625168 0.30525869 0.02460897
-0.22631329 0.3240591 0.01828289
-0.24733096 -0.3236022 0.030736923
0.20572907 -0.32464996 0.039243579
-0.28751972 -0.30466595 0.03713882
0.20572907 -0.30490899 0.039243698
-0.30604157 -0.28400555 0.028457403
0.20572907 -0.28516799 0.039243579
-0.3463434 -0.26498848 0.034861326
0.20572907 -0.26542702 0.039243698
-0.38684785 -0.24587579 0.041297436
0.20572907 -0.24568602 0.039243698
-0.4050602 -0.22538038 0.032574415
0.20572907 -0.22594507 0.03924346
-0.44567585 -0.2061853 0.038998961
0.20572907 -0.20620407 0.039243579
-0.46367484 -0.18584388 0.030305147
0.20572907 -0.18646318 0.039243579
-0.50440156 -0.16656667 0.036718369
0.20572907 -0.16672219 0.039243698
-0.52218562 -0.14637746 0.028039575
0.20572907 -0.14698111 0.039243579
0.20572907 -0.12724026 0.039243579
0.20572907 -0.10749926 0.039243579
0.20572907 -0.087758318 0.039243698
0.20572907 -0.068017289 0.039243579
0.20572907 -0.048276298 0.039243698
0.20572907 -0.028535396 0.039243698
0.20572907 -0.0087943655 0.039243579
0.20572907 0.010946579 0.039243579
0.20572907 0.030687524 0.039243698
0.20572907 0.05042851 0.039243698
0.20572907 0.070169501 0.039243579
0.20572907 0.089910448 0.039243698
0.20572907 0.1096513 0.039243698
0.20572907 0.12939246 0.039243579
-0.52274561 0.14859782 0.030547976
0.20572907 0.14913337 0.039243579
-0.50494581 0.1688744 0.039243698
0.20572907 0.1688744 0.039243698
-0.46418047 0.18812166 0.032831311
0.20572907 0.18861526 0.039243698
-0.44616535 0.20855089 0.04154253
0.20572907 0.20835625 0.039243579
-0.40550828 0.22771496 0.035105228
0.20572907 0.22809727 0.039243698
-0.36505678 0.24678439 0.028713465
0.20572907 0.24783817 0.039243698
-0.34673163 0.2673786 0.03738308
0.20572907 0.2675792 0.039243817
-0.306393 0.28636739 0.030993581
0.20572907 0.28732017 0.039243579
-0.28785211 0.30711466 0.039678693
0.20572907 0.30706105 0.039243579
-0.24762434 0.32602128 0.03327775
0.20572907 0.32680213 0.039243698
-0.26887152 -0.32546723 0.045879364
-0.30935517 -0.30642477 0.052371144
-0.3279123 -0.28563607 0.043586373
-0.36850867 -0.26651016 0.05006659
-0.42755398 -0.22666559 0.04775238
-0.46846813 -0.20735964 0.054253578
-0.48649609 -0.18689354 0.045456052
-0.52752244 -0.16750441 0.051945448
-0.48702455 0.1892893 0.047998667
-0.42802456 0.22911854 0.050299644
-0.3872771 0.24829733 0.043831944
-0.36891899 0.26901916 0.052604556
-0.32828566 0.2881164 0.046139121
-0.30970937 0.30899286 0.054927588
-0.2691882 0.32800704 0.048450232
-0.29067063 -0.32735625 0.061216116
-0.33145174 -0.30820477 0.06778574
-0.35004371 -0.28728589 0.058895707
-0.39093882 -0.26804993 0.06545341
-0.40930793 -0.24728619 0.056565642
-0.45031631 -0.22796616 0.063111544
-0.49153322 -0.20854799 0.069690704
-0.50958955 -0.18795575 0.060787559
-0.51013821 0.19046962 0.063333154
-0.46897775 0.20984295 0.056800008
-0.45080975 0.23053892 0.065675259
-0.40976202 0.24982834 0.05913043
-0.39137146 0.27067918 0.068008065
-0.35043931 0.289886 0.061465144
-0.33182812 0.31089345 0.070358753
-0.29100749 0.33001447 0.063790083
-0.31273139 -0.32926795 0.076737165
0.22798049 -0.32911295 0.075478435
-0.35381421 -0.31000602 0.083385706
0.22798049 -0.30909294 0.075478435
-0.37244055 -0.2889556 0.074388623
0.22798049 -0.28907308 0.075478435
-0.41363615 -0.26960686 0.081011295
0.22798049 -0.26905325 0.075478435
-0.43203944 -0.24871476 0.072030544
0.22798049 -0.24903321 0.075478435
-0.47335207 -0.22928236 0.078655243
0.22798049 -0.22901335 0.075478435
0.22798049 -0.20899354 0.075478554
0.22798049 -0.1889735 0.075478435
0.22798049 -0.16895367 0.075478435
0.22798049 -0.14893377 0.075478554
0.22798049 -0.12891373 0.075478435
0.22798049 -0.10889391 0.075478554
0.22798049 -0.088874042 0.075478435
0.22798049 -0.068854131 0.075478315
0.22798049 -0.048834182 0.075478435
0.22798049 -0.028814359 0.075478554
0.22798049 -0.0087944083 0.075478315
0.22798049 0.011225542 0.075478435
0.22798049 0.031245364 0.075478554
0.22798049 0.05126527 0.075478554
0.22798049 0.071285218 0.075478554
0.22798049 0.091305174 0.075478554
0.22798049 0.111325 0.075478554
0.22798049 0.13134499 0.075478435
0.22798049 0.15136477 0.075478435
0.22798049 0.17138468 0.075478554
0.22798049 0.19140472 0.075478435
-0.49206591 0.21115147 0.072253823
0.22798049 0.21142448 0.075478435
-0.47386861 0.23197624 0.081236005
0.22798049 0.2314444 0.075478554
-0.4325164 0.25137761 0.074612141
0.22798049 0.25146443 0.075478435
-0.41409388 0.27235913 0.083596706
0.22798049 0.27148423 0.075478435
-0.37285635 0.29167533 0.076960921
0.22798049 0.29150417 0.075478554
0.22798049 0.31152415 0.075478435
0.22797948 0.33154225 0.075464487
-0.37644741 -0.31182918 0.099174619
-0.39510754 -0.29064548 0.090068579
-0.43661037 -0.27118403 0.096771359
-0.45504493 -0.25016055 0.08768189
-0.49666619 -0.23061441 0.094386697
-0.49720311 0.2334298 0.09697032
-0.45554227 0.25294417 0.090266466
-0.39554361 0.29348636 0.092643499
-0.35421079 0.31281531 0.085961819
0.25086969 -0.31339702 0.11275208
-0.41804707 -0.29235432 0.10592425
0.25086969 -0.29309016 0.11275196
-0.45986408 -0.27278042 0.11272323
0.25086969 -0.27278331 0.11275196
-0.4783293 -0.25162393 0.10352302
0.25086969 -0.25247642 0.11275196
0.25086969 -0.23216957 0.11275196
0.25086969 -0.21186271 0.11275196
0.25086969 -0.19155598 0.11275208
0.25086969 -0.17124915 0.11275196
0.25086969 -0.1509423 0.11275196
0.25086969 -0.13063543 0.11275196
0.25086969 -0.11032856 0.11275196
0.25086969 -0.090021692 0.11275196
0.25086969 -0.069714919 0.11275208
0.25086969 -0.049408048 0.11275196
0.25086969 -0.029101187 0.11275196
0.25086969 -0.0087943655 0.11275196
0.25086969 0.011512499 0.11275196
0.25086969 0.031819321 0.11275196
0.25086969 0.052126102 0.11275208
0.25086969 0.072432958 0.11275196
0.25086969 0.092739739 0.11275196
0.25086969 0.11304669 0.11275196
0.25086969 0.13335347 0.11275196
0.25086969 0.15366028 0.11275208
0.25086969 0.17396711 0.11275196
0.25086969 0.19427402 0.11275196
0.25086969 0.2145808 0.11275196
0.25086969 0.2348877 0.11275196
-0.47885001 0.25453117 0.10612476
0.25086859 0.25519302 0.11273766
-0.43709114 0.27405956 0.099373937
0.25086859 0.27549976 0.11273754
-0.41850856 0.29532087 0.10853076
0.25086859 0.2958065 0.11273766
-0.37686428 0.31476033 0.10175323
0.25086859 0.31611332 0.11273766
-0.39935622 -0.31367454 0.1151557
-0.44126919 -0.29408553 0.12198806
-0.46036828 0.27578065 0.11534309
-0.44175392 0.29717761 0.12461185
-0.39979827 0.31673262 0.11776614
-0.42254317 -0.31554079 0.13131821
-0.46477658 -0.29583806 0.13824904
-0.46528488 0.2990573 0.1408906
-0.42301103 0.31872717 0.1339606
-0.44601846 -0.31743178 0.14769435
0.27441955 -0.31781924 0.15105009
0.27441955 -0.29721764 0.15105021
0.27441955 -0.27661589 0.15105009
0.27441955 -0.25601432 0.15105009
0.27441955 -0.23541269 0.15105021
0.27441955 -0.21481097 0.15105021
0.27441955 -0.19420932 0.15105033
0.27441955 -0.17360763 0.15105009
0.27441955 -0.15300603 0.15105021
0.27441955 -0.13240431 0.15105009
0.27441955 -0.11180271 0.15105009
0.27441955 -0.091201022 0.15105009
0.27441955 -0.07059934 0.15105021
0.27441955 -0.049997777 0.15105021
0.27441955 -0.029396094 0.15105021
0.27441955 -0.0087944083 0.15105033
0.27441955 0.011807235 0.15105021
0.27441955 0.032408878 0.15105033
0.27441955 0.053010516 0.15105009
0.27441955 0.073612243 0.15105021
0.27441955 0.094213933 0.15105009
0.27441955 0.11481544 0.15105009
0.27441955 0.13541725 0.15105009
0.27441955 0.15601885 0.15105021
0.27441955 0.17662042 0.15105021
0.27441955 0.19722219 0.15105009
0.27441955 0.21782379 0.15105033
0.27441955 0.23842543 0.15105009
0.27441955 0.25902715 0.15105021
0.27441955 0.27962875 0.15105009
0.27441955 0.30023035 0.15105009
-0.44650996 0.32074648 0.15035474
0.27441955 0.32083222 0.15105021
0.29866892 -0.32237896 0.19053781
0.29866892 -0.30147332 0.19053781
0.29866892 -0.28056771 0.19053781
0.29866892 -0.25966209 0.19053781
0.29866892 -0.23875637 0.19053769
0.29866892 -0.21785076 0.19053769
0.29866892 -0.1969451 0.19053781
0.29866892 -0.17603947 0.19053781
0.29866892 -0.15513383 0.19053781
0.29866892 -0.13422816 0.19053781
0.29866892 -0.11332254 0.19053781
0.29866892 -0.092416927 0.19053781
0.29866892 -0.071511306 0.19053781
0.29866892 -0.050605685 0.19053781
0.29866892 -0.029700026 0.19053781
0.29866892 -0.0087944083 0.19053781
0.29866892 0.012111209 0.19053793
0.29866892 0.033016868 0.19053781
0.29866892 0.053922527 0.19053781
0.29866892 0.074828103 0.19053781
0.29866892 0.095733806 0.19053781
0.29866892 0.11663935 0.19053781
0.29866892 0.13754505 0.19053781
0.29866892 0.15845059 0.19053781
0.29866892 0.17935632 0.19053781
0.29866892 0.20026186 0.19053781
0.29866892 0.22116756 0.19053781
0.29866892 0.24207309 0.19053781
0.29866892 0.26297885 0.19053781
0.29866892 0.28388447 0.19053781
0.29866892 0.30479011 0.19053781
0.29866892 0.32569569 0.19053781
0.32364303 -0.32707331 0.23119247
0.32364303 -0.30585474 0.23119247
0.32364303 -0.28463614 0.23119247
0.32364303 -0.26341745 0.23119247
0.32364303 -0.24219887 0.23119247
0.32364303 -0.22098029 0.23119247
0.32364303 -0.19976181 0.23119247
0.32364303 -0.17854314 0.23119247
0.32364303 -0.15732463 0.23119247
0.32364303 -0.13610595 0.23119235
0.32364303 -0.11488737 0.23119247
0.32364303 -0.093668751 0.23119247
0.32364303 -0.072450176 0.23119247
0.32364303 -0.0512316 0.23119247
0.32364303 -0.03001307 0.23119259
0.32364303 -0.0087944083 0.23119247
0.32364303 0.012424124 0.23119247
0.32364303 0.033642828 0.23119247
0.32364303 0.054861404 0.23119247
0.32364303 0.076079935 0.23119247
0.32364303 0.097298592 0.23119247
0.32364303 0.11851718 0.23119247
0.32364303 0.13973574 0.23119247
0.32364303 0.16095428 0.23119247
0.32364303 0.18217289 0.23119247
0.32364303 0.20339152 0.23119247
0.32364303 0.22461018 0.23119247
0.32364303 0.24582875 0.23119247
0.32364303 0.26704732 0.23119247
0.32364303 0.28826591 0.23119247
0.32364303 0.30948439 0.23119247
0.32364303 0.33070305 0.23119235
0.34937623 -0.31036931 0.27308285
0.34937623 -0.28882831 0.27308285
0.34937623 -0.26728716 0.27308285
0.34937623 -0.24574614 0.27308285
0.34937623 -0.22420502 0.27308273
0.34937623 -0.20266399 0.27308285
0.34937623 -0.18112296 0.27308285
0.34937623 -0.15958184 0.27308273
0.34937623 -0.13804081 0.27308285
0.34937623 -0.11649974 0.27308285
0.34937623 -0.094958663 0.27308285
0.34937623 -0.073417634 0.27308285
0.34937623 -0.051876597 0.27308285
0.34937623 -0.030335397 0.27308285
0.34937623 -0.0087944511 0.27308285
0.34937623 0.012746666 0.27308273
0.34937623 0.034287699 0.27308285
0.34937623 0.055828765 0.27308285
0.34937623 0.077369928 0.27308285
0.34937623 0.098910876 0.27308285
0.34937623 0.1204519 0.27308285
0.34937623 0.14199302 0.27308285
0.34937623 0.16353409 0.27308285
0.34937623 0.18507521 0.27308285
0.34937623 0.20661628 0.27308285
0.34937623 0.22815722 0.27308285
0.34937623 0.24969834 0.27308273
0.34937623 0.27123943 0.27308285
0.34937623 0.29278046 0.27308285
0.34937623 0.31432161 0.27308285
0.3759056 -0.31502503 0.31628275
0.3759056 -0.29315144 0.31628287
0.3759056 -0.27127782 0.31628275
0.3759056 -0.24940424 0.31628275
0.3759056 -0.22753057 0.31628275
0.3759056 -0.20565698 0.31628287
0.3759056 -0.18378337 0.31628287
0.3759056 -0.16190977 0.31628275
0.3759056 -0.14003618 0.31628275
0.3759056 -0.11816247 0.31628275
0.3759056 -0.096288882 0.31628275
0.3759056 -0.074415252 0.31628287
0.3759056 -0.052541576 0.31628275
0.3759056 -0.030668037 0.31628275
0.3759056 -0.008794494 0.31628287
0.3759056 0.013079263 0.31628275
0.3759056 0.03495276 0.31628275
0.3759056 0.056826517 0.31628287
0.3759056 0.078700058 0.31628287
0.3759056 0.10057356 0.31628287
0.3759056 0.12244731 0.31628275
0.3759056 0.14432086 0.31628275
0.3759056 0.16619459 0.31628275
0.3759056 0.18806812 0.31628275
0.3759056 0.2099417 0.31628287
0.3759056 0.23181541 0.31628287
0.3759056 0.25368896 0.31628287
0.3759056 0.27556276 0.31628275
0.3759056 0.29743621 0.31628275
0.3759056 0.31930977 0.31628275
0.40326482 -0.31982508 0.36082053
0.40326482 -0.29760855 0.36082029
0.40326482 -0.27539206 0.36082053
0.40326482 -0.25317559 0.36082029
0.40326482 -0.23095909 0.36082029
0.40326482 -0.20874259 0.36082029
0.40326482 -0.18652618 0.36082029
0.40326482 -0.16430968 0.36082029
0.40326482 -0.14209318 0.36082017
0.40326482 -0.11987673 0.36082029
0.40326482 -0.097660318 0.36082053
0.40326482 -0.075443901 0.36082053
0.40326482 -0.053227402 0.36082029
0.40326482 -0.031010907 0.36082053
0.40326482 -0.0087944083 0.36082029
0.40326482 0.013422046 0.36082029
0.40326482 0.035638541 0.36082029
0.40326482 0.05785504 0.36082029
0.40326482 0.080071539 0.36082029
0.40326482 0.10228799 0.36082029
0.40326482 0.12450449 0.36082029
0.40326482 0.1467209 0.36082053
0.40326482 0.1689374 0.36082053
0.40326482 0.19115372 0.36082029
0.40326482 0.21337022 0.36082029
0.40326482 0.23558672 0.36082029
0.40326482 0.25780323 0.36082029
0.40326482 0.28001973 0.36082029
0.40326482 0.30223614 0.36082029
0.40326482 0.32445264 0.36082029
0.43149999 -0.32478157 0.40681171
0.43149999 -0.30221102 0.40681171
0.43149999 -0.27964061 0.40681195
0.43149999 -0.25707006 0.40681195
0.43149999 -0.23449953 0.40681171
0.43149999 -0.21192907 0.40681171
0.43149999 -0.18935853 0.40681171
0.43149999 -0.16678794 0.40681171
0.43149999 -0.14421754 0.40681195
0.43149999 -0.12164699 0.40681171
0.43149999 -0.09907645 0.40681171
0.43149999 -0.076505952 0.40681195
0.43149999 -0.053935364 0.40681195
0.43149999 -0.031364948 0.40681171
0.43149999 -0.008794494 0.40681171
0.43149999 0.013776133 0.40681171
0.43149999 0.036346585 0.40681195
0.43149999 0.058917128 0.40681195
0.43149999 0.081487671 0.40681195
0.43149999 0.104058 0.40681171
0.43149999 0.12662862 0.40681171
0.43149999 0.1491992 0.40681171
0.43149999 0.17176966 0.40681195
0.43149999 0.19434024 0.40681195
0.43149999 0.21691079 0.40681171
