ply
format ascii 1.0
comment PCL generated
element vertex 1340
property float x
property float y
property float z
element camera 0
property float view_px
property float view_py
property float view_pz
property float x_axisx
property float x_axisy
property float x_axisz
property float y_axisx
property float y_axisy
property float y_axisz
property float z_axisx
property float z_axisy
property float z_axisz
property float focal
property float scalex
property float scaley
property float centerx
property float centery
property int viewportx
property int viewporty
property float k1
property float k2
end_header
0.16007225 0.074628666 -0.2546978
0.12570803 0.091208741 -0.26214498
0.10908247 0.10828665 -0.25822794
0.074945241 0.12472584 -0.26566148
0.092397355 0.12542571 -0.25429678
0.058255799 0.14183608 -0.26175702
0.041506678 0.15900749 -0.25783855
0.024697555 0.17624043 -0.25390607
0.0078328755 -0.19658467 -0.2496497
0.041990779 -0.18020162 -0.24211693
0.058858752 -0.16290525 -0.24609184
0.075666197 -0.14567098 -0.25005233
0.11004905 -0.1291163 -0.24253279
0.12679154 -0.11191501 -0.24650604
0.14347395 -0.094775498 -0.25046498
0.17808266 -0.078050502 -0.24293804
0.19469984 -0.06094411 -0.24690986
0.2112574 -0.043899156 -0.25086743
0.22953995 -0.044076342 -0.23935837
0.24609135 -0.027003527 -0.24334311
0.26258329 -0.0099919634 -0.24731344
0.26254809 0.0069869841 -0.2475825
0.24605812 0.024026949 -0.24361306
0.21122739 0.040862516 -0.2511459
0.22950865 0.041128412 -0.23962945
0.19467188 0.057935748 -0.24718934
0.17805678 0.075070463 -0.24321848
0.14345171 0.091734961 -0.25075388
0.16138172 0.092267022 -0.23923331
0.12677145 0.10890274 -0.24679601
0.11003112 0.12613222 -0.24282372
0.075651892 0.14262551 -0.25036192
0.058846794 0.15988785 -0.2464025
0.041981176 0.17721234 -0.24242884
0.0078279469 0.19353423 -0.24996966
-0.0089796614 -0.23246641 -0.23010641
0.0080719013 -0.21498182 -0.23412436
0.025061941 -0.19756036 -0.23812789
0.042471789 -0.19854537 -0.22649556
0.059457861 -0.18109386 -0.23052669
0.076382533 -0.16370539 -0.2345432
0.093246147 -0.14637962 -0.23854518
0.11101135 -0.14709638 -0.22690678
0.12787025 -0.12974121 -0.23093635
0.14466821 -0.11244868 -0.23495138
0.16140558 -0.095218599 -0.2389518
0.17952561 -0.095666409 -0.22731763
0.1962574 -0.078407444 -0.23134589
0.21292874 -0.061210886 -0.23535937
0.24801327 -0.044255264 -0.22773904
0.26461798 -0.027092572 -0.23176575
0.28116271 -0.0099918796 -0.23577774
0.28112793 0.007075944 -0.23602861
0.26458365 0.024205327 -0.23202801
0.24798085 0.041396983 -0.22800237
0.21289942 0.058291625 -0.23563135
0.19622903 0.075516552 -0.23162925
0.17949934 0.092804268 -0.22760206
0.14464645 0.10952572 -0.23523372
0.12785059 0.12684685 -0.23121977
0.093230411 0.14342397 -0.23883712
0.11099318 0.1442301 -0.22720182
0.076368988 0.16077819 -0.23483628
0.059446536 0.17819525 -0.23082072
0.02505471 0.19459924 -0.23844081
0.042462379 0.19567451 -0.22680134
0.0080670658 0.21204902 -0.23443842
-0.0089820884 0.22956198 -0.23042154
-0.0088580921 -0.25128177 -0.21431416
0.0083141569 -0.23363908 -0.21838933
0.025424009 -0.21606034 -0.22244984
0.060065873 -0.19954169 -0.21472979
0.077109516 -0.18199633 -0.21880347
0.094091229 -0.16451462 -0.22286248
0.11198737 -0.16533244 -0.21105814
0.12896426 -0.14782067 -0.21514535
0.1458794 -0.13037269 -0.21921748
0.16273306 -0.112988 -0.22327501
0.18098812 -0.11353249 -0.21148574
0.19783603 -0.096118495 -0.21557122
0.21462263 -0.078767858 -0.21964198
0.23134826 -0.061480228 -0.22369796
0.24996383 -0.061752558 -0.2119025
0.26668292 -0.044436213 -0.21598649
0.2833412 -0.027182784 -0.22005564
0.29993901 -0.0099920053 -0.22411001
0.31891394 -0.0099919215 -0.21231902
0.29990193 0.0071656974 -0.22436368
0.31887615 0.0072565367 -0.21256453
0.28330597 0.024385754 -0.22031021
0.26664951 0.041668583 -0.21624196
0.23131774 0.058650952 -0.22396213
0.24993227 0.059014391 -0.2121588
0.21459407 0.075967744 -0.21990728
0.19780938 0.093347654 -0.21583748
0.16270888 0.11015482 -0.22356051
0.18096344 0.11079099 -0.21175289
0.14585732 0.12756839 -0.21950412
0.12894435 0.14504543 -0.21543282
0.09407527 0.16167709 -0.22315866
0.1119696 0.16258641 -0.21134675
0.077095784 0.17918772 -0.21910083
0.060054399 0.19676207 -0.21502811
0.025416916 0.21321809 -0.22275662
0.0083094146 0.23082554 -0.21869731
-0.0088604726 0.24849719 -0.21462315
-0.026093086 -0.27011824 -0.20044571
-0.0087347012 -0.27036768 -0.19828522
-0.026093086 -0.25277647 -0.20044571
0.0085600372 -0.2525638 -0.2024188
-0.026093086 -0.23543476 -0.20044565
0.025791483 -0.23482506 -0.20653754
-0.026093086 -0.21809296 -0.20044571
-0.0087596364 -0.21799333 -0.20152432
0.042959988 -0.21715115 -0.21064115
0.06068261 -0.21825361 -0.19870681
-0.026093086 -0.20075119 -0.20044571
-0.0087596364 -0.20065984 -0.20152444
0.077846877 -0.2005485 -0.20283902
-0.026093086 -0.18340948 -0.20044571
-0.0087596364 -0.18332639 -0.20152432
0.0085573848 -0.18324429 -0.20259124
0.094948359 -0.18290827 -0.20695615
-0.026093086 -0.16606769 -0.20044571
-0.0087596364 -0.16599295 -0.20152444
0.0085573848 -0.16591902 -0.20259124
0.13007396 -0.16615903 -0.19912821
-0.026093086 -0.14872599 -0.20044565
-0.0087596364 -0.14865959 -0.20152432
0.0085573848 -0.14859389 -0.20259124
0.14710788 -0.14855275 -0.20325887
-0.026093086 -0.13138421 -0.20044571
-0.0087596364 -0.131326 -0.20152444
0.0085573848 -0.13126862 -0.20259124
0.025857756 -0.13121052 -0.203668
0.16407856 -0.13101028 -0.20738524
-0.026093086 -0.1140424 -0.20044571
-0.0087596364 -0.11399263 -0.20152432
0.0085573848 -0.11394333 -0.20259136
0.025857756 -0.11389367 -0.20366788
0.1994383 -0.11408333 -0.19956028
-0.026093086 -0.096700743 -0.20044565
-0.0087596364 -0.096659124 -0.20152444
0.0085573848 -0.096618108 -0.20259118
0.025857756 -0.09657672 -0.203668
0.043141581 -0.09653531 -0.2047435
0.21634187 -0.096575886 -0.20368946
-0.026093086 -0.079358958 -0.20044571
-0.0087596364 -0.079325713 -0.20152432
0.0085573848 -0.079292931 -0.20259124
0.025857756 -0.079259686 -0.203668
0.043141581 -0.079226583 -0.20474362
0.23318361 -0.079132363 -0.20780349
-0.026093086 -0.062017161 -0.20044571
-0.0087596364 -0.061992269 -0.20152444
0.0085573848 -0.06196763 -0.20259136
0.025857756 -0.061942801 -0.20366788
0.043141581 -0.061917968 -0.2047435
0.26877743 -0.062027939 -0.19998145
-0.026093086 -0.044675443 -0.20044565
-0.0087596364 -0.044658821 -0.20152432
0.0085573848 -0.044642407 -0.20259124
0.025857756 -0.044625826 -0.203668
0.043141581 -0.044609286 -0.20474362
0.0604093 -0.044592917 -0.20580733
0.28555083 -0.044619061 -0.20410901
-0.026093086 -0.027333681 -0.20044571
-0.0087596364 -0.027325369 -0.20152444
0.0085573848 -0.027317144 -0.20259124
0.025857756 -0.027308874 -0.20366788
0.043141581 -0.027300645 -0.2047435
0.0604093 -0.027292375 -0.20580733
0.30226287 -0.027273789 -0.20822155
-0.026093086 -0.0099919634 -0.20044565
-0.0087596364 -0.0099919634 -0.20152444
0.0085573848 -0.0099919215 -0.20259136
0.025857756 -0.0099919215 -0.203668
0.043141581 -0.0099919215 -0.20474362
0.0604093 -0.0099919634 -0.20580745
0.077660188 -0.0099920053 -0.20688099
0.33809069 -0.0099919215 -0.2004025
-0.026093086 0.0073498385 -0.20044565
-0.0087596364 0.0073415702 -0.20152444
0.0085573848 0.0073332591 -0.20259124
0.025857756 0.007324948 -0.20366788
0.043141581 0.0073166778 -0.2047435
0.0604093 0.0073085753 -0.20580751
0.077660188 0.0073003052 -0.20688099
0.33805054 0.0073482106 -0.20065069
-0.026093086 0.0246916 -0.20044571
-0.0087596364 0.024674933 -0.20152444
0.0085573848 0.02465852 -0.20259124
0.025857756 0.024641983 -0.203668
0.043141581 0.024625402 -0.20474362
0.0604093 0.024608988 -0.20580733
0.30222526 0.024567891 -0.20847875
-0.026093086 0.042033318 -0.20044565
-0.0087596364 0.042008508 -0.20152444
0.0085573848 0.041983824 -0.20259124
0.025857756 0.041958936 -0.203668
0.043141581 0.041933998 -0.2047435
0.0604093 0.041909482 -0.20580745
0.28551507 0.041942772 -0.2043671
-0.026093086 0.059375118 -0.20044571
-0.0087596364 0.059341874 -0.20152432
0.0085573848 0.059309002 -0.20259124
0.025857756 0.059275884 -0.20366788
0.043141581 0.059242722 -0.20474362
0.26874354 0.059381466 -0.20024067
-0.026093086 0.076716885 -0.20044571
-0.0087596364 0.076675326 -0.20152444
0.0085573848 0.076634228 -0.20259124
0.025857756 0.07659284 -0.203668
0.043141581 0.07655137 -0.2047435
0.23315264 0.076423362 -0.20807159
-0.026093086 0.094058603 -0.20044565
-0.0087596364 0.094008736 -0.20152432
0.0085573848 0.093959533 -0.20259136
0.025857756 0.093909755 -0.20366788
0.043141581 0.093860075 -0.20474362
0.21631289 0.093896344 -0.20395839
-0.026093086 0.11140032 -0.20044571
-0.0087596364 0.11134224 -0.20152444
0.0085573848 0.11128472 -0.20259124
0.025857756 0.11122677 -0.203668
0.19941129 0.11143351 -0.19983035
-0.026093086 0.12874199 -0.20044565
-0.0087596364 0.12867567 -0.20152432
0.0085573848 0.12860999 -0.20259124
0.025857756 0.12854363 -0.20366788
0.16405495 0.12829761 -0.20766407
-0.026093086 0.14608379 -0.20044565
-0.0087596364 0.14600913 -0.20152444
0.0085573848 0.14593513 -0.20259118
0.14708552 0.14586879 -0.2035495
-0.026093086 0.16342559 -0.20044571
-0.0087596364 0.16334251 -0.20152444
0.0085573848 0.16326042 -0.20259124
0.13005376 0.1635045 -0.19941986
-0.026093086 0.18076727 -0.20044565
-0.0087596364 0.18067604 -0.20152444
0.0085573848 0.1805857 -0.20259124
0.09493275 0.18019156 -0.20724583
-0.026093086 0.19810908 -0.20044571
-0.0087596364 0.19800942 -0.20152444
0.07783296 0.19786014 -0.2031405
-0.026093086 0.21545088 -0.20044571
-0.0087596364 0.21534298 -0.20152444
0.042950764 0.2144006 -0.21094054
0.060670957 0.21559463 -0.19900942
-0.026093086 0.23279256 -0.20044565
0.025784547 0.23210372 -0.20683813
-0.026093086 0.25013444 -0.20044571
0.0085552279 0.24987039 -0.20273125
-0.026093086 0.26747608 -0.20044553
-0.0087371152 0.26770359 -0.19859868
0.0088094603 -0.27176097 -0.18621856
0.026164243 -0.25385949 -0.19039661
0.043455176 -0.23602383 -0.19455934
0.078594863 -0.21936788 -0.18664467
0.095817804 -0.20156622 -0.19082117
0.11297738 -0.18383005 -0.19498235
0.14835405 -0.16699438 -0.18707067
0.16544525 -0.14929256 -0.19124568
0.18247356 -0.13165583 -0.19540524
0.20106477 -0.13230765 -0.18330783
0.218087 -0.11464056 -0.18749654
0.23504655 -0.097038478 -0.19166988
0.25194237 -0.07950075 -0.19583875
0.27090356 -0.07987351 -0.18373495
0.28779224 -0.062306155 -0.18793315
0.30462015 -0.044803828 -0.19210488
0.32138619 -0.027365882 -0.19626129
0.34071609 -0.027459018 -0.18416196
0.35747433 -0.0099919634 -0.1883477
0.35742998 0.0074408865 -0.18860948
0.32134783 0.024752241 -0.19651043
0.3406736 0.024938304 -0.18442488
0.30458358 0.042220175 -0.19235486
0.28775594 0.059752304 -0.18819499
0.25191033 0.076884069 -0.1960988
0.27086774 0.077349544 -0.18400878
0.23501517 0.094451405 -0.19194186
0.21805643 0.11208276 -0.18778026
0.18244754 0.1290351 -0.195687
0.20103626 0.12978002 -0.18359256
0.16542129 0.14670166 -0.19152844
0.14833137 0.16443253 -0.18736553
0.11295935 0.18120514 -0.19527501
0.13117915 0.18222968 -0.18317616
0.095801972 0.19897102 -0.19111502
0.078581251 0.21680242 -0.1869396
0.043445826 0.23339431 -0.19486302
0.026157206 0.25125945 -0.19070143
0.0088047516 0.26919073 -0.18652457
-0.043604806 -0.27266771 -0.1783663
0.026542401 -0.27316931 -0.17402208
-0.043604806 -0.25515601 -0.17836624
0.043957517 -0.25516903 -0.17824537
-0.043604806 -0.23764426 -0.1783663
0.06130822 -0.23723535 -0.18245268
0.079353698 -0.23845993 -0.17021567
0.096699826 -0.22049405 -0.1744529
-0.043604806 -0.22013254 -0.1783663
-0.043604806 -0.20262079 -0.1783663
0.1139817 -0.2025948 -0.1786744
-0.043604806 -0.18510909 -0.17836624
0.13119966 -0.18476167 -0.18288022
0.14961828 -0.18570329 -0.17064786
-0.043604806 -0.16759741 -0.1783663
0.16683076 -0.16783872 -0.17488343
-0.043604806 -0.15008572 -0.1783663
0.18397947 -0.15004034 -0.17910337
-0.043604806 -0.13257395 -0.1783663
0.21985628 -0.13296662 -0.17107981
-0.043604806 -0.11506224 -0.1783663
0.23693518 -0.11520324 -0.17531389
-0.043604806 -0.097550474 -0.1783663
0.2539508 -0.097505704 -0.17953205
0.29006767 -0.080249935 -0.17151165
-0.043604806 -0.080038793 -0.17836624
-0.043604806 -0.062527031 -0.1783663
0.30701309 -0.062587634 -0.17574406
-0.043604806 -0.045015413 -0.1783663
0.32389581 -0.044990811 -0.17996091
-0.043604806 -0.027503625 -0.1783663
0.36025253 -0.027553115 -0.17194337
-0.043604806 -0.0099919634 -0.1783663
0.37706456 -0.0099919634 -0.17617416
-0.043604806 0.0075198235 -0.1783663
0.37701771 0.0075346911 -0.17643881
-0.043604806 0.025031485 -0.1783663
0.36020753 0.02512629 -0.17220896
-0.043604806 0.04254327 -0.1783663
0.32385519 0.042500336 -0.1802246
-0.043604806 0.060054969 -0.17836624
0.30697438 0.060127605 -0.17600882
-0.043604806 0.077566721 -0.1783663
0.29003087 0.077820279 -0.17177737
-0.043604806 0.095078342 -0.1783663
0.25391695 0.09501189 -0.17980707
-0.043604806 0.11259013 -0.1783663
0.23690332 0.11273973 -0.17558962
-0.043604806 0.13010179 -0.1783663
0.21982643 0.1305335 -0.17135674
-0.043604806 0.14761357 -0.1783663
0.18395305 0.14754267 -0.17938924
-0.043604806 0.16512527 -0.17836624
0.16680646 0.16537127 -0.17517036
-0.043604806 0.18263702 -0.1783663
0.14959611 0.18326621 -0.17093581
-0.043604806 0.20014872 -0.17836624
0.1139634 0.20009279 -0.17897135
-0.043604806 0.21766044 -0.1783663
0.09668377 0.21802217 -0.17475098
-0.043604806 0.23517217 -0.17836624
0.061296411 0.2346987 -0.1827597
0.079339869 0.23601823 -0.17051482
-0.043604806 0.25268388 -0.1783663
0.043948032 0.25266221 -0.17855334
-0.043604806 0.27019551 -0.1783663
0.02653526 0.27069259 -0.17433131
0.044467516 -0.27459419 -0.16168267
0.061943352 -0.25649399 -0.16595149
0.097595319 -0.23969904 -0.15783465
0.11500063 -0.22163254 -0.16212904
0.13234168 -0.20363443 -0.16639644
0.16823648 -0.18665515 -0.1582827
0.18550727 -0.1686922 -0.1625644
0.20271376 -0.15079619 -0.16682994
0.23885132 -0.13363265 -0.15871948
0.25598711 -0.11577198 -0.16299957
0.2730591 -0.097977817 -0.16726357
0.3094393 -0.080630295 -0.15915614
0.32644022 -0.062871926 -0.16343439
0.34337783 -0.045179632 -0.16769689
0.3630712 -0.045370542 -0.1552996
0.38000044 -0.027648173 -0.15959245
0.39686656 -0.0099918796 -0.1638692
0.39681917 0.0076294141 -0.16412544
0.37995487 0.025316574 -0.15984964
0.3433347 0.042783421 -0.16796333
0.36302748 0.043069929 -0.15555799
0.32639903 0.060506497 -0.16370189
0.30940002 0.078295693 -0.1594246
0.27302277 0.095578395 -0.16754133
0.29233739 0.096151575 -0.1551314
0.25595278 0.11340313 -0.16327834
0.23881902 0.13129459 -0.15899938
0.20268483 0.14839269 -0.16711897
0.18548048 0.1663194 -0.16285449
0.16821182 0.18431294 -0.15857399
0.1323209 0.20122665 -0.16669667
0.11498206 0.21925513 -0.16243041
0.097578414 0.23735102 -0.15814835
0.061931372 0.25408146 -0.16626298
0.044457547 0.27221069 -0.16200644
-0.061561093 -0.27600199 -0.14949089
0.062587351 -0.27603322 -0.14921993
-0.061561093 -0.25826794 -0.14949083
0.080124125 -0.25783205 -0.15353543
0.098503344 -0.25918478 -0.14098388
-0.061561093 -0.24053398 -0.14949083
0.11603517 -0.24095044 -0.14533001
-0.061561093 -0.22279994 -0.14949089
0.13350122 -0.2227843 -0.14966017
-0.061561093 -0.20506598 -0.14949089
0.15090097 -0.20468543 -0.1539852
0.16966377 -0.20574883 -0.14142698
-0.061561093 -0.18733194 -0.14949083
0.18705851 -0.18761824 -0.1457718
-0.061561093 -0.16959791 -0.14949083
0.20438685 -0.16955496 -0.15011138
-0.061561093 -0.15186395 -0.14949089
0.22165136 -0.15156025 -0.15442348
0.24079691 -0.15233326 -0.14187026
-0.061561093 -0.13412991 -0.14949083
0.25805324 -0.13430591 -0.14622462
-0.061561093 -0.11639595 -0.14949083
0.27524617 -0.11634702 -0.15055114
-0.061561093 -0.098661907 -0.14949083
0.29237476 -0.098455235 -0.15486175
0.31190109 -0.098937832 -0.14232451
-0.061561093 -0.080927953 -0.14949083
0.32902187 -0.081014946 -0.14666593
-0.061561093 -0.063193932 -0.14949083
0.34607849 -0.063159354 -0.15099096
-0.061561093 -0.04545996 -0.14949083
0.38297939 -0.045563452 -0.14276737
-0.061561093 -0.027725939 -0.14949083
0.39996338 -0.027744316 -0.14710706
-0.061561093 -0.0099919634 -0.14949083
0.41688371 -0.0099919634 -0.15143043
-0.061561093 0.0077420557 -0.14949083
0.41683382 0.007725141 -0.15168953
-0.061561093 0.025476031 -0.14949083
0.39991537 0.025508776 -0.14736706
-0.061561093 0.043210052 -0.14949083
0.38293317 0.043359321 -0.1430285
-0.061561093 0.060944114 -0.14949083
0.34603474 0.060889568 -0.15126145
-0.061561093 0.078678094 -0.14949083
0.32898009 0.078776322 -0.14693731
-0.061561093 0.096412107 -0.14949083
0.31186125 0.096730486 -0.14259708
-0.061561093 0.11414608 -0.14949083
0.27521077 0.11407442 -0.15082186
-0.061561093 0.1318801 -0.14949083
0.2580184 0.13206378 -0.14650738
-0.061561093 0.14961408 -0.14949083
0.22162108 0.14925285 -0.15470439
0.24076281 0.15012157 -0.14216554
-0.061561093 0.16734809 -0.14949083
0.20435864 0.16727863 -0.15039337
-0.061561093 0.18508206 -0.14949083
0.18703029 0.18537118 -0.14607733
-0.061561093 0.20281608 -0.14949083
0.15087849 0.20237394 -0.15427738
0.1696378 0.20353265 -0.14173394
-0.061561093 0.2205501 -0.14949077
0.13348012 0.2205027 -0.14996469
-0.061561093 0.23828408 -0.14949077
0.11601634 0.23869963 -0.1456359
-0.061561093 0.25601807 -0.14949077
0.080109581 0.25551471 -0.15385038
0.0984862 0.25696376 -0.14130211
-0.061561093 0.273752 -0.14949083
0.062575191 0.27374658 -0.14953601
0.080905363 -0.27748799 -0.13662106
0.1170843 -0.26055238 -0.12829435
0.13467705 -0.24221547 -0.13268846
0.1522034 -0.22394778 -0.13706595
0.18863159 -0.20682292 -0.12874252
0.20608576 -0.18859102 -0.13313502
0.22347409 -0.17042801 -0.13751084
0.2601513 -0.15311418 -0.12919056
0.27746695 -0.13498726 -0.1335814
0.29471576 -0.11692818 -0.13796705
0.33164167 -0.099425688 -0.12964988
0.3488189 -0.08140374 -0.13403898
0.36593133 -0.063449748 -0.13841146
0.40310806 -0.045758665 -0.13008618
0.42014706 -0.027841546 -0.1344735
0.43712187 -0.0099920053 -0.13884431
0.43706715 0.0078218682 -0.1391176
0.42009428 0.025703065 -0.1347478
0.40305713 0.043651842 -0.1303615
0.36588696 0.061277185 -0.1386736
0.34877637 0.079262681 -0.13430196
0.33160099 0.097316325 -0.12991399
0.29467785 0.11475231 -0.1382404
0.27742955 0.13284226 -0.13386732
0.26011592 0.15100063 -0.12947762
0.22344212 0.16824751 -0.13780737
0.20605597 0.1864419 -0.13343263
0.18860401 0.20470512 -0.12904119
0.1521797 0.22176272 -0.13737398
0.13465562 0.24006161 -0.13299769
0.11706518 0.2584298 -0.12860465
0.080890611 0.27529791 -0.13694048
-0.079978824 -0.27942061 -0.11988455
0.099424802 -0.27895883 -0.12388361
-0.079978824 -0.26145869 -0.11988455
0.13587034 -0.26193506 -0.11546493
-0.079978824 -0.24349684 -0.11988443
0.15352426 -0.24349453 -0.11990768
-0.079978824 -0.22553489 -0.11988443
0.17111123 -0.22512396 -0.12433344
-0.079978824 -0.20757295 -0.11988461
0.20780873 -0.20790887 -0.11591798
-0.079978824 -0.189611 -0.11988455
0.22532256 -0.18957454 -0.12035906
-0.079978824 -0.1716492 -0.11988443
0.24276994 -0.17130975 -0.12478322
-0.079978824 -0.15368725 -0.11988443
0.2797192 -0.15390359 -0.11637115
-0.079978824 -0.13572532 -0.11988461
0.29709303 -0.13567545 -0.12081039
-0.079978824 -0.11776338 -0.11988455
0.314401 -0.11751636 -0.1252327
-0.079978824 -0.099801488 -0.11988455
0.35160184 -0.099919267 -0.11682391
-0.079978824 -0.081839561 -0.11988443
0.36883581 -0.081797212 -0.12126142
-0.079978824 -0.063877672 -0.11988461
0.38600439 -0.06374377 -0.12568212
-0.079978824 -0.045915741 -0.11988455
0.42345661 -0.045955963 -0.11727655
-0.079978824 -0.027953852 -0.11988455
0.44055077 -0.027939737 -0.12171245
-0.079978824 -0.0099919215 -0.11988443
0.45758015 -0.0099919215 -0.12613142
0.47826448 -0.0099919215 -0.11327803
-0.079978824 0.0079699261 -0.11988443
0.4575251 0.0079198917 -0.1263963
0.47820672 0.0080188336 -0.11354578
-0.079978824 0.025931939 -0.11988455
0.44049758 0.025899615 -0.12197822
-0.079978824 0.043893747 -0.11988455
0.42340529 0.043947957 -0.1175434
-0.079978824 0.061855715 -0.11988443
0.38595545 0.061668653 -0.12595862
0.40624565 0.062064458 -0.11310327
-0.079978824 0.079817571 -0.11988443
0.36878881 0.07975392 -0.12153882
-0.079978824 0.097779587 -0.11988455
0.35155681 0.097908013 -0.11710238
-0.079978824 0.11574142 -0.11988455
0.31435886 0.11543775 -0.12552088
-0.079978824 0.1337034 -0.11988443
0.29705298 0.13362855 -0.12109965
-0.079978824 0.1516652 -0.11988443
0.27968124 0.15188852 -0.11666137
-0.079978824 0.16962722 -0.11988455
0.24273534 0.16922697 -0.12508285
-0.079978824 0.18758906 -0.11988455
0.22529013 0.18752345 -0.12065995
-0.079978824 0.205551 -0.11988443
0.20777848 0.20588951 -0.11622012
-0.079978824 0.22351296 -0.11988443
0.17108485 0.22303642 -0.12464482
-0.079978824 0.24147481 -0.11988461
0.15350021 0.24143869 -0.12022012
-0.079978824 0.25943673 -0.11988455
0.1358486 0.25991088 -0.11577874
-0.079978824 0.27739865 -0.11988443
0.099408023 0.27686766 -0.1241951
0.11814903 -0.28044593 -0.11100519
0.15486485 -0.26333299 -0.10249311
0.17258026 -0.24478769 -0.10698509
0.19022807 -0.22631311 -0.11146015
0.22719862 -0.20900682 -0.10295135
0.24477239 -0.19056895 -0.1074416
0.26227912 -0.17220135 -0.11191481
0.28200513 -0.1731028 -0.098903477
0.29950419 -0.15470187 -0.10340929
0.31693643 -0.13637128 -0.107898
0.33430216 -0.11811049 -0.11236948
0.35442454 -0.11871128 -0.099363148
0.37178162 -0.10041799 -0.10386729
0.38907242 -0.082194686 -0.10835403
0.40629727 -0.064040765 -0.11282378
0.42681566 -0.064340971 -0.099822581
0.44403088 -0.046155348 -0.10432476
0.46118033 -0.028039053 -0.10881001
0.49918112 -0.0099919634 -0.10027003
0.49911806 0.0081187775 -0.10055256
0.46112445 0.026098248 -0.10907882
0.44397688 0.044246994 -0.10459471
0.42676353 0.062465113 -0.10009336
0.38902271 0.080250546 -0.10863459
0.3717339 0.098506384 -0.10414886
0.33425912 0.11613136 -0.11264902
0.35437879 0.11683204 -0.099645913
0.31689537 0.13442427 -0.10817862
0.29946354 0.15278639 -0.1037029
0.26224321 0.17021823 -0.11220628
0.28196654 0.1712196 -0.099198163
0.24473859 0.18861794 -0.1077342
0.22716571 0.207087 -0.10325664
0.19020006 0.22432567 -0.1117633
0.17255446 0.24283221 -0.10728943
0.15484041 0.26140839 -0.10281038
0.11812965 0.27845338 -0.1113202
-0.098876484 -0.28292972 -0.089495301
0.13708228 -0.2819508 -0.097972095
-0.098876484 -0.26473379 -0.089495361
0.17407231 -0.26474792 -0.089364648
-0.098876484 -0.24653797 -0.089495301
0.19184847 -0.24609531 -0.09391892
-0.098876484 -0.22834209 -0.089495361
0.20955746 -0.22751553 -0.098443806
0.22910418 -0.22873247 -0.085269928
-0.098876484 -0.21014623 -0.089495361
0.24680488 -0.21011712 -0.089839876
-0.098876484 -0.1919504 -0.08949548
0.26443878 -0.19157438 -0.094380379
-0.098876484 -0.1737546 -0.089495361
0.30195162 -0.1740143 -0.085746706
-0.098876484 -0.15555875 -0.089495301
0.31950989 -0.15550905 -0.090303063
-0.098876484 -0.13736287 -0.089495361
0.33700073 -0.13707475 -0.094841897
-0.098876484 -0.11916702 -0.089495301
0.37477171 -0.11931872 -0.086211562
-0.098876484 -0.10097108 -0.089495361
0.39218643 -0.10092234 -0.090765953
-0.098876484 -0.082775392 -0.089495361
0.40953428 -0.082596511 -0.09530288
-0.098876484 -0.064579532 -0.089495301
0.44756562 -0.064644814 -0.0866642
-0.098876484 -0.046383638 -0.08949548
0.46483701 -0.046357159 -0.091216862
-0.098876484 -0.028187819 -0.089495301
0.48204204 -0.028139584 -0.095752239
0.520329 -0.0099920053 -0.08712858
-0.098876484 -0.0099918796 -0.089495361
-0.098876484 0.0082038948 -0.089495301
0.52026576 0.0082200998 -0.087402463
-0.098876484 0.026399836 -0.08949548
0.48198095 0.026299056 -0.096035898
-0.098876484 0.044595566 -0.089495361
0.46477783 0.044549249 -0.091501713
-0.098876484 0.062791385 -0.089495301
0.44750839 0.062869824 -0.086949944
-0.098876484 0.080987327 -0.089495361
0.40948406 0.080753319 -0.095574975
-0.098876484 0.099183142 -0.089495301
0.39213809 0.099111892 -0.091038942
-0.098876484 0.11737905 -0.089495361
0.37472329 0.11754059 -0.086497426
-0.098876484 0.13557485 -0.089495301
0.33695704 0.13522811 -0.095125735
-0.098876484 0.15377074 -0.089495361
0.31946823 0.15369503 -0.090588033
-0.098876484 0.17196652 -0.089495361
0.30191198 0.1722331 -0.086032808
-0.098876484 0.19016235 -0.089495301
0.26440236 0.18972376 -0.094676197
-0.098876484 0.20835824 -0.089495361
0.24677058 0.20829898 -0.090136647
-0.098876484 0.22655405 -0.089495301
0.20952678 0.22562791 -0.098750353
0.22907077 0.22694589 -0.085579872
-0.098876484 0.24474999 -0.089495361
0.19182006 0.24424013 -0.094226599
-0.098876484 0.2629458 -0.089495301
0.17404515 0.26292384 -0.08968544
-0.098876484 0.28114164 -0.089495301
0.13705939 0.28005692 -0.098302126
0.15620171 0.28167969 -0.085126817
0.19349444 -0.26617745 -0.076100707
0.21133372 -0.24741873 -0.080694139
0.24886946 -0.22996193 -0.071959972
0.26663256 -0.21124083 -0.076569319
0.28432703 -0.19259195 -0.081160963
0.32212403 -0.17493689 -0.072430074
0.33974004 -0.15632512 -0.077049732
0.3572897 -0.13778625 -0.081639469
0.39534968 -0.11993354 -0.072900116
0.41282237 -0.10143267 -0.077505767
0.43022755 -0.08300326 -0.082093835
0.46854642 -0.064951874 -0.07336992
0.48587409 -0.046560973 -0.077973962
0.50313479 -0.028241154 -0.082560122
0.54171431 -0.0099919634 -0.073839486
0.54164827 0.0083222995 -0.074116349
0.50307345 0.026502285 -0.082834899
0.48581198 0.044855013 -0.078261733
0.46848637 0.063279077 -0.073658943
0.43017232 0.081261143 -0.082380772
0.41276911 0.099723667 -0.077793956
0.39529848 0.11825765 -0.073189199
0.3572433 0.13604096 -0.081926465
0.33969563 0.15461303 -0.077337801
0.32207996 0.17325707 -0.072731256
0.28428632 0.19084178 -0.08147186
0.26659411 0.20952344 -0.076881588
0.24883328 0.22827765 -0.072273374
0.21130139 0.24566361 -0.081017315
0.19346447 0.26445508 -0.076425135
-0.11827287 -0.26809534 -0.05830425
0.21313575 -0.26762292 -0.062687159
-0.11827287 -0.24965939 -0.058304191
0.23103733 -0.2487559 -0.067332566
-0.11827287 -0.23122346 -0.05830425
0.26885819 -0.23120545 -0.058499396
-0.11827287 -0.21278748 -0.05830425
0.28668261 -0.21237628 -0.063160956
-0.11827287 -0.19435155 -0.058304191
0.30443773 -0.19362016 -0.067804575
-0.11827287 -0.17591557 -0.05830425
0.3425228 -0.17586917 -0.058974862
-0.11827287 -0.15747961 -0.058304191
0.36020032 -0.15715136 -0.063634634
-0.11827287 -0.13904369 -0.05830425
0.37780911 -0.13850626 -0.068276465
-0.11827287 -0.12060771 -0.058304191
0.41615814 -0.12055475 -0.05945015
-0.11827287 -0.10217179 -0.058304191
0.43368891 -0.10194834 -0.064108133
-0.11827287 -0.083735861 -0.05830425
0.45115149 -0.08341419 -0.068748057
-0.11827287 -0.065299816 -0.058304071
0.4897643 -0.06526231 -0.059925318
-0.11827287 -0.046863854 -0.058304191
0.50714839 -0.046767209 -0.064581394
-0.11827287 -0.028427888 -0.058304071
0.52446491 -0.028343856 -0.06921947
-0.11827287 -0.0099919634 -0.058304191
-0.11827287 0.0084440438 -0.058304369
-0.11827287 0.026880048 -0.05830425
0.52440071 0.026707601 -0.069497287
-0.11827287 0.045315973 -0.05830425
0.5070861 0.045164574 -0.064860463
-0.11827287 0.063751943 -0.05830425
0.48970392 0.063693345 -0.0602054
-0.11827287 0.082187869 -0.05830425
0.45109344 0.081774645 -0.069038153
-0.11827287 0.10062383 -0.05830425
0.43363282 0.10034233 -0.064399481
-0.11827287 0.11905979 -0.05830425
0.41610414 0.11898228 -0.05974263
-0.11827287 0.13749571 -0.05830425
0.37775996 0.13686381 -0.06856662
-0.11827287 0.15593164 -0.05830425
0.36015123 0.15554138 -0.0639382
-0.11827287 0.17436764 -0.05830425
0.34247589 0.1742925 -0.059279621
-0.11827287 0.19280365 -0.05830425
0.30439582 0.19197348 -0.068107069
-0.11827287 0.21123953 -0.05830425
0.28664288 0.21076283 -0.063464701
-0.11827287 0.22967555 -0.05830425
0.26881915 0.22962429 -0.058816493
-0.11827287 0.24811143 -0.05830425
0.23100342 0.24710456 -0.067647278
-0.11827287 0.26654747 -0.05830425
0.21310413 0.26600477 -0.063003004
0.233 -0.26908499 -0.049121261
0.25096413 -0.25010818 -0.053819537
0.28907421 -0.23246299 -0.044885755
0.30696017 -0.21352443 -0.049600601
0.3247762 -0.19466008 -0.054296792
0.36315349 -0.17681195 -0.045366764
0.38089088 -0.15798604 -0.050079703
0.39855894 -0.13923389 -0.054774046
0.43720314 -0.12118299 -0.045847535
0.45479211 -0.10246986 -0.050558448
0.47231233 -0.083829835 -0.055251062
0.51122606 -0.065576717 -0.04631567
0.52866679 -0.046975907 -0.051024795
0.52859879 0.045477271 -0.051319242
0.51116002 0.064111918 -0.046611309
0.47225392 0.082294576 -0.055532217
0.45473561 0.1009686 -0.050840855
0.43714622 0.11971513 -0.046143293
0.398507 0.13769507 -0.055067718
0.38084099 0.15648106 -0.050374389
0.36310565 0.17534082 -0.045662642
0.32473147 0.19311705 -0.054602802
0.30691761 0.2120152 -0.049907684
0.28903386 0.2309875 -0.045194149
0.25092736 0.24856043 -0.054137766
0.23296557 0.26757088 -0.049440742
0.25309095 -0.27056366 -0.035400629
0.27111793 -0.25147593 -0.040152431
0.30952138 -0.23373486 -0.031116605
0.32746914 -0.21468587 -0.035885453
0.34534636 -0.19571166 -0.040635228
0.38401997 -0.17776541 -0.031603098
0.4018175 -0.15883051 -0.03636992
0.41954508 -0.13996971 -0.041118026
0.45848867 -0.12181848 -0.032089233
0.47613862 -0.10299777 -0.036841869
0.49371681 -0.084250532 -0.041588068
0.49365279 0.082819857 -0.04188478
0.47607669 0.1016013 -0.037139773
0.45843133 0.12045688 -0.032375932
0.41949022 0.13853587 -0.041414976
0.40176472 0.15743077 -0.036667943
0.38396931 0.17640014 -0.031902313
0.34529871 0.19427362 -0.040944815
0.32742369 0.21328184 -0.036195874
0.30947816 0.232365 -0.031428456
0.27107981 0.25003433 -0.040462017
0.25305364 0.26915488 -0.035723805
-0.13818744 -0.27154544 -0.02629149
0.27341411 -0.27206078 -0.021509886
-0.13818744 -0.25286308 -0.02629149
0.29150265 -0.25285929 -0.026328921
0.33020371 -0.23502155 -0.017189026
-0.13818744 -0.23418064 -0.02629149
-0.13818744 -0.21549822 -0.02629149
0.34821349 -0.21586056 -0.02201283
-0.13818744 -0.19681586 -0.02629149
0.36615214 -0.19677547 -0.026817322
0.40512642 -0.17873009 -0.017681122
-0.13818744 -0.1781335 -0.02629137
-0.13818744 -0.15945105 -0.02629149
0.4229843 -0.15968443 -0.022502899
-0.13818744 -0.14076875 -0.02629137
0.44077155 -0.14071403 -0.027305484
0.48002151 -0.12246179 -0.018160343
-0.13818744 -0.12208628 -0.02629137
-0.13818744 -0.10340381 -0.02629149
0.4977276 -0.10353141 -0.022980094
-0.13818744 -0.084721565 -0.02629149
0.51536381 -0.084675707 -0.02778101
-0.13818744 -0.0660391 -0.02629149
-0.13818744 -0.047356766 -0.02629137
-0.13818744 -0.028674342 -0.02629149
-0.13818744 -0.0099919634 -0.02629137
-0.13818744 0.0086904587 -0.02629149
-0.13818744 0.027372837 -0.026291251
-0.13818744 0.046055216 -0.02629149
-0.13818744 0.064737685 -0.02629149
-0.13818744 0.083420061 -0.02629137
0.51529676 0.083351105 -0.028081298
-0.13818744 0.10210244 -0.02629149
0.49766263 0.10224152 -0.023281693
-0.13818744 0.12078478 -0.02629137
0.47995862 0.12120669 -0.018462896
-0.13818744 0.13946715 -0.02629149
0.44071618 0.13938704 -0.027593374
-0.13818744 0.15814961 -0.026291251
0.42292857 0.1583911 -0.022804379
-0.13818744 0.17683199 -0.02629149
0.40507284 0.1774715 -0.017983794
-0.13818744 0.19551429 -0.02629137
0.36610356 0.19544429 -0.027117848
-0.13818744 0.2141968 -0.02629149
0.34816706 0.21456411 -0.022314191
-0.13818744 0.23287918 -0.02629149
0.33015758 0.23375858 -0.017504454
-0.13818744 0.25156152 -0.02629149
0.29146168 0.2515237 -0.026642084
-0.13818744 0.27024403 -0.02629149
0.27337384 0.27075845 -0.021836758
0.2939705 -0.2735737 -0.007471323
0.31212404 -0.25425988 -0.012333393
0.35112721 -0.23632418 -0.0030875206
0.3691994 -0.21704993 -0.0079672337
0.38719976 -0.19785227 -0.012827516
0.42647931 -0.17970657 -0.0035854578
0.44439778 -0.16054904 -0.0084631443
0.46224505 -0.1414676 -0.0133214
0.50180084 -0.12311208 -0.0040829182
0.50173485 0.12196506 -0.0043889284
0.46218425 0.14024715 -0.013625145
0.4443391 0.15936369 -0.0087679625
0.42642272 0.17855626 -0.0038915873
0.38714612 0.19662762 -0.013144016
0.36914802 0.2158601 -0.0082851648
0.35107809 0.23516932 -0.0034068823
0.31207839 0.25303036 -0.012662768
0.29392722 0.27237883 -0.0078018904
-0.15864231 -0.27509049 0.0066016912
0.3147656 -0.27510422 0.0067303181
-0.15864231 -0.25615475 0.0066016912
0.33298278 -0.25567544 0.0018115044
-0.15864231 -0.23721918 0.0066016912
0.37229231 -0.23764077 0.011165142
-0.15864231 -0.21828356 0.006601572
0.39042699 -0.21825194 0.0062285662
-0.15864231 -0.19934796 0.006601572
0.4084892 -0.19894075 0.001311779
-0.15864231 -0.18041243 0.0066018105
0.44807833 -0.18069369 0.010661602
-0.15864231 -0.16147682 0.006601572
0.46605754 -0.16142291 0.0057270527
-0.15864231 -0.14254114 0.0066016912
0.48396489 -0.14222915 0.0008122921
-0.15864231 -0.12360553 0.006601572
-0.15864231 -0.10466997 0.0066016912
-0.15864231 -0.085734367 0.0066018105
-0.15864231 -0.066798724 0.006601572
-0.15864231 -0.047863167 0.006601572
-0.15864231 -0.028927483 0.006601572
-0.15864231 -0.0099919215 0.0066016912
-0.15864231 0.0089435959 0.0066016912
-0.15864231 0.027879324 0.0066016912
-0.15864231 0.046814881 0.0066018105
-0.15864231 0.065750405 0.0066018105
-0.15864231 0.084686086 0.0066016912
-0.15864231 0.10362165 0.0066016912
-0.15864231 0.12255729 0.006601572
-0.15864231 0.14149293 0.0066018105
0.48390105 0.14111738 0.00050508976
-0.15864231 0.16042852 0.0066018105
0.46599579 0.16034658 0.005418539
-0.15864231 0.17936409 0.006601572
0.4480187 0.17965265 0.010351777
-0.15864231 0.19829974 0.0066018105
0.40843478 0.19782579 0.0010043383
-0.15864231 0.21723525 0.006601572
0.39037257 0.21717118 0.0059070587
-0.15864231 0.23617089 0.0066016912
0.37224013 0.23659527 0.010842204
-0.15864231 0.25510651 0.0066018105
0.3329359 0.25455573 0.001491189
-0.15864231 0.27404207 0.006601572
0.31471926 0.27401838 0.006395936
0.33580363 -0.27665269 0.021097898
0.35408464 -0.25710744 0.016121507
0.39370504 -0.23897275 0.025584698
0.41190255 -0.21946813 0.020590186
0.4300268 -0.20004188 0.015615821
0.46993005 -0.18169227 0.025075197
0.4879702 -0.16230702 0.020082831
0.48790529 0.1613408 0.019770622
0.46986729 0.1807621 0.024761677
0.42996934 0.19903667 0.015304923
0.41184723 0.21849874 0.020277858
0.39365196 0.23803918 0.025271058
0.35403472 0.2560975 0.015797257
0.335756 0.27567846 0.020772338
-0.17965846 -0.27873129 0.040385365
0.35708886 -0.27821934 0.03563416
-0.17965846 -0.25953567 0.040385365
0.37543398 -0.25855631 0.030599117
-0.17965846 -0.24034001 0.040385365
0.41536987 -0.24032043 0.040174007
-0.17965846 -0.22114435 0.040385485
0.43363032 -0.22069854 0.035120726
-0.17965846 -0.20194867 0.040385485
0.45181689 -0.20115587 0.03008759
-0.17965846 -0.18275294 0.040385485
-0.17965846 -0.16355735 0.040385365
-0.17965846 -0.1443616 0.040385365
-0.17965846 -0.125166 0.040385604
-0.17965846 -0.10597029 0.040385365
-0.17965846 -0.086774655 0.040385365
-0.17965846 -0.067578979 0.040385365
-0.17965846 -0.048383269 0.040385365
-0.17965846 -0.029187594 0.040385365
-0.17965846 -0.0099919215 0.040385485
-0.17965846 0.0092036678 0.040385365
-0.17965846 0.028399382 0.040385485
-0.17965846 0.047595099 0.040385365
-0.17965846 0.066790812 0.040385365
-0.17965846 0.085986406 0.040385604
-0.17965846 0.10518212 0.040385365
-0.17965846 0.12437784 0.040385485
-0.17965846 0.14357333 0.040385365
-0.17965846 0.16276909 0.040385365
-0.17965846 0.18196468 0.040385485
-0.17965846 0.2011604 0.040385485
0.45175633 0.20026182 0.029773116
-0.17965846 0.22035606 0.040385365
0.43357196 0.21984056 0.034804583
-0.17965846 0.23955183 0.040385365
0.41531369 0.23949882 0.039856672
-0.17965846 0.25874749 0.040385365
0.37538096 0.25765744 0.030271411
-0.17965846 0.27794322 0.040385365
0.35703814 0.27735656 0.035304904
0.37862775 -0.27980587 0.050355792
0.39703515 -0.26002228 0.045247793
0.43729374 -0.2416853 0.054949284
0.45561743 -0.22194459 0.04983592
0.47386658 -0.20228416 0.044743419
0.47380289 0.20150249 0.044424891
0.45555332 0.22119842 0.04950285
0.43723193 0.2409758 0.054614782
0.39698118 0.25923702 0.044929266
0.37857392 0.27905592 0.050022483
0.40042076 -0.28140989 0.065238953
0.41889498 -0.26150697 0.060083508
0.41883552 0.26083413 0.059747696
0.40036365 0.28077409 0.06490171
-0.20126085 -0.2824752 0.075123787
-0.20126085 -0.26301205 0.075123668
0.44101346 -0.263008 0.075083017
-0.20126085 -0.243549 0.075123787
0.45947632 -0.24306528 0.069887161
-0.20126085 -0.22408585 0.075123668
-0.20126085 -0.20462279 0.075123787
-0.20126085 -0.18515974 0.075123787
-0.20126085 -0.16569661 0.075123668
-0.20126085 -0.14623354 0.075123787
-0.20126085 -0.1267705 0.075123787
-0.20126085 -0.1073074 0.075123668
-0.20126085 -0.08784426 0.075123787
-0.20126085 -0.068381205 0.075123787
-0.20126085 -0.048918072 0.075123668
-0.20126085 -0.029455017 0.075123787
-0.20126085 -0.0099919634 0.075123787
-0.20126085 0.0094711324 0.075123787
-0.20126085 0.028934184 0.075123787
-0.20126085 0.048397321 0.075123668
-0.20126085 0.067860417 0.075123787
-0.20126085 0.087323554 0.075123787
-0.20126085 0.10678661 0.075123668
-0.20126085 0.1262497 0.075123787
-0.20126085 0.1457127 0.075123787
-0.20126085 0.16517588 0.075123668
-0.20126085 0.18463886 0.075123668
-0.20126085 0.20410199 0.075123787
-0.20126085 0.22356504 0.075123668
-0.20126085 0.24302819 0.075123787
0.4594138 0.24247164 0.069562435
-0.20126085 0.2624912 0.075123668
0.4409532 0.26245168 0.074756742
-0.20126085 0.28195435 0.075123787
0.42241398 0.28251269 0.079958916
-0.22347367 -0.26658666 0.11084354
-0.22347367 -0.2468486 0.11084342
-0.22347367 -0.22711064 0.11084354
-0.22347367 -0.20737249 0.11084354
-0.22347367 -0.18763445 0.11084354
-0.22347367 -0.16789646 0.11084354
-0.22347367 -0.14815834 0.11084354
-0.22347367 -0.12842026 0.11084354
-0.22347367 -0.10868226 0.11084354
-0.22347367 -0.088944145 0.11084366
-0.22347367 -0.069206066 0.11084342
-0.22347367 -0.049468119 0.11084366
-0.22347367 -0.029729955 0.11084354
-0.22347367 -0.0099919215 0.11084354
-0.22347367 0.0097460719 0.11084354
-0.22347367 0.029484104 0.11084354
-0.22347367 0.049222268 0.11084354
-0.22347367 0.068960264 0.11084366
-0.22347367 0.08869838 0.11084366
-0.22347367 0.10843638 0.11084342
-0.22347367 0.12817441 0.11084366
-0.22347367 0.14791253 0.11084354
-0.22347367 0.16765052 0.11084354
-0.22347367 0.18738867 0.11084354
-0.22347367 0.20712675 0.11084366
-0.22347367 0.22686471 0.11084354
-0.22347367 0.24660283 0.11084342
-0.22347367 0.26634091 0.11084366
-0.24632189 -0.2702623 0.14757264
-0.24632189 -0.25024155 0.14757264
-0.24632189 -0.23022081 0.14757276
-0.24632189 -0.21019994 0.14757276
-0.24632189 -0.19017911 0.14757276
-0.24632189 -0.17015833 0.14757276
-0.24632189 -0.15013759 0.14757276
-0.24632189 -0.13011667 0.14757264
-0.24632189 -0.11009597 0.14757276
-0.24632189 -0.090075098 0.14757264
-0.24632189 -0.070054315 0.14757276
-0.24632189 -0.050033618 0.14757276
-0.24632189 -0.030012708 0.14757276
-0.24632189 -0.0099919634 0.14757276
-0.24632189 0.010028864 0.14757276
-0.24632189 0.030049648 0.14757276
-0.24632189 0.05007039 0.14757264
-0.24632189 0.070091262 0.14757276
-0.24632189 0.09011209 0.14757264
-0.24632189 0.11013275 0.14757276
-0.24632189 0.1301537 0.14757276
-0.24632189 0.15017444 0.14757276
-0.24632189 0.17019518 0.14757276
-0.24632189 0.19021609 0.14757276
-0.24632189 0.21023679 0.14757276
-0.24632189 0.23025757 0.14757264
-0.24632189 0.25027844 0.14757276
-0.24632189 0.27029929 0.14757276
-0.26983556 -0.2740463 0.18538427
-0.26983556 -0.25373444 0.18538439
-0.26983556 -0.23342253 0.18538427
-0.26983556 -0.21311072 0.18538439
-0.26983556 -0.19279879 0.18538427
-0.26983556 -0.17248695 0.18538439
-0.26983556 -0.15217502 0.18538427
-0.26983556 -0.13186325 0.18538427
-0.26983556 -0.11155131 0.18538427
-0.26983556 -0.091239467 0.18538427
-0.26983556 -0.070927627 0.18538427
-0.26983556 -0.050615698 0.18538427
-0.26983556 -0.030303851 0.18538427
-0.26983556 -0.0099919215 0.18538427
-0.26983556 0.010319925 0.18538427
-0.26983556 0.030631769 0.18538415
-0.26983556 0.050943699 0.18538427
-0.26983556 0.07125555 0.18538415
-0.26983556 0.091567479 0.18538427
-0.26983556 0.11187924 0.18538439
-0.26983556 0.13219126 0.18538427
-0.26983556 0.15250301 0.18538439
-0.26983556 0.17281486 0.18538427
-0.26983556 0.19312678 0.18538439
-0.26983556 0.21343859 0.18538427
-0.26983556 0.23375052 0.18538439
-0.26983556 0.25406235 0.18538427
-0.26983556 0.27437431 0.18538439
-0.29404151 -0.27794036 0.22429621
-0.29404151 -0.25732896 0.22429621
-0.29404151 -0.23671751 0.22429621
-0.29404151 -0.21610612 0.22429621
-0.29404151 -0.19549473 0.22429621
-0.29404151 -0.17488332 0.22429633
-0.29404151 -0.15427192 0.22429621
-0.29404151 -0.13366045 0.22429633
-0.29404151 -0.11304905 0.22429633
-0.29404151 -0.092437632 0.22429621
-0.29404151 -0.07182616 0.22429621
-0.29404151 -0.051214777 0.22429621
-0.29404151 -0.030603308 0.22429621
-0.29404151 -0.0099920053 0.22429621
-0.29404151 0.010619423 0.22429621
-0.29404151 0.031230889 0.22429633
-0.29404151 0.051842362 0.22429633
-0.29404151 0.072453663 0.22429633
-0.29404151 0.09306509 0.22429633
-0.29404151 0.11367664 0.22429621
-0.29404151 0.13428794 0.22429621
-0.29404151 0.1548994 0.22429621
-0.29404151 0.17551084 0.22429621
-0.29404151 0.19612218 0.22429621
-0.29404151 0.2167336 0.22429621
-0.29404151 0.23734504 0.22429633
-0.29404151 0.25795653 0.22429633
-0.29404151 0.27856782 0.22429633
-0.31897381 -0.28195262 0.26438892
-0.31897381 -0.26103255 0.26438868
-0.31897381 -0.24011247 0.26438892
-0.31897381 -0.21919248 0.26438892
-0.31897381 -0.19827232 0.2643888
-0.31897381 -0.17735234 0.26438892
-0.31897381 -0.15643232 0.26438892
-0.31897381 -0.13551219 0.2643888
-0.31897381 -0.11459219 0.26438892
-0.31897381 -0.093672208 0.26438892
-0.31897381 -0.072752051 0.2643888
-0.31897381 -0.051832065 0.26438892
-0.31897381 -0.030911993 0.26438892
-0.31897381 -0.0099919215 0.26438892
-0.31897381 0.010928067 0.26438892
-0.31897381 0.031848054 0.26438892
-0.31897381 0.05276813 0.26438892
-0.31897381 0.073688284 0.26438892
-0.31897381 0.094608359 0.2643888
-0.31897381 0.11552835 0.2643888
-0.31897381 0.13644832 0.26438892
-0.31897381 0.15736839 0.2643888
-0.31897381 0.17828855 0.26438892
-0.31897381 0.19920854 0.26438892
-0.31897381 0.22012861 0.26438892
-0.31897381 0.2410486 0.26438892
-0.31897381 0.26196876 0.26438892
-0.31897381 0.28288883 0.2643888
-0.3446641 -0.2648488 0.30570042
-0.3446641 -0.24361064 0.3057003
-0.3446641 -0.22237256 0.3057003
-0.3446641 -0.20113453 0.3057003
-0.3446641 -0.17989646 0.3057003
-0.3446641 -0.15865843 0.3057003
-0.3446641 -0.13742036 0.3057003
-0.3446641 -0.11618228 0.30570042
-0.3446641 -0.094944246 0.3057003
-0.3446641 -0.07370609 0.3057003
-0.3446641 -0.052468065 0.3057003
-0.3446641 -0.031230077 0.3057003
-0.3446641 -0.0099919215 0.3057003
-0.3446641 0.011246067 0.3057003
-0.3446641 0.032484178 0.30570042
-0.3446641 0.053722169 0.3057003
-0.3446641 0.074960284 0.30570042
-0.3446641 0.096198484 0.3057003
-0.3446641 0.11743648 0.3057003
-0.3446641 0.13867462 0.30570042
-0.3446641 0.15991256 0.3057003
-0.3446641 0.18115067 0.30570042
-0.3446641 0.2023887 0.3057003
-0.3446641 0.22362682 0.30570042
-0.3446641 0.24486485 0.3057003
-0.3446641 0.26610306 0.3057003
-0.37114543 -0.26878127 0.34827054
-0.37114543 -0.24721542 0.34827042
-0.37114543 -0.22564963 0.34827042
-0.37114543 -0.2040839 0.34827065
-0.37114543 -0.18251809 0.34827054
-0.37114543 -0.16095242 0.34827054
-0.37114543 -0.13938653 0.34827042
-0.37114543 -0.11782081 0.34827042
-0.37114543 -0.096255086 0.34827065
-0.37114543 -0.074689239 0.34827042
-0.37114543 -0.053123485 0.34827054
-0.37114543 -0.031557683 0.34827042
-0.37114543 -0.0099919634 0.34827042
-0.37114543 0.011573755 0.34827065
-0.37114543 0.033139516 0.34827042
-0.37114543 0.0547054 0.34827065
-0.37114543 0.076271206 0.34827042
-0.37114543 0.097836927 0.34827054
-0.37114543 0.11940264 0.34827065
-0.37114543 0.14096849 0.34827042
-0.37114543 0.16253412 0.34827054
-0.37114543 0.18409993 0.34827042
-0.37114543 0.20566581 0.34827054
-0.37114543 0.22723153 0.34827065
-0.37114543 0.24879733 0.34827042
-0.37114543 0.27036306 0.34827065
-0.39845908 -0.27283862 0.39219213
-0.39845908 -0.25093457 0.39219213
-0.39845908 -0.2290308 0.39219213
-0.39845908 -0.20712683 0.39219213
-0.39845908 -0.18522301 0.39219213
-0.39845908 -0.16331913 0.39219236
-0.39845908 -0.14141524 0.39219213
-0.39845908 -0.11951137 0.39219213
-0.39845908 -0.097607404 0.39219213
-0.39845908 -0.075703673 0.39219213
-0.39845908 -0.053799789 0.39219213
-0.39845908 -0.031895813 0.39219213
-0.39845908 -0.0099919215 0.39219236
-0.39845908 0.011911887 0.39219213
-0.39845908 0.033815775 0.39219213
-0.39845908 0.055719752 0.39219213
-0.39845908 0.07762365 0.39219213
-0.39845908 0.099527374 0.39219213
-0.39845908 0.1214313 0.39219213
-0.39845908 0.14333522 0.39219213
-0.39845908 0.16523913 0.39219213
-0.39845908 0.18714289 0.39219213
-0.39845908 0.20904683 0.39219213
-0.39845908 0.23095071 0.39219213
-0.39845908 0.25285465 0.39219236
-0.39845908 0.27475849 0.39219213
-0.42664036 -0.27702349 0.43749535
-0.42664036 -0.25477085 0.43749535
-0.42664036 -0.23251818 0.43749535
-0.42664036 -0.21026556 0.43749535
-0.42664036 -0.18801293 0.43749535
-0.42664036 -0.16576035 0.43749535
-0.42664036 -0.14350779 0.43749535
-0.42664036 -0.12125507 0.43749535
-0.42664036 -0.099002481 0.43749535
-0.42664036 -0.076749809 0.43749535
-0.42664036 -0.054497223 0.43749535
-0.42664036 -0.032244552 0.43749535
-0.42664036 -0.0099919634 0.43749535
-0.42664036 0.012260751 0.43749535
-0.42664036 0.034513295 0.43749535
-0.42664036 0.05676597 0.43749547
-0.42664036 0.079018474 0.43749535
-0.42664036 0.10127119 0.43749535
-0.42664036 0.12352373 0.43749535
-0.42664036 0.14577641 0.43749535
-0.42664036 0.16802903 0.43749535
-0.42664036 0.1902817 0.43749535
-0.42664036 0.21253425 0.43749535
-0.42664036 0.23478696 0.43749535
-0.42664036 0.25703946 0.43749535
-0.42664036 0.2792922 0.43749535
-0.45573616 -0.25873271 0.48428261
-0.45573616 -0.23611993 0.48428261
-0.45573616 -0.21350707 0.48428261
-0.45573616 -0.19089431 0.48428261
-0.45573616 -0.1682815 0.48428285
-0.45573616 -0.14566867 0.48428261
-0.45573616 -0.12305598 0.48428261
-0.45573616 -0.10044317 0.48428285
-0.45573616 -0.077830479 0.48428261
-0.45573616 -0.055217505 0.48428261
-0.45573616 -0.032604817 0.48428261
-0.45573616 -0.0099919215 0.48428285
-0.45573616 0.01262085 0.48428261
-0.45573616 0.035233662 0.48428285
-0.45573616 0.057846393 0.48428285
-0.45573616 0.080459163 0.48428261
-0.45573616 0.10307206 0.48428285
-0.45573616 0.12568469 0.48428261
-0.45573616 0.14829759 0.48428261
-0.45573616 0.17091037 0.48428261
-0.45573616 0.19352318 0.48428285
-0.45573616 0.21613599 0.48428261
-0.45573616 0.2387488 0.48428285
-0.45573616 0.26136157 0.48428285
-0.45573616 0.28397432 0.48428261
-0.48578939 -0.26282489 0.53260958
-0.48578939 -0.23984008 0.53260958
-0.48578939 -0.21685526 0.53260958
-0.48578939 -0.19387048 0.53260958
-0.48578939 -0.17088559 0.53260958
-0.48578939 -0.14790078 0.53260958
-0.48578939 -0.12491612 0.53260958
-0.48578939 -0.10193122 0.53260958
-0.48578939 -0.078946404 0.53260958
-0.48578939 -0.055961635 0.53260958
-0.48578939 -0.032976821 0.53260958
-0.48578939 -0.0099919634 0.53260958
-0.48578939 0.012992893 0.53260958
-0.48578939 0.035977665 0.53260958
-0.48578939 0.058962565 0.53260934
-0.48578939 0.081947379 0.53260958
-0.48578939 0.10493207 0.53260934
-0.48578939 0.12791687 0.53260958
-0.48578939 0.15090178 0.53260958
-0.48578939 0.1738866 0.53260958
-0.48578939 0.19687128 0.53260958
-0.48578939 0.21985617 0.53260958
-0.48578939 0.24284101 0.53260958
-0.48578939 0.2658259 0.53260958
-0.51684481 -0.26705232 0.58253348
-0.51684481 -0.24368331 0.58253348
-0.51684481 -0.22031404 0.58253348
-0.51684481 -0.19694507 0.5825336
-0.51684481 -0.17357579 0.58253348
-0.51684481 -0.15020679 0.58253348
-0.51684481 -0.12683761 0.58253348
-0.51684481 -0.10346843 0.5825336
-0.51684481 -0.080099374 0.58253348
-0.51684481 -0.056730196 0.5825336
-0.51684481 -0.033361141 0.5825336
-0.51684481 -0.0099919634 0.5825336
-0.51684481 0.013377217 0.5825336
-0.51684481 0.036746226 0.58253348
-0.51684481 0.060115408 0.5825336
-0.51684481 0.083484508 0.58253348
-0.51684481 0.10685364 0.5825336
-0.51684481 0.13022286 0.5825336
-0.51684481 0.15359184 0.5825336
-0.51684481 0.17696105 0.5825336
-0.51684481 0.20033023 0.5825336
