ply
format ascii 1.0
comment PCL generated
element vertex 1314
property float x
property float y
property float z
element camera 0
property float view_px
property float view_py
property float view_pz
property float x_axisx
property float x_axisy
property float x_axisz
property float y_axisx
property float y_axisy
property float y_axisz
property float z_axisx
property float z_axisy
property float z_axisz
property float focal
property float scalex
property float scaley
property float centerx
property float centery
property int viewportx
property int viewporty
property float k1
property float k2
end_header
-0.060518041 -0.20812479 -0.16378027
-0.0772973 -0.1903853 -0.17417461
-0.060518041 -0.1911055 -0.16378027
-0.0772973 -0.17344609 -0.17417449
-0.060518041 -0.17408615 -0.16378027
-0.0772973 -0.15650673 -0.17417467
-0.060518041 -0.15706694 -0.16378027
-0.0772973 -0.13956754 -0.17417449
-0.060518041 -0.14004757 -0.16378027
-0.0772973 -0.12262826 -0.17417449
-0.060518041 -0.12302826 -0.16378027
-0.0772973 -0.10568891 -0.17417449
-0.060518041 -0.10600892 -0.16378027
-0.0772973 -0.088749699 -0.17417449
-0.060518041 -0.08898972 -0.16378027
-0.0772973 -0.071810365 -0.17417461
-0.060518041 -0.071970358 -0.16378027
-0.0772973 -0.054871142 -0.17417449
-0.060518041 -0.054951083 -0.16378033
-0.0772973 -0.037931807 -0.17417449
-0.060518041 -0.037931725 -0.16378033
-0.077297047 -0.020992627 -0.17418522
-0.060517874 -0.020912571 -0.16379112
-0.0772973 -0.00405325 -0.17417461
-0.060518041 -0.0038931333 -0.16378027
-0.077297047 0.012885768 -0.1741854
-0.060517874 0.0131259 -0.16379118
-0.077296801 0.02982467 -0.174196
-0.060517706 0.030144777 -0.16380197
-0.077297047 0.046764206 -0.17418528
-0.060517874 0.047164295 -0.16379118
-0.077297047 0.063703388 -0.17418522
-0.060517874 0.064183533 -0.16379112
-0.077296801 0.080642 -0.17419606
-0.060517706 0.08120212 -0.16380197
-0.077297047 0.097581819 -0.17418528
-0.060517874 0.098221913 -0.16379112
-0.077297047 0.11452104 -0.17418528
-0.060517874 0.11524111 -0.16379106
-0.077296801 0.13145941 -0.17419606
-0.060517706 0.13225955 -0.16380197
-0.077296801 0.14839855 -0.17419606
-0.060517706 0.14927867 -0.16380197
-0.077297546 0.16534066 -0.17416382
-0.060518041 0.16629982 -0.16378027
-0.077296801 0.18227683 -0.17419606
-0.060518209 0.18332019 -0.16376948
-0.077296801 0.19921596 -0.17419606
-0.060518041 0.20033838 -0.16378033
-0.0772973 0.21615756 -0.17417449
-0.060517706 0.21735516 -0.16380197
-0.0772973 0.23309675 -0.17417467
-0.060517874 0.23437569 -0.16379118
-0.077297047 0.25003463 -0.1741854
-0.060517874 0.25139484 -0.16379112
-0.077297047 0.26697388 -0.17418528
-0.060518041 0.26841557 -0.16378033
-0.077297047 0.28391305 -0.17418528
-0.060518041 0.28543487 -0.16378027
-0.077297047 0.30085218 -0.17418528
-0.060517874 0.30245247 -0.16379112
-0.077297047 0.31779146 -0.17418522
-0.060517874 0.31947178 -0.16379112
-0.077297546 0.33473423 -0.17416382
-0.060517706 0.33648905 -0.16380197
-0.077297546 0.35167372 -0.17416382
-0.060517706 0.35350823 -0.16380197
-0.077297546 0.36861309 -0.17416382
-0.060517706 0.37052742 -0.16380209
-0.077297546 0.38555235 -0.17416376
-0.060517874 0.38754866 -0.16379112
-0.077297546 0.40249169 -0.17416382
-0.060518041 0.40456989 -0.16378027
-0.077297546 0.41943121 -0.17416376
-0.060518209 0.42159161 -0.16376942
-0.077297546 0.43637058 -0.17416382
-0.060518209 0.43861094 -0.16376942
-0.077297546 0.45330983 -0.17416376
-0.060518209 0.4556303 -0.16376942
-0.077297546 0.47024915 -0.17416382
-0.060518209 0.47264972 -0.16376942
-0.077297546 0.48718867 -0.17416382
-0.060518041 0.48966649 -0.16378027
-0.0772973 0.50412524 -0.17417449
-0.060517874 0.50668317 -0.16379112
-0.077297047 0.52106184 -0.17418528
-0.060517706 0.52369964 -0.16380197
-0.077297047 0.53800118 -0.17418522
-0.060517874 0.54072165 -0.16379112
-0.077297047 0.55494028 -0.17418522
-0.060518041 0.55774367 -0.16378027
-0.0772973 0.57188249 -0.17417449
-0.060518209 0.5747661 -0.16376942
-0.043579429 -0.5167315 -0.15329838
-0.043579429 -0.49963152 -0.15329838
-0.043579519 -0.48253375 -0.15328723
-0.043579519 -0.46543369 -0.15328735
-0.19746329 -0.44829306 -0.15350682
-0.043579519 -0.44833359 -0.15328723
-0.19746582 -0.43120059 -0.15347379
-0.043579519 -0.4312335 -0.15328735
-0.19746582 -0.41410184 -0.15347379
-0.043579519 -0.4141334 -0.15328735
-0.19746582 -0.3970032 -0.15347391
-0.043579429 -0.39703158 -0.15329838
-0.19746582 -0.37990454 -0.15347391
-0.043579429 -0.37993163 -0.15329826
-0.19746582 -0.36280602 -0.15347379
-0.043579429 -0.36283153 -0.15329838
-0.19746582 -0.3457073 -0.15347379
-0.043579429 -0.34573165 -0.15329838
-0.19746582 -0.32860863 -0.15347391
-0.043579429 -0.32863164 -0.15329826
-0.19746499 -0.31150872 -0.15348476
-0.043579429 -0.3115316 -0.15329826
-0.19746499 -0.29441014 -0.15348482
-0.043579429 -0.29443172 -0.15329838
-0.19746415 -0.27731037 -0.15349585
-0.043579519 -0.2773329 -0.15328741
-0.19746329 -0.26021078 -0.15350676
-0.043579519 -0.26023272 -0.15328741
-0.19681898 -0.24233922 -0.16187686
-0.043579519 -0.24313277 -0.15328735
-0.043579519 -0.22603258 -0.15328741
-0.19681813 -0.22530431 -0.16188782
-0.19681646 -0.20826879 -0.16190964
-0.043579519 -0.20893259 -0.15328735
-0.19746329 -0.19181724 -0.15350682
-0.043579519 -0.19183242 -0.15328741
-0.19746329 -0.17471892 -0.15350664
-0.043579519 -0.17473245 -0.15328741
-0.19724573 -0.15746817 -0.15633303
-0.043579519 -0.15763228 -0.15328741
-0.19681729 -0.14013451 -0.16189873
-0.043579519 -0.14053228 -0.15328741
-0.19681561 -0.12309985 -0.16192049
-0.043579519 -0.12343211 -0.15328741
-0.19681478 -0.10606588 -0.16193134
-0.043579519 -0.10633214 -0.15328741
-0.19746329 -0.089226976 -0.15350676
-0.043579519 -0.089232042 -0.15328723
-0.19746329 -0.072128519 -0.15350676
-0.043579519 -0.072131991 -0.15328735
-0.19746329 -0.055030219 -0.15350682
-0.043579519 -0.055031899 -0.15328723
-0.043579519 -0.037931807 -0.15328741
-0.19746329 -0.037931766 -0.15350676
-0.19746329 -0.020833431 -0.15350682
-0.043579519 -0.020831713 -0.15328723
-0.19746415 -0.0037348568 -0.15349579
-0.043579519 -0.0037316605 -0.15328741
-0.19746582 0.013364118 -0.15347379
-0.043579519 0.013368431 -0.15328723
-0.19746669 0.030463051 -0.15346277
-0.043579429 0.030468162 -0.15329826
-0.19746669 0.047561746 -0.15346277
-0.043579429 0.047568101 -0.15329826
-0.19746669 0.064660475 -0.15346277
-0.043579429 0.064668193 -0.15329838
-0.19746669 0.08175917 -0.15346277
-0.043579347 0.081767529 -0.15330929
-0.19746669 0.098858029 -0.15346295
-0.043579429 0.098868132 -0.15329826
-0.19746669 0.1159568 -0.15346289
-0.043579429 0.11596812 -0.15329826
-0.19746669 0.13305549 -0.15346289
-0.043579347 0.13306724 -0.15330929
-0.19746669 0.15015423 -0.15346289
-0.043579347 0.15016721 -0.15330929
-0.19746669 0.16725293 -0.15346289
-0.043579519 0.16726919 -0.15328741
-0.19746669 0.18435156 -0.15346295
-0.043579429 0.184368 -0.15329838
-0.19746669 0.20145033 -0.15346289
-0.043579519 0.20146924 -0.15328741
-0.19746669 0.21854913 -0.15346289
-0.043579519 0.21856931 -0.15328723
-0.19746669 0.2356478 -0.15346289
-0.043579429 0.235668 -0.15329844
-0.19746669 0.25274655 -0.15346289
-0.043579347 0.25276658 -0.15330923
-0.19746669 0.26984522 -0.15346289
-0.043579429 0.26986805 -0.15329826
-0.19746669 0.28694397 -0.15346289
-0.043579429 0.28696796 -0.15329826
-0.19746669 0.30404264 -0.15346289
-0.043579519 0.30406982 -0.15328741
-0.19746669 0.32114142 -0.15346289
-0.043579519 0.3211697 -0.15328741
-0.19746669 0.33824006 -0.15346289
-0.043579429 0.33826798 -0.15329838
-0.19746669 0.35533881 -0.15346289
-0.043579347 0.35536602 -0.15330929
-0.19746669 0.37243763 -0.15346289
-0.043579347 0.372466 -0.15330929
-0.19746669 0.38953626 -0.15346289
-0.043579429 0.38956791 -0.15329826
-0.19746669 0.40663502 -0.15346289
-0.043579429 0.40666798 -0.15329844
-0.19746669 0.42373365 -0.15346289
-0.043579429 0.42376801 -0.15329826
-0.19746836 0.4408372 -0.15344095
-0.043579519 0.44087026 -0.15328723
-0.19747174 0.45794588 -0.15339702
-0.043579601 0.45797285 -0.15327621
-0.1974709 0.47504255 -0.15340799
-0.043579429 0.47506794 -0.1532982
-0.1974709 0.49214169 -0.15340793
-0.043579347 0.4921653 -0.15330917
-0.19747174 0.50924361 -0.15339702
-0.043579265 0.5092625 -0.15332025
-0.19747174 0.52634281 -0.15339702
-0.043579347 0.52636516 -0.15330917
-0.19746836 0.54343057 -0.15344095
-0.043579429 0.54346788 -0.15329826
-0.19746752 0.56052661 -0.15345186
-0.043579519 0.5605709 -0.15328735
-0.19746499 0.57761621 -0.15348476
-0.043579519 0.57767099 -0.15328723
-0.026479442 -0.53619879 -0.14269429
-0.026479442 -0.51901478 -0.1427055
-0.026479442 -0.50183314 -0.1427055
-0.026479442 -0.48465389 -0.14269435
-0.026479442 -0.46747437 -0.14268333
-0.026479442 -0.45029271 -0.14268333
-0.026479442 -0.43311098 -0.14268327
-0.026479442 -0.41592741 -0.14269435
-0.026479442 -0.39874402 -0.14270532
-0.026479442 -0.3815625 -0.14270538
-0.026479442 -0.36438099 -0.14270538
-0.026479442 -0.34719941 -0.14270538
-0.026479442 -0.33001789 -0.14270532
-0.026479442 -0.31283638 -0.1427055
-0.026479442 -0.29565486 -0.14270538
-0.026479442 -0.27847448 -0.14269435
-0.026479442 -0.26129282 -0.14269435
-0.026479442 -0.24411124 -0.14269429
-0.026479442 -0.22692965 -0.14269429
-0.026479442 -0.209748 -0.14269435
-0.026479442 -0.19256635 -0.14269435
-0.026479442 -0.17538472 -0.14269435
-0.026479442 -0.15820312 -0.14269429
-0.026479442 -0.14102148 -0.14269429
-0.026479442 -0.12383987 -0.14269435
-0.026479442 -0.10665824 -0.14269435
-0.026479442 -0.089476652 -0.14269429
-0.026479442 -0.072295062 -0.14269435
-0.026479442 -0.055113398 -0.14269435
-0.026479442 -0.037931766 -0.14269435
-0.026479442 -0.020750258 -0.14269429
-0.026479442 -0.0035685897 -0.14269429
-0.026479442 0.01361312 -0.14269435
-0.026479442 0.030794386 -0.1427055
-0.026479442 0.047975902 -0.14270538
-0.026479442 0.065157369 -0.14270538
-0.026479442 0.082338959 -0.14270538
-0.026479442 0.09952046 -0.14270532
-0.026479442 0.11670205 -0.14270538
-0.026479442 0.13388276 -0.14271659
-0.026479442 0.15106414 -0.14271659
-0.026479442 0.16824766 -0.14269435
-0.026479442 0.18542936 -0.14269435
-0.026479442 0.20260967 -0.14270532
-0.026479442 0.21979246 -0.14269435
-0.026479442 0.23697278 -0.14270538
-0.026479442 0.25415429 -0.14270538
-0.026479442 0.27133432 -0.14271641
-0.026479442 0.28851739 -0.14270538
-0.026479442 0.30570066 -0.14269435
-0.026479442 0.32288215 -0.14269435
-0.026479442 0.34006193 -0.14270538
-0.026479442 0.35724142 -0.14271653
-0.026479442 0.37442505 -0.14270538
-0.026479442 0.39160654 -0.14270538
-0.026479442 0.40878806 -0.14270538
-0.026479442 0.42597201 -0.14269423
-0.026479442 0.4431535 -0.14269435
-0.026479442 0.4603377 -0.14268327
-0.026479442 0.4775143 -0.14270538
-0.026479442 0.49469045 -0.14272761
-0.026479442 0.51187462 -0.14271641
-0.026479442 0.52905607 -0.14271641
-0.026479442 0.54624051 -0.14270538
-0.026479442 0.56342483 -0.14269435
-0.026479442 0.58060652 -0.14269435
-0.0092155822 -0.53858376 -0.13201106
-0.0092156678 -0.52131742 -0.13202232
-0.0092154946 -0.50405836 -0.13199979
-0.0092154946 -0.48679438 -0.13199985
-0.18220824 -0.47051182 -0.12690043
-0.0092154089 -0.46953261 -0.1319887
-0.0092154089 -0.45226857 -0.1319887
-0.0092154089 -0.43500453 -0.1319887
-0.0092154946 -0.41773865 -0.13199979
-0.0092154946 -0.4004747 -0.13199979
-0.0092155822 -0.38320896 -0.13201106
-0.0092155822 -0.36594516 -0.13201106
-0.0092155822 -0.34868133 -0.132011
-0.0092155822 -0.33141738 -0.13201106
-0.0092155822 -0.31415355 -0.132011
-0.0092155822 -0.29688972 -0.132011
-0.0092154946 -0.27962708 -0.13199979
-0.0092154946 -0.26236311 -0.13199985
-0.0092154946 -0.24509917 -0.13199979
-0.21653636 -0.22798869 -0.13018692
-0.0092154946 -0.22783521 -0.13199979
-0.21653447 -0.2107091 -0.13020933
-0.0092154946 -0.21057124 -0.13199985
-0.21653447 -0.19343133 -0.13020933
-0.0092154946 -0.19330734 -0.13199979
-0.21653447 -0.1761536 -0.13020933
-0.0092154946 -0.17604338 -0.13199985
-0.21653447 -0.15887587 -0.13020933
-0.0092154946 -0.15877935 -0.13199985
-0.2165354 -0.14159875 -0.130198
-0.0092154946 -0.14151546 -0.13199979
-0.21653067 -0.12431861 -0.13025415
-0.0092154946 -0.1242515 -0.13199985
-0.21653067 -0.10704136 -0.13025403
-0.0092154946 -0.10698763 -0.13199973
-0.0092154946 -0.089723662 -0.13199985
-0.0092154946 -0.072459608 -0.13199985
-0.0092154946 -0.05519573 -0.13199979
-0.0092154946 -0.037931766 -0.13199985
-0.0092154946 -0.020667803 -0.13199985
-0.0092154946 -0.0034039207 -0.13199985
-0.0092154946 0.013860043 -0.13199985
-0.0092155822 0.031123649 -0.13201106
-0.0092155822 0.048387531 -0.132011
-0.0092155822 0.065651298 -0.13201088
-0.0092155822 0.082915217 -0.13201106
-0.0092154946 0.10017975 -0.13199985
-0.0092155822 0.11744291 -0.13201088
-0.0092156678 0.13470587 -0.13202214
-0.0092156678 0.15196972 -0.13202226
-0.0092154946 0.16923551 -0.13199979
-0.0092154946 0.18649948 -0.13199985
-0.0092156678 0.20376109 -0.13202226
-0.0092155822 0.22102612 -0.13201088
-0.0092154946 0.23829132 -0.13199985
-0.0092155822 0.25555381 -0.132011
-0.0092155822 0.2728177 -0.13201088
-0.0092155822 0.29008153 -0.13201106
-0.0092154946 0.30734709 -0.13199973
-0.0092154946 0.3246111 -0.13199985
-0.0092155822 0.34187311 -0.13201106
-0.0092155822 0.359137 -0.13201088
-0.0092155822 0.37640071 -0.132011
-0.0092155822 0.39366469 -0.13201106
-0.0092155822 0.41092858 -0.13201088
-0.0092154946 0.42819473 -0.13199985
-0.0092154089 0.44546112 -0.1319887
-0.0092154946 0.46272275 -0.13199979
-0.0092155822 0.47998396 -0.13201088
-0.0092157535 0.49724248 -0.13203329
-0.0092156678 0.51450902 -0.13202226
-0.0092156678 0.53177279 -0.13202226
-0.0092154946 0.5490424 -0.13199985
-0.0092154089 0.56630939 -0.1319887
-0.0092154946 0.58357024 -0.13199979
0.025813259 -0.56085879 -0.11031181
0.0082146898 -0.55834365 -0.12120247
0.0082145147 -0.54099417 -0.12121361
0.025813002 -0.54342532 -0.11032319
0.0082143396 -0.52364475 -0.12122488
0.025813259 -0.5259971 -0.11031169
0.025813524 -0.50856847 -0.11030036
0.0082146898 -0.50630254 -0.12120235
-0.14808314 -0.4896026 -0.11796892
0.0082148649 -0.48895773 -0.12119102
0.025813788 -0.4911398 -0.11028904
0.0082148649 -0.47161052 -0.12119108
0.025813788 -0.47370872 -0.11028886
-0.21725702 -0.45417374 -0.12167639
0.0082148649 -0.45426342 -0.12119102
0.025813788 -0.45627761 -0.11028904
-0.21725796 -0.4368324 -0.12166506
0.0082148649 -0.43691632 -0.12119097
0.025813788 -0.43884659 -0.11028886
-0.21726084 -0.41949454 -0.12163126
0.0082148649 -0.4195691 -0.12119108
0.025813788 -0.42141548 -0.11028904
-0.21726084 -0.40215078 -0.12163126
0.0082146898 -0.40222022 -0.12120229
0.025813524 -0.40398252 -0.11030036
0.025813524 -0.38655159 -0.11030036
-0.21726084 -0.38480705 -0.12163121
0.0082145147 -0.38487139 -0.12121361
-0.21726084 -0.36746329 -0.12163121
0.0082145147 -0.36752436 -0.12121356
0.025813259 -0.36911884 -0.11031181
-0.21726084 -0.35011953 -0.12163121
0.0082145147 -0.35017738 -0.12121361
0.025813259 -0.35168809 -0.11031169
0.025813259 -0.33425716 -0.11031169
-0.21725796 -0.33277139 -0.12166506
0.0082145147 -0.3328304 -0.12121373
-0.21725988 -0.31543061 -0.12164271
0.0082145147 -0.31548351 -0.12121361
0.025813259 -0.31682619 -0.11031169
-0.21725796 -0.29808429 -0.12166506
0.0082145147 -0.29813653 -0.12121356
0.025813259 -0.29939535 -0.11031169
-0.21726084 -0.28074446 -0.12163121
0.0082146898 -0.28079069 -0.12120229
0.025813524 -0.28196564 -0.11030036
-0.21725702 -0.26339614 -0.12167639
0.0082146898 -0.26344365 -0.12120235
0.025813524 -0.26453468 -0.1103003
-0.21725702 -0.24605276 -0.1216765
0.0082146898 -0.2460966 -0.12120235
0.025813524 -0.24710366 -0.11030036
0.0082146898 -0.22874956 -0.12120229
0.025813524 -0.22967264 -0.11030036
0.025813524 -0.21224168 -0.11030036
0.0082146898 -0.21140251 -0.12120229
0.0082146898 -0.19405536 -0.12120229
0.025813524 -0.19481072 -0.11030036
0.0082146898 -0.17670831 -0.12120223
0.025813524 -0.17737973 -0.1103003
0.0082146898 -0.15936127 -0.12120229
0.025813524 -0.15994865 -0.11030036
0.0082146898 -0.14201415 -0.12120235
0.025813524 -0.14251775 -0.11030036
0.0082146898 -0.12466709 -0.12120235
0.025813524 -0.12508672 -0.11030036
0.0082146898 -0.10732004 -0.12120235
0.025813524 -0.10765581 -0.11030036
-0.21725702 -0.08996211 -0.12167633
0.0082146898 -0.089973018 -0.12120229
0.025813524 -0.090224773 -0.1103003
-0.21725702 -0.072618574 -0.12167639
0.0082146898 -0.072625965 -0.12120235
0.025813524 -0.072793752 -0.11030036
-0.21725702 -0.05527515 -0.1216765
0.0082146898 -0.055278823 -0.12120229
0.025813524 -0.055362798 -0.11030036
-0.21725702 -0.037931807 -0.12167639
0.025813524 -0.037931807 -0.11030036
0.0082146898 -0.037931766 -0.12120229
-0.21725702 -0.020588344 -0.12167639
0.0082146898 -0.020584708 -0.12120229
0.025813788 -0.020500656 -0.11028892
-0.21725702 -0.0032449625 -0.12167639
0.0082146898 -0.0032376908 -0.12120229
0.025813524 -0.0030698664 -0.11030036
-0.21725796 0.014098741 -0.12166512
0.0082146898 0.014109366 -0.12120229
0.025813524 0.014361206 -0.11030042
-0.21726084 0.031443242 -0.12163121
0.0082145147 0.031456064 -0.12121356
0.025813259 0.031791795 -0.11031169
-0.21726179 0.048787463 -0.12162
0.0082145147 0.048803043 -0.12121361
0.025813259 0.049222704 -0.11031169
-0.21726179 0.066131279 -0.12161994
0.0082145147 0.066150099 -0.12121361
0.025813524 0.066654131 -0.11030036
-0.21726179 0.083475187 -0.12162
0.0082145147 0.083497122 -0.12121361
0.025813259 0.084084526 -0.11031181
-0.21726179 0.10081901 -0.12161994
0.0082146898 0.10084477 -0.12120235
0.025813524 0.10151607 -0.1103003
-0.21726179 0.1181629 -0.12162
0.0082145147 0.118191 -0.12121361
0.025813259 0.1189463 -0.11031181
-0.21726179 0.13550673 -0.12161994
0.0082143396 0.13553713 -0.12122482
0.025813002 0.13637634 -0.11032307
-0.21726179 0.15285058 -0.12162
0.0082143396 0.15288407 -0.12122482
0.025813002 0.15380716 -0.11032307
-0.21726179 0.17019437 -0.12162
0.0082145147 0.17023197 -0.12121361
0.025813259 0.17123896 -0.11031169
-0.21726179 0.18753831 -0.12162
0.0082148649 0.18758114 -0.12119108
0.025813788 0.18867223 -0.11028904
-0.21726179 0.20488206 -0.12161994
0.0082143396 0.20492472 -0.12122482
0.025813259 0.20610082 -0.11031169
-0.21726179 0.22222602 -0.12161994
0.0082145147 0.22227281 -0.12121361
0.025813002 0.22353041 -0.11032319
-0.21726179 0.23956978 -0.12161994
0.0082146898 0.23962122 -0.12120229
0.025813524 0.24096408 -0.11030036
-0.21726179 0.2569136 -0.12162
0.0082145147 0.2569668 -0.12121361
0.025813259 0.25839344 -0.11031181
-0.21726179 0.27425751 -0.12161994
0.0082145147 0.27431384 -0.1212135
0.025813259 0.27582437 -0.11031169
-0.21726179 0.29160133 -0.12162
0.0082145147 0.29166082 -0.12121356
0.025813524 0.29325706 -0.11030036
-0.21726179 0.30894518 -0.12161994
0.0082146898 0.30900949 -0.12120235
0.025813524 0.31068799 -0.11030036
-0.21726179 0.326289 -0.12162
0.0082146898 0.32635659 -0.12120229
0.025813524 0.32811892 -0.11030036
-0.21726276 0.34363487 -0.12160873
0.0082145147 0.34370175 -0.12121361
0.025813259 0.34554803 -0.11031169
-0.21726276 0.36097872 -0.12160867
0.0082145147 0.36104864 -0.12121356
0.025813259 0.36297891 -0.11031163
-0.21726561 0.37832907 -0.12157488
0.0082145147 0.37839562 -0.12121361
0.025813259 0.38040972 -0.11031169
-0.21726465 0.39567092 -0.12158614
0.0082145147 0.3957426 -0.12121361
0.025813259 0.39784071 -0.11031169
-0.2172637 0.4130128 -0.12159729
0.0082145147 0.41308957 -0.12121361
0.025813259 0.41527158 -0.11031169
-0.21726465 0.43035921 -0.12158614
0.0082146898 0.43043891 -0.12120229
0.025813524 0.4327049 -0.11030036
-0.21726084 0.44769347 -0.12163121
0.0082148649 0.44778848 -0.12119097
0.025813788 0.45013836 -0.11028904
-0.21726084 0.46503732 -0.12163132
0.0082146898 0.46513304 -0.12120229
0.025813524 0.46756682 -0.11030018
-0.21726084 0.48238108 -0.12163126
0.0082145147 0.48247758 -0.12121361
0.025813002 0.48499265 -0.11032319
-0.21726084 0.49972484 -0.12163126
0.0082141683 0.49981913 -0.12123615
0.025812734 0.50242066 -0.11033458
-0.21726084 0.51706856 -0.12163121
0.0082143396 0.51716876 -0.121225
0.025813002 0.51985431 -0.11032307
-0.21726084 0.53441244 -0.12163132
0.0082145147 0.53451848 -0.12121356
0.025813259 0.53728795 -0.11031169
-0.21726276 0.5517621 -0.12160867
0.0082146898 0.55186844 -0.12120235
0.025813524 0.55472171 -0.11030036
-0.21725988 0.56909692 -0.12164253
0.0082146898 0.5692156 -0.12120229
0.025813259 0.57214975 -0.11031169
-0.21725796 0.58643436 -0.12166524
0.0082146898 0.58656257 -0.12120229
0.043583471 -0.58091933 -0.099292397
0.043583121 -0.56340098 -0.099303901
0.043582764 -0.5458827 -0.099315524
-0.079012543 -0.52824074 -0.099902272
0.043583121 -0.52836967 -0.09930402
-0.11368574 -0.50884581 -0.10896581
0.043583471 -0.51085645 -0.099292338
0.043583829 -0.49334306 -0.099280834
0.043583829 -0.47582728 -0.099280834
0.043583829 -0.45831135 -0.099280834
0.043583829 -0.44079554 -0.099280834
0.043583829 -0.42327982 -0.099280834
0.043583829 -0.40576392 -0.099281013
0.043583471 -0.38824639 -0.099292397
0.043583121 -0.37072891 -0.09930402
0.043583121 -0.35321334 -0.099303842
0.043583121 -0.33569768 -0.099303901
0.043583121 -0.31818202 -0.099303901
0.043583121 -0.30066633 -0.09930402
0.043583829 -0.28315327 -0.099280834
0.043583471 -0.26563624 -0.099292397
0.043583471 -0.24812052 -0.099292397
-0.23682992 -0.23075311 -0.097541451
0.043583471 -0.23060475 -0.099292397
-0.23682992 -0.21322379 -0.097541451
0.043583471 -0.21308908 -0.099292397
0.043583471 -0.19557334 -0.099292397
-0.23682353 -0.17816122 -0.097610652
0.043583471 -0.17805763 -0.099292517
0.043583471 -0.16054185 -0.099292517
0.043583471 -0.1430261 -0.099292338
-0.23682992 -0.12557785 -0.097541451
0.043583471 -0.12551038 -0.099292338
-0.23682992 -0.10804854 -0.097541451
0.043583471 -0.10799474 -0.099292397
0.043583471 -0.090478972 -0.099292397
0.043583471 -0.072963208 -0.099292397
0.043583471 -0.055447489 -0.099292397
0.043583471 -0.037931766 -0.099292397
0.043583829 -0.020415964 -0.099280894
0.043583471 -0.002900321 -0.099292397
0.043583471 0.014615402 -0.099292397
0.043583121 0.032130804 -0.099303901
0.043583121 0.049646329 -0.099303842
0.043583471 0.067162648 -0.099292397
0.043583471 0.084678367 -0.099292397
0.043583471 0.10219404 -0.099292517
0.043583121 0.11970893 -0.099303842
0.043582764 0.13722369 -0.099315345
0.043582764 0.15473926 -0.099315524
0.043583829 0.17225797 -0.099281013
0.043583829 0.18977378 -0.099280894
0.043583121 0.20728715 -0.09930402
0.043582764 0.22480139 -0.099315345
0.043583471 0.24231985 -0.099292278
0.043583471 0.25983554 -0.099292338
0.043583121 0.27734968 -0.099303842
0.043583471 0.29486701 -0.099292338
0.043583471 0.31238267 -0.099292338
0.043583471 0.32989851 -0.099292338
0.043583121 0.34741229 -0.099303842
0.043583121 0.36492798 -0.099303842
0.043583471 0.38244563 -0.099292338
0.043583471 0.39996138 -0.099292338
0.043583471 0.41747713 -0.099292338
0.043583471 0.43499282 -0.099292338
0.043583829 0.4525111 -0.099280834
0.043583471 0.47002432 -0.099292338
0.043582764 0.48753467 -0.099315345
0.043582406 0.50504756 -0.099326909
0.043582764 0.52256584 -0.099315345
0.043583121 0.54008436 -0.099303901
0.043583829 0.55760604 -0.099280834
0.043583121 0.57511556 -0.099303842
0.061526585 -0.58356917 -0.088188529
0.061526585 -0.56596798 -0.08818841
-0.044060897 -0.54779392 -0.09075433
0.061526146 -0.54836416 -0.088200152
0.061526585 -0.53076553 -0.088188529
0.061527032 -0.51316684 -0.088176847
0.061527479 -0.49556783 -0.088165283
0.061527479 -0.47796637 -0.088165283
0.061527479 -0.46036497 -0.088165283
-0.23762628 -0.44262996 -0.088920534
0.061527479 -0.44276363 -0.088165343
-0.23762628 -0.42503437 -0.088920534
0.061527479 -0.42516229 -0.088165164
-0.23763274 -0.40745005 -0.088850796
0.061527479 -0.40756091 -0.088165283
-0.23763274 -0.38985395 -0.088850796
0.061527032 -0.38995773 -0.088176906
-0.23763274 -0.37225786 -0.088850796
0.061526585 -0.37235466 -0.088188589
-0.23762736 -0.35465369 -0.088908851
0.061526585 -0.35475349 -0.088188529
-0.23763165 -0.33706412 -0.088862479
0.061526585 -0.3371523 -0.088188529
-0.23763165 -0.31946808 -0.08886236
0.061526585 -0.31955117 -0.088188529
-0.23762736 -0.30186671 -0.088908851
0.061526585 -0.30194986 -0.088188529
-0.23763274 -0.28427732 -0.088850796
0.061527479 -0.2843512 -0.088165343
-0.23762523 -0.26667309 -0.088932097
0.061527032 -0.26674867 -0.088176847
-0.23762523 -0.24907757 -0.088932097
0.061527032 -0.24914734 -0.088176906
0.061527032 -0.23154606 -0.088176847
0.061527032 -0.2139447 -0.088176847
-0.23737872 -0.19610627 -0.091600537
0.061527032 -0.19634345 -0.088176787
0.061527032 -0.17874217 -0.088176906
-0.23737872 -0.16095631 -0.091600657
0.061527032 -0.16114092 -0.088176847
-0.2373798 -0.14338201 -0.091588974
0.061527032 -0.14353952 -0.088176906
0.061527032 -0.12593827 -0.088176847
0.061527032 -0.10833694 -0.088176847
-0.23762523 -0.090718225 -0.088932097
0.061527032 -0.090735689 -0.088176787
-0.23762523 -0.073122725 -0.088932097
0.061527032 -0.073134437 -0.088176906
-0.23762523 -0.055527266 -0.088932097
0.061527032 -0.055533141 -0.088176847
0.061527032 -0.037931807 -0.088176847
-0.23762523 -0.037931766 -0.088932097
-0.23762628 -0.020336226 -0.088920534
0.061527479 -0.020330394 -0.088165343
-0.23762628 -0.0027406067 -0.088920534
0.061527032 -0.0027291812 -0.088176847
-0.23762628 0.014854893 -0.088920474
0.061527032 0.014872074 -0.088176787
-0.23762736 0.032450791 -0.088908792
0.061527032 0.032473449 -0.088176906
-0.23763058 0.050047811 -0.088873982
0.061526585 0.050074261 -0.088188529
-0.23763165 0.067644313 -0.088862479
0.061527032 0.067675948 -0.088176906
-0.23763274 0.08524093 -0.088850677
0.061527032 0.085277244 -0.088176847
-0.23763379 0.10283779 -0.088839114
0.061527479 0.10287926 -0.088165164
-0.23763379 0.12043397 -0.088839173
0.061526585 0.12047911 -0.088188529
-0.23763379 0.13803023 -0.088839114
0.061526146 0.13807936 -0.088200152
-0.23763379 0.15562645 -0.088839173
0.061526585 0.15568149 -0.08818841
-0.23763379 0.17322251 -0.088839114
0.061527479 0.17328474 -0.088165164
-0.23763379 0.19081873 -0.088839114
0.061527479 0.19088627 -0.088165104
-0.23763379 0.20841499 -0.088839173
0.061527032 0.20848638 -0.088176906
-0.23763379 0.22601116 -0.088839114
0.061526585 0.22608638 -0.08818841
-0.23763379 0.24360737 -0.088839114
0.061527032 0.24368897 -0.088176847
-0.23763379 0.26120353 -0.088839173
0.061527032 0.26129022 -0.088176787
-0.23763379 0.27879974 -0.088839293
0.061526585 0.27888986 -0.08818841
-0.23763596 0.2963993 -0.088815928
0.061527032 0.29649284 -0.088176787
-0.23763487 0.3139939 -0.08882761
0.061527032 0.31409422 -0.088176847
-0.23763487 0.33159024 -0.088827431
0.061527032 0.33169526 -0.088176847
-0.23763274 0.34918267 -0.088850796
0.061526585 0.34929472 -0.08818841
-0.23763487 0.36678272 -0.08882755
0.061527032 0.36689797 -0.088176787
-0.23763487 0.38437903 -0.08882761
0.061527032 0.38449925 -0.088176906
-0.23763274 0.4019708 -0.088850796
0.061527032 0.40210056 -0.088176787
-0.23763379 0.41956922 -0.088839114
0.061527032 0.41970184 -0.088176906
-0.23763487 0.43716782 -0.08882755
0.061527479 0.43730557 -0.088165164
-0.23763487 0.45476413 -0.08882761
0.061527479 0.45490703 -0.088165104
-0.23763596 0.47236314 -0.088815928
0.061527032 0.47250578 -0.088176787
-0.23763487 0.48995671 -0.088827431
0.061526146 0.49010172 -0.088200092
-0.23763487 0.5075531 -0.088827431
0.061526146 0.50770289 -0.088200092
-0.23763165 0.52514082 -0.088862479
0.061526146 0.52530402 -0.088200092
-0.23763379 0.54274285 -0.088839293
0.061526585 0.54290807 -0.088188529
-0.23763058 0.56032974 -0.088874102
0.061527032 0.56051224 -0.088176906
-0.23762736 0.57791626 -0.088908851
0.061526585 0.5781104 -0.088188529
0.079646781 -0.60393828 -0.076952279
0.026692588 -0.58737606 -0.072235942
0.07964623 -0.58624774 -0.076963902
-0.0088269971 -0.56750506 -0.081532538
0.079645693 -0.56855744 -0.076975703
0.079645693 -0.55086994 -0.076975644
0.079646781 -0.53318745 -0.076952219
0.079646781 -0.51549977 -0.076952219
0.079647318 -0.49781448 -0.076940417
0.079647318 -0.48012665 -0.076940417
0.079647318 -0.46243876 -0.076940536
0.079647318 -0.44475105 -0.076940536
0.079647318 -0.42706326 -0.076940536
0.079647318 -0.40937546 -0.076940477
0.079646781 -0.3916859 -0.076952219
0.079646781 -0.37399814 -0.076952159
0.07964623 -0.35630885 -0.076964021
0.07964623 -0.33862123 -0.076963961
0.07964623 -0.32093361 -0.076964021
0.07964623 -0.30324599 -0.076963902
0.079647318 -0.28556097 -0.076940477
0.079646781 -0.26787192 -0.076952279
0.079646781 -0.25018421 -0.076952279
0.079646781 -0.23249654 -0.076952219
0.079646781 -0.21480882 -0.076952219
0.079646781 -0.19712107 -0.076952219
0.079646781 -0.17943342 -0.076952219
0.079646781 -0.16174577 -0.076952159
0.079646781 -0.14405802 -0.076952159
0.079646781 -0.12637028 -0.076952219
0.079646781 -0.10868257 -0.076952219
0.079646781 -0.090994909 -0.076952279
0.079646781 -0.073307253 -0.076952159
0.079646781 -0.055619508 -0.076952219
0.079646781 -0.037931766 -0.076952219
0.079646781 -0.020244064 -0.076952219
0.079646781 -0.0025563613 -0.076952219
0.079646781 0.015131261 -0.076952219
0.07964623 0.032818649 -0.076963902
0.07964623 0.050506268 -0.076963961
0.079646781 0.068194494 -0.076952219
0.079646781 0.085882068 -0.076952159
0.079646781 0.10356982 -0.076952219
0.07964623 0.1212568 -0.076963902
0.079645693 0.13894349 -0.076975703
0.079647318 0.15663388 -0.076940417
0.079647318 0.17432174 -0.076940417
0.079647318 0.19200957 -0.076940536
0.079647318 0.20969726 -0.076940536
0.07964623 0.22738242 -0.076964021
0.079646781 0.24507144 -0.076952159
0.079646781 0.26275918 -0.076952159
0.07964623 0.28044516 -0.076963902
0.079646781 0.29813451 -0.076952219
0.079646781 0.31582221 -0.076952219
0.079646781 0.33350986 -0.076952219
0.07964623 0.35119566 -0.076963902
0.079646781 0.36888537 -0.076952219
0.079646781 0.38657311 -0.076952219
0.079646781 0.40426084 -0.076952219
0.079646781 0.42194846 -0.076952159
0.079647318 0.43963861 -0.076940536
0.079647318 0.45732647 -0.076940417
0.07964623 0.47500899 -0.076963961
0.079645693 0.49269387 -0.076975703
0.079645693 0.5103814 -0.076975703
0.079645693 0.5280689 -0.076975703
0.07964623 0.54575944 -0.076963902
0.079646781 0.56345022 -0.076952219
0.079646781 0.58113784 -0.076952159
0.062500894 -0.6074059 -0.06287539
0.097944662 -0.60672772 -0.065628588
0.097944662 -0.58895284 -0.065628648
0.097944021 -0.57117516 -0.065640569
0.097944021 -0.5534004 -0.065640509
0.097944662 -0.53562814 -0.065628648
0.097945303 -0.51785576 -0.065616846
0.097945943 -0.50008321 -0.065604925
0.097945943 -0.48230818 -0.065604925
0.097945943 -0.46453312 -0.065604866
0.097945943 -0.44675797 -0.065605044
0.097945943 -0.42898297 -0.065605044
0.097945943 -0.41120794 -0.065604925
0.097945303 -0.39343113 -0.065616846
0.097945303 -0.37565613 -0.065616846
0.097944662 -0.35787949 -0.065628588
0.097944021 -0.34010306 -0.06564039
0.097944662 -0.3223297 -0.065628767
0.097944662 -0.30455488 -0.065628588
0.097945943 -0.28678253 -0.065604925
0.097945303 -0.26900634 -0.065616786
0.097945303 -0.25123137 -0.065616786
-0.25771895 -0.23359604 -0.063967884
0.097945303 -0.23345637 -0.065616786
-0.2577154 -0.21580555 -0.064003646
0.097945303 -0.2156814 -0.065616786
-0.2577154 -0.19801825 -0.064003468
0.097945303 -0.19790642 -0.065616786
-0.2577154 -0.18023086 -0.064003527
0.097945303 -0.18013149 -0.065616846
-0.2577154 -0.1624434 -0.064003646
0.097945303 -0.16235659 -0.065616786
-0.2577154 -0.14465611 -0.064003468
0.097945303 -0.1445816 -0.065616786
-0.2577166 -0.12686925 -0.063991666
0.097945303 -0.1268066 -0.065616786
-0.25771421 -0.10908096 -0.064015388
0.097945303 -0.10903165 -0.065616786
0.097945303 -0.091256663 -0.065616786
0.097945303 -0.073481753 -0.065616786
0.097945303 -0.055706758 -0.065616906
0.097945303 -0.037931766 -0.065616906
0.097945303 -0.020156855 -0.065616786
0.097945303 -0.0023818649 -0.065616786
0.097945303 0.01539309 -0.065616786
0.097944662 0.033167679 -0.065628648
0.097945303 0.050942991 -0.065616786
0.097945303 0.068717986 -0.065616786
0.097945943 0.086493656 -0.065604925
0.097945303 0.10426795 -0.065616846
0.097944662 0.12204203 -0.065628767
0.097944662 0.13981682 -0.065628588
0.097945943 0.15759377 -0.065604925
0.097945943 0.17536889 -0.065605044
0.097945943 0.19314396 -0.065604925
0.097945303 0.21091771 -0.065616786
0.097944662 0.22869125 -0.065628588
0.097945943 0.24646896 -0.065604925
0.097945303 0.26424253 -0.065616786
0.097944662 0.28201592 -0.065628588
0.097945303 0.29979247 -0.065616786
0.097945303 0.31756741 -0.065616846
0.097945303 0.3353425 -0.065616786
0.097945303 0.35311741 -0.065616846
0.097945303 0.37089247 -0.065616846
0.097945303 0.38866723 -0.065616786
0.097945303 0.40644222 -0.065616786
0.097945303 0.42421719 -0.065616786
0.097945943 0.44199461 -0.065604925
0.097945943 0.45976964 -0.065604925
0.097944662 0.47753945 -0.065628588
0.097944021 0.49531159 -0.065640569
0.097944021 0.51308644 -0.06564039
0.097944021 0.53086114 -0.06564039
0.097944662 0.548639 -0.065628529
0.097944662 0.56641388 -0.065628588
0.097945303 0.58419198 -0.065616786
0.13508938 -0.64830285 -0.042607188
0.13508855 -0.63034773 -0.042619288
0.098602191 -0.62760228 -0.053426504
0.11642525 -0.62741369 -0.054168999
0.11642453 -0.60954762 -0.054181039
0.13508855 -0.6123957 -0.042619228
0.1164238 -0.59168178 -0.05419296
0.13508855 -0.59444368 -0.042619169
0.13508771 -0.57648897 -0.042631328
0.1164238 -0.57381892 -0.05419296
0.1164238 -0.55595595 -0.05419302
0.13508771 -0.55853707 -0.042631328
0.11642453 -0.53809565 -0.054181099
0.13508855 -0.54058772 -0.042619169
0.13508938 -0.52263832 -0.042607188
0.11642525 -0.52023518 -0.054168999
0.11642601 -0.50237453 -0.054157019
0.13509023 -0.50468856 -0.042594969
0.11642525 -0.48450902 -0.054169059
0.13508938 -0.48673409 -0.042607069
0.13508938 -0.46878201 -0.042607188
0.11642525 -0.4666459 -0.054169059
-0.2585966 -0.44860059 -0.055198073
0.11642601 -0.44878495 -0.054157078
0.13509023 -0.45083201 -0.042594969
-0.25859779 -0.43074754 -0.055186093
0.11642601 -0.43092173 -0.054157138
0.13509023 -0.43287989 -0.042595029
0.13509023 -0.41492769 -0.042595029
-0.2586014 -0.41289803 -0.055150211
0.11642601 -0.41305858 -0.054157078
-0.258605 -0.39504802 -0.055114329
0.11642525 -0.39519358 -0.054169059
0.13508938 -0.39697364 -0.042607009
-0.25859901 -0.37718347 -0.055174112
0.11642525 -0.37733048 -0.054169059
0.13508938 -0.37902153 -0.042607069
0.13508938 -0.36106944 -0.042607188
-0.25860378 -0.35933471 -0.055126309
0.11642453 -0.35946572 -0.054181039
-0.25860259 -0.34147751 -0.05513829
0.11642453 -0.34160271 -0.05418098
0.13508855 -0.34311578 -0.042619228
-0.25860259 -0.32362178 -0.05513829
0.11642453 -0.32373968 -0.05418098
0.13508855 -0.32516381 -0.042619228
0.13508855 -0.30721179 -0.04261905
-0.25859779 -0.30576068 -0.055186212
0.11642453 -0.30587673 -0.05418098
-0.258605 -0.28791317 -0.055114329
0.11642601 -0.28801626 -0.054157078
0.13509023 -0.28926241 -0.042594969
-0.25859541 -0.27004778 -0.055210054
0.11642525 -0.27015194 -0.054168999
0.13508938 -0.27130896 -0.042607188
0.13508938 -0.25335693 -0.042607069
-0.25859541 -0.25219274 -0.055209994
0.11642525 -0.25228885 -0.054168999
0.11642525 -0.2344258 -0.054169059
0.13508938 -0.2354048 -0.042607069
0.11642525 -0.21656267 -0.054168999
0.13508938 -0.21745266 -0.042607188
0.13508938 -0.19950068 -0.042607069
0.11642525 -0.19869959 -0.054169118
0.11642525 -0.18083656 -0.05416888
0.13508938 -0.18154854 -0.042607069
0.11642525 -0.16297345 -0.054168999
0.13508938 -0.16359645 -0.042607069
0.13508938 -0.1456444 -0.042607188
0.11642525 -0.14511035 -0.054168999
0.11642525 -0.12724715 -0.054168999
0.13508938 -0.12769224 -0.042607069
0.11642525 -0.10938412 -0.054168999
0.13508938 -0.10974018 -0.042607069
0.13508938 -0.091788098 -0.042607188
-0.25859541 -0.091496989 -0.055209994
0.11642525 -0.091521084 -0.05416888
-0.25859541 -0.073641941 -0.055210054
0.11642525 -0.07365796 -0.054168999
0.13508938 -0.073835939 -0.042607188
-0.25859541 -0.055786893 -0.055210054
0.11642525 -0.055794887 -0.054168999
0.13508938 -0.055883892 -0.042607069
0.13509023 -0.037931845 -0.042594969
-0.25859541 -0.037931766 -0.055210054
0.11642525 -0.037931766 -0.054169059
-0.25859541 -0.020076716 -0.055210054
0.11642525 -0.020068688 -0.054168999
0.13508938 -0.01997976 -0.042607009
-0.25859541 -0.002221629 -0.055210114
0.11642525 -0.0022056475 -0.054168999
0.13508938 -0.0020275973 -0.042607069
-0.2585966 0.015633702 -0.055197954
0.11642525 0.015657429 -0.05416888
0.13508938 0.01592445 -0.042607188
-0.2585966 0.033488829 -0.055198133
0.11642453 0.03352027 -0.05418098
0.13508855 0.033876177 -0.042619169
-0.25859779 0.051344518 -0.055186152
0.11642525 0.051383626 -0.054168999
0.13508938 0.051828664 -0.042607069
-0.2586014 0.069201365 -0.05515027
0.11642525 0.069246754 -0.054169059
0.13508938 0.069780752 -0.042607188
-0.25860378 0.087058246 -0.055126309
0.11642601 0.087110505 -0.054157078
0.13508938 0.087732822 -0.042607069
-0.258605 0.10491474 -0.055114269
0.11642453 0.10497215 -0.054181039
0.13508855 0.10568415 -0.042619228
-0.2586062 0.12277131 -0.055102348
0.11642453 0.1228352 -0.05418098
0.13508855 0.12363616 -0.042619228
-0.2586062 0.14062712 -0.055102348
0.11642601 0.14069998 -0.054157019
0.13509023 0.14159004 -0.042595088
-0.2586062 0.15848312 -0.055102348
0.11642601 0.15856314 -0.054157019
0.13509023 0.15954225 -0.042595029
-0.2586062 0.17633905 -0.055102527
0.11642601 0.17642629 -0.054157019
0.13509023 0.17749445 -0.042595029
-0.2586062 0.19419493 -0.055102408
0.11642601 0.19428949 -0.054157019
0.13509023 0.19544666 -0.042595029
-0.2586062 0.2120509 -0.055102348
0.11642525 0.21215141 -0.054168999
0.13508938 0.21339753 -0.042607069
-0.2586062 0.22990674 -0.055102348
0.11642525 0.23001462 -0.054168999
0.13508938 0.2313495 -0.042607069
-0.25860739 0.24776405 -0.055090368
0.11642601 0.24787909 -0.054157078
0.13509023 0.24930307 -0.042594969
-0.25860378 0.26561534 -0.05512625
0.11642525 0.26574069 -0.05416888
0.13508938 0.26725373 -0.042607009
-0.258605 0.2834729 -0.055114329
0.11642525 0.28360376 -0.054168999
0.13508938 0.28520581 -0.042607069
-0.25860739 0.30133218 -0.055090368
0.11642525 0.30146694 -0.054168999
0.13508938 0.30315804 -0.042607069
-0.25860858 0.31919 -0.055078447
0.11642525 0.31932992 -0.054168999
0.13509023 0.32111198 -0.042594969
-0.25860858 0.337046 -0.055078387
0.11642525 0.3371931 -0.054168999
0.13508938 0.33906206 -0.042607069
-0.25860858 0.35490203 -0.055078387
0.11642525 0.35505617 -0.054169059
0.13508938 0.3570143 -0.042607069
-0.25860739 0.37275612 -0.055090427
0.11642525 0.37291923 -0.054168999
0.13508938 0.37496632 -0.042607069
-0.25860739 0.3906121 -0.055090368
0.11642525 0.39078221 -0.054168999
0.13509023 0.39292064 -0.042594969
-0.25860739 0.40846804 -0.055090547
0.11642525 0.40864548 -0.054168999
0.13508938 0.41087049 -0.042607009
-0.25860739 0.42632404 -0.055090368
0.11642601 0.42651093 -0.054157019
0.13509023 0.42882505 -0.042594969
-0.258605 0.44417518 -0.055114329
0.11642601 0.44437411 -0.054157019
0.13509023 0.44677714 -0.042595088
-0.25860378 0.46202829 -0.055126369
0.11642601 0.46223733 -0.054157019
0.13509023 0.4647294 -0.042595088
-0.258605 0.47988668 -0.055114329
0.11642453 0.480095 -0.05418098
0.13508855 0.48267618 -0.04261905
-0.2586062 0.49774525 -0.055102527
0.1164238 0.49795529 -0.05419296
0.13508771 0.50062537 -0.042631209
-0.25860378 0.5155955 -0.055126309
0.1164238 0.51581824 -0.054192841
0.13508771 0.51857722 -0.042631328
-0.25860259 0.5334484 -0.05513823
0.1164238 0.53368127 -0.05419296
0.13508771 0.53652924 -0.042631209
-0.25860259 0.5513038 -0.05513829
0.11642453 0.55154717 -0.05418098
0.13508855 0.55448425 -0.042619228
-0.25860021 0.56915325 -0.055162132
0.1164238 0.56940705 -0.054192841
0.13508855 0.57243615 -0.042619169
-0.2585966 0.58699912 -0.055198073
0.11642525 0.58727628 -0.054168999
0.15394042 -0.65135938 -0.030929327
0.15394042 -0.63331735 -0.030929565
0.15394042 -0.61527532 -0.030929446
0.15394042 -0.5972333 -0.030929446
0.15393855 -0.57918566 -0.030954003
0.15393761 -0.56114119 -0.030966043
0.15393949 -0.54310483 -0.030941606
0.15394042 -0.52506542 -0.030929327
0.15394136 -0.50702584 -0.030917168
0.15394042 -0.48898149 -0.030929446
0.15394042 -0.47093952 -0.030929446
0.15394136 -0.45289961 -0.030917287
0.15394136 -0.43485755 -0.030917168
0.15394136 -0.41681552 -0.030917168
0.15394042 -0.39877149 -0.030929446
0.15394042 -0.38072956 -0.030929327
0.15394042 -0.36268753 -0.030929565
0.15393949 -0.34464395 -0.030941606
0.15393949 -0.32660213 -0.030941606
0.15393949 -0.30856025 -0.030941606
0.15394136 -0.29052088 -0.030917287
0.15394042 -0.27247766 -0.030929327
0.15394042 -0.2544356 -0.030929446
0.15394042 -0.23639365 -0.030929327
0.15394042 -0.21835168 -0.030929565
0.15394042 -0.20030968 -0.030929446
0.15394042 -0.18226774 -0.030929327
0.15394042 -0.16422564 -0.030929446
0.15394042 -0.14618374 -0.030929446
0.15394042 -0.1281417 -0.030929565
0.15394042 -0.11009973 -0.030929327
0.15394042 -0.092057757 -0.030929327
0.15394042 -0.074015751 -0.030929565
0.15394042 -0.055973817 -0.030929446
0.15394136 -0.037931845 -0.030917168
0.15394042 -0.019889796 -0.030929446
0.15394042 -0.0018478669 -0.030929446
0.15394042 0.016194187 -0.030929565
0.15394042 0.034236196 -0.030929327
0.15394042 0.052278128 -0.030929327
0.15394136 0.07032074 -0.030917287
0.15393949 0.088361472 -0.030941606
0.15393949 0.10640338 -0.030941606
0.15394136 0.124447 -0.030917168
0.15394136 0.14248902 -0.030917168
0.15394136 0.16053103 -0.030917168
0.15394136 0.17857324 -0.030917168
0.15394042 0.19661392 -0.030929327
0.15394042 0.21465603 -0.030929565
0.15394042 0.23269793 -0.030929327
0.15394136 0.25074145 -0.030917168
0.15394042 0.26878196 -0.030929327
0.15394042 0.28682399 -0.030929327
0.15394042 0.30486602 -0.030929446
0.15394136 0.32290983 -0.030917168
0.15394042 0.34094986 -0.030929327
0.15394042 0.35899189 -0.030929565
0.15394136 0.37703606 -0.030917168
0.15394136 0.39507815 -0.030917168
0.15394136 0.4131203 -0.030917168
0.15394136 0.43116227 -0.030917168
0.15394136 0.44920436 -0.030917168
0.15394042 0.46724376 -0.030929446
0.15393949 0.48528317 -0.030941606
0.15393855 0.50332218 -0.030953765
0.15393855 0.52136397 -0.030953765
0.15393855 0.53940582 -0.030953765
0.15393855 0.55744755 -0.030954003
0.15393949 0.57549268 -0.030941606
0.17301777 -0.74524003 -0.018702507
0.17301777 -0.72710389 -0.018702507
0.17301777 -0.70896786 -0.018702388
0.17301881 -0.69083512 -0.01868999
0.1729812 -0.67257935 -0.019134164
0.1729812 -0.65444654 -0.019134045
0.1729812 -0.63631368 -0.019134283
0.1729812 -0.61818087 -0.019134283
0.1729812 -0.60004818 -0.019134283
0.17297913 -0.58190966 -0.01915884
0.17297807 -0.56377429 -0.019171119
0.17298016 -0.54564703 -0.019146681
0.1729812 -0.52751702 -0.019134164
0.17298226 -0.50938672 -0.019122005
0.1729812 -0.49125147 -0.019134164
0.1729812 -0.47311863 -0.019134283
-0.28019363 -0.45474795 -0.02047801
0.17298226 -0.45498806 -0.019122005
-0.28019628 -0.43662965 -0.020453334
0.17298226 -0.4368552 -0.019121885
-0.28019762 -0.41850904 -0.020441055
0.17298226 -0.41872227 -0.019121885
-0.28020027 -0.40039015 -0.020416498
0.1729812 -0.40058759 -0.019134164
-0.28020158 -0.38226905 -0.0204041
0.1729812 -0.38245472 -0.019134164
-0.28020158 -0.36414599 -0.0204041
0.1729812 -0.36432198 -0.019134283
-0.28020158 -0.34602302 -0.0204041
0.17298016 -0.34618759 -0.019146442
-0.28020158 -0.32789993 -0.0204041
0.17298016 -0.3280549 -0.019146442
-0.28020158 -0.30977696 -0.0204041
0.17298016 -0.30992213 -0.019146562
-0.28020158 -0.29165396 -0.0204041
0.17298226 -0.29179212 -0.019121885
-0.28019363 -0.27352351 -0.02047801
0.1729812 -0.27365798 -0.019134164
-0.28019363 -0.2554011 -0.02047801
0.1729812 -0.25552523 -0.019134283
-0.28019363 -0.23727864 -0.02047801
0.1729812 -0.23739243 -0.019134164
-0.28019363 -0.21915621 -0.02047801
0.1729812 -0.21925969 -0.019134164
-0.28019363 -0.20103382 -0.02047801
0.1729812 -0.20112695 -0.019134164
-0.28019363 -0.18291137 -0.02047801
0.1729812 -0.1829941 -0.019134164
-0.28019363 -0.16478893 -0.02047801
0.1729812 -0.16486128 -0.019134283
-0.27983162 -0.14651129 -0.02383697
0.1729812 -0.1467285 -0.019134283
-0.27983162 -0.12841471 -0.02383697
0.1729812 -0.12859575 -0.019134283
-0.27983162 -0.11031812 -0.02383709
0.1729812 -0.11046295 -0.019134283
-0.28019363 -0.092299134 -0.02047801
0.1729812 -0.092330173 -0.019134164
-0.28019363 -0.074176662 -0.02047801
0.1729812 -0.074197352 -0.019134164
-0.28019363 -0.056054235 -0.02047801
0.1729812 -0.056064621 -0.019134164
-0.28019363 -0.037931845 -0.02047801
0.17298226 -0.037931766 -0.019121885
-0.28019363 -0.019809339 -0.02047801
0.1729812 -0.019799072 -0.019134164
-0.28019363 -0.001686912 -0.02047801
0.17298226 -0.0016660579 -0.019121766
-0.28019363 0.016435478 -0.02047801
0.1729812 0.016466599 -0.019134283
-0.28019497 0.034558382 -0.020465732
0.1729812 0.034599412 -0.019134283
-0.28019497 0.052680854 -0.020465732
0.1729812 0.052732144 -0.019134164
-0.28019628 0.070804 -0.020453334
0.1729812 0.070864916 -0.019134164
-0.28020027 0.088928625 -0.020416379
0.17298016 0.088997096 -0.019146562
-0.28020293 0.10705309 -0.020391822
0.1729812 0.10713048 -0.019134164
-0.28020558 0.12517783 -0.020367146
0.17298226 0.12526414 -0.019121766
-0.28020692 0.14330214 -0.020354748
0.17298226 0.14339697 -0.019121885
-0.28020692 0.16142549 -0.020354748
0.17298226 0.16152987 -0.019121885
-0.28020692 0.17954883 -0.020354748
0.17298226 0.17966281 -0.019121885
-0.28020692 0.19767226 -0.020354867
0.1729812 0.19779438 -0.019134283
-0.28020692 0.21579573 -0.020354867
0.1729812 0.21592727 -0.019134164
-0.28020692 0.23391908 -0.020354748
0.1729812 0.23406002 -0.019134164
-0.28020692 0.25204241 -0.020354748
0.17298226 0.25219432 -0.019121766
-0.28020692 0.27016577 -0.020354748
0.1729812 0.27032551 -0.019134164
-0.28020692 0.28828916 -0.020354867
0.1729812 0.28845838 -0.019134045
-0.28020692 0.3064127 -0.020354748
0.1729812 0.30659112 -0.019134045
-0.28020692 0.324536 -0.020354867
0.17298226 0.32472587 -0.019121885
-0.28020692 0.34265938 -0.020354748
0.1729812 0.34285665 -0.019134283
-0.28020692 0.36078268 -0.020354748
0.17298226 0.36099151 -0.019121885
-0.28020692 0.37890625 -0.020354867
0.17298226 0.37912443 -0.019121766
-0.28020424 0.39702493 -0.020379424
0.17298226 0.39725739 -0.019121885
-0.28020158 0.41514343 -0.0204041
0.17298226 0.4153901 -0.019121885
-0.28020027 0.43326405 -0.020416498
0.17298226 0.43352312 -0.019121885
-0.28020158 0.45138955 -0.0204041
0.17298226 0.45165598 -0.019121885
-0.28020293 0.46951517 -0.020391703
0.1729812 0.4697862 -0.019134164
-0.28020424 0.48764095 -0.020379424
0.17298016 0.48791632 -0.019146442
-0.28020558 0.50576699 -0.020367146
0.17297913 0.50604612 -0.01915884
-0.28020027 0.52387863 -0.020416498
0.17297913 0.52417874 -0.019158959
-0.28020027 0.54200155 -0.020416379
0.17297913 0.54231119 -0.01915884
-0.28020027 0.56012446 -0.020416379
0.17297913 0.560444 -0.01915884
-0.28019628 0.57823765 -0.020453453
0.17298016 0.57857978 -0.019146442
0.19221461 -0.65756488 -0.0072197914
0.19221461 -0.63934046 -0.0072196722
0.19221461 -0.62111592 -0.0072196722
0.19221461 -0.60289139 -0.0072196722
0.19221231 -0.58466107 -0.0072445869
0.19221115 -0.56643409 -0.0072569847
0.19221231 -0.54821253 -0.0072445869
0.19221461 -0.52999336 -0.0072196722
0.19221461 -0.51176888 -0.0072196722
0.19221461 -0.4935444 -0.0072196722
-0.24480806 -0.47458908 -0.011175513
0.19221346 -0.4753176 -0.0072321892
0.19221461 -0.45709541 -0.0072196722
0.19221577 -0.43887299 -0.0072072744
0.19221461 -0.42064637 -0.0072197914
0.19221461 -0.40242189 -0.0072197914
0.19221461 -0.38419735 -0.0072196722
0.19221461 -0.36597294 -0.0072196722
0.19221346 -0.34774673 -0.0072321892
0.19221231 -0.32952079 -0.0072445869
0.19221346 -0.31129789 -0.00723207
0.19221577 -0.29307622 -0.0072072744
0.19221461 -0.27485034 -0.0072197914
0.19221461 -0.25662583 -0.0072196722
0.19221461 -0.2384014 -0.0072196722
0.19221461 -0.22017686 -0.0072196722
0.19221461 -0.20195238 -0.0072196722
0.19221461 -0.18372782 -0.0072196722
0.19221461 -0.16550334 -0.0072196722
0.19221461 -0.14727879 -0.0072196722
0.19221461 -0.12905429 -0.0072196722
0.19221461 -0.11082976 -0.0072196722
0.19221461 -0.092605338 -0.0072196722
