ply
format ascii 1.0
comment PCL generated
element vertex 1372
property float x
property float y
property float z
element camera 0
property float view_px
property float view_py
property float view_pz
property float x_axisx
property float x_axisy
property float x_axisz
property float y_axisx
property float y_axisy
property float y_axisz
property float z_axisx
property float z_axisy
property float z_axisz
property float focal
property float scalex
property float scaley
property float centerx
property float centery
property int viewportx
property int viewporty
property float k1
property float k2
end_header
0.16282994 0.26602143 -0.083833337
-0.25862509 0.28390762 -0.087489069
0.16282994 0.28435785 -0.083833337
-0.25862509 0.30221573 -0.087489009
0.16282994 0.30269417 -0.083833337
-0.25862509 0.32052407 -0.087489069
0.16282994 0.3210305 -0.083833277
-0.25862509 0.33883229 -0.08748889
0.16282994 0.33936694 -0.083833337
-0.25862509 0.35714048 -0.087489009
0.16282994 0.3577033 -0.083833337
-0.25862509 0.37544885 -0.087489069
0.16282994 0.37603959 -0.083833337
0.18247718 -0.37762398 -0.071669877
0.18247718 -0.35919398 -0.071669936
0.18247718 -0.34076408 -0.071669817
0.18247718 -0.32233402 -0.071669817
0.18247718 -0.30390403 -0.071669877
0.18247718 -0.28547394 -0.071669877
0.18247718 -0.26704395 -0.071669877
0.18247718 -0.24861397 -0.071669936
0.18247718 -0.230184 -0.071669817
0.18247718 -0.21175402 -0.071669817
0.18247718 -0.19332403 -0.071669877
0.18247718 -0.17489395 -0.071669877
0.18247718 -0.15646397 -0.071669877
0.18247718 -0.13803406 -0.071669817
0.18247718 -0.11960402 -0.071669817
0.18247718 -0.10117403 -0.071669817
0.18247718 -0.08274404 -0.071669877
0.18247718 -0.064313963 -0.071669817
0.18247718 -0.045883931 -0.071669877
0.18247718 -0.027454074 -0.071669817
0.18247718 -0.0090239551 -0.071669817
0.18247718 0.009406033 -0.071669817
0.18247718 0.027836021 -0.071669877
0.18247718 0.046266053 -0.071669877
0.18247718 0.064696081 -0.071669877
0.18247718 0.083125986 -0.071669817
0.18247718 0.10155602 -0.071669817
0.18247718 0.11998601 -0.071669817
0.18247718 0.13841599 -0.071669877
0.18247718 0.15684608 -0.071669877
0.18247718 0.17527606 -0.071669877
0.18247718 0.19370596 -0.071669817
0.18247718 0.21213605 -0.071669817
0.18247718 0.23056602 -0.071669817
0.18247718 0.24899602 -0.071669877
0.18247718 0.2674261 -0.071669877
0.18247718 0.28585589 -0.071669817
0.18247718 0.30428597 -0.071669817
0.18247718 0.322716 -0.071669817
0.18247718 0.34114596 -0.071669877
0.18247718 0.35957599 -0.071669877
0.18247718 0.37800607 -0.071669817
-0.27981934 -0.38043588 -0.053406477
0.20232746 -0.37951773 -0.059369862
-0.27981934 -0.36186525 -0.053406417
0.20232746 -0.36099309 -0.059369802
-0.27981934 -0.34329465 -0.053406417
0.20232746 -0.34246829 -0.059369862
-0.27981934 -0.32472405 -0.053406417
0.20232746 -0.32394356 -0.059369981
-0.27981934 -0.30615345 -0.053406298
0.20232746 -0.305419 -0.059369862
-0.27981934 -0.28758293 -0.053406417
0.20232746 -0.28689423 -0.059369981
-0.27981934 -0.26901233 -0.053406298
0.20232746 -0.26836959 -0.059369862
-0.27981934 -0.25044176 -0.053406298
0.20232746 -0.24984485 -0.059369981
-0.27981934 -0.23187114 -0.053406298
0.20232746 -0.2313202 -0.059369862
-0.27981934 -0.21330051 -0.053406239
0.20232746 -0.21279545 -0.059369862
-0.27981934 -0.19472998 -0.053406298
0.20232746 -0.1942708 -0.059369802
-0.27981934 -0.17615938 -0.053406298
0.20232746 -0.17574614 -0.059369981
-0.27981934 -0.15758871 -0.053406417
0.20232746 -0.1572215 -0.059369862
-0.27981934 -0.13901809 -0.053406417
0.20232746 -0.13869676 -0.059369981
-0.27981934 -0.1204475 -0.053406417
0.20232746 -0.12017212 -0.059369802
-0.27981934 -0.10187697 -0.053406417
0.20232746 -0.10164736 -0.059369862
-0.27981934 -0.08330638 -0.053406417
0.20232746 -0.083122715 -0.059369802
-0.27981934 -0.064735807 -0.053406417
0.20232746 -0.064597957 -0.059369862
-0.27981934 -0.046165187 -0.053406298
0.20232746 -0.046073422 -0.059369862
-0.27981934 -0.02759457 -0.053406298
0.20232746 -0.027548667 -0.059369981
-0.27981934 -0.0090240426 -0.053406417
0.20232746 -0.0090239989 -0.059369862
-0.27981934 0.0095465286 -0.053406417
0.20232746 0.0095007131 -0.059369981
-0.27981934 0.028117191 -0.053406298
0.20232746 0.028025381 -0.059369802
-0.27981934 0.046687763 -0.053406298
0.20232746 0.04655014 -0.059369862
0.20232746 0.065074757 -0.059369802
-0.27981934 0.065258376 -0.053406239
-0.27981934 0.083828904 -0.053406298
0.20232746 0.083599515 -0.059369862
-0.27981934 0.10239957 -0.053406417
0.20232746 0.10212409 -0.059369862
-0.27981934 0.12097018 -0.053406417
0.20232746 0.12064881 -0.059369981
0.20232746 0.13917348 -0.059369802
-0.27981934 0.13954081 -0.053406417
-0.27981934 0.15811138 -0.053406298
0.20232746 0.1576982 -0.059369862
-0.27981934 0.17668191 -0.053406417
0.20232746 0.17622286 -0.059369802
-0.27981934 0.19525254 -0.053406417
0.20232746 0.19474761 -0.059369862
0.20232746 0.21327224 -0.059369802
-0.27981934 0.21382311 -0.053406417
-0.27981934 0.23239373 -0.053406298
0.20232746 0.23179691 -0.059369981
-0.27981934 0.25096431 -0.053406298
0.20232746 0.25032166 -0.059369802
-0.27981934 0.26953483 -0.053406298
0.20232746 0.2688463 -0.059369981
0.20232746 0.28737086 -0.059369862
-0.27981934 0.28810555 -0.053406239
-0.27981934 0.30667603 -0.053406298
0.20232746 0.30589572 -0.059369862
-0.27981934 0.32524657 -0.053406298
0.20232746 0.3244203 -0.059369862
-0.27981934 0.34381726 -0.053406239
0.20232746 0.34294513 -0.059369862
0.20232746 0.36146969 -0.059369862
-0.27981934 0.3623879 -0.053406417
-0.27981934 0.38095856 -0.053406417
0.20232746 0.37999448 -0.059369862
0.22238275 -0.38143092 -0.04694289
0.22238275 -0.36281058 -0.04694289
0.22238275 -0.34419027 -0.04694289
0.22238275 -0.32556993 -0.04694283
0.22238275 -0.30694959 -0.04694289
0.22238275 -0.28832918 -0.04694283
0.22238275 -0.26970884 -0.04694283
0.22238275 -0.25108859 -0.04694283
0.22238275 -0.23246825 -0.046942711
0.22238275 -0.21384786 -0.04694283
0.22238275 -0.19522752 -0.04694283
0.22238275 -0.17660701 -0.04694289
0.22238275 -0.15798678 -0.04694289
0.22238275 -0.13936643 -0.04694289
0.22238275 -0.1207461 -0.04694289
0.22238275 -0.10212571 -0.04694283
0.22238275 -0.083505437 -0.04694289
0.22238275 -0.064885095 -0.04694289
0.22238275 -0.046264727 -0.04694283
0.22238275 -0.027644362 -0.04694283
0.22238275 -0.0090240426 -0.046942711
0.22238275 0.0095962761 -0.046942711
0.22238275 0.028216731 -0.04694289
0.22238275 0.04683705 -0.04694289
0.22238275 0.065457456 -0.04694289
0.22238275 0.084077775 -0.04694283
0.22238275 0.10269805 -0.04694289
0.22238275 0.12131841 -0.04694283
0.22238275 0.13993879 -0.04694289
0.22238275 0.15855914 -0.04694283
0.22238275 0.17717949 -0.046942711
0.22238275 0.19579977 -0.04694283
0.22238275 0.21442015 -0.046942711
0.22238275 0.23304059 -0.04694289
0.22238275 0.25166094 -0.04694289
0.22238275 0.27028129 -0.04694289
0.22238275 0.28890169 -0.04694283
0.22238275 0.307522 -0.04694283
0.22238275 0.32614237 -0.04694283
0.22238275 0.34476256 -0.04694289
0.22238275 0.36338294 -0.04694289
0.22238275 0.38200331 -0.04694283
0.2426447 -0.38336226 -0.034398735
0.26311955 -0.38531554 -0.021711707
0.26311955 -0.36650103 -0.021711826
0.2426447 -0.36464539 -0.034398675
0.2426447 -0.34592846 -0.034398675
0.26311955 -0.34768641 -0.021711707
0.2426447 -0.3272115 -0.034398735
0.26311955 -0.32887176 -0.021711826
0.2426447 -0.30849466 -0.034398675
0.26311955 -0.31005722 -0.021711826
0.26311955 -0.2912426 -0.021711826
0.2426447 -0.28977761 -0.034398735
0.2426447 -0.27106082 -0.034398735
0.26311955 -0.2724281 -0.021711886
0.2426447 -0.25234389 -0.034398675
0.26311955 -0.25361356 -0.021711648
0.2426447 -0.23362695 -0.034398735
0.26311955 -0.23479894 -0.021711707
0.2426447 -0.21491009 -0.034398735
0.26311955 -0.21598437 -0.021711707
0.2426447 -0.19619314 -0.034398556
0.26311955 -0.1971698 -0.021711707
0.2426447 -0.17747621 -0.034398854
0.26311955 -0.17835525 -0.021711826
0.2426447 -0.15875927 -0.034398675
0.26311955 -0.15954062 -0.021711826
0.2426447 -0.14004247 -0.034398675
0.26311955 -0.140726 -0.021711826
0.2426447 -0.12132544 -0.034398675
0.26311955 -0.12191146 -0.021711826
0.2426447 -0.10260859 -0.034398675
0.26311955 -0.10309688 -0.021711826
0.2426447 -0.083891734 -0.034398675
0.26311955 -0.084282249 -0.021711826
0.2426447 -0.065174699 -0.034398735
0.26311955 -0.065467797 -0.021711648
0.2426447 -0.046457842 -0.034398675
0.26311955 -0.046653166 -0.021711648
0.2426447 -0.027740855 -0.034398735
0.26311955 -0.027838629 -0.021711826
0.26311955 -0.0090240426 -0.021711707
0.2426447 -0.0090239989 -0.034398675
0.2426447 0.0096928133 -0.034398675
0.26311955 0.0097905854 -0.021711707
0.2426447 0.028409846 -0.034398735
0.26311955 0.028605171 -0.021711826
0.2426447 0.047126699 -0.034398675
0.26311955 0.047419798 -0.021711826
0.2426447 0.065843642 -0.034398675
0.26311955 0.06623438 -0.021711826
0.2426447 0.084560588 -0.034398735
0.26311955 0.085048921 -0.021711826
0.2426447 0.10327753 -0.034398675
0.26311955 0.10386346 -0.021711648
0.2426447 0.12199438 -0.034398675
0.26311955 0.122678 -0.021711707
0.2426447 0.14071132 -0.034398735
0.26311955 0.14149259 -0.021711707
0.2426447 0.15942824 -0.034398675
0.26311955 0.16030721 -0.021711707
0.2426447 0.17814505 -0.034398556
0.26311955 0.17912176 -0.021711707
0.2426447 0.1968621 -0.034398675
0.26311955 0.19793639 -0.021711707
0.2426447 0.21557893 -0.034398675
0.26311955 0.2167509 -0.021711826
0.2426447 0.23429596 -0.034398675
0.26311955 0.23556553 -0.021711826
0.2426447 0.25301275 -0.034398735
0.26311955 0.25438014 -0.021711826
0.2426447 0.27172968 -0.034398675
0.26311955 0.27319476 -0.021711826
0.2426447 0.2904467 -0.034398675
0.26311955 0.29200915 -0.021711648
0.2426447 0.3091636 -0.034398675
0.26311955 0.31082377 -0.021711707
0.2426447 0.32788041 -0.034398675
0.26311955 0.32963839 -0.021711707
0.2426447 0.34659743 -0.034398735
0.26311955 0.34845302 -0.021711707
0.2426447 0.3653143 -0.034398675
0.26311955 0.36726764 -0.021711707
0.2426447 0.38403112 -0.034398675
0.26311955 0.38608208 -0.021711826
-0.3016299 -0.38583577 -0.018332779
0.28380924 -0.38728932 -0.0088917017
-0.3016299 -0.36699522 -0.01833266
0.28380924 -0.36837608 -0.0088916421
-0.3016299 -0.34815463 -0.01833266
0.28380924 -0.34946275 -0.0088917017
-0.3016299 -0.32931408 -0.018332601
0.28380924 -0.3305496 -0.0088916421
-0.3016299 -0.31047344 -0.018332779
0.28380924 -0.31163627 -0.0088917017
-0.3016299 -0.29163286 -0.01833266
0.28380924 -0.29272303 -0.0088916421
-0.3016299 -0.27279228 -0.01833266
0.28380924 -0.27380976 -0.0088918209
-0.3016299 -0.25395176 -0.018332601
0.28380924 -0.25489649 -0.0088917017
-0.3016299 -0.2351111 -0.01833266
0.28380924 -0.23598316 -0.0088917017
0.28380924 -0.21706998 -0.0088916421
-0.3016299 -0.21627051 -0.01833266
-0.3016299 -0.19742996 -0.01833266
0.28380924 -0.19815665 -0.0088917017
-0.3016299 -0.17858927 -0.018332779
0.28380924 -0.1792434 -0.0088916421
-0.3016299 -0.15974873 -0.01833266
0.28380924 -0.16033013 -0.0088918209
-0.3016299 -0.14090817 -0.01833266
0.28380924 -0.14141689 -0.0088917017
-0.3016299 -0.12206753 -0.018332481
0.28380924 -0.12250358 -0.0088918209
-0.3016299 -0.1032269 -0.01833266
0.28380924 -0.1035904 -0.0088917017
-0.3016299 -0.084386341 -0.01833266
0.28380924 -0.084677048 -0.0088918209
-0.3016299 -0.065545775 -0.01833266
0.28380924 -0.065763809 -0.0088917017
-0.3016299 -0.046705078 -0.01833266
0.28380924 -0.04685048 -0.0088917017
-0.3016299 -0.02786456 -0.01833266
0.28380924 -0.027937282 -0.0088917017
-0.3016299 -0.0090239989 -0.01833266
0.28380924 -0.0090239551 -0.0088918209
-0.3016299 0.0098165637 -0.018332601
0.28380924 0.0098892851 -0.0088917017
-0.3016299 0.028657258 -0.01833266
0.28380924 0.02880257 -0.0088918209
-0.3016299 0.047497779 -0.01833266
0.28380924 0.047715809 -0.0088917017
-0.3016299 0.066338338 -0.01833266
0.28380924 0.066629134 -0.0088917017
-0.3016299 0.085178941 -0.018332601
0.28380924 0.085542291 -0.0088917017
-0.3016299 0.1040196 -0.01833266
0.28380924 0.10445566 -0.0088917017
-0.3016299 0.12286011 -0.01833266
0.28380924 0.1233689 -0.0088917017
-0.3016299 0.14170069 -0.01833266
0.28380924 0.14228205 -0.0088917017
-0.3016299 0.16054137 -0.01833266
0.28380924 0.16119543 -0.0088917017
-0.3016299 0.17938194 -0.01833266
0.28380924 0.18010867 -0.0088916421
-0.3016299 0.19822246 -0.01833266
0.28380924 0.19902191 -0.0088917017
-0.3016299 0.21706302 -0.018332601
0.28380924 0.21793523 -0.0088916421
-0.3016299 0.23590371 -0.01833266
0.28380924 0.23684844 -0.0088917017
-0.3016299 0.25474426 -0.01833266
0.28380924 0.25576168 -0.0088917017
-0.3016299 0.27358481 -0.01833266
0.28380924 0.27467501 -0.0088917017
-0.3016299 0.29242548 -0.018332779
0.28380924 0.29358825 -0.0088917017
-0.3016299 0.31126606 -0.01833266
0.28380924 0.31250161 -0.0088917017
-0.3016299 0.33010659 -0.01833266
0.28380924 0.33141485 -0.0088916421
-0.3016299 0.34894717 -0.01833266
0.28380924 0.35032806 -0.0088918209
-0.3016299 0.36778784 -0.018332779
0.28380924 0.3692413 -0.0088917017
-0.3016299 0.38662839 -0.01833266
0.28380924 0.38815463 -0.0088917017
0.30471709 -0.38928393 0.0040636063
0.30471709 -0.37027094 0.0040636063
0.30471709 -0.35125798 0.0040636063
0.30471709 -0.3322449 0.0040634274
0.30471709 -0.31323192 0.0040634871
0.30471709 -0.2942189 0.0040634871
0.30471709 -0.275206 0.0040634871
0.30471709 -0.25619298 0.0040636063
0.30471709 -0.23718001 0.0040636063
0.30471709 -0.21816689 0.0040634274
0.30471709 -0.19915397 0.0040634274
0.30471709 -0.18014096 0.0040634871
0.30471709 -0.161128 0.0040636063
0.30471709 -0.14211498 0.0040636063
0.30471709 -0.12310201 0.0040636063
0.30471709 -0.10408896 0.0040634274
0.30471709 -0.08507596 0.0040634871
0.30471709 -0.066062957 0.0040634871
0.30471709 -0.047049955 0.0040636063
0.30471709 -0.028037045 0.0040636063
0.30471709 -0.0090240426 0.0040636063
0.30471709 0.0099890465 0.0040634274
0.30471709 0.029002048 0.0040634871
0.30471709 0.048014961 0.0040634871
0.30471709 0.067027956 0.0040636063
0.30471709 0.086040959 0.0040636063
0.30471709 0.10505396 0.0040636063
0.30471709 0.12406696 0.0040634274
0.30471709 0.14307997 0.0040634871
0.30471709 0.16209297 0.0040634871
0.30471709 0.18110597 0.0040636063
0.30471709 0.20011897 0.0040636063
0.30471709 0.21913189 0.0040636063
0.30471709 0.23814502 0.0040634274
0.30471709 0.25715798 0.0040634871
0.30471709 0.276171 0.0040636063
0.30471709 0.29518399 0.0040636063
0.30471709 0.314197 0.0040636063
0.30471709 0.33320984 0.0040636063
0.30471709 0.35222283 0.0040636063
0.30471709 0.37123594 0.0040634274
0.30471709 0.39024892 0.0040636063
-0.32408279 -0.39139318 0.017763615
0.32584459 -0.3912977 0.017143607
-0.32408279 -0.3722747 0.017763495
0.32584459 -0.3721841 0.017143726
-0.32408279 -0.35315627 0.017763495
0.32584459 -0.35307035 0.017143607
-0.32408279 -0.33403781 0.017763495
0.32584459 -0.33395666 0.017143607
-0.32408279 -0.31491932 0.017763495
0.32584459 -0.31484303 0.017143846
-0.32408279 -0.29580086 0.017763376
0.32584459 -0.29572934 0.017143726
-0.32408279 -0.27668238 0.017763495
0.32584459 -0.27661565 0.017143607
-0.32408279 -0.25756401 0.017763615
0.32584459 -0.25750193 0.017143607
-0.32408279 -0.23844557 0.017763615
0.32584459 -0.23838824 0.017143846
-0.32408279 -0.21932709 0.017763615
0.32584459 -0.21927455 0.017143726
-0.32408279 -0.20020863 0.017763495
0.32584459 -0.20016082 0.017143607
-0.32408279 -0.18109015 0.017763615
0.32584459 -0.18104722 0.017143726
-0.32408279 -0.16197169 0.017763495
0.32584459 -0.16193348 0.017143607
-0.32408279 -0.1428532 0.017763495
0.32584459 -0.14281979 0.017143607
-0.32408279 -0.12373479 0.017763376
0.32584459 -0.12370621 0.017143846
-0.32408279 -0.10461631 0.017763495
0.32584459 -0.10459245 0.017143726
-0.32408279 -0.085497849 0.017763376
0.32584459 -0.08547876 0.017143607
-0.32408279 -0.066379383 0.017763615
0.32584459 -0.066365026 0.017143726
-0.32408279 -0.047260921 0.017763615
0.32584459 -0.047251377 0.017143846
-0.32408279 -0.02814246 0.017763615
0.32584459 -0.028137688 0.017143726
-0.32408279 -0.0090239989 0.017763615
0.32584459 -0.0090239989 0.017143607
-0.32408279 0.010094463 0.017763615
0.32584459 0.010089648 0.017143726
-0.32408279 0.029212926 0.017763615
0.32584459 0.029203337 0.017143726
-0.32408279 0.048331428 0.017763615
0.32584459 0.048317071 0.017143726
-0.32408279 0.06744989 0.017763615
0.32584459 0.067430757 0.017143607
-0.32408279 0.086568348 0.017763495
0.32584459 0.086544357 0.017143726
-0.32408279 0.10568676 0.017763495
0.32584459 0.10565809 0.017143726
-0.32408279 0.12480526 0.017763376
0.32584459 0.12477187 0.017143607
-0.32408279 0.14392366 0.017763615
0.32584459 0.14388548 0.017143846
-0.32408279 0.16304211 0.017763615
0.32584459 0.16299921 0.017143726
-0.32408279 0.18216057 0.017763615
0.32584459 0.1821129 0.017143607
-0.32408279 0.20127903 0.017763615
0.32584459 0.20122659 0.017143846
-0.32408279 0.22039758 0.017763615
0.32584459 0.22034024 0.017143726
-0.32408279 0.23951596 0.017763495
0.32584459 0.23945402 0.017143846
-0.32408279 0.25863451 0.017763615
0.32584459 0.25856766 0.017143607
-0.32408279 0.27775294 0.017763376
0.32584459 0.27768135 0.017143846
-0.32408279 0.29687145 0.017763495
0.32584459 0.29679498 0.017143726
-0.32408279 0.31598982 0.017763376
0.32584459 0.31590876 0.017143607
-0.32408279 0.33510825 0.017763734
0.32584459 0.33502227 0.017143726
-0.32408279 0.35422668 0.017763615
0.32584459 0.35413608 0.017143846
-0.32408279 0.37334523 0.017763615
0.32584459 0.37324971 0.017143607
0.3471992 -0.37411949 0.030375719
0.3471992 -0.35490391 0.030375719
0.3471992 -0.33568829 0.030375719
0.3471992 -0.31647271 0.030375719
0.3471992 -0.29725724 0.030375719
0.3471992 -0.27804169 0.030375719
0.3471992 -0.25882608 0.030375719
0.3471992 -0.23961058 0.0303756
0.3471992 -0.22039506 0.030375719
0.3471992 -0.20117949 0.030375719
0.3471992 -0.18196395 0.0303756
0.3471992 -0.16274841 0.030375719
0.3471992 -0.14353284 0.030375719
0.3471992 -0.12431723 0.030375719
0.3471992 -0.10510173 0.030375719
0.3471992 -0.085886195 0.030375719
0.3471992 -0.066670626 0.030375719
0.3471992 -0.047455095 0.030375719
0.3471992 -0.028239481 0.030375719
0.3471992 -0.0090239989 0.030375719
0.3471992 0.010191527 0.030375719
0.3471992 0.029407099 0.030375719
0.3471992 0.048622627 0.030375719
0.3471992 0.067838192 0.030375719
0.3471992 0.087053724 0.030375719
0.3471992 0.10626929 0.030375719
0.3471992 0.12548482 0.030375719
0.3471992 0.1447003 0.030375719
0.3471992 0.16391592 0.030375719
0.3471992 0.18313155 0.030375719
0.3471992 0.20234698 0.030375719
0.3471992 0.22156259 0.030375719
0.3471992 0.24077816 0.030375719
0.3471992 0.2599937 0.030375838
0.3471992 0.27920926 0.030375838
0.3471992 0.29842469 0.030375719
0.3471992 0.3176403 0.030375719
0.3471992 0.3368558 0.030375719
0.3471992 0.35607138 0.030375719
0.3471992 0.375287 0.030375719
0.36878264 -0.37607542 0.043749452
0.36878264 -0.35675693 0.043749452
0.36878264 -0.33743843 0.043749452
0.36878264 -0.31812006 0.043749571
0.36878264 -0.29880154 0.043749571
0.36878264 -0.27948305 0.043749571
0.36878264 -0.26016453 0.04374969
0.36878264 -0.24084602 0.04374969
0.36878264 -0.22152759 0.043749571
0.36878264 -0.20220904 0.043749571
0.36878264 -0.18289053 0.043749571
0.36878264 -0.16357201 0.04374969
0.36878264 -0.14425349 0.04374969
0.36878264 -0.12493508 0.043749571
0.36878264 -0.10561657 0.043749571
0.36878264 -0.086298056 0.043749571
0.36878264 -0.066979535 0.043749571
0.36878264 -0.047661025 0.04374969
0.36878264 -0.028342597 0.043749571
0.36878264 -0.0090240873 0.043749571
0.36878264 0.010294425 0.043749571
0.36878264 0.02961294 0.043749571
0.36878264 0.048931498 0.043749571
0.36878264 0.068249919 0.043749571
0.36878264 0.087568432 0.043749571
0.36878264 0.10688695 0.043749571
0.36878264 0.12620546 0.043749571
0.36878264 0.14552398 0.043749571
0.36878264 0.16484246 0.043749571
0.36878264 0.18416096 0.043749571
0.36878264 0.20347951 0.04374969
0.36878264 0.22279795 0.043749571
0.36878264 0.24211642 0.043749452
0.36878264 0.26143497 0.04374969
0.36878264 0.28075343 0.043749571
0.36878264 0.30007204 0.04374969
0.36878264 0.31939048 0.043749571
0.36878264 0.33870891 0.043749452
0.36878264 0.35802752 0.04374969
0.36878264 0.37734595 0.043749571
-0.34720927 -0.37771416 0.054953218
0.39059624 -0.37805071 0.057254434
-0.34720927 -0.35830939 0.054953218
0.39059624 -0.35862824 0.057254553
-0.34720927 -0.33890459 0.054953218
0.39059624 -0.33920586 0.057254553
-0.34720927 -0.31949994 0.054953218
0.39059624 -0.31978339 0.057254672
-0.34720927 -0.30009514 0.054953218
0.39059624 -0.30036089 0.057254553
-0.34720927 -0.28069046 0.054953218
0.39059624 -0.28093842 0.057254553
-0.34720927 -0.26128566 0.054953218
0.39059624 -0.26151597 0.057254672
-0.34720927 -0.241881 0.054953218
0.39059624 -0.24209358 0.057254672
-0.34720927 -0.2224762 0.054953218
0.39059624 -0.22267102 0.057254553
-0.34720927 -0.20307153 0.054953218
0.39059624 -0.20324855 0.057254553
-0.34720927 -0.18366669 0.054953218
0.39059624 -0.18382619 0.057254553
-0.34720927 -0.16426188 0.054953098
0.39059624 -0.16440375 0.057254672
-0.34720927 -0.14485723 0.054953218
0.39059624 -0.14498125 0.057254434
-0.34720927 -0.12545243 0.054953218
0.39059624 -0.12555878 0.057254553
-0.34720927 -0.10604777 0.054953218
0.39059624 -0.10613631 0.057254672
-0.34720927 -0.086642973 0.054953218
0.39059624 -0.086713843 0.057254434
-0.34720927 -0.067238308 0.054953218
0.39059624 -0.067291372 0.057254553
-0.34720927 -0.047833506 0.054953218
0.39059624 -0.047868896 0.057254672
-0.34720927 -0.028428752 0.054953098
0.39059624 -0.028446514 0.057254553
-0.34720927 -0.0090240426 0.054953218
0.39059624 -0.0090239551 0.057254553
-0.34720927 0.01038071 0.054953218
0.39059624 0.010398516 0.057254553
-0.34720927 0.029785421 0.054953218
0.39059624 0.0298209 0.057254553
-0.34720927 0.049190264 0.054953218
0.39059624 0.049243327 0.057254672
-0.34720927 0.06859497 0.054953218
0.39059624 0.06866584 0.057254553
-0.34720927 0.087999724 0.054953218
0.39059624 0.088088311 0.057254553
-0.34720927 0.10740452 0.054953218
0.39059624 0.10751078 0.057254672
-0.34720927 0.12680919 0.054953218
0.39059624 0.12693317 0.057254672
-0.34720927 0.14621398 0.054953218
0.39059624 0.14635573 0.057254553
-0.34720927 0.16561866 0.054953218
0.39059624 0.1657782 0.057254672
-0.34720927 0.1850235 0.054953218
0.39059624 0.18520059 0.057254672
-0.34720927 0.20442821 0.054953218
0.39059624 0.20462315 0.057254553
-0.34720927 0.22383296 0.054953218
0.39059624 0.2240456 0.057254553
-0.34720927 0.24323767 0.054953218
0.39059624 0.24346805 0.057254672
-0.34720927 0.26264244 0.054953218
0.39059624 0.26289037 0.057254553
-0.34720927 0.28204724 0.054953218
0.39059624 0.28231293 0.057254553
-0.34720927 0.30145189 0.054953218
0.39059624 0.3017354 0.057254553
-0.34720927 0.32085675 0.054953218
0.39059624 0.32115787 0.057254672
-0.34720927 0.34026134 0.054953218
0.39059624 0.34058031 0.057254672
-0.34720927 0.3596662 0.054953218
0.39059624 0.36000273 0.057254434
-0.34720927 0.37907082 0.054953218
0.39059624 0.37942526 0.057254553
0.41264838 -0.38004929 0.070918679
0.41264838 -0.36052167 0.070918679
0.41264838 -0.34099397 0.070918679
0.41264838 -0.32146639 0.070918679
0.41264838 -0.30193877 0.070918679
0.41264838 -0.28241104 0.07091856
0.41264838 -0.26288337 0.070918679
0.41264838 -0.24335574 0.070918679
0.41264838 -0.22382814 0.070918679
0.41264838 -0.20430052 0.070918798
0.41264838 -0.18477285 0.070918918
0.41264838 -0.16524516 0.070918679
0.41264838 -0.14571752 0.070918679
0.41264838 -0.12618995 0.070918679
0.41264838 -0.1066622 0.070918798
0.41264838 -0.087134622 0.070918798
0.41264838 -0.067606911 0.07091856
0.41264838 -0.048079286 0.070918679
0.41264838 -0.028551619 0.070918679
0.41264838 -0.0090239989 0.070918679
0.41264838 0.010503578 0.070918679
0.41264838 0.0300312 0.070918798
0.41264838 0.049559001 0.070918679
0.41264838 0.069086619 0.070918679
0.41264838 0.08861424 0.070918679
0.41264838 0.10814186 0.070918679
0.41264838 0.12766953 0.070918798
0.41264838 0.14719726 0.070918679
0.41264838 0.16672482 0.070918679
0.41264838 0.18625244 0.070918679
0.41264838 0.20578006 0.070918679
0.41264838 0.22530764 0.070918679
0.41264838 0.24483544 0.070918918
0.41264838 0.26436314 0.070918679
0.41264838 0.28389078 0.070918679
0.41264838 0.30341834 0.070918679
0.41264838 0.32294598 0.070918798
0.41264838 0.3424736 0.070918798
0.41264838 0.3620013 0.07091856
0.41264838 0.38152888 0.070918679
-0.37103885 -0.38331896 0.09327364
0.43494061 -0.38206962 0.084731579
0.457477 -0.38411206 0.098695874
-0.37103885 -0.36361924 0.09327364
0.43494061 -0.36243567 0.084731698
0.457477 -0.36437061 0.098695874
-0.37103885 -0.34391955 0.09327364
0.43494061 -0.3428016 0.084731579
0.457477 -0.34462911 0.098695874
-0.37103885 -0.3242197 0.09327352
0.43494061 -0.32316771 0.084731698
0.457477 -0.32488757 0.098695874
-0.37103885 -0.30451998 0.09327352
0.43494061 -0.30353364 0.084731579
0.457477 -0.30514619 0.098695874
-0.37103885 -0.28482032 0.09327352
0.43494061 -0.28389969 0.084731698
0.457477 -0.28540468 0.098695874
-0.37103885 -0.26512057 0.09327352
0.43494061 -0.26426569 0.084731579
0.457477 -0.26566318 0.098695874
-0.37103885 -0.24542087 0.09327364
0.43494061 -0.24463174 0.084731698
0.457477 -0.24592167 0.098695874
-0.37103885 -0.22572112 0.09327364
0.43494061 -0.2249977 0.084731579
0.457477 -0.2261803 0.098695874
-0.37103885 -0.2060214 0.09327364
0.43494061 -0.20536385 0.084731579
0.457477 -0.20643881 0.098695993
-0.37103885 -0.18632165 0.09327364
0.43494061 -0.18572982 0.084731579
0.457477 -0.18669724 0.098695874
-0.37103885 -0.16662192 0.09327364
0.43494061 -0.16609585 0.084731579
0.457477 -0.16695578 0.098695874
-0.37103885 -0.14692208 0.09327352
0.43494061 -0.14646184 0.084731579
0.457477 -0.14721438 0.098695874
-0.37103885 -0.12722237 0.09327364
0.43494061 -0.12682788 0.084731698
0.457477 -0.12747288 0.098695874
-0.37103885 -0.10752267 0.09327352
0.43494061 -0.10719387 0.084731579
0.457477 -0.10773138 0.098695874
-0.37103885 -0.087822914 0.09327352
0.43494061 -0.087559953 0.084731698
0.457477 -0.087989919 0.098695874
-0.37103885 -0.068123162 0.09327364
0.43494061 -0.067925893 0.084731579
0.457477 -0.068248421 0.098695755
-0.37103885 -0.048423544 0.09327364
0.43494061 -0.048291929 0.084731698
0.457477 -0.048506957 0.098695874
-0.37103885 -0.028723795 0.09327364
0.43494061 -0.02865801 0.084731579
0.457477 -0.0287655 0.098695874
-0.37103885 -0.0090240873 0.09327364
0.43494061 -0.0090240426 0.084731579
0.457477 -0.0090239989 0.098695874
-0.37103885 0.010675752 0.093273401
0.43494061 0.010610011 0.084731579
0.457477 0.01071746 0.098695874
-0.37103885 0.030375503 0.09327352
0.43494061 0.030243888 0.084731579
0.457477 0.03045892 0.098695874
-0.37103885 0.050075255 0.09327352
0.43494061 0.049877942 0.084731579
0.457477 0.050200377 0.098695874
-0.37103885 0.069774911 0.09327364
0.43494061 0.069511905 0.084731698
0.457477 0.06994196 0.098695874
-0.37103885 0.089474663 0.09327364
0.43494061 0.089145914 0.084731579
0.457477 0.089683376 0.098695874
-0.37103885 0.10917442 0.09327364
0.43494061 0.10877988 0.084731698
0.457477 0.10942479 0.098695874
-0.37103885 0.12887417 0.09327364
0.43494061 0.1284139 0.084731579
0.457477 0.12916639 0.098695874
-0.37103885 0.14857385 0.09327364
0.43494061 0.14804782 0.084731698
0.457477 0.14890775 0.098695874
-0.37103885 0.16827367 0.09327352
0.43494061 0.16768178 0.084731579
0.457477 0.1686493 0.098695874
-0.37103885 0.18797334 0.09327352
0.43494061 0.18731575 0.084731698
0.457477 0.18839072 0.098695874
-0.37103885 0.20767313 0.09327364
0.43494061 0.20694976 0.084731579
0.457477 0.20813218 0.098695874
-0.37103885 0.22737284 0.09327352
0.43494061 0.22658372 0.084731698
0.457477 0.22787377 0.098695874
-0.37103885 0.24707264 0.09327364
0.43494061 0.24621779 0.084731579
0.457477 0.24761513 0.098695874
-0.37103885 0.26677227 0.09327364
0.43494061 0.26585165 0.084731698
0.457477 0.26735678 0.098695874
-0.37103885 0.28647205 0.09327364
0.43494061 0.28548571 0.084731579
0.457477 0.2870982 0.098695874
-0.37103885 0.30617172 0.09327364
0.43494061 0.30511966 0.084731817
0.457477 0.30683956 0.098695874
-0.37103885 0.3258715 0.093273401
0.43494061 0.32475367 0.084731579
0.457477 0.32658109 0.098695993
-0.37103885 0.34557131 0.09327352
0.43494061 0.34438765 0.084731817
0.457477 0.34632257 0.098695874
-0.37103885 0.36527091 0.09327352
0.43494061 0.36402166 0.084731698
0.457477 0.3660641 0.098695874
-0.37103885 0.38497072 0.09327364
0.43494061 0.38365558 0.084731817
0.457477 0.38580552 0.098695993
0.48025867 -0.3861751 0.11280048
0.48025867 -0.36632493 0.11280036
0.48025867 -0.34647492 0.11280036
0.48025867 -0.32662487 0.1128006
0.48025867 -0.30677485 0.1128006
0.48025867 -0.28692475 0.11280048
0.48025867 -0.26707473 0.11280048
0.48025867 -0.24722467 0.1128006
0.48025867 -0.22737455 0.11280036
0.48025867 -0.20752452 0.11280048
0.48025867 -0.18767449 0.11280048
0.48025867 -0.16782451 0.1128006
0.48025867 -0.14797437 0.11280036
0.48025867 -0.12812437 0.11280048
0.48025867 -0.10827432 0.11280048
0.48025867 -0.088424221 0.11280036
0.48025867 -0.068574168 0.11280036
0.48025867 -0.048724197 0.1128006
0.48025867 -0.028874055 0.11280036
0.48025867 -0.0090239989 0.11280036
0.48025867 0.010826011 0.1128006
0.48025867 0.030676067 0.1128006
0.48025867 0.050526168 0.11280048
0.48025867 0.070376173 0.11280048
0.48025867 0.090226188 0.1128006
0.48025867 0.11007633 0.11280036
0.48025867 0.12992635 0.11280048
0.48025867 0.14977643 0.1128006
0.48025867 0.16962659 0.11280048
0.48025867 0.18947655 0.1128006
0.48025867 0.20932661 0.1128006
0.48025867 0.22917667 0.1128006
0.48025867 0.24902678 0.11280048
0.48025867 0.26887682 0.1128006
0.48025867 0.28872678 0.1128006
0.48025867 0.30857694 0.11280036
0.48025867 0.32842693 0.1128006
0.48025867 0.348277 0.1128006
0.48025867 0.36812711 0.11280048
0.48025867 0.38797709 0.11280048
0.50329536 -0.38826272 0.1270746
0.50329536 -0.36830279 0.1270746
0.50329536 -0.34834296 0.1270746
0.50329536 -0.32838303 0.1270746
0.50329536 -0.30842301 0.1270746
0.50329536 -0.28846306 0.1270746
0.50329536 -0.26850316 0.1270746
0.50329536 -0.24854319 0.1270746
0.50329536 -0.22858335 0.1270746
0.50329536 -0.20862339 0.1270746
0.50329536 -0.18866341 0.1270746
0.50329536 -0.16870347 0.1270746
0.50329536 -0.14874353 0.1270746
0.50329536 -0.12878364 0.1270746
0.50329536 -0.10882375 0.1270746
0.50329536 -0.088863693 0.1270746
0.50329536 -0.068903796 0.1270746
0.50329536 -0.048943866 0.1270746
0.50329536 -0.028983932 0.1270746
0.50329536 -0.0090239989 0.1270746
0.50329536 0.010935935 0.1270746
0.50329536 0.03089587 0.1270746
0.50329536 0.050855801 0.1270746
0.50329536 0.070815735 0.1270746
0.50329536 0.090775661 0.1270746
0.50329536 0.1107356 0.1270746
0.50329536 0.13069558 0.1270746
0.50329536 0.15065555 0.1270746
0.50329536 0.17061551 0.1270746
0.50329536 0.19057529 0.1270746
0.50329536 0.21053523 0.1270746
0.50329536 0.23049524 0.1270746
0.50329536 0.25045517 0.1270746
0.50329536 0.27041513 0.1270746
0.50329536 0.29037499 0.1270746
0.50329536 0.31033498 0.1270746
0.50329536 0.33029488 0.12707472
0.50329536 0.35025489 0.1270746
0.50329536 0.37021488 0.1270746
0.50329536 0.39017481 0.1270746
-0.39560416 -0.38909686 0.13277698
0.52658844 -0.3903738 0.14150774
-0.39560416 -0.369093 0.13277698
0.52658844 -0.37030277 0.14150763
0.52658844 -0.35023168 0.14150763
-0.39560416 -0.34908918 0.13277686
-0.39560416 -0.32908526 0.13277698
0.52658844 -0.33016065 0.14150751
-0.39560416 -0.30908144 0.13277686
0.52658844 -0.31008965 0.14150763
-0.39560416 -0.28907776 0.13277698
0.52658844 -0.29001859 0.14150751
-0.39560416 -0.26907384 0.13277698
0.52658844 -0.26994744 0.14150751
-0.39560416 -0.24907 0.13277686
0.52658844 -0.24987653 0.14150763
-0.39560416 -0.22906612 0.13277698
0.52658844 -0.22980553 0.14150763
-0.39560416 -0.20906238 0.13277709
0.52658844 -0.2097344 0.14150763
-0.39560416 -0.18905848 0.13277709
0.52658844 -0.18966347 0.14150774
-0.39560416 -0.16905466 0.13277686
0.52658844 -0.16959232 0.14150763
-0.39560416 -0.14905085 0.13277686
0.52658844 -0.14952134 0.14150763
-0.39560416 -0.12904692 0.13277686
0.52658844 -0.1294502 0.14150763
-0.39560416 -0.1090432 0.13277709
0.52658844 -0.10937929 0.14150763
-0.39560416 -0.089039311 0.13277698
0.52658844 -0.089308195 0.14150751
-0.39560416 -0.069035456 0.13277686
0.52658844 -0.069237098 0.14150751
-0.39560416 -0.049031697 0.13277686
0.52658844 -0.049166139 0.14150763
-0.39560416 -0.02902789 0.13277698
0.52658844 -0.029095046 0.14150763
-0.39560416 -0.0090240426 0.13277686
0.52658844 -0.0090239989 0.14150763
-0.39560416 0.010979851 0.13277698
0.52658844 0.011047094 0.14150751
-0.39560416 0.030983657 0.13277686
0.52658844 0.031118054 0.14150763
-0.39560416 0.05098746 0.13277709
0.52658844 0.051189058 0.14150763
-0.39560416 0.070991307 0.13277698
0.52658844 0.071260192 0.14150763
-0.39560416 0.090995111 0.13277686
0.52658844 0.091331109 0.14150763
-0.39560416 0.11099905 0.13277698
0.52658844 0.11140224 0.14150763
-0.39560416 0.13100295 0.13277686
0.52658844 0.13147335 0.14150763
-0.39560416 0.15100667 0.13277709
0.52658844 0.15154432 0.14150739
-0.39560416 0.17101046 0.13277698
0.52658844 0.1716153 0.14150763
-0.39560416 0.19101427 0.13277686
0.52658844 0.19168645 0.14150763
-0.39560416 0.21101826 0.13277686
0.52658844 0.21175741 0.14150751
-0.39560416 0.23102197 0.13277709
0.52658844 0.23182845 0.14150763
-0.39560416 0.25102583 0.13277698
0.52658844 0.25189954 0.14150763
-0.39560416 0.27102962 0.13277686
0.52658844 0.27197063 0.14150763
-0.39560416 0.29103348 0.13277686
0.52658844 0.29204151 0.14150763
-0.39560416 0.31103736 0.13277709
0.52658844 0.31211266 0.14150763
-0.39560416 0.33104119 0.13277709
0.52658844 0.33218369 0.14150763
-0.39560416 0.35104498 0.13277698
0.52658844 0.35225469 0.14150739
-0.39560416 0.37104878 0.13277686
0.52658844 0.37232575 0.14150763
-0.39560416 0.39105269 0.13277686
0.55013901 -0.37232313 0.15608847
0.55013901 -0.35213983 0.15608823
0.55013901 -0.33195662 0.15608847
0.55013901 -0.3117733 0.15608847
0.55013901 -0.29158998 0.15608823
0.55013901 -0.27140674 0.15608847
0.55013901 -0.25122342 0.15608835
0.55013901 -0.23104016 0.15608847
0.55013901 -0.21085685 0.15608847
0.55013901 -0.19067355 0.15608835
0.55013901 -0.17049032 0.15608847
0.55013901 -0.150307 0.15608847
0.55013901 -0.13012378 0.15608847
0.55013901 -0.10994043 0.15608847
0.55013901 -0.089757122 0.15608835
0.55013901 -0.069573894 0.15608847
0.55013901 -0.049390536 0.15608847
0.55013901 -0.029207267 0.15608835
0.55013901 -0.0090240426 0.15608847
0.55013901 0.01115927 0.15608835
0.55013901 0.03134254 0.15608847
0.55013901 0.05152585 0.15608847
0.55013901 0.071709163 0.15608835
0.55013901 0.091892429 0.15608847
0.55013901 0.11207569 0.15608847
0.55013901 0.13225888 0.15608847
0.55013901 0.1524422 0.15608835
0.55013901 0.17262551 0.15608823
0.55013901 0.19280873 0.15608847
0.55013901 0.21299209 0.15608835
0.55013901 0.2331754 0.15608823
0.55013901 0.25335857 0.15608847
0.55013901 0.27354193 0.15608835
0.55013901 0.29372516 0.15608847
0.55013901 0.31390852 0.15608847
0.55013901 0.33409184 0.15608823
0.55013901 0.35427505 0.15608847
0.55013901 0.37445837 0.15608835
0.57395786 -0.37436813 0.17084718
0.57395786 -0.35407114 0.17084706
0.57395786 -0.33377442 0.17084718
0.57395786 -0.31347743 0.17084706
0.57395786 -0.29318061 0.17084718
0.57395786 -0.27288368 0.17084706
0.57395786 -0.25258672 0.17084706
0.57395786 -0.2322899 0.17084718
0.57395786 -0.21199292 0.17084718
0.57395786 -0.19169611 0.17084718
0.57395786 -0.17139921 0.17084718
0.57395786 -0.15110222 0.17084706
0.57395786 -0.1308054 0.17084718
0.57395786 -0.11050851 0.17084718
0.57395786 -0.090211608 0.17084718
0.57395786 -0.069914661 0.17084718
0.57395786 -0.049617801 0.17084706
0.57395786 -0.029320899 0.17084718
0.57395786 -0.0090239551 0.17084718
0.57395786 0.011272815 0.17084718
0.57395786 0.031569805 0.17084718
0.57395786 0.051866706 0.17084706
0.57395786 0.072163604 0.17084718
0.57395786 0.092460461 0.17084718
0.57395786 0.11275733 0.17084718
0.57395786 0.13305427 0.17084718
0.57395786 0.15335126 0.17084706
0.57395786 0.17364807 0.17084718
0.57395786 0.19394493 0.17084706
0.57395786 0.21424179 0.17084718
0.57395786 0.23453873 0.17084718
0.57395786 0.2548357 0.17084706
0.57395786 0.2751326 0.17084718
0.57395786 0.2954295 0.17084718
0.57395786 0.31572634 0.1708473
0.57395786 0.33602315 0.17084706
0.57395786 0.35632011 0.17084706
0.57395786 0.37661701 0.17084718
-0.42093974 -0.3747384 0.17351902
0.59804648 -0.37643626 0.1857729
-0.42093974 -0.3544209 0.17351902
0.59804648 -0.35602456 0.1857729
0.59804648 -0.33561271 0.1857729
-0.42093974 -0.33410341 0.17351902
-0.42093974 -0.31378603 0.17351925
0.59804648 -0.31520098 0.1857729
-0.42093974 -0.29346859 0.17351913
0.59804648 -0.2947892 0.18577302
-0.42093974 -0.27315107 0.17351913
0.59804648 -0.27437732 0.1857729
-0.42093974 -0.25283358 0.17351902
0.59804648 -0.25396556 0.18577302
-0.42093974 -0.23251614 0.17351902
0.59804648 -0.23355375 0.1857729
-0.42093974 -0.21219872 0.17351913
0.59804648 -0.21314199 0.1857729
-0.42093974 -0.19188122 0.17351913
0.59804648 -0.19273026 0.18577302
0.59804648 -0.17231835 0.1857729
-0.42093974 -0.17156368 0.17351913
-0.42093974 -0.15124629 0.17351902
0.59804648 -0.15190658 0.18577302
-0.42093974 -0.13092877 0.17351902
0.59804648 -0.13149472 0.1857729
-0.42093974 -0.11061136 0.17351913
0.59804648 -0.11108304 0.1857729
-0.42093974 -0.090293922 0.17351902
0.59804648 -0.090671137 0.1857729
-0.42093974 -0.069976427 0.17351902
0.59804648 -0.070259407 0.1857729
-0.42093974 -0.049658891 0.17351902
0.59804648 -0.049847633 0.18577302
-0.42093974 -0.0293414 0.17351902
0.59804648 -0.029435772 0.1857729
-0.42093974 -0.0090240426 0.17351913
0.59804648 -0.0090239989 0.18577302
-0.42093974 0.011293448 0.17351913
0.59804648 0.011387818 0.1857729
-0.42093974 0.031610984 0.17351913
0.59804648 0.031799592 0.1857729
-0.42093974 0.051928472 0.17351902
0.59804648 0.052211322 0.18577313
-0.42093974 0.072245784 0.17351913
0.59804648 0.072623178 0.1857729
-0.42093974 0.092563272 0.17351913
0.59804648 0.093034953 0.18577302
-0.42093974 0.11288077 0.17351913
0.59804648 0.11344685 0.1857729
-0.42093974 0.13319831 0.17351902
0.59804648 0.13385864 0.1857729
-0.42093974 0.15351579 0.17351902
0.59804648 0.15427041 0.18577313
-0.42093974 0.17383319 0.17351925
0.59804648 0.17468223 0.1857729
-0.42093974 0.19415055 0.17351902
0.59804648 0.195094 0.18577302
-0.42093974 0.21446809 0.17351902
0.59804648 0.21550572 0.1857729
-0.42093974 0.23478559 0.17351902
0.59804648 0.23591749 0.1857729
-0.42093974 0.25510311 0.17351902
0.59804648 0.25632927 0.18577302
-0.42093974 0.27542052 0.17351925
0.59804648 0.27674115 0.1857729
-0.42093974 0.29573801 0.17351925
0.59804648 0.29715291 0.18577302
-0.42093974 0.31605554 0.17351913
0.59804648 0.31756473 0.1857729
-0.42093974 0.33637285 0.17351902
0.59804648 0.33797655 0.18577302
-0.42093974 0.35669044 0.17351902
0.59804648 0.35838845 0.1857729
-0.42093974 0.37700784 0.17351913
0.59804648 0.37880018 0.1857729
0.62240934 -0.37852809 0.20086884
0.62240934 -0.35800007 0.20086861
0.62240934 -0.33747199 0.20086873
0.62240934 -0.31694406 0.20086873
0.62240934 -0.29641607 0.20086873
0.62240934 -0.27588809 0.20086873
0.62240934 -0.25536007 0.20086884
0.62240934 -0.234832 0.20086884
0.62240934 -0.21430407 0.20086884
0.62240934 -0.19377607 0.20086896
0.62240934 -0.17324801 0.20086873
0.62240934 -0.15271999 0.20086873
0.62240934 -0.13219203 0.20086873
0.62240934 -0.11166402 0.20086884
0.62240934 -0.091136053 0.20086884
0.62240934 -0.070608042 0.20086884
0.62240934 -0.050080024 0.20086884
0.62240934 -0.029552057 0.20086884
0.62240934 -0.0090240426 0.20086884
0.62240934 0.011504059 0.20086861
0.62240934 0.032032028 0.20086873
0.62240934 0.052559998 0.20086873
0.62240934 0.07308805 0.20086873
0.62240934 0.093616061 0.20086884
0.62240934 0.11414403 0.20086884
0.62240934 0.13467197 0.20086884
0.62240934 0.15520006 0.20086896
0.62240934 0.17572804 0.20086896
0.62240934 0.19625604 0.20086873
0.62240934 0.21678402 0.20086873
0.62240934 0.23731212 0.20086884
0.62240934 0.25784004 0.20086873
0.62240934 0.278368 0.20086873
0.62240934 0.29889598 0.20086873
0.62240934 0.31942409 0.20086896
0.62240934 0.33995205 0.20086896
0.62240934 0.36047992 0.20086896
0.62240934 0.38100821 0.20086873
-0.44708046 -0.38056162 0.21554482
-0.44708046 -0.35992071 0.21554482
-0.44708046 -0.33927974 0.21554482
-0.44708046 -0.31863871 0.2155447
-0.44708046 -0.29799768 0.2155447
-0.44708046 -0.27735674 0.2155447
-0.44708046 -0.25671577 0.21554482
-0.44708046 -0.23607482 0.21554482
-0.44708046 -0.21543379 0.2155447
-0.44708046 -0.19479285 0.2155447
-0.44708046 -0.17415181 0.21554482
-0.44708046 -0.15351088 0.21554482
-0.44708046 -0.13286994 0.21554482
-0.44708046 -0.11222888 0.2155447
-0.44708046 -0.091587938 0.2155447
-0.44708046 -0.070946999 0.21554482
-0.44708046 -0.050306056 0.21554482
-0.44708046 -0.029665027 0.21554482
-0.44708046 -0.0090239551 0.2155447
-0.44708046 0.011616985 0.2155447
-0.44708046 0.032257926 0.2155447
-0.44708046 0.052898865 0.21554482
-0.44708046 0.073539846 0.21554482
-0.44708046 0.094180919 0.21554482
-0.44708046 0.1148219 0.21554482
-0.44708046 0.13546285 0.21554482
-0.44708046 0.15610377 0.21554482
-0.44708046 0.17674473 0.21554482
-0.44708046 0.1973858 0.21554458
-0.44708046 0.21802674 0.21554482
-0.44708046 0.23866768 0.21554482
-0.44708046 0.25930861 0.21554482
-0.44708046 0.27994955 0.21554482
-0.44708046 0.30059075 0.21554482
-0.44708046 0.32123169 0.21554482
-0.44708046 0.34187263 0.21554482
-0.44708046 0.36251357 0.21554482
-0.44708046 0.3831546 0.21554482
-0.4740693 -0.38657546 0.25894523
-0.4740693 -0.36560029 0.25894535
-0.4740693 -0.34462526 0.25894523
-0.4740693 -0.32365024 0.25894535
-0.4740693 -0.30267501 0.25894523
-0.4740693 -0.28170002 0.25894511
-0.4740693 -0.26072493 0.25894523
-0.4740693 -0.23974983 0.25894523
-0.4740693 -0.21877477 0.25894523
-0.4740693 -0.19779973 0.25894523
-0.4740693 -0.17682466 0.25894523
-0.4740693 -0.15584956 0.25894523
-0.4740693 -0.13487448 0.25894547
-0.4740693 -0.11389945 0.25894535
-0.4740693 -0.092924327 0.25894547
-0.4740693 -0.071949199 0.25894511
-0.4740693 -0.050974116 0.25894523
-0.4740693 -0.029999036 0.25894523
-0.4740693 -0.0090239551 0.25894523
-0.4740693 0.011951082 0.25894523
-0.4740693 0.032926075 0.25894523
-0.4740693 0.053901244 0.25894535
-0.4740693 0.074876234 0.25894535
-0.4740693 0.095851272 0.25894523
-0.4740693 0.11682648 0.25894547
-0.4740693 0.13780153 0.25894535
-0.4740693 0.15877663 0.25894523
-0.4740693 0.17975169 0.25894523
-0.4740693 0.20072687 0.25894523
-0.4740693 0.22170185 0.25894523
-0.4740693 0.24267688 0.25894535
-0.4740693 0.26365194 0.25894523
-0.4740693 0.28462714 0.25894547
-0.4740693 0.30560216 0.25894535
-0.4740693 0.32657716 0.25894535
-0.4740693 0.34755221 0.25894535
-0.4740693 0.3685275 0.25894523
-0.4740693 0.38950258 0.25894523
-0.50194621 -0.37146688 0.303774
-0.50194621 -0.35014671 0.30377388
-0.50194621 -0.32882649 0.30377376
-0.50194621 -0.30750644 0.303774
-0.50194621 -0.28618619 0.303774
-0.50194621 -0.26486596 0.30377388
-0.50194621 -0.24354592 0.303774
-0.50194621 -0.2222257 0.30377388
-0.50194621 -0.20090552 0.30377376
-0.50194621 -0.17958538 0.303774
-0.50194621 -0.15826517 0.303774
-0.50194621 -0.13694502 0.30377388
-0.50194621 -0.11562481 0.30377388
-0.50194621 -0.094304673 0.303774
-0.50194621 -0.072984539 0.30377388
-0.50194621 -0.051664311 0.30377376
-0.50194621 -0.030344222 0.303774
-0.50194621 -0.0090239989 0.303774
-0.50194621 0.012296225 0.30377388
-0.50194621 0.033616271 0.303774
-0.50194621 0.05493645 0.30377376
-0.50194621 0.076256715 0.30377388
-0.50194621 0.097576804 0.303774
-0.50194621 0.11889694 0.303774
-0.50194621 0.14021727 0.303774
-0.50194621 0.16153739 0.30377388
-0.50194621 0.18285739 0.30377388
-0.50194621 0.20417771 0.303774
-0.50194621 0.22549789 0.30377376
-0.50194621 0.24681789 0.303774
-0.50194621 0.26813826 0.303774
-0.50194621 0.28945833 0.30377388
-0.50194621 0.31077844 0.303774
-0.50194621 0.3320986 0.303774
-0.50194621 0.35341889 0.30377388
-0.50194621 0.37473905 0.30377376
-0.5307557 -0.37752971 0.35010231
-0.5307557 -0.35585287 0.35010219
-0.5307557 -0.33417606 0.35010219
-0.5307557 -0.31249931 0.35010242
-0.5307557 -0.29082242 0.35010231
-0.5307557 -0.26914561 0.35010219
-0.5307557 -0.24746884 0.35010231
-0.5307557 -0.22579199 0.35010231
-0.5307557 -0.20411532 0.35010231
-0.5307557 -0.18243851 0.35010219
-0.5307557 -0.16076162 0.35010219
-0.5307557 -0.13908489 0.35010242
-0.5307557 -0.11740804 0.35010231
-0.5307557 -0.095731191 0.35010231
-0.5307557 -0.074054472 0.35010231
-0.5307557 -0.052377615 0.35010231
-0.5307557 -0.030700762 0.35010219
-0.5307557 -0.0090239989 0.35010231
-0.5307557 0.012652765 0.35010219
-0.5307557 0.034329619 0.35010219
-0.5307557 0.056006338 0.35010231
-0.5307557 0.077683188 0.35010231
-0.5307557 0.099359907 0.35010242
-0.5307557 0.12103681 0.35010231
-0.5307557 0.14271368 0.35010219
-0.5307557 0.16439039 0.35010231
-0.5307557 0.18606724 0.35010219
-0.5307557 0.20774409 0.35010219
-0.5307557 0.22942086 0.35010242
-0.5307557 0.25109765 0.35010242
-0.5307557 0.27277452 0.35010219
-0.5307557 0.29445127 0.35010242
-0.5307557 0.31612813 0.35010231
-0.5307557 0.33780488 0.35010242
-0.5307557 0.35948166 0.35010242
-0.5307557 0.38115856 0.35010231
-0.56054264 -0.38379663 0.39799047
-0.56054264 -0.36175114 0.39799035
-0.56054264 -0.33970574 0.39799047
-0.56054264 -0.31766027 0.39799058
-0.56054264 -0.2956149 0.39799047
-0.56054264 -0.27356938 0.39799047
-0.56054264 -0.25152391 0.39799047
-0.56054264 -0.22947849 0.39799058
-0.56054264 -0.20743296 0.39799047
-0.56054264 -0.1853876 0.39799047
-0.56054264 -0.16334218 0.39799047
-0.56054264 -0.14129664 0.39799035
-0.56054264 -0.11925123 0.39799047
-0.56054264 -0.09720578 0.39799047
-0.56054264 -0.075160325 0.39799035
-0.56054264 -0.05311491 0.39799035
-0.56054264 -0.031069454 0.39799047
-0.56054264 -0.0090240873 0.39799047
-0.56054264 0.0130215 0.39799047
-0.56054264 0.035066869 0.39799035
-0.56054264 0.05711237 0.39799058
-0.56054264 0.079157822 0.39799035
-0.56054264 0.10120319 0.39799035
-0.56054264 0.12324869 0.39799047
-0.56054264 0.14529414 0.39799035
-0.56054264 0.16733965 0.39799047
-0.56054264 0.18938501 0.39799047
-0.56054264 0.21143039 0.39799058
-0.56054264 0.23347592 0.39799035
-0.56054264 0.2555213 0.39799035
-0.56054264 0.27756682 0.39799058
-0.56054264 0.29961228 0.39799035
-0.56054264 0.32165766 0.39799035
-0.56054264 0.34370312 0.39799058
-0.56054264 0.36574855 0.39799035
-0.56054264 0.38779411 0.39799047
-0.59136331 -0.36785564 0.44755268
-0.59136331 -0.34542868 0.44755268
-0.59136331 -0.32300168 0.44755268
-0.59136331 -0.30057472 0.44755256
-0.59136331 -0.27814773 0.44755268
-0.59136331 -0.25572079 0.4475528
-0.59136331 -0.23329376 0.44755268
-0.59136331 -0.21086684 0.44755268
-0.59136331 -0.18843985 0.4475528
-0.59136331 -0.16601279 0.44755256
-0.59136331 -0.14358583 0.44755268
-0.59136331 -0.12115897 0.44755268
-0.59136331 -0.098731965 0.4475528
-0.59136331 -0.07630492 0.44755268
-0.59136331 -0.053877957 0.4475528
-0.59136331 -0.031450957 0.4475528
-0.59136331 -0.0090239104 0.44755268
-0.59136331 0.013402916 0.44755268
-0.59136331 0.035829876 0.44755268
-0.59136331 0.05825692 0.44755268
-0.59136331 0.080683872 0.44755268
-0.59136331 0.10311088 0.44755268
-0.59136331 0.12553793 0.44755268
-0.59136331 0.14796494 0.44755268
-0.59136331 0.17039171 0.44755268
-0.59136331 0.19281872 0.4475528
-0.59136331 0.21524577 0.44755268
-0.59136331 0.23767272 0.44755268
-0.59136331 0.26009968 0.4475528
-0.59136331 0.28252673 0.44755268
-0.59136331 0.30495378 0.4475528
-0.59136331 0.32738069 0.4475528
-0.59136331 0.34980756 0.44755256
-0.59136331 0.37223452 0.44755268
-0.6232695 -0.37417519 0.4988606
-0.6232695 -0.35135317 0.4988606
-0.6232695 -0.32853124 0.4988606
-0.6232695 -0.3057093 0.4988606
-0.6232695 -0.28288737 0.4988606
-0.6232695 -0.26006544 0.4988606
-0.6232695 -0.23724349 0.4988606
-0.6232695 -0.21442156 0.49886072
-0.6232695 -0.19159962 0.4988606
-0.6232695 -0.16877769 0.4988606
-0.6232695 -0.14595565 0.49886072
-0.6232695 -0.12313368 0.4988606
