ply
format ascii 1.0
comment PCL generated
element vertex 1341
property float x
property float y
property float z
element camera 0
property float view_px
property float view_py
property float view_pz
property float x_axisx
property float x_axisy
property float x_axisz
property float y_axisx
property float y_axisy
property float y_axisz
property float z_axisx
property float z_axisy
property float z_axisz
property float focal
property float scalex
property float scaley
property float centerx
property float centery
property int viewportx
property int viewporty
property float k1
property float k2
end_header
-0.17705603 0.35411537 -0.2994833
-0.15782292 0.35411537 -0.2994833
-0.1385898 0.35411537 -0.2994833
-0.11935669 0.35411537 -0.2994833
-0.10012358 0.35411537 -0.2994833
-0.080890454 0.35411537 -0.2994833
-0.061656982 0.35411385 -0.29949504
-0.042424232 0.35411537 -0.2994833
-0.023191111 0.35411537 -0.2994833
-0.0039579961 0.35411537 -0.2994833
0.015275119 0.35411537 -0.2994833
0.034508236 0.35411537 -0.2994833
0.053741351 0.35411537 -0.2994833
0.072974466 0.35411537 -0.2994833
0.092207581 0.35411537 -0.2994833
0.1114407 0.35411537 -0.2994833
0.13067381 0.35411537 -0.2994833
0.14990693 0.35411537 -0.2994833
0.16914004 0.35411537 -0.2994833
0.18837316 0.35411537 -0.2994833
0.20760627 0.35411537 -0.2994833
0.22683941 0.35411537 -0.2994833
0.24607252 0.35411537 -0.2994833
-0.2145128 0.37175015 -0.31041139
-0.19536379 0.37175015 -0.31041139
-0.17621481 0.37175015 -0.31041139
-0.15706581 0.37175015 -0.31041139
-0.13791682 0.37175015 -0.31041139
-0.11876783 0.37175015 -0.31041139
-0.099618837 0.37175015 -0.31041139
-0.080469839 0.37175015 -0.31041139
-0.061320849 0.37175015 -0.31041139
-0.042171858 0.37175015 -0.31041139
-0.023022866 0.37175015 -0.31041139
-0.0038738735 0.37175015 -0.31041139
0.015275119 0.37175015 -0.31041139
0.034424111 0.37175015 -0.31041139
0.053573102 0.37175015 -0.31041139
0.0727221 0.37175015 -0.31041139
0.09187109 0.37175015 -0.31041139
0.11102008 0.37175015 -0.31041139
0.13016908 0.37175015 -0.31041139
0.14931807 0.37175015 -0.31041139
0.16846706 0.37175015 -0.31041139
0.18761605 0.37175015 -0.31041139
0.20676506 0.37175015 -0.31041139
-0.19517189 0.3905502 -0.31267738
-0.17646863 0.41058111 -0.30711412
-0.15768141 0.430702 -0.30152595
0.11100148 0.46740589 -0.31089479
0.092025973 0.48761219 -0.30538148
0.072966151 0.50790817 -0.29984331
-0.023014003 0.54396701 -0.31098682
-0.0039122384 0.56435275 -0.30542749
-0.27473971 0.33660275 -0.2863363
-0.25517663 0.33632502 -0.28845894
-0.23585865 0.33632502 -0.28845894
-0.21654065 0.33632502 -0.28845894
-0.19722266 0.33632502 -0.28845894
-0.17790382 0.3363235 -0.28847069
-0.15858591 0.3363235 -0.28847069
-0.13926801 0.3363235 -0.28847069
-0.11995012 0.3363235 -0.28847069
-0.10063223 0.3363235 -0.28847069
-0.08131434 0.3363235 -0.28847069
-0.061996445 0.3363235 -0.28847069
-0.042678557 0.3363235 -0.28847069
-0.023360664 0.3363235 -0.28847069
-0.0040427726 0.3363235 -0.28847069
0.015275119 0.3363235 -0.28847069
0.034593008 0.3363235 -0.28847069
0.053910904 0.3363235 -0.28847069
0.073228791 0.3363235 -0.28847069
0.092546687 0.3363235 -0.28847069
0.11186458 0.3363235 -0.28847069
0.131183 0.33632502 -0.28845894
0.150501 0.33632502 -0.28845894
0.16981898 0.33632502 -0.28845894
0.18913694 0.33632502 -0.28845894
0.20845492 0.33632502 -0.28845894
0.22777291 0.33632502 -0.28845894
0.24709089 0.33632502 -0.28845894
0.26640889 0.33632502 -0.28845894
0.22714177 0.37387085 -0.29591244
0.20831071 0.39399055 -0.29033232
0.18939632 0.41420212 -0.28471535
-0.13881043 0.45091537 -0.29590088
-0.11985359 0.47121769 -0.29026222
-0.1008111 0.49161193 -0.28459793
0.053821273 0.5282923 -0.29429233
0.034591116 0.54876721 -0.28871679
-0.29518104 0.31837553 -0.2773487
-0.27577752 0.31837553 -0.2773487
-0.256374 0.31837553 -0.2773487
-0.23697051 0.31837553 -0.2773487
-0.21756698 0.31837553 -0.2773487
-0.19816348 0.31837553 -0.2773487
-0.17875996 0.31837553 -0.2773487
-0.15935646 0.31837553 -0.2773487
-0.13995296 0.31837553 -0.2773487
-0.12054944 0.31837553 -0.2773487
-0.10114593 0.31837553 -0.2773487
-0.081742421 0.31837553 -0.2773487
-0.062338918 0.31837553 -0.2773487
-0.042935409 0.31837553 -0.2773487
-0.023531901 0.31837553 -0.2773487
-0.0041283909 0.31837553 -0.2773487
0.015275119 0.31837553 -0.2773487
0.034678631 0.31837553 -0.2773487
0.05408214 0.31837553 -0.2773487
0.073485643 0.31837553 -0.2773487
0.09288916 0.31837553 -0.2773487
0.11229266 0.31837553 -0.2773487
0.13169616 0.31837553 -0.2773487
0.15109968 0.31837553 -0.2773487
0.1705032 0.31837553 -0.2773487
0.1899067 0.31837553 -0.2773487
0.2093102 0.31837553 -0.2773487
0.22871372 0.31837553 -0.2773487
0.24811722 0.31837553 -0.2773487
0.26752076 0.31837553 -0.2773487
0.28692424 0.31837553 -0.2773487
0.30724382 0.31935257 -0.26941508
-0.25601774 0.35672438 -0.28065437
-0.23721087 0.37693733 -0.27494663
-0.21831962 0.39724383 -0.26920098
0.17039625 0.43450248 -0.27908516
0.15131086 0.45489392 -0.27342969
0.13214013 0.47537923 -0.26773679
-0.081682399 0.51209849 -0.27890825
-0.06246689 0.53267795 -0.27319247
-0.043163709 0.55334848 -0.26746267
0.015275119 0.56933349 -0.28311628
-0.35668868 0.28199789 -0.25480622
-0.33711162 0.28199789 -0.25480622
-0.31753457 0.28199789 -0.25480622
-0.29795754 0.28199789 -0.25480622
-0.27838048 0.28199789 -0.25480622
-0.25880346 0.28199789 -0.25480622
-0.2392264 0.28199789 -0.25480622
-0.21964937 0.28199789 -0.25480622
-0.20007233 0.28199789 -0.25480622
-0.18049529 0.28199789 -0.25480622
-0.16091824 0.28199789 -0.25480622
-0.14134121 0.28199789 -0.25480622
-0.12176353 0.28199661 -0.25481826
-0.10218657 0.28199661 -0.25481826
-0.082609616 0.28199661 -0.25481826
-0.063032672 0.28199661 -0.25481826
-0.043455727 0.28199661 -0.25481826
-0.023878777 0.28199661 -0.25481826
-0.0043019224 0.28199789 -0.25480622
0.015275119 0.28199789 -0.25480622
0.034852162 0.28199789 -0.25480622
0.054429203 0.28199789 -0.25480622
0.074006245 0.28199789 -0.25480622
0.093583286 0.28199789 -0.25480622
0.11316033 0.28199789 -0.25480622
0.13273737 0.28199789 -0.25480622
0.15231441 0.28199789 -0.25480622
0.17189145 0.28199789 -0.25480622
0.19146848 0.28199789 -0.25480622
0.21104553 0.28199789 -0.25480622
0.23062257 0.28199789 -0.25480622
0.25019962 0.28199789 -0.25480622
0.26977664 0.28199789 -0.25480622
0.2893537 0.28199789 -0.25480622
0.30893072 0.28199789 -0.25480622
0.32850778 0.28199789 -0.25480622
0.34808481 0.28199789 -0.25480622
-0.33727512 0.30171117 -0.25362641
-0.316053 0.30026761 -0.26612759
-0.29656309 0.30026761 -0.26612759
-0.2770732 0.30026761 -0.26612759
-0.25758332 0.30026761 -0.26612759
-0.23809344 0.30026761 -0.26612759
-0.21860355 0.30026761 -0.26612759
-0.19911365 0.30026761 -0.26612759
-0.17962377 0.30026761 -0.26612759
-0.16013388 0.30026761 -0.26612759
-0.14064398 0.30026761 -0.26612759
-0.1211541 0.30026761 -0.26612759
-0.10166422 0.30026761 -0.26612759
-0.082174323 0.30026761 -0.26612759
-0.062684432 0.30026761 -0.26612759
-0.043194547 0.30026761 -0.26612759
-0.023704657 0.30026761 -0.26612759
-0.0042147692 0.30026761 -0.26612759
0.015275119 0.30026761 -0.26612759
0.034765005 0.30026761 -0.26612759
0.054254897 0.30026761 -0.26612759
0.073744789 0.30026761 -0.26612759
0.093234673 0.30026761 -0.26612759
0.11272456 0.30026761 -0.26612759
0.13221446 0.30026761 -0.26612759
0.15170434 0.30026761 -0.26612759
0.17119423 0.30026761 -0.26612759
0.19068412 0.30026761 -0.26612759
0.21017401 0.30026761 -0.26612759
0.22966389 0.30026761 -0.26612759
0.24915379 0.30026761 -0.26612759
0.26864368 0.30026761 -0.26612759
0.28813356 0.30026761 -0.26612759
0.30762345 0.30026761 -0.26612759
0.32711333 0.30026761 -0.26612759
0.28839347 0.33956301 -0.26371604
0.26945913 0.35986632 -0.25797909
0.25043774 0.38026008 -0.2522282
-0.19934113 0.41764116 -0.26344109
-0.18027599 0.43813178 -0.25765491
-0.16112357 0.45871606 -0.25184232
0.11288228 0.49595508 -0.26202989
0.09353736 0.51662391 -0.25629741
-0.023772905 0.57411575 -0.26169491
-0.0042934027 0.59497499 -0.2559129
-0.3780244 0.26356396 -0.24338311
-0.35835943 0.26356396 -0.24338311
-0.33869442 0.26356396 -0.24338311
-0.31902948 0.26356396 -0.24338311
-0.29936448 0.26356396 -0.24338311
-0.2796981 0.2635628 -0.24339533
-0.26003325 0.2635628 -0.24339533
-0.24036837 0.2635628 -0.24339533
-0.22070347 0.2635628 -0.24339533
-0.2010386 0.2635628 -0.24339533
-0.1813737 0.2635628 -0.24339533
-0.16170882 0.2635628 -0.24339533
-0.14204395 0.2635628 -0.24339533
-0.12237906 0.2635628 -0.24339533
-0.10271417 0.2635628 -0.24339533
-0.08304929 0.2635628 -0.24339533
-0.063384414 0.2635628 -0.24339533
-0.04371953 0.2635628 -0.24339533
-0.024054648 0.2635628 -0.24339533
-0.0043897647 0.2635628 -0.24339533
0.015275119 0.2635628 -0.24339533
0.034940004 0.2635628 -0.24339533
0.054604888 0.2635628 -0.24339533
0.074269764 0.2635628 -0.24339533
0.093934655 0.2635628 -0.24339533
0.11359953 0.2635628 -0.24339533
0.13326441 0.2635628 -0.24339533
0.15292931 0.2635628 -0.24339533
0.17259419 0.2635628 -0.24339533
0.19225906 0.2635628 -0.24339533
0.21192394 0.2635628 -0.24339533
0.23158884 0.2635628 -0.24339533
0.25125483 0.26356396 -0.24338311
0.2709198 0.26356396 -0.24338311
0.29058477 0.26356396 -0.24338311
0.31024978 0.26356396 -0.24338311
0.32991472 0.26356396 -0.24338311
0.34957972 0.26356396 -0.24338311
0.36924466 0.26356396 -0.24338311
0.38906068 0.2636674 -0.24235064
0.37019446 0.28396767 -0.23652869
-0.31845367 0.32201698 -0.24778301
-0.29954407 0.34241477 -0.24192512
-0.28054741 0.36290631 -0.23604029
0.23133005 0.40074632 -0.24645144
0.21213542 0.42132586 -0.24064815
-0.14188333 0.4793947 -0.24600291
-0.12255529 0.50017071 -0.24012476
0.074104227 0.53738135 -0.25056314
0.0545834 0.55823511 -0.24479079
0.034973897 0.57918388 -0.23899215
-0.44111714 0.22619386 -0.22023851
-0.42127404 0.22619386 -0.22023851
-0.40143088 0.22619386 -0.22023851
-0.38158771 0.22619386 -0.22023851
-0.36174461 0.22619386 -0.22023851
-0.34190145 0.22619386 -0.22023851
-0.32205832 0.22619386 -0.22023851
-0.30221516 0.22619386 -0.22023851
-0.28237203 0.22619386 -0.22023851
-0.26252887 0.22619386 -0.22023851
-0.24268574 0.22619386 -0.22023851
-0.22284259 0.22619386 -0.22023851
-0.20299946 0.22619386 -0.22023851
-0.1831563 0.22619386 -0.22023851
-0.16331317 0.22619386 -0.22023851
-0.14347002 0.22619386 -0.22023851
-0.12362687 0.22619386 -0.22023851
-0.10378373 0.22619386 -0.22023851
-0.083940588 0.22619386 -0.22023851
-0.064097449 0.22619386 -0.22023851
-0.04425431 0.22619386 -0.22023851
-0.024411166 0.22619386 -0.22023851
-0.0045680236 0.22619386 -0.22023851
0.015275119 0.22619386 -0.22023851
0.035118259 0.22619386 -0.22023851
0.054961406 0.22619386 -0.22023851
0.074804544 0.22619386 -0.22023851
0.094647691 0.22619386 -0.22023851
0.11449083 0.22619386 -0.22023851
0.13433397 0.22619386 -0.22023851
0.15417711 0.22619386 -0.22023851
0.17402026 0.22619386 -0.22023851
0.19386341 0.22619386 -0.22023851
0.21370654 0.22619386 -0.22023851
0.2335497 0.22619386 -0.22023851
0.25339282 0.22619386 -0.22023851
0.27323598 0.22619386 -0.22023851
0.29307911 0.22619386 -0.22023851
0.31292227 0.22619386 -0.22023851
0.3327654 0.22619386 -0.22023851
0.35260856 0.22619386 -0.22023851
0.37245169 0.22619386 -0.22023851
0.39229485 0.22619386 -0.22023851
0.41213796 0.22619386 -0.22023851
0.43198112 0.22619386 -0.22023851
-0.42029631 0.24550378 -0.22601163
-0.39955068 0.24496269 -0.23186916
-0.37979707 0.24496269 -0.23186916
-0.36004347 0.24496269 -0.23186916
-0.34028986 0.24496269 -0.23186916
-0.32053626 0.24496269 -0.23186916
-0.30078265 0.24496269 -0.23186916
-0.28102905 0.24496269 -0.23186916
-0.26127544 0.24496269 -0.23186916
-0.24152184 0.24496269 -0.23186916
-0.22176819 0.24496269 -0.23186916
-0.20201458 0.24496269 -0.23186916
-0.18226098 0.24496269 -0.23186916
-0.16250737 0.24496269 -0.23186916
-0.14275376 0.24496269 -0.23186916
-0.12300016 0.24496269 -0.23186916
-0.10324653 0.24496269 -0.23186916
-0.083492927 0.24496269 -0.23186916
-0.063739322 0.24496269 -0.23186916
-0.04398571 0.24496269 -0.23186916
-0.024232103 0.24496269 -0.23186916
-0.0044784918 0.24496269 -0.23186916
0.015275119 0.24496269 -0.23186916
0.03502873 0.24496269 -0.23186916
0.054782338 0.24496269 -0.23186916
0.074535944 0.24496269 -0.23186916
0.094289564 0.24496269 -0.23186916
0.11404317 0.24496269 -0.23186916
0.13379677 0.24496269 -0.23186916
0.1535504 0.24496269 -0.23186916
0.17330401 0.24496269 -0.23186916
0.19305761 0.24496269 -0.23186916
0.21281122 0.24496269 -0.23186916
0.23256482 0.24496269 -0.23186916
0.25231841 0.24496269 -0.23186916
0.27207208 0.24496269 -0.23186916
0.29182568 0.24496269 -0.23186916
0.31157929 0.24496269 -0.23186916
0.33133289 0.24496269 -0.23186916
0.3510865 0.24496269 -0.23186916
0.3708401 0.24496269 -0.23186916
0.39059371 0.24496269 -0.23186916
0.41034731 0.24496269 -0.23186916
-0.40146285 0.26589993 -0.22004068
0.3512421 0.30436081 -0.23068005
0.33220449 0.32484868 -0.22479254
-0.26146305 0.38349262 -0.23012811
-0.24229041 0.40417406 -0.22418869
0.19285412 0.44200134 -0.23480624
0.17348379 0.46276924 -0.22894984
0.15402539 0.48363453 -0.22305435
-0.10313743 0.52104032 -0.23423153
-0.083629876 0.54200637 -0.228311
-0.064031638 0.5630666 -0.22237557
0.015275119 0.60023081 -0.23315495
-0.46312866 0.20725422 -0.20850217
-0.44319513 0.20725422 -0.20850217
-0.42326167 0.20725422 -0.20850217
-0.40332815 0.20725422 -0.20850217
-0.38339469 0.20725422 -0.20850217
-0.3634612 0.20725422 -0.20850217
-0.3435277 0.20725422 -0.20850217
-0.32359421 0.20725422 -0.20850217
-0.30366072 0.20725422 -0.20850217
-0.28372723 0.20725422 -0.20850217
-0.26379374 0.20725422 -0.20850217
-0.24386024 0.20725422 -0.20850217
-0.22392561 0.20725331 -0.20851457
-0.2039922 0.20725331 -0.20851457
-0.18405882 0.20725331 -0.20851457
-0.16412543 0.20725331 -0.20851457
-0.14419203 0.20725331 -0.20851457
-0.12425864 0.20725331 -0.20851457
-0.10432524 0.20725331 -0.20851457
-0.084391847 0.20725331 -0.20851457
-0.064458452 0.20725331 -0.20851457
-0.044525065 0.20725331 -0.20851457
-0.024591668 0.20725331 -0.20851457
-0.0046582744 0.20725331 -0.20851457
0.015275119 0.20725331 -0.20851457
0.035208512 0.20725331 -0.20851457
0.055141903 0.20725331 -0.20851457
0.075075299 0.20725331 -0.20851457
0.095008694 0.20725331 -0.20851457
0.11494257 0.20725422 -0.20850217
0.13487606 0.20725422 -0.20850217
0.15480955 0.20725422 -0.20850217
0.17474304 0.20725422 -0.20850217
0.19467652 0.20725422 -0.20850217
0.21461003 0.20725422 -0.20850217
0.23454352 0.20725422 -0.20850217
0.25447699 0.20725422 -0.20850217
0.27441049 0.20725422 -0.20850217
0.29434398 0.20725422 -0.20850217
0.31427747 0.20725422 -0.20850217
0.33421096 0.20725422 -0.20850217
0.35414445 0.20725422 -0.20850217
0.37407795 0.20725422 -0.20850217
0.39401144 0.20725422 -0.20850217
0.41394493 0.20725422 -0.20850217
0.43387839 0.20725422 -0.20850217
0.45381191 0.20725422 -0.20850217
0.47374538 0.20725422 -0.20850217
0.45376962 0.22716661 -0.20875162
-0.38253984 0.28638974 -0.21405447
-0.36352873 0.30697501 -0.2080403
0.31307796 0.34542921 -0.21889031
0.29386345 0.36610425 -0.2129609
0.27456164 0.38687652 -0.20699155
-0.2230289 0.42495134 -0.21822178
-0.20367891 0.44582731 -0.21221471
-0.18423761 0.46679866 -0.20619202
0.1344769 0.50459343 -0.21714413
0.11483608 0.52563643 -0.21126884
0.095108703 0.54679602 -0.20526677
-0.044342667 0.58422458 -0.21641266
-0.024562305 0.60548061 -0.21042192
-0.0046900176 0.62683851 -0.204391
-0.48534149 0.18814123 -0.19665819
-0.46531683 0.18814123 -0.19665819
-0.44529215 0.18814123 -0.19665819
-0.42526752 0.18814123 -0.19665819
-0.40524283 0.18814123 -0.19665819
-0.38521814 0.18814123 -0.19665819
-0.36519349 0.18814123 -0.19665819
-0.3451671 0.18814039 -0.19667083
-0.32514253 0.18814039 -0.19667083
-0.30511796 0.18814039 -0.19667083
-0.2850934 0.18814039 -0.19667083
-0.26506883 0.18814039 -0.19667083
-0.24504426 0.18814039 -0.19667083
-0.22501969 0.18814039 -0.19667083
-0.20499513 0.18814039 -0.19667083
-0.18497056 0.18814039 -0.19667083
-0.16494599 0.18814039 -0.19667083
-0.14492142 0.18814039 -0.19667083
-0.12489685 0.18814039 -0.19667083
-0.10487229 0.18814039 -0.19667083
-0.084847718 0.18814039 -0.19667083
-0.064823151 0.18814039 -0.19667083
-0.044798583 0.18814039 -0.19667083
-0.024774017 0.18814039 -0.19667083
-0.004749449 0.18814039 -0.19667083
0.015275119 0.18814039 -0.19667083
0.035299689 0.18814039 -0.19667083
0.055324256 0.18814039 -0.19667083
0.075348824 0.18814039 -0.19667083
0.095373392 0.18814039 -0.19667083
0.11539796 0.18814039 -0.19667083
0.13542253 0.18814039 -0.19667083
0.1554471 0.18814039 -0.19667083
0.17547166 0.18814039 -0.19667083
0.19549623 0.18814039 -0.19667083
0.2155208 0.18814039 -0.19667083
0.23554537 0.18814039 -0.19667083
0.25556993 0.18814039 -0.19667083
0.27559575 0.18814123 -0.19665819
0.29562041 0.18814123 -0.19665819
0.3156451 0.18814123 -0.19665819
0.33566976 0.18814123 -0.19665819
0.35569441 0.18814123 -0.19665819
0.37571907 0.18814123 -0.19665819
0.39574373 0.18814123 -0.19665819
0.41576838 0.18814123 -0.19665819
0.43579307 0.18814123 -0.19665819
0.45581776 0.18814123 -0.19665819
0.47584239 0.18814123 -0.19665819
-0.48629797 0.20854853 -0.19168818
0.43480417 0.24765027 -0.20277542
0.41575292 0.26822981 -0.19675887
0.39661121 0.28890368 -0.19072723
-0.3444289 0.32765627 -0.20199811
-0.32523975 0.34843421 -0.19592774
-0.30596066 0.3693096 -0.18982887
0.25516933 0.40774304 -0.20100737
0.23568726 0.42870608 -0.19499528
0.2161157 0.44976857 -0.18894267
-0.16470554 0.48786777 -0.20014119
-0.14508209 0.50903547 -0.19406211
-0.12536654 0.53030264 -0.18795443
0.075288109 0.56804049 -0.19929963
0.055376269 0.58938587 -0.19329238
0.03537225 0.61083323 -0.1872443
-0.46975142 0.14938533 -0.17265534
-0.44954196 0.14938533 -0.17265534
-0.42933252 0.14938533 -0.17265534
-0.40912306 0.14938533 -0.17265534
-0.38891366 0.14938533 -0.17265534
-0.3687042 0.14938533 -0.17265534
-0.34849477 0.14938533 -0.17265534
-0.32828534 0.14938533 -0.17265534
-0.30807588 0.14938533 -0.17265534
-0.28786644 0.14938533 -0.17265534
-0.26765701 0.14938533 -0.17265534
-0.24744755 0.14938533 -0.17265534
-0.22723815 0.14938533 -0.17265534
-0.2070287 0.14938533 -0.17265534
-0.18681927 0.14938533 -0.17265534
-0.16660982 0.14938533 -0.17265534
-0.1463996 0.14938466 -0.1726681
-0.12619025 0.14938466 -0.1726681
-0.10598092 0.14938466 -0.1726681
-0.085771568 0.14938466 -0.1726681
-0.065562241 0.14938466 -0.1726681
-0.045353197 0.14938533 -0.17265534
-0.025143756 0.14938533 -0.17265534
-0.0049343184 0.14938533 -0.17265534
0.015275119 0.14938533 -0.17265534
0.035484556 0.14938533 -0.17265534
0.055693991 0.14938533 -0.17265534
0.075903438 0.14938533 -0.17265534
0.09611287 0.14938533 -0.17265534
0.11632232 0.14938533 -0.17265534
0.13653176 0.14938533 -0.17265534
0.15674119 0.14938533 -0.17265534
0.17695062 0.14938533 -0.17265534
0.19716007 0.14938533 -0.17265534
0.21736951 0.14938533 -0.17265534
0.23757894 0.14938533 -0.17265534
0.25778839 0.14938533 -0.17265534
0.27799779 0.14938533 -0.17265534
0.29820725 0.14938533 -0.17265534
0.31841668 0.14938533 -0.17265534
0.33862612 0.14938533 -0.17265534
0.35883558 0.14938533 -0.17265534
0.37904501 0.14938533 -0.17265534
0.39925444 0.14938533 -0.17265534
0.4194639 0.14938533 -0.17265534
0.4396733 0.14938533 -0.17265534
0.45988277 0.14938533 -0.17265534
0.4800922 0.14938533 -0.17265534
-0.48764175 0.16885272 -0.1847055
-0.46752277 0.168852 -0.18471837
-0.4474062 0.168852 -0.18471837
-0.42728961 0.168852 -0.18471837
-0.40717301 0.168852 -0.18471837
-0.38705641 0.168852 -0.18471837
-0.36693987 0.168852 -0.18471837
-0.34682328 0.168852 -0.18471837
-0.32670671 0.168852 -0.18471837
-0.30659011 0.168852 -0.18471837
-0.28647354 0.168852 -0.18471837
-0.26635697 0.168852 -0.18471837
-0.24624041 0.168852 -0.18471837
-0.22612382 0.168852 -0.18471837
-0.20600724 0.168852 -0.18471837
-0.18589064 0.168852 -0.18471837
-0.16577408 0.168852 -0.18471837
-0.14565751 0.168852 -0.18471837
-0.12554093 0.168852 -0.18471837
-0.10542435 0.168852 -0.18471837
-0.085307762 0.168852 -0.18471837
-0.065191187 0.168852 -0.18471837
-0.045074619 0.168852 -0.18471837
-0.024958035 0.168852 -0.18471837
-0.0048414581 0.168852 -0.18471837
0.015275119 0.168852 -0.18471837
0.035391696 0.168852 -0.18471837
0.055508271 0.168852 -0.18471837
0.075624853 0.168852 -0.18471837
0.095741428 0.168852 -0.18471837
0.115858 0.168852 -0.18471837
0.13597459 0.168852 -0.18471837
0.15609117 0.168852 -0.18471837
0.17620775 0.168852 -0.18471837
0.19632432 0.168852 -0.18471837
0.21644089 0.168852 -0.18471837
0.23655748 0.168852 -0.18471837
0.25667405 0.168852 -0.18471837
0.27679065 0.168852 -0.18471837
0.29690722 0.168852 -0.18471837
0.31702378 0.168852 -0.18471837
0.33714035 0.168852 -0.18471837
0.35725695 0.168852 -0.18471837
0.37737352 0.168852 -0.18471837
0.39749011 0.168852 -0.18471837
0.41760665 0.168852 -0.18471837
0.43772528 0.16885272 -0.1847055
0.45783985 0.168852 -0.18471837
0.47795644 0.168852 -0.18471837
-0.46736553 0.22912958 -0.18556929
-0.44834393 0.24980748 -0.17942166
-0.42923263 0.27058303 -0.17324519
0.37738058 0.30967385 -0.18466747
0.35806197 0.33054221 -0.17856669
0.33865142 0.35150659 -0.17245018
-0.28659242 0.3902849 -0.18368876
-0.26713142 0.41135719 -0.1775322
-0.24757856 0.43252909 -0.17134666
0.19645208 0.47092709 -0.18287444
0.17669673 0.49218425 -0.1767782
-0.10555831 0.55166978 -0.18181813
-0.085656211 0.57313478 -0.1756655
0.015275119 0.63237733 -0.18118119
-0.47200075 0.12973821 -0.1604805
-0.45169756 0.12973821 -0.1604805
-0.4313944 0.12973821 -0.1604805
-0.41109124 0.12973821 -0.1604805
-0.39078808 0.12973821 -0.1604805
-0.37048492 0.12973821 -0.1604805
-0.35018176 0.12973821 -0.1604805
-0.3298786 0.12973821 -0.1604805
-0.30957544 0.12973821 -0.1604805
-0.28927079 0.12973765 -0.16049349
-0.26896772 0.12973765 -0.16049349
-0.24866465 0.12973765 -0.16049349
-0.22836159 0.12973765 -0.16049349
-0.20805854 0.12973765 -0.16049349
-0.18775547 0.12973765 -0.16049349
-0.16745242 0.12973765 -0.16049349
-0.14714937 0.12973765 -0.16049349
-0.1268463 0.12973765 -0.16049349
-0.10654324 0.12973765 -0.16049349
-0.086240172 0.12973765 -0.16049349
-0.065937124 0.12973765 -0.16049349
-0.045634061 0.12973765 -0.16049349
-0.025331004 0.12973765 -0.16049349
-0.0050279424 0.12973765 -0.16049349
0.015275119 0.12973765 -0.16049349
0.03557818 0.12973765 -0.16049349
0.055881239 0.12973765 -0.16049349
0.076184295 0.12973765 -0.16049349
0.096487366 0.12973765 -0.16049349
0.11679092 0.12973821 -0.1604805
0.13709408 0.12973821 -0.1604805
0.15739724 0.12973821 -0.1604805
0.1777004 0.12973821 -0.1604805
0.19800356 0.12973821 -0.1604805
0.21830672 0.12973821 -0.1604805
0.23860988 0.12973821 -0.1604805
0.25891304 0.12973821 -0.1604805
0.2792162 0.12973821 -0.1604805
0.29951936 0.12973821 -0.1604805
0.31982252 0.12973821 -0.1604805
0.34012568 0.12973821 -0.1604805
0.36042884 0.12973821 -0.1604805
0.380732 0.12973821 -0.1604805
0.40103516 0.12973821 -0.1604805
0.42133832 0.12973821 -0.1604805
0.44164148 0.12973821 -0.1604805
0.46194464 0.12973821 -0.1604805
0.4822478 0.12973821 -0.1604805
0.4819867 0.23112912 -0.16195512
0.46274614 0.25199449 -0.15574789
-0.41003096 0.29145661 -0.16703928
-0.39074025 0.31243098 -0.16079116
0.31914997 0.37256905 -0.16630495
0.29955843 0.39373228 -0.1601181
-0.22793312 0.45380098 -0.16513181
-0.20819454 0.4751741 -0.15888751
0.15684977 0.51354301 -0.17064047
0.13690902 0.53499955 -0.16448689
0.11687268 0.55654615 -0.15835607
-0.065660283 0.59470099 -0.16948414
-0.045570157 0.61637217 -0.16326046
-0.025384476 0.63814306 -0.15702033
-0.474271 0.10990813 -0.14819241
-0.45387095 0.10990761 -0.14820552
-0.43347326 0.10990761 -0.14820552
-0.41307563 0.10990761 -0.14820552
-0.39267796 0.10990761 -0.14820552
-0.37228033 0.10990761 -0.14820552
-0.35188267 0.10990761 -0.14820552
-0.331485 0.10990761 -0.14820552
-0.31108734 0.10990761 -0.14820552
-0.29068971 0.10990761 -0.14820552
-0.27029204 0.10990761 -0.14820552
-0.24989438 0.10990761 -0.14820552
-0.22949673 0.10990761 -0.14820552
-0.20909907 0.10990761 -0.14820552
-0.18870142 0.10990761 -0.14820552
-0.16830376 0.10990761 -0.14820552
-0.14790611 0.10990761 -0.14820552
-0.12750846 0.10990761 -0.14820552
-0.10711081 0.10990761 -0.14820552
-0.08671315 0.10990761 -0.14820552
-0.066315494 0.10990761 -0.14820552
-0.045917846 0.10990761 -0.14820552
-0.025520189 0.10990761 -0.14820552
-0.0051225349 0.10990761 -0.14820552
0.015275119 0.10990761 -0.14820552
0.035672773 0.10990761 -0.14820552
0.056070425 0.10990761 -0.14820552
0.07646808 0.10990761 -0.14820552
0.096865736 0.10990761 -0.14820552
0.11726339 0.10990761 -0.14820552
0.13766104 0.10990761 -0.14820552
0.1580587 0.10990761 -0.14820552
0.17845635 0.10990761 -0.14820552
0.198854 0.10990761 -0.14820552
0.21925166 0.10990761 -0.14820552
0.23964931 0.10990761 -0.14820552
0.26004696 0.10990761 -0.14820552
0.28044462 0.10990761 -0.14820552
0.30084229 0.10990761 -0.14820552
0.32123995 0.10990761 -0.14820552
0.34163919 0.10990813 -0.14819241
0.36203694 0.10990813 -0.14819241
0.38243473 0.10990813 -0.14819241
0.40283248 0.10990813 -0.14819241
0.4232302 0.10990813 -0.14819241
0.44362798 0.10990813 -0.14819241
0.46402574 0.10990813 -0.14819241
0.48442349 0.10990813 -0.14819241
0.44341481 0.27295807 -0.14951098
0.42398787 0.29401827 -0.14327109
-0.3713558 0.33350328 -0.15452623
-0.35187903 0.35467601 -0.14823151
-0.33230928 0.37594974 -0.14190674
0.27987325 0.41499323 -0.15391505
0.26009524 0.43635446 -0.14768267
0.24022491 0.45781896 -0.14140785
-0.18836308 0.49665096 -0.15260053
-0.16843599 0.51822788 -0.14629674
-0.14841375 0.53990799 -0.13996267
0.096744038 0.57820177 -0.1521579
0.076520622 0.59995914 -0.14593029
0.056201786 0.62181938 -0.13967335
-0.0051029436 0.66001725 -0.1507504
-0.47887313 0.069687828 -0.12328255
-0.45828366 0.069687828 -0.12328255
-0.43769413 0.069687828 -0.12328255
-0.41710463 0.069687828 -0.12328255
-0.3965151 0.069687828 -0.12328255
-0.3759256 0.069687828 -0.12328255
-0.3553361 0.069687828 -0.12328255
-0.33474657 0.069687828 -0.12328255
-0.31415707 0.069687828 -0.12328255
-0.29356757 0.069687828 -0.12328255
-0.27297661 0.069687441 -0.12329566
-0.2523872 0.069687441 -0.12329566
-0.23179778 0.069687441 -0.12329566
-0.21120839 0.069687441 -0.12329566
-0.19061896 0.069687441 -0.12329566
-0.17002955 0.069687441 -0.12329566
-0.14944017 0.069687441 -0.12329566
-0.12885074 0.069687441 -0.12329566
-0.10826133 0.069687441 -0.12329566
-0.087671921 0.069687441 -0.12329566
-0.067082517 0.069687441 -0.12329566
-0.046493106 0.069687441 -0.12329566
-0.025903905 0.069687828 -0.12328255
-0.005314393 0.069687828 -0.12328255
0.015275119 0.069687828 -0.12328255
0.035864629 0.069687828 -0.12328255
0.056454144 0.069687828 -0.12328255
0.077043653 0.069687828 -0.12328255
0.097633168 0.069687828 -0.12328255
0.11822268 0.069687828 -0.12328255
0.13881218 0.069687828 -0.12328255
0.1594017 0.069687828 -0.12328255
0.17999122 0.069687828 -0.12328255
0.20058075 0.069687828 -0.12328255
0.22117023 0.069687828 -0.12328255
0.24175975 0.069687828 -0.12328255
0.26234925 0.069687828 -0.12328255
0.28293878 0.069687828 -0.12328255
0.30352828 0.069687828 -0.12328255
0.32411781 0.069687828 -0.12328255
0.34470731 0.069687828 -0.12328255
0.36529681 0.069687828 -0.12328255
0.38588634 0.069687828 -0.12328255
0.40647584 0.069687828 -0.12328255
0.42706534 0.069687828 -0.12328255
0.44765487 0.069687828 -0.12328255
0.46824437 0.069687828 -0.12328255
-0.47656009 0.089891806 -0.13580215
-0.45606694 0.089891806 -0.13580215
-0.43557385 0.089891806 -0.13580215
-0.4150807 0.089891806 -0.13580215
-0.39458755 0.089891806 -0.13580215
-0.37409443 0.089891806 -0.13580215
-0.35360128 0.089891806 -0.13580215
-0.33310816 0.089891806 -0.13580215
-0.31261504 0.089891806 -0.13580215
-0.29212189 0.089891806 -0.13580215
-0.27162877 0.089891806 -0.13580215
-0.25113562 0.089891806 -0.13580215
-0.23064248 0.089891806 -0.13580215
-0.21014936 0.089891806 -0.13580215
-0.18965621 0.089891806 -0.13580215
-0.16916309 0.089891806 -0.13580215
-0.14866996 0.089891806 -0.13580215
-0.12817682 0.089891806 -0.13580215
-0.10768368 0.089891806 -0.13580215
-0.087190546 0.089891806 -0.13580215
-0.066697419 0.089891806 -0.13580215
-0.046204284 0.089891806 -0.13580215
-0.025711151 0.089891806 -0.13580215
-0.005218016 0.089891806 -0.13580215
0.015275119 0.089891806 -0.13580215
0.035768256 0.089891806 -0.13580215
0.05626139 0.089891806 -0.13580215
0.076754518 0.089891806 -0.13580215
0.09724766 0.089891806 -0.13580215
0.11774079 0.089891806 -0.13580215
0.13823391 0.089891806 -0.13580215
0.15872706 0.089891806 -0.13580215
0.1792202 0.089891806 -0.13580215
0.19971333 0.089891806 -0.13580215
0.22020645 0.089891806 -0.13580215
0.2406996 0.089891806 -0.13580215
0.26119271 0.089891806 -0.13580215
0.28168586 0.089891806 -0.13580215
0.30217901 0.089891806 -0.13580215
0.32267213 0.089891806 -0.13580215
0.34316528 0.089891806 -0.13580215
0.3636584 0.089891806 -0.13580215
0.38415152 0.089891806 -0.13580215
0.40464467 0.089891806 -0.13580215
0.42513779 0.089891806 -0.13580215
0.44563094 0.089891806 -0.13580215
0.46612409 0.089891806 -0.13580215
0.48661718 0.089891806 -0.13580215
-0.47742647 0.25427017 -0.13111258
-0.45803162 0.27544042 -0.12470591
0.40447694 0.31518391 -0.13694894
0.38486367 0.33644241 -0.1306628
0.36516273 0.35780698 -0.12430692
-0.31264588 0.39732552 -0.13555157
-0.29288816 0.41880369 -0.12916601
0.22025925 0.47938275 -0.13511634
0.2001988 0.50104922 -0.12879491
-0.12829559 0.561692 -0.13359821
-0.10808023 0.58357769 -0.12721658
0.035786949 0.64378601 -0.13337362
0.015275119 0.6658538 -0.12705731
-0.48120809 0.049292963 -0.11064434
-0.46052128 0.049292963 -0.11064434
-0.43983448 0.049292963 -0.11064434
-0.41914767 0.049292963 -0.11064434
-0.39845881 0.049292725 -0.11065769
-0.37777212 0.049292725 -0.11065769
-0.35708544 0.049292725 -0.11065769
-0.33639872 0.049292725 -0.11065769
-0.31571203 0.049292725 -0.11065769
-0.29502532 0.049292725 -0.11065769
-0.27433863 0.049292725 -0.11065769
-0.25365192 0.049292725 -0.11065769
-0.23296525 0.049292725 -0.11065769
-0.21227853 0.049292725 -0.11065769
-0.19159184 0.049292725 -0.11065769
-0.17090517 0.049292725 -0.11065769
-0.15021846 0.049292725 -0.11065769
-0.12953176 0.049292725 -0.11065769
-0.10884506 0.049292725 -0.11065769
-0.088158362 0.049292725 -0.11065769
-0.067471668 0.049292725 -0.11065769
-0.046784975 0.049292725 -0.11065769
-0.026098276 0.049292725 -0.11065769
-0.0054115783 0.049292725 -0.11065769
0.015275119 0.049292725 -0.11065769
0.035961814 0.049292725 -0.11065769
0.056648515 0.049292725 -0.11065769
0.077335209 0.049292725 -0.11065769
0.09802191 0.049292725 -0.11065769
0.1187086 0.049292725 -0.11065769
0.1393953 0.049292725 -0.11065769
0.160082 0.049292725 -0.11065769
0.1807687 0.049292725 -0.11065769
0.20145632 0.049292963 -0.11064434
0.22214311 0.049292963 -0.11064434
0.24282992 0.049292963 -0.11064434
0.26351672 0.049292963 -0.11064434
0.28420353 0.049292963 -0.11064434
0.3048903 0.049292963 -0.11064434
0.32557711 0.049292963 -0.11064434
0.34626392 0.049292963 -0.11064434
0.36695072 0.049292963 -0.11064434
0.38763753 0.049292963 -0.11064434
0.4083243 0.049292963 -0.11064434
0.42901111 0.049292963 -0.11064434
0.44969791 0.049292963 -0.11064434
0.47038472 0.049292963 -0.11064434
-0.43854332 0.29671285 -0.11826813
-0.41896096 0.31808791 -0.11179924
0.34536606 0.37927169 -0.11793411
0.32547474 0.40083879 -0.11153078
-0.27303687 0.44038731 -0.12273657
-0.25308836 0.46207285 -0.11628926
-0.23304346 0.48386326 -0.10981107
0.1800437 0.52282101 -0.12243032
0.15979151 0.54469448 -0.11604834
0.13943937 0.56665844 -0.1097033
-0.087767817 0.60556835 -0.12080431
-0.06735763 0.62766492 -0.11436105
-0.04684896 0.64986813 -0.10788691
-0.48356268 0.028704254 -0.097899675
-0.46277776 0.028704254 -0.097899675
-0.44199288 0.028704254 -0.097899675
-0.42120793 0.028704254 -0.097899675
-0.40042302 0.028704254 -0.097899675
-0.37963814 0.028704254 -0.097899675
-0.35885322 0.028704254 -0.097899675
-0.33806831 0.028704254 -0.097899675
-0.31728342 0.028704254 -0.097899675
-0.29649848 0.028704254 -0.097899675
-0.27571359 0.028704254 -0.097899675
-0.25492868 0.028704254 -0.097899675
-0.23414378 0.028704254 -0.097899675
-0.21335888 0.028704254 -0.097899675
-0.19257395 0.028704254 -0.097899675
-0.17178905 0.028704254 -0.097899675
-0.15100415 0.028704254 -0.097899675
-0.13021924 0.028704254 -0.097899675
-0.10943433 0.028704254 -0.097899675
-0.088649414 0.028704254 -0.097899675
-0.067864515 0.028704254 -0.097899675
-0.047079608 0.028704254 -0.097899675
-0.026294699 0.028704254 -0.097899675
-0.00550979 0.028704254 -0.097899675
0.015275119 0.028704254 -0.097899675
0.036060028 0.028704254 -0.097899675
0.056844935 0.028704254 -0.097899675
0.077629842 0.028704254 -0.097899675
0.098414756 0.028704254 -0.097899675
0.11919966 0.028704254 -0.097899675
0.13998456 0.028704254 -0.097899675
0.16076948 0.028704254 -0.097899675
0.18155439 0.028704254 -0.097899675
0.20233929 0.028704254 -0.097899675
0.22312419 0.028704254 -0.097899675
0.24390912 0.028704254 -0.097899675
0.26469401 0.028704254 -0.097899675
0.28547892 0.028704254 -0.097899675
0.30626383 0.028704254 -0.097899675
0.32704872 0.028704254 -0.097899675
0.34783366 0.028704254 -0.097899675
0.36861855 0.028704254 -0.097899675
0.38940346 0.028704254 -0.097899675
0.41018838 0.028704254 -0.097899675
0.43097326 0.028704254 -0.097899675
0.45175818 0.028704254 -0.097899675
0.47254312 0.028704254 -0.097899675
0.47209555 0.27785867 -0.10054219
0.45238185 0.2993238 -0.094041824
-0.3992838 0.33956641 -0.10529923
-0.37951317 0.36115089 -0.098754048
-0.35964429 0.38283873 -0.092190504
0.30548963 0.42251146 -0.10508323
0.28540701 0.44428617 -0.098618388
0.26522771 0.46616572 -0.092122316
-0.21290149 0.50575918 -0.10330105
-0.19266172 0.52776134 -0.096759796
0.11899281 0.58873844 -0.10327411
0.09844818 0.61092401 -0.096814036
-0.026241301 0.67218196 -0.10136771
-0.005533414 0.69460094 -0.094830632
-0.48594218 0.0079192603 -0.085019946
-0.46505818 0.0079192603 -0.085019946
-0.44417411 0.0079192603 -0.085019946
-0.42329004 0.0079192603 -0.085019946
-0.40240601 0.0079192603 -0.085019946
-0.38152194 0.0079192603 -0.085019946
-0.36063787 0.0079192603 -0.085019946
-0.33975384 0.0079192603 -0.085019946
-0.31886977 0.0079192603 -0.085019946
-0.2979857 0.0079192603 -0.085019946
-0.27710167 0.0079192603 -0.085019946
-0.2562176 0.0079192603 -0.085019946
-0.23533353 0.0079192603 -0.085019946
-0.2144495 0.0079192603 -0.085019946
-0.19356439 0.0079192603 -0.085033655
-0.17268044 0.0079192603 -0.085033655
-0.15179732 0.0079192603 -0.085019946
-0.13091327 0.0079192603 -0.085019946
-0.11002921 0.0079192603 -0.085019946
-0.089145161 0.0079192603 -0.085019946
-0.068261102 0.0079192603 -0.085019946
-0.047377042 0.0079192603 -0.085019946
-0.026492992 0.0079192603 -0.085019946
-0.0056089368 0.0079192603 -0.085019946
0.015275119 0.0079192603 -0.085019946
0.036159173 0.0079192603 -0.085019946
0.057043232 0.0079192603 -0.085019946
0.077927284 0.0079192603 -0.085019946
0.098811343 0.0079192603 -0.085019946
0.1196954 0.0079192603 -0.085019946
0.14057945 0.0079192603 -0.085019946
0.16146351 0.0079192603 -0.085019946
0.18234757 0.0079192603 -0.085019946
0.20323162 0.0079192603 -0.085019946
0.22411568 0.0079192603 -0.085019946
0.24499974 0.0079192603 -0.085019946
0.26588377 0.0079192603 -0.085019946
0.28676784 0.0079192603 -0.085019946
0.30765191 0.0079192603 -0.085019946
0.32853594 0.0079192603 -0.085019946
0.34942001 0.0079192603 -0.085019946
0.37030408 0.0079192603 -0.085019946
0.39118811 0.0079192603 -0.085019946
0.41207218 0.0079192603 -0.085019946
0.43295625 0.0079192603 -0.085019946
0.45384029 0.0079192603 -0.085019946
0.47472435 0.0079192603 -0.085019946
0.43257287 0.32089266 -0.087509871
0.41266796 0.34256595 -0.080946445
-0.33967856 0.40463224 -0.085595012
-0.31961527 0.42653233 -0.078967214
0.2449522 0.48815325 -0.085581303
0.22457738 0.51024467 -0.079022288
-0.17232437 0.54987341 -0.090172768
-0.15188593 0.57208782 -0.083581328
-0.13134773 0.59441078 -0.076957345
0.077804819 0.63321638 -0.090322971
0.057062216 0.65561932 -0.083786845
0.03621912 0.67812729 -0.077232957
-0.46736041 -0.01306488 -0.072016835
-0.44637629 -0.01306488 -0.072016835
-0.42539215 -0.01306488 -0.072016835
-0.40440795 -0.01306488 -0.072016835
-0.38342381 -0.01306488 -0.072016835
-0.36243966 -0.01306488 -0.072016835
-0.34145552 -0.01306488 -0.072016835
-0.32046965 -0.013064688 -0.072030544
-0.29948562 -0.013064688 -0.072030544
-0.27850157 -0.013064688 -0.072030544
-0.25751749 -0.013064688 -0.072030544
-0.23653346 -0.013064688 -0.072030544
-0.21554941 -0.013064688 -0.072030544
-0.19456537 -0.013064688 -0.072030544
-0.17358132 -0.013064688 -0.072030544
-0.15259726 -0.013064688 -0.072030544
-0.13161322 -0.013064688 -0.072030544
-0.11062917 -0.013064688 -0.072030544
-0.089645125 -0.013064688 -0.072030544
-0.068661071 -0.013064688 -0.072030544
-0.047677025 -0.013064688 -0.072030544
-0.026692977 -0.013064688 -0.072030544
-0.0057089292 -0.013064688 -0.072030544
0.015275119 -0.013064688 -0.072030544
0.036259167 -0.013064688 -0.072030544
0.057243429 -0.01306488 -0.072016835
0.078227587 -0.01306488 -0.072016835
0.099211738 -0.01306488 -0.072016835
0.12019589 -0.01306488 -0.072016835
0.14118005 -0.01306488 -0.072016835
0.16216421 -0.01306488 -0.072016835
0.18314835 -0.01306488 -0.072016835
0.20413251 -0.01306488 -0.072016835
0.22511666 -0.01306488 -0.072016835
0.24610083 -0.01306488 -0.072016835
0.26708499 -0.01306488 -0.072016835
0.28806913 -0.01306488 -0.072016835
0.3090533 -0.01306488 -0.072016835
0.33003744 -0.01306488 -0.072016835
0.35102159 -0.01306488 -0.072016835
0.37200576 -0.01306488 -0.072016835
0.3929899 -0.01306488 -0.072016835
0.41397405 -0.01306488 -0.072016835
0.43495819 -0.01306488 -0.072016835
0.45594239 -0.01306488 -0.072016835
0.47692654 -0.01306488 -0.072016835
-0.48791331 0.28047967 -0.074351311
-0.46813276 0.30216753 -0.067654729
-0.44825241 0.32396078 -0.060938835
0.39266643 0.36434439 -0.07435143
0.37256753 0.38622886 -0.067723989
0.35236028 0.40820804 -0.061147809
-0.29945368 0.44853964 -0.072306991
-0.27919307 0.47065508 -0.065614104
0.2041038 0.5324434 -0.072431564
0.18353154 0.55475253 -0.065794826
0.16285358 0.57715064 -0.059223294
0.26798862 0.59758419 -0.062234402
0.28862092 0.59666407 -0.06650281
0.30974481 0.59685862 -0.065600276
-0.11070904 0.61684281 -0.070301175
0.26762125 0.61775583 -0.066211343
0.28897005 0.61846954 -0.06301403
-0.08996968 0.63938791 -0.063598394
0.015275119 0.70074433 -0.07064724
-0.47202933 -0.055642147 -0.045646906
-0.45084217 -0.055642147 -0.045646906
-0.42965502 -0.055642147 -0.045646906
-0.40846786 -0.055642147 -0.045646906
-0.38728073 -0.055642147 -0.045646906
-0.36609361 -0.055642147 -0.045646906
-0.34490645 -0.055642147 -0.045646906
-0.32371929 -0.055642147 -0.045646906
-0.30253214 -0.055642147 -0.045646906
-0.28134498 -0.055642147 -0.045646906
-0.26015782 -0.055642147 -0.045646906
-0.23897067 -0.055642147 -0.045646906
-0.21778353 -0.055642147 -0.045646906
-0.19659637 -0.055642147 -0.045646906
-0.17540924 -0.055642147 -0.045646906
-0.15422207 -0.055642147 -0.045646906
-0.13303493 -0.055642147 -0.045646906
-0.11184777 -0.055642147 -0.045646906
-0.090660624 -0.055642147 -0.045646906
-0.069473483 -0.055642147 -0.045646906
-0.048286326 -0.055642147 -0.045646906
-0.027099183 -0.055642147 -0.045646906
-0.005912032 -0.055642147 -0.045646906
0.015275119 -0.055642147 -0.045646906
0.03646227 -0.055642147 -0.045646906
0.057649419 -0.055642147 -0.045646906
0.078836568 -0.055642147 -0.045646906
0.10002372 -0.055642147 -0.045646906
0.12121087 -0.055642147 -0.045646906
0.14239801 -0.055642147 -0.045646906
0.16358517 -0.055642147 -0.045646906
0.18477231 -0.055642147 -0.045646906
0.20595948 -0.055642147 -0.045646906
0.22714661 -0.055642147 -0.045646906
0.24833377 -0.055642147 -0.045646906
0.26952091 -0.055642147 -0.045646906
0.29070807 -0.055642147 -0.045646906
0.31189522 -0.055642147 -0.045646906
0.33308238 -0.055642147 -0.045646906
0.35426953 -0.055642147 -0.045646906
0.37545669 -0.055642147 -0.045646906
0.39664385 -0.055642147 -0.045646906
0.41783097 -0.055642147 -0.045646906
0.4390181 -0.055642147 -0.045646906
0.46020526 -0.055642147 -0.045646906
0.48139241 -0.055642147 -0.045646906
-0.4696824 -0.034250934 -0.058902144
-0.44859728 -0.034250934 -0.058902144
-0.4275122 -0.034250934 -0.058902144
-0.40642712 -0.034250934 -0.058902144
-0.38534197 -0.034250934 -0.058902144
-0.36425686 -0.034250934 -0.058902144
-0.34317178 -0.034250934 -0.058902144
-0.32208663 -0.034250934 -0.058902144
-0.30100152 -0.034250934 -0.058902144
-0.27991644 -0.034250934 -0.058902144
-0.25883129 -0.034250934 -0.058902144
-0.23774621 -0.034250934 -0.058902144
-0.21666108 -0.034250934 -0.058902144
-0.195576 -0.034250934 -0.058902144
-0.17449087 -0.034250934 -0.058902144
-0.15340576 -0.034250934 -0.058902144
-0.13232066 -0.034250934 -0.058902144
-0.11123554 -0.034250934 -0.058902144
-0.090150438 -0.034250934 -0.058902144
-0.069065318 -0.034250934 -0.058902144
-0.047980212 -0.034250934 -0.058902144
-0.0268951 -0.034250934 -0.058902144
-0.0058099907 -0.034250934 -0.058902144
0.015275119 -0.034250934 -0.058902144
0.036360227 -0.034250934 -0.058902144
0.05744534 -0.034250934 -0.058902144
0.078530453 -0.034250934 -0.058902144
0.099615559 -0.034250934 -0.058902144
0.12070068 -0.034250934 -0.058902144
0.14178579 -0.034250934 -0.058902144
0.1628709 -0.034250934 -0.058902144
0.183956 -0.034250934 -0.058902144
0.20504111 -0.034250934 -0.058902144
0.22612624 -0.034250934 -0.058902144
0.24721132 -0.034250934 -0.058902144
0.26829773 -0.034251172 -0.058888197
0.28938296 -0.034251172 -0.058888197
0.31046817 -0.034251172 -0.058888197
0.3315534 -0.034251172 -0.058888197
0.3526386 -0.034251172 -0.058888197
0.3737238 -0.034251172 -0.058888197
0.39480904 -0.034251172 -0.058888197
0.41589424 -0.034251172 -0.058888197
0.4369795 -0.034251172 -0.058888197
0.45806468 -0.034251172 -0.058888197
0.47914994 -0.034251172 -0.058888197
-0.42827398 0.34586149 -0.05418992
-0.40819678 0.36787039 -0.047407627
0.33206356 0.4303039 -0.054469943
0.31167665 0.45252171 -0.047675014
-0.25883409 0.49288169 -0.058874369
-0.23837316 0.51521587 -0.052115321
-0.21781097 0.53766048 -0.045322537
0.26974767 0.55927652 -0.043192148
0.24799886 0.57915026 -0.049601912
0.26869294 0.57810932 -0.054610014
0.28982791 0.57814437 -0.054442167
0.31178439 0.57975864 -0.046675444
0.14207919 0.59967154 -0.052550077
0.24772191 0.59960198 -0.052872658
0.12120328 0.62230259 -0.045844197
0.24784903 0.62106872 -0.051371455
0.26865542 0.64137012 -0.055016041
-0.069127694 0.66204107 -0.05687654
-0.048182987 0.68480569 -0.050121665
-0.0271348 0.70768291 -0.043333292
-0.47439909 -0.077241436 -0.032262564
-0.45310891 -0.077241436 -0.032262564
-0.43181872 -0.077241436 -0.032262564
-0.41052854 -0.077241436 -0.032262564
-0.38923833 -0.077241436 -0.032262564
-0.36794817 -0.077241436 -0.032262564
-0.34665799 -0.077241436 -0.032262564
-0.32536781 -0.077241436 -0.032262564
-0.30407599 -0.077240914 -0.032276869
-0.28278589 -0.077240914 -0.032276869
-0.26149583 -0.077240914 -0.032276869
-0.24020573 -0.077240914 -0.032276869
-0.21891569 -0.077240914 -0.032276869
-0.19762562 -0.077240914 -0.032276869
-0.17633554 -0.077240914 -0.032276869
-0.15504546 -0.077240914 -0.032276869
-0.13375539 -0.077240914 -0.032276869
-0.11246531 -0.077240914 -0.032276869
-0.091175251 -0.077240914 -0.032276869
-0.069885172 -0.077240914 -0.032276869
-0.048595428 -0.077241436 -0.032262564
-0.027305247 -0.077241436 -0.032262564
-0.0060150642 -0.077241436 -0.032262564
0.015275119 -0.077241436 -0.032262564
0.036565304 -0.077241436 -0.032262564
0.057855487 -0.077241436 -0.032262564
0.07914567 -0.077241436 -0.032262564
0.10043585 -0.077241436 -0.032262564
0.12172604 -0.077241436 -0.032262564
0.14301622 -0.077241436 -0.032262564
0.1643064 -0.077241436 -0.032262564
0.18559659 -0.077241436 -0.032262564
0.20688677 -0.077241436 -0.032262564
0.22817695 -0.077241436 -0.032262564
0.24946713 -0.077241436 -0.032262564
0.27075732 -0.077241436 -0.032262564
0.2920475 -0.077241436 -0.032262564
0.31333768 -0.077241436 -0.032262564
0.33462787 -0.077241436 -0.032262564
0.35591805 -0.077241436 -0.032262564
0.37720823 -0.077241436 -0.032262564
0.39849842 -0.077241436 -0.032262564
0.41978857 -0.077241436 -0.032262564
0.44107878 -0.077241436 -0.032262564
0.46236897 -0.077241436 -0.032262564
0.48365915 -0.077241436 -0.032262564
0.48184642 0.30482823 -0.042966247
0.46173486 0.32681897 -0.036185026
0.44152185 0.34891665 -0.029384613
-0.38802013 0.38998848 -0.040591717
-0.36774319 0.41221648 -0.033741832
0.29118565 0.47484478 -0.0408746
0.27058521 0.49726361 -0.034125805
0.24988243 0.51978993 -0.027357936
-0.19714682 0.56021649 -0.038496375
0.22855341 0.56244278 -0.02737236
0.24935994 0.56121069 -0.033528566
0.29155555 0.5604803 -0.03717804
-0.17637992 0.58288455 -0.031636119
0.22849405 0.58361036 -0.028143406
0.22793292 0.60336107 -0.035432696
0.10022514 0.64504457 -0.039105535
0.24908572 0.64558458 -0.036766768
0.079144351 0.6679014 -0.032319427
-0.0059824642 0.73067713 -0.036497235
-0.47679198 -0.099051803 -0.018747449
-0.45539775 -0.099051803 -0.018747449
-0.43400121 -0.099051222 -0.018761873
-0.41260713 -0.099051222 -0.018761873
-0.391213 -0.099051222 -0.018761873
-0.3698189 -0.099051222 -0.018761873
-0.34842476 -0.099051222 -0.018761873
-0.32703066 -0.099051222 -0.018761873
-0.30563653 -0.099051222 -0.018761873
-0.28424242 -0.099051222 -0.018761873
-0.26284835 -0.099051222 -0.018761873
-0.24145421 -0.099051222 -0.018761873
-0.22006011 -0.099051222 -0.018761873
-0.19866601 -0.099051222 -0.018761873
-0.17727187 -0.099051222 -0.018761873
-0.15587777 -0.099051222 -0.018761873
-0.13448365 -0.099051222 -0.018761873
-0.11308955 -0.099051222 -0.018761873
-0.091695443 -0.099051222 -0.018761873
-0.070301324 -0.099051222 -0.018761873
-0.048907213 -0.099051222 -0.018761873
-0.027513104 -0.099051222 -0.018761873
-0.0061189923 -0.099051222 -0.018761873
0.015275119 -0.099051222 -0.018761873
0.036669232 -0.099051222 -0.018761873
0.058063343 -0.099051222 -0.018761873
0.079457454 -0.099051222 -0.018761873
0.10085157 -0.099051222 -0.018761873
0.12224623 -0.099051803 -0.018747449
0.14364046 -0.099051803 -0.018747449
0.16503468 -0.099051803 -0.018747449
0.18642889 -0.099051803 -0.018747449
0.20782311 -0.099051803 -0.018747449
0.22921734 -0.099051803 -0.018747449
0.25061154 -0.099051803 -0.018747449
0.2720058 -0.099051803 -0.018747449
0.29340002 -0.099051803 -0.018747449
0.31479424 -0.099051803 -0.018747449
0.33618847 -0.099051803 -0.018747449
0.35758266 -0.099051803 -0.018747449
0.37897688 -0.099051803 -0.018747449
0.4003711 -0.099051803 -0.018747449
0.42176533 -0.099051803 -0.018747449
0.44315955 -0.099051803 -0.018747449
0.46455377 -0.099051803 -0.018747449
0.485948 -0.099051803 -0.018747449
0.42121115 0.37112522 -0.022536516
0.40079975 0.39344397 -0.015654087
-0.34736714 0.43455714 -0.026843786
-0.32688734 0.45700747 -0.019925356
-0.30630505 0.47957018 -0.012972593
0.22901618 0.54227197 -0.021360517
0.25034049 0.54215866 -0.021948695
0.2725246 0.54385573 -0.013131142
0.20817924 0.56519794 -0.013607264
-0.15550861 0.60566241 -0.024756193
-0.13453324 0.62855381 -0.017841578
0.057959378 0.69086742 -0.025514364
0.036669895 0.71394688 -0.018675566
0.015275119 0.73714036 -0.011803031
-0.47920585 -0.12107567 -0.0051140785
-0.45770666 -0.12107567 -0.0051140785
-0.43620747 -0.12107567 -0.0051140785
-0.41470832 -0.12107567 -0.0051140785
-0.39320913 -0.12107567 -0.0051140785
-0.37170997 -0.12107567 -0.0051140785
-0.35021082 -0.12107567 -0.0051140785
-0.32871163 -0.12107567 -0.0051140785
-0.30721244 -0.12107567 -0.0051140785
-0.28571329 -0.12107567 -0.0051140785
-0.2642141 -0.12107567 -0.0051140785
-0.24271494 -0.12107567 -0.0051140785
-0.22121577 -0.12107567 -0.0051140785
-0.1997166 -0.12107567 -0.0051140785
-0.17821741 -0.12107567 -0.0051140785
-0.15671824 -0.12107567 -0.0051140785
-0.13521908 -0.12107567 -0.0051140785
-0.11371991 -0.12107567 -0.0051140785
-0.092220739 -0.12107567 -0.0051140785
-0.070721567 -0.12107567 -0.0051140785
-0.049222395 -0.12107567 -0.0051140785
