ply
format ascii 1.0
comment PCL generated
element vertex 1354
property float x
property float y
property float z
element camera 0
property float view_px
property float view_py
property float view_pz
property float x_axisx
property float x_axisy
property float x_axisz
property float y_axisx
property float y_axisy
property float y_axisz
property float z_axisx
property float z_axisy
property float z_axisz
property float focal
property float scalex
property float scaley
property float centerx
property float centery
property int viewportx
property int viewporty
property float k1
property float k2
end_header
0.27299717 -0.47181767 -0.10801542
0.29444423 -0.47181767 -0.10801542
0.31589133 -0.47181767 -0.10801542
0.33733842 -0.47181767 -0.10801542
-0.34881794 -0.021411108 -0.10916543
-0.32737973 -0.021411108 -0.10916543
-0.30594149 -0.021411108 -0.10916543
-0.28450325 -0.021411108 -0.10916543
-0.26306501 -0.021411108 -0.10916543
-0.2416268 -0.021411108 -0.10916543
-0.22018854 -0.021411108 -0.10916543
-0.19875029 -0.021411108 -0.10916543
-0.17731208 -0.021411108 -0.10916543
-0.15587382 -0.021411108 -0.10916543
-0.13443559 -0.021411108 -0.10916543
-0.11299737 -0.021411108 -0.10916543
-0.091559112 -0.021411108 -0.10916543
-0.070120886 -0.021411108 -0.10916543
-0.048682652 -0.021411108 -0.10916543
-0.02724441 -0.021411108 -0.10916543
-0.0058061723 -0.021411108 -0.10916543
0.015632065 -0.021411108 -0.10916543
0.037070304 -0.021411108 -0.10916543
0.058508538 -0.021411108 -0.10916543
0.079946779 -0.021411108 -0.10916543
0.10138501 -0.021411108 -0.10916543
0.12282324 -0.021411108 -0.10916543
0.14426149 -0.021411108 -0.10916543
0.16569972 -0.021411108 -0.10916543
0.18713795 -0.021411108 -0.10916543
0.2085762 -0.021411108 -0.10916543
0.23001441 -0.021411108 -0.10916543
0.25145268 -0.021411108 -0.10916543
0.27289093 -0.021411108 -0.10916543
0.29432914 -0.021411108 -0.10916543
0.31576738 -0.021411108 -0.10916543
0.33720562 -0.021411108 -0.10916543
-0.35054043 -7.4222684e-05 -0.096003652
-0.32900086 -7.4222684e-05 -0.096003652
-0.30746129 -7.4222684e-05 -0.096003652
-0.28592172 -7.4222684e-05 -0.096003652
-0.26438218 -7.4222684e-05 -0.096003652
-0.24284261 -7.4222684e-05 -0.096003652
-0.22130306 -7.4222684e-05 -0.096003652
-0.19976349 -7.4222684e-05 -0.096003652
-0.17822395 -7.4222684e-05 -0.096003652
-0.15668441 -7.4222684e-05 -0.096003652
-0.13514483 -7.4222684e-05 -0.096003652
-0.11360528 -7.4222684e-05 -0.096003652
-0.092065714 -7.4222684e-05 -0.096003652
-0.070526168 -7.4222684e-05 -0.096003652
-0.048986606 -7.4222684e-05 -0.096003652
-0.02744705 -7.4222684e-05 -0.096003652
-0.0059074927 -7.4222684e-05 -0.096003652
0.015632065 -7.4222684e-05 -0.096003652
0.037171625 -7.4222684e-05 -0.096003652
0.058711179 -7.4222684e-05 -0.096003652
0.080250733 -7.4222684e-05 -0.096003652
0.10179029 -7.4222684e-05 -0.096003652
0.12332984 -7.4222684e-05 -0.096003652
0.1448694 -7.4222684e-05 -0.096003652
0.16640896 -7.4222684e-05 -0.096003652
0.18794854 -7.4222684e-05 -0.096003652
0.20948808 -7.4222684e-05 -0.096003652
0.23102762 -7.4222684e-05 -0.096003652
0.2525672 -7.4222684e-05 -0.096003652
0.27410674 -7.4222684e-05 -0.096003652
0.29564631 -7.4222684e-05 -0.096003652
0.31718585 -7.4222684e-05 -0.096003652
0.33872542 -7.4222684e-05 -0.096003652
-0.33048424 -0.6923995 -0.083960176
-0.30885196 -0.6923995 -0.083960176
-0.28721967 -0.6923995 -0.083960176
-0.26558742 -0.6923995 -0.083960176
-0.24395517 -0.6923995 -0.083960176
-0.2223229 -0.6923995 -0.083960176
-0.20069063 -0.6923995 -0.083960176
-0.17905834 -0.6923995 -0.083960176
-0.15742609 -0.6923995 -0.083960176
-0.13579381 -0.6923995 -0.083960176
-0.11416155 -0.6923995 -0.083960176
-0.092529282 -0.6923995 -0.083960176
-0.070897013 -0.6923995 -0.083960176
-0.049264744 -0.6923995 -0.083960176
-0.027632473 -0.6923995 -0.083960176
-0.006000204 -0.6923995 -0.083960176
0.015632065 -0.6923995 -0.083960176
0.037264332 -0.6923995 -0.083960176
0.058896601 -0.6923995 -0.083960176
0.08052887 -0.6923995 -0.083960176
0.10216114 -0.6923995 -0.083960176
0.12379341 -0.6923995 -0.083960176
0.14542568 -0.6923995 -0.083960176
0.16705793 -0.6923995 -0.083960176
0.18869022 -0.6923995 -0.083960176
0.21032247 -0.6923995 -0.083960176
0.23195475 -0.6923995 -0.083960176
0.25358704 -0.6923995 -0.083960176
0.27521929 -0.6923995 -0.083960176
0.29685155 -0.6923995 -0.083960176
0.3184838 -0.6923995 -0.083960176
0.34011608 -0.6923995 -0.083960176
-0.35304928 -0.56408739 -0.076832175
-0.33136216 -0.56408739 -0.076832175
-0.30967501 -0.56408739 -0.076832175
-0.28798789 -0.56408739 -0.076832175
-0.26630074 -0.56408739 -0.076832175
-0.24461359 -0.56408739 -0.076832175
-0.22292647 -0.56408739 -0.076832175
-0.20123933 -0.56408739 -0.076832175
-0.17955218 -0.56408739 -0.076832175
-0.15786505 -0.56408739 -0.076832175
-0.13617791 -0.56408739 -0.076832175
-0.11449076 -0.56408739 -0.076832175
-0.092803635 -0.56408739 -0.076832175
-0.071116492 -0.56408739 -0.076832175
-0.04942935 -0.56408739 -0.076832175
-0.027742213 -0.56408739 -0.076832175
-0.0060550738 -0.56408739 -0.076832175
0.015632065 -0.56408739 -0.076832175
0.037319206 -0.56408739 -0.076832175
0.059006341 -0.56408739 -0.076832175
0.080693476 -0.56408739 -0.076832175
0.10238062 -0.56408739 -0.076832175
0.12406776 -0.56408739 -0.076832175
0.14575489 -0.56408739 -0.076832175
0.16744204 -0.56408739 -0.076832175
0.18912917 -0.56408739 -0.076832175
0.21081631 -0.56408739 -0.076832175
0.23250346 -0.56408739 -0.076832175
0.25419059 -0.56408739 -0.076832175
0.27587771 -0.56408739 -0.076832175
0.29756486 -0.56408739 -0.076832175
0.31925201 -0.56408739 -0.076832175
0.34093913 -0.56408739 -0.076832175
-0.35202008 -0.54082608 -0.084696889
-0.33039346 -0.54082608 -0.084696889
-0.3087669 -0.54082608 -0.084696889
-0.28714028 -0.54082608 -0.084696889
-0.26551369 -0.54082608 -0.084696889
-0.2438871 -0.54082608 -0.084696889
-0.2222605 -0.54082608 -0.084696889
-0.20063388 -0.54082608 -0.084696889
-0.17900732 -0.54082608 -0.084696889
-0.1573807 -0.54082608 -0.084696889
-0.13575411 -0.54082608 -0.084696889
-0.11412752 -0.54082608 -0.084696889
-0.09250091 -0.54082608 -0.084696889
-0.070874318 -0.54082608 -0.084696889
-0.049247727 -0.54082608 -0.084696889
-0.027621126 -0.54082608 -0.084696889
-0.0059945304 -0.54082608 -0.084696889
0.015632065 -0.54082608 -0.084696889
0.037258662 -0.54082608 -0.084696889
0.058885254 -0.54082608 -0.084696889
0.080511853 -0.54082608 -0.084696889
0.10213844 -0.54082608 -0.084696889
0.12376504 -0.54082608 -0.084696889
0.14539164 -0.54082608 -0.084696889
0.16701823 -0.54082608 -0.084696889
0.18864483 -0.54082608 -0.084696889
0.21027145 -0.54082608 -0.084696889
0.23189801 -0.54082608 -0.084696889
0.25352463 -0.54082608 -0.084696889
0.27515122 -0.54082608 -0.084696889
0.29677781 -0.54082608 -0.084696889
0.31840441 -0.54082608 -0.084696889
0.34003103 -0.54082608 -0.084696889
-0.35099846 -0.51769716 -0.092503428
-0.32943195 -0.51769716 -0.092503428
-0.30786547 -0.51769716 -0.092503428
-0.28629896 -0.51769716 -0.092503428
-0.26473245 -0.51769716 -0.092503428
-0.24316597 -0.51769716 -0.092503428
-0.22159946 -0.51769716 -0.092503428
-0.20003296 -0.51769716 -0.092503428
-0.17846645 -0.51769716 -0.092503428
-0.15689996 -0.51769716 -0.092503428
-0.13533345 -0.51769716 -0.092503428
-0.11376695 -0.51769716 -0.092503428
-0.092200451 -0.51769716 -0.092503428
-0.070633501 -0.51769447 -0.092517853
-0.04906711 -0.51769447 -0.092517853
-0.027500717 -0.51769447 -0.092517853
-0.005934326 -0.51769447 -0.092517853
0.015632065 -0.51769716 -0.092503428
0.037198566 -0.51769716 -0.092503428
0.058765069 -0.51769716 -0.092503428
0.080331571 -0.51769716 -0.092503428
0.10189807 -0.51769716 -0.092503428
0.12346458 -0.51769716 -0.092503428
0.14503108 -0.51769716 -0.092503428
0.16659757 -0.51769716 -0.092503428
0.18816409 -0.51769716 -0.092503428
0.20973058 -0.51769716 -0.092503428
0.23129709 -0.51769716 -0.092503428
0.25286359 -0.51769716 -0.092503428
0.2744301 -0.51769716 -0.092503428
0.29599658 -0.51769716 -0.092503428
0.31756309 -0.51769716 -0.092503428
0.3391296 -0.51769716 -0.092503428
-0.35227922 0.021465341 -0.082716823
-0.33063737 0.021465341 -0.082716823
-0.30899554 0.021465341 -0.082716823
-0.28735369 0.021465341 -0.082716823
-0.26571187 0.021465341 -0.082716823
-0.24407002 0.021465341 -0.082716823
-0.22242816 0.021465341 -0.082716823
-0.20078634 0.021465341 -0.082716823
-0.17914449 0.021465341 -0.082716823
-0.15750265 0.021465341 -0.082716823
-0.13586082 0.021465341 -0.082716823
-0.11421898 0.021465341 -0.082716823
-0.092577137 0.021465341 -0.082716823
-0.070935294 0.021465341 -0.082716823
-0.049293458 0.021465341 -0.082716823
-0.027651614 0.021465341 -0.082716823
-0.0060097743 0.021465341 -0.082716823
0.015632065 0.021465341 -0.082716823
0.037273906 0.021465341 -0.082716823
0.058915742 0.021465341 -0.082716823
0.080557585 0.021465341 -0.082716823
0.10219942 0.021465341 -0.082716823
0.12384126 0.021465341 -0.082716823
0.14548311 0.021465341 -0.082716823
0.16712494 0.021465341 -0.082716823
0.18876678 0.021465341 -0.082716823
0.21040861 0.021465341 -0.082716823
0.23205046 0.021465341 -0.082716823
0.2536923 0.021465341 -0.082716823
0.27533415 0.021465341 -0.082716823
0.296976 0.021465341 -0.082716823
0.31861782 0.021465341 -0.082716823
0.34025967 0.021465341 -0.082716823
-0.33191043 -0.67361957 -0.072380662
-0.31018901 -0.67361957 -0.072380662
-0.28846762 -0.67361957 -0.072380662
-0.26674622 -0.67361957 -0.072380662
-0.2450248 -0.67361957 -0.072380662
-0.22330341 -0.67361957 -0.072380662
-0.20158198 -0.67361957 -0.072380662
-0.17986059 -0.67361957 -0.072380662
-0.1581392 -0.67361957 -0.072380662
-0.13641778 -0.67361957 -0.072380662
-0.11469637 -0.67361957 -0.072380662
-0.092974961 -0.67361957 -0.072380662
-0.07125356 -0.67361957 -0.072380662
-0.049532153 -0.67361957 -0.072380662
-0.027810747 -0.67361957 -0.072380662
-0.0060893409 -0.67361957 -0.072380662
0.015632065 -0.67361957 -0.072380662
0.037353471 -0.67361957 -0.072380662
0.059074879 -0.67361957 -0.072380662
0.080796279 -0.67361957 -0.072380662
0.10251769 -0.67361957 -0.072380662
0.12423909 -0.67361957 -0.072380662
0.14596049 -0.67361957 -0.072380662
0.1676819 -0.67361957 -0.072380662
0.18940333 -0.67361957 -0.072380662
0.21112472 -0.67361957 -0.072380662
0.23284611 -0.67361957 -0.072380662
0.25456753 -0.67361957 -0.072380662
0.27628893 -0.67361957 -0.072380662
0.29801035 -0.67361957 -0.072380662
0.31973174 -0.67361957 -0.072380662
0.34145314 -0.67361957 -0.072380662
-0.33334845 -0.65468431 -0.060705662
-0.31153715 -0.65468431 -0.060705662
-0.28972587 -0.65468431 -0.060705662
-0.26791459 -0.65468431 -0.060705662
-0.24610332 -0.65468431 -0.060705662
-0.22429202 -0.65468431 -0.060705662
-0.20248075 -0.65468431 -0.060705662
-0.18066947 -0.65468431 -0.060705662
-0.15885818 -0.65468431 -0.060705662
-0.1370469 -0.65468431 -0.060705662
-0.11523563 -0.65468431 -0.060705662
-0.093424343 -0.65468431 -0.060705662
-0.071613066 -0.65468431 -0.060705662
-0.049801782 -0.65468431 -0.060705662
-0.0279905 -0.65468431 -0.060705662
-0.0061792172 -0.65468431 -0.060705662
0.015632065 -0.65468431 -0.060705662
0.037443347 -0.65468431 -0.060705662
0.059254631 -0.65468431 -0.060705662
0.081065908 -0.65468431 -0.060705662
0.10287719 -0.65468431 -0.060705662
0.12468847 -0.65468431 -0.060705662
0.14649975 -0.65468431 -0.060705662
0.16831103 -0.65468431 -0.060705662
0.19012231 -0.65468431 -0.060705662
0.2119336 -0.65468431 -0.060705662
0.23374487 -0.65468431 -0.060705662
0.25555617 -0.65468431 -0.060705662
0.27736744 -0.65468431 -0.060705662
0.29917872 -0.65468431 -0.060705662
0.32099 -0.65468431 -0.060705662
0.34280127 -0.65468431 -0.060705662
-0.35512513 -0.61100274 -0.060970068
-0.33331588 -0.61100274 -0.060970068
-0.31150663 -0.61100274 -0.060970068
-0.28969738 -0.61100274 -0.060970068
-0.26788813 -0.61100274 -0.060970068
-0.24607888 -0.61100274 -0.060970068
-0.22426963 -0.61100274 -0.060970068
-0.20246038 -0.61100274 -0.060970068
-0.18065116 -0.61100274 -0.060970068
-0.15884192 -0.61100274 -0.060970068
-0.13703266 -0.61100274 -0.060970068
-0.11522341 -0.61100274 -0.060970068
-0.093414158 -0.61100274 -0.060970068
-0.071604922 -0.61100274 -0.060970068
-0.049795672 -0.61100274 -0.060970068
-0.027986428 -0.61100274 -0.060970068
-0.0061771814 -0.61100274 -0.060970068
0.015632065 -0.61100274 -0.060970068
0.037441313 -0.61100274 -0.060970068
0.059250556 -0.61100274 -0.060970068
0.081059799 -0.61100274 -0.060970068
0.10286905 -0.61100274 -0.060970068
0.12467828 -0.61100274 -0.060970068
0.14648753 -0.61100274 -0.060970068
0.16829678 -0.61100274 -0.060970068
0.19010605 -0.61100274 -0.060970068
0.21191528 -0.61100274 -0.060970068
0.2337245 -0.61100274 -0.060970068
0.25553375 -0.61100274 -0.060970068
0.277343 -0.61100274 -0.060970068
0.29915226 -0.61100274 -0.060970068
0.32096151 -0.61100274 -0.060970068
0.34277076 -0.61100274 -0.060970068
-0.35408431 -0.58747923 -0.068923354
-0.33233625 -0.58747923 -0.068923354
-0.31058824 -0.58747923 -0.068923354
-0.28884023 -0.58747923 -0.068923354
-0.2670922 -0.58747923 -0.068923354
-0.24534419 -0.58747923 -0.068923354
-0.22359617 -0.58747923 -0.068923354
-0.20184815 -0.58747923 -0.068923354
-0.18010013 -0.58747923 -0.068923354
-0.15835209 -0.58747923 -0.068923354
-0.13660409 -0.58747923 -0.068923354
-0.11485606 -0.58747923 -0.068923354
-0.093108043 -0.58747923 -0.068923354
-0.071360014 -0.58747923 -0.068923354
-0.049612001 -0.58747923 -0.068923354
-0.027863974 -0.58747923 -0.068923354
-0.0061159544 -0.58747923 -0.068923354
0.015632065 -0.58747923 -0.068923354
0.037380084 -0.58747923 -0.068923354
0.059128106 -0.58747923 -0.068923354
0.080876127 -0.58747923 -0.068923354
0.10262414 -0.58747923 -0.068923354
0.12437217 -0.58747923 -0.068923354
0.14612019 -0.58747923 -0.068923354
0.16786821 -0.58747923 -0.068923354
0.18961622 -0.58747923 -0.068923354
0.21136425 -0.58747923 -0.068923354
0.23311228 -0.58747923 -0.068923354
0.25486031 -0.58747923 -0.068923354
0.27660832 -0.58747923 -0.068923354
0.29835632 -0.58747923 -0.068923354
0.32010436 -0.58747923 -0.068923354
0.34185237 -0.58747923 -0.068923354
-0.3540327 0.043210447 -0.069317698
-0.3322877 0.043210447 -0.069317698
-0.3105427 0.043210447 -0.069317698
-0.28879774 0.043210447 -0.069317698
-0.26705274 0.043210447 -0.069317698
-0.24530777 0.043210447 -0.069317698
-0.22356278 0.043210447 -0.069317698
-0.2018178 0.043210447 -0.069317698
-0.1800728 0.043210447 -0.069317698
-0.15832782 0.043210447 -0.069317698
-0.13658284 0.043210447 -0.069317698
-0.11483786 0.043210447 -0.069317698
-0.093092866 0.043210447 -0.069317698
-0.071347877 0.043210447 -0.069317698
-0.049602896 0.043210447 -0.069317698
-0.027857905 0.043210447 -0.069317698
-0.0061129201 0.043210447 -0.069317698
0.015632065 0.043210447 -0.069317698
0.037377052 0.043210447 -0.069317698
0.059122033 0.043210447 -0.069317698
0.080867022 0.043210447 -0.069317698
0.102612 0.043210447 -0.069317698
0.12435699 0.043210447 -0.069317698
0.14610198 0.043210447 -0.069317698
0.16784696 0.043210447 -0.069317698
0.18959194 0.043210447 -0.069317698
0.21133693 0.043210447 -0.069317698
0.23308192 0.043210447 -0.069317698
0.2548269 0.043210447 -0.069317698
0.2765719 0.043210447 -0.069317698
0.29831687 0.043210447 -0.069317698
0.32006186 0.043210447 -0.069317698
0.34180683 0.043210447 -0.069317698
-0.35616988 -0.63465571 -0.052986503
-0.33429918 -0.63465571 -0.052986503
-0.31242847 -0.63465571 -0.052986503
-0.29055777 -0.63465571 -0.052986503
-0.26868707 -0.63465571 -0.052986503
-0.24681637 -0.63465571 -0.052986503
-0.22494566 -0.63465571 -0.052986503
-0.20307498 -0.63465571 -0.052986503
-0.18120426 -0.63465571 -0.052986503
-0.15933356 -0.63465571 -0.052986503
-0.13746285 -0.63465571 -0.052986503
-0.11559215 -0.63465571 -0.052986503
-0.093721457 -0.63465571 -0.052986503
-0.071850747 -0.63465571 -0.052986503
-0.049980044 -0.63465571 -0.052986503
-0.02810934 -0.63465571 -0.052986503
-0.0062386375 -0.63465571 -0.052986503
0.015632065 -0.63465571 -0.052986503
0.037502766 -0.63465571 -0.052986503
0.059373468 -0.63465571 -0.052986503
0.081244171 -0.63465571 -0.052986503
0.10311487 -0.63465571 -0.052986503
0.12498558 -0.63465571 -0.052986503
0.14685628 -0.63465571 -0.052986503
0.16872698 -0.63465571 -0.052986503
0.19059768 -0.63465571 -0.052986503
0.21246839 -0.63465571 -0.052986503
0.2343391 -0.63465571 -0.052986503
0.25620979 -0.63465571 -0.052986503
0.27808049 -0.63465571 -0.052986503
0.2999512 -0.63465571 -0.052986503
0.3218219 -0.63465571 -0.052986503
0.3436926 -0.63465571 -0.052986503
-0.35580489 0.065163866 -0.055775642
-0.33395565 0.065163866 -0.055775642
-0.31210643 0.065163866 -0.055775642
-0.29025722 0.065163866 -0.055775642
-0.26840797 0.065163866 -0.055775642
-0.24655873 0.065163866 -0.055775642
-0.2247095 0.065163866 -0.055775642
-0.20286027 0.065163866 -0.055775642
-0.18101104 0.065163866 -0.055775642
-0.15916179 0.065163866 -0.055775642
-0.13731258 0.065163866 -0.055775642
-0.11546333 0.065163866 -0.055775642
-0.093614101 0.065163866 -0.055775642
-0.071764864 0.065163866 -0.055775642
-0.049915634 0.065163866 -0.055775642
-0.028066399 0.065163866 -0.055775642
-0.0062171668 0.065163866 -0.055775642
0.015632065 0.065163866 -0.055775642
0.037481297 0.065163866 -0.055775642
0.05933053 0.065163866 -0.055775642
0.08117976 0.065163866 -0.055775642
0.10302899 0.065163866 -0.055775642
0.12487823 0.065163866 -0.055775642
0.14672746 0.065163866 -0.055775642
0.1685767 0.065163866 -0.055775642
0.19042592 0.065163866 -0.055775642
0.21227516 0.065163866 -0.055775642
0.23412439 0.065163866 -0.055775642
0.25597364 0.065163866 -0.055775642
0.27782285 0.065163866 -0.055775642
0.2996721 0.065163866 -0.055775642
0.32152134 0.065163866 -0.055775642
0.34337056 0.065163866 -0.055775642
-0.33563787 0.087328501 -0.042117834
-0.31368351 0.087328501 -0.042117834
-0.29172912 0.087328501 -0.042117834
-0.26977473 0.087328501 -0.042117834
-0.24782038 0.087328501 -0.042117834
-0.225866 0.087328501 -0.042117834
-0.20391163 0.087328501 -0.042117834
-0.18195726 0.087328501 -0.042117834
-0.1600029 0.087328501 -0.042117834
-0.13804853 0.087328501 -0.042117834
-0.11609416 0.087328501 -0.042117834
-0.094139785 0.087328501 -0.042117834
-0.072185419 0.087328501 -0.042117834
-0.050231047 0.087328501 -0.042117834
-0.028276676 0.087328501 -0.042117834
-0.0063223056 0.087328501 -0.042117834
0.015632065 0.087328501 -0.042117834
0.037586436 0.087328501 -0.042117834
0.059540808 0.087328501 -0.042117834
0.081495173 0.087328501 -0.042117834
0.10344955 0.087328501 -0.042117834
0.12540391 0.087328501 -0.042117834
0.14735828 0.087328501 -0.042117834
0.16931266 0.087328501 -0.042117834
0.19126703 0.087328501 -0.042117834
0.21322139 0.087328501 -0.042117834
0.23517576 0.087328501 -0.042117834
0.25713015 0.087328501 -0.042117834
0.2790845 0.087328501 -0.042117834
0.30103886 0.087328501 -0.042117834
0.32299325 0.087328501 -0.042117834
0.34494764 0.087328501 -0.042117834
-0.33733818 0.10970805 -0.02831316
-0.31527755 0.10970805 -0.02831316
-0.29321688 0.10970805 -0.02831316
-0.27115625 0.10970805 -0.02831316
-0.24909559 0.10970805 -0.02831316
-0.22703497 0.10970805 -0.02831316
-0.20497432 0.10970805 -0.02831316
-0.18291371 0.10970805 -0.02831316
-0.16085306 0.10970805 -0.02831316
-0.13879241 0.10970805 -0.02831316
-0.11673176 0.10970805 -0.02831316
-0.09467113 0.10970805 -0.02831316
-0.072610497 0.10970805 -0.02831316
-0.05054985 0.10970805 -0.02831316
-0.028489215 0.10970805 -0.02831316
-0.0064285751 0.10970805 -0.02831316
0.015632065 0.10970805 -0.02831316
0.037692703 0.10970805 -0.02831316
0.059753343 0.10970805 -0.02831316
0.081813976 0.10970805 -0.02831316
0.10387462 0.10970805 -0.02831316
0.12593526 0.10970805 -0.02831316
0.14799589 0.10970805 -0.02831316
0.17005654 0.10970805 -0.02831316
0.19211718 0.10970805 -0.02831316
0.21417783 0.10970805 -0.02831316
0.23623845 0.10970805 -0.02831316
0.25829911 0.10970805 -0.02831316
0.28035972 0.10970805 -0.02831316
0.30242038 0.10970805 -0.02831316
0.32448101 0.10970805 -0.02831316
0.34654167 0.10970805 -0.02831316
-0.33905315 0.13230455 -0.014389157
-0.31688532 0.13230455 -0.014389157
-0.29471749 0.13230455 -0.014389157
-0.27254969 0.13230455 -0.014389157
-0.25038186 0.13230455 -0.014389157
-0.22821403 0.13230455 -0.014389157
-0.20604621 0.13230455 -0.014389157
-0.18387838 0.13230455 -0.014389157
-0.16171055 0.13230455 -0.014389157
-0.13954271 0.13230455 -0.014389157
-0.1173749 0.13230455 -0.014389157
-0.095207073 0.13230455 -0.014389157
-0.073039241 0.13230455 -0.014389157
-0.050871417 0.13230455 -0.014389157
-0.028703587 0.13230455 -0.014389157
-0.0065357611 0.13230455 -0.014389157
0.015632065 0.13230455 -0.014389157
0.037799891 0.13230455 -0.014389157
0.059967719 0.13230455 -0.014389157
0.082135543 0.13230455 -0.014389157
0.10430337 0.13230455 -0.014389157
0.12647121 0.13230455 -0.014389157
0.14863902 0.13230455 -0.014389157
0.17080684 0.13230455 -0.014389157
0.19297467 0.13230455 -0.014389157
0.2151425 0.13230455 -0.014389157
0.23731034 0.13230455 -0.014389157
0.25947815 0.13230455 -0.014389157
0.28164598 0.13230455 -0.014389157
0.30381382 0.13230455 -0.014389157
0.32598162 0.13230455 -0.014389157
0.34814945 0.13230455 -0.014389157
-0.34078678 0.15512246 -0.00031387806
-0.31851059 0.15512246 -0.00031387806
-0.2962344 0.15512246 -0.00031387806
-0.27395824 0.15512246 -0.00031387806
-0.25168207 0.15512246 -0.00031387806
-0.22940588 0.15512246 -0.00031387806
-0.2071297 0.15512246 -0.00031387806
-0.18485352 0.15512246 -0.00031387806
-0.16257736 0.15512246 -0.00031387806
-0.14030117 0.15512246 -0.00031387806
-0.118025 0.15512246 -0.00031387806
-0.095748819 0.15512246 -0.00031387806
-0.073472649 0.15512246 -0.00031387806
-0.051196471 0.15512246 -0.00031387806
-0.028920291 0.15512246 -0.00031387806
-0.006644113 0.15512246 -0.00031387806
0.015632065 0.15512246 -0.00031387806
0.037908241 0.15512246 -0.00031387806
0.060184419 0.15512246 -0.00031387806
0.082460597 0.15512246 -0.00031387806
0.10473678 0.15512246 -0.00031387806
0.12701295 0.15512246 -0.00031387806
0.14928913 0.15512246 -0.00031387806
0.17156529 0.15512246 -0.00031387806
0.19384149 0.15512246 -0.00031387806
0.21611765 0.15512246 -0.00031387806
0.23839383 0.15512246 -0.00031387806
0.26067001 0.15512246 -0.00031387806
0.2829462 0.15512246 -0.00031387806
0.30522236 0.15512246 -0.00031387806
0.32749853 0.15512246 -0.00031387806
0.34977472 0.15512246 -0.00031387806
-0.3425374 0.17816465 0.013899565
-0.32015184 0.17816465 0.013899565
-0.29776624 0.17816465 0.013899565
-0.27538064 0.17816465 0.013899565
-0.25299504 0.17816465 0.013899565
-0.23060946 0.17816465 0.013899565
-0.20822386 0.17816465 0.013899565
-0.18583828 0.17816465 0.013899565
-0.16345267 0.17816465 0.013899565
-0.14106709 0.17816465 0.013899565
-0.11868149 0.17816465 0.013899565
-0.096295901 0.17816465 0.013899565
-0.073910303 0.17816465 0.013899565
-0.051524714 0.17816465 0.013899565
-0.029139118 0.17816465 0.013899565
-0.0067535266 0.17816465 0.013899565
0.015632065 0.17816465 0.013899565
0.038017657 0.17816465 0.013899565
0.06040325 0.17816465 0.013899565
0.08278884 0.17816465 0.013899565
0.10517443 0.17816465 0.013899565
0.12756003 0.17816465 0.013899565
0.14994562 0.17816465 0.013899565
0.17233121 0.17816465 0.013899565
0.1947168 0.17816465 0.013899565
0.21710241 0.17816465 0.013899565
0.23948799 0.17816465 0.013899565
0.2618736 0.17816465 0.013899565
0.28425917 0.17816465 0.013899565
0.30664477 0.17816465 0.013899565
0.32903036 0.17816465 0.013899565
0.35141596 0.17816465 0.013899565
-0.34430343 0.20143315 0.02823782
-0.32180744 0.20143315 0.02823782
-0.29931149 0.20143315 0.02823782
-0.27681553 0.20143315 0.02823782
-0.25431955 0.20143315 0.02823782
-0.23182359 0.20143315 0.02823782
-0.20932761 0.20143315 0.02823782
-0.18683165 0.20143315 0.02823782
-0.16433567 0.20143315 0.02823782
-0.14183971 0.20143315 0.02823782
-0.11934374 0.20143315 0.02823782
-0.096847773 0.20143315 0.02823782
-0.07435181 0.20143315 0.02823782
-0.05185584 0.20143315 0.02823782
-0.029359872 0.20143315 0.02823782
-0.0068639033 0.20143315 0.02823782
0.015632065 0.20143315 0.02823782
0.038128033 0.20143315 0.02823782
0.060624003 0.20143315 0.02823782
0.083119966 0.20143315 0.02823782
0.10561594 0.20143315 0.02823782
0.1281119 0.20143315 0.02823782
0.15060787 0.20143315 0.02823782
0.17310384 0.20143315 0.02823782
0.19559979 0.20143315 0.02823782
0.21809578 0.20143315 0.02823782
0.24059173 0.20143315 0.02823782
0.26308772 0.20143315 0.02823782
0.28558367 0.20143315 0.02823782
0.30807966 0.20143315 0.02823782
0.33057562 0.20143315 0.02823782
0.35307157 0.20143315 0.02823782
-0.34608889 0.2249334 0.042734027
-0.32348132 0.2249334 0.042734027
-0.30087376 0.2249334 0.042734027
-0.27826619 0.2249334 0.042734027
-0.25565863 0.2249334 0.042734027
-0.23305108 0.2249334 0.042734027
-0.21044351 0.2249334 0.042734027
-0.18783595 0.2249334 0.042734027
-0.16522841 0.2249334 0.042734027
-0.14262085 0.2249334 0.042734027
-0.12001328 0.2249334 0.042734027
-0.097405724 0.2249334 0.042734027
-0.074798174 0.2249334 0.042734027
-0.052190609 0.2249334 0.042734027
-0.029583054 0.2249334 0.042734027
-0.0069754943 0.2249334 0.042734027
0.015632065 0.2249334 0.042734027
0.038239624 0.2249334 0.042734027
0.060847186 0.2249334 0.042734027
0.083454736 0.2249334 0.042734027
0.1060623 0.2249334 0.042734027
0.12866986 0.2249334 0.042734027
0.15127741 0.2249334 0.042734027
0.17388497 0.2249334 0.042734027
0.19649254 0.2249334 0.042734027
0.21910007 0.2249334 0.042734027
0.24170764 0.2249334 0.042734027
0.26431522 0.2249334 0.042734027
0.28692275 0.2249334 0.042734027
0.30953032 0.2249334 0.042734027
0.33213788 0.2249334 0.042734027
0.35474545 0.2249334 0.042734027
-0.34789017 0.24866672 0.057358623
-0.32517004 0.24866672 0.057358623
-0.30244988 0.24866672 0.057358623
-0.27972975 0.24866672 0.057358623
-0.25700963 0.24866672 0.057358623
-0.23428948 0.24866672 0.057358623
-0.21156934 0.24866672 0.057358623
-0.18884921 0.24866672 0.057358623
-0.16612907 0.24866672 0.057358623
-0.14340891 0.24866672 0.057358623
-0.12068878 0.24866672 0.057358623
-0.097968638 0.24866672 0.057358623
-0.075248495 0.24866672 0.057358623
-0.052528359 0.24866672 0.057358623
-0.029808214 0.24866672 0.057358623
-0.0070880745 0.24866672 0.057358623
0.015632065 0.24866672 0.057358623
0.038352206 0.24866672 0.057358623
0.061072342 0.24866672 0.057358623
0.083792485 0.24866672 0.057358623
0.10651262 0.24866672 0.057358623
0.12923276 0.24866672 0.057358623
0.15195291 0.24866672 0.057358623
0.17467304 0.24866672 0.057358623
0.19739319 0.24866672 0.057358623
0.22011334 0.24866672 0.057358623
0.24283347 0.24866672 0.057358623
0.26555362 0.24866672 0.057358623
0.28827375 0.24866672 0.057358623
0.31099388 0.24866672 0.057358623
0.33371401 0.24866672 0.057358623
-0.34971148 0.2726391 0.072145581
-0.3268775 0.2726391 0.072145581
-0.30404353 0.2726391 0.072145581
-0.28120956 0.2726391 0.072145581
-0.25837559 0.2726391 0.072145581
-0.23554161 0.2726391 0.072145581
-0.21270764 0.2726391 0.072145581
-0.18987367 0.2726391 0.072145581
-0.16703971 0.2726391 0.072145581
-0.14420573 0.2726391 0.072145581
-0.12137176 0.2726391 0.072145581
-0.098537788 0.2726391 0.072145581
-0.075703822 0.2726391 0.072145581
-0.052869849 0.2726391 0.072145581
-0.030035878 0.2726391 0.072145581
-0.0072019063 0.2726391 0.072145581
0.015632065 0.2726391 0.072145581
0.038466036 0.2726391 0.072145581
0.061300009 0.2726391 0.072145581
0.084133975 0.2726391 0.072145581
0.10696795 0.2726391 0.072145581
0.12980191 0.2726391 0.072145581
0.15263589 0.2726391 0.072145581
0.17546986 0.2726391 0.072145581
0.19830383 0.2726391 0.072145581
0.22113779 0.2726391 0.072145581
0.24397177 0.2726391 0.072145581
0.26680574 0.2726391 0.072145581
0.28963971 0.2726391 0.072145581
0.31247368 0.2726391 0.072145581
0.33530766 0.2726391 0.072145581
-0.35155112 0.29685286 0.087081909
-0.32860216 0.29685286 0.087081909
-0.30565321 0.29685286 0.087081909
-0.28270429 0.29685286 0.087081909
-0.25975534 0.29685286 0.087081909
-0.23680639 0.29685286 0.087081909
-0.21385743 0.29685286 0.087081909
-0.19090848 0.29685286 0.087081909
-0.16795953 0.29685286 0.087081909
-0.14501058 0.29685286 0.087081909
-0.12206164 0.29685286 0.087081909
-0.099112682 0.29685286 0.087081909
-0.076163732 0.29685286 0.087081909
-0.053214788 0.29685286 0.087081909
-0.030265832 0.29685286 0.087081909
-0.0073168855 0.29685286 0.087081909
0.015632065 0.29685286 0.087081909
0.038581014 0.29685286 0.087081909
0.061529964 0.29685286 0.087081909
0.084478915 0.29685286 0.087081909
0.10742786 0.29685286 0.087081909
0.13037682 0.29685286 0.087081909
0.15332577 0.29685286 0.087081909
0.1762747 0.29685286 0.087081909
0.19922365 0.29685286 0.087081909
0.2221726 0.29685286 0.087081909
0.24512155 0.29685286 0.087081909
0.26807052 0.29685286 0.087081909
0.29101947 0.29685286 0.087081909
0.31396842 0.29685286 0.087081909
0.33691734 0.29685286 0.087081909
-0.35340738 0.32130995 0.10215259
-0.33034238 0.32130995 0.10215259
-0.30727744 0.32130995 0.10215259
-0.28421247 0.32130995 0.10215259
-0.26114753 0.32130995 0.10215259
-0.23808253 0.32130995 0.10215259
-0.21501757 0.32130995 0.10215259
-0.19195262 0.32130995 0.10215259
-0.16888766 0.32130995 0.10215259
-0.14582269 0.32130995 0.10215259
-0.12275773 0.32130995 0.10215259
-0.099692754 0.32130995 0.10215259
-0.076627798 0.32130995 0.10215259
-0.053562835 0.32130995 0.10215259
-0.030497866 0.32130995 0.10215259
-0.0074329004 0.32130995 0.10215259
0.015632065 0.32130995 0.10215259
0.03869703 0.32130995 0.10215259
0.061761998 0.32130995 0.10215259
0.084826961 0.32130995 0.10215259
0.10789192 0.32130995 0.10215259
0.13095689 0.32130995 0.10215259
0.15402186 0.32130995 0.10215259
0.17708682 0.32130995 0.10215259
0.20015179 0.32130995 0.10215259
0.22321674 0.32130995 0.10215259
0.2462817 0.32130995 0.10215259
0.26934665 0.32130995 0.10215259
0.29241166 0.32130995 0.10215259
0.3154766 0.32130995 0.10215259
0.33854157 0.32130995 0.10215259
-0.35528451 0.34601742 0.11739326
-0.33210224 0.34601742 0.11739326
-0.30891994 0.34601742 0.11739326
-0.28573766 0.34601742 0.11739326
-0.26255539 0.34601742 0.11739326
-0.23937306 0.34601742 0.11739326
-0.21619079 0.34601742 0.11739326
-0.19300851 0.34601742 0.11739326
-0.16982621 0.34601742 0.11739326
-0.14664394 0.34601742 0.11739326
-0.12346166 0.34601742 0.11739326
-0.10027936 0.34601742 0.11739326
-0.077097081 0.34601742 0.11739326
-0.0539148 0.34601742 0.11739326
-0.030732507 0.34601742 0.11739326
-0.0075502209 0.34601742 0.11739326
0.015632065 0.34601742 0.11739326
0.038814351 0.34601742 0.11739326
0.061996639 0.34601742 0.11739326
0.085178927 0.34601742 0.11739326
0.10836121 0.34601742 0.11739326
0.13154349 0.34601742 0.11739326
0.15472579 0.34601742 0.11739326
0.17790806 0.34601742 0.11739326
0.20109034 0.34601742 0.11739326
0.22427264 0.34601742 0.11739326
0.24745491 0.34601742 0.11739326
0.27063718 0.34601742 0.11739326
0.29381952 0.34601742 0.11739326
0.31700179 0.34601742 0.11739326
0.34018406 0.34601742 0.11739326
-0.35717878 0.37097567 0.1327728
-0.33387813 0.37097567 0.1327728
-0.31057745 0.37097567 0.1327728
-0.28727674 0.37097567 0.1327728
-0.26397607 0.37097567 0.1327728
-0.24067539 0.37097567 0.1327728
-0.21737471 0.37097567 0.1327728
-0.19407405 0.37097567 0.1327728
-0.17077336 0.37097567 0.1327728
-0.14747269 0.37097567 0.1327728
-0.124172 0.37097567 0.1327728
-0.10087132 0.37097567 0.1327728
-0.077570647 0.37097567 0.1327728
-0.054269969 0.37097567 0.1327728
-0.03096929 0.37097567 0.1327728
-0.0076686125 0.37097567 0.1327728
0.015632065 0.37097567 0.1327728
0.038932741 0.37097567 0.1327728
0.062233418 0.37097567 0.1327728
0.085534096 0.37097567 0.1327728
0.10883477 0.37097567 0.1327728
0.13213545 0.37097567 0.1327728
0.15543613 0.37097567 0.1327728
0.17873682 0.37097567 0.1327728
0.20203748 0.37097567 0.1327728
0.22533818 0.37097567 0.1327728
0.24863884 0.37097567 0.1327728
0.27193952 0.37097567 0.1327728
0.29524019 0.37097567 0.1327728
0.31854087 0.37097567 0.1327728
0.34184158 0.37097567 0.1327728
-0.3356742 0.39619198 0.14832735
-0.31225377 0.39619198 0.14832735
-0.28883335 0.39619198 0.14832735
-0.26541293 0.39619198 0.14832735
-0.24199253 0.39619198 0.14832735
-0.21857211 0.39619198 0.14832735
-0.19515169 0.39619198 0.14832735
-0.17173126 0.39619198 0.14832735
-0.14831086 0.39619198 0.14832735
-0.12489043 0.39619198 0.14832735
-0.10147002 0.39619198 0.14832735
-0.0780496 0.39619198 0.14832735
-0.054629184 0.39619198 0.14832735
-0.031208767 0.39619198 0.14832735
-0.0077883508 0.39619198 0.14832735
0.015632065 0.39619198 0.14832735
0.039052479 0.39619198 0.14832735
0.062472895 0.39619198 0.14832735
0.085893311 0.39619198 0.14832735
0.10931373 0.39619198 0.14832735
0.13273415 0.39619198 0.14832735
0.15615456 0.39619198 0.14832735
0.17957498 0.39619198 0.14832735
0.20299539 0.39619198 0.14832735
0.22641581 0.39619198 0.14832735
0.24983624 0.39619198 0.14832735
0.27325666 0.39619198 0.14832735
0.29667705 0.39619198 0.14832735
0.32009748 0.39619198 0.14832735
0.3435179 0.39619198 0.14832735
-0.33748883 0.42166904 0.16404247
-0.31394744 0.42166904 0.16404247
-0.29040605 0.42166904 0.16404247
-0.26686466 0.42166904 0.16404247
-0.24332324 0.42166904 0.16404247
-0.21978185 0.42166904 0.16404247
-0.19624045 0.42166904 0.16404247
-0.17269906 0.42166904 0.16404247
-0.14915769 0.42166904 0.16404247
-0.1256163 0.42166904 0.16404247
-0.10207489 0.42166904 0.16404247
-0.0785335 0.42166904 0.16404247
-0.054992117 0.42166904 0.16404247
-0.031450719 0.42166904 0.16404247
-0.0079093259 0.42166904 0.16404247
0.015632065 0.42166904 0.16404247
0.039173454 0.42166904 0.16404247
0.062714845 0.42166904 0.16404247
0.086256243 0.42166904 0.16404247
0.10979763 0.42166904 0.16404247
0.13333902 0.42166904 0.16404247
0.15688042 0.42166904 0.16404247
0.18042181 0.42166904 0.16404247
0.20396319 0.42166904 0.16404247
0.22750458 0.42166904 0.16404247
0.25104597 0.42166904 0.16404247
0.27458736 0.42166904 0.16404247
0.29812878 0.42166904 0.16404247
0.32167017 0.42166904 0.16404247
0.34521157 0.42166904 0.16404247
-0.33932027 0.44740814 0.17990339
-0.31565681 0.44740814 0.17990339
-0.29199332 0.44740814 0.17990339
-0.26832983 0.44740814 0.17990339
-0.24466634 0.44740814 0.17990339
-0.22100285 0.44740814 0.17990339
-0.19733936 0.44740814 0.17990339
-0.17367586 0.44740814 0.17990339
-0.15001237 0.44740814 0.17990339
-0.12634888 0.44740814 0.17990339
-0.10268539 0.44740814 0.17990339
-0.079021901 0.44740814 0.17990339
-0.05535841 0.44740814 0.17990339
-0.031694919 0.44740814 0.17990339
-0.0080314241 0.44740814 0.17990339
0.015632065 0.44740814 0.17990339
0.039295554 0.44740814 0.17990339
0.062959045 0.44740814 0.17990339
0.086622536 0.44740814 0.17990339
0.11028603 0.44740814 0.17990339
0.13394952 0.44740814 0.17990339
0.15761301 0.44740814 0.17990339
0.1812765 0.44740814 0.17990339
0.20493999 0.44740814 0.17990339
0.22860348 0.44740814 0.17990339
0.25226697 0.44740814 0.17990339
0.27593046 0.44740814 0.17990339
0.29959396 0.44740814 0.17990339
0.32325745 0.44740814 0.17990339
0.34692094 0.44740814 0.17990339
-0.3411729 0.4734183 0.19594729
-0.31738588 0.4734183 0.19594729
-0.29359889 0.4734183 0.19594729
-0.2698119 0.4734183 0.19594729
-0.24602491 0.4734183 0.19594729
-0.2222379 0.4734183 0.19594729
-0.19845091 0.4734183 0.19594729
-0.17466393 0.4734183 0.19594729
-0.15087691 0.4734183 0.19594729
-0.12708992 0.4734183 0.19594729
-0.10330292 0.4734183 0.19594729
-0.079515927 0.4734183 0.19594729
-0.055728927 0.4734183 0.19594729
-0.031941928 0.4734183 0.19594729
-0.0081549324 0.4734183 0.19594729
0.015632065 0.4734183 0.19594729
0.039419062 0.4734183 0.19594729
0.063206062 0.4734183 0.19594729
0.086993054 0.4734183 0.19594729
0.11078005 0.4734183 0.19594729
0.13456705 0.4734183 0.19594729
0.15835404 0.4734183 0.19594729
0.18214104 0.4734183 0.19594729
0.20592806 0.4734183 0.19594729
0.22971503 0.4734183 0.19594729
0.25350204 0.4734183 0.19594729
0.27728903 0.4734183 0.19594729
0.30107602 0.4734183 0.19594729
0.32486302 0.4734183 0.19594729
0.34865001 0.4734183 0.19594729
-0.34304288 0.4996987 0.21214211
-0.31913123 0.4996987 0.21214211
-0.29521957 0.4996987 0.21214211
-0.27130789 0.4996987 0.21214211
-0.24739623 0.4996987 0.21214211
-0.22348456 0.4996987 0.21214211
-0.19957291 0.4996987 0.21214211
-0.17566124 0.4996987 0.21214211
-0.15174958 0.4996987 0.21214211
-0.12783791 0.4996987 0.21214211
-0.10392625 0.4996987 0.21214211
-0.080014586 0.4996987 0.21214211
-0.056102924 0.4996987 0.21214211
-0.032191262 0.4996987 0.21214211
-0.0082795974 0.4996987 0.21214211
0.015632065 0.4996987 0.21214211
0.039543726 0.4996987 0.21214211
0.063455388 0.4996987 0.21214211
0.08736705 0.4996987 0.21214211
0.11127871 0.4996987 0.21214211
0.13519038 0.4996987 0.21214211
0.15910204 0.4996987 0.21214211
0.18301371 0.4996987 0.21214211
0.20692536 0.4996987 0.21214211
0.23083703 0.4996987 0.21214211
0.2547487 0.4996987 0.21214211
0.27866036 0.4996987 0.21214211
0.30257201 0.4996987 0.21214211
0.3264837 0.4996987 0.21214211
0.35039535 0.4996987 0.21214211
-0.34493461 0.52625871 0.22852504
-0.32089683 0.52625871 0.22852504
-0.29685909 0.52625871 0.22852504
-0.27282131 0.52625871 0.22852504
-0.2487835 0.52625871 0.22852504
-0.22474572 0.52625871 0.22852504
-0.20070796 0.52625871 0.22852504
-0.17667016 0.52625871 0.22852504
-0.15263239 0.52625871 0.22852504
-0.12859462 0.52625871 0.22852504
-0.10455683 0.52625871 0.22852504
-0.080519058 0.52625871 0.22852504
-0.056481279 0.52625871 0.22852504
-0.032443494 0.52625871 0.22852504
-0.0084057152 0.52625871 0.22852504
0.015632065 0.52625871 0.22852504
0.039669845 0.52625871 0.22852504
0.063707627 0.52625871 0.22852504
0.087745406 0.52625871 0.22852504
0.11178318 0.52625871 0.22852504
0.13582096 0.52625871 0.22852504
0.15985875 0.52625871 0.22852504
0.18389651 0.52625871 0.22852504
0.20793429 0.52625871 0.22852504
0.23197208 0.52625871 0.22852504
0.25600985 0.52625871 0.22852504
0.28004763 0.52625871 0.22852504
0.30408543 0.52625871 0.22852504
0.32812321 0.52625871 0.22852504
0.35216096 0.52625871 0.22852504
-0.34684643 0.55310065 0.2450819
-0.32268122 0.55310065 0.2450819
-0.29851598 0.55310065 0.2450819
-0.27435073 0.55310065 0.2450819
-0.25018552 0.55310065 0.2450819
-0.22602029 0.55310065 0.2450819
-0.20185503 0.55310065 0.2450819
-0.17768982 0.55310065 0.2450819
-0.15352458 0.55310065 0.2450819
-0.12935933 0.55310065 0.2450819
-0.10519411 0.55310065 0.2450819
-0.081028879 0.55310065 0.2450819
-0.056863636 0.55310065 0.2450819
-0.032698408 0.55310065 0.2450819
-0.0085331704 0.55310065 0.2450819
0.015632065 0.55310065 0.2450819
0.039797299 0.55310065 0.2450819
0.063962534 0.55310065 0.2450819
0.088127762 0.55310065 0.2450819
0.112293 0.55310065 0.2450819
0.13645825 0.55310065 0.2450819
0.16062346 0.55310065 0.2450819
0.1847887 0.55310065 0.2450819
0.20895395 0.55310065 0.2450819
0.23311916 0.55310065 0.2450819
0.25728443 0.55310065 0.2450819
0.28144965 0.55310065 0.2450819
0.30561486 0.55310065 0.2450819
0.3297801 0.55310065 0.2450819
0.35394534 0.55310065 0.2450819
-0.34877655 0.58022523 0.26179707
-0.32448265 0.58022523 0.26179707
-0.30018872 0.58022523 0.26179707
-0.27589482 0.58022523 0.26179707
-0.25160092 0.58022523 0.26179707
-0.22730701 0.58022523 0.26179707
-0.20301309 0.58022523 0.26179707
-0.17871919 0.58022523 0.26179707
-0.15442529 0.58022523 0.26179707
-0.13013138 0.58022523 0.26179707
-0.10583747 0.58022523 0.26179707
-0.081543565 0.58022523 0.26179707
-0.057249658 0.58022523 0.26179707
-0.032955751 0.58022523 0.26179707
-0.008661842 0.58022523 0.26179707
0.015632065 0.58022523 0.26179707
0.03992597 0.58022523 0.26179707
0.064219877 0.58022523 0.26179707
0.088513784 0.58022523 0.26179707
0.11280769 0.58022523 0.26179707
0.13710161 0.58022523 0.26179707
0.16139551 0.58022523 0.26179707
0.18568942 0.58022523 0.26179707
0.20998332 0.58022523 0.26179707
0.23427722 0.58022523 0.26179707
0.25857115 0.58022523 0.26179707
0.28286505 0.58022523 0.26179707
0.30715895 0.58022523 0.26179707
0.33145285 0.58022523 0.26179707
-0.35072944 0.60764372 0.27870941
-0.32630533 0.60764372 0.27870941
-0.30188125 0.60764372 0.27870941
-0.27745715 0.60764372 0.27870941
-0.25303304 0.60764372 0.27870941
-0.22860894 0.60764372 0.27870941
-0.20418483 0.60764372 0.27870941
-0.17976074 0.60764372 0.27870941
-0.15533663 0.60764372 0.27870941
-0.13091254 0.60764372 0.27870941
-0.10648844 0.60764372 0.27870941
-0.082064338 0.60764372 0.27870941
-0.05764024 0.60764372 0.27870941
-0.033216134 0.60764372 0.27870941
-0.0087920353 0.60764372 0.27870941
0.015632065 0.60764372 0.27870941
0.040056165 0.60764372 0.27870941
0.064480267 0.60764372 0.27870941
0.088904366 0.60764372 0.27870941
0.11332846 0.60764372 0.27870941
0.13775256 0.60764372 0.27870941
0.16217667 0.60764372 0.27870941
0.18660076 0.60764372 0.27870941
0.21102487 0.60764372 0.27870941
0.23544896 0.60764372 0.27870941
0.25987306 0.60764372 0.27870941
0.28429717 0.60764372 0.27870941
0.30872127 0.60764372 0.27870941
0.33314538 0.60764372 0.27870941
-0.35270122 0.63535416 0.29578543
-0.32814565 0.63535416 0.29578543
-0.30359012 0.63535416 0.29578543
-0.27903455 0.63535416 0.29578543
-0.25447902 0.63535416 0.29578543
-0.22992344 0.63535416 0.29578543
-0.20536791 0.63535416 0.29578543
-0.18081233 0.63535416 0.29578543
-0.15625679 0.63535416 0.29578543
-0.13170125 0.63535416 0.29578543
-0.10714569 0.63535416 0.29578543
-0.08259014 0.63535416 0.29578543
-0.058034591 0.63535416 0.29578543
-0.033479035 0.63535416 0.29578543
-0.0089234859 0.63535416 0.29578543
0.015632065 0.63535416 0.29578543
0.040187616 0.63535416 0.29578543
0.064743169 0.63535416 0.29578543
0.089298718 0.63535416 0.29578543
0.11385427 0.63535416 0.29578543
0.13840982 0.63535416 0.29578543
0.16296537 0.63535416 0.29578543
0.18752092 0.63535416 0.29578543
0.21207646 0.63535416 0.29578543
0.23663203 0.63535416 0.29578543
0.26118758 0.63535416 0.29578543
0.28574315 0.63535416 0.29578543
0.31029868 0.63535416 0.29578543
0.33485425 0.63535416 0.29578543
-0.35469651 0.66336817 0.31306541
-0.33000794 0.66336817 0.31306541
-0.30531937 0.66336817 0.31306541
-0.2806308 0.66336817 0.31306541
-0.25594223 0.66336817 0.31306541
-0.23125365 0.66336817 0.31306541
-0.20656508 0.66336817 0.31306541
-0.18187651 0.66336817 0.31306541
-0.15718792 0.66336817 0.31306541
-0.13249937 0.66336817 0.31306541
-0.1078108 0.66336817 0.31306541
-0.083122224 0.66336817 0.31306541
-0.058433652 0.66336817 0.31306541
-0.03374508 0.66336817 0.31306541
-0.0090565067 0.66336817 0.31306541
0.015632065 0.66336817 0.31306541
0.040320635 0.66336817 0.31306541
0.065009207 0.66336817 0.31306541
0.089697778 0.66336817 0.31306541
0.11438635 0.66336817 0.31306541
0.13907492 0.66336817 0.31306541
0.16376349 0.66336817 0.31306541
0.18845205 0.66336817 0.31306541
0.21314064 0.66336817 0.31306541
0.23782921 0.66336817 0.31306541
0.26251778 0.66336817 0.31306541
0.28720635 0.66336817 0.31306541
0.31189492 0.66336817 0.31306541
0.3365835 0.66336817 0.31306541
-0.35671353 0.69168741 0.33053327
-0.33189049 0.69168741 0.33053327
-0.30706745 0.69168741 0.33053327
-0.28224441 0.69168741 0.33053327
-0.25742137 0.69168741 0.33053327
-0.23259832 0.69168741 0.33053327
-0.20777529 0.69168741 0.33053327
-0.18295226 0.69168741 0.33053327
-0.15812922 0.69168741 0.33053327
-0.13330618 0.69168741 0.33053327
-0.10848313 0.69168741 0.33053327
-0.083660096 0.69168741 0.33053327
-0.058837056 0.69168741 0.33053327
-0.034014016 0.69168741 0.33053327
-0.0091909748 0.69168741 0.33053327
0.015632065 0.69168741 0.33053327
0.040455103 0.69168741 0.33053327
0.065278143 0.69168741 0.33053327
0.090101182 0.69168741 0.33053327
0.11492422 0.69168741 0.33053327
0.13974726 0.69168741 0.33053327
0.1645703 0.69168741 0.33053327
0.18939334 0.69168741 0.33053327
0.21421638 0.69168741 0.33053327
0.23903942 0.69168741 0.33053327
0.26386246 0.69168741 0.33053327
0.2886855 0.69168741 0.33053327
0.31350854 0.69168741 0.33053327
0.33833158 0.69168741 0.33053327
-0.33379161 0.7203126 0.34817338
-0.30883276 0.7203126 0.34817338
-0.28387395 0.7203126 0.34817338
-0.2589151 0.7203126 0.34817338
-0.23395626 0.7203126 0.34817338
-0.20899743 0.7203126 0.34817338
-0.18403859 0.7203126 0.34817338
-0.15907978 0.7203126 0.34817338
-0.13412094 0.7203126 0.34817338
-0.1091621 0.7203126 0.34817338
-0.084203266 0.7203126 0.34817338
-0.059244439 0.7203126 0.34817338
-0.034285598 0.7203126 0.34817338
-0.0093267672 0.7203126 0.34817338
0.015632065 0.7203126 0.34817338
0.040590897 0.7203126 0.34817338
0.065549731 0.7203126 0.34817338
0.090508565 0.7203126 0.34817338
0.11546739 0.7203126 0.34817338
0.14042623 0.7203126 0.34817338
0.16538507 0.7203126 0.34817338
0.1903439 0.7203126 0.34817338
0.21530272 0.7203126 0.34817338
0.24026155 0.7203126 0.34817338
0.2652204 0.7203126 0.34817338
0.29017922 0.7203126 0.34817338
0.31513807 0.7203126 0.34817338
0.34009689 0.7203126 0.34817338
-0.33571571 0.74925715 0.36602688
-0.31061944 0.74925715 0.36602688
-0.28552318 0.74925715 0.36602688
-0.26042691 0.74925715 0.36602688
-0.23533064 0.74925715 0.36602688
-0.21023436 0.74925715 0.36602688
-0.18513809 0.74925715 0.36602688
-0.16004182 0.74925715 0.36602688
-0.13494556 0.74925715 0.36602688
-0.10984929 0.74925715 0.36602688
-0.084753014 0.74925715 0.36602688
-0.059656747 0.74925715 0.36602688
-0.034560472 0.74925715 0.36602688
-0.0094642043 0.74925715 0.36602688
0.015632065 0.74925715 0.36602688
0.040728334 0.74925715 0.36602688
0.065824606 0.74925715 0.36602688
0.090920873 0.74925715 0.36602688
0.11601714 0.74925715 0.36602688
0.14111342 0.74925715 0.36602688
0.16620968 0.74925715 0.36602688
0.19130595 0.74925715 0.36602688
0.21640222 0.74925715 0.36602688
0.24149849 0.74925715 0.36602688
0.26659477 0.74925715 0.36602688
0.29169104 0.74925715 0.36602688
0.3167873 0.74925715 0.36602688
0.34188357 0.74925715 0.36602688
-0.33765903 0.77851766 0.38405871
-0.31242394 0.77851766 0.38405871
-0.28718886 0.77851766 0.38405871
-0.2619538 0.77851766 0.38405871
-0.23671871 0.77851766 0.38405871
-0.21148363 0.77851766 0.38405871
-0.18624856 0.77851766 0.38405871
-0.16101348 0.77851766 0.38405871
-0.1357784 0.77851766 0.38405871
-0.11054333 0.77851766 0.38405871
-0.085308246 0.77851766 0.38405871
-0.060073167 0.77851766 0.38405871
-0.034838088 0.77851766 0.38405871
-0.0096030124 0.77851766 0.38405871
0.015632065 0.77851766 0.38405871
0.040867142 0.77851766 0.38405871
0.066102222 0.77851766 0.38405871
0.091337293 0.77851766 0.38405871
0.11657237 0.77851766 0.38405871
0.14180745 0.77851766 0.38405871
0.16704252 0.77851766 0.38405871
0.19227761 0.77851766 0.38405871
0.21751268 0.77851766 0.38405871
0.24274775 0.77851766 0.38405871
0.26798284 0.77851766 0.38405871
0.29321793 0.77851766 0.38405871
0.31845298 0.77851766 0.38405871
0.34368807 0.77851766 0.38405871
-0.33962607 0.80810833 0.40231061
-0.3142505 0.80810833 0.40231061
-0.28887492 0.80810833 0.40231061
-0.26349935 0.80810833 0.40231061
-0.23812374 0.80810833 0.40231061
-0.21274817 0.80810833 0.40231061
-0.18737258 0.80810833 0.40231061
-0.16199701 0.80810833 0.40231061
-0.13662143 0.80810833 0.40231061
-0.11124584 0.80810833 0.40231061
-0.085870266 0.80810833 0.40231061
-0.060494684 0.80810833 0.40231061
-0.035119101 0.80810833 0.40231061
-0.0097435173 0.80810833 0.40231061
0.015632065 0.80810833 0.40231061
0.041007645 0.80810833 0.40231061
0.066383228 0.80810833 0.40231061
0.09175881 0.80810833 0.40231061
0.11713439 0.80810833 0.40231061
0.14250997 0.80810833 0.40231061
0.16788556 0.80810833 0.40231061
0.19326113 0.80810833 0.40231061
0.21863671 0.80810833 0.40231061
0.2440123 0.80810833 0.40231061
0.26938787 0.80810833 0.40231061
0.29476348 0.80810833 0.40231061
0.32013905 0.80810833 0.40231061
0.34551463 0.80810833 0.40231061
-0.3416152 0.83803046 0.42076707
-0.31609753 0.83803046 0.42076707
-0.29057986 0.83803046 0.42076707
-0.26506221 0.83803046 0.42076707
-0.23954454 0.83803046 0.42076707
-0.21402688 0.83803046 0.42076707
-0.18850923 0.83803046 0.42076707
-0.16299157 0.83803046 0.42076707
-0.1374739 0.83803046 0.42076707
-0.11195624 0.83803046 0.42076707
-0.086438581 0.83803046 0.42076707
-0.060920916 0.83803046 0.42076707
-0.035403259 0.83803046 0.42076707
-0.0098855961 0.83803046 0.42076707
