ply
format ascii 1.0
comment PCL generated
element vertex 284
property float x
property float y
property float z
element camera 1
property float view_px
property float view_py
property float view_pz
property float x_axisx
property float x_axisy
property float x_axisz
property float y_axisx
property float y_axisy
property float y_axisz
property float z_axisx
property float z_axisy
property float z_axisz
property float focal
property float scalex
property float scaley
property float centerx
property float centery
property int viewportx
property int viewporty
property float k1
property float k2
end_header
0.42333311 -0.032077614 -0.6789422
0.46149465 -0.053262293 -0.67872953
0.42339486 0.023000246 -0.67841291
0.46354434 0.016639283 -0.67927933
0.49234954 -0.18803032 -0.62240553
0.55849075 -0.18849684 -0.61482859
0.42124912 -0.1080559 -0.64623499
0.47132808 -0.13275601 -0.65381098
0.55601025 -0.1336697 -0.63074493
0.6158849 -0.12420082 -0.59615183
0.40841711 -0.062016748 -0.65934896
0.49163893 -0.062968537 -0.66738033
0.55879939 -0.049618311 -0.62689877
0.38997802 0.021619519 -0.64180756
0.49719071 0.016788082 -0.66560459
0.55423677 0.024737379 -0.62648582
0.41634539 0.089220896 -0.64985228
0.47319251 0.10460925 -0.66128397
0.55685234 0.10360109 -0.62547636
0.48452526 0.16577363 -0.63271856
0.55370873 0.1674803 -0.61558151
0.55148762 -0.21193206 -0.58935404
0.62162292 -0.19897448 -0.56404781
0.40312204 -0.12076257 -0.5425005
0.64977801 -0.13985716 -0.57083082
0.70222473 -0.12205644 -0.53642845
0.33778158 -0.037537046 -0.52495623
0.37157279 -0.051981673 -0.5627284
0.64116669 -0.059036642 -0.57776165
0.71023446 -0.047251493 -0.53860331
0.33753157 0.029561413 -0.52820444
0.36250061 0.034520753 -0.56175947
0.64192784 0.017850647 -0.57362795
0.71315998 0.021977166 -0.53635406
0.38586098 0.1068773 -0.54757357
0.64152426 0.10570198 -0.57585335
0.70027757 0.099873312 -0.5386529
0.44206622 0.15975027 -0.59013796
0.55198067 0.2037704 -0.58624697
0.62726641 0.17685267 -0.5679636
0.4124116 -0.17573138 -0.44957876
0.47012177 -0.19887677 -0.44627762
0.32568306 -0.11236743 -0.45815659
0.38615337 -0.14151193 -0.48517036
0.45107758 -0.17236239 -0.51209688
0.30025837 -0.05235637 -0.47305155
0.74371159 -0.071360104 -0.5091362
0.29797289 0.025805192 -0.47972918
0.74367559 0.052314468 -0.50930309
0.31636304 0.093652301 -0.47264528
0.37014332 0.13548067 -0.49552679
0.73355603 0.097435281 -0.50410891
0.34326521 0.14524026 -0.45372152
0.39804918 0.16670188 -0.47725248
0.4702332 0.19162653 -0.44556522
0.33198622 -0.1859192 -0.37035561
0.3896279 -0.19264258 -0.39692402
0.4387058 -0.20058872 -0.41847897
0.24355121 -0.12106435 -0.37295103
0.30325717 -0.14032881 -0.4049077
0.18505512 -0.038788941 -0.36001778
0.23073477 -0.050212055 -0.39827824
0.27588096 -0.084442809 -0.42871571
0.18498425 0.032094248 -0.36308622
0.23044509 0.031442598 -0.40581179
0.23435438 0.099321567 -0.38121128
0.28406984 0.11619058 -0.41966438
0.25593811 0.15027441 -0.36029434
0.31779292 0.16522853 -0.39393997
0.39465782 0.19529963 -0.39254856
0.43758345 0.1927816 -0.42889214
0.2465425 -0.18369877 -0.30172014
0.29976743 -0.20083672 -0.3179698
0.37919223 -0.23199372 -0.29979134
0.16570832 -0.12872984 -0.30093956
0.22369394 -0.14381337 -0.33516073
0.089903384 -0.051529631 -0.27895164
0.14018603 -0.060897984 -0.31591988
0.089954838 0.021182938 -0.28563738
0.14014183 0.024003683 -0.32530546
0.089871727 0.082016677 -0.27484083
0.15326309 0.10266379 -0.31385756
0.20923775 0.12748373 -0.34213209
0.17857361 0.162067 -0.29131556
0.23405501 0.17680725 -0.31454802
0.29876745 0.19335453 -0.33517933
0.35671565 0.22742271 -0.27899599
0.15928069 -0.19610997 -0.224473
0.23348524 -0.21883127 -0.23789549
0.30997187 -0.23550139 -0.24916124
0.073005766 -0.1302696 -0.22608471
0.12876852 -0.14694495 -0.25997972
0.014894471 -0.06480588 -0.20617342
0.058967974 -0.061112896 -0.24739933
0.01521232 0.021978462 -0.21649647
0.051175825 0.026812812 -0.2502861
0.014864959 0.084160894 -0.2052145
0.061792642 0.11097778 -0.234375
0.11415935 0.13092481 -0.26762819
0.081132978 0.1664378 -0.21387291
0.14134862 0.18679345 -0.24081802
0.21137416 0.20359989 -0.2727499
0.17608222 0.23270214 -0.21041155
0.24331327 0.23703803 -0.23482656
0.30550063 0.2402126 -0.24199581
0.39577413 0.22968259 -0.24963665
0.17758366 -0.26904669 -0.13146925
0.23945904 -0.26581481 -0.17344999
0.31422344 -0.2652137 -0.18126011
0.36559159 -0.26656592 -0.1636939
0.068521604 -0.20255603 -0.14043474
0.1433662 -0.23328252 -0.16043186
-0.009212628 -0.13848378 -0.14500713
0.047440581 -0.1569252 -0.18021965
-0.063885316 -0.053303041 -0.12579727
-0.024019256 -0.065403186 -0.16751671
-0.063555181 0.022960646 -0.13192415
-0.02361542 0.022437954 -0.17707253
-0.064208612 0.086790882 -0.11979771
-0.015083402 0.11403629 -0.15698767
0.0042140856 0.1709013 -0.13478851
0.05543945 0.19449455 -0.16317654
0.075971007 0.23913611 -0.12682962
0.14942759 0.25198713 -0.15685606
0.22645669 0.25942957 -0.18745518
0.34026799 0.26122147 -0.16629696
0.088181071 -0.27491653 -0.055217266
0.15044476 -0.28955597 -0.067661762
0.2429911 -0.29863816 -0.081866264
0.29592884 -0.30077142 -0.05667305
-0.0087934509 -0.20261097 -0.070820332
0.056151107 -0.24044462 -0.085260391
-0.077666283 -0.13962403 -0.063220978
-0.040491268 -0.1697842 -0.08161068
-0.10103761 -0.058180563 -0.076946735
-0.10507841 0.0364483 -0.080408573
-0.0883068 0.11404754 -0.073727131
-0.067282096 0.16630779 -0.062761307
-0.023557276 0.20000111 -0.077246189
0.010336407 0.24442376 -0.058145523
0.06254594 0.26019618 -0.07713604
0.15285099 0.28775442 -0.081798077
0.24267282 0.29318574 -0.092236519
0.061337553 -0.28830403 0.0035142899
0.11415935 -0.30474454 -0.0097556114
-0.071148142 -0.20044143 0.0089840889
-0.017950654 -0.23965184 0.0010256767
-0.15214181 -0.121654 0.029458523
-0.11461078 -0.14717419 -0.00074958801
-0.16126078 -0.062814578 0.0094246864
-0.16317549 0.024503442 0.00019311905
-0.1583223 0.11115448 0.022876263
-0.12204793 0.12925832 -0.020535469
-0.091662705 0.19063848 -0.0030908585
-0.017920449 0.25777191 0.00073194504
0.061685428 0.28706762 -0.016662598
0.11415935 0.29872197 -0.032307148
0.060750116 0.30532151 0.03913641
-0.048842475 -0.25963649 0.099198341
0.0064330697 -0.28444943 0.068618774
0.060503289 -0.31024247 0.055169106
-0.13917872 -0.18708196 0.095654011
-0.087883279 -0.21722707 0.070026875
-0.21277475 -0.096867062 0.10927105
-0.17623752 -0.13000922 0.078885555
-0.22070253 -0.051304772 0.096312523
-0.22503966 0.011993246 0.094177246
-0.21156165 0.093526632 0.096138954
-0.18166211 0.1193305 0.063591003
-0.16247159 0.18005066 0.091938496
-0.13083942 0.22986507 0.10635853
-0.082111374 0.25573015 0.087438583
-0.019800186 0.27957717 0.050476551
0.03321889 0.3086282 0.074930191
-0.079614356 -0.26427132 0.16609716
-0.023932189 -0.29131681 0.15782881
-0.16402528 -0.21005788 0.18531942
-0.10657163 -0.23586477 0.1543293
-0.23198003 -0.12591475 0.16684389
-0.26487809 -0.06132932 0.17213488
-0.27410975 0.012592897 0.17279339
-0.25669807 0.090043247 0.16453648
-0.22792676 0.16050614 0.17249155
-0.19001588 0.20608427 0.16224384
-0.14954323 0.24864553 0.17651987
-0.080758676 0.29116598 0.18733358
-0.1413798 -0.27067271 0.25849628
-0.082877696 -0.28722695 0.22627354
0.014662638 -0.32752234 0.25923824
-0.22374237 -0.18408462 0.22799969
-0.18251562 -0.22706228 0.24063301
-0.31338841 -0.10064352 0.27277851
-0.27108225 -0.12794162 0.23198223
-0.32051557 -0.043390252 0.25202751
-0.32168743 0.0188773 0.24571133
-0.31153655 0.09849149 0.25674057
-0.27949995 0.12545884 0.22280884
-0.25385544 0.19008884 0.24699211
-0.18234247 0.25323844 0.23906898
-0.11289187 0.29706183 0.25695801
0.0019372255 0.3215327 0.21462631
-0.11586532 -0.30266452 0.30524063
-0.29427785 -0.19017813 0.35993099
-0.24428114 -0.20155723 0.29536247
-0.20239204 -0.24535303 0.3083992
-0.32545722 -0.13657026 0.32637501
-0.38010669 -0.044269297 0.34699059
-0.34487 -0.058204114 0.29695988
-0.37918904 0.028403329 0.33997726
-0.38123998 0.072289951 0.3556509
-0.34711114 0.10030122 0.31515503
-0.30506715 0.18731493 0.32572651
-0.24683517 0.24469458 0.32040787
-0.20406902 0.27416492 0.32820415
-0.14862126 0.30604261 0.36301708
-0.17924559 -0.27919856 0.38154697
-0.31680921 -0.20840955 0.43161488
-0.25332227 -0.23561747 0.38905144
-0.38767081 -0.11852287 0.40479088
-0.35831717 -0.16278294 0.40613747
-0.4185338 -0.05956088 0.41448689
-0.41647929 0.014347648 0.39966106
-0.40248048 0.10291425 0.40465164
-0.39165395 0.16338851 0.43522739
-0.34747943 0.19123285 0.39807415
-0.30021641 0.25125057 0.41503429
-0.23934892 0.27945638 0.39694405
-0.24633205 -0.27047724 0.47249889
-0.15457249 -0.31372508 0.44891548
-0.35289797 -0.211069 0.48488808
-0.46218514 -0.10613549 0.51059723
-0.41590166 -0.13519441 0.46768761
-0.46565431 -0.037696876 0.48233509
-0.47441542 0.030143382 0.4902029
-0.46047258 0.10597007 0.49888897
-0.42508364 0.13465589 0.46175766
-0.41384006 0.18092306 0.48917389
-0.36631718 0.22510448 0.47108841
-0.33825165 0.25631312 0.48810005
-0.27598587 0.28497818 0.46867085
-0.18428549 0.31315559 0.44701767
-0.33031195 -0.26031584 0.55136871
-0.26891816 -0.29089776 0.5504179
-0.40859669 -0.2098164 0.5637455
-0.48529631 -0.12266429 0.56315804
-0.43482268 -0.16762875 0.53204155
-0.53678811 -0.030654971 0.5967989
-0.49727827 -0.061031975 0.54150963
-0.53548986 0.03127905 0.58876801
-0.53824651 0.07806693 0.6058197
-0.50091594 0.10801818 0.56513691
-0.47067696 0.16955194 0.56865597
-0.43635285 0.19895411 0.5430851
-0.39197624 0.24569581 0.55537319
-0.31557283 0.29181761 0.55752373
-0.38731724 -0.26587251 0.64158726
-0.32313842 -0.2962538 0.62772274
-0.19742942 -0.32672247 0.61776257
-0.41561186 -0.23327537 0.61829948
-0.54772151 -0.10968827 0.66443062
-0.49326885 -0.1552711 0.61642265
-0.56701046 -0.046473205 0.65365219
-0.57860798 0.032115683 0.66070271
-0.55762357 0.11076313 0.66037464
-0.49506074 0.1878909 0.62832546
-0.44699079 0.23426621 0.61985779
-0.42323947 0.2693716 0.6765852
-0.43078482 -0.27157786 0.73424149
-0.36375734 -0.30188397 0.70898533
-0.47563392 -0.22241101 0.7118063
-0.56016678 -0.14357677 0.74141693
-0.52131259 -0.17400153 0.69761658
-0.62771088 0.033245325 0.76018238
-0.58658075 0.11227338 0.70777893
-0.57411909 0.16086547 0.72836304
-0.52037668 0.20695384 0.69153881
-0.49047166 0.23944812 0.7039938
-0.36437091 0.30388644 0.71430016
-0.59718502 -0.079801559 0.77039528
-0.62931412 -0.015133603 0.76923752
-0.6293295 0.081842661 0.7693243
-0.56805933 0.21227181 0.79023933
-0.53804505 0.24574856 0.8062973
-0.4698239 0.27685815 0.78464127
0 0 0 1 0 0 0 1 0 0 0 1 0 0 0 0 0 284 1 0 0
