ply
format ascii 1.0
comment PCL generated
element vertex 333
property float x
property float y
property float z
element camera 1
property float view_px
property float view_py
property float view_pz
property float x_axisx
property float x_axisy
property float x_axisz
property float y_axisx
property float y_axisy
property float y_axisz
property float z_axisx
property float z_axisy
property float z_axisz
property float focal
property float scalex
property float scaley
property float centerx
property float centery
property int viewportx
property int viewporty
property float k1
property float k2
end_header
-0.08787436 -0.14968656 -0.36445618
-0.061042063 -0.12299268 -0.37045336
-0.042850621 -0.078802563 -0.37952566
-0.034623481 -0.043979775 -0.37183428
-0.03427168 -0.017655361 -0.37754631
-0.033968292 0.017293852 -0.38247299
-0.045478068 0.066713743 -0.38388681
-0.03417138 0.043560769 -0.37917566
-0.086983226 0.13124655 -0.37497997
-0.06098073 0.10515597 -0.37115383
-0.10829616 -0.1783528 -0.33397293
-0.063727699 -0.15162869 -0.3329196
-0.042379983 -0.12740862 -0.34161282
-0.020040937 -0.11668497 -0.31691265
-0.035265945 -0.097007744 -0.36140203
-0.012039803 -0.076716982 -0.332376
-0.0094887912 -0.026642248 -0.34749079
-0.0095147043 0.017714042 -0.3468256
-0.035378091 0.079286039 -0.35958052
-0.012012266 0.058922321 -0.3328023
-0.042794012 0.10994529 -0.33520842
-0.019905426 0.098776892 -0.31942749
-0.10797714 0.16028462 -0.33700943
-0.063750081 0.13385169 -0.33268213
-0.24148852 -0.20990708 -0.27678204
-0.19582498 -0.20990555 -0.27680159
-0.094199531 -0.19063437 -0.28975964
-0.057462238 -0.16606644 -0.29456758
-0.012379877 -0.12698859 -0.29039383
-0.002497673 -0.099071011 -0.30778599
0.019368015 -0.077100076 -0.28856754
0.026013158 -0.030629914 -0.29606104
0.022555284 0.012849518 -0.30081987
-0.0025746152 0.081343725 -0.30611992
0.019311517 0.059354603 -0.28712177
-0.012169056 0.10898615 -0.29456329
-0.10286353 0.17252925 -0.29383183
-0.057580404 0.14838323 -0.29313278
-0.16455251 0.18929859 -0.31004572
-0.22435057 -0.21060139 -0.26858473
-0.29313856 -0.18506244 -0.24103022
-0.2659899 -0.19474709 -0.23633194
-0.059954487 -0.18377768 -0.25913239
-0.014568865 -0.15701014 -0.24553728
-0.0046972558 -0.13770787 -0.26016331
0.019075468 -0.12653618 -0.23827076
0.041024528 -0.082855448 -0.24833536
0.05034804 -0.03658301 -0.25324583
0.068402946 -0.01822512 -0.22726345
0.050407112 0.0095480969 -0.25580311
0.068380326 0.019108996 -0.22579336
0.042799197 0.068898648 -0.24529314
-0.0043966323 0.11956506 -0.26667261
0.019282579 0.10846078 -0.24386358
-0.3047626 0.15902585 -0.22687006
-0.2670781 0.17749944 -0.22926378
-0.06069117 0.16675082 -0.24883175
-0.014392883 0.13900316 -0.24903011
-0.19867593 0.19406427 -0.25376654
-0.15176135 0.19340545 -0.261549
-0.23283243 -0.19697651 -0.20737219
-0.21604213 -0.19816355 -0.19195366
-0.06441278 -0.19792436 -0.19506025
-0.32528457 -0.15880799 -0.21634197
-0.29146409 -0.16963089 -0.19368601
-0.25274995 -0.18804722 -0.19978666
-0.0071510673 -0.16884044 -0.20576143
-0.36530262 -0.10309884 -0.20314407
-0.34295073 -0.1269203 -0.19652748
0.04294353 -0.12190785 -0.20491409
0.067765251 -0.10376471 -0.18584347
-0.36805573 -0.075207673 -0.18883848
0.074343339 -0.071712568 -0.20226097
-0.37024692 -0.046972632 -0.17745304
0.082185388 -0.03243342 -0.20148993
0.086818829 0.019451968 -0.19620657
-0.36930043 0.057592809 -0.18237066
0.077438191 0.057240047 -0.19672537
-0.36648482 0.085543565 -0.19700146
-0.34143245 0.11705018 -0.19615459
0.039801665 0.1135153 -0.20409536
0.067856602 0.085744843 -0.19177675
-0.3255657 0.14111416 -0.21475506
-0.29127827 0.15495467 -0.19464827
-0.0073342547 0.15444171 -0.20237494
-0.24425507 0.18030168 -0.19286489
-0.13803962 0.19735619 -0.21489096
-0.054311045 0.17942603 -0.2042408
-0.19084722 -0.20024139 -0.16496181
-0.16458628 -0.20196684 -0.14254856
-0.27777097 -0.16228943 -0.15981197
-0.24137774 -0.17600244 -0.14565849
-7.9870224e-05 -0.182145 -0.14997721
0.029257894 -0.16180587 -0.16766453
-0.32647431 -0.11452452 -0.15512705
-0.30675867 -0.14320168 -0.15820456
0.048301559 -0.14285544 -0.16462994
0.073581032 -0.12457602 -0.14725876
-0.34568629 -0.076110788 -0.15510893
0.086634882 -0.085207768 -0.17231131
0.10571285 -0.076482683 -0.14320278
-0.37130806 -0.018438458 -0.17193842
-0.35667163 -0.028137747 -0.14788294
0.11347026 -0.024273671 -0.15038681
-0.37134519 0.019724753 -0.17174578
-0.35680974 0.019999564 -0.14713526
0.11540323 0.02000688 -0.14831734
-0.3474842 0.058596842 -0.14517355
0.10571285 0.058523312 -0.14895916
-0.33168632 0.10238346 -0.15826321
-0.30012763 0.12638418 -0.14012527
0.048546225 0.1244928 -0.17522478
0.076900832 0.10644784 -0.15396357
-0.28775764 0.14467587 -0.15691662
-0.25164145 0.1649731 -0.14103174
0.009355396 0.16454768 -0.14717245
0.03847412 0.1449398 -0.15263319
-0.21221411 0.18381397 -0.14723682
-0.028722219 0.18315424 -0.15580797
-0.23711666 -0.16563438 -0.10549307
-0.19791982 -0.18522163 -0.10556793
0.047420327 -0.16434264 -0.126472
-0.28913963 -0.12307564 -0.10677528
-0.25811297 -0.14657362 -0.095630646
0.086155668 -0.13607492 -0.11005926
0.10571285 -0.11676665 -0.1041255
-0.32324463 -0.077116773 -0.1177392
-0.30787584 -0.077806614 -0.092195988
0.1319163 -0.074284792 -0.10214806
-0.33260834 -0.032335471 -0.10837936
0.13839889 -0.041522179 -0.10648394
-0.33630434 0.014590508 -0.10965824
0.1449413 0.010722463 -0.10265017
-0.32489693 0.059585676 -0.10798216
-0.3087824 0.070055448 -0.086587906
0.13519232 0.059765905 -0.10298014
-0.32224923 0.088368453 -0.12361622
-0.29082075 0.11282366 -0.1003046
0.086153015 0.12802313 -0.10971498
0.11226448 0.09544383 -0.10960436
-0.24657556 0.15420888 -0.10800552
-0.21047631 0.16896051 -0.08347559
0.037105054 0.16768955 -0.10182333
0.066484965 0.14801566 -0.10268641
-0.18712276 0.18632802 -0.11458111
-0.1702044 0.18818805 -0.090418816
-0.011900596 0.18712659 -0.10420656
-0.20737994 -0.16207597 -0.054454327
-0.16276997 -0.18790992 -0.066766739
0.026279092 -0.18762186 -0.070925713
0.075889632 -0.16831486 -0.061969757
-0.27310413 -0.1085847 -0.060624599
-0.24457228 -0.12893899 -0.050450325
0.12566079 -0.12360872 -0.059847832
-0.28401682 -0.078836918 -0.054017067
0.1454879 -0.088445954 -0.067146778
0.16576813 -0.068951055 -0.050142288
-0.30280605 -0.038778447 -0.061603069
0.16538544 -0.028817371 -0.066713333
-0.30373803 0.01106857 -0.055693626
0.17575321 0.011037405 -0.053391933
-0.29354841 0.061015613 -0.056852818
0.16573864 0.061159186 -0.051419735
-0.27947927 0.097363055 -0.062278271
-0.25411397 0.12100434 -0.053785801
0.13069169 0.1106335 -0.062214851
-0.23420262 0.14101289 -0.053181648
-0.19498488 0.16484793 -0.046297073
0.075732023 0.16078621 -0.058079243
0.125819 0.13184719 -0.038747311
0.0062203854 0.1900892 -0.065721989
-0.1855765 -0.15789536 -0.010540009
-0.15892461 -0.17175001 -0.0061955452
0.04518906 -0.19046739 -0.029855251
0.11584922 -0.16119249 -0.01303196
-0.23064971 -0.1108369 -0.0021042824
-0.21926492 -0.13076259 -0.012121201
0.14625184 -0.1305128 -0.01752758
0.16663644 -0.11043497 -0.012543678
-0.25338602 -0.083433747 -0.0098996162
0.18010435 -0.08324571 -0.016607285
-0.27892742 -0.029118128 -0.020810604
-0.26204821 -0.039523039 0.0034747124
0.18639314 -0.039157834 -0.030442715
0.20782572 -0.029345009 0.0023574829
-0.27941853 0.021499269 -0.017452717
-0.26278007 0.011568055 0.0087561607
0.18632506 0.031410225 -0.032653809
0.20770222 0.021709677 -0.00085115433
-0.27823597 0.051727667 -0.025537491
-0.26086745 0.062367074 -0.0050468445
0.18684745 0.062122583 -0.015689373
0.20816126 0.05257307 0.01107502
-0.24019343 0.10304765 -0.0069169998
0.17360917 0.099697433 -0.0060515404
-0.19968387 0.14381583 -0.0054368973
-0.15817431 0.17379527 -0.013693333
0.085379519 0.1741043 -0.0092344284
0.12612332 0.14702208 -0.0085248947
-0.14920264 -0.16041471 0.034389019
0.13662404 -0.16367887 0.029653549
0.16822964 -0.15476818 0.056444168
-0.1940667 -0.12258033 0.035491943
0.18147832 -0.12595719 0.032430649
0.20992401 -0.11310695 0.056873322
-0.23094663 -0.077604108 0.027183533
-0.20641503 -0.092129909 0.052494526
0.21599589 -0.077792235 0.034424305
-0.24085781 -0.034773301 0.037450314
0.22975662 -0.029599816 0.035014153
-0.23963836 0.025657896 0.041443348
0.22965306 0.022098925 0.032771587
-0.23514 0.063402191 0.033317566
0.21942113 0.063402474 0.034161091
-0.22427541 0.094225511 0.028558731
-0.20562381 0.10522141 0.045642376
0.18851247 0.11530361 0.038383961
0.20940077 0.094791993 0.043278694
-0.18403366 0.13597746 0.037899971
-0.14918497 0.1632919 0.034212589
0.12649153 0.16739842 0.043931961
0.16777453 0.13591461 0.036736965
0.023463324 0.1967281 0.020519257
-0.12524039 -0.15586616 0.076815605
0.14802688 -0.17815208 0.097764492
0.19041884 -0.1571314 0.10029507
-0.16038641 -0.12792902 0.078611374
0.22197548 -0.12513539 0.095108032
-0.19554412 -0.07895489 0.07996273
0.23142985 -0.092707127 0.071240902
0.25337476 -0.07217934 0.089651585
-0.22820729 -0.029765971 0.060481548
-0.2103149 -0.029942486 0.086268902
0.25225547 -0.029859036 0.068879604
-0.2283361 0.0015408238 0.061527252
-0.21059075 0.022723328 0.088657379
0.25221387 0.022506088 0.068107605
-0.20288849 0.068275474 0.083073139
0.23086053 0.074536026 0.058914185
0.25333956 0.064952359 0.088997841
-0.18775049 0.10635354 0.072388172
-0.168551 0.11768747 0.089997292
0.22111988 0.10647029 0.074687958
-0.15650487 0.13797592 0.074988842
0.1791162 0.14845112 0.074420929
0.12672946 0.18025365 0.079525948
-0.1361165 -0.12268713 0.12156343
-0.10907537 -0.13776866 0.13956881
0.23446479 -0.13764781 0.13694906
0.25634331 -0.11648913 0.14474058
-0.16446295 -0.087106451 0.12051296
0.26609701 -0.083677746 0.12656641
-0.19225842 -0.030146275 0.1142168
-0.1739746 -0.030369021 0.1441927
0.27599612 -0.030219037 0.1144433
-0.19263649 0.023062255 0.1177249
-0.17434573 0.023408294 0.14790154
0.27575412 0.022996742 0.11051416
-0.19190383 0.054879151 0.11092615
-0.17278868 0.066064626 0.13234234
0.27682337 0.055270277 0.12787628
-0.15110508 0.10885762 0.13028812
0.23350352 0.11889487 0.1161375
0.25550419 0.098098062 0.12916851
-0.12846974 0.14012949 0.11495256
0.19144849 0.16257557 0.1337347
0.21206842 0.14000195 0.1125865
0.14846736 0.18349952 0.12637472
0.21371654 -0.16010098 0.155406
-0.11132898 -0.11741664 0.16884422
-0.14012 -0.081202842 0.16753769
-0.11328842 -0.096496463 0.19429827
0.27969626 -0.095887601 0.17452621
-0.15039372 -0.036142744 0.18112326
0.30129042 -0.030685715 0.17230654
-0.15570962 0.023774613 0.17936945
0.30101162 0.02367641 0.16828299
-0.14451492 0.067252614 0.17658043
0.27834952 0.077422522 0.15265751
0.30298305 0.05686073 0.19673777
-0.13307828 0.099645577 0.16937637
-0.11191686 0.12168198 0.17648077
0.25826839 0.12186598 0.1804657
0.23643678 0.14361538 0.17964411
-0.10478611 -0.07538791 0.22858
0.30509096 -0.0753555 0.22716236
-0.13611826 -0.030880399 0.20527697
-0.11610722 -0.04214428 0.23091507
-0.13646773 0.013103395 0.20940351
-0.11690228 0.013348817 0.24124336
-0.11552947 0.068518177 0.22340965
-0.11379922 0.10086009 0.20093298
0.28140214 0.10090985 0.20222616
-0.096602462 -0.031324312 0.26955795
0.33044273 -0.020149687 0.26871443
-0.097152568 0.024907161 0.27749777
0.33117273 0.024975739 0.27819729
-0.096190937 0.058405459 0.26361799
0.30790505 0.080967367 0.26778078
0.33436877 -0.05462699 0.31971502
0.33656773 0.060360685 0.34828091
0.36543101 -0.020734362 0.41651297
0.36532572 0.014705506 0.4152689
0.36796802 0.038786918 0.4464736
0.37406874 -0.057688009 0.51851988
0.39812744 -0.0088958433 0.51486826
0.39832699 0.015488741 0.51702881
0.37366197 0.064181246 0.51371574
0.40020031 -0.033436544 0.53730774
0.39993149 0.040140677 0.53439808
0.35241547 0.089785084 0.55414867
0.40559176 -0.05887562 0.59567165
0.4298791 -0.021413613 0.58865166
0.42890707 0.015965179 0.57893896
0.4177748 0.053482171 0.59213305
0.46124542 -0.021641446 0.64831877
0.46058404 0.01645207 0.64218187
0.44924763 0.054698154 0.65486097
0.4386369 -0.060114942 0.6761651
0.49209556 -0.021807183 0.69555998
0.49135622 0.016813651 0.68915749
0.46751714 0.068633661 0.7065134
0.4927108 0.042703792 0.70088768
0.46936354 -0.060846183 0.72364569
0.49805254 -0.061207905 0.74714899
0.52485192 -0.035091948 0.75237322
0.52226144 0.0041423412 0.73134089
0.51014131 0.056274176 0.73842287
0.55808437 -0.035505939 0.80613995
0.55686939 0.0043839058 0.79685593
0.53117275 0.070878133 0.80369186
0.53439122 -0.062480681 0.82982206
0.56078267 0.044641741 0.82675886
0 0 0 1 0 0 0 1 0 0 0 1 0 0 0 0 0 333 1 0 0
