ply
format ascii 1.0
comment PCL generated
element vertex 353
property float x
property float y
property float z
element camera 1
property float view_px
property float view_py
property float view_pz
property float x_axisx
property float x_axisy
property float x_axisz
property float y_axisx
property float y_axisy
property float y_axisz
property float z_axisx
property float z_axisy
property float z_axisz
property float focal
property float scalex
property float scaley
property float centerx
property float centery
property int viewportx
property int viewporty
property float k1
property float k2
end_header
0.77630633 -0.021143265 -0.4672761
0.7415275 0.014142398 -0.46500015
0.77348036 0.018812735 -0.46939945
0.75133115 -0.11688854 -0.41951656
0.79830307 -0.12875107 -0.42300367
0.734873 -0.045053639 -0.44058943
0.79673821 -0.054001361 -0.45259666
0.73135823 0.042699501 -0.44608641
0.80058271 0.04726205 -0.45415306
0.74034703 0.1050323 -0.42606306
0.79483885 0.10936426 -0.43810129
0.7908079 0.15864129 -0.40341806
0.829602 0.15927078 -0.39173317
0.79831266 -0.17920156 -0.37028217
0.85255015 -0.18045475 -0.34702587
0.72625256 -0.11359929 -0.33637238
0.76270902 -0.15510662 -0.36673021
0.85720193 -0.13045311 -0.37750053
0.60096806 -0.0093874568 -0.31560564
0.65646893 -0.046281293 -0.32704639
0.70458764 -0.051181622 -0.36215639
0.86554015 -0.082779869 -0.34365177
0.58846176 0.015285024 -0.31666517
0.64911592 0.030788461 -0.33472204
0.69904363 0.032167628 -0.37270164
0.87239206 0.064647563 -0.31583643
0.64927775 0.089155741 -0.32135439
0.71235555 0.10778644 -0.35090971
0.86142981 0.11220033 -0.36033678
0.78582639 0.17651089 -0.37205029
0.85100186 0.17355406 -0.35313129
0.7238943 -0.16026035 -0.2551403
0.75723785 -0.15928788 -0.27620459
0.34111464 -0.091340289 -0.24635315
0.4097296 -0.097465791 -0.25348568
0.48382959 -0.097171262 -0.26456642
0.55521351 -0.11685774 -0.26641798
0.63820738 -0.11985551 -0.28298235
0.70368779 -0.13359526 -0.29462337
0.90181035 -0.14592156 -0.29717779
0.90722418 -0.09681648 -0.27586603
0.2662425 -0.034603115 -0.24852943
0.33671999 -0.037643492 -0.26204491
0.40775487 -0.03754282 -0.27318764
0.49312118 -0.034284592 -0.2898488
0.57518214 -0.0539736 -0.3066287
0.63284969 -0.06504073 -0.30961895
0.87944317 -0.034184575 -0.28721237
0.91171187 -0.034467876 -0.25820017
0.25538477 0.022996007 -0.24954414
0.32988167 0.022858957 -0.26361179
0.40728796 0.022724861 -0.27783966
0.49756885 0.035336524 -0.29405308
0.56876141 0.048288547 -0.31089306
0.88087362 0.028036656 -0.28140497
0.9136408 0.028363628 -0.25060701
0.27606001 0.074695066 -0.24507332
0.33751336 0.088173583 -0.25206566
0.40879348 0.091005526 -0.2627449
0.47943759 0.093753234 -0.27499485
0.56754971 0.1025474 -0.29120779
0.65217143 0.11442026 -0.30502129
0.90168333 0.1271017 -0.29767799
0.92487752 0.091207482 -0.25608397
0.49893588 0.14197755 -0.24448824
0.56028289 0.14144072 -0.25611305
0.63309795 0.1407339 -0.27141809
0.68401915 0.14094581 -0.26683331
0.88048685 0.19006233 -0.2829752
0.18564948 -0.16389072 -0.17654848
0.26262996 -0.1765438 -0.18199539
0.33936635 -0.17628865 -0.18721437
0.41096461 -0.17359681 -0.18980789
0.4921318 -0.16292568 -0.19744539
0.56889629 -0.16293263 -0.1972909
0.63297117 -0.1629512 -0.19688559
0.69305366 -0.16197908 -0.21793222
0.056861926 -0.0868617 -0.16690969
0.11158098 -0.10907503 -0.18115473
0.18477821 -0.11157221 -0.20495319
0.26040867 -0.11101478 -0.22305202
0.33121231 -0.12606627 -0.227283
0.41219467 -0.1361223 -0.22897387
0.48767063 -0.13595071 -0.23343563
0.94324034 -0.11061124 -0.23372364
0.046589963 -0.030004356 -0.17421865
0.10819241 -0.038168348 -0.20042467
0.18406802 -0.037932768 -0.22774267
0.23442501 -0.059966914 -0.23640919
0.9487319 -0.034849197 -0.21274185
0.98131639 -0.047901817 -0.18634272
0.044007506 0.029271813 -0.17403746
0.10818032 0.023458028 -0.20363808
0.1839495 0.023175666 -0.23194695
0.94705451 0.028734198 -0.21915007
0.98128778 0.0034475857 -0.18644953
0.056892194 0.080905706 -0.17084169
0.10827345 0.093232699 -0.19028902
0.18431519 0.092322879 -0.21979332
0.25140366 0.10030187 -0.2340436
0.31014249 0.11697688 -0.23859835
0.94381255 0.06659428 -0.23153639
0.12130656 0.14517866 -0.17518187
0.18896782 0.16294064 -0.18863869
0.26170012 0.16974105 -0.19915152
0.33772379 0.16924614 -0.20846558
0.41383857 0.16904476 -0.21257114
0.48260859 0.17367752 -0.20565939
0.56573838 0.16858152 -0.21894932
0.63163012 0.16932788 -0.20509911
0.21469858 -0.24700907 -0.091870308
0.26736873 -0.24683811 -0.094337463
0.32019481 -0.24689585 -0.093504906
0.0035757869 -0.16760924 -0.096039772
0.047696371 -0.17559919 -0.1129775
0.11203473 -0.18898894 -0.12998009
0.1867661 -0.20465471 -0.14049864
0.26525578 -0.2180419 -0.13351583
0.34336749 -0.2179372 -0.13521528
0.42808664 -0.21148513 -0.13509941
0.49751735 -0.19085343 -0.1540556
0.5536716 -0.19254842 -0.12259912
-0.018983357 -0.11103591 -0.1153779
0.041085247 -0.11859676 -0.14514399
0.082686655 -0.13893345 -0.15593672
-0.075135641 -0.035708077 -0.10468721
-0.018319167 -0.038721703 -0.13809156
0.030964527 -0.061109543 -0.16219044
-0.088616155 0.016940745 -0.098631382
-0.025372013 0.024106665 -0.13598108
-0.075576805 0.082944281 -0.095136642
-0.022015199 0.095271483 -0.12397337
0.037321094 0.1007932 -0.1546216
-0.0049192086 0.15706398 -0.10789871
0.04339147 0.1739683 -0.12082005
0.10493577 0.18010546 -0.14404058
0.17327219 0.19770439 -0.15888786
0.52260345 0.19763233 -0.16006041
0.54950434 0.1980872 -0.1526742
0.1089296 0.22735332 -0.10458136
0.18738267 0.23943007 -0.12013435
0.26490131 0.23799445 -0.13977528
0.34321654 0.23817648 -0.13765955
0.42129701 0.22499058 -0.13868141
0.47763115 0.22757909 -0.10132122
0.055839021 -0.25101617 -0.034030437
0.11609928 -0.25660023 -0.050666332
0.18408611 -0.2655853 -0.056078911
0.27044871 -0.27757627 -0.03776598
0.34874013 -0.2579695 -0.063398838
0.41621369 -0.2494954 -0.055979729
-0.087654568 -0.17973952 -0.028042793
-0.024157301 -0.19642545 -0.052250862
0.038439866 -0.21293725 -0.073289871
0.082686655 -0.22080249 -0.088689327
0.4788506 -0.22067481 -0.090760231
-0.16783381 -0.098873116 -0.034989357
-0.10390612 -0.1160432 -0.060540676
-0.049742021 -0.14181615 -0.081043243
-0.18501887 -0.036170486 -0.04517746
-0.11602413 -0.049135752 -0.080344677
-0.1847519 0.030720988 -0.048634529
-0.12258319 0.02370437 -0.081233978
-0.18226615 0.094579704 -0.037137985
-0.11080689 0.10063952 -0.072374821
-0.15943474 0.15202688 -0.026919365
-0.10151923 0.17485254 -0.041874409
-0.032424703 0.18543084 -0.071607113
-0.01113192 0.23177703 -0.040733814
0.042622365 0.24422659 -0.054607391
0.11466523 0.2679736 -0.058008671
0.18912417 0.28345877 -0.063290119
0.26850495 0.28258213 -0.073644638
0.33705693 0.28508574 -0.044077396
0.41535562 0.25669819 -0.065085888
-0.095768519 -0.25643846 0.044230938
-0.026309431 -0.25446576 0.015762329
0.037300777 -0.27281585 0.01723671
0.096211962 -0.28043652 -0.00060749054
0.3547639 -0.28146493 0.012746334
-0.22032169 -0.17466475 0.056716919
-0.17256117 -0.18260464 0.030776978
-0.11701091 -0.20911463 0.015362263
-0.052619644 -0.22587769 -0.0062799454
-0.30174869 -0.091766745 0.045475006
-0.24532983 -0.11877482 0.028859615
-0.18812722 -0.12453394 -0.0035033226
-0.31462753 -0.036812 0.037519932
-0.25616771 -0.036516689 -0.00054454803
-0.31405923 0.031657055 0.032447815
-0.25578028 0.031230317 -0.0045604706
-0.31264016 0.094949417 0.044408798
-0.25727522 0.09943442 0.010984898
-0.21500891 0.12592861 -0.006023407
-0.23667812 0.17313939 0.034003258
-0.17816013 0.18631029 0.0078392029
-0.13401529 0.20731452 -0.0028400421
-0.16427717 0.23757647 0.042974949
-0.1028356 0.24708511 0.021969795
-0.032555424 0.25494385 -0.0002040863
0.055573441 0.2888577 0.00046873093
0.082686655 0.28742057 -0.016501904
-0.013364181 0.29241103 0.04242754
0.028178819 0.29040584 0.01874733
0.13758595 0.32000849 0.044173717
0.19212195 0.31895915 0.03281641
0.24761018 0.32045913 0.049058437
0.12445858 -0.31610644 0.10053825
0.19334872 -0.31358033 0.070706367
-0.25363526 -0.23360205 0.11915112
-0.18242845 -0.2605094 0.10299349
-0.11202285 -0.27840531 0.092766285
-0.027999915 -0.28602797 0.072024345
-0.30939683 -0.17742312 0.11644077
-0.25157505 -0.19972908 0.096339703
-0.18431139 -0.22114821 0.06613493
-0.39413914 -0.11462013 0.12208939
-0.33412936 -0.1205856 0.08778286
-0.27707681 -0.14775817 0.073332787
-0.45061421 -0.037481517 0.12455988
-0.40462437 -0.037259422 0.09542799
-0.35920364 -0.037036657 0.066061497
-0.44972086 0.032648757 0.11845207
-0.40380946 0.032314338 0.089374065
-0.35847297 0.031977244 0.060129166
-0.45100641 0.074879609 0.12724161
-0.40610215 0.10238063 0.10638952
-0.35346043 0.10832749 0.075541973
-0.38053423 0.17309296 0.12527418
-0.32542446 0.17614757 0.092675686
-0.26807165 0.20293158 0.075463772
-0.3388344 0.21542369 0.12883902
-0.24567702 0.24911557 0.10819244
-0.18554845 0.25890183 0.082995415
-0.13803908 0.26651964 0.062498569
-0.11212758 0.29659608 0.091851234
-0.028698623 0.31601283 0.10042858
0.040738218 0.32604772 0.10955334
0.096472695 0.32241264 0.070202351
-0.089262985 -0.32462856 0.20117807
-0.030542053 -0.32060602 0.15367603
0.040181201 -0.32124314 0.16120005
0.082686655 -0.32018414 0.14869308
-0.37577203 -0.23861675 0.20058012
-0.32559195 -0.24680687 0.17859554
-0.25757098 -0.26471502 0.16218424
-0.17251119 -0.29281262 0.16015959
-0.39625719 -0.19184442 0.18123722
-0.3312788 -0.19757003 0.14475632
-0.5324679 -0.095217764 0.19491339
-0.46867961 -0.1174669 0.17024899
-0.41756129 -0.14155184 0.15661573
-0.56115705 -0.037983008 0.19542742
-0.4974308 -0.037713364 0.15418005
-0.55699563 0.024903605 0.18783665
-0.49654925 0.033001423 0.14858055
-0.53118092 0.10482036 0.18726873
-0.47866368 0.1038149 0.15474415
-0.51993674 0.16279052 0.20612478
-0.4680689 0.17104465 0.17885923
-0.41687787 0.17913912 0.15155554
-0.39598587 0.22995763 0.1791544
-0.3297967 0.26092517 0.17341423
-0.27120218 0.27369493 0.15570641
-0.2460652 0.30502865 0.19143629
-0.1855455 0.3011438 0.14555836
-0.10216834 0.33182314 0.17207336
-0.058033042 0.32833964 0.13436413
-0.15126711 -0.33107394 0.27729559
-0.1197925 -0.3275691 0.23590374
-0.47099006 -0.24251464 0.26387024
-0.41011927 -0.25583568 0.24409819
-0.3240056 -0.29033414 0.25276852
-0.26406845 -0.29835013 0.23209381
-0.54471606 -0.18446594 0.26891947
-0.48180372 -0.19758615 0.23856497
-0.4358778 -0.21105133 0.2207756
-0.61694789 -0.11876063 0.26533031
-0.55331844 -0.12987083 0.23351908
-0.49219954 -0.15310875 0.21235466
-0.67586797 -0.038593896 0.26832628
-0.62955391 -0.044135571 0.23927212
-0.57836938 -0.066870719 0.21199799
-0.67469454 0.034315661 0.26246357
-0.62207156 0.025297483 0.23022842
-0.67732507 0.092939436 0.27560568
-0.62902999 0.10686487 0.25180864
-0.57201523 0.11295177 0.21666622
-0.60419631 0.18060668 0.27534771
-0.55438304 0.17882624 0.23982048
-0.49160314 0.19161402 0.20848179
-0.52836967 0.22339605 0.25829029
-0.47476029 0.24623539 0.25010204
-0.40912682 0.27028984 0.2365036
-0.32362691 0.309762 0.24733305
-0.1626305 0.33688432 0.22686052
-0.60337466 -0.24801758 0.35322809
-0.55286592 -0.24585488 0.31811333
-0.48459953 -0.26726434 0.30624342
-0.39179316 -0.30593723 0.33065557
-0.3591508 -0.3039456 0.30478334
-0.62285209 -0.19911814 0.32886124
-0.54869926 -0.21494177 0.29297161
-0.75081998 -0.098691463 0.34534788
-0.69784188 -0.1218096 0.31890678
-0.64337248 -0.14677437 0.30198097
-0.76037306 -0.033138052 0.33436155
-0.71017814 -0.03878526 0.29303217
-0.76280618 0.035116076 0.33185673
-0.70841354 0.034568116 0.28454208
-0.74808359 0.094488338 0.33265305
-0.70537412 0.11585822 0.30526018
-0.69970131 0.17879799 0.33778238
-0.64372629 0.18696193 0.30384731
-0.62274855 0.23566635 0.33650923
-0.55246878 0.25664583 0.31624746
-0.49290103 0.28576002 0.31243801
-0.45285428 0.31788784 0.34329319
-0.40301582 0.31438488 0.30192947
-0.2110076 0.34304589 0.2935605
-0.47610241 -0.31140259 0.40164948
-0.42520118 -0.30814508 0.35933399
-0.67625558 -0.25224909 0.4219389
-0.62534088 -0.26554611 0.3924675
-0.56190634 -0.2791996 0.3727603
-0.77691436 -0.17121908 0.41936207
-0.70441055 -0.19570841 0.38092089
-0.82664537 -0.10032032 0.41588259
-0.77893031 -0.11959649 0.38258886
-0.82005918 -0.039504454 0.38736296
-0.78421032 -0.069173105 0.36157465
-0.81877619 0.035696618 0.3818078
-0.82340932 0.096352421 0.40187025
-0.78512508 0.095381841 0.36567163
-0.82996559 0.14272147 0.43025923
-0.77443105 0.16575366 0.39872074
-0.72849786 0.2009194 0.38117266
-0.68650609 0.24706115 0.39702654
-0.63710445 0.26053426 0.37434292
-0.61224592 0.29275736 0.40333271
-0.54989809 0.30700707 0.39209461
-0.48752797 0.32073694 0.37694073
-0.54649788 -0.31628317 0.46505213
-0.71297812 -0.25420737 0.45373917
-0.65240848 -0.28504807 0.45717812
-0.76070088 -0.22404364 0.46188021
-0.75704056 0.24670838 0.46919203
-0.71388429 0.2663486 0.45826626
-0.62146711 0.31217015 0.45598125
-0.55631924 0.32532993 0.43118286
-0.75603622 -0.25789818 0.51366663
-0.69486654 -0.28930673 0.51864481
-0.69593257 0.3020601 0.52418423
0 0 0 1 0 0 0 1 0 0 0 1 0 0 0 0 0 353 1 0 0
