ply
format ascii 1.0
comment PCL generated
element vertex 286
property float x
property float y
property float z
element camera 1
property float view_px
property float view_py
property float view_pz
property float x_axisx
property float x_axisy
property float x_axisz
property float y_axisx
property float y_axisy
property float y_axisz
property float z_axisx
property float z_axisy
property float z_axisz
property float focal
property float scalex
property float scaley
property float centerx
property float centery
property int viewportx
property int viewporty
property float k1
property float k2
end_header
-0.56007415 -0.027799284 -0.16041183
-0.47967991 -0.027799284 -0.15733147
-0.42596781 -0.027799517 -0.15570307
0.16750936 -0.027799517 -0.15664291
0.20771328 -0.027799517 -0.16156864
0.27508304 -0.027799517 -0.16110039
-0.78449756 0.017091108 -0.16078138
-0.74805808 0.026042627 -0.16306829
-0.64142919 0.012654273 -0.15750313
-0.55847275 0.0067371931 -0.16986656
-0.47800824 0.01251377 -0.16874075
-0.39795583 0.012565045 -0.16394949
-0.31777278 0.012630386 -0.15853167
-0.23689155 0.012628982 -0.15871334
-0.15600762 0.012624113 -0.15910578
-0.075081676 0.01259345 -0.16154623
-0.0077264719 0.012578702 -0.16295338
0.059591711 0.012595592 -0.16152716
0.14027037 0.012557564 -0.1647954
0.22434604 0.0066846963 -0.17402935
0.28794721 0.01249939 -0.16960573
0.55051327 0.01925745 -0.16575718
0.59839618 0.026080502 -0.16062307
-0.77516007 0.052982286 -0.16228533
-0.7496509 0.053128868 -0.15593338
-0.55389118 0.063692272 -0.16510391
-0.47867021 0.066407271 -0.16425657
-0.40346184 0.063743092 -0.16302156
-0.31798285 0.053118035 -0.1564126
-0.23709165 0.053124897 -0.15611219
-0.15612179 0.053102843 -0.15705729
-0.075104743 0.053017586 -0.16076326
-0.0077429339 0.052999936 -0.16152143
0.059592493 0.053013146 -0.16094828
0.14713259 0.059749931 -0.16130733
0.22062398 0.066209801 -0.17153978
0.28361318 0.061827049 -0.16751671
0.54101586 0.0524735 -0.18430758
0.59536546 0.052587196 -0.17937088
-0.77957809 -0.19299856 -0.083558559
-0.73872477 -0.19309522 -0.08147049
-0.5455966 -0.19301791 -0.083147526
-0.85938376 -0.1324316 -0.083747387
-0.78667408 -0.13708389 -0.11272383
-0.70407534 -0.13704233 -0.11542988
-0.62931043 -0.14103748 -0.09591198
-0.55921435 -0.13301598 -0.11923647
-0.4870607 -0.13728926 -0.10682869
-0.40559798 -0.13743901 -0.10199785
-0.32344708 -0.13744207 -0.10187101
-0.24115987 -0.13739903 -0.10327864
-0.15897676 -0.13737714 -0.10395145
-0.076868325 -0.13739875 -0.10329008
-0.0084153749 -0.13739483 -0.10344744
0.060026504 -0.13736223 -0.10446167
0.14212136 -0.13733861 -0.10520887
0.22415714 -0.13731848 -0.10631275
0.29324749 -0.1375843 -0.09727478
0.60788745 -0.12956682 -0.10166359
0.66470522 -0.11024047 -0.090424538
-0.87753296 -0.058729194 -0.090888023
-0.78760254 -0.058441587 -0.12332392
-0.71098965 -0.068376802 -0.14742661
-0.64337933 -0.054854043 -0.14750862
-0.56230021 -0.068384379 -0.14721107
-0.48211715 -0.068465501 -0.14063835
-0.39746299 -0.058330156 -0.14065647
-0.31960547 -0.05833267 -0.14023495
-0.23818947 -0.054936983 -0.14185381
-0.16035837 -0.058326736 -0.14097166
-0.075668186 -0.054935813 -0.1423645
-0.007947132 -0.054923397 -0.14392567
0.059727468 -0.054923914 -0.14369106
0.13759559 -0.058314845 -0.1426549
0.22214174 -0.068431526 -0.14360571
0.27628773 -0.068423152 -0.143713
0.5570417 -0.051186386 -0.12797308
0.61775821 -0.055063821 -0.12517262
0.6637308 -0.055259965 -0.095928192
-0.88043755 -0.00029106624 -0.093101978
-0.80842906 -0.00066792406 -0.13571072
-0.62853485 -0.00081204996 -0.15445709
-0.31848848 -0.027799049 -0.15138435
-0.12938841 -0.027799049 -0.15186501
0.53292906 -0.00075699389 -0.14733362
0.62086266 0.008425111 -0.13385344
0.6622045 0.013268536 -0.10454845
-0.62672621 0.074166164 -0.12828064
-0.56960577 0.10079081 -0.14398098
-0.48181245 0.10758889 -0.1427412
-0.39367428 0.10079005 -0.14402056
-0.31966081 0.094187573 -0.13964176
-0.23841022 0.094208725 -0.13903189
-0.15700464 0.094152734 -0.1406188
-0.075625896 0.094048783 -0.14372158
-0.0079399273 0.094022579 -0.14449453
0.059722215 0.094042473 -0.14392662
0.13550884 0.096724257 -0.14453077
0.22184746 0.10735115 -0.14892006
0.31268939 0.089662328 -0.14025879
0.63141972 0.053850092 -0.12470198
0.66446233 0.054610111 -0.091796398
-0.61135244 0.13661389 -0.10057878
-0.54827583 0.15312704 -0.1004281
-0.48208264 0.14750992 -0.10320807
-0.40614328 0.15052997 -0.097632408
-0.33031619 0.14344126 -0.10203171
-0.24074723 0.13624381 -0.10859776
-0.15873271 0.13624762 -0.10851192
-0.077128083 0.15066284 -0.094955921
-0.0085050762 0.15062639 -0.095563889
0.060101416 0.15064071 -0.095281601
0.1423808 0.15059181 -0.096400261
0.22411515 0.15005684 -0.10704231
0.28793162 0.1454909 -0.10700941
-0.78157192 -0.28048113 -0.013085365
-0.71709555 -0.29023233 -0.0079259872
-0.64221108 -0.28086966 -0.0074748993
-0.55476576 -0.27956036 -0.026376724
-0.47301593 -0.2806429 -0.010749817
-0.41804218 -0.28131691 -0.0010185242
0.24382187 -0.28121322 -0.0025196075
0.28595689 -0.28110018 -0.0041503906
0.53780705 -0.28035116 -0.014961243
-0.85889268 -0.21595035 -0.040824413
-0.80058646 -0.22692749 -0.052062988
-0.71352756 -0.22571407 -0.053473949
-0.63464534 -0.22250524 -0.048458576
-0.54965168 -0.23580754 -0.057994366
-0.47066423 -0.22576086 -0.052666187
-0.40363386 -0.21830516 -0.053314686
-0.32867259 -0.22246967 -0.0496521
-0.24517258 -0.22238851 -0.051166058
-0.16175175 -0.22231419 -0.052507877
-0.078418806 -0.2222918 -0.052903175
-0.0090045184 -0.22232097 -0.052381039
0.060427576 -0.22231068 -0.052566528
0.14374404 -0.22231717 -0.052519798
0.22706257 -0.22231126 -0.05243206
0.30320355 -0.22680184 -0.043291092
0.55240035 -0.24132279 -0.04308939
0.61070734 -0.21682416 -0.050154209
-0.88005549 -0.16608894 -0.067362309
0.64115787 -0.16609526 -0.067200661
0.69589943 -0.13369019 -0.040501118
0.71199489 -0.055560064 -0.058469296
0.77359468 -0.050248221 -0.014568329
0.85432661 -0.039060012 -0.0047430992
0.91418087 -0.037185095 -0.0055537224
-0.65945971 0.027569929 -0.063892841
0.71061826 0.013703311 -0.06574297
0.77189463 0.009625582 -0.01369381
0.85434961 0.011602042 -0.0046253204
0.91926754 0.014428621 -0.0039491653
-0.87816966 0.083528683 -0.04737711
-0.66123587 0.083222948 -0.054664135
0.70217937 0.083904795 -0.036251545
-0.6350289 0.1529846 -0.046613693
-0.55153781 0.19473518 -0.046720028
-0.46894893 0.19514133 -0.040123463
-0.39962766 0.19531578 -0.03729248
-0.32302523 0.18343925 -0.050848484
-0.24491177 0.18045467 -0.054481506
-0.1616765 0.18049064 -0.053873539
-0.079010591 0.19552614 -0.033874035
-0.0091757886 0.19529673 -0.037599564
0.06050856 0.19509116 -0.040941238
0.14395699 0.19479901 -0.045686245
0.22745886 0.19482526 -0.045257568
0.30202541 0.18592666 -0.040187836
0.54597712 0.18686818 -0.022892952
0.67911708 0.14084254 -0.0090260506
0.20176843 0.22586937 0.0011558533
0.53785539 0.23183636 -0.014178753
0.59473521 0.22513624 -0.0094218254
-0.56765598 -0.34224874 0.053235531
-0.78766882 -0.3106699 0.014365196
-0.68972248 -0.31111071 0.020090103
-0.63674206 -0.30123726 0.014008999
-0.56002492 -0.31003308 0.0060896873
-0.47823158 -0.31165776 0.027197361
-0.37639853 -0.28169668 0.0044550896
-0.32010475 -0.2817888 0.0057864189
-0.24956526 -0.2817964 0.0058979988
-0.16485864 -0.28174224 0.0051159859
-0.080221713 -0.28178275 0.0057029724
-0.009681724 -0.28181848 0.0062170029
0.060880266 -0.2817935 0.005856514
0.14555483 -0.28182024 0.0062417984
0.20195806 -0.28175244 0.0052623749
0.3146953 -0.2816346 0.0035643578
0.54378092 -0.31169948 0.027740002
0.62816352 -0.25465941 0.023514271
0.68224156 -0.19725655 0.008620739
0.72511798 -0.1550252 0.011510849
0.76776147 -0.11261921 0.01257515
0.85966897 -0.11335936 0.044617653
0.92035443 -0.12330594 0.059866428
0.79614419 -0.084353767 0.013101101
0.84576023 -0.077310376 0.013720036
0.94807214 -0.065596297 0.01750946
0.79645514 0.028778581 0.014597893
0.82338792 0.028681329 0.0083055496
0.96628809 0.014650771 0.01499033
-0.87053037 0.11332358 0.0062479973
0.77677214 0.080125101 0.028895855
0.86178923 0.082648434 0.037825108
0.92712837 0.071645588 0.028439999
0.97546268 0.05791042 0.051105499
-0.88817477 0.14220479 0.020467758
-0.61880213 0.19879481 0.019197941
0.65387273 0.18398809 0.007876873
0.69806284 0.15625101 0.018025875
-0.55952811 0.23989396 0.038020134
-0.47979912 0.24276282 0.038183689
-0.39459431 0.24288426 0.039864063
-0.31530222 0.24614008 0.045302391
-0.24604063 0.23967232 0.034709454
-0.16686803 0.24308918 0.042541504
-0.081447124 0.24331842 0.045588017
-0.01010697 0.24309029 0.042453766
0.061086416 0.24248867 0.034226894
0.14629692 0.24222501 0.03063345
0.23772842 0.24575366 0.040180206
0.2997863 0.23935391 0.057343483
0.48673889 0.22762181 0.026460648
0.54457462 0.25648001 0.032665253
0.63361263 0.22975318 0.057221889
0.81193876 -0.11438613 0.089093208
0.85707408 -0.14351645 0.097795963
0.92758185 -0.14327343 0.089904785
0.98822194 -0.11466877 0.10133314
0.78239202 0.11638052 0.085673332
0.83090472 0.1173499 0.11086178
0.92550194 0.11620798 0.081189156
-0.89704424 0.19020659 0.11388063
-0.6618768 0.20371172 0.099037647
0.49750865 0.19017211 0.11390018
-0.63523042 0.24807118 0.11180019
0.32296124 0.26250562 0.11094189
0.35457227 0.25023952 0.14141655
0.35684639 -0.23410226 0.1682725
-0.88673991 0.12049017 0.19244623
-0.88113481 0.16377716 0.16895866
0.59867907 0.1807356 0.20969009
-0.67553145 0.26727876 0.1729455
0.37342662 0.22408138 0.18881273
-0.869434 0.12254909 0.2459321
0.48941007 0.094001479 0.29537344
0.51629204 0.062882498 0.26640224
0.70474458 0.12494793 0.30826139
-0.85851592 0.15345719 0.264081
-0.76361471 0.16373652 0.26796103
-0.7308585 0.18598472 0.30710649
0.51926845 0.15468012 0.29056787
0.64305961 0.18584163 0.30445433
0.68490309 0.16940956 0.28075266
0.63619113 0.21361427 0.25984287
0.66299701 0.21233034 0.23899078
0.61800182 -0.12022227 0.34180164
0.49387479 -0.043137733 0.33403778
0.54518539 -0.089925267 0.3749752
0.49967659 0.018901398 0.38428402
-0.85280436 0.095981233 0.36163712
-0.79147631 0.10235218 0.36460304
-0.74728441 0.12818885 0.39245701
0.64382118 0.1172018 0.37677097
0.6900987 0.10573447 0.34327412
-0.79411036 0.18654791 0.31754971
-0.70441663 0.18718004 0.32929134
0.56035858 0.15844892 0.37215424
0.61983877 0.15765172 0.35489845
0.67550522 0.15587193 0.31636524
-0.86368102 -0.0277994 0.42542171
-0.81993765 -0.027799284 0.44181156
0.34525582 -0.074667707 0.40055752
0.37663504 -0.090341397 0.40196609
0.55545557 -0.059483081 0.45561123
0.5997479 -0.074945793 0.4324007
-0.8547799 0.013940582 0.40856361
-0.80739778 0.024684509 0.43202496
0.55081081 0.014463006 0.460886
0.55424607 0.10407109 0.42131996
0.60661358 0.1078304 0.40663338
0.57375312 -0.027799284 0.47450542
0.55802351 0.0040410329 0.47598743
0 0 0 1 0 0 0 1 0 0 0 1 0 0 0 0 0 286 1 0 0
