ply
format ascii 1.0
comment PCL generated
element vertex 1317
property float x
property float y
property float z
element camera 0
property float view_px
property float view_py
property float view_pz
property float x_axisx
property float x_axisy
property float x_axisz
property float y_axisx
property float y_axisy
property float y_axisz
property float z_axisx
property float z_axisy
property float z_axisz
property float focal
property float scalex
property float scaley
property float centerx
property float centery
property int viewportx
property int viewporty
property float k1
property float k2
end_header
0.086192392 -0.49252939 -0.032004092
0.11068643 -0.48808593 -0.033118874
0.12444913 -0.47995585 -0.026830142
-0.10192557 -0.46272248 -0.028824031
0.11054345 -0.4600246 -0.033029079
0.12630858 -0.44159657 -0.029250676
-0.11325014 -0.43235424 -0.025213471
-0.10171877 -0.43451872 -0.028843625
0.08638934 -0.42238191 -0.031544022
0.11040047 -0.43196067 -0.032939058
0.12144797 -0.43408355 -0.025197459
-0.10131407 -0.40634015 -0.028876711
-0.087962478 -0.40575296 -0.03140026
0.11009648 -0.40391761 -0.03274782
0.12568152 -0.40304473 -0.029358163
-0.11260269 -0.38605502 -0.025519192
0.12047185 -0.38732448 -0.025507549
-0.10088233 -0.37815785 -0.028916067
0.10977469 -0.37587142 -0.032545384
0.12506643 -0.3649891 -0.029325806
-0.10038722 -0.34997576 -0.028961804
0.085984528 -0.35534951 -0.031106571
0.10939882 -0.34782624 -0.032309361
-0.11174044 -0.33832285 -0.025835272
-0.086958483 -0.34016693 -0.030974787
0.12165805 -0.33310574 -0.027258215
-0.099567905 -0.32182324 -0.029103274
0.10889766 -0.31978905 -0.031994291
-0.11070554 -0.28916639 -0.026161429
-0.098657906 -0.29366574 -0.029315112
-0.078346796 -0.29831803 -0.037253886
0.084941953 -0.29135454 -0.030691849
0.10841442 -0.2917408 -0.031690415
0.12038016 -0.28941947 -0.027040219
-0.085600004 -0.27703971 -0.030566726
-0.097548828 -0.26551157 -0.029552536
-0.078782625 -0.2662974 -0.034855016
0.10780555 -0.26369631 -0.031307492
0.12335055 -0.25485635 -0.026767051
-0.10560209 -0.23807918 -0.030603783
-0.084941134 -0.2351819 -0.028610904
0.083356798 -0.23008233 -0.030297058
0.11071045 -0.23534006 -0.028710302
-0.083769865 -0.21647613 -0.030177701
0.12280248 -0.2190809 -0.025579428
-0.10045115 -0.20994468 -0.035750967
-0.084763028 -0.20465297 -0.026940094
0.10646173 -0.20758447 -0.030462595
-0.10282866 -0.18334258 -0.031969432
-0.088797182 -0.18023595 -0.023767373
0.10838995 -0.17976436 -0.028423473
0.1222754 -0.183928 -0.023975629
-0.080877587 -0.16276923 -0.027988767
0.081307039 -0.17126903 -0.029920291
-0.087768108 -0.1520815 -0.023120323
0.10479367 -0.15144436 -0.029413924
0.12175661 -0.14915028 -0.022289423
-0.10503414 -0.13010053 -0.027225832
-0.086629637 -0.12391429 -0.022404637
0.10568735 -0.1230447 -0.028065406
-0.079128601 -0.10181884 -0.029445725
-0.055052746 -0.10354222 -0.037171926
0.078808241 -0.11477767 -0.029560378
0.12125511 -0.11490844 -0.020270905
-0.085382223 -0.095731348 -0.021620205
0.10285419 -0.095255941 -0.028194616
-0.10232854 -0.073002875 -0.027610827
-0.084133245 -0.067525737 -0.020834876
-0.054796457 -0.069452882 -0.035660837
0.10251054 -0.06499052 -0.027632015
-0.076429158 -0.047345676 -0.029099861
0.076023705 -0.060222864 -0.029214347
0.11683559 -0.042903654 -0.035191588
-0.082702212 -0.039302401 -0.019935342
-0.054547668 -0.035832785 -0.033898044
0.1006787 -0.039003421 -0.026826616
-0.098992288 -0.013347246 -0.028015023
-0.081234001 -0.011053734 -0.019012071
0.07297314 -0.0074886307 -0.028881416
0.099490516 -0.010849304 -0.026079804
0.11753622 -0.0069929026 -0.030644428
-0.073509932 0.0053864308 -0.028766369
-0.054301176 -0.0025228336 -0.032112751
0.098040558 -9.1642141e-07 -0.028134603
-0.054061346 0.030364331 -0.030117068
-0.051315609 0.01638386 -0.034523599
0.098265499 0.017326083 -0.025309479
0.11826092 0.029630732 -0.025609883
-0.09514901 0.048769955 -0.028437302
0.069472529 0.043192487 -0.028563656
0.096895374 0.045523737 -0.024448013
-0.062039472 0.059581485 -0.028236099
0.091998488 0.066101268 -0.028591871
0.09550599 0.073746487 -0.023574457
-0.060231477 0.10039335 -0.026978778
0.065824121 0.092406288 -0.028256198
0.091433093 0.10192367 -0.029774565
-0.090671659 0.11367813 -0.028880294
-0.054487206 0.12474169 -0.037186258
-0.053366765 0.12694065 -0.023447935
0.061987109 0.14014539 -0.027959153
0.085964747 0.13323937 -0.026510565
-0.059129454 0.1585668 -0.029571515
-0.053155597 0.15807353 -0.020333493
0.068476871 0.15994479 -0.026996244
0.090895347 0.15858243 -0.020675661
-0.085435078 0.18172559 -0.029347138
0.08817295 0.16529931 -0.032652427
-0.059608642 0.20024608 -0.027546614
0.063064449 0.18743403 -0.036702454
0.088510975 0.19163324 -0.024808152
-0.055931512 0.20935138 -0.030911466
0.066288553 0.21752258 -0.032645762
-0.024420235 0.2321315 -0.036221784
0.087524556 0.22715585 -0.027432127
-0.078684203 0.25441572 -0.029850425
-0.055198558 0.24491857 -0.031547125
0.059428018 0.2444285 -0.034454852
0.087210104 0.25760344 -0.024623912
-0.074365124 0.27342266 -0.018743914
-0.052577913 0.2728315 -0.034557186
-0.024310846 0.26279894 -0.033968695
0.057477571 0.27298465 -0.03324965
0.092266761 0.26713851 -0.035250928
-0.024202351 0.29322711 -0.031733297
0.086898275 0.28781393 -0.021818385
-0.071360074 0.30215713 -0.020665696
-0.05053588 0.30141127 -0.033294886
0.055432629 0.3015838 -0.031985778
0.092883132 0.30773553 -0.028966395
-0.069938049 0.33049554 -0.026465444
-0.048564833 0.33002159 -0.032076698
-0.024093967 0.32346696 -0.029605048
0.0068169464 0.3330664 -0.035742346
0.053907726 0.32539836 -0.032335319
0.08658623 0.31785858 -0.019142512
0.093513779 0.34904152 -0.022397583
-0.066068903 0.35971856 -0.024049528
-0.046941888 0.35863292 -0.031073818
-0.023983456 0.35364124 -0.02781673
0.0040527335 0.36209458 -0.03406297
0.05503165 0.35796082 -0.031994347
-0.063287333 0.38858667 -0.025828328
-0.045649465 0.38723773 -0.030275164
-0.023871154 0.38374135 -0.026364533
0.00350763 0.38918194 -0.036898617
0.054260653 0.38737431 -0.031020073
-0.06704659 0.40269858 -0.030868642
0.0019284055 0.3911033 -0.032772675
-0.061202869 0.41742286 -0.027161505
-0.044725861 0.4158226 -0.029704362
-0.025204696 0.41316485 -0.031324565
0.00046657934 0.42007282 -0.031884898
0.00350763 0.4192661 -0.036110491
0.053644784 0.4167318 -0.030298285
-0.059928469 0.44619349 -0.027976394
-0.044134568 0.44438198 -0.029338906
-0.023637258 0.44390687 -0.024897445
0.048800666 0.44467965 -0.027886933
-0.026818093 0.45102659 -0.035975348
-0.00084454077 0.44904956 -0.031088261
0.0035076858 0.44926062 -0.035663858
0.057676762 0.4474186 -0.031959578
-0.062511101 0.47328374 -0.02983427
-0.043912765 0.47290197 -0.029201636
-0.023516446 0.47391167 -0.024800258
-0.0015290999 0.47796533 -0.03067242
0.0035076858 0.47919151 -0.035624444
0.030424889 0.48003808 -0.037360027
0.052997511 0.47530374 -0.029828643
-0.044023722 0.50137788 -0.029270159
-0.026974399 0.48921981 -0.035723761
0.048708182 0.50171536 -0.02782983
-0.05978068 0.50345367 -0.028070893
-0.023392949 0.50386918 -0.025161011
-0.00082561839 0.50669342 -0.031099679
0.0035076858 0.50899827 -0.035882417
0.057189655 0.50723386 -0.032194149
-0.063972592 0.53460687 -0.029550269
-0.044504058 0.52979481 -0.029567204
-0.025195487 0.53046173 -0.031112837
0.00046657934 0.53531867 -0.031884898
0.0035076858 0.53872287 -0.036537528
0.053055424 0.53357869 -0.030491482
-0.045317151 0.55814892 -0.030069819
0.05005905 0.5585193 -0.028664535
-0.062826596 0.56019396 -0.026123134
-0.023139179 0.56351411 -0.027056593
0.0019284055 0.56389314 -0.032772675
0.056687433 0.56662834 -0.033828739
-0.065516688 0.58831978 -0.024402779
-0.046480253 0.58642805 -0.03078864
-0.023008794 0.59319741 -0.028614487
0.0039957426 0.59233767 -0.034028485
0.053836387 0.59148937 -0.032295421
-0.070685476 0.60033089 -0.032148078
-0.047974773 0.61462629 -0.031712137
0.052831102 0.61501706 -0.030377949
-0.067779519 0.61647457 -0.022955621
-0.022876058 0.62278932 -0.030604344
0.0066848267 0.62063295 -0.035661954
0.03021501 0.62219274 -0.032483753
0.056169983 0.62557334 -0.036907911
0.082900926 0.61851209 -0.020919746
-0.081638984 0.65043491 -0.0324318
-0.070534438 0.64449346 -0.021193838
-0.049799144 0.64273471 -0.032839745
-0.019123189 0.64613801 -0.032839805
0.054622162 0.64460683 -0.032047164
0.090844736 0.64603049 -0.032394178
0.097050503 0.65077686 -0.028840099
0.096065484 0.66631234 -0.023926252
0.35379824 0.6663 -0.02877387
0.36662927 0.66372746 -0.029049249
0.10597267 0.68877971 -0.032612961
0.34571496 0.68554384 -0.028889336
-0.095173806 0.69653571 -0.03267891
0.099310473 0.69385135 -0.025966495
0.28981617 0.7030015 -0.035043679
0.31178719 0.70225817 -0.031868275
0.3340418 0.70333987 -0.023371099
0.34893465 0.70934969 -0.026090104
-0.10057801 0.72674495 -0.035668783
-0.084169522 0.7238127 -0.020857941
0.1054574 0.72069806 -0.029831219
0.26875421 0.72282445 -0.026047811
0.31436351 0.72511232 -0.023107169
0.3292675 0.71721959 -0.019659011
-0.36182103 0.72948593 -0.03181554
-0.34519839 0.73466074 -0.027233165
-0.32753927 0.72952467 -0.031954378
-0.31194925 0.7346257 -0.024969103
-0.28504533 0.73587388 -0.02856346
-0.11410107 0.73250341 -0.032837901
0.11434704 0.74680954 -0.035420444
0.11919751 0.73651433 -0.032872051
0.19539145 0.7441566 -0.035352256
0.22069757 0.73871583 -0.025095643
0.23174234 0.74165219 -0.036739513
0.25583196 0.73419255 -0.025484929
0.29861206 0.74325573 -0.023052026
-0.38543731 0.75497741 -0.031886861
-0.29136926 0.75521433 -0.034209423
-0.24938251 0.74927902 -0.032400224
-0.22889322 0.76236027 -0.030069483
-0.21104525 0.75589865 -0.032598741
-0.19908847 0.75999933 -0.028192151
-0.1745647 0.75753784 -0.032757059
-0.1396617 0.75507283 -0.032882128
-0.11675237 0.75141692 -0.025148807
-0.099894233 0.74850017 -0.030744301
0.10621832 0.75544477 -0.036563169
0.14658996 0.75525856 -0.032883916
0.18540584 0.74921823 -0.032687306
0.28206259 0.76003712 -0.023009198
-0.36209086 0.76671582 -0.022613063
-0.2344296 0.77397704 -0.031246802
-0.18608935 0.76605183 -0.03617207
-0.15689179 0.76668626 -0.034989376
-0.12292068 0.76670122 -0.035410702
0.26476768 0.77559572 -0.022977345
0.26784059 0.78285241 -0.029146101
0.29308307 0.77294099 -0.020504352
-0.17055744 0.79369146 -0.033040162
0.24682939 0.79013336 -0.022954615
-0.36218461 0.80802047 -0.022342134
0.20900974 0.81631666 -0.022936197
0.22317649 0.81456155 -0.025477223
0.25173452 0.8069042 -0.025441598
-0.38570473 0.83959115 -0.03243975
-0.16543142 0.8224346 -0.035994045
0.16788228 0.8379879 -0.022960884
0.18880557 0.82761657 -0.022944091
-0.36228362 0.84836292 -0.022077587
-0.2517395 0.85254759 -0.024563732
-0.22478351 0.84606916 -0.024497056
-0.19814144 0.84329194 -0.029229319
-0.17499 0.85042918 -0.027177153
-0.15685534 0.84239125 -0.027589327
-0.14609654 0.85645241 -0.022899583
-0.12127946 0.85128504 -0.027502218
-0.098310925 0.84523481 -0.034994528
0.12359503 0.85575455 -0.023023643
0.14616998 0.84738326 -0.02298714
0.16194588 0.84700888 -0.03031785
-0.36531764 0.87449795 -0.0248797
-0.33120635 0.87453699 -0.024741367
-0.29378089 0.87452078 -0.029797882
-0.27682981 0.86118484 -0.024608687
-0.25087625 0.86865175 -0.023685973
-0.23903565 0.86707681 -0.02245396
-0.20594677 0.86019385 -0.02263288
-0.11257582 0.86346382 -0.023929054
-0.09320651 0.86323237 -0.023069268
-0.077005051 0.86567986 -0.024154691
-0.063742362 0.86326295 -0.023188343
-0.048772391 0.86566389 -0.024092047
-0.025125828 0.86485541 -0.023789579
-0.0038869884 0.86331308 -0.023430189
0.0072002062 0.86562085 -0.023968715
0.027721781 0.86564219 -0.024030045
0.050852068 0.8648603 -0.023825465
0.070730239 0.86322856 -0.023188736
0.084025711 0.86567098 -0.024146434
0.10261585 0.86544138 -0.023781173
0.12305009 0.86347473 -0.023702433
-0.35814434 0.88157028 -0.021876888
-0.33234489 0.88291264 -0.021972591
-0.30537567 0.8829301 -0.022081645
-0.2781463 0.88295829 -0.022191595
-0.12224826 -0.98267567 0.00010575786
-0.1038904 -0.99416935 0.00010567388
-0.07540226 -0.9941414 0.00010567388
-0.064728111 -0.9939664 0.00010564589
-0.046617802 -0.99412256 0.00010567388
-0.026070725 -0.99405503 0.00010568788
-0.0048971446 -0.99405527 0.00010567388
0.011930763 -0.99403536 0.00010570187
0.024521209 -0.99408418 0.00010572987
0.047651757 -0.9940545 0.00010567388
0.071743585 -0.99396628 0.00010575786
0.082409233 -0.99413162 0.00010567388
0.10651777 -0.99405777 0.00010572987
0.13297468 -0.98702526 0.00010570187
-0.13649155 -0.96628219 0.00010567388
-0.11958499 -0.96758133 -0.011915454
0.15021306 -0.97426325 0.00010567388
0.13028029 -0.94379294 0.00010547794
0.15577854 -0.94735128 0.00010564589
-0.13359931 -0.93240458 -0.0067175939
-0.11992963 -0.93696368 -0.01018379
-0.13077341 -0.91011441 -0.01602919
-0.11610353 -0.91008127 -0.007736776
0.15090221 -0.90714151 0.00010575786
-0.12808549 -0.88774872 0.00010581384
-0.10448936 -0.90126693 0.00010581384
-0.11984318 -0.88307786 -0.011897203
0.12255666 -0.876746 0.00010547794
0.13946076 -0.87704808 -0.01818778
-0.10928156 -0.85586363 -0.0033741388
0.1420081 -0.85831583 -0.0083472012
-0.12418522 -0.84755498 0.00010575786
-0.097756416 -0.83351552 0.00010581384
-0.099920295 -0.82386374 -0.0081645977
0.13919473 -0.82432067 -0.0077371411
-0.12084831 -0.80718029 0.00010564589
-0.10379501 -0.80103076 0.00013453502
0.1251002 -0.80136937 -0.0071941623
-0.093213283 -0.78452015 -0.0059983945
0.14001946 -0.78582895 0.00010570187
-0.11814332 -0.76671791 0.00010575786
-0.092795931 -0.76393366 0.00010592581
0.13219787 -0.76714557 -0.013542765
-0.12517886 -0.75118279 -0.0039147097
0.11213611 -0.73766023 0.0001055899
0.13093948 -0.73944438 -0.012738178
0.1376272 -0.74517524 0.00010570187
-0.11599839 -0.72608393 0.00010581384
0.12983997 -0.71168107 -0.012035033
0.13586341 -0.70444256 0.00010570187
-0.11449939 -0.68539804 0.00010575786
-0.089541085 -0.69279373 0.00010570187
0.12900594 -0.68383461 -0.01150174
0.10955591 -0.66562092 0.00010570187
0.13464415 -0.66352808 0.00010564589
-0.11365237 -0.64467967 0.00010575786
0.12840222 -0.65592021 -0.01111557
0.12801135 -0.62794811 -0.010865661
-0.088225827 -0.61973196 0.00010581384
0.13412698 -0.62265247 0.00010570187
-0.11339776 -0.60385936 0.00010575786
0.10901097 -0.59150338 0.00010570187
0.12785169 -0.59992039 -0.010763548
0.13097416 -0.57669485 -0.0053289235
-0.11351202 -0.56263512 0.00010570187
-0.088458374 -0.5456742 0.00010592581
0.13107908 -0.5417788 -0.00534026
-0.11366671 -0.52053559 0.00010575786
0.10935012 -0.51776916 0.00010547794
0.12794037 -0.51571584 -0.010820315
0.13429829 -0.49684098 0.00010564589
-0.11354712 -0.47707912 0.00010581384
-0.088548176 -0.47403979 0.00010570187
0.12786938 -0.48766622 -0.010774746
0.12770949 -0.45962986 -0.010672633
0.1371299 -0.46822104 -0.017824451
0.10916616 -0.44720113 0.00010581384
0.13408729 -0.45256913 0.00010564589
0.1379243 -0.43666494 -0.013065566
-0.11668304 -0.43154451 -0.0031942946
0.12756719 -0.43158785 -0.010581716
-0.08802361 -0.40563449 0.00010570187
0.13043457 -0.40523785 -0.0051300721
-0.11604766 -0.38913587 -0.0031897598
0.10848127 -0.37960804 0.00010570187
0.12689193 -0.37554964 -0.010149752
-0.11882402 -0.35414544 -0.0066784751
0.12975253 -0.35369667 -0.0048969872
-0.11180007 -0.338413 0.00010575786
-0.087042958 -0.34000638 0.00010581384
0.10725568 -0.31492671 0.00010570187
0.12895122 -0.31525356 -0.0047321734
-0.11075598 -0.28924385 0.00010570187
0.12546928 -0.29149094 -0.0092398059
-0.085659564 -0.27692863 0.00010581384
0.10565116 -0.25272137 0.00010564589
0.12768973 -0.26197511 -0.0043623503
-0.10916445 -0.23800783 0.00010575786
0.12411651 -0.23544541 -0.0083748698
-0.083828814 -0.2163682 0.00010575786
0.10716446 -0.20062554 2.799854e-05
0.12615922 -0.20783997 -0.0039067613
-0.10547478 -0.18267225 3.3960721e-05
0.10931899 -0.18033317 -0.00087707647
0.12251316 -0.17936878 -0.007349486
-0.081659757 -0.15801641 0.00010581384
-0.10259104 -0.15208265 -0.00069289259
0.10800597 -0.15218502 -0.0017168202
0.12422456 -0.15264808 -0.0033424534
-0.10328294 -0.12706748 -0.00065588887
-0.080864683 -0.12851962 -0.014026346
0.10400447 -0.12951991 -0.0012718129
0.12058667 -0.12325126 -0.0061174142
-0.079186261 -0.10171707 0.00010586983
-0.10019822 -0.095732979 -0.0022231298
0.10494381 -0.095836684 -0.003675103
0.12144507 -0.091244943 -0.007773594
-0.10068312 -0.070317373 -0.0014503705
0.10111794 -0.073456235 -0.002298092
0.11812163 -0.067083016 -0.0045409347
-0.076474786 -0.047266513 0.00010570187
0.12028588 -0.047661975 -0.015710983
-0.097549669 -0.0393029 -0.003917173
0.095988952 -0.025577385 0.0001055899
0.10120706 -0.039394945 -0.0060647898
0.11894212 -0.038863022 -0.0017658622
-0.097570881 -0.012236767 -0.0023672308
0.1067585 -0.010987278 -0.0053303503
0.11982055 -0.014683668 -0.013096917
-0.073554993 0.0054633506 0.00010570187
-0.094607204 0.017221306 -0.0057988712
-0.079709589 0.017221142 -0.018053869
0.094059587 0.021843467 -0.0049020536
0.1137534 0.01733214 -0.0017476109
0.11848289 0.020189438 -0.0051132771
-0.094065122 0.047099758 -0.0033841885
-0.078038387 0.045523737 -0.017003069
0.091816604 0.045523737 -0.012070078
0.11206742 0.045523737 -0.00066915585
0.11905055 0.047933456 -0.003793451
-0.070309661 0.056346569 0.00010575786
-0.091242634 0.073856905 -0.0079505192
-0.076347142 0.073856905 -0.015939729
0.089390919 0.075980738 -0.006058278
0.11342058 0.086376265 0.00010570187
0.11944456 0.074498147 -0.0081441076
-0.081969619 0.10222335 -0.011958
-0.066913962 0.10574937 0.00010575786
0.084763646 0.10243666 -0.016580733
-0.090750374 0.11354153 0.00010570187
0.086188748 0.12593134 0.00010564589
-0.080060206 0.13062535 -0.011965279
-0.085582644 0.15906325 -0.011570263
-0.067061231 0.15644331 -0.00614062
0.10845724 0.15344906 0.0001055899
-0.085503876 0.1816041 0.00010570187
0.082560889 0.17343441 0.00010553392
-0.082999595 0.18756612 -0.013221983
-0.063931644 0.19393744 -0.0053592939
-0.052962456 0.18844309 -0.016317502
-0.080303118 0.21612243 -0.014946481
-0.065446593 0.21611743 -0.0090861889
-0.052770771 0.21859573 -0.012310357
0.087469414 0.2152987 -0.018521661
0.10240314 0.22437204 0.00010564589
-0.078171149 0.24934725 -0.0083483066
-0.059182219 0.24518414 -0.0035793451
-0.052585412 0.2483909 -0.0080538634
0.085653551 0.24371009 -0.017380057
-0.080475494 0.27549696 -0.00053031818
-0.059517331 0.27341333 -0.0053582857
0.083744869 0.27216125 -0.016180007
-0.0564797 0.3021481 -0.003448596
0.088434055 0.30017799 -0.0074306345
-0.062586263 0.3303155 -0.00073776388
0.079974532 0.32916343 -0.013809691
0.086267799 0.34785032 -0.016812054
-0.051144972 0.35970932 -9.4323172e-05
0.078424029 0.35768253 -0.012834693
0.077200577 0.38619408 -0.012065488
0.087561622 0.37599084 -0.0070436802
-0.067241237 0.40233558 0.0001055899
0.089976273 0.40115651 -0.011148151
0.076323554 0.41468698 -0.011514056
0.075775027 0.44315395 -0.011169313
0.085967004 0.4411433 -0.0055905315
-0.065864116 0.47130069 0.00010570187
0.075573944 0.47158352 -0.01104268
0.084929131 0.46725848 -0.011160804
0.075665303 0.49997422 -0.01110023
0.084548727 0.49749359 -0.011834054
0.087006494 0.51223421 0.0001055899
-0.067237712 0.53692704 0.00010581384
0.076067485 0.52831525 -0.011353161
0.084143244 0.52797699 -0.013629539
0.076816984 0.55659211 -0.011824314
0.083724827 0.55847144 -0.016090771
0.089891963 0.57627738 0.0001055899
0.077876404 0.58480173 -0.012490286
0.090006001 0.5883134 -0.013245048
-0.070824429 0.60005653 0.00010581384
0.079281464 0.61292928 -0.013373921
-0.052900374 0.61645103 -0.0011983063
0.096870124 0.61932242 -0.01859276
-0.081639208 0.65043467 0.00010570187
-0.055650033 0.64447236 -0.0029270591
0.087917112 0.63946861 -0.0071671228
0.38383341 0.65173531 -0.018056892
-0.078442022 0.67142642 -0.016136676
-0.063539818 0.67141539 -0.00788737
0.35821325 0.66701931 0.00010556191
-0.091328904 0.68646753 -0.014751661
0.081673503 0.67218703 -0.018556818
0.10597267 0.68877971 0.00010547794
0.31935272 0.68416864 -0.011930121
0.34738371 0.68519843 -0.0022234668
0.36721855 0.68182522 -0.0065083988
-0.095173806 0.69653571 0.00010592581
-0.086981438 0.69808203 -0.010675656
-0.072101958 0.6980744 -0.013270688
0.085603617 0.69984585 -0.016043298
0.31177649 0.70228302 0.00010570187
0.32943076 0.70571518 0.00010570187
0.35437709 0.70083815 -0.003150207
-0.098955736 0.72382849 -0.0030178635
0.092398487 0.72680467 -0.011698128
0.25706825 0.7202813 -0.0064984336
0.2676881 0.72371531 0.00010570187
0.28664666 0.71826035 -0.0031695771
0.31781057 0.71843678 -0.0056468779
-0.37501884 0.73463571 -0.015213408
-0.36144474 0.73209709 -0.0035129492
-0.32750672 0.7296015 0.00010581384
-0.28965378 0.7371999 0.00010592581
-0.24975665 0.74411649 -0.013674213
-0.11410096 0.73250341 0.00010592581
0.1191974 0.73651457 0.0001055899
0.22558612 0.74243438 -0.0060658171
0.298612 0.74325562 0.00010570187
0.30527055 0.74647832 -0.0035536201
0.32291469 0.74220484 -0.0082991803
-0.38207254 0.75759012 -0.0062506823
-0.36485332 0.76018745 -0.0097405165
-0.2645044 0.74973917 -0.014222174
-0.24930163 0.74946195 0.0001055899
-0.21634778 0.75568181 -0.0023720262
-0.18773811 0.76238304 -0.0078541161
-0.1744795 0.7577228 0.00010592581
-0.15574363 0.76035088 -0.00543543
-0.13956206 0.75528532 0.00010570187
-0.091608033 0.74809992 -0.0089332433
0.1028149 0.75281215 -0.0050363839
0.125696 0.75467986 -0.0020755962
0.14657752 0.7552852 0.00010570187
0.18540584 0.74921823 0.0001055899
0.19406129 0.75263947 -0.0035308909
0.28206265 0.76003718 0.00010575786
0.31533214 0.75441521 -0.010081341
-0.3620908 0.76671571 0.00010570187
-0.19718303 0.76943958 -0.017696362
0.26476774 0.77559584 0.00010570187
0.28864592 0.77957046 -0.0042650509
-0.37872276 0.7866686 -0.012596542
-0.36486879 0.78665245 -0.0097512659
0.24195547 0.79517555 -0.0063826619
-0.37873822 0.8131339 -0.012585569
-0.36352673 0.8105709 -0.0048227957
0.20900974 0.81631666 0.00010564589
0.22508809 0.81233245 0.00010575786
-0.38221374 0.83959931 -0.0062454198
-0.36485332 0.83959454 -0.0097405165
0.16789091 0.83799922 0.00010564589
0.18880557 0.82761669 0.00010570187
0.20912775 0.83379066 -0.0042211604
-0.36229098 0.84837389 0.00010570187
-0.21307042 0.8588022 0.00010570187
-0.1787906 0.8567524 0.00010572987
-0.14957169 0.85756117 0.00010564589
-0.14605339 0.85639584 0.00010570187
-0.11862892 0.85838985 0.00010570187
0.12775387 0.85619164 -0.003147101
0.14616998 0.84738326 0.00010575786
0.16485316 0.8483026 0.00010570187
0.17416826 0.8509413 -0.0074209203
-0.37870765 0.86608148 -0.012607179
-0.36485332 0.86606359 -0.0097405165
-0.26842889 0.87005031 0.00010564589
-0.24163638 0.86336851 0.00010564589
-0.23245297 0.86605614 -0.008326781
-0.20588054 0.86010462 0.00010570187
-0.20117879 0.86191452 -0.012866043
-0.1754986 0.8615551 -0.0069412589
-0.1499934 0.8610478 -0.0055457163
-0.11846035 0.86259216 -0.0036614721
-0.095917314 0.86326289 -0.0058090049
-0.081223369 0.86341965 0.00010564589
-0.063742474 0.86326307 0.00010575786
-0.050199423 0.86337602 0.00010564589
-0.026726902 0.8633132 0.00010570187
-0.0038869884 0.86331308 0.00010570187
0.010892727 0.86330146 0.00010564589
0.026504572 0.86334437 0.00010575786
0.049092673 0.86332339 0.00010567388
0.070730239 0.86322856 0.00010564589
0.088248923 0.86340797 0.00010570187
0.099997722 0.86294866 0.00010570187
0.12535979 0.8642177 -0.0083601186
-0.35727346 0.88249904 0.00010568788
-0.35311967 0.88770878 -0.0058872122
-0.32748687 0.88466072 -0.0018918988
-0.30374756 0.88528156 -0.002890727
-0.29187411 0.88039517 0.0001055899
-0.2773957 0.88529557 -0.002890713
-0.12604991 -0.9630217 0.014309075
0.13882613 -0.96112704 0.017993201
0.15345649 -0.96115023 0.0060501383
-0.12789007 -0.93441814 0.01548606
0.13930221 -0.93301219 0.018297635
0.15393054 -0.93303478 0.0057420083
-0.12528831 -0.90722799 0.013822247
0.14365835 -0.90598607 0.01203141
-0.12289515 -0.8799274 0.012291899
0.13357875 -0.87882155 0.014637359
0.14823417 -0.87884289 0.0094469581
-0.12072951 -0.85251665 0.010906657
0.13108146 -0.85154122 0.013040278
0.14576623 -0.85155678 0.011052101
-0.12221767 -0.82214493 0.012278294
0.12870419 -0.82418126 0.011519894
0.1433827 -0.82420135 0.012602268
-0.11667343 -0.79750079 0.0083129685
0.12616302 -0.79682273 0.0098949336
0.14085384 -0.79684222 0.014247159
-0.12547222 -0.78493005 0.005743688
-0.11490896 -0.76986754 0.0071843523
-0.10145817 -0.77343148 0.0016290551
0.12390288 -0.76934338 0.0084495666
0.13860445 -0.76936221 0.015710328
-0.11337458 -0.74214309 0.006203196
-0.096209072 -0.74825454 0.0033054077
0.12194258 -0.74174601 0.0071957731
0.13665332 -0.74176425 0.016979126
-0.1121069 -0.71432489 0.0053923391
-0.097820066 -0.7178492 0.0039558173
0.12028325 -0.71403855 0.0061346726
0.13500194 -0.71405619 0.018053327
-0.11115934 -0.68640733 0.0047866041
-0.096503124 -0.68988895 0.0047978004
0.12641327 -0.68620783 0.012087281
-0.095474154 -0.66183889 0.0054558236
-0.11042663 -0.6584236 0.0043179151
0.11810372 -0.6582725 0.00474081
-0.1099435 -0.63037163 0.0040091132
-0.094842106 -0.63368303 0.0058602444
0.11751366 -0.63025004 0.0043635969
-0.094516851 -0.60545105 0.0060681649
-0.10972898 -0.60225445 0.003871619
0.11724539 -0.60214919 0.0041920654
-0.10207779 -0.57562804 0.0049873027
0.11724539 -0.57398951 0.0041920654
-0.10214077 -0.54738182 0.0049814247
0.1172633 -0.54582638 0.0042033736
-0.10220375 -0.51913673 0.0049752663
0.11729913 -0.51766026 0.0042263269
-0.10213181 -0.49091619 0.0049757143
0.11720978 -0.48951662 0.0041691121
-0.10193402 -0.46271503 0.0049878624
-0.089669004 -0.47036037 0.0077399272
0.11037438 -0.46864775 0.018963272
0.11699515 -0.46139193 0.0040319543
0.11101186 -0.43707019 0.014140567
-0.10174502 -0.43450892 0.0050056651
-0.089150324 -0.43022856 0.0061553866
0.1167982 -0.4332605 0.0039058805
-0.10133109 -0.40633219 0.0050299615
0.11170224 -0.40447637 0.0079278061
0.11631496 -0.40516737 0.0035969669
-0.088682197 -0.39170158 0.0061289626
-0.10088983 -0.37815168 0.0050715571
0.11579588 -0.37707031 0.0032649881
-0.1003857 -0.34997115 0.0051077781
-0.088227332 -0.35378635 0.0064052939
0.11522295 -0.34897068 0.0028984118
-0.099701032 -0.32180279 0.0051560914
0.11447043 -0.32088187 0.0024172945
-0.10700675 -0.29274595 0.0021307741
-0.090663321 -0.29453781 0.0085326452
0.11373582 -0.29277739 0.0019474861
-0.10625367 -0.26463246 0.0016493209
-0.08919511 -0.2663469 0.0094715906
0.11276709 -0.26468298 0.001327979
-0.10544662 -0.2365102 0.0011331585
-0.087507896 -0.23814917 0.010550493
0.11170834 -0.23657909 0.00065103348
-0.10462087 -0.20837469 0.00060512748
-0.085819118 -0.20992078 0.011630516
-0.083782457 -0.18168689 0.012932791
-0.081743225 -0.15341598 0.014237193
-0.10900887 -0.12819605 0.013665832
-0.079482526 -0.12511995 0.015682897
-0.076944254 -0.096795298 0.017306179
0.091440678 -0.080841377 0.018653575
-0.074401848 -0.068424404 0.018932033
0.091083117 -0.047462679 0.016228618
0.090734676 -0.014500603 0.013594397
0.090392113 0.018128481 0.010867021
0.090146519 0.048356239 0.0046887458
-0.080181524 0.073822036 0.018561987
0.090433151 0.073863745 0.0093643274
0.11039733 0.073745996 0.00039888639
0.11881918 0.076405704 0.0049713477
-0.078601688 0.10214907 0.017568626
0.10858158 0.10200143 0.0015599723
-0.076947391 0.13050687 0.016528687
0.10669171 0.13029207 0.0027686434
-0.075273164 0.15889546 0.015475983
0.10478158 0.158618 0.003990191
-0.077315286 0.18788259 0.015423919
0.10267035 0.18698801 0.0053402749
-0.080910027 0.21859585 0.012521764
-0.071590833 0.21578221 0.013160753
0.085726216 0.21539377 0.017636925
0.10055654 0.21539678 0.0066921506
-0.080632411 0.24838077 0.0082467962
-0.069636807 0.24428301 0.011932264
0.08350829 0.24384664 0.016242726
0.098330885 0.24385126 0.0081153484
-0.067588948 0.27282614 0.010644657
-0.052476302 0.27564791 0.00046517013
0.088585436 0.27235132 0.012182508
-0.06555666 0.30140525 0.0093669025
0.086247757 0.3008965 0.012185699
-0.063594908 0.33001491 0.0081334868
0.076378524 0.32949045 0.011759949
0.091252744 0.32949543 0.012642016
0.058677122 0.34797409 0.017258257
-0.061961323 0.35862741 0.0071065361
0.073982231 0.35812679 0.010253336
0.088849731 0.35813412 0.014178635
-0.060693979 0.38722971 0.0063095633
-0.048572447 0.38855231 0.0015229116
0.058469873 0.37763187 0.014746638
0.072077468 0.38675308 0.0090558613
0.086935788 0.3867631 0.015402869
0.058254115 0.40736815 0.012846577
0.064025506 0.39429149 0.011346123
-0.05977463 0.41581386 0.0057317074
-0.046459876 0.41738775 0.0028512743
0.070683941 0.41535363 0.0081796171
0.085548751 0.41536447 0.016289864
-0.0592045 0.4443703 0.0053733047
-0.045179546 0.44615564 0.0036561966
0.058024976 0.43730772 0.011837989
0.069840059 0.4439095 0.007649011
0.084727146 0.44391885 0.01681532
-0.058983702 0.47288945 0.0052344673
-0.044808157 0.47482291 0.0038894215
0.057783522 0.46740618 0.011674967
0.069472812 0.47241572 0.0074182493
0.084398307 0.47242072 0.017025592
-0.059094101 0.50136447 0.0053038863
0.057527512 0.49770573 0.012488622
0.069674686 0.50084585 0.0075449944
0.084562555 0.50085652 0.016920455
-0.045068141 0.50340503 0.0037261753
-0.059554055 0.52978343 0.0055929818
-0.046181418 0.53185052 0.0030261648
0.057259243 0.52813429 0.014175948
0.070335507 0.52920133 0.0079603884
0.085220248 0.52921265 0.016499912
-0.060362898 0.55813688 0.0061014188
0.05698112 0.55860031 0.016582431
0.071527496 0.55745786 0.008709887
0.086406633 0.55746984 0.015741231
-0.048090994 0.5601455 0.0018256672
-0.061520629 0.58641541 0.0068295328
-0.050682556 0.58828783 0.00019611623
0.056709938 0.5886429 0.018720418
0.069425166 0.58657908 0.0094642015
0.088084556 0.58561999 0.01466815
-0.063007645 0.61461294 0.0077644475
0.075391211 0.61363679 0.01113921
0.09025199 0.61365008 0.0132819
-0.064823508 0.6427207 0.0089059398
0.077839904 0.6415748 0.012678629
0.092725538 0.64158183 0.011700159
-0.077729359 0.6685769 0.017020216
0.08887621 0.66924131 0.012181221
0.35052657 0.66895509 0.0055025136
0.36384583 0.6712988 0.0021140911
-0.059708513 0.68612659 0.014544539
0.35093027 0.6841175 0.012078604
0.085072003 0.69682908 0.017225787
0.099887215 0.69684428 0.007120084
0.32491976 0.69841534 0.016006367
-0.085746229 0.72672504 0.011677094
0.10633152 0.72374946 0.0029988452
0.27130157 0.7190786 0.014557304
0.28875956 0.72024685 0.006667966
0.31388006 0.71751356 0.0023330962
0.34558055 0.71605265 0.016285609
-0.36049697 0.7347787 0.0069240318
-0.32853553 0.73914433 0.017150545
-0.28142378 0.74420375 0.013781604
0.19348937 0.74458766 0.013324448
0.21591529 0.7416696 0.011155669
-0.2618835 0.7492063 0.015917242
-0.24813206 0.75074065 0.0072210212
-0.21286038 0.76016128 0.0045815944
-0.18747486 0.75867474 0.0036520539
-0.15589759 0.76294929 0.0087392218
-0.12062825 0.75257808 0.0073952214
-0.10194366 0.7514087 0.001318462
0.098887525 0.75553912 0.00029106328
0.1624743 0.75554246 0.0035606339
0.28931162 0.75457132 0.010685189
-0.17333913 0.76614565 0.011656044
0.26270774 0.77965021 0.0046811323
0.27682936 0.77879566 0.011346123
0.2630446 0.80011457 0.013322992
0.22373611 0.81413633 0.0071345279
0.2390049 0.81391901 0.015864281
0.18342057 0.83382231 0.0045172139
0.15760437 0.85654879 0.0068313242
-0.25144675 0.86503881 0.01673672
-0.22640321 0.86276346 0.01047682
-0.20109244 0.86143291 0.0068164328
-0.17558354 0.86100513 0.0056395596
-0.14992052 0.8615979 0.0072702304
-0.12417492 0.86317784 0.011616857
0.10547414 0.865215 0.017221084
-0.37860709 0.88766724 0.0059812795
-0.35313269 0.88766736 0.0059813913
-0.32765839 0.88766712 0.0059811673
-0.3021856 0.88766134 0.0059644845
-0.11948266 -0.98206174 0.025181295
-0.10277992 -0.9928875 0.021796707
-0.07540226 -0.99414128 0.021899324
-0.06804692 -0.99159241 0.028914222
-0.046514738 -0.99165571 0.028674407
-0.024532631 -0.99243623 0.026613487
-0.0048971446 -0.99405515 0.022253163
0.0077101546 -0.99162674 0.028793005
0.026496455 -0.99164128 0.028733315
0.049573604 -0.99244249 0.026574198
0.071743585 -0.99396628 0.022495989
0.080408849 -0.99166995 0.028615974
0.10546968 -0.99243468 0.026578564
0.13299932 -0.98705417 0.021740947
-0.11804961 -0.97775441 0.02183402
-0.10957693 -0.96359277 0.037043404
0.15023758 -0.97429234 0.021754803
-0.12841894 -0.9566747 0.021930169
-0.10323417 -0.9470703 0.034152444
0.13028006 -0.94379318 0.034991682
0.15575409 -0.94732165 0.021909148
-0.12711374 -0.93174887 0.033815205
-0.0868674 -0.94036478 0.035117194
0.1270709 -0.93560714 0.036405422
-0.12276796 -0.91593558 0.02221977
-0.10925636 -0.90762985 0.036841977
0.12797855 -0.9071281 0.026280241
0.15096872 -0.90722322 0.022191077
-0.12670529 -0.89482701 0.026586803
-0.11781257 -0.87514079 0.022506962
-0.10699275 -0.88027519 0.035418667
-0.078301281 -0.87582207 0.034729011
0.12255666 -0.876746 0.034584127
-0.12391928 -0.85840476 0.028641935
-0.10493953 -0.85281801 0.034127925
0.14672543 -0.86690599 0.022472281
-0.1178921 -0.83298212 0.027120683
-0.10311672 -0.82525873 0.032981955
0.14301544 -0.82636267 0.022752754
-0.12329532 -0.80167699 0.020219864
-0.1014706 -0.79761797 0.03194683
-0.071505405 -0.80932105 0.034321118
0.099873945 -0.80155653 0.034795914
0.11651559 -0.80797768 0.034158319
-0.10981748 -0.79321498 0.02307572
0.14003682 -0.78585136 0.023030039
-0.10001975 -0.76989585 0.031034647
0.099444441 -0.76177979 0.032067418
0.11753639 -0.76712686 0.037636936
-0.10281873 -0.74714684 0.026806733
-0.066766225 -0.74040025 0.033888929
0.112136 -0.73766023 0.033715606
0.11625427 -0.73943079 0.036830779
0.13761841 -0.74516386 0.023306314
0.099026695 -0.72257191 0.029113872
-0.10114755 -0.71270317 0.026607236
0.11066317 -0.70618474 0.035964724
0.13585439 -0.70443064 0.023580126
-0.096952438 -0.68626726 0.029106371
0.10646699 -0.68339676 0.031333312
-0.10300173 -0.67013752 0.023909362
-0.064138837 -0.66911227 0.033432893
0.10812896 -0.66904575 0.033223603
0.13468933 -0.66358882 0.023852315
-0.096359693 -0.65825617 0.028733635
0.11047602 -0.65005487 0.033229232
0.13283283 -0.65828884 0.019464096
-0.099023417 -0.6296339 0.026333509
0.10573043 -0.6353032 0.030627819
0.13226336 -0.63026178 0.019834479
0.10771161 -0.61585218 0.029645709
0.13412693 -0.62265235 0.024122657
-0.098791815 -0.59501922 0.026412221
-0.064024739 -0.59480971 0.032946624
0.10699973 -0.59522057 0.030735964
0.13197853 -0.60216421 0.020019783
-0.09578497 -0.57391757 0.02837221
0.1131873 -0.57183975 0.034902394
0.13304223 -0.57777447 0.022205887
0.10288563 -0.55998385 0.027762501
-0.09876895 -0.54598176 0.026560323
0.11322313 -0.54377097 0.034924898
0.13316035 -0.54279971 0.022319112
-0.095856853 -0.51759171 0.02841722
-0.065249309 -0.5200094 0.032451849
0.09658131 -0.5203867 0.028636338
0.11059165 -0.52119255 0.031448599
0.13210325 -0.51766026 0.019938607
-0.10157646 -0.50342286 0.025006795
0.10974491 -0.49984512 0.023711856
0.13432662 -0.4968816 0.024945494
-0.095802777 -0.48944524 0.028383408
0.096082777 -0.48053011 0.029373521
0.1131873 -0.48765385 0.034902394
0.13201413 -0.48951662 0.019996606
-0.098385438 -0.4602505 0.026795564
0.11302674 -0.45961815 0.034801513
0.13176489 -0.4613978 0.020158844
-0.065774098 -0.44871357 0.031982712
0.095597409 -0.44130054 0.029842658
0.10917836 -0.44717717 0.031825289
0.13409692 -0.45258334 0.025236437
-0.095497333 -0.43317994 0.028191274
0.11288399 -0.43157682 0.034711715
0.13155127 -0.43326885 0.02029757
-0.097800188 -0.40930459 0.026805416
0.095127933 -0.40277007 0.0299282
0.11254484 -0.40356141 0.034498531
0.13236305 -0.40602252 0.023062455
-0.065469153 -0.38100424 0.031540558
-0.097093768 -0.37159637 0.026866354
0.094665907 -0.36470503 0.029913981
0.11034628 -0.37758449 0.032841187
0.13062508 -0.37706786 0.020900169
-0.094526589 -0.34882641 0.02758106
0.1118127 -0.34751901 0.034038126
0.13152073 -0.35441807 0.023565348
0.094224542 -0.32743171 0.029347321
-0.09570618 -0.31865698 0.026761414
-0.064624153 -0.31617042 0.031119457
0.10928092 -0.31720504 0.032339577
0.13058981 -0.31594703 0.02398259
-0.099592514 -0.29547116 0.032244381
0.093790226 -0.29058924 0.028687842
0.110776 -0.2914831 0.033386488
0.12848541 -0.29278526 0.022291681
-0.098091558 -0.2653476 0.029450646
-0.063223846 -0.25410864 0.030718898
0.093375616 -0.254491 0.027487231
0.10790335 -0.25807065 0.031773843
0.12905131 -0.26260847 0.024713587
-0.099540137 -0.2351227 0.029359246
0.10943465 -0.23543726 0.032543048
0.1264856 -0.23658399 0.023592276
-0.092501633 -0.21195248 0.026952146
0.09296789 -0.21880569 0.026180254
-0.099501707 -0.20459141 0.027719449
-0.061442867 -0.19437945 0.030334912
0.1062289 -0.20007466 0.031137096
0.12716265 -0.20835036 0.025567858
-0.090745166 -0.18009423 0.025203576
0.092573322 -0.18367159 0.024555966
0.10782357 -0.17936225 0.031530205
0.12414361 -0.18033448 0.025115684
-0.10804014 -0.16742752 0.02640273
-0.08915396 -0.15619114 0.02733087
-0.089898035 -0.15194593 0.024670843
-0.059211664 -0.13700289 0.029968224
0.092185251 -0.14892557 0.022829229
0.10692774 -0.15130854 0.030967019
0.12479508 -0.15306903 0.026605248
-0.08897756 -0.1237862 0.024092203
0.10366566 -0.12913305 0.030057129
0.12133192 -0.12402481 0.026944533
-0.084330082 -0.10347795 0.037478503
0.091809377 -0.11468809 0.020809812
-0.08657027 -0.096789859 0.025592463
-0.056521744 -0.081890494 0.029618274
0.1046321 -0.09517511 0.029523443
0.12198121 -0.096671894 0.027792059
-0.085432328 -0.068407133 0.029382646
0.10114526 -0.073184907 0.029101305
0.11813764 -0.067625925 0.02902206
0.088494465 -0.04311303 0.035753444
-0.08324331 -0.037349656 0.028115006
-0.062498562 -0.034380138 0.025032969
0.09600015 -0.025558017 0.029117901
0.10195578 -0.038968585 0.027840933
0.11860669 -0.039094202 0.029199891
-0.084404878 -0.010996066 0.021217145
-0.066657618 -0.011591844 0.023884507
0.089019194 -0.0072189048 0.031227676
0.10679024 -0.010987449 0.02961755
-0.083203539 -0.0024744645 0.032399509
-0.080321521 0.024817165 0.026450057
-0.058597758 0.01689231 0.029038968
-0.050230213 0.022710238 0.028958797
0.09125372 0.027963284 0.027520515
0.10450972 0.017247271 0.030122068
0.11758979 0.022472199 0.028414084
-0.081632823 0.045523737 0.019474508
0.10201759 0.045523737 0.030682513
-0.082490094 0.06294471 0.028293386
-0.05641599 0.073902488 0.037140366
-0.046735927 0.072531685 0.028646525
0.092702925 0.075472549 0.026167715
0.11344258 0.086337849 0.028849127
-0.082141764 0.095155895 0.026106918
-0.061781503 0.098125562 0.032631192
0.060405705 0.10196342 0.0373138
0.093807913 0.10200012 0.022718159
-0.08264371 0.12586392 0.030546699
-0.042901266 0.12061486 0.028347297
0.086210698 0.12596761 0.028165296
-0.053331442 0.13074368 0.035234258
0.053341329 0.13280916 0.037713744
0.060170241 0.13400637 0.03549514
0.091909312 0.13029011 0.021524379
-0.082778826 0.16072226 0.026003573
-0.051713426 0.15920889 0.034234293
0.08998999 0.15861537 0.020317612
0.10845724 0.15344906 0.029308692
-0.0583371 0.16978779 0.029590115
-0.03861174 0.16684993 0.028061839
0.059947431 0.16542901 0.033084739
0.082571805 0.17345209 0.02786909
-0.049946491 0.18771014 0.033142403
0.059729937 0.19648935 0.030491276
0.08786846 0.18698472 0.018983986
-0.08467757 0.20292844 0.024983676
-0.04815907 0.2162445 0.032037523
-0.033457283 0.21067302 0.027795753
-0.052346028 0.23219346 0.036542468
0.05951418 0.22731127 0.027917853
0.10248342 0.22422759 0.029796245
-0.045752559 0.24880074 0.030536482
0.05930458 0.25775555 0.025108853
-0.048232686 0.26814377 0.031982381
0.062674694 0.26692387 0.035770576
-0.051910315 0.29328638 0.032053087
0.059096545 0.28797284 0.02232068
-0.042377375 0.30207574 0.02846447
0.063083813 0.30744699 0.02958592
0.095134825 0.29955676 0.030319292
-0.046091478 0.32712907 0.028592784
-0.0011064289 0.33294889 0.036746468
0.03105313 0.32692614 0.036269158
0.058888346 0.31801414 0.019643912
0.063504472 0.34875959 0.023001209
-0.045211513 0.3565585 0.027232006
0.00093661202 0.3618938 0.035505328
0.030940663 0.35717568 0.03474452
0.063559897 0.35767704 0.037219975
-0.044468142 0.38595414 0.026133789
-0.023778558 0.38927385 0.0372876
0.030826401 0.38734493 0.033552866
0.062385708 0.38618213 0.03649421
0.089259081 0.37434825 0.030832937
0.0024703201 0.3908205 0.034573548
-0.056814365 0.41243657 0.037496306
-0.043925248 0.41534075 0.025416648
-0.023661945 0.41935572 0.036498688
0.003853994 0.41975725 0.033733133
0.030709341 0.41747963 0.032796875
0.061485838 0.41467616 0.035938077
-0.043537792 0.44467631 0.024978189
0.0609353 0.44314232 0.035597701
0.086666174 0.44510147 0.031306773
-0.057142425 0.45096704 0.036265578
-0.023543712 0.44933954 0.036033809
0.0048213787 0.44866642 0.033145536
0.030590769 0.44750658 0.032347556
-0.043305714 0.47396907 0.024851613
-0.023423124 0.47925153 0.035958678
0.0051059965 0.47750077 0.03297266
0.030470069 0.47746137 0.032288663
0.060696367 0.47157612 0.035450019
-0.057455257 0.48917416 0.035994396
-0.036203131 0.50251019 0.02464845
0.060806539 0.49996361 0.035518203
-0.050290894 0.50393659 0.025513051
-0.023300353 0.50908196 0.036268264
0.0048404131 0.50626099 0.033133779
0.030346852 0.50734276 0.03263307
0.087080389 0.51209134 0.031743553
-0.057755716 0.52715695 0.036518283
-0.043362789 0.53239894 0.025600888
-0.023175903 0.53879631 0.036905237
0.003853994 0.53490603 0.033733133
0.030222066 0.53709924 0.033287622
0.061228987 0.52830112 0.035779197
0.061981957 0.55657715 0.036244527
-0.043624703 0.56150299 0.026417958
0.0025083886 0.56347507 0.034550596
0.030095935 0.566724 0.034247953
0.089892074 0.57627738 0.032152563
-0.044060223 0.59052557 0.027554972
0.0010124129 0.59199411 0.035459422
0.029967118 0.59627229 0.03564775
0.063027836 0.58478916 0.036891129
-0.044650618 0.61945593 0.028987855
-0.017332185 0.63355315 0.032793008
-0.00099300733 0.62039453 0.036677387
0.029837519 0.62564909 0.037290737
0.056431759 0.61864221 0.021425402
0.065727271 0.6184234 0.019924387
-0.081626557 0.65046018 0.032643534
-0.04465941 0.64516693 0.030437112
0.026138667 0.64613813 0.0330512
0.064666733 0.64847952 0.031116856
0.094857037 0.6379618 0.032536495
0.35821855 0.66700691 0.027620329
0.38287944 0.65974522 0.03179254
-0.064245872 0.67427981 0.025426948
0.10597245 0.68877971 0.032824136
0.31637514 0.68614262 0.034758963
0.34854642 0.68337142 0.026383445
0.362867 0.6795736 0.031897172
-0.095173806 0.69653571 0.032890644
-0.079531789 0.69808722 0.020910302
0.31645355 0.69964314 0.030658161
0.32943866 0.70572734 0.023384411
-0.097383171 0.72092909 0.029376991
0.091529071 0.72373766 0.021285444
0.10726789 0.72681665 0.036091916
0.27285519 0.72362572 0.028622536
0.31436345 0.7251122 0.023318574
0.32883823 0.71732002 0.020168584
-0.37504759 0.73467743 0.025118707
-0.34350127 0.73467731 0.02511893
-0.31195512 0.73467731 0.02511893
-0.29489964 0.74387085 0.026655549
-0.11408814 0.73253006 0.033049636
0.11919762 0.73651415 0.033083335
0.1917993 0.74091852 0.034342505
0.22578409 0.739142 0.031261057
0.25832668 0.73343241 0.022602834
0.298612 0.74325562 0.023263374
0.31412777 0.7443437 0.029072389
-0.38205233 0.75583655 0.025825966
-0.35964742 0.75546634 0.027399814
-0.31994367 0.74744928 0.032314241
-0.2778281 0.76453257 0.032596398
-0.25478962 0.76199865 0.029370833
-0.102295 0.75473499 0.034763332
0.10085874 0.74987572 0.027151112
0.11759875 0.75283277 0.029372625
0.14399968 0.75733894 0.02643282
0.15749286 0.74942482 0.034259535
0.18541804 0.749192 0.032898255
0.28206265 0.76003718 0.023220548
-0.37869769 0.78302759 0.01957483
-0.36209074 0.76671565 0.022824554
-0.21770604 0.76626223 0.036136255
-0.18619555 0.76756227 0.034612738
-0.15454112 0.76692957 0.035354175
-0.13696948 0.77132374 0.021292387
0.26476768 0.77559572 0.023188526
-0.36484081 0.79032528 0.02261571
-0.23291196 0.78657216 0.032922667
-0.20556693 0.78587335 0.032617282
-0.15743291 0.79419112 0.034379065
-0.12392177 0.78862739 0.033377022
0.24682939 0.79013336 0.023165965
-0.37869769 0.80936706 0.01957483
-0.36352053 0.81247079 0.022579238
-0.1568709 0.8130182 0.035020154
0.20900969 0.81631655 0.023147602
0.22508815 0.81233233 0.023992581
-0.3821618 0.83773124 0.026108567
0.16788228 0.8379879 0.023172179
0.18881407 0.82762808 0.023155272
-0.36355814 0.8459518 0.02245795
-0.2272864 0.84895515 0.028329942
-0.21315877 0.8587063 0.024578638
-0.19947124 0.8436473 0.028406212
-0.17876264 0.85007417 0.027578989
-0.15448266 0.84804058 0.026420031
-0.13530239 0.84941804 0.021534707
-0.12378304 0.84507465 0.034774862
-0.10932691 0.84642744 0.023325628
0.12359497 0.85575444 0.023235103
0.14616998 0.84738326 0.023198435
0.16224508 0.84961265 0.02786243
0.1849737 0.84562719 0.036877245
-0.37753716 0.86735016 0.028608346
-0.36482534 0.87013006 0.022626795
-0.35251948 0.87404776 0.029904295
-0.32644057 0.87402725 0.029958725
-0.30143911 0.87453306 0.030910701
-0.27053729 0.86850435 0.024226302
-0.2417039 0.86329609 0.024663955
-0.11258623 0.86345208 0.024140459
-0.09571071 0.86560446 0.024049377
-0.077008918 0.8656922 0.024415953
-0.063742362 0.86326295 0.023399694
-0.048776448 0.86567628 0.024353253
-0.025131892 0.86486769 0.024034169
-0.0038869884 0.86331308 0.023641596
0.0072002341 0.86563903 0.024229921
0.027721584 0.86565733 0.024282854
0.050851583 0.8648724 0.02407011
0.070730239 0.86322856 0.023400029
0.084024563 0.86568922 0.024407724
0.09999761 0.86294854 0.023283472
0.11974671 0.86328715 0.02414225
-0.3565037 0.88339788 0.024997054
-0.32261568 0.88333964 0.024860231
-0.29190859 0.88035923 0.024755487
-0.09390647 -0.98593003 0.046816204
-0.07540226 -0.9941414 0.043692883
-0.067214563 -0.99171752 0.047409788
-0.045952305 -0.99178088 0.046930127
-0.0243438 -0.99251312 0.046246167
-0.0048971446 -0.99405527 0.044400733
0.0077192797 -0.99174476 0.04715953
0.026213154 -0.99176425 0.047040161
0.049204994 -0.99251777 0.046162389
0.074239701 -0.99170524 0.047402203
0.082417741 -0.99414152 0.043692939
0.10617194 -0.99034119 0.041769035
0.13163216 -0.98545176 0.043408293
-0.11890553 -0.96568203 0.052931469
-0.10952744 -0.96776569 0.043762136
-0.083543859 -0.96727294 0.053906523
0.14632146 -0.96963161 0.043496635
0.12871425 -0.96042985 0.043519285
-0.11552449 -0.93813616 0.046586867
-0.10588681 -0.92985868 0.044288095
0.12976833 -0.93136865 0.045327421
0.14632152 -0.93795693 0.044057783
-0.12005144 -0.91461635 0.04949367
-0.087595396 -0.91667205 0.049271334
0.10108262 -0.9199537 0.046447974
0.14046341 -0.91391027 0.048154559
-0.098964468 -0.88716853 0.044903208
0.12720588 -0.90424961 0.043716121
0.13785869 -0.89105904 0.048171367
-0.12082261 -0.88712847 0.04292665
-0.083489783 -0.88288939 0.053873215
0.10069555 -0.88073385 0.041907422
0.12483399 -0.8770268 0.04222507
-0.093262553 -0.86827385 0.055452157
-0.08137922 -0.85536677 0.052568924
0.10296342 -0.86606884 0.056273203
0.12627466 -0.85514897 0.048010569
0.13615149 -0.85372603 0.04509699
-0.093016282 -0.84470844 0.045507457
0.1018886 -0.84028137 0.045491785
-0.092835292 -0.82820219 0.052432772
-0.079518802 -0.82773584 0.051419035
0.10399905 -0.8122533 0.049997851
0.12645951 -0.81745875 0.042657986
-0.082840435 -0.80113959 0.048242535
0.11903068 -0.79474163 0.038576327
-0.092395484 -0.78800184 0.049978595
0.10453262 -0.78483677 0.046573151
-0.097658664 -0.76171738 0.05545406
-0.079451956 -0.76548862 0.048078924
0.10509419 -0.75686973 0.042418882
0.12892936 -0.77156711 0.046231374
-0.091962852 -0.74825734 0.047443576
-0.075030647 -0.74436414 0.048645191
0.067002788 -0.74164474 0.054962978
-0.098155238 -0.73436522 0.053402063
0.1056394 -0.72885561 0.038916033
0.12625456 -0.73031789 0.04679333
-0.095079251 -0.70755607 0.048648104
-0.075819112 -0.71553272 0.047665212
0.066695102 -0.70138764 0.053569339
-0.073108308 -0.68839586 0.047457233
0.12430853 -0.68910611 0.047348682
-0.099130511 -0.67924476 0.050236113
-0.08244542 -0.6695497 0.046213884
-0.099608548 -0.65148968 0.049131796
-0.072491266 -0.66030777 0.047075879
0.06638059 -0.66108489 0.052697908
0.12309264 -0.64794981 0.047897592
-0.09056899 -0.62780571 0.043951809
-0.071670108 -0.63007671 0.047675371
-0.10008083 -0.62360734 0.04833639
0.066058412 -0.62073845 0.052362457
0.1225604 -0.60680205 0.048440851
-0.10054632 -0.59561139 0.047871284
-0.090073653 -0.58732605 0.044147972
-0.071892247 -0.603966 0.046705496
-0.070864402 -0.58064479 0.04790286
0.065730184 -0.58041996 0.052494131
-0.10100969 -0.56744349 0.04758846
0.12246479 -0.56533313 0.048984725
-0.10147665 -0.53903103 0.047320187
-0.089574561 -0.54702383 0.044644654
