ply
format ascii 1.0
comment PCL generated
element vertex 1392
property float x
property float y
property float z
element camera 0
property float view_px
property float view_py
property float view_pz
property float x_axisx
property float x_axisy
property float x_axisz
property float y_axisx
property float y_axisy
property float y_axisz
property float z_axisx
property float z_axisy
property float z_axisz
property float focal
property float scalex
property float scaley
property float centerx
property float centery
property int viewportx
property int viewporty
property float k1
property float k2
end_header
-0.21923712 0.62220728 0.49821755
-0.199872 0.62574488 0.49510607
0.21246794 0.62715524 0.48977226
0.23011234 0.62276423 0.4885352
0.24864878 0.62045813 0.49136624
0.25851697 0.62561482 0.49585128
-0.18878852 0.6313048 0.49788156
-0.17759934 0.63896233 0.49644539
-0.16296665 0.63868624 0.49572274
-0.14688027 0.64097995 0.49843237
0.1590157 0.64048648 0.49351397
0.17692314 0.63602018 0.49226037
0.18160993 0.63807333 0.49675301
0.19474033 0.63157654 0.49101317
-0.12866478 0.65004116 0.49158445
-0.11115278 0.65124488 0.50067616
-0.093175411 0.65642005 0.5018034
0.10473818 0.65401357 0.49731541
0.1164277 0.65421987 0.49037582
0.12292083 0.64947891 0.49604267
0.14101094 0.64496708 0.49477631
0.15059987 0.64671737 0.49537373
0.1665087 0.64843535 0.49580622
-0.11209773 0.65768874 0.49952021
-0.096523628 0.65910143 0.50195259
-0.072383903 0.65950012 0.49914405
-0.049671765 0.65971017 0.49250367
-0.026650274 0.66011471 0.49236289
-0.003641387 0.66052336 0.49224833
0.017143069 0.66080427 0.49610925
0.021552805 0.66105986 0.48821339
0.040265735 0.66123623 0.49865022
0.065308392 0.66174591 0.50073946
0.086462609 0.65857166 0.49859491
0.097632475 0.65792871 0.50008649
-0.29165152 -0.75881094 0.50388241
-0.28218061 -0.7679196 0.50846654
-0.29971874 -0.74407506 0.51080716
-0.31061891 -0.7289362 0.50756735
-0.29067817 -0.72991121 0.50856972
-0.32020652 -0.71383512 0.50942987
-0.31063133 -0.71565586 0.51492804
-0.31999049 -0.70393014 0.5060147
-0.32986441 -0.69862354 0.51130611
-0.31705409 -0.69160497 0.5077967
-0.34074801 -0.67305642 0.50853491
-0.33639982 -0.68052113 0.50921088
-0.32598531 -0.67758745 0.51204973
-0.34939399 -0.66786319 0.51510018
-0.35722077 -0.64549184 0.50389802
-0.10002695 -0.64467835 0.51537359
-0.081128299 -0.64937484 0.51669979
-0.065903939 -0.64919472 0.51202506
-0.041375656 -0.65011972 0.50907588
-0.035652503 -0.64977467 0.5038746
-0.015120933 -0.64952958 0.50657755
0.0047282102 -0.64933783 0.503995
0.011852245 -0.64887619 0.5094226
0.036000825 -0.64841509 0.51224357
0.060409222 -0.64795786 0.51509327
0.072192185 -0.6481936 0.5143851
0.094242148 -0.64781958 0.51186824
0.11500042 -0.64407933 0.50665402
-0.3616927 -0.63056123 0.50807744
-0.15614162 -0.630723 0.51143771
-0.13196319 -0.63462573 0.50640309
-0.1162103 -0.63956094 0.51319361
-0.084661216 -0.6385861 0.51151848
0.11575983 -0.63941288 0.51294452
0.12829615 -0.6405949 0.50772923
0.14844991 -0.63202679 0.50904322
0.15133029 -0.6360411 0.50740474
0.16923742 -0.63090307 0.50627893
-0.37530819 -0.61827844 0.50700366
-0.19685872 -0.61835688 0.50666922
-0.19220367 -0.61747748 0.51305622
-0.17868595 -0.61900759 0.51322556
-0.15971568 -0.62563246 0.50806445
0.18411891 -0.62269169 0.51009351
0.20482144 -0.62070322 0.50403947
0.22249323 -0.61563259 0.50292832
-0.38724849 -0.60153031 0.50683701
0.22271253 -0.60732269 0.51545137
0.24980853 -0.60079581 0.50813192
0.25405809 -0.60149091 0.50640684
-0.39652061 -0.58620209 0.50745928
-0.27719504 -0.58626246 0.51058006
0.28738132 -0.58874947 0.51425737
-0.40769142 -0.5692811 0.51069027
-0.38604131 -0.57891941 0.51415926
-0.27786428 -0.58060777 0.50925082
0.30277205 -0.57854915 0.51398319
0.31982988 -0.57420188 0.5166797
-0.40752798 -0.55930489 0.50850278
-0.3264665 -0.55705643 0.50905246
-0.31514075 -0.56727898 0.51503813
0.31958291 -0.56229031 0.50519532
0.33246306 -0.56287861 0.51268059
0.34948915 -0.55636215 0.5165832
-0.41777104 -0.55002612 0.51238149
-0.35022324 -0.54783171 0.51357985
0.34535849 -0.54722899 0.51275814
0.36431995 -0.54745382 0.51653266
-0.42844075 -0.53653091 0.51460475
-0.41868475 -0.53449297 0.51540083
-0.38567767 -0.52818191 0.51211488
0.37922895 -0.53319478 0.51402241
0.39396277 -0.52962434 0.5164364
-0.43893707 -0.51997244 0.51658332
-0.41583237 -0.52035111 0.51458192
0.38870171 -0.5213477 0.51423025
0.40878502 -0.52072102 0.51638561
0.42359945 -0.51181036 0.51633745
-0.44212386 -0.5007115 0.50615847
-0.42702112 -0.50644034 0.50357693
0.40744916 -0.5093559 0.51256317
0.42087397 -0.49855769 0.51079214
0.42545873 -0.50231433 0.50416845
-0.45816723 -0.48273131 0.50409424
-0.44404516 -0.48360631 0.51620895
0.42629179 -0.49033663 0.5129627
-0.45625997 -0.48020449 0.513188
-0.44354406 -0.4706707 0.50952959
0.44723737 -0.47415498 0.51076299
-0.46891567 -0.46573111 0.50606114
-0.4555071 -0.4596667 0.50469106
0.46083948 -0.45735717 0.51174337
0.47305709 -0.45703125 0.50948113
-0.47781441 -0.4460777 0.50595617
-0.45620844 -0.4506796 0.50762385
0.46544668 -0.44957748 0.50986087
0.48667592 -0.44643241 0.50577545
-0.49107963 -0.43214968 0.50983697
0.48534617 -0.42886269 0.50828445
0.50006878 -0.43304375 0.50502437
-0.50435966 -0.41934249 0.51071048
-0.49349198 -0.42291439 0.51279986
0.4996039 -0.417402 0.51267034
0.51296967 -0.4196876 0.50604671
-0.51768023 -0.40648162 0.51158935
-0.51325291 -0.40385979 0.50393194
0.50546515 -0.40791941 0.50669068
0.51751357 -0.3989071 0.50320375
0.52591807 -0.40626773 0.50707549
-0.52873653 -0.38874808 0.51365942
-0.52568716 -0.3847003 0.51035398
-0.51172346 -0.38935733 0.50617814
0.53236532 -0.38977355 0.50659257
-0.54019177 -0.36923164 0.51180369
0.5350191 -0.37903827 0.51241547
0.55054939 -0.37610668 0.50991207
-0.53696895 -0.36595479 0.51618081
0.56120616 -0.35691026 0.51230681
-0.54716098 -0.34902287 0.50271946
-0.53865921 -0.3447403 0.50739044
0.56011552 -0.34154373 0.50409812
-0.5582456 -0.33060473 0.50855225
0.56437004 -0.32621562 0.50943309
0.57195836 -0.33752316 0.51472652
-0.57321453 -0.31488648 0.50436175
-0.56919473 -0.31239897 0.514314
-0.58457226 -0.29602563 0.50653291
-0.56514847 -0.30084676 0.50859427
0.57428509 -0.30839956 0.51474792
0.58957738 -0.29609933 0.50734687
-0.59300727 -0.27741852 0.50774837
0.5924297 -0.27176297 0.51166075
0.60483915 -0.27827436 0.50402695
-0.60410571 -0.25898632 0.51170272
-0.59122324 -0.25765607 0.50976765
0.60275453 -0.25717643 0.5117923
0.6144824 -0.25603637 0.50848496
-0.60733998 -0.24307692 0.51608104
0.62728971 -0.23783275 0.50889796
-0.61573029 -0.2298286 0.51513958
-0.61668456 -0.21052209 0.50270855
0.62251943 -0.2078248 0.50439602
0.63524216 -0.20828646 0.5134142
-0.62145871 -0.19387251 0.50531512
0.63097513 -0.19191161 0.51053613
-0.63236183 -0.17226981 0.50501013
-0.62154549 -0.17587782 0.50941533
-0.073638506 -0.17421165 0.50729048
0.059058536 -0.17532443 0.50883776
0.081616923 -0.16812849 0.51442051
0.63554239 -0.17355534 0.5088076
-0.63093352 -0.1608294 0.51048803
-0.62286454 -0.15369996 0.50436795
-0.10096657 -0.15630966 0.50479031
0.09943644 -0.15719384 0.51536214
0.63471943 -0.15900731 0.51117897
0.64546269 -0.15157759 0.50299007
-0.63826531 -0.14359769 0.5111773
0.11968801 -0.14332715 0.51412833
0.12895049 -0.1375228 0.50388479
0.6387549 -0.14287987 0.51342255
0.65092492 -0.14580916 0.50431973
-0.64031953 -0.12812285 0.51561242
-0.14986888 -0.12230137 0.50957924
-0.12750341 -0.13622266 0.51633465
0.13874023 -0.12452675 0.50688982
0.64276475 -0.1268248 0.515652
-0.64955974 -0.11275037 0.51365417
-0.14948861 -0.1160876 0.50778514
0.65898907 -0.11368315 0.50911838
-0.16816317 -0.096303493 0.51130605
-0.16313019 -0.095392115 0.50248027
0.1574855 -0.10347965 0.50249875
0.16485156 -0.095905915 0.51240766
-0.65176171 -0.079969808 0.50365895
-0.64043188 -0.092609294 0.51395404
0.65461856 -0.079306483 0.50421035
0.66379201 -0.086285666 0.51444244
-0.64240426 -0.072354645 0.5117619
0.17505269 -0.072886899 0.51046282
0.66534603 -0.071633056 0.509193
-0.6520505 -0.063966818 0.50381947
-0.64276052 -0.052161425 0.51136577
-0.18401949 -0.053193819 0.51674366
0.1860065 -0.053457111 0.50436151
0.66257197 -0.057627197 0.5066281
-0.65233117 -0.047968976 0.50397563
0.65771848 -0.047725476 0.50596511
-0.65483689 -0.0270839 0.50664806
-0.64158404 -0.032064214 0.51014417
-0.19108798 -0.031976074 0.51405507
0.19065309 -0.031976074 0.50259423
0.65305132 -0.023813199 0.50331408
0.66211438 -0.031976074 0.50667512
0.66977549 -0.030423202 0.50320852
-0.64818275 -0.013893351 0.50743091
-0.19410956 -0.010676723 0.51290584
0.66180056 -0.014190782 0.50679564
-0.65318114 -5.222857e-06 0.50444812
0.66148299 0.0036009401 0.50691414
-0.64865017 0.012171797 0.50738573
-0.19538943 0.010643333 0.51241904
0.65659595 0.015301898 0.50532973
-0.64896822 0.030239165 0.50726599
-0.19502814 0.03194426 0.51255655
0.65224141 0.030732848 0.51321489
0.66363776 0.030401319 0.50931782
-0.64928621 0.04830014 0.50714624
0.66071546 0.047090493 0.50707638
-0.65431029 0.06387686 0.50507593
-0.1906676 0.053109966 0.51421499
0.65575123 0.062624685 0.50485152
-0.64974803 0.074333645 0.50710666
-0.18633655 0.074206345 0.51586229
0.18495066 0.075386398 0.50476313
0.66025782 0.072795995 0.50711596
-0.64438212 0.089028545 0.50956333
-0.64205664 0.081881233 0.50862473
0.17786996 0.082219221 0.51074356
0.65146464 0.08334171 0.50399816
0.65994352 0.090618156 0.50723666
-0.65158218 0.096019857 0.50355911
0.1779177 0.096517645 0.507438
0.66612071 0.10267255 0.50769037
-0.65016228 0.11771607 0.51308525
-0.63677561 0.11144806 0.50959206
-0.17103893 0.11178505 0.50550252
0.16474612 0.11718757 0.51244783
0.650047 0.11584096 0.51011211
-0.15121286 0.13641864 0.50689322
0.65905637 0.12721419 0.51638567
-0.63955605 0.14436656 0.51519567
0.63772863 0.15087169 0.51193392
0.64493412 0.14170331 0.5168581
-0.63547629 0.16082647 0.51296824
-0.13279453 0.15714905 0.51257837
0.12588643 0.15840721 0.50691962
0.64025396 0.15798646 0.514256
-0.63137847 0.17735991 0.51073086
-0.6216076 0.17260125 0.50814497
-0.10550892 0.17561707 0.50298482
0.10581174 0.17723805 0.51288301
0.63253754 0.17699245 0.50961542
-0.62302375 0.19282228 0.50865406
-0.094188221 0.18402249 0.51094848
-0.071315333 0.19330832 0.51657623
0.083358325 0.18423355 0.51071221
0.63082033 0.19080889 0.50901103
0.64170325 0.18775287 0.50722873
-0.61186236 0.20417896 0.50855505
0.0044974135 0.20571572 0.51589775
0.06849312 0.19579786 0.50554782
0.62376302 0.20762837 0.50484383
0.63576752 0.20851967 0.51392084
-0.62311941 0.21065041 0.50622171
-0.6135574 0.21269831 0.51456624
0.62129503 0.22397625 0.50371534
-0.61895794 0.22740865 0.5039497
-0.6046502 0.23339838 0.50401479
-0.6080296 0.2602092 0.5164507
0.60572261 0.26305398 0.51276094
0.61206913 0.25609887 0.51687783
-0.59456253 0.27694404 0.51062053
-0.58481407 0.27719826 0.51611668
0.60715157 0.27292132 0.514193
0.61820936 0.26980713 0.50467777
-0.58821976 0.29612815 0.50583166
-0.57409775 0.29657942 0.51369393
0.59586185 0.28723109 0.5091899
0.58428484 0.30206072 0.50786954
-0.56517029 0.3175444 0.50903302
0.57330322 0.32034892 0.50568545
-0.56896758 0.33096749 0.51419443
-0.55296266 0.33480382 0.50891554
0.56241959 0.33849105 0.50351757
0.57553738 0.32550824 0.51541924
-0.55874765 0.34950477 0.50881648
-0.54254115 0.35365185 0.50655937
0.56443584 0.3439835 0.50946832
-0.54840857 0.36824423 0.50337583
-0.54243362 0.36341769 0.503429
0.55319297 0.36268187 0.50344157
-0.5322153 0.37232712 0.5042249
0.54202473 0.37686989 0.51661175
0.53030974 0.3919816 0.51435846
-0.52697498 0.40651786 0.51375514
0.51978898 0.40951914 0.5121907
0.53167737 0.39847392 0.51065701
-0.49764395 0.41929582 0.51667011
0.50794351 0.42406958 0.51077038
0.52009898 0.41774258 0.50456429
-0.48501781 0.43237838 0.51563305
0.49510774 0.43645746 0.50989527
0.50176466 0.43671542 0.51378626
-0.48836765 0.44518268 0.51020265
-0.47244698 0.44541806 0.51459765
0.48232037 0.44881231 0.50902069
0.50063914 0.44944602 0.51521122
-0.46185336 0.45688325 0.51228905
0.46957177 0.46111596 0.50815141
-0.44745538 0.47134155 0.51253933
0.45729676 0.47633094 0.50872552
0.47520536 0.47409499 0.51233292
-0.44786036 0.48736775 0.50901103
-0.435029 0.48421711 0.5115186
-0.42265695 0.49705088 0.51049954
0.4315896 0.49778605 0.50555915
0.44420424 0.48559821 0.50642192
-0.41840202 0.50946242 0.51211262
-0.41033369 0.50983346 0.50948465
0.41901281 0.50992393 0.50470155
0.44939256 0.49911153 0.50941163
-0.39801773 0.52249628 0.50849229
0.40647829 0.52202088 0.503847
0.41762891 0.52396309 0.50642926
-0.40073538 0.53236043 0.50518948
-0.39190671 0.53582531 0.50891668
-0.38342223 0.53127909 0.50853902
-0.36881867 0.54005474 0.50858814
0.39398608 0.53407729 0.50299519
-0.35421231 0.548832 0.50863719
0.36488938 0.55227405 0.50378418
0.37971735 0.54304701 0.50296545
0.38523114 0.54963928 0.51358694
-0.36113778 0.55652285 0.51109666
-0.35455662 0.5603295 0.50253475
-0.33960867 0.55761969 0.50868386
-0.32499677 0.56640047 0.50873303
0.33543453 0.56758517 0.50352138
0.35020632 0.55939978 0.50333595
0.36762336 0.5592702 0.51465678
-0.32911888 0.57392818 0.50489295
-0.31590298 0.57467908 0.5113712
-0.31038207 0.57518286 0.50878215
-0.29577029 0.58397543 0.50882882
0.30585846 0.58397394 0.5038929
0.32065198 0.57577652 0.50370711
0.32943842 0.57813174 0.50753742
-0.28115001 0.59276104 0.50887805
0.29105422 0.59217733 0.50407875
0.30268162 0.59472674 0.50651884
-0.27612439 0.60752547 0.505032
-0.26602793 0.60668159 0.50984496
-0.25190699 0.61034602 0.50897396
0.26109791 0.60976744 0.50852126
0.27623901 0.60038674 0.50426483
-0.23039216 0.6208716 0.50656629
-0.21738186 0.62071413 0.51112896
-0.199872 0.62574488 0.51226652
0.21246794 0.62715524 0.50674874
0.22910023 0.62413746 0.50562662
0.24879242 0.61937225 0.50768417
0.27049789 0.61759293 0.50545067
-0.20898423 0.62991506 0.51575685
-0.18228441 0.63079798 0.5134092
-0.16296667 0.6386863 0.51353878
-0.14688022 0.64097983 0.51570749
0.16084355 0.64112562 0.50677115
0.1769231 0.63602012 0.50932276
0.19067954 0.64251691 0.51669538
0.19474037 0.6315766 0.50803256
0.2137973 0.63007855 0.51050198
-0.16053207 0.6438027 0.50763279
-0.15245013 0.64339542 0.51359433
-0.12855366 0.64853197 0.51194149
0.10473818 0.65401357 0.51455212
0.11844479 0.65465981 0.50871515
0.12292074 0.64947873 0.51323545
0.14334954 0.64546603 0.51227772
0.15059979 0.64671743 0.51381522
-0.095618732 0.66120952 0.50782877
-0.076282874 0.66029644 0.50607413
-0.063451886 0.66177386 0.50916058
-0.048909452 0.66049266 0.51006603
-0.028209833 0.66085559 0.51018906
-0.015284069 0.66262078 0.51115918
-0.0021775705 0.66131574 0.51055276
0.013805844 0.6631797 0.51406288
0.028200848 0.66349274 0.51107478
0.044483621 0.66213942 0.5111165
0.053005926 0.66635293 0.51287812
0.070250414 0.66539001 0.51295292
0.084900245 0.66090995 0.50982124
0.098673292 0.66534144 0.51654708
-0.26960295 -0.77434009 0.53054464
-0.29382312 -0.76183522 0.5193038
-0.27148905 -0.76049095 0.52283478
-0.30047366 -0.75151795 0.52059156
-0.28949299 -0.75417018 0.5226118
-0.28217125 -0.75498599 0.52309245
-0.31276754 -0.73202741 0.52309644
-0.3000294 -0.7349894 0.51878184
-0.31841919 -0.71886086 0.52288932
-0.30277786 -0.71680218 0.52647132
-0.33199456 -0.70179099 0.52694237
-0.3132827 -0.70380682 0.52408689
-0.34171402 -0.68650633 0.5288865
-0.33348665 -0.69457102 0.52612442
-0.35150516 -0.67110902 0.53084493
-0.33828503 -0.67526656 0.52798462
-0.35631526 -0.6594975 0.52271807
-0.35112059 -0.65840513 0.52061743
-0.33784047 -0.65598315 0.52216214
-0.35926744 -0.6523121 0.51701832
-0.34650055 -0.65451592 0.52459043
-0.096704729 -0.64240915 0.5190953
-0.080224819 -0.64748096 0.53014392
-0.062464088 -0.64970785 0.52476799
-0.044559069 -0.64896721 0.52910191
-0.033585392 -0.64865136 0.52610272
-0.015175318 -0.6487655 0.52638191
0.0028445099 -0.64814413 0.52554935
0.014534008 -0.64776975 0.52805394
0.03045981 -0.64766431 0.52364087
0.036000825 -0.64841509 0.53062892
0.049841307 -0.64732784 0.52204692
0.066043571 -0.64579684 0.52655375
0.083718777 -0.64649767 0.52195859
0.096499503 -0.64608562 0.52653974
0.11500044 -0.64407921 0.52485913
-0.37537271 -0.62812042 0.52360082
-0.36777702 -0.63638592 0.52335608
-0.15930629 -0.62884462 0.52691329
-0.13268597 -0.63449436 0.52620411
-0.10839579 -0.63259202 0.53106254
0.13333736 -0.64119333 0.52616167
0.1480231 -0.63249254 0.52892959
0.15133029 -0.6360411 0.52498931
0.1692373 -0.63090289 0.52382451
-0.37923011 -0.62085307 0.52090001
-0.15971568 -0.62563246 0.52697593
0.16493936 -0.6252839 0.5211488
0.18706553 -0.62578744 0.5226649
0.20482135 -0.6207031 0.52150792
0.21746738 -0.61290175 0.51847136
0.22249323 -0.61563259 0.52035862
-0.38932636 -0.6049509 0.52286136
-0.37389669 -0.60411197 0.52601141
-0.36575305 -0.60930413 0.52990687
-0.24607451 -0.60556072 0.51790035
-0.22690283 -0.60983473 0.52310574
-0.20223022 -0.60915673 0.53037524
0.21611466 -0.6115188 0.52478504
0.23187658 -0.60599869 0.51879829
0.24008772 -0.61058414 0.51921403
0.25583458 -0.60352868 0.52202713
0.27505228 -0.60056192 0.51693779
-0.39949852 -0.58892906 0.52483755
-0.39190862 -0.595357 0.52296573
-0.37497702 -0.59157401 0.51760226
-0.40578756 -0.57436883 0.52598888
-0.28003007 -0.58105409 0.52870953
0.2987524 -0.57496834 0.5302096
-0.41642916 -0.56152296 0.52708429
-0.40342674 -0.55555105 0.52694291
-0.39136925 -0.56365401 0.52318394
0.31254196 -0.56828344 0.51821452
-0.33421257 -0.5491631 0.52053362
0.33443618 -0.55342859 0.52441645
-0.43081301 -0.538212 0.52852035
0.37346494 -0.53223217 0.52104825
-0.43643555 -0.51725149 0.52260357
-0.40133825 -0.5170027 0.52682829
0.41068342 -0.51670408 0.51853174
-0.44951412 -0.50328672 0.51857704
-0.43245202 -0.50781983 0.52785856
-0.41929331 -0.49968565 0.53008646
0.43634439 -0.49904591 0.51729774
-0.46017265 -0.48647246 0.52058613
-0.45059666 -0.49666166 0.52951127
0.42355689 -0.49584979 0.5312323
0.44898462 -0.48594537 0.51833653
-0.47091365 -0.4695279 0.52261084
0.44229287 -0.47650948 0.52144301
0.46168023 -0.47280157 0.51937717
-0.47391456 -0.46127376 0.53052276
-0.465592 -0.46043959 0.52444756
0.47442678 -0.45960522 0.5204221
-0.4828482 -0.4462432 0.52580619
0.48721966 -0.44634649 0.52147353
-0.49264711 -0.43524238 0.52670747
-0.4723089 -0.43715465 0.51721352
0.48151496 -0.43607476 0.52222228
0.4943797 -0.43095657 0.52178073
0.50006884 -0.43304384 0.52252686
-0.50435972 -0.41934258 0.52840894
-0.48989901 -0.41459686 0.52875513
0.51349342 -0.41866353 0.52055132
-0.51654619 -0.40412578 0.52661395
0.51819313 -0.40229005 0.52524602
0.52591795 -0.40626755 0.52464855
-0.52676189 -0.38291156 0.52966207
0.53892338 -0.39280331 0.52571452
0.54233468 -0.38830882 0.52766514
-0.52456427 -0.3680259 0.52218342
0.55054939 -0.37610668 0.52758318
0.54721493 -0.35986415 0.51978439
0.56120616 -0.35691026 0.53006029
-0.55708581 -0.3406159 0.53008783
-0.54945165 -0.34977245 0.51998401
0.55527198 -0.34264541 0.52307302
-0.5605464 -0.33134276 0.52393615
0.56523788 -0.3247377 0.52831727
-0.57321459 -0.31488657 0.52246559
-0.5513708 -0.32362339 0.52326441
0.56716758 -0.31366929 0.52038795
0.58004022 -0.31813675 0.51900327
-0.58457226 -0.29602563 0.52471435
0.59377784 -0.29821831 0.51962972
-0.58001935 -0.29440054 0.52001005
0.58409572 -0.29077092 0.52000695
-0.5933767 -0.27680972 0.52631062
-0.5777334 -0.2799401 0.52433896
0.59380376 -0.27332675 0.52521086
0.60285974 -0.27698708 0.52302891
-0.60444272 -0.25842488 0.53023505
0.60341084 -0.25606418 0.53036076
0.61601067 -0.2581504 0.52462924
-0.59870267 -0.23750287 0.53084332
0.61231244 -0.24000251 0.51701063
0.62728971 -0.23783275 0.52716392
-0.61214024 -0.22633624 0.51865423
0.62142843 -0.22850415 0.52373469
-0.6169157 -0.2096816 0.52121413
-0.60480225 -0.21634728 0.52415973
0.6302318 -0.21290144 0.52016217
-0.62397707 -0.20128816 0.51943797
-0.61086202 -0.19532916 0.51751953
0.62275678 -0.20699227 0.52271289
-0.62166679 -0.19311237 0.52376091
-0.053934276 -0.17986968 0.53008652
-0.034654722 -0.18379851 0.52555102
-0.015284004 -0.18709254 0.52174836
0.0041115242 -0.18593514 0.52308446
0.023480305 -0.18478787 0.52440894
0.042735908 -0.18114845 0.52861023
0.62682712 -0.19072524 0.52493507
-0.63236171 -0.17226964 0.52380848
-0.62639362 -0.17662786 0.52629471
-0.06396924 -0.17491941 0.5194962
0.63087147 -0.17453152 0.52714318
0.64301068 -0.17733815 0.51820832
-0.63109636 -0.16022748 0.52881557
-0.1114365 -0.15535827 0.52938843
-0.10198362 -0.15582831 0.52625877
-0.092645437 -0.16473109 0.5184027
0.10016026 -0.15623066 0.52836585
0.63489783 -0.15840992 0.52934146
-0.64088809 -0.14276117 0.52825272
-0.13069016 -0.13932678 0.51888925
0.1295649 -0.13709888 0.5258289
0.65092498 -0.14580916 0.52309251
-0.62858856 -0.13368559 0.52711797
0.65035415 -0.13195629 0.52633727
-0.6449728 -0.11189462 0.51815289
-0.63452935 -0.11308119 0.52051479
-0.14971884 -0.11573742 0.52978975
0.14760959 -0.11665808 0.51896566
0.64397192 -0.11439353 0.51923287
0.65718442 -0.11270937 0.52432972
-0.64960241 -0.095748737 0.52068061
-0.63625377 -0.10034549 0.52132839
-0.16330461 -0.095126703 0.52462238
0.15593418 -0.10539886 0.53000629
0.6507386 -0.094927929 0.52008516
-0.65174919 -0.079749167 0.52185261
0.65470284 -0.079085335 0.52228916
-0.65597248 -0.075599879 0.51952183
-0.17697389 -0.074297599 0.51942343
0.17552556 -0.074587442 0.5307318
-0.65202886 -0.0638199 0.52200538
-0.18542528 -0.063232414 0.52221888
0.18610877 -0.053366989 0.52679616
0.65801287 -0.063323997 0.52412951
-0.65231609 -0.047895476 0.52216226
0.65773565 -0.047652476 0.52397543
-0.65482861 -0.027083855 0.52558017
-0.64005142 -0.032152351 0.52900559
0.19069007 -0.031976074 0.52509242
0.65305138 -0.023813199 0.52277017
0.65745831 -0.031976074 0.52382118
0.66977549 -0.030423116 0.52266055
-0.65287495 -0.016061574 0.52246726
0.19069394 -0.016687617 0.52083725
0.19505715 -0.010513101 0.52346838
0.6571734 -0.016294729 0.52366287
-0.65315425 -0.00015196204 0.52261978
0.656896 -0.00060849637 0.52350849
-0.65344119 0.015752554 0.52277648
0.19597831 0.010964721 0.52312589
0.6566183 0.01508262 0.52335411
-0.65819055 0.033158869 0.51846933
-0.65372032 0.031652324 0.52292883
-0.64125359 0.026462868 0.51851076
0.19470412 0.032404333 0.52359968
0.65634066 0.030778624 0.52319986
-0.65399933 0.047547206 0.52308118
0.65606284 0.046479516 0.5230453
-0.65427834 0.063437201 0.52323347
0.19215958 0.053782493 0.52454597
0.65577745 0.062185697 0.52288669
-0.65456504 0.079321839 0.52339
-0.18851751 0.076540701 0.51750159
0.1851182 0.074938588 0.52716452
0.65549952 0.077896453 0.52273214
-0.64205664 0.081881233 0.52755708
0.65146464 0.08334171 0.52275908
0.65522158 0.093612097 0.52257764
-0.65170258 0.095422111 0.52182716
-0.17646889 0.09496399 0.51961547
0.17809908 0.095982365 0.52977479
0.66789669 0.098443426 0.52534652
-0.64766908 0.11166479 0.51962507
-0.63430071 0.11330324 0.52267462
-0.16614482 0.11553621 0.52354217
0.15881801 0.11760271 0.52814114
0.65422148 0.1093898 0.52202159
-0.64362544 0.12797901 0.51741743
-0.63408983 0.13027298 0.52100325
-0.15073761 0.13561252 0.52940214
0.15125762 0.13762394 0.51757812
0.64958984 0.12550464 0.51944649
-0.62779588 0.1476047 0.5223223
0.14026298 0.14264598 0.52854633
0.63772869 0.15087178 0.53030807
0.65320063 0.14770201 0.52308226
-0.63567269 0.15992227 0.53126878
0.13047445 0.15731117 0.52548289
-0.63159448 0.17637601 0.5290826
-0.113193 0.17134723 0.52514613
-0.10663725 0.1748223 0.52444917
0.10243312 0.1746619 0.52143317
0.6326859 0.17650059 0.52783442
0.64730626 0.16832504 0.52982295
-0.62749016 0.192904 0.52688253
-0.074163675 0.19197437 0.53106016
0.063324839 0.19425136 0.52854788
0.070093006 0.19496819 0.52677321
0.63114053 0.18974388 0.52729005
-0.62337548 0.2095049 0.52467686
-0.61186242 0.20417914 0.52680856
-0.054684255 0.19849932 0.52386039
-0.035038806 0.20335326 0.51850438
-0.015284004 0.20453373 0.51720184
0.024220608 0.20313033 0.51875049
0.043836515 0.19909996 0.52319771
0.62145984 0.20790723 0.52138638
0.62641007 0.20620245 0.52470738
0.62165481 0.22274736 0.52211124
-0.61923432 0.2261813 0.52245694
-0.60646582 0.23361969 0.52122676
0.61352813 0.23571491 0.51703668
0.62979245 0.22942403 0.52065736
-0.6150825 0.24293143 0.52023143
0.62032634 0.24492329 0.52347004
-0.60235888 0.25519925 0.52683705
-0.59562689 0.25762367 0.51856488
0.60572261 0.26305407 0.53053015
-0.59899044 0.27652502 0.52999306
-0.58909142 0.29447997 0.52478397
0.59635782 0.28640479 0.52743399
0.60647398 0.29200017 0.51772147
-0.57836288 0.29853269 0.52365917
0.58540058 0.30465481 0.52338731
-0.57907897 0.3126274 0.51951516
-0.56348103 0.31578049 0.52901226
0.57330316 0.32034883 0.5232107
-0.55296266 0.33480382 0.5265522
0.56241965 0.33849114 0.52096808
0.58038545 0.33555022 0.51741904
-0.55977023 0.34756908 0.5279572
-0.54828399 0.34806594 0.52227545
0.56560576 0.34203476 0.52851081
-0.54949784 0.36620075 0.52265173
0.551624 0.35646936 0.51874709
0.55442846 0.36062402 0.5226292
-0.5322153 0.37232712 0.52169973
0.55384564 0.37983829 0.51712281
-0.5342291 0.38604409 0.51722819
-0.52198362 0.39083183 0.51930672
0.53229743 0.3934834 0.52442735
-0.52980667 0.40183467 0.5312053
-0.51031584 0.40615132 0.5177139
0.51978886 0.40951905 0.52934855
-0.50939041 0.42326009 0.52085769
0.50794351 0.42406958 0.52788091
0.52152514 0.41536751 0.52399218
0.52570182 0.42515656 0.51804775
-0.50651479 0.42917052 0.51806569
-0.49027786 0.43141234 0.5254854
0.49510774 0.43645746 0.52697641
-0.48895624 0.44589031 0.52520597
0.48232034 0.44881219 0.52607292
0.50740063 0.44867164 0.53029329
-0.4658061 0.46310955 0.52400899
0.47552133 0.45871836 0.52368736
-0.44745538 0.47134161 0.52970874
0.45890117 0.47476846 0.52749658
0.48119563 0.47386491 0.52807301
-0.447184 0.4860028 0.52371979
-0.43502903 0.48421717 0.5286541
-0.42265683 0.49705064 0.52760118
0.4315896 0.4977861 0.52249599
0.44420415 0.48559815 0.52338743
-0.42906344 0.50800097 0.52216643
-0.41033369 0.50983346 0.52655226
0.41901281 0.50992393 0.5216099
0.43679881 0.49950242 0.51871103
0.45524657 0.49881238 0.52587432
-0.41146106 0.52628773 0.52395719
-0.3980177 0.52249622 0.52552694
0.40647838 0.522021 0.5207268
0.41562685 0.51996279 0.52736413
0.42955214 0.52351147 0.52371585
-0.40807977 0.5278492 0.52814013
-0.39641708 0.53373867 0.51881683
-0.38342217 0.53127897 0.52557528
-0.3688187 0.5400548 0.52562588
0.39398608 0.53407729 0.51984674
-0.37558812 0.54776555 0.53052253
-0.36241588 0.55550843 0.52591592
-0.35421234 0.54883212 0.52567661
0.36496729 0.55122048 0.52000731
0.37919456 0.54433703 0.52297723
-0.33960867 0.55761969 0.52572489
-0.32499677 0.56640047 0.52577561
0.33543468 0.56758535 0.52039045
0.34697422 0.56218612 0.52447879
-0.32911879 0.5739283 0.52440977
-0.32042366 0.5809381 0.52067769
-0.31038207 0.57518286 0.52582639
-0.29577029 0.58397543 0.52587473
0.30585846 0.58397394 0.52077419
0.32065198 0.57577652 0.52058214
0.33969131 0.57105851 0.5295952
0.35571647 0.57219791 0.51946115
-0.29089829 0.59857506 0.52429587
-0.2811501 0.59276122 0.52592546
0.29105422 0.59217733 0.52096629
0.30630383 0.59299469 0.52188611
-0.27948868 0.60143322 0.52559716
-0.26604086 0.60907501 0.52565497
-0.25190699 0.6103459 0.52602464
0.26141298 0.60860234 0.5213508
0.27623907 0.6003868 0.5211584
0.28250226 0.60288268 0.52267164
-0.25745544 0.61601853 0.52387553
-0.24582992 0.61665589 0.52663249
-0.23242104 0.61881232 0.52548981
-0.21738186 0.62071413 0.52825141
-0.19987209 0.62574494 0.52942693
0.21246789 0.62715518 0.52372521
0.2301123 0.62276417 0.52240288
0.24879242 0.61937225 0.5256424
-0.18980321 0.63246334 0.52517635
-0.16130851 0.64149082 0.53091824
0.15901561 0.6404863 0.52772516
0.17692319 0.6360203 0.52638507
0.18339421 0.63862395 0.51901543
0.19414166 0.63281375 0.52508658
0.21686468 0.63035685 0.524324
-0.14365855 0.64859158 0.5187012
-0.12751363 0.65214288 0.52742612
-0.11115278 0.65124488 0.51802868
-0.093175411 0.65642005 0.51919472
0.11844479 0.65465981 0.52697456
0.12589681 0.64980102 0.52633464
0.14101723 0.64497524 0.52907187
-0.096523628 0.65910143 0.51997048
-0.083846994 0.66308433 0.5247348
-0.072709806 0.65930146 0.51908726
-0.060922168 0.66435272 0.52013403
-0.044462025 0.66214019 0.5212009
-0.026650274 0.66011471 0.52771354
-0.015284218 0.66515589 0.51722014
-0.003641387 0.66052336 0.52759093
0.021552805 0.66105992 0.52326763
0.04439915 0.66143721 0.5204196
0.065308392 0.66174579 0.51840436
0.087217316 0.66212213 0.52189243
-0.29506803 -0.76396835 0.53553879
-0.30225059 -0.75199747 0.53623503
-0.29566637 -0.752765 0.5431217
-0.31562063 -0.73423433 0.53906232
-0.3050569 -0.73390079 0.53867149
-0.32064721 -0.71720278 0.53807467
-0.33496308 -0.70309579 0.54143071
-0.31542629 -0.69899422 0.54307717
-0.34383252 -0.68970925 0.54451865
-0.32749799 -0.69486475 0.53181595
-0.34541482 -0.67518181 0.5375455
-0.3313016 -0.67952144 0.5371303
-0.35503677 -0.66952062 0.54111528
-0.35911191 -0.65423375 0.54079062
-0.34043989 -0.65441638 0.53653139
-0.098301023 -0.64308721 0.53434861
-0.081128299 -0.64937484 0.53460473
-0.061490178 -0.64916098 0.53429407
-0.041375656 -0.65011972 0.5456205
-0.035652418 -0.64977461 0.54004747
-0.015120933 -0.6495297 0.54294348
0.0047282102 -0.64933771 0.54017651
0.027438415 -0.64895266 0.5374949
0.055167247 -0.64826465 0.53420997
0.072192185 -0.6481936 0.53221023
0.085097291 -0.64748663 0.53656745
0.11500044 -0.64407921 0.54306424
-0.3725087 -0.63750976 0.53893542
-0.36393377 -0.63199872 0.53959513
-0.14551516 -0.63120747 0.53353077
-0.12827824 -0.63452709 0.54147458
-0.11882257 -0.63999701 0.53187042
0.13195826 -0.63822597 0.54289234
0.14766635 -0.63029641 0.53162652
0.15133029 -0.6360411 0.54257387
0.1692373 -0.63090289 0.54137021
-0.37998962 -0.61759359 0.53632641
-0.21115685 -0.61485016 0.53694427
-0.19220367 -0.6174776 0.53215271
0.1849775 -0.62392938 0.53694546
0.20070867 -0.61847121 0.53938425
0.22249323 -0.61563259 0.53778863
-0.39209652 -0.60781491 0.54073083
-0.22534209 -0.6091519 0.53743434
0.21808986 -0.61188859 0.5395748
0.24141496 -0.60808682 0.53916001
0.25583458 -0.60352868 0.5404917
0.27505225 -0.6005618 0.53425395
-0.40155807 -0.59237921 0.5408603
-0.39615667 -0.59253818 0.54174328
-0.26108098 -0.59726351 0.53808147
0.26360092 -0.5961867 0.53591609
0.2901538 -0.59203929 0.53408927
-0.41155878 -0.57649231 0.5431456
-0.39115342 -0.57802576 0.5405038
-0.29530537 -0.57829195 0.53676718
0.30633658 -0.57645178 0.5341453
0.31982988 -0.57420188 0.53398722
-0.41926011 -0.55737466 0.53854793
-0.32988703 -0.55912608 0.53544784
0.31254196 -0.56828344 0.53824383
0.33466086 -0.56528121 0.53393745
0.34404409 -0.55818665 0.5340448
-0.42962328 -0.54650986 0.54413128
-0.33416671 -0.55101562 0.536502
0.35058069 -0.54398203 0.53940314
0.36432004 -0.54745382 0.53383523
-0.43077579 -0.53373349 0.53899783
-0.42071366 -0.53231502 0.53965414
-0.36483413 -0.53975403 0.5341059
0.37922895 -0.53319472 0.53295499
0.39396277 -0.52962434 0.53373575
-0.44770598 -0.51669121 0.54485977
-0.44096404 -0.52361828 0.5328933
-0.38406774 -0.52532703 0.53607249
0.39010835 -0.52026153 0.53709787
0.40878502 -0.52072102 0.53368348
0.42359945 -0.51181036 0.53363365
-0.45058909 -0.50730187 0.53978801
-0.43109655 -0.50611478 0.53805739
0.42126632 -0.50593841 0.53808904
0.43634439 -0.49904591 0.53462583
-0.46387067 -0.48871562 0.54129803
-0.4495104 -0.4849157 0.54045892
0.44898462 -0.48594537 0.53569943
-0.47289923 -0.47330123 0.539101
-0.46455312 -0.47635859 0.53631914
-0.43735281 -0.48226768 0.5333637
0.44519627 -0.4777132 0.5423063
0.46168032 -0.47280174 0.53677469
-0.48101893 -0.45630202 0.54211968
-0.45551786 -0.46474797 0.53666008
0.46326187 -0.45492423 0.53187025
0.47442678 -0.45960522 0.53785437
-0.4737893 -0.44712564 0.53997582
0.48721966 -0.44634649 0.53894091
-0.49338758 -0.43425471 0.54331458
-0.4753387 -0.43467993 0.53926301
0.48379529 -0.43378749 0.54208088
0.50006878 -0.43304384 0.54002923
-0.50558847 -0.42181358 0.54545164
-0.49751908 -0.42036197 0.53370482
0.50177157 -0.41523078 0.53248894
0.51296973 -0.41968769 0.5411219
-0.51654851 -0.39989167 0.54316747
0.52591807 -0.40626773 0.54222161
-0.52873653 -0.38874808 0.53145951
-0.51026213 -0.3916539 0.53719419
0.52160484 -0.39481527 0.54254109
0.53895599 -0.3887898 0.53824711
-0.53971076 -0.37050575 0.53371084
0.53603703 -0.3772774 0.53148723
0.55054945 -0.37610686 0.54525405
-0.53798908 -0.36426938 0.53535241
0.54616082 -0.35908538 0.53671598
-0.54993081 -0.34898111 0.53847569
-0.53738159 -0.34673369 0.53815967
0.56048632 -0.34095114 0.53819579
-0.56194872 -0.3335768 0.53826559
0.57195848 -0.33752334 0.53256339
-0.57321459 -0.31488657 0.54056948
-0.57003343 -0.31100222 0.53325808
0.58281678 -0.31796363 0.5350877
-0.58457226 -0.29602569 0.54289567
-0.56405932 -0.30254492 0.53910929
0.57509875 -0.30701843 0.53350627
0.59121698 -0.29799193 0.53758103
-0.5807997 -0.29310086 0.5388186
0.5848484 -0.28948572 0.53863668
-0.59373832 -0.27620727 0.54477781
0.59450459 -0.27213445 0.54371792
0.60483915 -0.27827436 0.54021066
-0.59029585 -0.2590712 0.54005504
0.61409801 -0.25673157 0.54165828
-0.60761535 -0.24208274 0.53453159
0.61291838 -0.23898041 0.53545725
0.62728971 -0.23783275 0.54542983
-0.6157304 -0.2298286 0.53362828
-0.61239225 -0.22542325 0.53704536
-0.61714488 -0.20884898 0.53954625
0.61893082 -0.22242799 0.53868014
-0.62397701 -0.20128807 0.53808028
0.62299186 -0.20616758 0.54085708
0.6352421 -0.20828646 0.53184146
-0.6218732 -0.1923593 0.54203439
0.63107586 -0.19164318 0.54339337
-0.63236183 -0.17226981 0.54260683
-0.62158406 -0.17562535 0.54248172
-0.073073648 -0.17453414 0.53624594
-0.065126479 -0.17437482 0.54059184
0.059530083 -0.17524625 0.53383291
0.080684662 -0.16855109 0.54315299
0.63564771 -0.1733017 0.54155177
0.64301062 -0.17733797 0.53680688
-0.6226092 -0.1544238 0.53376412
0.10026154 -0.15670146 0.53697419
0.64530057 -0.15229124 0.53211659
-0.63578296 -0.14391005 0.53132784
0.11842143 -0.14429398 0.54235679
0.63891399 -0.1423595 0.53153408
0.65092492 -0.14580916 0.54186529
-0.6404379 -0.12767601 0.53382313
-0.14860612 -0.12342112 0.53781891
-0.12800841 -0.13579983 0.53804719
0.13735326 -0.12626201 0.53443801
0.6429047 -0.12638074 0.53371292
-0.64731443 -0.11213721 0.53453922
0.14798783 -0.11631171 0.54097277
0.64403236 -0.11420932 0.53829849
-0.6496774 -0.095453836 0.53877586
-0.6382677 -0.096656993 0.54238671
-0.1668005 -0.098318338 0.53856319
0.16504128 -0.095639817 0.53463089
0.65084082 -0.094634503 0.53804582
-0.6517368 -0.079530537 0.53987986
0.65478635 -0.078866228 0.54019994
0.66375542 -0.086463138 0.53857046
-0.65597248 -0.075599879 0.53885758
-0.64236534 -0.072591379 0.54094672
-0.17703125 -0.074119337 0.54153961
0.17316064 -0.074338064 0.53826404
0.66530246 -0.07186842 0.53820187
-0.65201509 -0.063674197 0.54002911
-0.6427238 -0.052279744 0.54054242
-0.18404718 -0.053104211 0.53893048
0.66260463 -0.05754026 0.53899676
-0.65229338 -0.04782271 0.54017818
0.65775269 -0.047580149 0.54181933
-0.65257925 -0.031976074 0.54033148
-0.64308208 -0.031976074 0.54013848
-0.19108582 -0.031976074 0.53631294
0.1894166 -0.023203962 0.54259795
0.65305126 -0.023813371 0.54222649
0.66214848 -0.031976074 0.53905505
0.66977549 -0.030423116 0.54211283
-0.65285736 -0.016134355 0.54048061
-0.6434502 -0.011680476 0.53972358
-0.19409476 -0.010767024 0.53519392
0.66183138 -0.014205061 0.53918093
-0.65313554 -0.00029749423 0.54062963
0.6615178 0.003572315 0.53930914
-0.64861077 0.01207085 0.54004925
-0.19535425 0.010462314 0.53472555
0.19207753 0.010930188 0.53759617
0.19600807 0.010784149 0.5454818
0.65664053 0.014865361 0.54121226
-0.65819067 0.033158869 0.53850847
-0.64893264 0.030124158 0.53992397
-0.64125359 0.026462868 0.53780913
-0.19503941 0.031673901 0.53484279
0.65224141 0.030732848 0.53231716
0.6636619 0.030324161 0.53754473
-0.64925522 0.048170947 0.53979123
0.66075212 0.046960346 0.53948998
-0.65425438 0.063001148 0.54122943
-0.19071205 0.052751161 0.536452
0.65580362 0.061750777 0.54075527
-0.64971173 0.074117817 0.53973842
-0.18672746 0.076478593 0.54087907
0.66029602 0.072578512 0.53954071
-0.64418602 0.089748465 0.53889394
-0.17669111 0.094437279 0.54166615
0.17645983 0.086620696 0.5349974
0.65146464 0.08334171 0.54152
0.65998197 0.090386264 0.53966904
-0.65182173 0.094829895 0.53992546
0.65441948 0.10872329 0.5399996
0.66612935 0.10308229 0.54247147
-0.64898485 0.11435584 0.53574204
-0.63666189 0.11187034 0.54307377
-0.16972391 0.11418406 0.53208768
-0.16639397 0.11492569 0.54549545
0.16513123 0.11657772 0.53459746
0.64607251 0.12161925 0.5348838
-0.64378303 0.12723219 0.53561622
-0.15099542 0.13777071 0.53408998
0.15169562 0.13693407 0.53959394
0.64981025 0.12476025 0.53748316
0.65883183 0.12817529 0.54570723
-0.63973302 0.14354137 0.53344524
-0.6266818 0.14414051 0.53647065
0.64517719 0.1408802 0.53495365
-0.13255261 0.15707403 0.53760332
0.1208735 0.159863 0.53800952
0.64052761 0.15708306 0.53241515
-0.62144798 0.17320758 0.53207892
0.10729097 0.1764681 0.53430057
0.62952554 0.17963022 0.5440287
-0.62308311 0.19243371 0.54175466
-0.09344732 0.18437046 0.53945071
-0.073493242 0.19254094 0.53733802
0.082436562 0.18466133 0.53912973
0.63144988 0.18868992 0.5453909
0.64137286 0.18908459 0.53660828
-0.62362921 0.20837021 0.5429585
-0.61186248 0.20417914 0.54506212
0.004308511 0.20562044 0.54469341
0.62145984 0.20790729 0.53945297
0.63107139 0.20752472 0.54315323
-0.61317366 0.21417016 0.54425192
0.62201118 0.22153017 0.54033148
-0.61950803 0.22496551 0.54078984
-0.60465026 0.23339847 0.54019761
0.61539143 0.23689699 0.53636748
-0.61537641 0.24163386 0.5386157
-0.60879368 0.25875682 0.53515178
-0.59562683 0.25762358 0.53653425
0.61247343 0.25471514 0.53521878
-0.58986884 0.27776945 0.54052287
-0.58481395 0.27719808 0.53400159
0.60766703 0.27143854 0.53264225
0.61772299 0.27165103 0.53426522
-0.58994633 0.29284966 0.54354268
-0.57409775 0.29657942 0.53149521
0.59535682 0.28360444 0.54542816
0.59834057 0.28756931 0.54573649
-0.57999676 0.31089586 0.53840393
0.58591819 0.30378675 0.54156488
-0.56561208 0.32155651 0.53743201
0.57497323 0.32200748 0.53752744
0.59284979 0.31480721 0.53286499
-0.56994152 0.32913408 0.53321052
-0.55296266 0.33480391 0.54418874
0.56241959 0.33849105 0.53841853
-0.54254115 0.35365176 0.54167014
-0.55057609 0.36417806 0.54173189
-0.54101998 0.36596629 0.5342856
0.54912412 0.36109143 0.53994393
0.56104577 0.35873291 0.53715849
-0.53622913 0.37761655 0.53783464
0.54266506 0.37579736 0.53482747
-0.52198362 0.39083174 0.5367018
0.53030974 0.39198151 0.53158861
-0.51145017 0.40897828 0.53490627
0.53959161 0.4036977 0.53251958
-0.51184767 0.42064324 0.54082996
-0.49764395 0.41929582 0.53397739
0.50794345 0.42406949 0.54499143
0.52292788 0.41301936 0.54321176
0.53386492 0.42322871 0.53253549
-0.48501781 0.43237838 0.5329057
0.49510774 0.43645746 0.54405791
0.5046522 0.43390122 0.53394902
-0.47244704 0.44541812 0.53183573
0.48340908 0.45109183 0.5427776
-0.47236755 0.46174997 0.54013091
0.46957174 0.46111584 0.54219794
0.45686644 0.47337782 0.54127389
-0.42265686 0.4970507 0.54470265
0.4315896 0.49778605 0.53943276
0.44218442 0.49091506 0.5398432
-0.43163684 0.50415874 0.53940976
-0.41033369 0.50983346 0.54361999
0.41901281 0.50992405 0.53851807
0.4452613 0.50321752 0.54330969
-0.39801773 0.52249628 0.54256153
0.40647832 0.52202094 0.5376066
-0.39641708 0.53373867 0.53886926
-0.38342217 0.53127897 0.54261136
-0.36881861 0.54005462 0.54266375
0.39369801 0.53714979 0.53923553
0.41882524 0.52883875 0.54057813
-0.36604342 0.54457349 0.53238106
-0.35421231 0.548832 0.54271615
0.36496726 0.55122048 0.5368638
0.37971735 0.54304701 0.53666621
0.4055661 0.54470927 0.53194982
-0.3399421 0.56326389 0.53987575
-0.32499677 0.56640047 0.54281825
0.33543462 0.56758529 0.53725934
0.35020635 0.55939984 0.53706151
0.36762345 0.55927014 0.5345493
-0.32904929 0.57274687 0.54164499
-0.31038207 0.57518286 0.54287064
-0.29577029 0.58397543 0.54292053
0.30585852 0.583974 0.53765541
0.31493491 0.57993329 0.53439879
-0.30550873 0.58972663 0.54335654
-0.2811501 0.59276122 0.54297292
0.29105422 0.59217733 0.53785378
0.30630374 0.59299475 0.54130954
-0.27488536 0.60845888 0.54509008
-0.26652697 0.60154855 0.54302543
-0.25190708 0.61034602 0.54307526
0.26141295 0.60860223 0.53825063
0.27566463 0.60168749 0.5359723
-0.24002464 0.62096363 0.53484732
-0.23242103 0.61881226 0.54343295
-0.22008647 0.62328351 0.54553449
0.21246789 0.62715518 0.54070169
0.23011234 0.62276423 0.53933668
0.24396133 0.61924303 0.53743356
-0.19529277 0.63181168 0.53674483
-0.17574695 0.63805217 0.53777319
-0.16462487 0.63588184 0.53179127
-0.14688031 0.64098001 0.53298253
0.15934628 0.6414566 0.54445845
0.17672467 0.63713986 0.53904909
0.18339421 0.63862395 0.5376426
0.19474033 0.63157654 0.54207104
0.21602967 0.63343537 0.54051149
-0.1285536 0.64853191 0.53879708
-0.11115269 0.65124476 0.5353812
-0.093175411 0.65642005 0.53658611
0.10473818 0.65401357 0.53178865
0.11533421 0.65445012 0.5384956
0.15059979 0.64671743 0.53225666
-0.11048206 0.65800059 0.54044807
-0.096523628 0.65910143 0.53798836
-0.072709806 0.65930146 0.53677368
-0.049671721 0.65971023 0.53663564
-0.028398691 0.65994495 0.54399735
-0.0015438064 0.66067851 0.5437699
0.017143069 0.66080427 0.53172749
0.021552805 0.66105992 0.54079467
0.042332463 0.66133696 0.53615087
0.065308392 0.66174579 0.53606921
0.086839944 0.66034693 0.53656638
0.095737688 0.65831745 0.54118025
0.1224359 0.65952009 0.53766429
-0.29553083 -0.77563679 0.55738801
-0.29813817 -0.7678445 0.54998773
-0.28540182 -0.75910407 0.55090541
-0.31518707 -0.74317271 0.55806226
-0.30521223 -0.75381792 0.55471563
-0.29070914 -0.74304211 0.54956478
-0.31469491 -0.73521459 0.55694473
-0.3266077 -0.72319722 0.55601066
-0.32426408 -0.71465617 0.54744464
-0.33541754 -0.70960772 0.55838758
-0.31957972 -0.70715314 0.55177718
-0.33669776 -0.69272983 0.55346262
-0.35060096 -0.67593223 0.55203515
-0.3634623 -0.65887159 0.54856092
-0.37304327 -0.64573717 0.55531931
-0.34920335 -0.65538085 0.55011034
-0.09739054 -0.64329535 0.55492586
-0.081128299 -0.64937484 0.55250978
-0.062464125 -0.64970791 0.55194569
0.0047282102 -0.64933783 0.55826724
0.011852158 -0.64887625 0.54599178
0.027438415 -0.64895266 0.55549616
0.04032499 -0.6452626 0.55357015
0.055167247 -0.64826465 0.55240995
0.072192185 -0.6481936 0.55003554
0.085097291 -0.64748651 0.5551576
0.094242238 -0.64781964 0.54734504
-0.37953761 -0.62918812 0.55206341
-0.35297641 -0.64092076 0.54607284
-0.15614158 -0.63072294 0.54688501
-0.13268597 -0.63449436 0.55381852
-0.11575149 -0.63642734 0.55310506
-0.064627416 -0.64022285 0.55846119
-0.010969417 -0.631163 0.55829668
0.10232351 -0.63274473 0.55795461
0.11367632 -0.6401639 0.55225253
0.14844991 -0.63202679 0.54693872
0.15133029 -0.6360411 0.56015831
0.16923735 -0.63090301 0.55891591
-0.383434 -0.61321306 0.55833077
-0.19310637 -0.61831027 0.54849678
-0.17701823 -0.62339646 0.55446458
-0.16302438 -0.62258834 0.55230373
-0.13244575 -0.62651306 0.55088407
-0.064627416 -0.62060195 0.55846119
0.044649154 -0.62177217 0.55812609
0.16209486 -0.62300432 0.55780905
0.17231713 -0.62581038 0.55317444
0.18306559 -0.62304437 0.55355495
0.20482135 -0.62070322 0.556445
0.22249323 -0.61563259 0.55521882
-0.39198476 -0.610416 0.55650723
-0.37929344 -0.60580599 0.55084258
-0.24231766 -0.60712451 0.55791187
-0.22534209 -0.6091519 0.5567193
-0.21464168 -0.60972214 0.55884522
-0.16633308 -0.60059053 0.55871999
-0.11636568 -0.61042172 0.5585953
-0.064614683 -0.6009841 0.55845612
-0.010969417 -0.61119014 0.55829668
0.044649154 -0.60143435 0.55812609
0.10232351 -0.61202854 0.55795461
0.16209486 -0.60189617 0.55780905
0.22792406 -0.60728842 0.55824155
0.24281745 -0.60637808 0.55097532
0.25799432 -0.60185957 0.54996425
0.27505234 -0.60056198 0.55156994
-0.40361539 -0.59582555 0.55682224
-0.39455143 -0.59305882 0.5545646
-0.27590895 -0.58906484 0.5580225
-0.21464168 -0.59108514 0.55884522
-0.11636568 -0.59114021 0.5585953
-0.010956345 -0.59122026 0.55829155
0.10230906 -0.59130931 0.55795991
0.22417207 -0.59137291 0.55765784
0.27388164 -0.590042 0.55535907
0.29015374 -0.59203917 0.55140024
-0.40825844 -0.57197481 0.54967433
-0.31000572 -0.57016414 0.55681944
-0.29029581 -0.57706666 0.5518961
-0.27786428 -0.58060783 0.54861981
-0.26136169 -0.58189231 0.55896646
-0.21464168 -0.57244819 0.55884522
-0.16633308 -0.58163673 0.55871999
-0.11636568 -0.5718587 0.5585953
-0.064614683 -0.58136314 0.55845612
-0.010956345 -0.57124722 0.55829155
0.044662829 -0.58109957 0.55812085
0.10230906 -0.57059324 0.55795991
0.16208006 -0.58078492 0.55781454
0.22417207 -0.56985766 0.55765784
0.30499047 -0.58311528 0.55134869
0.31982988 -0.57420188 0.55129468
-0.40885136 -0.557091 0.55157447
-0.30659106 -0.55495781 0.55909288
-0.26136169 -0.5635618 0.55896646
-0.16634469 -0.56268018 0.55872482
-0.064614683 -0.56174213 0.55845612
0.044662829 -0.56076163 0.55812085
0.16208006 -0.55967689 0.55781454
0.28873953 -0.55850667 0.55748379
0.3166427 -0.56578714 0.5510233
0.33466095 -0.56528121 0.55124336
0.34948918 -0.55636221 0.55119187
-0.43250552 -0.54371154 0.54705048
-0.42565179 -0.55131966 0.55681264
-0.34305489 -0.54990882 0.5554474
-0.26137251 -0.54522872 0.55897117
-0.21464168 -0.55381119 0.55884522
-0.16634469 -0.5437265 0.55872482
-0.11636568 -0.5525772 0.5585953
-0.064614683 -0.54212117 0.55845612
-0.010956345 -0.55127418 0.55829155
0.044662829 -0.54042369 0.55812085
0.10230906 -0.54987717 0.55795991
0.22415659 -0.54833943 0.5576635
0.36432004 -0.54745382 0.55113792
-0.44297856 -0.52724165 0.54914534
-0.42100289 -0.52823955 0.55634654
-0.37926847 -0.53177387 0.55438399
-0.35038984 -0.52887893 0.5592199
-0.30660149 -0.5369215 0.55909753
-0.26137251 -0.52689821 0.55897117
-0.21464168 -0.53517419 0.55884522
-0.11636568 -0.53329563 0.5585953
-0.010956345 -0.5313012 0.55829155
0.10230906 -0.52916116 0.55795991
0.16208006 -0.53856885 0.55781454
0.22415659 -0.5268243 0.5576635
0.28873953 -0.53656793 0.55748379
0.35858923 -0.53944641 0.55766094
0.37922895 -0.53319472 0.55188775
0.39204147 -0.52932703 0.55252427
-0.44494334 -0.51306576 0.54577553
-0.39107078 -0.52149695 0.55854088
-0.30660149 -0.51888776 0.55909753
-0.21464168 -0.51653725 0.55884522
-0.16634469 -0.52477276 0.55872482
-0.11636568 -0.51401412 0.5585953
-0.064614683 -0.52250022 0.55845612
0.044662829 -0.52008581 0.55812085
0.1620651 -0.51745802 0.5578199
0.28872338 -0.51462632 0.5574894
0.35595104 -0.52432942 0.55728567
0.40319732 -0.51633793 0.55535829
0.42359945 -0.51181036 0.55092973
-0.45353177 -0.51064575 0.55125624
-0.43791494 -0.50920737 0.55228156
-0.41221231 -0.50128859 0.54927474
-0.39280501 -0.50362027 0.55933845
-0.35038984 -0.51113242 0.5592199
-0.30660149 -0.50085396 0.55909753
-0.26137251 -0.50856781 0.55897117
-0.21464168 -0.49790028 0.55884522
-0.16634469 -0.50581902 0.55872482
-0.064602129 -0.50288177 0.55845118
-0.010956345 -0.51132816 0.55829155
0.044662829 -0.49974796 0.55812085
0.10229479 -0.50844246 0.55796522
0.22414094 -0.50530642 0.55766898
0.35595104 -0.50194973 0.55728567
0.43634444 -0.499046 0.55195397
-0.46154538 -0.49330169 0.5529238
-0.39280501 -0.48615193 0.55933845
-0.35038984 -0.49338588 0.5592199
-0.30660149 -0.48282024 0.55909753
-0.26137251 -0.49023736 0.55897117
-0.16634469 -0.48686534 0.55872482
-0.11636568 -0.49473262 0.5585953
-0.064602129 -0.48326069 0.55845118
-0.010943102 -0.49135765 0.55828649
0.10229479 -0.48772654 0.55796522
0.1620651 -0.49635014 0.5578199
0.22414094 -0.48379141 0.55766898
0.28872338 -0.49268767 0.5574894
0.42606872 -0.49096063 0.55426019
0.44898456 -0.48594528 0.55306208
-0.47379369 -0.47482401 0.55729187
-0.44751179 -0.48110554 0.54964113
-0.4339391 -0.47913516 0.5594666
-0.39280501 -0.46868363 0.55933845
-0.35038984 -0.47563934 0.5592199
-0.26137251 -0.47190693 0.55897117
-0.21464168 -0.47926334 0.55884522
-0.11636568 -0.47545111 0.5585953
-0.010943102 -0.47138456 0.55828649
0.044662829 -0.47941002 0.55812085
0.16205022 -0.47523969 0.55782533
0.28872338 -0.47074899 0.5574894
0.35595104 -0.47957006 0.55728567
0.46168032 -0.47280174 0.55417216
-0.48568156 -0.46008691 0.55768704
-0.4832218 -0.45812443 0.54629046
-0.46117738 -0.46067008 0.55199856
-0.4339391 -0.46193671 0.5594666
-0.35038984 -0.45789284 0.5592199
-0.30660149 -0.46478647 0.55909753
