ply
format ascii 1.0
comment PCL generated
element vertex 657
property float x
property float y
property float z
element camera 1
property float view_px
property float view_py
property float view_pz
property float x_axisx
property float x_axisy
property float x_axisz
property float y_axisx
property float y_axisy
property float y_axisz
property float z_axisx
property float z_axisy
property float z_axisz
property float focal
property float scalex
property float scaley
property float centerx
property float centery
property int viewportx
property int viewporty
property float k1
property float k2
end_header
-0.027146252 0.43062776 -0.84005016
-0.005741287 0.43018922 -0.84340084
0.01561209 0.43018922 -0.84340084
0.036994737 0.4306868 -0.83959866
-0.048768349 0.45346451 -0.82953113
-0.027135925 0.45191395 -0.84072095
-0.0057620127 0.45191568 -0.84070879
0.01561209 0.45191568 -0.84070879
0.036986098 0.45191395 -0.84072095
0.05851952 0.45334867 -0.83036661
-0.04857251 0.47368428 -0.83801121
-0.027177455 0.47368255 -0.83802366
-0.0057827774 0.47368428 -0.83801121
0.01561209 0.47368428 -0.83801121
0.037006862 0.47368255 -0.83802366
0.058401823 0.47368428 -0.83801121
-0.027219063 0.49549341 -0.83532083
-0.0058034863 0.49549341 -0.83532083
0.01561209 0.49549517 -0.83530861
0.037027664 0.49549341 -0.83532083
-0.027260756 0.51734674 -0.83261287
-0.0058243331 0.51734674 -0.83261287
0.01561209 0.51734674 -0.83261287
0.037048511 0.51734674 -0.83261287
-0.027611615 0.4129715 -0.80982375
-0.0058980398 0.4113439 -0.82303816
0.01561209 0.41121012 -0.82412452
0.037207067 0.41270143 -0.81201619
-0.049153015 0.4341841 -0.81287479
0.058714069 0.43354875 -0.81773013
-0.048860177 0.49699691 -0.82555509
0.058579937 0.49686038 -0.82644242
-0.0061348602 0.39338613 -0.79227436
0.01561209 0.39300182 -0.7956028
-0.049542293 0.41467199 -0.7960183
0.058992594 0.41422591 -0.79963928
0.080765314 0.45810115 -0.79606867
0.080731608 0.47960553 -0.79752821
-0.049650922 0.52402294 -0.79131478
0.058949336 0.52222288 -0.80244941
-0.028142614 0.39534211 -0.77533454
0.03743089 0.39446387 -0.78294051
0.081081994 0.43817806 -0.78235602
-0.071569711 0.45950004 -0.78597414
-0.071718708 0.48200318 -0.78113502
-0.006252192 0.54819602 -0.77703243
0.01561209 0.54594839 -0.79030389
0.059642695 0.39741138 -0.75741452
-0.072342493 0.44098884 -0.76087719
0.081439145 0.50602883 -0.76689112
-0.0065299086 0.37716973 -0.74095589
0.01561209 0.3764677 -0.74747086
-0.050592229 0.39820349 -0.75055474
0.081807405 0.42022344 -0.75094455
0.10437108 0.46659735 -0.73475307
-0.029061718 0.37989852 -0.71563697
0.037906226 0.3792997 -0.72119272
0.082555518 0.40189898 -0.71855032
-0.073247783 0.42262125 -0.73147702
-0.073197521 0.51122981 -0.73310947
-0.074171893 0.4038718 -0.70146549
0.10541388 0.44883949 -0.7008872
-0.096086793 0.46929771 -0.71526396
0.082834437 0.5377382 -0.70647275
0.03801696 0.56008893 -0.70680761
-0.0070007667 0.36114901 -0.6797899
0.01561209 0.36067861 -0.68449092
-0.05199936 0.38270187 -0.68962431
0.060610965 0.38217396 -0.69452369
-0.097238794 0.45087481 -0.68533397
0.10585597 0.49584028 -0.68653023
-0.074869186 0.54220867 -0.67882049
-0.02948706 0.5632726 -0.68801022
-0.075357512 0.3855755 -0.6629616
0.083737738 0.38510159 -0.66735876
0.10648021 0.43065426 -0.66625714
-0.098005943 0.49893028 -0.66540301
-0.030020477 0.36379349 -0.65336359
0.038400814 0.36343512 -0.65694416
-0.098414809 0.43206784 -0.65478015
-0.053467929 0.36652857 -0.62603319
0.061621681 0.36624414 -0.62887514
-0.099615596 0.41286489 -0.62358296
0.10752614 0.41185954 -0.63228953
0.107858 0.52841145 -0.62151206
-0.0074920859 0.34443194 -0.61596572
0.01561209 0.34418076 -0.61868453
-0.12354606 0.46146327 -0.60442388
0.1312422 0.46032423 -0.61312771
0.13149935 0.48437592 -0.60644674
-0.1001941 0.53040642 -0.60855293
-0.031024197 0.34699965 -0.58817017
0.038916945 0.34684008 -0.58989608
-0.077351823 0.36931455 -0.59819424
0.085283786 0.36909255 -0.60041273
-0.10085364 0.39328587 -0.59141743
0.10859688 0.39262852 -0.59751642
-0.12400713 0.48603943 -0.59444129
-0.054279394 0.57971931 -0.59089613
0.062086284 0.57839781 -0.59869862
-0.12503667 0.44224516 -0.57215118
0.13264072 0.44167349 -0.57679319
-0.008005226 0.3269724 -0.54930651
0.01561209 0.32692441 -0.54987216
-0.055001721 0.349637 -0.55961847
0.062673852 0.34955239 -0.56053495
-0.10212371 0.37329489 -0.55842018
0.10969239 0.37294295 -0.56193841
-0.10252781 0.56336951 -0.54792142
0.10991479 0.56227094 -0.55471599
-0.07943555 0.35232472 -0.53052342
0.086896077 0.35231775 -0.53059876
-0.12655956 0.42261088 -0.53917956
0.13402909 0.4224329 -0.54072237
-0.12675987 0.51802641 -0.53484237
0.13414733 0.51761574 -0.53765011
-0.0080933403 0.61240667 -0.53786016
0.01561209 0.61167747 -0.54197931
-0.032073066 0.32945028 -0.52004421
0.03945712 0.32947719 -0.51972556
-0.15134647 0.4726527 -0.51892114
0.15867317 0.47252163 -0.51992285
-0.056605153 0.33197844 -0.49018753
-0.10433884 0.355064 -0.50086927
0.11159744 0.35513797 -0.50007033
-0.12811649 0.40254849 -0.50547075
0.1354508 0.40273014 -0.50378525
-0.0085431207 0.30873394 -0.47943223
0.01561209 0.30885872 -0.47781169
0.063775502 0.33208051 -0.48898053
-0.12970719 0.38204038 -0.47103131
-0.15318619 0.45300636 -0.48478031
0.16043626 0.45337963 -0.48175097
-0.12970068 0.55155772 -0.47117221
-0.080787718 0.5973807 -0.48661053
0.087959222 0.59772754 -0.48456287
-0.033109888 0.31079182 -0.45270073
0.039977469 0.31083569 -0.45213044
-0.081555128 0.33439177 -0.46168792
0.088510059 0.33447433 -0.46071112
0.13691372 0.382566 -0.46577752
-0.15466085 0.50502658 -0.45741391
0.13691914 0.55240995 -0.46563613
-0.10685673 0.33661324 -0.43545282
0.11360145 0.33665255 -0.43498826
-0.15514217 0.43308374 -0.44848168
0.16229784 0.43389624 -0.4414463
-0.0090260021 0.28892469 -0.41670394
0.01561209 0.28896961 -0.41605568
-0.05808989 0.31285504 -0.42589653
0.064741038 0.31282657 -0.42626715
-0.13152967 0.36146557 -0.43157303
0.13857907 0.36230272 -0.42250991
-0.083490118 0.31493738 -0.39884722
0.089912653 0.31485036 -0.39997756
-0.15732378 0.41305357 -0.40799606
0.16432747 0.41418442 -0.3975035
-0.034085996 0.29082325 -0.38930035
0.04045365 0.29075605 -0.39027238
-0.13341978 0.34040701 -0.39065123
0.14010967 0.3410764 -0.38274419
-0.059579223 0.29275578 -0.36140656
0.065698877 0.29257238 -0.36405349
-0.10924639 0.31689873 -0.37336743
0.11550297 0.31690893 -0.37323451
-0.15956187 0.39250493 -0.36646235
-0.0095253382 0.26828119 -0.35183835
0.01561209 0.26832286 -0.35116339
-0.13541293 0.31889015 -0.34749806
0.14165533 0.31926835 -0.34258664
0.16641329 0.39391765 -0.35234416
-0.035102025 0.27003825 -0.32330787
0.040961489 0.26997697 -0.32430279
-0.085446529 0.29456365 -0.33531117
0.091370657 0.29445758 -0.33684385
-0.16185865 0.37141743 -0.32383955
-0.18665947 0.44644108 -0.3328048
-0.11173049 0.29639858 -0.30882859
0.11747923 0.29638296 -0.30905378
0.16854964 0.37305698 -0.30609083
-0.010045333 0.24678382 -0.28428888
0.01561209 0.24682161 -0.28358626
-0.061081618 0.27169845 -0.29635131
0.066731021 0.27165753 -0.297014
-0.1894538 0.42604721 -0.28743124
-0.087481186 0.27336842 -0.2692337
0.092931636 0.27336714 -0.26925147
-0.1384429 0.29826435 -0.28189778
0.14403392 0.29834104 -0.2807889
-0.16431427 0.34992328 -0.27826893
0.17049478 0.35113341 -0.26397753
0.19549854 0.42695481 -0.27900946
-0.036131285 0.24828374 -0.2564553
0.04149038 0.24832976 -0.25559747
-0.062644012 0.24977943 -0.22869766
0.067799047 0.24983609 -0.22764397
-0.11431614 0.27506709 -0.24165142
0.1195741 0.27510589 -0.24102056
-0.16684172 0.32783005 -0.2313652
-0.19232637 0.40508193 -0.24078619
0.19811577 0.40611708 -0.23044014
-0.010519914 0.22397384 -0.22263885
0.01561209 0.22386795 -0.22493398
0.094357334 0.2509208 -0.20751667
-0.14159691 0.27679381 -0.21361125
0.14666969 0.27687407 -0.21230972
0.1724892 0.32864374 -0.22079694
-0.037003636 0.22502905 -0.19979417
0.041881613 0.22479904 -0.20477462
-0.089430287 0.2510061 -0.20593464
-0.1952817 0.38352248 -0.19279754
-0.010922246 0.19985348 -0.17037487
0.01561209 0.1997146 -0.17397916
-0.063846655 0.22609922 -0.1766212
0.068465225 0.22574136 -0.18437421
-0.11657961 0.25225013 -0.18284523
0.12123291 0.25201833 -0.18714941
-0.16944119 0.30510756 -0.1831249
0.17449154 0.30550092 -0.17744482
0.20075187 0.38456425 -0.18151987
0.042228557 0.20026413 -0.15970576
-0.091055617 0.2271834 -0.1531508
0.095368586 0.22669485 -0.16372848
-0.14378335 0.25314328 -0.16627336
0.14843148 0.25312901 -0.16653705
-0.037819251 0.20076019 -0.146819
0.069148928 0.20102394 -0.13996637
-0.1183501 0.22793642 -0.13684607
0.12259809 0.22766092 -0.14281368
0.17602144 0.28106108 -0.14432144
-0.1983211 0.36134008 -0.1434437
0.20319633 0.36195698 -0.13615656
-0.011337155 0.17497876 -0.11647606
0.01561209 0.1748632 -0.12023258
-0.065086856 0.20167989 -0.12291932
0.096406594 0.20183948 -0.11878157
0.04264576 0.17531648 -0.10550916
-0.11999313 0.20278701 -0.094159245
-0.092479967 0.20229691 -0.10689366
0.12399842 0.20266488 -0.097336769
0.15071142 0.22930104 -0.1073029
0.20504665 0.33780253 -0.10181868
-0.066160224 0.17621158 -0.076440692
-0.038660541 0.17572707 -0.092175245
0.06990803 0.17577364 -0.090661168
0.17852719 0.25724939 -0.090070844
-0.011765249 0.14931381 -0.060865283
0.01561209 0.1492233 -0.064781904
-0.093816638 0.17661056 -0.063483834
0.097471967 0.17632838 -0.072648883
-0.14834668 0.2311407 -0.067474604
-0.17625917 0.28646326 -0.056598902
0.20691128 0.31313783 -0.067215562
-0.20298733 0.34043109 -0.067674041
-0.03937985 0.14966972 -0.04545486
0.043076251 0.14957431 -0.049586654
-0.12167696 0.17701307 -0.05041194
0.12543651 0.17700616 -0.050633311
0.1533339 0.20490357 -0.039168
-0.012091724 0.12258939 -0.01845479
-0.095187403 0.15028146 -0.018966794
-0.067180783 0.14997475 -0.03224957
0.070776366 0.1499282 -0.034260988
0.098715015 0.15028477 -0.018823504
0.18170546 0.23327532 -0.021259069
-0.17810619 0.26090011 -0.022322416
0.20881298 0.28798276 -0.031924367
-0.20508502 0.31546605 -0.033611059
-0.03997431 0.12276825 -0.0068432093
0.01561209 0.12259771 -0.017922282
0.043409735 0.12277718 -0.0062659979
-0.15095687 0.20598933 -0.010962248
-0.012362104 0.095156088 0.016668439
0.01561209 0.095160246 0.017211437
-0.096284039 0.12312982 0.016647339
-0.068037882 0.12294845 0.0048639774
0.071387686 0.12295738 0.0054451227
0.099547692 0.12313881 0.017232299
-0.12367208 0.15075231 0.0014226437
0.12713325 0.15082279 0.0044697523
-0.17998803 0.23483917 0.012599945
0.21075287 0.26232257 0.0040755272
-0.20722215 0.29001614 0.0010911226
-0.040518254 0.095246948 0.028486729
0.043681633 0.09525127 0.029054523
-0.15259658 0.17932095 0.024538755
0.15590398 0.17941529 0.027604103
-0.20940235 0.26406935 0.036493182
-0.012637811 0.067181736 0.052483559
0.01561209 0.067181796 0.053037643
-0.097385548 0.095431305 0.052419782
-0.068859123 0.095338985 0.040424705
0.071935028 0.095343307 0.040996194
0.10037409 0.095435798 0.053016186
-0.12519851 0.12350605 0.041080952
0.12835191 0.12355165 0.044046998
-0.18190791 0.20826748 0.048228621
0.18501022 0.20834684 0.050291061
-0.04107295 0.067181796 0.064515233
0.043959066 0.067181736 0.065094233
-0.15445194 0.1522139 0.064708352
0.15743701 0.15227678 0.067433596
-0.21162429 0.23760924 0.072573066
0.21425728 0.23744905 0.069109201
-0.012919007 0.038650732 0.089012146
0.01561209 0.03864624 0.089598894
-0.098509625 0.067181684 0.088925242
-0.069696151 0.067181796 0.076669097
0.072493225 0.067181796 0.077251911
0.10121692 0.067181848 0.08951211
-0.12675878 0.09565603 0.081618071
0.12959883 0.095678382 0.084541917
-0.1840845 0.18129402 0.088621259
0.18690813 0.18137917 0.091382027
-0.041639395 0.038556166 0.10130668
0.044242211 0.038551565 0.10187554
-0.15634765 0.12450172 0.10575187
0.15900308 0.12453828 0.10812104
-0.21410584 0.21075541 0.11286867
-0.013205858 0.0095459409 0.12627506
0.01561209 0.0095366202 0.12687385
-0.099656291 0.038364682 0.12616432
-0.070550442 0.038460933 0.11366129
0.073062934 0.038456328 0.11425567
0.10207719 0.038360134 0.12676287
-0.12835318 0.067181736 0.12304163
0.13087364 0.067181796 0.12594259
-0.18632637 0.15372691 0.13022482
0.21676603 0.21086326 0.11566567
-0.042216919 0.0093528852 0.13881874
0.044531062 0.0093439557 0.13939893
-0.15828715 0.096165009 0.14774323
0.16061449 0.096182361 0.14998662
0.18881308 0.15378234 0.13262546
-0.013498709 -0.020150602 0.16431761
0.01561209 -0.020164192 0.16490591
-0.10082553 0.0089629516 0.16413677
-0.071422532 0.0091587044 0.15142393
0.073644511 0.0091494955 0.15203047
0.10295441 0.0089535713 0.16474736
-0.12998457 0.038062572 0.16542614
0.13217729 0.038040504 0.16827989
-0.2166727 0.1833244 0.15454912
0.21901661 0.18341289 0.1574316
-0.042806223 -0.02044563 0.17709494
0.044825807 -0.02045922 0.17768705
-0.18859832 0.12552771 0.172387
0.19075982 0.12556438 0.17477381
-0.043195508 -0.05043333 0.20237958
-0.013719939 -0.050146274 0.19305658
0.01561209 -0.050159805 0.19349289
0.045019086 -0.050446078 0.20279515
-0.10202016 -0.021042325 0.20293343
-0.072312467 -0.020742573 0.18995869
0.074237995 -0.020757176 0.19057798
0.10384747 -0.02105356 0.20341814
-0.16025713 0.067181796 0.19039452
0.16226518 0.067181736 0.19287264
-0.21929756 0.15527299 0.19717157
0.22131938 0.15534201 0.20016551
-0.043475375 -0.08053682 0.22055733
-0.01385919 -0.080174632 0.2111454
0.01561209 -0.080189623 0.21153963
0.045158692 -0.0805512 0.22093022
-0.1025815 -0.051011778 0.22116339
-0.072815672 -0.050721742 0.21174836
0.074570358 -0.050734714 0.21216571
0.10426643 -0.05102396 0.22155929
-0.13164443 0.0082791038 0.20855093
0.13351077 0.0082324967 0.21158588
-0.19091572 0.096685901 0.21539271
0.19275084 0.096705049 0.21788037
-0.043757558 -0.1109271 0.23888552
-0.013999585 -0.11048824 0.22938359
0.01561209 -0.11050662 0.22978163
0.045299627 -0.11094338 0.23923826
-0.10314459 -0.081264026 0.23945022
-0.073236994 -0.080899857 0.22999239
0.074850939 -0.080915414 0.23039031
0.10468937 -0.081280418 0.23987365
-0.13273872 -0.021828711 0.23698151
0.13435718 -0.021876946 0.23907363
-0.1622625 0.037536018 0.23381197
0.16395387 0.037513498 0.23674631
-0.22198096 0.1265801 0.24074447
-0.044042446 -0.14160898 0.25738966
-0.014141329 -0.14109203 0.24779654
0.01561209 -0.1411151 0.24822176
0.045441918 -0.14162698 0.25772214
-0.1037138 -0.11180703 0.257936
-0.073662899 -0.11136825 0.24843442
0.07513421 -0.11138458 0.24878919
0.10511637 -0.11182674 0.25836337
-0.13347216 -0.052085556 0.25603664
0.13493945 -0.052145414 0.25798333
-0.1932876 0.067181796 0.25940907
0.19479972 0.067181848 0.26223981
-0.044330083 -0.17258695 0.27607226
-0.014284616 -0.17199188 0.26641035
0.01561209 -0.17201677 0.26681578
0.045585759 -0.17260757 0.27640772
-0.1042885 -0.14264429 0.27659988
-0.074091807 -0.14212734 0.26700664
0.075420201 -0.14214659 0.26736474
0.1055475 -0.14266747 0.27703142
-0.13421381 -0.082644172 0.27530503
0.13553114 -0.082716949 0.27719927
-0.16375493 0.0073927678 0.26612389
0.16516545 0.0073605925 0.268224
-0.044620879 -0.20386651 0.29496002
-0.014429107 -0.20318896 0.28518009
0.01561209 -0.20321727 0.28558969
0.045730993 -0.20388833 0.29527473
-0.10486875 -0.17377988 0.29544401
-0.074524857 -0.17318332 0.28575802
0.075708956 -0.17320564 0.2861197
0.10598279 -0.17380667 0.29588032
-0.13496193 -0.11350704 0.29474211
0.13613097 -0.11359655 0.2966795
-0.16464844 -0.022948481 0.28546929
0.16590436 -0.022993512 0.2874217
-0.19524243 0.037059776 0.29568648
0.19644192 0.03704349 0.29779434
-0.044913754 -0.23544738 0.31398296
-0.014575001 -0.23468903 0.30413222
0.01561209 -0.23472092 0.30454564
0.045877837 -0.23547563 0.31434965
-0.10545467 -0.20521837 0.31447196
-0.074962102 -0.20454082 0.30469179
0.076000504 -0.20456603 0.30505657
0.10642231 -0.2052488 0.31491208
-0.13571851 -0.14468101 0.31439853
0.13673608 -0.14478505 0.31633115
-0.16555202 -0.053594418 0.30503249
0.16665155 -0.053649731 0.30683374
-0.19630216 0.0066349134 0.31535244
0.19734332 0.0066047572 0.31731009
-0.045209497 -0.26733691 0.33319187
-0.014722506 -0.26649874 0.32329392
0.01561209 -0.26653412 0.32371163
0.046025924 -0.26737043 0.33358693
-0.10604629 -0.23696417 0.33368564
-0.075403616 -0.23620376 0.32380986
0.076294899 -0.23623225 0.32417822
0.10686614 -0.23699829 0.33413005
-0.13648179 -0.17616841 0.33422899
0.13734731 -0.17628869 0.33618093
-0.16646358 -0.084547974 0.32476807
0.16740525 -0.084611364 0.32641554
-0.19736728 -0.024095148 0.33511853
0.19825259 -0.024138443 0.33699703
-0.045508139 -0.29953966 0.35258961
-0.014871273 -0.2986185 0.34261918
0.01561209 -0.29865748 0.3430407
0.046175469 -0.29957876 0.35301328
-0.10664373 -0.26902154 0.3530879
-0.075849459 -0.26817718 0.34311533
0.076592565 -0.26821095 0.34351206
0.10731432 -0.26905972 0.35353708
-0.13725375 -0.20797667 0.35428548
0.13796473 -0.20811167 0.35623217
-0.1673855 -0.11581577 0.34472823
0.16816746 -0.11588471 0.34621859
-0.19843774 -0.055132419 0.35498405
0.19917218 -0.055191495 0.35690665
-0.015049485 -0.85266554 0.36576939
0.01561209 -0.85282195 0.36644697
-0.01511899 -0.36305326 0.3747983
0.01561209 -0.36291745 0.37353849
-0.045793071 -0.33195165 0.37109637
-0.015021309 -0.33105233 0.36210942
0.01561209 -0.3310976 0.36256027
0.04631564 -0.33196434 0.37122226
-0.10724706 -0.30139571 0.37268186
-0.076299682 -0.30046535 0.36261058
0.076893546 -0.30050698 0.36306143
0.10776692 -0.30143744 0.37313533
-0.13803068 -0.24010378 0.37447047
0.13858844 -0.24025893 0.37648797
-0.16830754 -0.14739111 0.36469078
0.16894123 -0.14747894 0.3663218
-0.19951905 -0.086483322 0.37505031
0.20009992 -0.086557947 0.37699246
-0.045996338 -0.85694468 0.38429856
0.046447329 -0.85787553 0.38832974
-0.015180429 -0.82580131 0.3827796
0.01561209 -0.82606119 0.38394403
0.01561209 -0.42698663 0.39486241
-0.015201094 -0.39501587 0.38546371
0.01561209 -0.39486676 0.38417172
0.046479795 -0.39583373 0.39254665
-0.076986916 -0.3649469 0.39236879
-0.045986198 -0.36400628 0.38364005
0.046397403 -0.36381254 0.38184333
0.077311501 -0.36471397 0.39020824
-0.10773435 -0.33369404 0.38850713
-0.076696552 -0.33282214 0.37979531
0.077146903 -0.33279452 0.37951756
0.10811547 -0.33366627 0.38822818
-0.13881066 -0.27254823 0.39473486
-0.16924009 -0.17928782 0.38488102
0.16972484 -0.17939845 0.38668084
-0.20061132 -0.11815267 0.39532065
-0.046358749 -0.83139533 0.40783787
0.046645124 -0.83277607 0.41402316
-0.015315048 -0.79877812 0.40026712
0.01561209 -0.79889905 0.40082884
-0.015427671 -0.77089179 0.4148972
-0.015366426 -0.45945302 0.40694141
0.01561209 -0.45928213 0.40563536
0.046645522 -0.46038654 0.41407442
-0.046363086 -0.42861959 0.40811992
-0.015283441 -0.42714667 0.39616108
0.046562437 -0.42802376 0.40328193
0.077665493 -0.42924538 0.41320086
-0.10851529 -0.39829588 0.4138689
-0.077279709 -0.39727718 0.40504694
-0.046180151 -0.3962599 0.39623761
0.077476583 -0.39680183 0.40093112
0.10869101 -0.39821276 0.4131496
-0.10812319 -0.36589175 0.40113544
0.10840235 -0.36583942 0.40065026
0.13972998 -0.30517191 0.41356087
0.13921933 -0.2727381 0.39697671
-0.17018095 -0.21150771 0.4052515
0.17051651 -0.21164617 0.40724897
0.20103824 -0.11824437 0.39730787
0.01561209 -0.7710039 0.41543746
-0.015506661 -0.74190581 0.4251585
0.01561209 -0.74201447 0.42570114
-0.01553175 -0.7114144 0.42841768
0.01561209 -0.71105069 0.42652845
-0.015569462 -0.68117559 0.43331647
0.01561209 -0.68123311 0.43362784
-0.015533343 -0.52458149 0.42862463
0.01561209 -0.52439225 0.42733049
-0.04669752 -0.49360469 0.429842
-0.01544966 -0.49192968 0.41775393
0.01561209 -0.49174771 0.41644096
0.046735816 -0.49304518 0.42580462
-0.077869684 -0.46254817 0.43059325
-0.046530053 -0.4610264 0.41896462
0.077859141 -0.46191821 0.42577863
-0.10890909 -0.43090296 0.42665768
-0.077573761 -0.42980951 0.41777945
0.10898147 -0.43078816 0.42572689
0.1400664 -0.33729467 0.42448616
-0.13959463 -0.30531439 0.4151032
-0.17113145 -0.24405754 0.42583036
0.17131636 -0.24422663 0.4280293
-0.20171614 -0.15014648 0.4158237
0.20198499 -0.15025339 0.41780543
-0.046763405 -0.89963824 0.43412089
-0.015575657 -0.89963824 0.43412089
0.01561209 -0.89963824 0.43412089
0.046799839 -0.89963824 0.43412089
-0.046764202 -0.8060863 0.43417263
0.046825238 -0.80678624 0.43742061
-0.047021069 -0.74704915 0.45085669
-0.046841443 -0.71348751 0.43918991
0.04683385 -0.71336216 0.43853903
-0.078367889 -0.68465805 0.45216632
-0.046858273 -0.68246257 0.4402833
0.046849675 -0.68252021 0.44059563
-0.078340672 -0.65312266 0.45098782
-0.046918876 -0.65192419 0.44421887
-0.015601259 -0.65072513 0.43744659
0.01561209 -0.6507805 0.43775868
0.046879776 -0.65197492 0.44450569
0.078251697 -0.65317363 0.45127583
-0.046999723 -0.62154818 0.44947028
-0.015644958 -0.62047321 0.44312358
0.01561209 -0.6206103 0.44393229
0.046928868 -0.62178749 0.45088339
-0.015695224 -0.59027165 0.44965315
0.01561209 -0.59033936 0.45007181
-0.047035582 -0.55929506 0.45179963
-0.01561768 -0.55741352 0.4395802
0.01561209 -0.55724937 0.43851304
0.04693149 -0.55920625 0.45122337
-0.04686629 -0.52636284 0.440804
0.046833448 -0.52602404 0.43848729
0.07825008 -0.52787906 0.45117116
-0.10970502 -0.49674526 0.45250678
-0.078133769 -0.49529323 0.44202852
0.078054003 -0.49479541 0.43843508
0.10956848 -0.49655655 0.45114493
-0.10930619 -0.46372095 0.43955421
0.10927436 -0.4635711 0.43840933
0.14074394 -0.40206265 0.44649029
-0.1410111 -0.37136313 0.4519043
0.14040385 -0.36958939 0.43544531
-0.1403816 -0.33840191 0.4355495
-0.17208689 -0.27693307 0.44651628
0.17197064 -0.27680695 0.44502807
-0.20283091 -0.18246737 0.4365108
0.20294264 -0.18259233 0.43853903
-0.047078349 -0.77913898 0.45457721
0.046997935 -0.74885041 0.45985532
-0.078459315 -0.62267524 0.4561255
0.078339286 -0.62281758 0.45696521
-0.11026574 -0.59367698 0.47071648
-0.078633577 -0.59253782 0.46367121
0.07846079 -0.59272963 0.4648571
0.110029 -0.59373671 0.47108674
-0.04711026 -0.59140283 0.45665002
0.046979532 -0.59153438 0.45746398
-0.078643315 -0.56118762 0.46409273
0.078447804 -0.56117553 0.46401405
-0.11009993 -0.52995014 0.46533132
-0.078387849 -0.52815109 0.45303082
0.10986445 -0.52974987 0.46396089
0.14142892 -0.46753964 0.46873498
-0.14175758 -0.43640116 0.47129798
0.14108509 -0.43471017 0.45756912
-0.14138398 -0.40380633 0.46159148
0.17282622 -0.34157482 0.46725678
-0.17304607 -0.31013459 0.46728325
0.17239776 -0.30910382 0.45612526
-0.20395716 -0.21512151 0.45741153
0.20391503 -0.21527267 0.45959234
0.078841269 -0.69156837 0.4895699
-0.11080358 -0.62810433 0.48818302
-0.11044342 -0.56309581 0.47648692
0.1101623 -0.56315279 0.47685766
0.14177381 -0.50054592 0.47993565
-0.142134 -0.46915486 0.48107767
0.17325805 -0.37422693 0.47847581
-0.17401388 -0.34367439 0.48823667
-0.20508936 -0.24810603 0.47842288
0.20471863 -0.24799585 0.47699046
0.11048914 -0.62858313 0.4910109
-0.14289123 -0.5351308 0.50075126
0.14239989 -0.53506017 0.50026846
-0.14251119 -0.50206214 0.49087787
0.1739226 -0.40774977 0.49574161
-0.2062261 -0.2814211 0.49951792
0.20537607 -0.28071877 0.49122477
-0.11151267 -0.66378552 0.5112114
-0.14350477 -0.56928575 0.51669168
0.17489456 -0.44252214 0.52099395
-0.17499165 -0.37756029 0.50940633
-0.20737314 -0.31507862 0.52080417
0.20653984 -0.31467363 0.51642132
-0.14444667 -0.60506505 0.54116297
0.14334491 -0.5714823 0.53095865
0.17587747 -0.47772029 0.54653049
-0.17651278 -0.44515106 0.54233909
-0.17598084 -0.41180056 0.53082252
-0.20853357 -0.34908876 0.54233932
0.20771672 -0.34904489 0.54190135
-0.17751016 -0.51218504 0.56393385
-0.17697905 -0.47849306 0.55243444
-0.20970465 -0.38345182 0.56407213
-0.17815602 -0.5464173 0.57791662
0.17733018 -0.54734701 0.5842731
0.17691107 -0.51349443 0.57338405
0 0 0 1 0 0 0 1 0 0 0 1 0 0 0 0 0 657 1 0 0
