ply
format ascii 1.0
comment PCL generated
element vertex 975
property float x
property float y
property float z
element camera 1
property float view_px
property float view_py
property float view_pz
property float x_axisx
property float x_axisy
property float x_axisz
property float y_axisx
property float y_axisy
property float y_axisz
property float z_axisx
property float z_axisy
property float z_axisz
property float focal
property float scalex
property float scaley
property float centerx
property float centery
property int viewportx
property int viewporty
property float k1
property float k2
end_header
0.60956985 -0.47382766 -0.31826365
0.59329706 -0.49625468 -0.30423772
0.59158635 -0.47514737 -0.31140614
0.59320676 -0.4567292 -0.30461597
0.61123353 -0.45545548 -0.31150997
0.57716119 -0.49936783 -0.28868401
0.6141969 -0.49720699 -0.29948008
0.57509768 -0.47780067 -0.29761922
0.53745174 -0.45966047 -0.28874993
0.55616915 -0.45872551 -0.29381061
0.57508254 -0.45800972 -0.29768491
0.63370866 -0.45749423 -0.30047488
0.5375542 -0.43989754 -0.28827465
0.55698657 -0.43956563 -0.29014897
0.57645148 -0.43928093 -0.29175711
0.59483582 -0.43821293 -0.29778969
0.61429691 -0.43798548 -0.29907417
0.63492417 -0.4385846 -0.29569006
0.59984219 -0.52168328 -0.27681088
0.53992176 -0.48171288 -0.2772907
0.55831766 -0.48038578 -0.28418648
0.5004648 -0.46215937 -0.27522409
0.5189777 -0.46088088 -0.28214407
0.48059067 -0.44227913 -0.27482355
0.49950251 -0.44135693 -0.28003216
0.51833576 -0.44043607 -0.2852329
0.48026979 -0.42204234 -0.27649105
0.49954775 -0.42148101 -0.27980602
0.51885635 -0.42098621 -0.28272784
0.53834403 -0.42066741 -0.28461039
0.55786246 -0.42039388 -0.28622544
0.57818151 -0.42072567 -0.28426588
0.60000122 -0.42210114 -0.27614439
0.6207906 -0.42268226 -0.27271307
0.48070884 -0.40246984 -0.2742095
0.50008053 -0.40199542 -0.27714396
0.51962119 -0.40168771 -0.27904785
0.53919333 -0.40142545 -0.28066993
0.5008176 -0.38262597 -0.27346146
0.62359232 -0.52489883 -0.26133955
0.48360655 -0.4852035 -0.25915289
0.5026021 -0.48416573 -0.26454544
0.52142739 -0.48304713 -0.27035797
0.64342433 -0.48461145 -0.26222932
0.46313506 -0.46473205 -0.26129901
0.48184994 -0.4634423 -0.26828027
0.42340004 -0.44507286 -0.25904465
0.44253999 -0.44413698 -0.26433015
0.46160498 -0.44320744 -0.26958072
0.42311192 -0.42470893 -0.26074612
0.44224238 -0.42381728 -0.26601112
0.46129322 -0.42292693 -0.27126837
0.40363246 -0.40522945 -0.25713837
0.4228265 -0.40437379 -0.2624315
0.44194278 -0.40352157 -0.26770318
0.58319902 -0.40435636 -0.26253927
0.46129322 -0.40294528 -0.27126825
0.56121343 -0.40295386 -0.27121472
0.40334612 -0.38486636 -0.25890958
0.4227854 -0.38428682 -0.26267397
0.44230899 -0.38383096 -0.26563466
0.46178582 -0.38337404 -0.26860225
0.48122081 -0.3829203 -0.27154934
0.52125764 -0.38297796 -0.27117455
0.54407018 -0.38499951 -0.25804448
0.40371123 -0.36511979 -0.25665116
0.42323992 -0.36463147 -0.25999022
0.44278312 -0.36419755 -0.26295698
0.46228188 -0.36376458 -0.26591706
0.48193255 -0.36348182 -0.26785076
0.50397629 -0.36496943 -0.25767946
0.42369539 -0.34493566 -0.25730062
0.4432582 -0.3445237 -0.26027369
0.46371385 -0.3448157 -0.25816631
0.5473032 -0.50850236 -0.24304521
0.56515747 -0.50640035 -0.25354791
0.42614901 -0.48834819 -0.24281275
0.44538057 -0.48729473 -0.24828672
0.46453455 -0.48624825 -0.25372434
0.4056235 -0.46777627 -0.24482203
0.42488313 -0.46676654 -0.25028765
0.444065 -0.46576339 -0.2557168
0.38513568 -0.44724309 -0.24678731
0.40441698 -0.44626963 -0.25228536
0.34549791 -0.42793143 -0.24171793
0.36505735 -0.42717919 -0.24615979
0.38455072 -0.42642948 -0.25058687
0.40390605 -0.42560658 -0.25544596
0.34522492 -0.40740386 -0.24368799
0.36477017 -0.40668678 -0.24812317
0.38424948 -0.40597233 -0.25254345
0.32521352 -0.38742465 -0.24229276
0.34484458 -0.38678733 -0.24643278
0.36441183 -0.38614973 -0.25057328
0.38391942 -0.38551646 -0.25468707
0.56611007 -0.38634884 -0.24928069
0.32481641 -0.3667762 -0.24532723
0.34442544 -0.36617202 -0.2494576
0.36404225 -0.36563924 -0.25310004
0.38395491 -0.36544079 -0.25445664
0.526752 -0.366862 -0.24474001
0.32472172 -0.34649456 -0.24605083
0.34470853 -0.34630555 -0.24741447
0.36467454 -0.34611669 -0.24877703
0.38462192 -0.34593007 -0.25012434
0.40419975 -0.34544444 -0.25362933
0.48651698 -0.34677458 -0.24402952
0.34531018 -0.32670853 -0.24307251
0.36531094 -0.32653141 -0.24442589
0.38513777 -0.32622418 -0.24677372
0.40468717 -0.32572156 -0.25061393
0.42418167 -0.32522219 -0.25442946
0.44604722 -0.32651883 -0.2445215
0.38560447 -0.30642718 -0.24374259
0.52920163 -0.51052213 -0.23295414
0.38744166 -0.4904657 -0.23180974
0.40683472 -0.48940337 -0.2373296
0.34749499 -0.47101259 -0.22730505
0.3668921 -0.46984676 -0.2336154
0.38628325 -0.46879029 -0.23933363
0.32686904 -0.45027864 -0.22964227
0.34637642 -0.44926313 -0.23537755
0.36579913 -0.44825217 -0.24108791
0.30634758 -0.42967495 -0.23142326
0.3258864 -0.42870492 -0.23715103
0.28639573 -0.40985775 -0.22850859
0.30589783 -0.40879631 -0.23507476
0.32561153 -0.40812102 -0.23925126
0.28638774 -0.38953626 -0.22857785
0.30552202 -0.3880662 -0.23812604
0.28637975 -0.36921582 -0.22864711
0.30527702 -0.36753845 -0.24011517
0.54957038 -0.36864835 -0.23252678
0.2863718 -0.34889647 -0.22871614
0.30526856 -0.34730744 -0.24018371
0.5092563 -0.34853861 -0.23129916
0.28657469 -0.32881725 -0.22695887
0.46887147 -0.32838655 -0.23025
0.30604026 -0.32790649 -0.23391855
0.32540524 -0.32700232 -0.24082768
0.32639778 -0.30772039 -0.23324347
0.3459157 -0.30704808 -0.23870254
0.36594746 -0.3068791 -0.24007404
0.40641764 -0.3068994 -0.23990953
0.42870504 -0.30840072 -0.22772026
0.34676573 -0.28752396 -0.23256803
0.3669042 -0.28741255 -0.23353279
0.49234077 -0.5143621 -0.21376824
0.51083809 -0.51243514 -0.22339594
0.34921575 -0.49372256 -0.21488655
0.36821431 -0.49185795 -0.2245754
0.32844207 -0.47280154 -0.21762216
0.30770949 -0.45192105 -0.22036612
0.28702617 -0.43109322 -0.22304881
0.26746419 -0.41192669 -0.21571064
0.2673243 -0.39131746 -0.21700847
0.26731679 -0.37090787 -0.21707833
0.26730928 -0.35049936 -0.21714795
0.26730177 -0.33009201 -0.21721756
0.49158034 -0.33002633 -0.21771967
0.26783639 -0.31030533 -0.21225703
0.28745973 -0.30943853 -0.21929419
0.306981 -0.30857804 -0.22628021
0.45120022 -0.30991596 -0.21541727
0.28835154 -0.28994855 -0.21157098
0.30792552 -0.28913555 -0.21861184
0.32739785 -0.28832841 -0.22560143
0.38882679 -0.28865045 -0.22281277
0.4107838 -0.28979501 -0.21290088
0.32839462 -0.26881611 -0.21798456
0.34926608 -0.26918918 -0.2145232
0.47370824 -0.51630306 -0.20407009
0.28991213 -0.47641641 -0.19805586
0.30924883 -0.47460356 -0.20786798
0.28845993 -0.45364445 -0.21063221
0.26861855 -0.43414995 -0.20499945
0.24886693 -0.41485387 -0.19760299
0.24809434 -0.39311653 -0.2053231
0.24808587 -0.37261489 -0.2054075
0.24807884 -0.35211647 -0.20547795
0.53399271 -0.35150328 -0.20990312
0.2480718 -0.33161917 -0.20554829
0.248107 -0.31117484 -0.20519662
0.24888818 -0.29158592 -0.19739079
0.26867315 -0.29076591 -0.20449269
0.43290603 -0.29094809 -0.2029146
0.26951334 -0.27111039 -0.19669676
0.28924856 -0.27034459 -0.20380247
0.30887383 -0.26957834 -0.21091247
0.3702783 -0.26962668 -0.210464
0.39195547 -0.27048579 -0.20249164
0.43602905 -0.52022535 -0.18447399
0.45493895 -0.51825851 -0.19430089
0.3326211 -0.49934173 -0.18568861
0.27096316 -0.47915289 -0.18324399
0.26978531 -0.45655859 -0.19417322
0.24995781 -0.43724865 -0.18670213
0.22901446 -0.39546561 -0.19006562
0.20911504 -0.37608063 -0.18171227
0.22868615 -0.37433895 -0.19361961
0.20910776 -0.35539761 -0.1817981
0.2286796 -0.35374984 -0.19369054
0.2091005 -0.33471593 -0.18188429
0.22867173 -0.33315977 -0.19377577
0.51814234 -0.33405927 -0.18690181
0.20909441 -0.31403738 -0.18195581
0.22866519 -0.31257278 -0.19384682
0.47530088 -0.31237534 -0.19544983
0.20908715 -0.2933583 -0.18204176
0.22899868 -0.29241204 -0.19023645
0.22972657 -0.27265576 -0.18235672
0.24967392 -0.27188185 -0.18953884
0.41409364 -0.27157062 -0.19242656
0.2504572 -0.25205415 -0.18171227
0.27034771 -0.25132939 -0.18895483
0.29013285 -0.25060999 -0.19614422
0.31075916 -0.25066385 -0.19560564
0.33187884 -0.25108865 -0.19136047
0.353046 -0.25150064 -0.18724418
0.37428045 -0.25191522 -0.18310106
0.41698188 -0.52220958 -0.17456007
0.25105625 -0.45982468 -0.17572606
0.23103882 -0.44039041 -0.16815126
0.23001787 -0.41782829 -0.17920327
0.20996848 -0.39830336 -0.17163372
0.18936101 -0.35706022 -0.16979969
0.18935435 -0.33628607 -0.16988635
0.18934767 -0.31551328 -0.16997313
0.1893421 -0.29474357 -0.17004526
0.45734036 -0.2935088 -0.18073797
0.18951018 -0.27421799 -0.1678617
0.20967312 -0.27343559 -0.17512167
0.43887675 -0.27423978 -0.16765928
0.21034917 -0.25351274 -0.1671381
0.23045877 -0.252783 -0.17443049
0.39558068 -0.2523312 -0.17894495
0.23117924 -0.23277622 -0.16663122
0.25123346 -0.23209962 -0.1739552
0.27168503 -0.23186037 -0.17654598
0.29291311 -0.23227414 -0.17206669
0.31418344 -0.23266798 -0.16780388
0.31609094 -0.50576419 -0.15231681
0.21090718 -0.42084402 -0.16054821
0.19066289 -0.40118945 -0.15288758
0.18981366 -0.37868291 -0.16391981
0.16954312 -0.35894996 -0.15616155
0.16943093 -0.3378703 -0.15778089
0.16942486 -0.3170042 -0.15786827
0.50201792 -0.31631246 -0.16348422
0.16941881 -0.29613948 -0.15795588
0.16941376 -0.27527776 -0.1580286
0.16979833 -0.25497982 -0.15247786
0.19012809 -0.25424361 -0.15983498
0.42024428 -0.2547895 -0.15437937
0.19074178 -0.23414055 -0.15186298
0.21101564 -0.23345649 -0.15926731
0.33551165 -0.23305625 -0.16360044
0.35690644 -0.23344576 -0.15938365
0.23204799 -0.21278554 -0.15722656
0.2533623 -0.21317017 -0.1526829
0.40027621 -0.5274362 -0.14844656
0.21185486 -0.4435735 -0.1493566
0.19152933 -0.42390189 -0.14163244
0.17030779 -0.38143203 -0.14512467
0.14983952 -0.36156926 -0.13725793
0.14932878 -0.33947065 -0.14555144
0.14932334 -0.31851041 -0.1456399
0.149317 -0.29754978 -0.14574265
0.48444089 -0.2975226 -0.14597797
0.14931157 -0.27659231 -0.14583087
0.14935686 -0.25571868 -0.14509535
0.14985867 -0.23551834 -0.13694715
0.17035572 -0.2348268 -0.1444329
0.38030261 -0.23505828 -0.1419276
0.19135231 -0.21391121 -0.14393222
0.21168356 -0.21328053 -0.15137959
0.27474973 -0.21355754 -0.14810896
0.29617539 -0.21392122 -0.14381433
0.31766519 -0.21428356 -0.13953555
0.17187871 -0.42700294 -0.12245023
0.17108689 -0.40411603 -0.13387907
0.15052874 -0.38421941 -0.12606645
0.1292534 -0.34159338 -0.12933087
0.12903872 -0.32002836 -0.13331521
0.12903392 -0.29897454 -0.13340414
0.12902832 -0.27792037 -0.13350809
0.46588135 -0.27802914 -0.13249838
0.12902352 -0.25686932 -0.13359714
0.12924699 -0.23621091 -0.12944996
0.1503534 -0.2151829 -0.12891388
0.17090921 -0.21454534 -0.13644373
0.34018156 -0.21526745 -0.12791586
0.17146493 -0.19414327 -0.12842238
0.19196752 -0.19356465 -0.13593996
0.21323836 -0.19378945 -0.13301814
0.23471294 -0.19414669 -0.12837756
0.25625905 -0.19450402 -0.1237365
0.15123568 -0.40708622 -0.11458719
0.13047484 -0.3870573 -0.10666382
0.12985918 -0.36422542 -0.11808908
0.10906967 -0.34411657 -0.11005008
0.10857023 -0.32156208 -0.1208632
0.087910332 -0.30186138 -0.10840321
0.10856538 -0.30041048 -0.12096822
0.08790683 -0.28061613 -0.10849404
0.10856123 -0.27926213 -0.12105799
0.087902762 -0.25937086 -0.1085999
0.10855638 -0.25811356 -0.12116289
0.44713703 -0.25834164 -0.11888444
0.087898694 -0.23812717 -0.10870576
0.10855224 -0.23696819 -0.12125266
0.4059113 -0.23783714 -0.11184549
0.10889903 -0.21646747 -0.11374426
0.12968306 -0.21582285 -0.12135756
0.1301209 -0.19531268 -0.11323214
0.15085012 -0.19472638 -0.1208483
0.27784437 -0.19483829 -0.11939442
0.29964584 -0.19527203 -0.11375928
0.15135068 -0.17414981 -0.11272001
0.17252988 -0.17412689 -0.11305141
0.1940908 -0.17445204 -0.10835803
0.10959626 -0.36691916 -0.098649025
0.088157602 -0.32388803 -0.10197914
0.067122735 -0.30354062 -0.093860507
0.067062095 -0.28198102 -0.095829725
0.067059278 -0.26063967 -0.095921397
0.067050822 -0.23928282 -0.096195936
0.067042373 -0.21793023 -0.096470356
0.087991849 -0.2170991 -0.10628545
0.36547825 -0.21784121 -0.09752202
0.067143433 -0.19685557 -0.093188286
0.088259988 -0.19638374 -0.099318743
0.10927642 -0.19590214 -0.10557365
0.088528909 -0.17556238 -0.092332125
0.10960681 -0.17514059 -0.098420739
0.13056053 -0.17467961 -0.10507381
0.21572532 -0.17477834 -0.10364854
0.23743103 -0.1751036 -0.098953485
0.25918162 -0.17540991 -0.094532609
0.13109565 -0.15403017 -0.095143318
0.11013501 -0.38993564 -0.086984515
0.089045271 -0.36965325 -0.078916669
0.088599585 -0.34667563 -0.090495706
0.067478411 -0.32631066 -0.082309604
0.046022229 -0.28334516 -0.083172083
0.046015471 -0.26188633 -0.083464503
0.046009079 -0.24043331 -0.083741546
0.046002679 -0.21898454 -0.084018469
0.045995571 -0.19753787 -0.084326148
0.32462257 -0.19763613 -0.08304882
0.046098754 -0.17642656 -0.079858422
0.067358099 -0.17598605 -0.086216807
0.067575753 -0.15501517 -0.079148173
0.088799186 -0.15463573 -0.085310102
0.1099297 -0.15425891 -0.091429591
0.15287036 -0.15446734 -0.088043332
0.17459466 -0.15476266 -0.083248973
0.19639285 -0.155058 -0.078453302
0.08907143 -0.13360372 -0.078237057
0.11049483 -0.13355213 -0.079194546
0.067837059 -0.34927121 -0.070662022
0.046502896 -0.32876799 -0.062358499
0.046234459 -0.30583593 -0.07398212
0.024896691 -0.28547379 -0.063420415
0.024781851 -0.26314566 -0.070879579
0.024777548 -0.2415956 -0.071159005
0.024773246 -0.22004983 -0.071438551
0.024768705 -0.19850719 -0.071733356
0.02476321 -0.17696476 -0.072090507
0.28333762 -0.17721882 -0.068423629
0.024851067 -0.15580118 -0.066383958
0.046257727 -0.15539536 -0.072974563
0.21825974 -0.15534952 -0.073718786
0.046422169 -0.134271 -0.065854073
0.06779404 -0.13393655 -0.072059393
0.13240983 -0.13400689 -0.070755243
0.15445791 -0.13446444 -0.062264562
0.068013914 -0.11275124 -0.064918756
0.089654937 -0.11283628 -0.063076973
0.24155413 -0.48132023 -0.05431962
0.046775758 -0.35190412 -0.050542831
0.025070226 -0.30835691 -0.052149415
0.0033968166 -0.26495552 -0.052794456
0.0033530649 -0.24276707 -0.058477879
0.0033508949 -0.2211234 -0.058759928
0.0033487231 -0.19948423 -0.059041977
-0.018266657 -0.17873415 -0.046550751
0.0033461917 -0.17784601 -0.059370875
-0.018266657 -0.15700033 -0.04691422
0.0033437815 -0.15621382 -0.059683919
0.24161802 -0.15658674 -0.053628087
0.0033969376 -0.13497561 -0.052778721
0.024956873 -0.1346128 -0.059511662
0.17664032 -0.13492474 -0.053722262
0.025066106 -0.11332867 -0.052416801
0.04658781 -0.11303931 -0.058681607
0.11163358 -0.11323067 -0.054539561
0.046753936 -0.09169805 -0.051488161
0.068572685 -0.091879524 -0.046771765
0.0252454 -0.33142692 -0.040771127
0.0034842435 -0.28784299 -0.041437387
-0.018266657 -0.24428117 -0.042087436
-0.018266657 -0.22220689 -0.04596591
-0.04008 -0.20146379 -0.033325911
-0.018266657 -0.2004689 -0.046250343
-0.040077791 -0.17963058 -0.033612967
0.30855268 -0.17942196 -0.036623716
-0.04007509 -0.15779781 -0.033963799
-0.04007227 -0.13596967 -0.034330487
-0.018266657 -0.13534006 -0.046013355
0.19945376 -0.13573462 -0.038691044
-0.040088475 -0.11426129 -0.032225013
-0.018266657 -0.11394573 -0.03905654
0.0034503564 -0.11363248 -0.045839429
0.13374646 -0.11362734 -0.045950174
0.15600073 -0.11403085 -0.03721261
-0.018266657 -0.09244623 -0.032049298
0.0035041608 -0.092184454 -0.03884995
0.02517735 -0.091940425 -0.04519105
0.09061496 -0.092211992 -0.038134813
0.0035603233 -0.070638329 -0.031554222
0.025289418 -0.070442542 -0.03791225
0.069261149 -0.37720546 -0.024413705
0.0035725012 -0.31091774 -0.029972434
-0.018266657 -0.29025131 -0.019090772
-0.018266657 -0.26717389 -0.030627728
-0.040184498 -0.24634451 -0.019751072
-0.040095605 -0.22344875 -0.031298757
-0.062093914 -0.20246667 -0.020298481
-0.062089451 -0.18053299 -0.020588279
-0.062084496 -0.15860173 -0.020910144
0.26648974 -0.15856507 -0.021505356
-0.062078804 -0.13667291 -0.021280169
-0.062073104 -0.11474966 -0.021650076
-0.062124915 -0.092975967 -0.018285036
-0.040142678 -0.092710428 -0.025183797
0.11279415 -0.092547722 -0.029412627
0.13513741 -0.092904739 -0.020137548
-0.040197149 -0.071052305 -0.018107653
-0.018266657 -0.070839971 -0.025007248
0.047244176 -0.070678122 -0.030260205
0.069350198 -0.070947282 -0.02152133
-0.018266657 -0.04912927 -0.017785072
0.0036311205 -0.049023665 -0.022357583
-0.040273368 -0.26941764 -0.0082064867
-0.062271088 -0.22535476 -0.0087907314
-0.084304415 -0.1814436 -0.0074433088
-0.084297664 -0.15941313 -0.00773561
-0.084289417 -0.13738349 -0.008092761
0.223975 -0.13748419 -0.0062245131
-0.084280789 -0.11535866 -0.0084661245
0.17950062 -0.11517518 -0.012437582
-0.084271803 -0.093338922 -0.0088557005
-0.084379151 -0.071480408 -0.0042072535
-0.062234387 -0.071265839 -0.011174202
0.091610909 -0.071232401 -0.012259364
0.1140253 -0.07152494 -0.0027576685
-0.062344164 -0.049446583 -0.0040444136
-0.040251896 -0.049286067 -0.010996103
0.02566419 -0.04922656 -0.013569951
0.047843203 -0.049440272 -0.0043210983
-0.040306788 -0.027410608 -0.003865242
-0.018266657 -0.027384363 -0.0055741072
-0.040359437 -0.29262927 0.0029740334
-0.062448442 -0.24842104 0.0027285814
-0.084528372 -0.20420277 0.0022541285
-0.10695835 -0.18288678 0.013385057
-0.10671694 -0.16023093 0.0055452585
-0.10670634 -0.13809976 0.0052008629
-0.10669474 -0.11597245 0.0048240423
-0.10668314 -0.093850948 0.004447341
0.15891397 -0.094068244 0.010092497
-0.10667154 -0.0717353 0.0040706396
-0.10684127 -0.049761385 0.0095829964
-0.084544621 -0.049608342 0.0029575825
0.070170514 -0.049658194 0.0051189661
-0.084702179 -0.027620748 0.0097802877
-0.062454738 -0.027518451 0.0031375885
0.0038312878 -0.027526274 0.0036450624
0.026075384 -0.027672477 0.013137817
-0.062560298 -0.0054771565 0.0099939108
-0.040426269 -0.0054899883 0.011655569
-0.062621891 -0.27163941 0.013994932
-0.085055992 -0.25048774 0.025100827
-0.084793799 -0.22726318 0.013747573
-0.10731143 -0.20594227 0.02485168
-0.12956303 -0.16140458 0.024602532
-0.12933336 -0.13882381 0.018635511
-0.12931873 -0.11659285 0.018255115
0.20421237 -0.11681775 0.023124933
-0.1293041 -0.094367802 0.017874718
-0.12929519 -0.072153211 0.017643094
-0.12928945 -0.049944073 0.017494559
0.092849098 -0.049999781 0.01990962
-0.12943724 -0.027798649 0.021334052
-0.10702488 -0.027709499 0.015545487
0.048467472 -0.027819753 0.022710085
-0.12966926 -0.0056109298 0.027362108
-0.10720975 -0.0055661295 0.021549463
-0.084840275 -0.0055215545 0.015760064
-0.018266657 -0.0055635367 0.021218061
-0.10739489 0.016669609 0.027561784
-0.084977806 0.016669564 0.021715164
-0.062740505 0.016669698 0.021698713
-0.10766373 -0.22917223 0.036292672
-0.13000333 -0.18445638 0.036041498
-0.15233907 -0.13974819 0.035790443
-0.15215608 -0.11721983 0.03182888
-0.15214916 -0.094899051 0.031678677
-0.15214221 -0.072580732 0.031528473
0.13799886 -0.072624996 0.032964349
-0.15213528 -0.050264604 0.031378269
-0.15212911 -0.027951248 0.031244755
0.071335569 -0.028131474 0.042955279
-0.15221934 -0.0056557301 0.033198237
0.0040405393 -0.0056375321 0.030827761
0.026496673 -0.0057121105 0.040501475
-0.15249929 0.016669609 0.039259434
-0.040601499 0.016669519 0.034418583
-0.12990162 0.016669698 0.033398747
-0.13013428 0.039043099 0.039443851
-0.10757668 0.038997225 0.033465624
-0.085148975 0.038963694 0.029127121
-0.063053265 0.03906282 0.042013645
-0.10775714 0.061414894 0.039326549
-0.13044776 -0.20769256 0.047588348
-0.15287152 -0.16280347 0.047318339
-0.17549589 -0.11809834 0.050848722
-0.17521934 -0.095439464 0.045716524
0.18356352 -0.095458247 0.046205282
-0.17521118 -0.073012993 0.04556489
-0.17520301 -0.050588802 0.045413136
0.11674856 -0.050837971 0.056202769
-0.17519483 -0.028166976 0.045261502
-0.17518756 -0.0057477001 0.045126677
-0.17518847 0.016669564 0.045143723
-0.018266657 0.016669698 0.047217131
-0.17551869 0.039134309 0.051271558
-0.15278119 0.039088748 0.045362592
-0.040759005 0.039161898 0.054879427
-0.15305725 0.061599862 0.051339269
-0.1303608 0.061507221 0.045328736
-0.085620947 0.061572455 0.049563885
-0.17584847 0.061692949 0.057391286
-0.15333128 0.084201865 0.057272553
-0.13058823 0.084062554 0.051237702
-0.10830556 0.08419878 0.057136774
-0.15395001 -0.20946926 0.070668221
-0.153409 -0.18604392 0.058955312
-0.17657499 -0.16425419 0.070874095
-0.1760336 -0.14109731 0.060827017
-0.19901641 -0.09629903 0.068047762
-0.19850674 -0.073450394 0.059771776
-0.19849624 -0.050916485 0.059601665
-0.19848578 -0.028385207 0.059431434
-0.19847636 -0.0058566146 0.059278369
0.049475394 -0.0059111621 0.066354632
-0.22198427 0.016669609 0.073448062
-0.19846691 0.016669519 0.059125185
0.0042537935 0.016669609 0.058530211
-0.22197355 0.039303631 0.073293447
-0.19845854 0.039193552 0.058989048
-0.018266657 0.039262049 0.067876816
-0.22196166 0.06193528 0.073121786
-0.19872811 0.061784919 0.063366413
-0.063369945 0.061772935 0.062582016
-0.19910181 0.084482782 0.069434524
-0.17616951 0.084342346 0.063349485
-0.086099617 0.084502548 0.070291162
-0.17649187 0.10708403 0.069331765
-0.15360646 0.10689624 0.063230038
-0.13110827 0.10694292 0.064748883
-0.15403003 0.12980573 0.072400689
-0.17718616 -0.18765551 0.082216263
-0.20026428 -0.14257833 0.088310719
-0.19963713 -0.11935825 0.078127146
-0.22281823 -0.074242175 0.085485458
-0.22212715 -0.051283911 0.075510502
-0.22200808 -0.028606299 0.073791623
0.095155582 -0.028699253 0.079833865
-0.24574766 -0.0060784686 0.08810246
-0.22199616 -0.0059670042 0.073619604
-0.24573563 0.016669698 0.087946296
-0.24572228 0.039415136 0.087772965
-0.24570893 0.062157981 0.087599516
-0.040918883 0.061973955 0.075648189
-0.24569024 0.084896579 0.087356687
-0.22213075 0.084624335 0.075562119
-0.063691393 0.08480671 0.083460927
-0.24565555 0.10762516 0.086905956
-0.22247809 0.10743018 0.080575824
-0.19947176 0.10727213 0.075441718
-0.10894712 0.1073501 0.077972054
-0.22277026 0.13028274 0.084792972
-0.19974226 0.13009188 0.079833865
-0.1767924 0.1299023 0.074908733
-0.13191442 0.13031739 0.08569324
-0.20000288 0.15297174 0.084066153
-0.17701876 0.15274292 0.07910955
-0.20026319 0.17591658 0.088293433
-0.1775174 0.17592037 0.088362694
-0.2008947 -0.16595843 0.098547339
-0.22352248 -0.097361349 0.095650077
-0.24690324 -0.051921308 0.10311401
-0.24612619 -0.02890233 0.093019843
-0.26972088 0.016669653 0.10257089
0.027261076 0.016669519 0.090150833
-0.26970604 0.039527763 0.10239565
0.0045501515 0.03948636 0.097028375
-0.26968679 0.062382296 0.10216796
-0.018266657 0.062340356 0.099438667
-0.2696512 0.085229047 0.10174787
-0.041120607 0.085231505 0.10185277
-0.26961562 0.10806936 0.10132766
-0.086585142 0.10776091 0.09131515
-0.26957709 0.13090166 0.10087264
-0.24588795 0.13048036 0.089925051
-0.10959789 0.13083367 0.09910655
-0.26953265 0.15372378 0.10034776
-0.24621332 0.15343755 0.094151497
-0.22306326 0.15320072 0.08902216
-0.15478732 0.15319031 0.088796496
-0.24653825 0.1764597 0.098372579
-0.22335833 0.17618531 0.093281031
-0.1554648 0.17673406 0.10346437
-0.24686413 0.19954756 0.10260594
-0.22365302 0.19923538 0.097534418
-0.20052534 0.19892833 0.09254992
-0.17830753 0.19957337 0.10302639
-0.22394979 0.22235271 0.10181797
-0.20114355 0.22240615 0.10258842
-0.22423524 -0.12064273 0.10593796
-0.24769241 -0.075100705 0.11336541
-0.27041402 -0.0062527936 0.1107564
0.073210098 -0.0061994996 0.1038326
-0.29388595 0.062606156 0.11670387
-0.29384673 0.085564733 0.1162796
-0.29380918 0.1085171 0.11587298
-0.064017184 0.10817072 0.10462189
-0.29377002 0.13146275 0.11544883
-0.087076448 0.13135266 0.11258924
-0.29372594 0.15439934 0.114972
-0.13261531 0.15388811 0.10390282
-0.293677 0.17732564 0.11444211
-0.26982474 0.17675203 0.10379755
-0.29362807 0.20024398 0.11391258
-0.27018455 0.19988269 0.10804629
-0.15614904 0.2005128 0.11827874
-0.29398724 0.22346005 0.11780083
-0.27054682 0.22308072 0.11232483
-0.24719092 0.22270155 0.1068511
-0.17910559 0.22346252 0.11783624
-0.27090868 0.24634418 0.11659789
-0.24752139 0.24592438 0.11114395
-0.22424617 0.24553573 0.10609603
-0.20205425 0.24640414 0.11737633
-0.24785277 0.26921439 0.11544895
-0.22499706 0.26934001 0.11693394
-0.24849387 -0.098443925 0.12377679
-0.27215311 -0.052572109 0.13129389
-0.27127907 -0.029332578 0.12097192
0.050904244 0.016669653 0.12822545
-0.29499468 0.016669698 0.12870669
-0.29408047 0.039654069 0.11880994
-0.31837684 0.085925773 0.13191891
-0.31823924 0.1089688 0.13054407
-0.31819639 0.1320273 0.13011563
-0.31815353 0.15507889 0.12968743
-0.11021551 0.15459284 0.11916411
-0.31810531 0.17812133 0.12920582
-0.13318568 0.17755634 0.11872149
-0.31805182 0.20115277 0.12867093
-0.31799829 0.22417617 0.1281364
-0.15685005 0.22454464 0.13345623
-0.31794658 0.24719256 0.1276195
-0.29438344 0.24676701 0.12208974
-0.17992224 0.24760619 0.13299119
-0.31837863 0.27061054 0.13193679
-0.29478243 0.27014238 0.12640882
-0.27127156 0.26967448 0.12088346
-0.20298836 0.27066198 0.1325444
-0.29518092 0.29358396 0.1307224
-0.27163547 0.29307193 0.1251812
-0.24818516 0.29257175 0.11976647
-0.2260464 0.29370928 0.13207972
-0.27200198 0.31653863 0.12950921
-0.24908213 0.31672987 0.13141882
-0.27304688 -0.075977743 0.14184904
-0.29594982 -0.0064705797 0.13904607
0.027957285 0.039781675 0.13537085
-0.31925544 0.06297569 0.14069843
0.0048643518 0.062931612 0.13784397
-0.018266657 0.086119905 0.14032125
-0.041435838 0.10934638 0.14280236
-0.34288552 0.13260493 0.14512527
-0.064643279 0.13261119 0.14528787
-0.34281951 0.15576375 0.14451289
-0.087853655 0.15584365 0.14624345
-0.3427729 0.17892271 0.14408052
-0.11070792 0.17844191 0.13515592
-0.34271857 0.20207074 0.1435765
-0.13377072 0.20147613 0.13392127
-0.3426623 0.22520965 0.14305437
-0.34260413 0.24833927 0.14251459
-0.34254599 0.27146044 0.14197481
-0.34272051 0.29477289 0.14359438
-0.31881368 0.29409757 0.13628423
-0.20394649 0.29518929 0.14810216
-0.34300792 0.31821501 0.14626133
-0.31925184 0.31765488 0.14066243
-0.29558384 0.31709656 0.13508439
-0.22712395 0.31835246 0.14763284
-0.31969124 0.3412807 0.14505363
-0.29598796 0.34067771 0.13945901
-0.27240738 0.34012142 0.13429701
-0.24984631 0.34088114 0.1413455
-0.29643151 0.36437574 0.14426064
-0.27286884 0.36385441 0.13974631
-0.27345106 0.38784701 0.14662218
-0.29691154 -0.029771186 0.14945722
-0.32102817 0.016669519 0.15841258
-0.32013917 0.039890498 0.14952946
-0.34480223 0.086641543 0.16291022
-0.34384203 0.10969114 0.15400064
-0.36767825 0.17972836 0.15903103
-0.36762995 0.20299682 0.15861249
-0.11154232 0.20322087 0.16225386
-0.36757118 0.22625232 0.1581037
-0.13442786 0.22575986 0.15099442
-0.3675082 0.24949729 0.1575582
-0.15756992 0.2488417 0.14904153
-0.36757746 0.27283084 0.15815806
-0.18076181 0.27201915 0.14857197
-0.36784425 0.29633164 0.16046846
-0.36810935 0.31986666 0.16276455
-0.34348488 0.3418878 0.15068674
-0.22785062 0.34268922 0.15812171
-0.34396124 0.36562812 0.15510714
-0.32013196 0.36497575 0.14945722
-0.25064477 0.36523676 0.15171814
-0.34443906 0.38943806 0.1595403
-0.32061568 0.38879138 0.15429091
-0.29693824 0.38823166 0.14974654
-0.25144741 0.38975883 0.16214442
-0.32117015 0.41277418 0.15983152
-0.29744855 0.41217729 0.15527046
-0.27433252 0.41240782 0.1570313
-0.29795903 0.43620831 0.16079628
-0.32197362 -0.0066924319 0.16786039
-0.34576809 0.063455567 0.17187262
-0.36968502 0.13380919 0.17641008
-0.36864707 0.15682182 0.16742134
-0.088483684 0.18050933 0.17352438
-0.3927258 0.22730297 0.17326736
-0.39267832 0.25067684 0.17288172
-0.13548194 0.25110018 0.17838025
-0.39296341 0.27427363 0.17519653
-0.1583994 0.27357972 0.16700077
-0.39324668 0.29790464 0.17749619
-0.18160917 0.29668534 0.16429687
-0.20491458 0.31997254 0.16382217
-0.36837485 0.34343722 0.16506374
-0.20560713 0.34451547 0.17506778
-0.36864287 0.36704582 0.16738474
-0.22854942 0.36714095 0.16820788
-0.36890918 0.39068824 0.16969109
-0.22925417 0.3917585 0.17838025
-0.36917588 0.41436678 0.172001
-0.34496149 0.41337049 0.16438818
-0.25225699 0.4144533 0.17266166
-0.36951303 0.43816525 0.1749208
-0.34557644 0.4374966 0.17009413
-0.32172665 0.43684506 0.1653924
-0.27522004 0.43713877 0.16751277
-0.34623733 0.46177274 0.17622626
-0.32233843 0.46108222 0.17150581
-0.29851189 0.46039113 0.16678131
-0.27606076 0.46195036 0.177441
-0.32295081 0.48541456 0.17762506
-0.29907712 0.484687 0.1729002
-0.34672976 0.040131219 0.18079567
-0.37070993 0.11065448 0.18528605
-0.041759599 0.13413438 0.18486047
-0.065253109 0.15762907 0.18489742
-0.39476314 0.18138689 0.18980825
-0.39366668 0.20436957 0.18090618
-0.11239136 0.22845015 0.18982685
-0.39351445 0.32155845 0.17967021
-0.18262757 0.32191128 0.18319631
-0.39378491 0.3452481 0.18186605
-0.39405349 0.36896989 0.18404675
-0.20623641 0.36911285 0.18528605
-0.39432243 0.39272547 0.18622994
-0.39459175 0.41651508 0.18841684
-0.22996239 0.41653925 0.18860221
-0.3949942 0.44048813 0.19168413
-0.25307223 0.4393197 0.18325174
-0.36999339 0.46219021 0.17908061
-0.25384447 0.46426749 0.1932832
-0.37057108 0.4864088 0.18408358
-0.3467795 0.48597369 0.18125689
-0.276885 0.48688483 0.1871748
-0.37115282 0.5107103 0.18912184
-0.34731945 0.51024872 0.18626714
-0.3235324 0.50979131 0.18343651
-0.29983371 0.50941205 0.18109083
-0.34800744 0.53483373 0.19265091
-0.32411435 0.53425801 0.18925166
-0.3006939 0.53445286 0.19040251
-0.20665677 0.91152263 0.19211173
-0.23005366 0.93441331 0.18991971
-0.20615894 0.93264449 0.18402815
-0.37174079 0.087364376 0.19421363
-0.39697075 0.13501464 0.20773184
-0.39586371 0.15826851 0.19874394
-0.089125223 0.20562571 0.20130384
-0.42005813 0.22938272 0.2032876
-0.41982302 0.2528792 0.20149076
-0.41970313 0.27642277 0.20057452
-0.13655534 0.2769047 0.20626783
-0.41949773 0.29989153 0.19900537
-0.15967783 0.29949203 0.19467926
-0.41929016 0.32333466 0.19741893
-0.41941467 0.34702685 0.19837046
-0.18364665 0.34742969 0.20210814
-0.41970313 0.37087831 0.20057476
-0.41999197 0.39476407 0.20278203
-0.20694456 0.39402539 0.19678473
-0.42032051 0.41872346 0.20529246
-0.23069347 0.44152316 0.19915473
-0.39542043 0.46453974 0.19514489
-0.39589363 0.48870325 0.19898665
-0.2545656 0.48926738 0.2026509
-0.39636803 0.51292771 0.20283818
-0.27767664 0.5119068 0.19652379
-0.37195158 0.53540748 0.19603908
-0.27840167 0.53693968 0.20508623
-0.34917596 0.56030643 0.20349348
-0.32519886 0.55970359 0.20008886
-0.30129209 0.55913514 0.19687808
-0.30225828 0.5846529 0.2073375
-0.23118109 0.89198452 0.20619273
-0.20743383 0.89156801 0.20472991
-0.23061587 0.91325516 0.19803464
-0.18348148 0.91355008 0.19904256
-0.422427 0.18308857 0.2213887
-0.42124033 0.2063044 0.21232092
-0.11325598 0.254143 0.21790648
-0.16097978 0.3258813 0.22286725
-0.18452957 0.37294725 0.21849251
-0.20795007 0.41974679 0.21311212
-0.42077744 0.44285759 0.20878398
-0.23136191 0.46653739 0.2088027
-0.42123291 0.46704358 0.21226442
-0.42168945 0.49128461 0.21575308
-0.23217878 0.49202976 0.22059321
-0.42218411 0.51562649 0.21953321
-0.25523171 0.51429617 0.21130419
-0.39784014 0.53858316 0.21479034
-0.2558943 0.53945053 0.21991169
-0.37406671 0.56222975 0.21435642
-0.27909726 0.56204271 0.21330082
-0.35035482 0.58596361 0.21443212
-0.32628921 0.58532655 0.21098423
-0.279726 0.58712649 0.22072577
-0.32738733 0.61113244 0.22195721
-0.30326429 0.61041474 0.21822774
-0.23174931 0.87060028 0.21439433
-0.25593948 0.87229186 0.22049868
-0.20846209 0.872549 0.22142661
-0.25530562 0.89371383 0.21226442
-0.18437989 0.89469665 0.21571529
-0.16038661 0.91676253 0.21002471
-0.2553564 0.91761059 0.21292377
-0.2556076 0.94229919 0.21618712
-0.066076271 0.18400338 0.23836339
-0.13764857 0.3031863 0.23467064
-0.44843376 0.35124409 0.23750162
-0.44821104 0.37495667 0.23589408
-0.44798592 0.3986423 0.2342695
-0.18542193 0.39873874 0.23505282
-0.44821638 0.42273322 0.23593247
-0.20896517 0.44574124 0.22959554
-0.23317397 0.51811987 0.23495734
-0.42407259 0.5418303 0.23396361
-0.40014288 0.56561667 0.23348629
-0.25653279 0.56468171 0.22820568
-0.3762227 0.58939934 0.23302794
-0.25717473 0.59004897 0.23654449
-0.35230958 0.61317486 0.23256993
-0.28022894 0.61203855 0.22666514
-0.3282814 0.63669896 0.23089135
-0.30410343 0.63598263 0.22731161
-0.28060296 0.63673729 0.23108196
-0.30477792 0.66131997 0.23461318
-0.28091818 0.66135979 0.23480439
-0.32887968 0.661789 0.23687005
-0.28121144 0.6859836 0.23826742
-0.25710848 0.80484748 0.23568392
-0.28106391 0.82895201 0.23652542
-0.25682762 0.82777703 0.23203576
-0.25655037 0.85066259 0.22843421
-0.23263898 0.85033971 0.22723544
-0.20950159 0.85332233 0.23830593
-0.44938558 0.20827815 0.24437082
-0.44913793 0.23210528 0.24258327
-0.44901019 0.25597155 0.24166155
-0.44888255 0.27982381 0.2407403
-0.448755 0.30366188 0.23981977
-0.44862753 0.32748574 0.23889971
-0.16179466 0.35156825 0.24051011
-0.18632393 0.42480868 0.25179183
-0.44859302 0.44699606 0.23865068
-0.44897032 0.47130132 0.24137378
-0.20987625 0.47174236 0.24438989
-0.44940692 0.4957144 0.24452448
-0.45023727 0.52063537 0.25051725
-0.23408358 0.54422224 0.24808645
-0.37796816 0.61617219 0.24814439
-0.2578201 0.61555326 0.24492848
-0.35355857 0.63935459 0.24415922
-0.25812703 0.64030659 0.24891555
-0.25841096 0.66505927 0.25260365
-0.32956105 0.68714988 0.24367857
-0.30533153 0.68648762 0.24060619
-0.30569348 0.71128452 0.2445246
-0.28154922 0.71077818 0.24225688
-0.30604926 0.73612607 0.24837565
-0.28191072 0.73569894 0.246526
-0.30638266 0.76096934 0.25198519
-0.28199065 0.75989175 0.24746978
-0.281681 0.78296602 0.24381316
-0.2577979 0.78316969 0.24463975
-0.2813721 0.80598599 0.24016511
-0.23413301 0.8081795 0.24880004
-0.23345771 0.82961369 0.23905313
-0.28136075 0.85378706 0.24003065
-0.28178361 0.87908876 0.24502468
-0.18569843 0.87774724 0.24018407
-0.018266657 0.11279768 0.25488651
-0.090486273 0.23332855 0.26023889
-0.16257054 0.37742937 0.25730824
-0.21077338 0.49793637 0.25895739
-0.2348327 0.57011604 0.25889909
-0.40286216 0.5935629 0.25556421
-0.35508856 0.66625476 0.2583555
-0.25866419 0.68978286 0.25589359
-0.3310124 0.71433312 0.25818121
-0.25888661 0.71446741 0.25878263
-0.25909147 0.73914403 0.26144397
-0.25855091 0.76155084 0.25442195
-0.30675802 0.78597987 0.25604844
-0.23481251 0.78661042 0.2586081
-0.30743793 0.81189066 0.2634089
-0.16250341 0.90612954 0.25585485
-0.11514142 0.28307533 0.27913809
-0.1872315 0.45115063 0.26863444
-0.21167773 0.52437371 0.27364218
-0.42902175 0.57239717 0.27178192
-0.23558974 0.59619784 0.26982605
-0.23624444 0.62216336 0.27927577
-0.38103691 0.64547145 0.27472031
-0.35734528 0.6948269 0.27929544
-0.33239308 0.74157685 0.2719779
-0.21162829 0.83845645 0.27283919
-0.13959974 0.33213562 0.28536355
-0.21254316 0.5509299 0.28769469
-0.23663339 0.64750683 0.28488994
-0.23756157 0.67455429 0.29828703
-0.23687702 0.76966095 0.28840649
-0.16462339 0.40695423 0.30175364
-0.1890194 0.48014137 0.30181348
-0.23827259 0.7011326 0.30854988
-0.21544446 0.58355588 0.3348062
-0.14184627 0.36269248 0.34373009
0 0 0 1 0 0 0 1 0 0 0 1 0 0 0 0 0 975 1 0 0
