ply
format ascii 1.0
comment PCL generated
element vertex 1327
property float x
property float y
property float z
element camera 0
property float view_px
property float view_py
property float view_pz
property float x_axisx
property float x_axisy
property float x_axisz
property float y_axisx
property float y_axisy
property float y_axisz
property float z_axisx
property float z_axisy
property float z_axisz
property float focal
property float scalex
property float scaley
property float centerx
property float centery
property int viewportx
property int viewporty
property float k1
property float k2
end_header
0.64775544 0.69454294 -0.052731663
0.67030621 0.69813967 -0.042852476
-0.629466 0.70997399 -0.05263871
-0.61136764 0.7238825 -0.052585192
0.61150414 0.72238886 -0.052624755
0.62961239 0.70847118 -0.052678265
-0.59329134 0.73775768 -0.052532114
0.59341794 0.73627323 -0.052571587
0.62697673 0.73169822 -0.042024247
-0.57690483 0.74975413 -0.05476176
-0.55722368 0.76544273 -0.052426077
0.5573374 0.7639882 -0.052465171
0.57536024 0.75013584 -0.052518561
-0.56502092 0.78242111 -0.042317756
-0.55366033 0.77648199 -0.041055888
-0.53923893 0.77926409 -0.05237288
0.53933614 0.77780735 -0.052412264
0.5807395 0.76891071 -0.044117473
-0.52127558 0.79305243 -0.052320205
0.52136308 0.79160476 -0.052359499
0.53726232 0.80116785 -0.040289193
-0.50890625 0.81336719 -0.047885038
-0.48543295 0.82056469 -0.052214853
0.48550799 0.81914634 -0.052253716
0.50342488 0.80539197 -0.052306481
-0.4669058 0.83327574 -0.052190095
-0.44580916 0.84200591 -0.052274756
0.44558141 0.84016943 -0.052325495
0.46669546 0.83143502 -0.052240685
0.49081922 0.83713073 -0.039390974
-0.41933414 0.8535043 -0.052880742
-0.40345612 0.85953188 -0.052444622
0.40319359 0.85770404 -0.052495621
0.42441419 0.84892565 -0.052410558
0.44064033 0.85689402 -0.055171795
-0.42684111 0.86533546 -0.04436481
-0.38219953 0.86832815 -0.052529946
-0.36137471 0.87825292 -0.047707565
0.36059147 0.87532735 -0.052666791
0.38520974 0.87324101 -0.048560716
0.40043715 0.86726451 -0.038804591
-0.33953273 0.88599831 -0.052700832
-0.31811461 0.89486146 -0.05278676
0.31777364 0.89304024 -0.052838571
0.33920971 0.88417268 -0.052752495
0.36094335 0.8905353 -0.047501244
-0.29664215 0.90374708 -0.052872956
-0.27850139 0.91163015 -0.054378487
0.25314605 0.9197889 -0.053097814
0.27473789 0.91084284 -0.053011328
0.30231944 0.90657455 -0.055245854
-0.2535333 0.92158598 -0.053045891
-0.23058186 0.93067551 -0.047791258
-0.20450403 0.9336192 -0.051545516
-0.17838541 0.93656439 -0.055284373
-0.15729193 0.93788898 -0.057725407
-0.15195455 0.93921381 -0.05393292
0.12425001 0.94017959 -0.054262199
0.15089798 0.93669182 -0.054007091
0.17735098 0.93322968 -0.053754061
0.20425209 0.93368804 -0.055475377
0.23031917 0.93075842 -0.051738173
0.25713193 0.9326666 -0.042966433
-0.15773095 0.94740498 -0.043360092
-0.12285461 0.94273764 -0.055684358
-0.098524705 0.94621491 -0.05444406
-0.084016964 0.94758612 -0.056645326
-0.071516879 0.94975996 -0.054702237
-0.046245728 0.95282131 -0.055540055
-0.025068231 0.9592464 -0.043833964
-0.014888939 0.95695376 -0.055411018
0.015663138 0.95439076 -0.055301361
0.046813365 0.95545763 -0.05181174
0.070359886 0.94723243 -0.054777883
0.089451753 0.94756204 -0.055523127
0.11778205 0.94664997 -0.057061814
0.13226782 0.94790649 -0.041805342
0.15461011 0.94179666 -0.057604223
0.00048331241 0.96164 -0.051073521
0.01073224 0.96054387 -0.055489086
0.025973484 0.96182507 -0.051633149
-0.068604432 -0.96306282 -0.031482883
-0.041334882 -0.96661574 -0.031657025
-0.022104347 -0.96328235 -0.032222264
-0.013870351 -0.97020626 -0.03183233
0.016171679 -0.96740258 -0.032013789
0.040152576 -0.96409678 -0.031707563
0.055168215 -0.96236092 -0.032493956
0.067459457 -0.96054941 -0.03153307
-0.22805417 -0.94228852 -0.030464409
-0.2019645 -0.94568759 -0.030631015
-0.17568365 -0.94911182 -0.030798921
-0.16093138 -0.94376689 -0.030133525
-0.14920934 -0.95256096 -0.030967953
-0.12704358 -0.95035911 -0.032795317
-0.095671833 -0.95953614 -0.031309977
-0.093752086 -0.95361286 -0.032928877
-0.057663139 -0.9584834 -0.032572836
0.092863061 -0.95727241 -0.032104328
0.12458663 -0.95307195 -0.03219828
0.15151893 -0.94831461 -0.032771215
0.16609815 -0.94504619 -0.032157823
0.18101341 -0.94408232 -0.027163593
0.20357455 -0.9424476 -0.028131267
-0.29778481 -0.92208189 -0.030164631
-0.2762734 -0.93098629 -0.030222071
-0.25395447 -0.93891388 -0.030298872
-0.24656193 -0.9303593 -0.034470163
-0.20533277 -0.93854398 -0.03402935
-0.18432096 -0.94042027 -0.033497721
0.22710596 -0.93978661 -0.030512778
0.24687047 -0.93692935 -0.032334559
0.27589813 -0.92917621 -0.030256772
-0.34065211 -0.90435165 -0.030049803
-0.31924954 -0.91321099 -0.030106986
-0.30388322 -0.90630168 -0.035249159
0.29747695 -0.91703665 -0.032645404
0.31890249 -0.91138119 -0.030141832
0.34033075 -0.90252829 -0.030084273
-0.38329571 -0.88670027 -0.029935842
-0.36200085 -0.89551485 -0.029992709
-0.33753818 -0.89079154 -0.027774999
0.34701228 -0.88436157 -0.037858702
0.36079529 -0.89142907 -0.031833388
0.38300976 -0.88486809 -0.029970026
-0.42572457 -0.86913747 -0.029822433
-0.39722058 -0.87274235 -0.034154058
-0.36303261 -0.8814767 -0.036053173
0.37524831 -0.88006902 -0.024318645
0.40427598 -0.8760823 -0.029913018
0.42131862 -0.86551315 -0.033286043
-0.46794063 -0.85166276 -0.029709628
-0.44685912 -0.86038923 -0.029765943
-0.4241119 -0.85583448 -0.036883369
0.44663301 -0.85855496 -0.02979969
0.46773177 -0.84982443 -0.02974329
-0.50726348 -0.82993621 -0.029675765
-0.48896927 -0.84295821 -0.029653313
-0.4760994 -0.83244556 -0.027592907
0.49279785 -0.83462083 -0.031282656
0.50734597 -0.8285051 -0.029701913
-0.52363932 -0.81197917 -0.033722363
-0.49852201 -0.81212574 -0.036417216
0.52524799 -0.81476915 -0.029736819
-0.56101161 -0.78866935 -0.029781228
-0.54306972 -0.80245024 -0.02974592
-0.52669978 -0.79454386 -0.033398554
-0.51921427 -0.79795218 -0.038411193
0.54317141 -0.80100071 -0.029772213
0.56112957 -0.78722209 -0.029807204
-0.57450914 -0.77325553 -0.032136589
0.57910913 -0.77341032 -0.029842513
-0.6150192 -0.74721915 -0.029886955
-0.59699273 -0.76106519 -0.029851442
-0.57231176 -0.75956649 -0.034337975
0.59712368 -0.75958842 -0.029877765
-0.63308042 -0.73336321 -0.029922148
-0.61678404 -0.73637807 -0.031248806
0.61515993 -0.7457332 -0.029913189
0.63323098 -0.73186785 -0.029948587
-0.65116364 -0.71947348 -0.029957833
-0.61481172 -0.72538 -0.032269359
0.63964361 -0.7268452 -0.032888971
0.65132403 -0.717969 -0.029984126
-0.6874218 -0.69164038 -0.030028796
-0.66405356 -0.69983929 -0.031431638
0.66945183 -0.7040599 -0.030019665
0.68760824 -0.69012916 -0.030054973
-0.70341498 -0.67339212 -0.030138424
-0.69123524 -0.67836243 -0.035867006
0.70372349 -0.67209303 -0.030160902
-0.71869612 -0.65346706 -0.030275641
-0.6908024 -0.66238666 -0.027662428
0.70435894 -0.65922928 -0.037299246
0.71901029 -0.65215433 -0.030298149
-0.7340762 -0.63343316 -0.030413525
-0.70180583 -0.63910121 -0.029172337
0.70422852 -0.6438967 -0.028036205
0.73008388 -0.63535136 -0.030254221
-0.74583203 -0.6128583 -0.029719857
0.74986351 -0.61191165 -0.030575568
-0.76511204 -0.59298551 -0.030692069
-0.73467034 -0.6049484 -0.030093724
0.7654317 -0.59160566 -0.030715445
-0.78076982 -0.57256973 -0.030832728
0.74983901 -0.5857535 -0.023386048
0.77077889 -0.57514411 -0.026384944
-0.78673017 -0.55528092 -0.024334015
0.7810955 -0.57117516 -0.03085619
-0.79652965 -0.55204082 -0.030974021
-0.77750164 -0.54885381 -0.032458328
0.79685557 -0.55061883 -0.030997945
-0.80624545 -0.52683282 -0.02522658
0.81278718 -0.52490228 -0.029966125
0.82747447 -0.51635766 -0.020239903
-0.8292945 -0.50504637 -0.025575409
0.81095552 -0.50353563 -0.036918826
0.82866889 -0.5091241 -0.031283796
-0.84438431 -0.48966411 -0.031403594
-0.8193568 -0.4940508 -0.034778208
0.8447237 -0.4881832 -0.031428128
-0.85723913 -0.46067059 -0.031679161
-0.83306789 -0.45694271 -0.023565887
0.84917492 -0.46675852 -0.027227508
0.85757601 -0.45915225 -0.031704389
-0.85648787 -0.44799274 -0.029411582
-0.84645998 -0.44294333 -0.025803125
0.85875589 -0.44093558 -0.035034098
-0.86294192 -0.42374927 -0.032797828
0.85306501 -0.42431638 -0.033156767
0.87016344 -0.42874557 -0.032000639
-0.88257957 -0.39955017 -0.032274589
0.86560756 -0.39784276 -0.022455877
0.88291657 -0.3979657 -0.032300651
0.88105452 -0.3913438 -0.022590062
-0.89549273 -0.36840355 -0.032577924
-0.88277 -0.36984885 -0.027945014
0.89044797 -0.36601433 -0.030362902
0.89718986 -0.36804867 -0.033812717
-0.89941442 -0.34606707 -0.02412436
-0.88775998 -0.34241083 -0.028938292
0.88387495 -0.34839046 -0.038422838
0.89975762 -0.34088242 -0.038065992
-0.90857762 -0.3368701 -0.032885015
0.90253681 -0.32884273 -0.030343009
-0.92182648 -0.304914 -0.033196203
-0.89707142 -0.31735379 -0.03664317
0.92215711 -0.30320287 -0.033224061
0.92163557 -0.29226142 -0.025754815
-0.93233645 -0.2721605 -0.031456746
-0.91896045 -0.26879194 -0.024319222
0.93076438 -0.26760599 -0.033425257
0.93935788 -0.26863718 -0.027829019
-0.94068527 -0.24669661 -0.019498935
-0.92706406 -0.24431236 -0.031128144
0.92626184 -0.24825217 -0.033033788
-0.94600391 -0.23174086 -0.033958964
0.93021035 -0.22390622 -0.029561372
0.94611847 -0.22934102 -0.033997506
-0.92989784 -0.22046581 -0.033509277
-0.93272483 -0.19667621 -0.035884753
0.93384081 -0.1996658 -0.02636865
-0.95303255 -0.17886575 -0.034594581
-0.93554533 -0.17294332 -0.038254559
0.94407505 -0.1741578 -0.021506926
0.95310926 -0.17629945 -0.034635499
0.94105726 -0.15140781 -0.020022271
0.95349556 -0.14915742 -0.022202877
0.93676913 -0.12736772 -0.038525157
-0.96025074 -0.12461997 -0.035246558
-0.93833756 -0.119509 -0.038401544
0.95828629 -0.12371738 -0.029935801
-0.9573577 -0.10354088 -0.036071636
0.95906472 -0.10201029 -0.02695428
-0.95962971 -0.075804859 -0.029704215
0.9618395 -0.078520574 -0.029321546
-0.95878178 -0.055557787 -0.02620892
0.00048331241 -0.053115085 -0.025703499
0.03025651 -0.053511523 -0.025083655
0.96614224 -0.060555764 -0.033827193
-0.96194065 -0.031939235 -0.025811678
0.96738005 -0.031707738 -0.034048676
-0.97525913 -0.011715108 -0.036603734
-0.97152621 -0.0083844364 -0.02342234
-0.95577472 -0.00044126716 -0.032025069
0.96024936 -0.0040571471 -0.036561161
0.9752472 -0.0086808428 -0.036651582
-0.97111958 0.015264831 -0.023785254
-0.95833862 0.015019622 -0.027159432
0.96356648 0.015164709 -0.036553197
-0.96157229 0.038732596 -0.025862997
-0.029272314 0.035517044 -0.02700028
0.060048547 0.037411831 -0.024037329
0.96706498 0.038268469 -0.033779845
-0.95841253 0.062386766 -0.026250934
-0.9455846 0.064555518 -0.035932168
0.94561988 0.061805457 -0.03597603
0.96430266 0.061677799 -0.031423211
-0.95524395 0.086105071 -0.026640663
0.9615339 0.085142642 -0.029060801
-0.95883143 0.11434226 -0.037430331
-0.93846166 0.1200968 -0.03526251
0.93852544 0.11749364 -0.035304055
0.95875865 0.1086632 -0.026693074
0.95754129 0.1292668 -0.031434558
0.94065315 0.15850472 -0.020377556
0.953188 0.15587223 -0.021940285
-0.93337613 0.17696251 -0.03629709
0.9316203 0.17175256 -0.034649365
0.9437238 0.18109906 -0.021548765
-0.93240243 0.20347266 -0.035613835
0.93343419 0.20684405 -0.026726248
-0.92957467 0.22729367 -0.033237673
-0.92477262 0.226953 -0.033973813
0.92733908 0.22785118 -0.031966127
-0.93995583 0.25384003 -0.020140389
-0.9267512 0.25117049 -0.030865321
0.92491996 0.25561926 -0.03421396
-0.91998941 0.27398324 -0.029191395
0.92201072 0.26989248 -0.033064261
-0.90067059 0.29931223 -0.03322129
0.90099412 0.29762077 -0.033248849
0.92060179 0.29928267 -0.024886133
-0.89602256 0.3244971 -0.035775296
-0.88754541 0.33119833 -0.032909922
0.88787699 0.32956439 -0.032936558
0.89480007 0.33008385 -0.028959209
-0.89806199 0.35362235 -0.025295855
-0.88669151 0.34965959 -0.028054236
0.89871043 0.34801888 -0.037199333
-0.875938 0.36884767 -0.02643772
0.88215178 0.36717066 -0.031054245
-0.88582087 0.37972531 -0.035899431
-0.86179578 0.39375576 -0.032299034
0.86213243 0.39220402 -0.032324694
0.86422294 0.40565044 -0.023636965
0.87999094 0.39868888 -0.02170982
-0.86129063 0.42694387 -0.026333628
-0.84917039 0.4244554 -0.031999223
0.8505851 0.42759791 -0.033187434
-0.84103513 0.45263824 -0.028310051
0.83703482 0.45326966 -0.031728081
0.857678 0.44839892 -0.034155935
-0.85511774 0.4559069 -0.030580537
0.84807664 0.47433081 -0.026332935
0.8590526 0.46884257 -0.019479515
-0.82379365 0.48332211 -0.031433731
0.82412183 0.48184583 -0.031458318
-0.82226849 0.50495434 -0.027687913
-0.80779296 0.50421542 -0.031289518
0.80811471 0.50275475 -0.031313993
-0.79189098 0.52498001 -0.031146204
0.79221225 0.52354765 -0.031170329
0.81071937 0.52791822 -0.027073095
-0.77608675 0.54561704 -0.031003928
0.77640164 0.54419947 -0.031027967
0.79139405 0.53770697 -0.021275019
-0.77954793 0.56059206 -0.028759724
-0.76248205 0.56284678 -0.025553564
0.7606883 0.56472492 -0.030886268
0.79113114 0.56278026 -0.027403763
-0.74477381 0.58652484 -0.030721629
0.74507684 0.58513725 -0.030745292
0.76861233 0.58352357 -0.024673698
-0.7292577 0.60678589 -0.030581923
0.72956061 0.60542482 -0.030605184
0.7462852 0.60269308 -0.031871714
-0.73911041 0.62159324 -0.031339422
-0.73246717 0.61357033 -0.028380511
-0.71384156 0.62693572 -0.030442709
0.71413285 0.62557697 -0.030466201
-0.69851303 0.6469515 -0.030304709
0.69880468 0.64561903 -0.030327739
0.72550756 0.64044654 -0.022217209
-0.68327701 0.66684651 -0.030167403
0.68356293 0.665528 -0.030190373
0.70168024 0.66069245 -0.03305506
-0.69095302 0.67597342 -0.030989913
-0.66738951 0.68377012 -0.032863751
0.66732305 0.68324566 -0.03008982
-0.64864242 0.70208311 -0.028511906
0.64916885 0.69717962 -0.030054135
0.66764456 0.70736086 -0.026203258
-0.65519196 0.71285897 -0.033824809
-0.63090134 0.71260285 -0.029992128
-0.61281377 0.72648358 -0.029956734
0.61295193 0.72499299 -0.029983172
0.63104928 0.71110296 -0.030018596
-0.61252999 0.73543119 -0.032028377
-0.59476119 0.74035412 -0.029921165
0.59488952 0.73887283 -0.029947517
-0.60942787 0.74767727 -0.036968984
-0.57673043 0.7541914 -0.029885912
0.57684892 0.75271928 -0.029912235
-0.56786352 0.76996833 -0.031091968
-0.55872792 0.7680071 -0.02985069
-0.54075342 0.7818011 -0.029815527
0.5408591 0.78035855 -0.029841473
0.5588432 0.76655537 -0.029876811
-0.52432746 0.7942161 -0.029814472
0.52290314 0.79414016 -0.029806426
0.53824967 0.78884292 -0.024655668
0.55251628 0.79423559 -0.033469059
-0.5221532 0.80531281 -0.030133711
-0.50489551 0.80933583 -0.029745141
-0.48700514 0.82306534 -0.029710149
0.496032 0.81478059 -0.029753549
0.52627498 0.8140012 -0.028969022
-0.47193599 0.83863884 -0.029423038
0.44721898 0.84268713 -0.029783135
0.46830934 0.83395869 -0.029726764
-0.44921044 0.84630555 -0.033366002
-0.43473867 0.85041833 -0.029679013
-0.40513161 0.86202329 -0.029862652
0.40487894 0.86021 -0.029896433
0.4260757 0.85143769 -0.029839711
0.44393945 0.85595948 -0.036814488
0.4699707 0.84823418 -0.031347975
-0.38942295 0.87358612 -0.036150493
-0.38389903 0.87081367 -0.029919403
-0.36262035 0.87963718 -0.029976094
0.36231759 0.87781066 -0.030010389
0.38317713 0.87510908 -0.032970831
0.41741902 0.87149566 -0.020660261
-0.33805189 0.89414573 -0.033835776
-0.31988636 0.89732891 -0.030090226
0.31954807 0.89551139 -0.030124756
0.34095985 0.88664979 -0.030067543
-0.30981296 0.90240705 -0.032166839
-0.29843834 0.90620852 -0.03014764
-0.27693585 0.91511059 -0.03020511
0.27656138 0.91330183 -0.030239755
0.29808196 0.9043954 -0.03018214
0.32343894 0.9056648 -0.035188362
0.33645564 0.9030183 -0.033928595
-0.29009023 0.92301512 -0.035422094
-0.27202374 0.92217815 -0.03456378
-0.25661907 0.92472702 -0.025916507
-0.23270912 0.93160087 -0.03034704
-0.22922964 0.93161321 -0.034093782
-0.20672052 0.93503499 -0.030512376
-0.18589675 0.93754506 -0.032200232
0.15310344 0.93944091 -0.030896669
0.1795176 0.93597269 -0.030728361
0.20573944 0.93252999 -0.030561147
0.22907397 0.93234843 -0.032202959
0.26172161 0.92548954 -0.031525485
0.28450528 0.92602259 -0.023352878
-0.15401703 0.94174063 -0.03210073
-0.12509328 0.94837964 -0.029683901
-0.10160419 0.95048833 -0.02657832
-0.078650229 0.95279509 -0.030963285
-0.073827855 0.9525103 -0.031359099
-0.047477536 0.95626342 -0.03346543
-0.019278931 0.95968109 -0.031706788
0.018070623 0.95717025 -0.031757347
0.044042289 0.95661765 -0.031895362
0.076086283 0.95400649 -0.033703275
0.1056568 0.95128334 -0.029382253
0.12778793 0.94757003 -0.026802456
0.15121698 0.94543087 -0.033273473
0.18850771 0.94055074 -0.033639275
-0.0098039759 0.96050006 -0.031939469
0.0082975924 0.96331233 -0.031882495
-0.096635751 -0.96070105 -0.0080619864
-0.069603719 -0.96425211 -0.0081482362
-0.048415642 -0.96493918 -0.0084519759
-0.022193952 -0.96428478 -0.0045663491
-0.0072203237 -0.96870214 -0.010904869
0.016689526 -0.96958065 -0.008403549
0.026269825 -0.96617079 -0.014059609
0.049495734 -0.96434963 -0.0062965844
0.069791414 -0.96332479 -0.0081575401
-0.22887829 -0.94336522 -0.0076403003
-0.20231146 -0.94451904 -0.0085591022
-0.17852542 -0.94580734 -0.01350992
-0.16059789 -0.9469015 -0.012184402
-0.15011361 -0.95368809 -0.0078915376
-0.12525393 -0.95475066 -0.0085012987
-0.090480082 -0.95722324 -0.0088460371
0.093248338 -0.95950651 -0.0084483642
0.12717336 -0.95254356 -0.010222396
0.15037616 -0.95281023 -0.0079002939
0.16311768 -0.94945353 -0.0091868192
0.1768385 -0.94934964 -0.0078158341
0.20190947 -0.94518763 -0.008551864
0.22919416 -0.94251466 -0.0076486804
-0.29846972 -0.92302048 -0.0074918997
-0.28278497 -0.92751122 -0.0059865694
-0.25474784 -0.93996692 -0.0075580087
-0.24090162 -0.9362452 -0.009592209
-0.20681103 -0.9388718 -0.011781802
0.23364975 -0.93906093 -0.012340156
0.23885214 -0.93938166 -0.0095594414
0.25509146 -0.93913966 -0.0075659547
0.27771911 -0.93163198 -0.007523654
0.29922411 -0.92272937 -0.0074948464
-0.34130329 -0.90527326 -0.0074348319
-0.31990966 -0.91413027 -0.0074633807
-0.29799014 -0.91234016 -0.0099799149
-0.2852709 -0.91395706 -0.017123694
0.29434338 -0.91706753 -0.009930158
0.31635851 -0.91421735 -0.013200926
0.34207863 -0.90500224 -0.0074375197
-0.38392133 -0.88761532 -0.0073779691
-0.35977501 -0.89205045 -0.0088930931
0.35817793 -0.89440823 -0.0088680256
0.38470939 -0.88735384 -0.0073805973
-0.42633268 -0.87005687 -0.0073213633
-0.42466938 -0.86542249 -0.013326151
-0.40515363 -0.87882501 -0.0073495936
0.4021661 -0.87301219 -0.0074843001
0.42026538 -0.86863208 -0.0090302825
-0.48953763 -0.84386212 -0.0072369929
-0.46852431 -0.85257548 -0.0072650481
-0.44745135 -0.86129975 -0.0072932206
-0.41837093 -0.86050361 -0.012549052
0.44596437 -0.85946727 -0.016118513
0.44826835 -0.86106938 -0.0072953887
0.46934351 -0.85234463 -0.007267274
0.49036592 -0.84364176 -0.0072391592
-0.50781858 -0.83083433 -0.0072484054
-0.47997275 -0.83857054 -0.0027189963
0.47776631 -0.83955181 -0.011180017
0.49749717 -0.82959139 -0.011735225
0.50889498 -0.83101147 -0.0072468445
-0.52570492 -0.81711328 -0.0072658863
-0.49772194 -0.81903148 -0.011399267
0.51372641 -0.80643106 -0.011627851
0.52678025 -0.81729162 -0.0072642975
-0.56156141 -0.78960675 -0.0073008481
-0.54361922 -0.80337077 -0.0072833672
0.54402399 -0.79380828 -0.012990167
0.55365717 -0.79665762 -0.0072906781
-0.57953179 -0.77582139 -0.0073183589
0.56163484 -0.77038771 -0.0086978376
0.58059037 -0.77598047 -0.0073170587
-0.6155566 -0.74818587 -0.007353466
-0.5917806 -0.75507301 -0.011391366
0.59402448 -0.76051539 -0.01077025
0.61479157 -0.74895549 -0.013215514
-0.63360512 -0.73432422 -0.0073712654
0.60838479 -0.73521608 -0.005838789
0.6346606 -0.73448628 -0.0073699933
-0.65168828 -0.72045225 -0.0073889773
0.63386071 -0.72470254 -0.015393725
0.65273637 -0.72060376 -0.0073877927
-0.68793964 -0.69264311 -0.0074242856
-0.66979975 -0.70655847 -0.0074065737
-0.6564914 -0.69647682 -0.001398867
0.65670365 -0.69769555 -0.011442378
0.6740455 -0.69901723 -0.011974933
0.68897969 -0.69278455 -0.0074232742
-0.70397615 -0.67449933 -0.0074781738
0.68699253 -0.67029816 -0.0094703604
0.70520842 -0.67502302 -0.0074738972
-0.71926451 -0.6546101 -0.007546626
0.70716763 -0.66183865 -0.0079560596
0.72048271 -0.65511531 -0.0075424351
-0.72929263 -0.63670987 -0.0095286258
-0.71427923 -0.63474768 -0.014237715
0.73584968 -0.6350866 -0.0076113194
-0.75011414 -0.61445677 -0.0076846834
0.73288536 -0.6117394 -0.0050456934
0.75131017 -0.61493582 -0.0076807532
-0.765683 -0.59420282 -0.0077543482
0.75084263 -0.6044485 -0.010637928
0.76686531 -0.59466201 -0.0077505913
-0.78134125 -0.57381219 -0.0078244749
-0.76255244 -0.57970774 -0.012551086
0.78251582 -0.57426375 -0.0078208335
-0.79710144 -0.55330926 -0.0078949183
0.77764446 -0.55462748 -0.00073013268
0.79826254 -0.55374014 -0.0078915097
0.79348594 -0.54840094 -0.013246981
-0.8129527 -0.53266716 -0.007965913
-0.809852 -0.52561635 -0.0052017234
0.79432398 -0.52904463 -0.018850541
0.81410629 -0.53308988 -0.0079626478
0.81602943 -0.52186167 -0.00022066571
-0.8240366 -0.50425655 -0.0058004614
-0.80070072 -0.51298845 -0.013057435
0.83004814 -0.512312 -0.0080341045
-0.84496129 -0.49102563 -0.0081090853
0.83514512 -0.49364617 -0.015796168
0.84608895 -0.49140507 -0.0081060212
-0.85795116 -0.46238682 -0.0082440507
-0.84227425 -0.47026646 -0.011553016
0.83459151 -0.47431016 -0.017058739
0.85923237 -0.46314433 -0.0082379822
0.84725749 -0.44751951 -0.006416101
0.86205769 -0.44259802 -0.0068707839
-0.86535591 -0.42425907 -0.010084897
0.87181801 -0.43281913 -0.008385662
-0.88331783 -0.40140784 -0.0085406229
0.87159908 -0.41686967 -0.014765905
0.88455802 -0.40209529 -0.0085351914
-0.87993211 -0.39539585 -0.0094095673
-0.8688606 -0.39312169 -0.013299802
-0.89624929 -0.37034908 -0.0086916257
-0.88940197 -0.36978695 -0.0013298672
0.878034 -0.3716374 -0.01185392
0.89565289 -0.36917818 -0.0055450909
-0.87586498 -0.35708386 -0.011330586
0.89032245 -0.34569997 -0.0013696253
0.90685332 -0.34080309 -0.0095423795
-0.91152972 -0.32036337 -0.013629427
-0.90934128 -0.3388778 -0.0088448822
-0.92260224 -0.30699983 -0.0089998711
-0.89893198 -0.31872922 -0.0074901655
0.91244715 -0.31710622 -0.018034445
0.92377359 -0.30754963 -0.0089956541
-0.92087114 -0.29523799 -0.0055378247
-0.90975893 -0.2935639 -0.016587758
0.90834939 -0.29686534 -0.017222164
-0.936041 -0.27472195 -0.0091570001
0.92039615 -0.27149299 -0.006786989
0.93572903 -0.27189541 -0.007477928
-0.92760748 -0.24549849 -0.00094036944
0.94227749 -0.24412802 -0.012631645
-0.94718653 -0.23507044 -0.0093715694
0.94847405 -0.23597299 -0.0093644038
-0.93773162 -0.22200182 -0.010163711
0.94509202 -0.22030032 -0.01503312
-0.94128925 -0.19798037 -0.010122566
0.94789982 -0.19652946 -0.017428586
-0.95246583 -0.17846633 -0.010206779
-0.93831134 -0.17361492 -0.010072637
0.95548534 -0.18314859 -0.0096818972
-0.95348263 -0.15059565 -0.0082444269
-0.94185412 -0.14979798 -0.013095228
-0.95891362 -0.12758964 -0.0078950487
0.94464344 -0.12738934 -0.016868381
0.96268064 -0.12893854 -0.010007711
-0.94343567 -0.11685611 -0.013524903
0.94288659 -0.10840417 -0.01153224
-0.95909506 -0.10296498 -0.0033085588
-0.94750708 -0.10243397 -0.017918175
0.94822997 -0.10344335 -0.013714263
-0.96900219 -0.072990887 -0.010344505
-0.96189684 -0.079234891 -0.00084467046
0.9624365 -0.077213489 -0.0076053105
0.96178508 -0.055515334 -0.005875716
0.060104255 -0.030770309 -0.005319152
0.96494585 -0.031918012 -0.0055116471
-0.97666371 -0.016069271 -0.010686209
-0.029300747 -0.028943833 -0.0082239695
0.97765249 -0.016137116 -0.010685863
0.96245611 -0.0083844364 -0.0012031943
0.97373962 -0.0083844364 -0.0090958886
-0.95431709 0.011807062 -0.010694763
0.9586969 0.013633985 -0.0061323997
0.97342479 0.015001373 -0.0088231247
0.96458346 0.038690023 -0.0055549294
0.96142721 0.062322736 -0.0059141461
-0.96156633 0.086096205 -0.0011352338
-0.94695401 0.068598427 -0.01035271
0.94972706 0.077777646 -0.010640629
0.9651196 0.085492797 -0.0016290974
-0.96447897 0.10614273 -0.011535823
-0.95877492 0.10985744 -0.003590107
-0.94347692 0.11654229 -0.013827661
0.94439149 0.11747759 -0.012041202
0.96509671 0.10725297 -0.011544665
-0.9559657 0.13367617 -0.006060699
-0.94436872 0.13287818 -0.015240585
0.94424063 0.13444586 -0.017222745
-0.95316088 0.15755138 -0.0085275918
-0.94144362 0.15662673 -0.012745028
-0.95033795 0.18148474 -0.011009973
-0.93534595 0.17912845 -0.0097082332
0.93403327 0.17854612 -0.0096890628
0.94759077 0.20330651 -0.017164839
-0.9408989 0.20494631 -0.010118
-0.93732321 0.22900924 -0.010173883
-0.9259786 0.23027055 -0.0093790255
0.92728329 0.23120002 -0.0093715694
0.94478202 0.22710863 -0.014768681
-0.92720342 0.25248545 -0.00059560128
0.94195569 0.2509689 -0.012357263
-0.91476971 0.26916921 -0.0091695972
0.91748267 0.27423725 -0.0085622221
0.93323421 0.27559316 -0.0049163625
-0.91983813 0.30250859 -0.0064326283
-0.90508854 0.30104297 -0.012361756
0.90481257 0.30313447 -0.013706824
-0.91017956 0.32778293 -0.014799075
-0.89757013 0.32602268 -0.0063459445
-0.88832378 0.33319956 -0.0088573638
0.88952774 0.33380935 -0.008852452
0.91139436 0.32423183 -0.017149584
0.88895422 0.35323033 -0.0025369618
0.90212667 0.34937316 -0.0093624108
-0.88185036 0.37094146 -0.0054671057
0.88467807 0.36998492 -0.0051019657
0.9022764 0.36956513 -0.0067339391
-0.86255348 0.39562118 -0.0085529331
0.86379874 0.39630643 -0.0085473843
0.87665176 0.37930661 -0.013033161
-0.87888038 0.40299401 -0.010306798
-0.86747175 0.40063256 -0.012150494
-0.85514814 0.42688778 -0.0019532945
-0.84990907 0.42623544 -0.008403549
0.85117775 0.42696312 -0.0083977412
0.87051541 0.4243224 -0.013869254
0.84587121 0.45540911 -0.0075808931
0.86097723 0.45015529 -0.0059769042
-0.83742267 0.45646667 -0.0082560703
0.83871526 0.45723537 -0.0082498305
-0.84119505 0.47802079 -0.011552727
-0.82437533 0.48466626 -0.0081241671
0.82934833 0.48369357 -0.013178444
-0.83589339 0.50592953 -0.0011309572
-0.81618947 0.50485975 -0.0011385847
-0.80837476 0.5055328 -0.008052364
0.80951267 0.50592005 -0.0080491863
0.8330065 0.50158256 -0.014053715
-0.79793531 0.53046477 -0.017592246
-0.79247278 0.52627081 -0.0079809949
0.79362381 0.52667958 -0.0079775564
-0.8077575 0.53393352 -0.0069346987
-0.77667409 0.54689425 -0.0079098865
0.77782691 0.54729867 -0.0079065338
-0.76096624 0.5673787 -0.0078391824
0.76841158 0.56558031 -0.0054863207
0.79133475 0.55666274 -0.011521405
-0.76038736 0.58828789 -0.012560217
-0.74535435 0.58773834 -0.0077691134
0.74652839 0.58817148 -0.0077655874
-0.7298373 0.60797417 -0.0076993909
0.7310251 0.60842711 -0.0076957215
0.74449301 0.59393167 -0.0061439145
-0.71441436 0.62808734 -0.0076301005
0.71561015 0.62854779 -0.0076262299
0.72986752 0.62084937 -0.0074667037
0.74866724 0.61304557 -0.0089195166
-0.72176623 0.64783561 -0.013190465
-0.70466042 0.64462245 -0.0089451075
0.70029444 0.64855838 -0.007557258
0.72988594 0.64511508 -0.014513483
-0.68384707 0.66795003 -0.007492708
0.68507129 0.66844839 -0.0074886624
-0.66768742 0.68577546 -0.0074414499
0.66872245 0.68590498 -0.0074403808
0.69101685 0.68151671 -0.012440784
0.70498037 0.67077512 -0.0062554479
-0.64954346 0.69968206 -0.0074238237
0.65058547 0.69982237 -0.0074226968
0.67301327 0.70099145 -0.013305927
-0.63143402 0.71357858 -0.0074059963
0.63247699 0.71371818 -0.0074050426
0.64679116 0.71172571 -0.0086673256
-0.61365134 0.72807431 -0.008062074
-0.59530032 0.74130642 -0.0073707439
0.5963515 0.7414555 -0.007369617
0.61440331 0.7276035 -0.0073872432
0.63521892 0.73243761 -0.012263069
-0.57727581 0.7551378 -0.0073531475
0.57833469 0.75529748 -0.0073518194
0.60101449 0.74646705 -0.011480374
-0.58977908 0.76870686 -0.0033249706
-0.55927956 0.76894754 -0.0073355809
-0.54131126 0.78273571 -0.0073179249
0.54237902 0.78290468 -0.0073166545
0.55722821 0.77558279 -0.010848192
0.58504373 0.76923126 -0.010930108
-0.5283587 0.80006725 -0.0094174258
0.52443993 0.79667008 -0.0072990581
0.53950858 0.80455017 -0.0096950438
-0.52806163 0.81173378 -0.0002806522
-0.50545895 0.81024748 -0.0072829053
-0.4935312 0.81964707 -0.01175932
0.50629604 0.81447983 -0.012298318
-0.47111455 0.8372491 -0.0049671736
0.4699128 0.83646595 -0.0072592124
0.49380738 0.83465797 -0.0073236842
0.51312447 0.8241142 -0.011314433
-0.47274572 0.85036027 -0.012957228
-0.4462676 0.84993714 -0.0090635549
-0.42691138 0.85416287 -0.007313244
0.40655351 0.86269993 -0.0073437858
0.4277263 0.85393333 -0.0073154978
0.44015846 0.85966784 -0.010786301
0.45027351 0.84758496 -0.0084376
-0.40574804 0.86293989 -0.0073413309
-0.39060745 0.87086225 -0.018876893
-0.38387498 0.87574983 -0.008899074
-0.36325422 0.88054919 -0.0073980205
0.36404756 0.88029969 -0.0074005928
0.38532728 0.87148869 -0.0073720738
-0.34003955 0.8917433 -0.0078154877
-0.32055381 0.89825839 -0.0074548852
0.32132664 0.89798832 -0.0074576586
0.34271407 0.88913286 -0.0074290242
0.36374137 0.89458382 -0.012803392
0.37924418 0.88467765 -0.010375883
-0.33786082 0.9061653 -0.0074300077
-0.32383797 0.90428561 -0.010027474
-0.29911488 0.90713573 -0.0074836072
-0.27762961 0.91604614 -0.0075121541
0.27838919 0.91576684 -0.0075148698
0.29988509 0.90686637 -0.0074862074
0.31813318 0.9072805 -0.0082173385
-0.2611956 0.92651063 -0.0085900184
-0.23351263 0.93265074 -0.0075819623
-0.22566593 0.93531889 -0.009426875
-0.20753857 0.93608695 -0.0076645426
-0.18458818 0.9399122 -0.0084945224
0.18167919 0.93870938 -0.0077560805
0.20786272 0.93526065 -0.007672634
0.2292169 0.93464649 -0.0084971953
0.25993365 0.92853773 -0.0085684918
-0.15479368 0.94509459 -0.0075296927
-0.15050416 0.94515884 -0.0090582967
-0.1284537 0.9480719 -0.011265544
-0.10646465 0.95288116 -0.008545544
-0.077552699 0.95471895 -0.0087004099
-0.074794553 0.95366079 -0.0080867782
-0.044768352 0.95832002 -0.0083493125
0.047840003 0.95633823 -0.008182304
0.076853894 0.95604968 -0.0083036795
0.10744528 0.95057082 -0.0084338877
0.12873432 0.94568312 -0.0079247952
0.15334663 0.94637799 -0.010688156
0.1840696 0.94484007 -0.0085110217
0.2076374 0.9448806 -0.00038444065
-0.07763014 0.96100801 -0.0011915211
-0.020308036 0.96086919 -0.0082600582
-0.0071001486 0.96357465 -0.0083573163
0.013851802 0.96223396 -0.0083085857
0.046874177 0.9612236 -0.0045388713
-0.067273609 -0.96147895 0.015162772
-0.046513058 -0.96436334 0.015162744
-0.015065022 -0.96851003 0.015162801
0.016099559 -0.97166359 0.015162715
0.021414869 -0.96516567 0.01516283
0.050217845 -0.96423852 0.015162801
0.070763022 -0.96448106 0.015162715
0.097791761 -0.96092963 0.015162715
-0.22678339 -0.94062841 0.015162801
-0.20037642 -0.94407421 0.015162744
-0.17439224 -0.94747692 0.01516283
-0.16247189 -0.94910973 0.015162599
-0.14791214 -0.95094413 0.015162888
-0.12558666 -0.95364761 0.011107136
-0.10371797 -0.95510542 0.010917685
-0.086938463 -0.95814067 0.016250197
-0.051579762 -0.95589435 0.017021697
0.052455544 -0.95780259 0.019075053
0.078582689 -0.95582896 0.013610013
0.092918135 -0.95560002 0.015162772
0.10490326 -0.9528172 0.0039966535
0.12704211 -0.95406264 0.015162772
0.15125431 -0.95390481 0.015162744
0.16655855 -0.94576836 0.01516283
0.17770101 -0.95044178 0.015162686
0.20408246 -0.94386679 0.015162801
0.23000176 -0.94356972 0.015162715
-0.27514705 -0.92946726 0.01516283
-0.25269029 -0.93723595 0.015162917
-0.23601814 -0.93635893 0.0093432982
0.24321035 -0.93484974 0.015162888
0.25980821 -0.93309778 0.0061663855
0.27839714 -0.93254638 0.015162715
0.29989302 -0.92364597 0.015162715
-0.33955574 -0.90279979 0.015162888
-0.31813791 -0.91166288 0.015162801
-0.29577354 -0.91804647 0.015162786
0.30020142 -0.9110651 0.01516283
0.31839547 -0.90847111 0.014324225
0.34272182 -0.90591252 0.015162744
-0.382222 -0.88512999 0.01516283
-0.35721099 -0.89252967 0.015162759
-0.34395254 -0.89701605 0.0070216721
-0.31572106 -0.89752567 0.01572191
0.36153528 -0.89178514 0.015162801
0.38109845 -0.88606542 0.011421475
-0.4193452 -0.86671478 0.015162844
-0.40347826 -0.87633377 0.01516283
-0.36752516 -0.87813115 0.0078703603
0.40036938 -0.87967914 0.0090413075
0.4277263 -0.87070215 0.015162744
-0.47180218 -0.84786439 0.011814035
-0.44582337 -0.85879672 0.015162801
0.41975307 -0.86113429 0.015162772
0.44985703 -0.85417527 0.012819272
0.46991286 -0.85323489 0.015162744
0.4909268 -0.84453392 0.015162715
-0.50627613 -0.82833856 0.015162859
-0.48637739 -0.83653611 0.015162816
0.50944251 -0.83189744 0.015162657
-0.52417928 -0.8146016 0.015162917
0.49875605 -0.81896555 0.015162888
0.52732182 -0.81818318 0.015162686
-0.5620358 -0.78752047 0.0020507853
-0.55108672 -0.79394788 0.01516283
-0.53260499 -0.80074567 0.0030882116
-0.51803052 -0.80094206 0.0052728634
0.53534102 -0.78957868 0.0074622547
0.55419314 -0.79756337 0.015162759
-0.57805043 -0.77325088 0.015162859
0.58112049 -0.77690041 0.015162599
-0.59233391 -0.76232117 0.016265254
-0.57187027 -0.7653603 0.003837619
0.59443635 -0.7639482 0.014598016
0.61713105 -0.74927849 0.015162657
-0.62770265 -0.731332 0.01071135
-0.61277622 -0.73802519 0.0079656681
0.63517851 -0.73543495 0.015162715
-0.65028203 -0.71782899 0.015162946
0.65325439 -0.72157001 0.015162686
-0.68656808 -0.68998748 0.015162801
-0.66760111 -0.69731504 0.012697015
0.67317051 -0.70153993 0.016116824
0.68948489 -0.69376272 0.015162657
-0.70249671 -0.67158031 0.015162888
0.7057569 -0.67610508 0.015162657
-0.71779764 -0.65166014 0.01516283
-0.70039332 -0.66665787 0.0018783435
-0.68582827 -0.66697413 0.0078858472
0.72103238 -0.65622079 0.015162686
-0.72710437 -0.6339671 0.01666579
0.71381569 -0.63830513 0.01171656
0.73349512 -0.63521731 0.010261059
-0.74867278 -0.61144376 0.015162859
0.75186229 -0.61608964 0.015162715
-0.74430251 -0.60882813 0.0048900694
-0.73138052 -0.60877413 0.003971342
0.76742399 -0.59585279 0.015162772
-0.76769161 -0.58916473 0.011652947
0.75009543 -0.58586752 0.015351655
0.7738058 -0.57738078 0.0025416445
0.78307503 -0.57547975 0.015162657
-0.77993202 -0.57074767 0.015162859
0.7988221 -0.55498183 0.015162686
-0.79569972 -0.55019951 0.015162801
-0.78150064 -0.55217588 0.0039918562
0.79264355 -0.55137861 0.018834189
0.81466603 -0.53435737 0.015162715
-0.81157035 -0.52953732 0.015162859
-0.79240519 -0.52654642 0.018240811
0.80002087 -0.5251717 0.017502271
-0.82831275 -0.5029633 0.012938447
0.82595944 -0.50625759 0.0093212947
0.83578748 -0.49604389 0.014866401
-0.84360123 -0.48781613 0.015162772
0.84664857 -0.49272564 0.015162686
-0.85630488 -0.45841914 0.015162888
-0.83151823 -0.47228196 0.017599355
0.84518069 -0.46989459 0.0091551235
0.85993218 -0.46483094 0.015162715
-0.85741943 -0.44552657 0.0029349551
-0.84409267 -0.4456262 0.0071946923
0.84356171 -0.43876699 0.016630234
-0.86796576 -0.42383605 0.01308071
0.86834389 -0.42479903 0.011552814
0.88528425 -0.40392235 0.015162715
-0.87911201 -0.39560798 0.017080888
0.87018859 -0.39507651 0.012851764
0.8844285 -0.39280978 0.0055085272
-0.89462602 -0.36617485 0.01516283
-0.87464851 -0.37009841 0.012913945
0.89819992 -0.37287861 0.015162715
-0.89879799 -0.34437788 0.006686612
-0.88685131 -0.3442845 0.002660457
0.91128677 -0.3414509 0.015162715
-0.90772623 -0.33463171 0.015162888
0.90193617 -0.32009605 0.0085389772
-0.92099589 -0.30268034 0.015162772
-0.9081099 -0.31916764 0.014631201
0.91971505 -0.31400725 0.012947449
-0.90476251 -0.29566303 0.018550444
0.91125405 -0.29499999 0.016488653
0.92512363 -0.29333541 0.0020035133
-0.93225795 -0.27032182 0.0087975971
-0.91672701 -0.2704069 0.0083427262
0.93796527 -0.27735549 0.015162772
-0.93858737 -0.24564788 0.0098088309
0.92900717 -0.24668024 0.0090315267
0.94333786 -0.24526748 0.017239215
-0.94485104 -0.22849487 0.01516283
0.94964254 -0.23926313 0.015162599
-0.94141209 -0.22166592 0.012255615
0.94104242 -0.22178687 0.01009009
-0.94424152 -0.19774042 0.014706558
0.94432998 -0.19781107 0.0098727457
0.95670438 -0.18666239 0.015162715
-0.95192087 -0.17566124 0.015162772
-0.94706386 -0.17387229 0.017151492
0.94106239 -0.1743627 0.011115092
0.9539758 -0.1734539 0.0080241943
0.94388354 -0.15048134 0.01355887
0.95707476 -0.14968561 0.0053400146
-0.93836159 -0.12669189 0.016954562
0.94670933 -0.12665646 0.016006693
0.96395063 -0.13268754 0.015162715
-0.95917547 -0.12144574 0.015162772
0.95986861 -0.12599495 0.0029196981
-0.94418615 -0.10306466 0.015667241
0.948071 -0.099869214 0.016805524
0.96265608 -0.10236074 0.0005051624
-0.94772983 -0.079287715 0.012597494
0.97138852 -0.077284373 0.015162657
-0.96085918 -0.058979116 0.0087710675
-0.029615812 -0.050750367 0.0038657039
0.00048360135 -0.051350795 0.0029106829
-0.96113294 -0.031946372 0.0052660443
0.97903144 -0.020411763 0.015162657
-0.97225201 -0.0084900493 0.010832692
-0.95508713 -0.0019955575 0.0092983386
-0.9699229 0.01515126 0.0062136669
-0.95790166 0.015147721 0.0037863012
0.95675957 0.016269753 0.015162715
-0.96076435 0.038746864 0.0053077685
-0.95760792 0.062407948 0.0056075193
-0.94451898 0.061409719 0.015162888
0.00048337015 0.057384953 0.0071943449
0.030562501 0.058181167 0.0084394654
-0.94731927 0.086169779 0.012953127
0.94940907 0.072991312 0.015162657
0.96876144 0.095603995 0.015162657
-0.95851552 0.12509795 0.015162888
-0.94056928 0.11346021 0.01559343
0.9491955 0.10976261 0.018160254
0.96233809 0.10910193 0.00078046881
-0.94021857 0.13387522 0.019104064
0.94431603 0.13088843 0.015445085
0.9595499 0.13276738 0.0031955838
-0.94954723 0.15692861 0.019302625
0.94356054 0.157418 0.013279056
0.95675522 0.15648939 0.0056165922
-0.93856543 0.17588921 0.016017687
0.93800503 0.18168142 0.01299865
0.95356721 0.18029921 0.0083782086
-0.94391876 0.20467021 0.01442709
0.94396824 0.20475322 0.0099048764
-0.94109982 0.22862636 0.011985162
-0.92359704 0.22371878 0.01516283
0.92846948 0.23446336 0.015162657
0.94063479 0.22877035 0.010083502
-0.93816257 0.25265232 0.0094405999
0.93098265 0.2535533 0.0023836493
0.94621313 0.24924488 0.016374562
-0.91918862 0.27329722 0.0087270709
0.9167183 0.27180901 0.015162772
-0.89982373 0.29708552 0.01516283
0.92408758 0.30044717 0.002887452
0.90681034 0.30311891 0.015378397
-0.90707105 0.32645062 0.01374495
-0.88668334 0.32898131 0.01516283
0.890288 0.33576447 0.015162715
0.90089136 0.32745129 0.0076475255
0.91354084 0.32568014 0.01188565
-0.89775133 0.35176554 0.0057936572
-0.88548738 0.35171202 0.0038066432
-0.87349385 0.3690584 0.014612347
0.8773284 0.36713806 0.015162715
-0.860892 0.39153042 0.015162888
-0.87548804 0.401416 0.01811726
0.86683291 0.40038413 0.013563767
0.88336235 0.40024784 0.0064042546
-0.86595851 0.42722851 0.010110027
-0.8482402 0.42221355 0.01516283
0.85189831 0.42869967 0.015162715
0.86486167 0.42759809 0.0097516198
-0.85636556 0.45324257 0.0020496286
-0.83922309 0.45296142 0.011755408
0.83942187 0.45890293 0.015162657
-0.82655352 0.48084354 0.016963547
0.82607538 0.48636121 0.015162657
0.84410316 0.47762904 0.0091646006
-0.8270002 0.50528336 0.0089877667
-0.80698216 0.5023796 0.015162859
0.81008238 0.50720996 0.015162715
0.82562071 0.5057711 0.0091940146
-0.79106063 0.52313769 0.015162888
0.79419327 0.52794296 0.015162657
0.81386966 0.53001195 0.0015391223
0.82938135 0.51956224 0.0018111914
-0.77524263 0.54378152 0.015162888
0.77839595 0.54853618 0.015162657
0.79790705 0.53346956 0.015780045
-0.78506261 0.56078893 0.00610225
-0.7661615 0.56245953 0.0088673057
0.76269537 0.56900352 0.015162715
-0.76220316 0.58785105 0.019251309
-0.74390221 0.58470315 0.015162801
0.75118983 0.58953184 0.014043213
0.77163321 0.5858615 0.0042845579
-0.72837228 0.60497075 0.015162859
0.73158616 0.60957736 0.015162715
-0.7421447 0.6176061 0.0031587146
-0.7283383 0.61776268 0.00637432
-0.71293652 0.62511563 0.015162744
0.71617609 0.62968588 0.015162801
-0.73552477 0.6325689 0.015231628
-0.71883118 0.64521724 0.016442074
-0.69759417 0.64513844 0.015162917
0.71162874 0.64728719 0.0099891331
0.72839242 0.64303982 0.0070951795
-0.68234438 0.66504061 0.015162859
0.70085299 0.64966053 0.015162686
-0.69818509 0.6757881 0.0001342725
-0.68275928 0.67633891 0.010272183
-0.66628796 0.6831159 0.01516283
0.66922933 0.68686825 0.015162657
0.68562227 0.66951519 0.015162686
-0.66268742 0.70714784 0.0044457885
-0.64873338 0.70208824 0.0096213063
0.65109891 0.70078009 0.015162657
-0.63000613 0.71096325 0.01516283
-0.61190796 0.72485423 0.015162772
0.63300294 0.71468139 0.015162686
-0.61320925 0.74284363 0.0065849423
-0.5938381 0.7387234 0.015162859
0.59688371 0.74239564 0.015162686
0.6149292 0.72854942 0.015162744
-0.58801377 0.74972588 0.0096652834
-0.57579654 0.75257075 0.01516283
0.57886636 0.7562201 0.015162628
0.59007657 0.74734098 0.014527528
0.6141867 0.7529394 0.0014017001
-0.57398862 0.77605939 0.0013383627
-0.55781788 0.77157015 0.011839418
-0.53979117 0.78018928 0.015162801
0.5429163 0.78380466 0.015162657
0.56205899 0.77012116 0.0079068821
-0.52183402 0.79397184 0.01516283
0.52499014 0.79757589 0.015162744
0.53443646 0.80351257 0.015162946
-0.51150006 0.81231177 0.013715468
-0.48600385 0.82147264 0.015162801
0.50708514 0.81131434 0.015162715
-0.50170803 0.83243757 0.018216195
-0.46748325 0.83417869 0.015162801
-0.44640213 0.84291756 0.015162801
0.47048166 0.83735549 0.015162686
0.48920804 0.82503134 0.015162686
-0.44765621 0.8580333 0.013082573
-0.43301368 0.85490447 0.015162859
-0.42015073 0.86121505 0.0082848221
-0.40407389 0.86045051 0.015162772
0.42200029 0.85876101 0.015131421
0.43744445 0.85410482 0.015162772
0.45387685 0.84862584 0.014547089
-0.39456809 0.88152182 0.0022916496
-0.38283351 0.86925542 0.015162888
-0.36153981 0.87808257 0.015162801
0.36467376 0.88120061 0.015162744
0.38567182 0.87547243 0.015162801
0.40715495 0.86359429 0.015162744
0.4467676 0.86288804 0.0035744477
-0.37976977 0.88319248 0.015162657
-0.3401846 0.88692105 0.015162888
-0.31878328 0.89579272 0.015162917
0.32197827 0.89889574 0.015162686
0.3433567 0.8900423 0.015162628
0.36897153 0.88222814 0.0043277834
-0.31680483 0.91036975 0.015573811
-0.29732794 0.90468693 0.01516283
-0.28079891 0.9154349 0.0088137779
0.28333944 0.91531062 0.016587848
0.30054557 0.90777135 0.015162744
0.31937787 0.91040909 0.007909324
-0.2593866 0.92991865 0.011584579
-0.23266593 0.93431073 0.013564013
-0.2238992 0.93715608 0.015162715
-0.20542513 0.93336898 0.015162859
-0.17922363 0.9368245 0.015162888
-0.15283011 0.94030517 0.015162888
0.18638806 0.93924022 0.01516283
0.20873152 0.93759692 0.013864342
0.22812362 0.93376851 0.01516283
0.23499888 0.93462771 0.010097198
0.26311639 0.92608398 0.015162801
-0.20745109 0.94079047 0.016308524
-0.18345898 0.94337547 0.0076777637
-0.14889567 0.94688153 0.015162772
-0.12624252 0.94381154 0.015162859
-0.10584627 0.94948703 0.015162786
-0.076101273 0.95632041 0.015162715
-0.072485767 0.95091313 0.01516283
-0.045303132 0.95449799 0.015162946
-0.017917655 0.95810968 0.01516283
0.04657593 0.9576121 0.015162772
0.075952694 0.95388865 0.015162657
0.08000312 0.95308191 0.01516283
0.10954964 0.94934243 0.01516283
0.12963223 0.94678515 0.015162657
0.15456162 0.9434157 0.015162786
0.23439384 0.94086421 0.011763137
-0.04599053 0.96218425 0.010751412
-0.025436519 0.96585065 0.013820423
-0.0016954438 0.96633559 0.01295903
0.009663376 0.96175927 0.015162772
0.024758529 0.96445894 0.010001971
-0.044501629 -0.96116161 0.032257687
-0.023055296 -0.96368718 0.036088936
-0.0048094275 -0.96429402 0.036343381
0.013687219 -0.96887869 0.038673617
0.025472745 -0.96094805 0.03271744
0.041162379 -0.96528023 0.038586006
0.068442501 -0.96171939 0.038498864
-0.19854131 -0.94128531 0.038102545
-0.17221591 -0.94472146 0.038186543
-0.14569676 -0.9481827 0.038271204
-0.11898192 -0.95166963 0.038356468
-0.08504694 -0.95258182 0.036657922
-0.064947143 -0.95871019 0.038528912
0.095511645 -0.95817405 0.038412612
0.10512991 -0.9504391 0.033521242
0.122381 -0.95465469 0.038326882
0.14905325 -0.95116121 0.038241759
0.17553017 -0.94769335 0.038157329
0.20181417 -0.94425082 0.038073532
0.22790715 -0.94083321 0.037990317
-0.27332258 -0.92700678 0.037893236
-0.25534305 -0.93364114 0.031035047
-0.23347072 -0.93531686 0.031612821
-0.22467531 -0.93787432 0.038019069
0.20840402 -0.93552446 0.032225847
0.2349281 -0.93298614 0.024732819
0.25381935 -0.9374513 0.037907653
0.27657738 -0.93009222 0.037863616
0.29809767 -0.92118573 0.037834868
-0.31435952 -0.90955925 0.036835942
-0.29487368 -0.91809267 0.037864484
0.2870836 -0.91060263 0.037780169
0.31956366 -0.91230196 0.037806317
0.3409752 -0.9034403 0.037777595
-0.38051912 -0.88263947 0.037750062
-0.35918501 -0.89146376 0.037778549
-0.34162107 -0.89449424 0.03636476
-0.31645781 -0.89501899 0.03746441
0.34042072 -0.89403456 0.030656125
0.36233273 -0.89460135 0.037749108
0.38362888 -0.88577348 0.037720621
-0.42302606 -0.86505759 0.037693083
-0.39781678 -0.87595057 0.029993229
0.36829317 -0.87876278 0.024233408
0.40487894 -0.87697881 0.037692215
0.42607558 -0.86820632 0.037663899
-0.46531227 -0.8475529 0.037636593
-0.44682527 -0.85459381 0.033037201
-0.44419217 -0.85628873 0.037664853
0.42122802 -0.8553077 0.035001099
0.44721892 -0.85945588 0.037635554
0.46830928 -0.85072738 0.037607439
-0.50472361 -0.82582659 0.037619315
-0.49354911 -0.833983 0.038092531
-0.47792795 -0.83504343 0.028703034
0.47082287 -0.8374092 0.022906804
0.4893468 -0.84202093 0.037579354
0.50789464 -0.82939291 0.03758695
-0.5226438 -0.81207395 0.037636824
0.52579081 -0.81566268 0.037604406
-0.53547978 -0.79786247 0.035855047
0.5223515 -0.79998595 0.027500447
0.54039872 -0.80082554 0.031127915
0.56166685 -0.78813803 0.037639454
-0.57657266 -0.77068663 0.037689641
-0.5585683 -0.784504 0.037672047
0.56211698 -0.76675469 0.021328473
0.57964706 -0.77434349 0.037657108
-0.59460539 -0.75684768 0.03770721
-0.57048082 -0.76022208 0.033223975
0.56825209 -0.76472962 0.028804164
0.59090531 -0.76232344 0.029865097
0.6156916 -0.7466895 0.037692215
-0.62569708 -0.72855026 0.037114225
-0.61404049 -0.7426734 0.034488369
0.58889914 -0.74392086 0.035178628
0.61311471 -0.73027754 0.03008835
0.63193393 -0.73108232 0.028619152
-0.64887303 -0.71520036 0.037760317
0.65184301 -0.71893722 0.037727639
-0.6656152 -0.69787008 0.037706055
0.65696067 -0.6966064 0.031343754
0.66996449 -0.70503414 0.037745439
0.6881144 -0.69110924 0.037763093
-0.6851936 -0.68732619 0.037795946
0.70427918 -0.67318952 0.037815016
-0.6992774 -0.666345 0.034698416
0.69022578 -0.66610926 0.025107406
0.70309263 -0.66621894 0.027078588
0.7195673 -0.65327442 0.037883583
-0.71633357 -0.64871579 0.037922733
-0.70297796 -0.64071 0.026405808
0.73494816 -0.63323838 0.037952527
-0.73276997 -0.6290493 0.037611831
0.75042254 -0.61308026 0.03802184
-0.74426913 -0.60744494 0.03612712
0.73428178 -0.60832173 0.027882315
0.74841696 -0.60808825 0.022910388
0.76599151 -0.59279913 0.038091622
-0.76358157 -0.5837009 0.0295485
-0.74825162 -0.58292001 0.02226766
0.78165585 -0.57239372 0.038161866
-0.77851373 -0.56766367 0.038201883
-0.79430073 -0.5470956 0.038272589
-0.7840656 -0.55022246 0.036790706
0.77731842 -0.55188477 0.030601978
0.79741645 -0.55186307 0.038232598
-0.8084181 -0.52499372 0.031020541
0.81122899 -0.52858806 0.037594207
-0.83398885 -0.50250816 0.021041147
-0.82616192 -0.50556451 0.038415618
-0.80892181 -0.5011704 0.036297191
0.80517852 -0.50626516 0.029050229
0.82429111 -0.50359547 0.035812125
-0.84218788 -0.4844808 0.038488921
0.84529024 -0.48951998 0.038447052
-0.84446138 -0.46984804 0.023436151
0.84781873 -0.47180983 0.036269799
0.85828334 -0.46085703 0.03858225
-0.85437602 -0.44914225 0.035022512
0.84763956 -0.44516653 0.02526575
0.86031395 -0.44518137 0.025770478
-0.86727232 -0.42400792 0.038783416
-0.84986883 -0.42251799 0.033735178
0.86408305 -0.42489916 0.035987224
0.88365036 -0.39981171 0.038879286
-0.86232173 -0.39617491 0.023271684
-0.88598418 -0.36840671 0.026936773
0.88522202 -0.36960977 0.026083231
-0.89534646 -0.34310123 0.03480323
0.88913429 -0.34410116 0.028770877
0.90288866 -0.34394053 0.020973997
-0.89267731 -0.32117417 0.028861374
0.89850235 -0.31890976 0.036642306
-0.9173609 -0.29415101 0.02252401
0.92074823 -0.29536945 0.036807235
-0.92652953 -0.26932847 0.030346319
0.92049944 -0.27009821 0.024376724
0.93264788 -0.270138 0.02649908
-0.93502533 -0.24475659 0.0375949
-0.92262888 -0.24725236 0.034340918
0.92900079 -0.24545583 0.031629696
-0.92629445 -0.22303391 0.03116565
0.9318471 -0.2214925 0.034058217
-0.92989212 -0.19889459 0.028049208
0.93468666 -0.19758664 0.036480844
-0.93347901 -0.17482838 0.02494213
0.93750817 -0.17373882 0.038887985
-0.9498685 -0.15006198 0.019580938
-0.93705517 -0.15083495 0.021844413
-0.95267725 -0.12630785 0.022014081
