# .PCD v0.7 - Point Cloud Data file format
VERSION 0.7
FIELDS x y z normal_x normal_y normal_z curvature
SIZE 4 4 4 4 4 4 4
TYPE F F F F F F F
COUNT 1 1 1 1 1 1 1
WIDTH 576
HEIGHT 1
VIEWPOINT 0 0 0 1 0 0 0
POINTS 576
DATA ascii
-0.23761563 0.31495175 0.093524583 0.44658047 -0.54967457 -0.70599127 0.00041788921
-0.22869551 0.31908125 0.09589529 0.44153169 -0.5443306 -0.71326989 0.00034431781
0.23807019 0.31299865 0.094577745 -0.41115099 -0.57656842 -0.70606214 0.00033131306
-0.22232085 0.32417175 0.096013375 0.43459207 -0.55432385 -0.7098273 0.00044125714
0.21988393 0.32035974 0.098944634 -0.40160906 -0.55963486 -0.72492683 0.00035003549
0.22206992 0.32608998 0.093281075 -0.41315389 -0.57937026 -0.70259088 0.00043859927
-0.21268396 0.33426839 0.094420522 0.39380762 -0.59147328 -0.70361567 0.0012401287
-0.20552729 0.33694211 0.095773399 0.34545138 -0.60792774 -0.71490353 0.0012270736
0.20514448 0.3341338 0.096418411 -0.400332 -0.57052934 -0.71709877 0.00047657406
0.21459241 0.33240107 0.092521779 -0.41383469 -0.58180314 -0.7001757 0.00038514167
-0.20545545 0.34110978 0.092181489 0.33849585 -0.62332606 -0.7049008 0.0011370243
-0.19113994 0.34456307 0.094843119 0.29805321 -0.63820326 -0.70983166 0.00031361514
-0.18366691 0.34258807 0.099514097 0.28259671 -0.62696135 -0.72598803 0.00040193979
0.18467854 0.34583783 0.098675832 -0.33363917 -0.61457044 -0.71483427 0.0015754162
0.20413181 0.34176776 0.091001756 -0.40817425 -0.59561938 -0.69183183 0.00025229069
-0.18590409 0.35089746 0.091343738 0.29440632 -0.65324724 -0.69756222 0.00020452848
-0.17557785 0.35371071 0.092996806 0.29591483 -0.65336132 -0.69681656 0.00029425765
-0.16534095 0.35735169 0.09391088 0.29666457 -0.65111381 -0.69859934 0.00021563718
0.1544351 0.35704619 0.098913513 -0.24488989 -0.64394248 -0.72482204 0.00035490163
0.162377 0.35900149 0.094508395 -0.25026459 -0.66206616 -0.70642483 0.00036304351
0.17463556 0.3540408 0.094840974 -0.26416335 -0.65193844 -0.71077007 0.00043253854
0.18065357 0.35368115 0.093139358 -0.31530941 -0.65446365 -0.68720978 0.00079846114
-0.15585668 0.36397949 0.091909863 0.29467964 -0.65340358 -0.6973002 0.00026785833
-0.14275582 0.36505318 0.096144632 0.28592029 -0.63603592 -0.71673417 0.00037732979
0.11991721 0.36961251 0.099230289 -0.24205205 -0.64101285 -0.72836345 0.000466939
0.13081121 0.36745447 0.097514234 -0.23858328 -0.64926004 -0.72217697 0.0003514362
0.14731154 0.36147198 0.097340897 -0.24582665 -0.65274251 -0.71658665 0.00029037791
0.15259877 0.36510164 0.092327379 -0.25450724 -0.66570294 -0.70147395 0.00044988137
0.16116601 0.36423251 0.09004917 -0.26013172 -0.67206085 -0.69330055 0.00047759843
-0.14371911 0.37141311 0.090090752 0.30139974 -0.65997261 -0.68818194 0.00020247481
-0.12541135 0.37643749 0.093148872 0.26202968 -0.66181564 -0.70238197 0.00090588565
-0.1153191 0.37940845 0.094435483 0.20569654 -0.68013805 -0.70363426 0.0016616924
-0.098667622 0.37880495 0.097620763 0.12891451 -0.68493456 -0.7171092 0.0007051687
0.099062517 0.3792491 0.097594246 -0.19753662 -0.6665538 -0.71880823 0.00068316649
0.1065698 0.37474316 0.099110067 -0.22816564 -0.64632899 -0.72814786 0.00055945502
0.11091703 0.3749963 0.097429253 -0.23975722 -0.65498948 -0.71659285 0.00047083403
0.12764038 0.37170324 0.094777308 -0.24536671 -0.66949546 -0.70112127 0.00038495683
0.139294 0.37052971 0.091927037 -0.24887031 -0.67382252 -0.69572031 0.00032197591
0.14188445 0.3700105 0.091524407 -0.25120777 -0.6754427 -0.69330502 0.00032425651
-0.11634728 0.38233104 0.09124963 0.20358799 -0.69592279 -0.68865335 0.0013611434
-0.10528646 0.38528877 0.090329446 0.14378455 -0.70723367 -0.69220412 0.00062156172
-0.091691658 0.38392431 0.093836881 0.11122547 -0.69567382 -0.7096948 0.00034705177
-0.086065739 0.38488141 0.093880907 0.11359382 -0.69537109 -0.70961648 0.00034124198
-0.076991215 0.38361701 0.096497491 0.11796272 -0.69086027 -0.71330011 0.0002147528
-0.065716594 0.38709167 0.094998419 0.11305316 -0.69978768 -0.70534837 0.00022662163
-0.058483105 0.38608855 0.097079679 0.11500791 -0.6860913 -0.71836752 0.00040741012
-0.032845616 0.38842291 0.098911524 0.11143821 -0.6858409 -0.71916878 0.00044981705
-0.026604328 0.38903877 0.099312678 0.078642324 -0.68368793 -0.72552472 0.00080073788
0.023465563 0.38917276 0.097865686 -0.070251144 -0.69640774 -0.71419948 0.00030078107
0.030270157 0.38747478 0.098853812 -0.0654594 -0.68593508 -0.72471243 0.00036917202
0.041474488 0.38681287 0.098453671 -0.064446718 -0.69067895 -0.72028428 0.00037117896
0.054521147 0.3862226 0.097816184 -0.063336588 -0.69799453 -0.71329659 0.00029760014
0.063994996 0.38605857 0.09710189 -0.071188599 -0.700517 -0.71007621 0.00038166737
0.074902371 0.38639146 0.095783904 -0.10120121 -0.69900078 -0.70792383 0.00055310084
0.089868143 0.38293847 0.09737277 -0.15718457 -0.6770485 -0.71895653 0.0008831998
0.096888103 0.38523626 0.09295769 -0.20341901 -0.68066823 -0.70378363 0.00081069174
0.10196935 0.3823657 0.093835741 -0.21939862 -0.67491043 -0.70452833 0.00058990199
-0.047087297 0.39036739 0.094842583 0.11824175 -0.69465661 -0.70955694 0.00032119773
-0.034989335 0.39515257 0.092236742 0.1174545 -0.71081126 -0.69350702 0.00022067083
-0.023524314 0.3930701 0.096001603 0.071921185 -0.69767231 -0.71279782 0.0007417993
-0.013110893 0.39629346 0.094264403 0.025049808 -0.70385164 -0.70990515 0.0010093827
-0.00040408596 0.39567322 0.09388236 -0.03074594 -0.70189714 -0.71161449 0.00060623582
0.002112898 0.39541942 0.093892276 -0.042964496 -0.70222378 -0.71065867 0.00044381747
0.015589275 0.39304721 0.09490826 -0.066384718 -0.70329565 -0.70779115 0.00039008737
0.023577349 0.39182916 0.095331796 -0.069910221 -0.69661498 -0.71403086 0.0003150446
0.042791449 0.39225799 0.093159735 -0.07089413 -0.71119684 -0.69940913 0.00032459313
0.056399129 0.39136392 0.092759356 -0.064995192 -0.71266764 -0.69848436 0.00039808173
0.06737607 0.3919411 0.09118212 -0.075617731 -0.71632081 -0.69366175 0.00018005236
0.078784727 0.39189628 0.090002127 -0.11093599 -0.71044338 -0.69495565 0.00061381765
-0.081438817 -0.38065565 0.10063267 0.10890668 0.67492825 -0.72980219 0.00056543248
-0.065925211 -0.38181639 0.10095474 0.070880391 0.68634319 -0.72381556 0.00045053888
-0.054382198 -0.38092467 0.10286205 0.066816889 0.68340433 -0.72697598 0.00016888411
-0.047487777 -0.38257006 0.10193208 0.06541425 0.68338192 -0.72712463 0.0002388102
-0.037961811 -0.38267687 0.10270551 0.067276411 0.67823368 -0.73176014 0.00032052697
-0.02339508 -0.38269988 0.1040215 0.066616781 0.6671077 -0.7419768 0.00026011764
-0.013595861 -0.38525772 0.10249144 0.061322592 0.67096764 -0.7389465 0.00036989155
-0.0079709282 -0.38320446 0.10495868 0.054299604 0.65996695 -0.74932981 0.00027387132
0.0047187679 -0.38590547 0.10355812 0.015099004 0.66451406 -0.74712318 0.00043856041
0.031138513 -0.38246223 0.10479128 -0.093113102 0.65900284 -0.74635458 0.00027963446
0.041236993 -0.3854315 0.10040876 -0.10752007 0.67433858 -0.73055249 0.00038652372
0.053217907 -0.38308474 0.10073501 -0.10457297 0.6705972 -0.73441392 0.00045754921
0.060381036 -0.38076705 0.10179111 -0.11320386 0.66335595 -0.73969162 0.00029811522
-0.095307261 -0.37191239 0.10540877 0.17270422 0.63319612 -0.75447726 0.00077895907
-0.081102975 -0.37605473 0.10503449 0.10973509 0.66099834 -0.7423203 0.00072870927
-0.074845515 -0.37486488 0.10652018 0.096333466 0.65671951 -0.74795675 0.00066156901
-0.068184048 -0.37459257 0.10756584 0.081323884 0.65887278 -0.74784565 0.00054774841
-0.053870633 -0.3737002 0.10940547 0.066105217 0.65192401 -0.75539732 0.00029690354
-0.03650732 -0.37693998 0.10812472 0.065956958 0.65565574 -0.75217366 0.00042349967
-0.027491333 -0.37705266 0.10875703 0.059076708 0.65486848 -0.75343031 0.00044297543
-0.011212383 -0.37832797 0.10899825 0.055835109 0.65023744 -0.75767648 0.00026534032
0.017527524 -0.37918019 0.10961637 -0.047050755 0.65811616 -0.75144488 0.00067114597
0.045710314 -0.37999699 0.10482185 -0.10770715 0.66004503 -0.74346471 0.00024823353
0.055843115 -0.37657946 0.10629955 -0.10479121 0.64775944 -0.75460356 0.00018943293
0.066886939 -0.37349972 0.10740595 -0.10492672 0.64765161 -0.75467736 0.00023555942
0.076409221 -0.37369215 0.10589872 -0.10837789 0.64962298 -0.75249195 0.00017682249
0.087661512 -0.37513033 0.10280994 -0.11302679 0.66726375 -0.73619568 0.00033862257
0.092625007 -0.37303722 0.10400029 -0.12176761 0.66677928 -0.73524016 0.0004005791
-0.12460021 -0.36355934 0.10307411 0.23245256 0.64788026 -0.72540814 0.00037267013
-0.10285342 -0.36693212 0.10733235 0.21089412 0.6247474 -0.75180745 0.00043494834
-0.09112028 -0.36811548 0.10977239 0.16633567 0.62926078 -0.75918603 0.00083612168
0.083654337 -0.36820015 0.1095684 -0.11075327 0.64654011 -0.75479776 0.00021607574
0.10209102 -0.36494029 0.10971406 -0.15518408 0.63898438 -0.75340354 0.00058000529
0.11318646 -0.3635653 0.10888871 -0.19051531 0.62934339 -0.75341278 0.00092146907
0.12522618 -0.36469865 0.10341913 -0.25687897 0.62460482 -0.73748356 0.00042116037
-0.16516918 -0.35020298 0.10143887 0.24781835 0.63337111 -0.73309416 0.00036224644
-0.15250412 -0.35214484 0.10394078 0.2373185 0.62349176 -0.74494165 0.00044575334
-0.14406157 -0.35506549 0.10415491 0.23754364 0.62944257 -0.73984796 0.00045174567
-0.13150483 -0.35584036 0.10747695 0.2274345 0.61521131 -0.75484335 0.00023739172
-0.12706573 -0.35508084 0.10945268 0.22557184 0.6110338 -0.75878519 0.00030491318
0.13990495 -0.3555001 0.10560453 -0.27264288 0.60899293 -0.74484456 0.00029350244
0.15409139 -0.35295704 0.10220328 -0.27236179 0.61690307 -0.73841029 0.00031012448
0.16084921 -0.35121465 0.10104425 -0.28423613 0.62391746 -0.72796744 0.00047094087
-0.1804371 -0.34010321 0.10535824 0.30495772 0.5954144 -0.74329162 0.00090710219
-0.16638082 -0.34758878 0.10337024 0.24289386 0.6257239 -0.74126393 0.00024138531
-0.15398693 -0.34638411 0.10840292 0.23260209 0.61348629 -0.75467271 0.00036436872
-0.14554879 -0.34928125 0.10860173 0.22328746 0.60589391 -0.76356745 0.00038880654
0.15622635 -0.34756818 0.10604002 -0.27143571 0.6034618 -0.749771 0.00020878208
0.16741531 -0.34378806 0.10488855 -0.27890655 0.60725957 -0.74394029 0.00024216088
0.1807017 -0.34293622 0.10038435 -0.28637713 0.62644273 -0.72495359 0.00027168525
-0.19315773 -0.33378416 0.10333718 0.37960809 0.56189984 -0.73496002 0.00036051311
-0.18124425 -0.33313733 0.10997876 0.31107086 0.57897753 -0.75367105 0.0012338237
-0.17157324 -0.33860892 0.10930963 0.26309386 0.59940886 -0.75597006 0.00062443293
0.16948317 -0.33783352 0.10896395 -0.27407947 0.59988487 -0.75167716 0.00017388658
0.17573902 -0.33573481 0.10841015 -0.27538541 0.60486519 -0.74719542 0.00022917423
0.18309079 -0.33035553 0.10991208 -0.27609017 0.58355647 -0.76369888 0.00037230609
0.19626993 -0.33528805 0.1008712 -0.31060165 0.60948962 -0.72941691 0.0005864437
0.20307904 -0.33140218 0.1015539 -0.32793859 0.59932268 -0.73025239 0.00082569354
-0.20995837 -0.3234027 0.10208495 0.38971844 0.55345333 -0.73607677 0.00041778514
0.18496785 -0.32980618 0.10968651 -0.28188896 0.58361256 -0.76153463 0.00050601352
0.19981664 -0.32336563 0.1094503 -0.32889715 0.55505556 -0.76402879 0.0009157341
0.20580809 -0.32521588 0.10513635 -0.36558041 0.55593902 -0.74651372 0.0008781614
0.21273783 -0.32358032 0.10226426 -0.39757848 0.55107379 -0.73365468 0.0008124556
-0.22458561 -0.31346515 0.10169314 0.39498565 0.5593009 -0.72881329 0.0005792692
-0.21356252 -0.31826961 0.10407376 0.38616478 0.54627651 -0.7432757 0.00028839955
-0.24197315 -0.30321833 0.10001083 0.39912948 0.55417734 -0.7304678 0.00034085946
-0.23032065 -0.30537701 0.10479581 0.38768587 0.5429458 -0.74492252 0.00028516725
-0.22794411 -0.30618763 0.10548401 0.38729477 0.54499507 -0.74362838 0.00030361622
0.22785364 -0.30814382 0.10446382 -0.4247196 0.51725 -0.74301118 0.00030994427
0.23337969 -0.30810764 0.10113715 -0.43701977 0.53004855 -0.72667891 0.00033197424
-0.24848312 -0.29246297 0.10475571 0.40440169 0.53844994 -0.7392773 0.00036598829
0.23586147 -0.29881594 0.10647641 -0.42670101 0.5092597 -0.74738264 0.00033979464
0.24416701 -0.29197147 0.10647878 -0.42150855 0.50765854 -0.75140756 0.00035251575
0.25037929 -0.29454222 0.10081515 -0.44409361 0.53962141 -0.7152549 0.00031619088
-0.26289639 -0.28227553 0.10467672 0.45194447 0.49211916 -0.74401951 0.00098390796
0.25389412 -0.28449783 0.10604399 -0.42682883 0.51401365 -0.74404776 0.00046931545
0.26278806 -0.28237024 0.10225242 -0.43277293 0.52646571 -0.73180693 0.00046274849
-0.27280354 -0.27624214 0.10113597 0.50223488 0.46595311 -0.72845572 0.00079739798
-0.26480985 -0.27445114 0.10795859 0.46750775 0.46298537 -0.75304788 0.00074849138
0.28015685 -0.27034494 0.10057175 -0.47866496 0.48296106 -0.73323154 0.0012004698
-0.28689426 -0.2607362 0.10016463 0.53159124 0.43907899 -0.72430676 0.0003707392
-0.27422571 -0.26768762 0.10527934 0.50602347 0.43435442 -0.74516875 0.00042518089
0.27651694 -0.26852635 0.10412026 -0.45618331 0.47311655 -0.75369585 0.00070266379
0.28329206 -0.26455286 0.10257653 -0.48980975 0.46356091 -0.73837513 0.0010737547
-0.29131097 -0.25265747 0.10181314 0.53751445 0.43477356 -0.72253036 0.00027689032
-0.28469759 -0.25524032 0.10511361 0.51181692 0.42491949 -0.74665046 0.00030215806
-0.27828139 -0.25772038 0.10818666 0.50024164 0.41754022 -0.7585634 0.00024851563
0.28451076 -0.25018933 0.10958807 -0.50813854 0.40764013 -0.75869942 0.00051381934
-0.30168808 -0.24063346 0.10146471 0.53245634 0.43340424 -0.72708386 0.000384068
-0.29149145 -0.24373955 0.10709178 0.51122755 0.41759232 -0.75117445 0.00028480261
-0.28779969 -0.24505052 0.10876195 0.49978322 0.41347751 -0.7610867 0.00037110189
0.28929237 -0.2431296 0.10975867 -0.52574706 0.39174664 -0.75506598 0.00033642346
0.29434511 -0.248114 0.10349841 -0.54718447 0.40718901 -0.73129082 0.000349921
0.30214494 -0.24041751 0.10170739 -0.5636127 0.40146196 -0.72192025 0.00037240321
-0.30445802 -0.23441786 0.10319586 0.52883446 0.43288124 -0.7300328 0.00034943412
-0.29738149 -0.23717757 0.10660463 0.51840496 0.42159641 -0.7439844 0.00042114378
0.2977151 -0.23562372 0.10771916 -0.53433651 0.38388312 -0.75307256 0.00019837216
0.30739683 -0.23237607 0.10208699 -0.55871856 0.39998648 -0.726529 0.00034434043
-0.31267059 -0.22201899 0.1046695 0.52103472 0.42164412 -0.74211794 0.00038830269
-0.30493346 -0.22853665 0.10635244 0.51489842 0.41567621 -0.74972856 0.00029910333
0.30717963 -0.22752531 0.10494569 -0.55266589 0.39155376 -0.73569423 0.00028953663
0.31548253 -0.22032887 0.10248661 -0.55562872 0.39685389 -0.73060501 0.00033563061
-0.32230252 -0.21390852 0.10249522 0.54523599 0.39634389 -0.73866731 0.00064232491
-0.31660628 -0.21456997 0.10617729 0.53179538 0.39392659 -0.74967694 0.00054052094
0.30820358 -0.21693096 0.10962064 -0.52894694 0.37718683 -0.7602272 0.000326201
0.3137022 -0.21447791 0.10699662 -0.53845632 0.38096383 -0.75161916 0.00038141332
0.32335204 -0.21020539 0.10198736 -0.55531734 0.39348418 -0.73266143 0.00044446177
-0.32549387 -0.20664093 0.10455428 0.56764352 0.36600715 -0.73744118 0.00088730495
0.31540728 -0.20769966 0.10921499 -0.52642328 0.38195938 -0.75959557 0.00029652307
0.32521316 -0.20555474 0.1031206 -0.55206311 0.39290437 -0.73542678 0.00039569641
-0.3332791 -0.19241804 0.10413957 0.59734756 0.30371019 -0.74225068 0.00060780835
-0.32763574 -0.19400455 0.10824355 0.56987548 0.31717843 -0.75805002 0.00057617127
0.3283639 -0.19637048 0.10576613 -0.54969221 0.37707487 -0.74542147 0.00032019298
-0.34108192 -0.1803925 0.10211736 0.61057901 0.28165403 -0.74017853 0.00028306158
-0.33591849 -0.18579726 0.10446522 0.60799658 0.28295016 -0.74180818 0.00029006362
0.33405116 -0.1855258 0.1073548 -0.5693118 0.33489916 -0.7508173 0.0010727136
0.34236664 -0.18086094 0.10319327 -0.60356271 0.29953071 -0.73891366 0.00097382034
0.33969063 -0.17477199 0.10757647 -0.59077746 0.27688846 -0.75783557 0.0010855604
0.345992 -0.17269076 0.10268633 -0.62061536 0.27869514 -0.73291576 0.0008835792
-0.35054493 -0.16063133 0.10171217 0.62279588 0.28099275 -0.73018378 0.00025275108
-0.3448801 -0.16486585 0.10495838 0.60995895 0.28060648 -0.74108708 0.00029570769
0.34595001 -0.16339333 0.10573104 -0.62225693 0.24032871 -0.74500901 0.00046700586
0.35124439 -0.16426761 0.10080969 -0.63932854 0.24967843 -0.72726864 0.00047999085
-0.35023797 -0.15855488 0.10280004 0.61524713 0.28286546 -0.73583841 0.0003939037
-0.34443536 -0.15649848 0.10845375 0.5934388 0.27354819 -0.75696874 0.00034091069
0.34468251 -0.15919942 0.10819967 -0.60752529 0.23763554 -0.75791979 0.00029114846
0.35262638 -0.15304171 0.10333046 -0.63670349 0.23705882 -0.73376554 0.00046287387
-0.36052492 -0.14179187 0.10049341 0.62512338 0.27987438 -0.72862273 0.00038491498
-0.3568061 -0.14269294 0.10336746 0.6154291 0.27649397 -0.73810434 0.00042819345
-0.34730542 -0.14940509 0.10871928 0.59018087 0.2720083 -0.76006454 0.00024231162
0.34935099 -0.14530486 0.10861813 -0.61925894 0.2264512 -0.75182325 0.00028883398
0.35814521 -0.14267594 0.10186567 -0.6366424 0.23876636 -0.73326468 0.0003544775
-0.35532534 -0.13303211 0.1083011 0.60033429 0.27127963 -0.75233382 0.00019582194
0.36033505 -0.13649528 0.10197623 -0.63703251 0.23496129 -0.73415446 0.0004161885
-0.36243281 -0.12153251 0.10679944 0.61644167 0.24544205 -0.7481696 0.00049929658
-0.35574675 -0.12753892 0.10983792 0.59527743 0.25218645 -0.7629199 0.00044913267
0.35734537 -0.12555827 0.10815966 -0.61551553 0.23100962 -0.75350857 0.00029567484
0.3670091 -0.12190938 0.10089082 -0.64237314 0.24280038 -0.72691453 0.00032928176
-0.37330049 -0.11131857 0.10081437 0.65124595 0.16917874 -0.73976833 0.0010551793
-0.36690569 -0.11392592 0.10584456 0.62464422 0.1919038 -0.7569626 0.00099125842
0.36707959 -0.11486717 0.1031841 -0.64038366 0.24047256 -0.72943932 0.00036655183
-0.36813956 -0.10444667 0.10675304 0.62972909 0.1522568 -0.76174736 0.00064084696
0.36594898 -0.10452126 0.10760526 -0.61667538 0.22896172 -0.75318527 0.00034691021
0.37281814 -0.10175671 0.10244122 -0.65035307 0.21913224 -0.72733897 0.00056345027
-0.37460023 -0.092913292 0.10248354 0.66453576 0.11659873 -0.73810369 0.00028317934
0.36975893 -0.091878287 0.10830684 -0.6300385 0.16314107 -0.75923413 0.0011156027
0.37316981 -0.092948072 0.10507422 -0.64858168 0.17852362 -0.73991281 0.0011740751
-0.37354898 -0.088503271 0.10416631 0.66216725 0.11141236 -0.74102753 0.00030969776
-0.36832419 -0.084263913 0.10938755 0.64727849 0.1090511 -0.75441259 0.00018847095
0.37361819 -0.083992079 0.10708393 -0.64639038 0.13146861 -0.75159526 0.0010668003
-0.37409011 -0.075561918 0.10565516 0.65892476 0.11120355 -0.74394351 0.00032549931
0.37498975 -0.074133389 0.10653273 -0.65629953 0.09593983 -0.74837589 0.00061476126
-0.37449479 -0.065734044 0.10675079 0.65159982 0.11220528 -0.75021845 0.00011641286
0.37535492 -0.066185199 0.10696337 -0.65436161 0.07440602 -0.75251228 0.00035226738
0.38262105 -0.06121359 0.10062305 -0.68837184 0.068153769 -0.72214901 0.00039933858
-0.37752575 -0.051772878 0.10619543 0.6554305 0.1106576 -0.74710488 0.00034367095
0.37748212 -0.052397467 0.10631485 -0.66263151 0.065865204 -0.74604374 0.00026086354
-0.37639093 -0.042136498 0.10855977 0.64871353 0.10792682 -0.7533409 0.00029210027
0.37751406 -0.043686774 0.10708449 -0.65414304 0.062356394 -0.7537961 0.00030672591
0.38249952 -0.048549287 0.10190161 -0.67140228 0.063871264 -0.73833561 0.00032816592
-0.38546807 -0.0335108 0.10158868 0.6722936 0.10732517 -0.73246342 0.00046789469
-0.37763271 -0.036415119 0.10829677 0.64916605 0.10716882 -0.75305921 0.00032222795
-0.024739709 -0.031539742 0.10724293 -0.46073103 -0.59034032 -0.66274065 0.079329014
-0.0067253914 -0.036999401 0.10443725 -0.11320459 -0.74464297 -0.65779287 0.096126497
0.0091191083 -0.03326977 0.10042606 0.27883133 -0.74233413 -0.60925615 0.065100476
0.012280513 -0.038327016 0.10716932 0.37109566 -0.70303065 -0.60665953 0.068562523
0.033597607 -0.030680859 0.10586252 0.44299418 -0.56970829 -0.69223446 0.10603695
0.045532979 -0.035474744 0.1083539 0.41532567 -0.52682459 -0.74159318 0.10767932
0.37731785 -0.035251062 0.10790595 -0.65404117 0.062352221 -0.75388485 0.00040662667
0.38418418 -0.030796073 0.10193168 -0.67886019 0.060727153 -0.73175204 0.00036194641
-0.38712841 -0.024826439 0.10139053 0.67876285 0.086959243 -0.72919071 0.00075334805
-0.37795258 -0.028556682 0.10912483 0.64161408 0.082747012 -0.76255119 0.00056673848
-0.035156291 -0.021973396 0.10830548 -0.6011889 -0.46260956 -0.651586 0.073329389
-0.027766038 -0.024142368 0.10350809 -0.5534423 -0.51675183 -0.65319914 0.041706476
0.018226903 -0.029275531 0.10027499 0.36835629 -0.66165072 -0.65309417 0.083553396
0.028732771 -0.024007367 0.10665235 0.40967137 -0.68794143 -0.59908754 0.12805183
0.032821018 -0.025774686 0.10767081 0.50142068 -0.62541509 -0.5978573 0.13209178
0.041410118 -0.024192264 0.10441811 0.50779289 -0.42737901 -0.74799305 0.1308766
0.05489615 -0.024713809 0.10497302 0.52291179 -0.29353648 -0.80024976 0.10080221
0.37852386 -0.028211996 0.10751167 -0.65684384 0.064512812 -0.75126177 0.0003013126
0.38574111 -0.028648015 0.10064986 -0.68064284 0.058977898 -0.73023772 0.0003589507
-0.39033955 -0.012815884 0.10008935 0.68960589 0.025547344 -0.7237342 0.0010464865
-0.38509798 -0.014706557 0.10470022 0.66922843 0.034629494 -0.74224943 0.001123611
-0.37975904 -0.014507705 0.10955654 0.65206873 0.043506604 -0.75691044 0.00094108854
-0.034489028 -0.019843074 0.10680973 -0.61791193 -0.48264644 -0.62067485 0.080881499
0.028617753 -0.015367651 0.10891285 0.55209666 -0.55671287 -0.62069327 0.15522763
0.035665542 -0.016489742 0.10631946 0.59823704 -0.38313478 -0.70378983 0.14290825
0.040250659 -0.014755553 0.10588813 0.61015475 -0.24938589 -0.75200915 0.12209932
0.055368531 -0.016268946 0.10840534 0.66718721 -0.24244387 -0.7043311 0.1275509
-0.38401711 -0.004426179 0.10525664 0.6713044 -0.003072988 -0.74117547 0.00090998522
-0.040119011 -0.0047628218 0.10755455 -0.73455799 -0.081030138 -0.67369044 0.029209338
-0.035589833 -0.0071946192 0.10289226 -0.73612374 -0.081694566 -0.67189866 0.019456906
0.036984921 -0.0052071065 0.10432519 0.67398244 -0.10342921 -0.73147124 0.083989419
0.047765989 -0.0076127942 0.10744441 0.67510891 -0.057505049 -0.73547345 0.099837802
0.37942958 -0.0021119323 0.10881899 -0.64619917 0.045427494 -0.76181561 0.00041396453
0.38238186 -0.0060427394 0.1059173 -0.66775751 0.052039046 -0.7425577 0.00031968826
-0.38589722 0.006392139 0.10254556 0.67926526 -0.055755291 -0.73177189 0.0004249193
-0.041086234 0.00039563165 0.10813273 -0.71121734 0.015778141 -0.70279515 0.012094897
0.034042362 0.00817654 0.10118511 0.70693159 0.10452422 -0.69951576 0.028559411
0.38855553 0.00663561 0.1012166 -0.67701882 0.021696283 -0.73564589 0.00076017407
-0.38483965 0.01895736 0.10239624 0.67672396 -0.05965627 -0.73381597 0.00035320455
-0.031424686 0.019466771 0.10364041 -0.67962867 0.31393513 -0.66298538 0.011224258
0.034348842 0.014502723 0.10405836 0.66450131 0.29649517 -0.68595088 0.022792358
0.38398612 0.015356582 0.10556497 -0.66507196 -0.036496427 -0.74588692 0.00075816468
-0.3847889 0.023522086 0.10202524 0.67587119 -0.064571805 -0.7341857 0.00045419333
-0.034269765 0.022118786 0.10788077 -0.64300197 0.32576221 -0.69312871 0.0095939646
-0.029640198 0.020616125 0.10265893 -0.61704081 0.37643063 -0.69105762 0.018616002
0.032153748 0.025590688 0.10828765 0.53500658 0.48577729 -0.69122243 0.0088031599
0.37926376 0.023342663 0.10877188 -0.6482923 -0.05961258 -0.7590543 0.00079050835
-0.3836267 0.038793184 0.10172682 0.68262082 -0.058952034 -0.72839093 0.00043393477
-0.37862155 0.032479648 0.10706162 0.65890145 -0.056977537 -0.75006831 0.00033195177
-0.025882468 0.032210961 0.10851742 -0.44723341 0.57094401 -0.68848038 0.0067867404
-0.01493204 0.032203093 0.10190019 -0.28737932 0.67012739 -0.6843555 0.014530039
-0.0064188102 0.036990855 0.10446106 -0.14902067 0.71881747 -0.67903918 0.012709003
0.004851561 0.035938855 0.1028299 0.13214125 0.74849057 -0.64984655 0.011184835
0.015233383 0.03468905 0.10460093 0.34574378 0.62847167 -0.69676733 0.013873317
0.025812808 0.031610399 0.10792408 0.47108477 0.53195542 -0.70363533 0.0069534699
0.37776095 0.035100996 0.10840327 -0.64331186 -0.1051925 -0.75834322 0.0004046266
-0.38193941 0.049099475 0.1023832 0.67965782 -0.067431502 -0.73042327 0.00039699351
-0.37476516 0.046303093 0.10913604 0.6486246 -0.062023226 -0.75857711 0.00032100372
0.012818499 0.040051442 0.1092028 0.18928304 0.72144943 -0.66609496 0.0099755302
0.37777394 0.042514406 0.10739227 -0.64702046 -0.10938999 -0.75458491 0.00032127771
0.3837148 0.046309859 0.10122766 -0.67990917 -0.11365294 -0.72443527 0.00037796088
-0.37646851 0.05415142 0.10707556 0.65449268 -0.064275868 -0.75333124 0.00029597015
0.38073447 0.055986397 0.10251252 -0.67056853 -0.11180119 -0.73337471 0.00042846866
-0.38165259 0.067919493 0.10092723 0.68448454 -0.077813514 -0.72486275 0.00041026311
-0.37710506 0.066142999 0.10541065 0.67131764 -0.07488557 -0.73737699 0.00034289772
0.37708485 0.06519603 0.10450086 -0.66355044 -0.11101454 -0.73984903 0.00036818712
0.38155532 0.063386768 0.10057659 -0.67189109 -0.11385606 -0.73184639 0.00043891647
-0.37780768 0.075680926 0.10386716 0.66885257 -0.10139125 -0.73644829 0.00082616991
0.37390685 0.074985407 0.10590022 -0.65742677 -0.10657445 -0.74594367 0.00031840405
-0.37179229 0.083905749 0.10860071 0.63332462 -0.1422178 -0.76070631 0.0010716867
0.37359226 0.087564699 0.10427317 -0.66401762 -0.11029714 -0.73953712 0.00046566085
-0.37483668 0.095063493 0.10287641 0.64933157 -0.19038725 -0.73628879 0.00095270021
0.36854571 0.097811073 0.10739793 -0.64667737 -0.13400637 -0.75089991 0.00071190856
0.37008029 0.096769623 0.10613261 -0.64924276 -0.12895152 -0.74957013 0.00056187273
-0.3712877 0.10178439 0.1038 0.63243306 -0.22155876 -0.74225342 0.00048082898
-0.36905456 0.10545545 0.10456785 0.62502003 -0.22990608 -0.74598473 0.00033899798
-0.36906391 0.1170782 0.10067055 0.63404435 -0.24372637 -0.73388374 0.00035287082
0.36566618 0.11469151 0.10649876 -0.64688343 -0.2057213 -0.73431641 0.00096387306
-0.36353406 0.12125808 0.10421499 0.63529581 -0.24051107 -0.73386222 0.00035940975
0.36961371 0.12243409 0.10025389 -0.64678311 -0.2406279 -0.72371942 0.00089200947
0.37073183 0.12060717 0.10000509 -0.65723222 -0.22709361 -0.71866149 0.0010123516
-0.36028796 0.13716784 0.10179329 0.64123124 -0.24167784 -0.72829551 0.00038336872
-0.35525253 0.13350813 0.10739061 0.613828 -0.2301472 -0.75514722 0.00020894909
0.35684377 0.13392831 0.10680099 -0.60316962 -0.27374676 -0.74916565 0.00022543513
-0.35645476 0.14825515 0.10150992 0.63761234 -0.23523617 -0.73356277 0.00032095544
0.34745747 0.14662755 0.10954152 -0.59736401 -0.26814184 -0.75581491 0.00044158142
0.35681835 0.14253406 0.1034197 -0.61642653 -0.28267688 -0.73492318 0.00025443971
-0.3503921 0.15646064 0.10418367 0.62623763 -0.23522437 -0.74330074 0.00030737795
0.34756392 0.15619387 0.10605661 -0.609056 -0.27483594 -0.74398655 0.00034304045
0.35493904 0.15300664 0.1009106 -0.62278432 -0.2789247 -0.73098612 0.00044678207
-0.35127541 0.16497846 0.10054408 0.6295774 -0.24992867 -0.73564124 0.00036988899
-0.34392345 0.16469394 0.10705935 0.60848165 -0.24318948 -0.75538665 0.00036770056
0.34603131 0.16867903 0.1024504 -0.62167722 -0.2868689 -0.72885102 0.00027529002
0.35106218 0.16115245 0.10105684 -0.62422776 -0.28357103 -0.727961 0.00040727726
-0.34372449 0.17554401 0.10375854 0.59969234 -0.28856054 -0.74639255 0.0010244577
-0.33763826 0.17496133 0.10908335 0.58118689 -0.29608664 -0.7579937 0.0010733582
0.33706003 0.1771569 0.10679312 -0.60183114 -0.27752924 -0.74885023 0.00041850522
0.34315816 0.17218432 0.10355996 -0.62249374 -0.28411594 -0.72923225 0.00030610492
-0.34292695 0.18578768 0.10024147 0.59548771 -0.33696991 -0.72927743 0.0012266722
-0.33640543 0.18654357 0.10496882 0.57096195 -0.33431929 -0.74982196 0.00094752648
0.32919127 0.18548371 0.10996743 -0.57978994 -0.28525761 -0.76319832 0.0004349408
-0.33801997 0.19003305 0.10177954 0.57719481 -0.35899162 -0.73346519 0.0010767126
-0.32699633 0.19713247 0.10631917 0.54410046 -0.382525 -0.74674582 0.00034069753
0.32415673 0.19941251 0.10900164 -0.56127721 -0.33141994 -0.75837237 0.00068796589
-0.33020896 0.20255288 0.10090443 0.55556154 -0.39643896 -0.73088133 0.00041229391
-0.32438493 0.2002928 0.10668202 0.5369612 -0.38224888 -0.75203621 0.00016412546
0.32558203 0.20529273 0.1050656 -0.56605381 -0.35494417 -0.74404144 0.00095898978
-0.31423783 0.21380539 0.10688403 0.53688186 -0.37877437 -0.75384873 0.00029879232
0.31607199 0.21638253 0.10557629 -0.52019727 -0.41958374 -0.74387115 0.0003669069
-0.31570327 0.22410233 0.10022254 0.5582611 -0.40035602 -0.726677 0.00044150901
-0.3033748 0.22500587 0.10900231 0.53376734 -0.38464475 -0.75308758 0.00043107534
0.29958612 0.22927377 0.10951963 -0.5051266 -0.41467533 -0.75689584 0.0003082293
0.31393909 0.22080576 0.10447125 -0.51872891 -0.42296538 -0.74298096 0.00030345423
-0.30781049 0.23117292 0.10243283 0.54481584 -0.39615178 -0.73908013 0.00036987895
-0.29627484 0.23746017 0.10781093 0.53353941 -0.38285282 -0.75416136 0.00026915898
0.29635677 0.23635878 0.10781188 -0.50207049 -0.41260341 -0.76005507 0.00027489141
0.30523121 0.23778015 0.10058597 -0.52643943 -0.43412682 -0.73102355 0.00046824641
0.2946364 0.24395518 0.10458442 -0.52386117 -0.42359322 -0.7390117 0.00038285123
0.30014122 0.24266718 0.10137028 -0.52521527 -0.4319061 -0.73321623 0.00035818177
-0.29034552 0.2558642 0.1023075 0.53461593 -0.4102309 -0.73884797 0.00047688762
-0.28596118 0.25587577 0.10570695 0.52013475 -0.41322079 -0.74746799 0.00080856949
0.28163391 0.25688186 0.10637891 -0.50893992 -0.42244172 -0.75001544 0.00022973788
-0.2846607 0.26458269 0.10172063 0.50119013 -0.46778977 -0.72799814 0.0013836094
-0.2732552 0.26680732 0.10727351 0.45287222 -0.47531429 -0.75430971 0.00069528644
0.27781859 0.26487643 0.10433841 -0.51518655 -0.43409607 -0.7390151 0.00036620279
0.28253692 0.26217896 0.10249927 -0.51882011 -0.43422842 -0.73639083 0.00031290326
-0.26556855 0.27265832 0.10765095 0.4292337 -0.49886158 -0.75292468 0.00040616878
0.26450908 0.27611423 0.10723972 -0.4682031 -0.46223578 -0.75307626 0.00090930215
0.2734668 0.27463543 0.1016224 -0.49797857 -0.45888439 -0.73582774 0.00077484414
-0.26064038 0.28455645 0.10194508 0.44125757 -0.52836132 -0.72534555 0.00017567644
-0.25527722 0.28887686 0.1020167 0.43220711 -0.52784461 -0.73114783 0.00025454647
0.24909003 0.28718603 0.10833865 -0.40239251 -0.51624185 -0.75602561 0.00056466128
0.255602 0.28471094 0.10664251 -0.42347839 -0.5086118 -0.74965334 0.00095170282
-0.25258586 0.29070437 0.10230358 0.4324117 -0.52311331 -0.73441988 0.00025558521
-0.24481885 0.2904563 0.10705906 0.4207361 -0.51739162 -0.74517584 0.00025354905
-0.23305863 0.29831487 0.10832974 0.42347947 -0.50889063 -0.74946344 0.00033408505
0.23589756 0.29563558 0.10897849 -0.37138593 -0.52290708 -0.76722926 0.00034154419
0.24796958 0.29086447 0.10628232 -0.40221855 -0.53529769 -0.74274939 0.00045707123
0.25255269 0.2945925 0.10084476 -0.41160056 -0.54092956 -0.73347127 0.00059013715
-0.23748343 0.30361453 0.10195703 0.42761484 -0.52051467 -0.73906022 0.00029408699
-0.22842854 0.30783451 0.10434283 0.42810208 -0.51381004 -0.74345678 0.00032750316
0.22965172 0.30604047 0.10465144 -0.38532943 -0.54947996 -0.74134541 0.00027376198
0.23320515 0.30619657 0.10255964 -0.39375174 -0.55329007 -0.73405015 0.00038685321
-0.21339788 0.31872606 0.10543992 0.400215 -0.53367865 -0.74499333 0.00045658989
0.20915636 0.31676325 0.10763162 -0.38001958 -0.53062958 -0.75763929 0.00023540089
0.2150024 0.31703979 0.10414853 -0.39161405 -0.54923618 -0.73822629 0.00030654177
-0.20345156 0.32580924 0.10581746 0.33755693 -0.57382447 -0.74617743 0.00085620658
0.19385819 0.3268427 0.1081877 -0.3728838 -0.53578949 -0.75755352 0.0004615114
0.20275766 0.32534018 0.10448696 -0.39042369 -0.54264486 -0.74371088 0.00040312076
-0.19604427 0.33322099 0.10275604 0.32122016 -0.59138966 -0.73964578 0.00068755663
-0.18387043 0.33436453 0.10645075 0.28127298 -0.59691298 -0.75138575 0.00030257032
-0.1733238 0.33797204 0.1075694 0.27367577 -0.59817952 -0.75318182 0.00033670905
0.17806022 0.3379035 0.10799953 -0.31088328 -0.57514048 -0.75668031 0.0013230203
0.18876627 0.33261475 0.10668094 -0.35818866 -0.56703246 -0.7417379 0.00087457959
-0.18038402 0.34021419 0.10287449 0.27818364 -0.62292886 -0.73114532 0.00032839784
-0.17669992 0.34246421 0.10237695 0.28516129 -0.62023407 -0.730748 0.00041471675
-0.16458255 0.34437379 0.10549932 0.27581349 -0.6134665 -0.73999035 0.00039458735
-0.15090606 0.3467136 0.1086517 0.26795051 -0.59371942 -0.75874883 0.00025502767
0.14678344 0.34821364 0.10906221 -0.23335549 -0.62037647 -0.74878454 0.00021950644
0.15017588 0.34918857 0.10735507 -0.23719493 -0.62212354 -0.74612397 0.00023077175
0.16565409 0.34546843 0.10547606 -0.24105163 -0.62008387 -0.74658561 0.00044203002
0.17409752 0.34635025 0.10189541 -0.26551744 -0.62313408 -0.73566598 0.0010476516
0.18324274 0.34297675 0.10152441 -0.33126706 -0.5890581 -0.73707032 0.0014944138
-0.15359478 0.35465509 0.10092464 0.28128657 -0.62320799 -0.72971892 0.00036487478
-0.14622638 0.35563791 0.10298488 0.27974558 -0.62015849 -0.73290235 0.00045276168
-0.13578071 0.35600346 0.10673058 0.27346715 -0.60060716 -0.75132334 0.00026555284
0.13257521 0.35430539 0.10847409 -0.23082204 -0.61513329 -0.75387812 0.00027115809
-0.134812 0.36133185 0.10255288 0.27168298 -0.61878824 -0.73708183 0.00037070381
-0.1131047 0.36344266 0.10885678 0.19798802 -0.61991203 -0.75928247 0.00070606492
-0.10576093 0.36791936 0.10669318 0.15537877 -0.63937199 -0.75303435 0.00075229071
-0.091327228 0.36681521 0.1096517 0.11605282 -0.64008933 -0.75948501 0.00031725786
-0.0892158 0.36987433 0.10748389 0.10829484 -0.65429926 -0.74844146 0.00031320963
0.10531113 0.36836374 0.10523367 -0.22070852 -0.62224978 -0.75106126 0.0002352532
0.11677602 0.36542609 0.10402346 -0.23962164 -0.62249744 -0.74503583 0.00023719184
0.12639153 0.36259723 0.1033348 -0.23361734 -0.62667865 -0.7434358 0.00028519848
0.13628785 0.36204937 0.10051326 -0.23622358 -0.63447326 -0.73596334 0.00029124372
-0.10652944 0.37216136 0.10263953 0.15322411 -0.65265912 -0.74199623 0.00066558871
-0.095363952 0.37293732 0.10366392 0.11746389 -0.65854996 -0.74331301 0.00036637706
-0.077998139 0.37683535 0.10272362 0.10604735 -0.65955138 -0.74414104 0.00033827859
-0.066940285 0.37447447 0.10660629 0.10898146 -0.65260088 -0.74982345 0.00031361164
-0.054665279 0.37756184 0.10559408 0.11074775 -0.65360194 -0.7486918 0.00027355185
-0.042033244 0.37610441 0.1088031 0.10799266 -0.64030206 -0.76049381 0.00024743172
0.0058499249 0.37917352 0.10873385 -0.05159333 -0.65017307 -0.75803232 0.00031099442
0.012513522 0.37725204 0.10976626 -0.057742499 -0.64792764 -0.75951004 0.0003646641
0.023164209 0.37894428 0.10756627 -0.061501276 -0.66019833 -0.74856913 0.00049857202
0.035887588 0.37576544 0.10914142 -0.061574455 -0.64778143 -0.75933379 0.00032598677
0.044441357 0.37503242 0.10906549 -0.066856116 -0.65393978 -0.75358683 0.00029709737
0.055131335 0.37620616 0.10716628 -0.063607663 -0.66034323 -0.74826521 0.00035724381
0.077807158 0.37955809 0.10200894 -0.11431737 -0.67136931 -0.73225325 0.00070535549
0.082236312 0.37542862 0.10546805 -0.13522899 -0.65416372 -0.74416596 0.00088660291
0.096440397 0.37291387 0.1041345 -0.18927871 -0.64230269 -0.74271172 0.00081273064
-0.054954082 0.38159952 0.10186038 0.11783393 -0.67406082 -0.72921681 0.00036979571
-0.045919701 0.3815057 0.10336864 0.10877772 -0.66336578 -0.74034673 0.00038918672
-0.031158462 0.38290432 0.10437196 0.10560447 -0.66192424 -0.74209434 0.00029949693
-0.025961002 0.3833425 0.10476197 0.077990651 -0.6618247 -0.74559069 0.00073600269
-0.01473802 0.38537079 0.10445718 0.028061429 -0.66813558 -0.74351019 0.00065644144
0.0037860272 0.38335359 0.10519248 -0.047156878 -0.66427171 -0.74600226 0.00042041379
0.036416117 0.38468063 0.10094389 -0.061197855 -0.68166327 -0.72910225 0.00027787522
0.056193177 0.38133031 0.10231037 -0.069271274 -0.68424147 -0.72595805 0.00039786234
0.071571261 0.38109717 0.10111954 -0.091665573 -0.68182904 -0.7257455 0.00054852909
-0.064984016 -0.37138575 0.11040778 0.06755434 0.63977581 -0.76558691 0.00045907733
-0.040686008 -0.37074238 0.11282637 0.060049657 0.63708323 -0.76845229 0.00038619802
-0.03192953 -0.37356427 0.11122975 0.063178889 0.64354479 -0.76279652 0.00033455325
-0.024455305 -0.37302175 0.11225227 0.065466374 0.63917106 -0.76627314 0.00048041908
-0.014961908 -0.3735238 0.11258826 0.057126112 0.63751495 -0.76831716 0.00036845481
-0.0040092217 -0.37271219 0.11410002 0.044077005 0.63440645 -0.77174193 0.00039727037
0.0042150901 -0.37568185 0.11234244 0.014491247 0.64321327 -0.76555002 0.00063758926
0.016111802 -0.37081683 0.11650418 -0.028734608 0.62476236 -0.78028601 0.00088608061
0.023611395 -0.37398323 0.11296531 -0.066134222 0.63306445 -0.7712689 0.00074328098
0.033168271 -0.37292737 0.11253305 -0.093182333 0.63592219 -0.76610708 0.00039426313
0.043388996 -0.37074739 0.11291237 -0.10507491 0.6402114 -0.7609787 0.00020495734
0.061575681 -0.37096921 0.11030288 -0.10527248 0.64247364 -0.75904232 0.00014979947
-0.094807588 -0.36339799 0.11231037 0.18015249 0.61953616 -0.76401573 0.00079396687
-0.076180182 -0.36565599 0.11416403 0.10289834 0.62238598 -0.77591723 0.0005805383
-0.066709667 -0.36865702 0.11247843 0.080162063 0.63097674 -0.77164912 0.00046443185
-0.050314691 -0.36567536 0.11616942 0.063690647 0.62063503 -0.78150856 0.00031556719
-0.048458826 -0.36775619 0.11463259 0.060028188 0.62876517 -0.77527469 0.00031843694
-0.026385153 -0.36758921 0.11649232 0.062180631 0.63176435 -0.77266252 0.00032271986
-0.016598701 -0.36465701 0.11962695 0.059669308 0.60894257 -0.79096687 0.00028473375
-0.0085348319 -0.36687851 0.11846149 0.053713091 0.61297554 -0.78827405 0.00048807776
0.0069158273 -0.36687988 0.11966763 1.3921244e-05 0.60706133 -0.79465491 0.0008360091
0.035681177 -0.36784041 0.11627135 -0.10056405 0.61851501 -0.77931118 0.00043810561
0.048343126 -0.36319622 0.11829792 -0.10567935 0.60983998 -0.785447 0.00057274831
0.052654114 -0.36631647 0.11522233 -0.10304698 0.62167847 -0.77646452 0.00036502918
0.061822325 -0.366209 0.11408248 -0.10537561 0.62446839 -0.77390903 0.0003855972
0.083637699 -0.36468935 0.11238253 -0.10209467 0.62266606 -0.77579868 0.00034137207
0.096358798 -0.36270252 0.11227285 -0.13106418 0.6294834 -0.76588047 0.0005028692
-0.11494497 -0.3553226 0.11271922 0.23541589 0.60327804 -0.76199406 0.00032430523
-0.10624418 -0.3564252 0.11435747 0.22508135 0.59819692 -0.76908964 0.00032205795
-0.096636511 -0.35345182 0.11935371 0.18523401 0.56858063 -0.80150133 0.00054795505
-0.089825019 -0.35664588 0.11886364 0.16310969 0.58763611 -0.79251444 0.00073048112
0.06886895 -0.35868925 0.11916307 -0.10153067 0.60101181 -0.79276502 0.0004131608
0.070977807 -0.35853007 0.11900857 -0.1014548 0.59618109 -0.7964139 0.00035732164
0.082586974 -0.35926807 0.11686516 -0.10259958 0.60459733 -0.78989577 0.00030793736
0.098638892 -0.35510176 0.11805566 -0.13704729 0.59548169 -0.79159307 0.00095140329
0.10805473 -0.3518292 0.11928871 -0.17507347 0.58164668 -0.79437798 0.0013557437
0.1158112 -0.35470954 0.11455033 -0.22803402 0.58478367 -0.77847838 0.000760025
0.12714069 -0.35389978 0.11133687 -0.25722241 0.58895367 -0.76613975 0.00045178999
-0.15091476 -0.34376034 0.11127283 0.22155213 0.60652465 -0.7635721 0.00033963835
-0.11680333 -0.34554607 0.11962511 0.21368061 0.56776142 -0.79497641 0.00029066653
0.1159807 -0.34744951 0.1198587 -0.22528426 0.56897295 -0.79089618 0.00074956013
0.13713506 -0.3436684 0.11553553 -0.26309976 0.56966776 -0.77862519 0.00032265237
0.14255512 -0.34539178 0.11243828 -0.26409864 0.58739108 -0.76499909 0.00040650682
0.15738462 -0.34072882 0.11089487 -0.2605938 0.59005392 -0.76415128 0.00021743738
-0.17444174 -0.33545521 0.11089145 0.2788198 0.58461851 -0.76189286 0.00095325679
-0.16482413 -0.33404213 0.11470389 0.24515583 0.57673454 -0.77927905 0.0007736815
-0.15320103 -0.33747196 0.11540423 0.22292207 0.59243834 -0.77415925 0.00036784515
-0.14944451 -0.33538681 0.11805931 0.21560696 0.5841791 -0.78246301 0.0003055039
0.13556962 -0.3395347 0.11911717 -0.25538319 0.5533362 -0.79284209 0.00028574321
0.15459184 -0.33589372 0.11540782 -0.25456193 0.5804317 -0.77349681 0.00029231282
0.16284502 -0.33792052 0.1111331 -0.26668963 0.59611845 -0.75731069 0.00021252283
0.17087382 -0.33244801 0.11247614 -0.27238959 0.58759034 -0.76193273 0.00035784405
-0.18601894 -0.3247931 0.11324076 0.34689695 0.5223282 -0.77899671 0.00053231907
-0.17507215 -0.32693738 0.11684461 0.2789022 0.54505086 -0.79065359 0.0011542229
-0.16488393 -0.32929075 0.1183002 0.23993026 0.56700307 -0.78799802 0.00063937099
0.15836126 -0.32955503 0.1188241 -0.25393867 0.55969465 -0.78883278 0.00027777266
0.16605996 -0.32499734 0.11960211 -0.25036258 0.55265594 -0.79491502 0.00023533302
0.17643549 -0.32709742 0.11455914 -0.27078196 0.57902807 -0.76902765 0.0003252844
0.19400084 -0.32378617 0.11109629 -0.3030355 0.57062835 -0.76325148 0.00071678625
-0.20572087 -0.31225854 0.11222956 0.37233949 0.51813847 -0.76999724 0.00024462849
-0.19240674 -0.31618494 0.11591614 0.3552323 0.50494152 -0.78666645 0.0003499506
0.18511911 -0.31636319 0.11957044 -0.2842387 0.53898257 -0.79290992 0.00068598927
0.194774 -0.31366229 0.11831806 -0.32047004 0.52150464 -0.79077929 0.00089216646
0.20724078 -0.31526056 0.11107028 -0.37315342 0.52976799 -0.76164448 0.00071233534
-0.21487267 -0.30422345 0.11322216 0.37175858 0.52217847 -0.76754493 0.00022111705
-0.20430724 -0.30290616 0.11907748 0.35831127 0.49858353 -0.78932083 0.00037908359
-0.19873793 -0.30870003 0.1178759 0.35513812 0.50185162 -0.78868359 0.00039975892
0.207092 -0.305861 0.11703847 -0.37640229 0.48955241 -0.78654933 0.00036558002
0.21677585 -0.30328175 0.11365559 -0.40376925 0.48948142 -0.77290243 0.00040869848
0.22476907 -0.30223292 0.11018633 -0.41504049 0.50113451 -0.75934547 0.00026283597
-0.22128211 -0.29657722 0.1152516 0.36517859 0.51716244 -0.77407211 0.00031419765
-0.2127094 -0.29899818 0.11769614 0.36537182 0.50934565 -0.77914727 0.00029502183
0.22596081 -0.29817817 0.11211246 -0.41653362 0.49512962 -0.76246077 0.00024601159
-0.25139251 -0.28000015 0.11200145 0.4187659 0.48430014 -0.7681722 0.00082840247
-0.24684455 -0.28430909 0.11129937 0.39943424 0.51308548 -0.75973386 0.0005624842
-0.23597309 -0.28378311 0.11677609 0.36444581 0.50186235 -0.78441918 0.00045571331
-0.22728182 -0.28672618 0.1189315 0.35861135 0.49713725 -0.7900964 0.00038814967
0.22275779 -0.28983006 0.11899843 -0.39171755 0.46971479 -0.7911545 0.00034182571
-0.25515255 -0.27560002 0.11296634 0.43652081 0.46653455 -0.76928216 0.00077938789
-0.24239582 -0.27983466 0.11635543 0.37954092 0.48686743 -0.78670752 0.00069878128
-0.23884207 -0.27714896 0.11980703 0.37337038 0.47158483 -0.79887563 0.00044792189
0.2536656 -0.27291828 0.11364152 -0.40162155 0.49246925 -0.77212322 0.00035101752
-0.26447797 -0.26367441 0.11376438 0.47093019 0.42456242 -0.77328622 0.00066838792
0.25672695 -0.26246023 0.11861585 -0.39966473 0.46867073 -0.78779179 0.00056378474
0.26298192 -0.26438028 0.11418316 -0.42326257 0.4649362 -0.77761376 0.00052281941
-0.26472071 -0.25553885 0.11781237 0.47141808 0.39921674 -0.7863785 0.00038190337
0.26408863 -0.2559514 0.11889476 -0.43217 0.42910165 -0.79315883 0.00066330918
0.27536103 -0.25290114 0.11435568 -0.46859089 0.41998538 -0.77719676 0.00066534837
0.27584493 -0.24763581 0.11652003 -0.47512609 0.39848495 -0.7845158 0.00050764316
0.28373325 -0.24604093 0.11205912 -0.50306267 0.39290443 -0.76977527 0.00052992679
-0.28485644 -0.23684449 0.1148432 0.48918444 0.39571601 -0.77724349 0.00030741253
-0.29379994 -0.22413096 0.11580127 0.48265752 0.39389157 -0.78223479 0.00025797615
-0.2879034 -0.22879028 0.11709158 0.47966054 0.39866877 -0.78165793 0.00027026294
0.28859365 -0.22971533 0.11654922 -0.50419039 0.35937315 -0.78526622 0.00034577062
0.29463837 -0.22912404 0.11283323 -0.51967543 0.36893862 -0.77059835 0.00035685627
-0.29737258 -0.21768498 0.11688989 0.48089346 0.39149883 -0.78451902 0.0003762157
0.29784128 -0.21404383 0.11783122 -0.49922925 0.36055824 -0.78788823 0.00028492071
0.3007803 -0.21433634 0.11575082 -0.50640148 0.36499211 -0.78124154 0.00029415244
-0.31214792 -0.20769519 0.11278658 0.51568043 0.37890559 -0.76844275 0.0004391796
-0.30557013 -0.20371652 0.11896342 0.49647743 0.35884866 -0.79040372 0.00066183368
0.30539021 -0.2072428 0.11605083 -0.50617838 0.35675406 -0.78518146 0.00030177407
-0.32183391 -0.19011547 0.11384632 0.55979937 0.30361137 -0.77100247 0.00066775252
-0.31810719 -0.1950886 0.11492723 0.5413909 0.33434254 -0.77143437 0.00075951463
0.31102094 -0.19198291 0.11952898 -0.49603388 0.35315004 -0.79324371 0.00032451318
-0.32285058 -0.18710738 0.11410705 0.5647195 0.29764801 -0.76973855 0.00060627708
-0.31851065 -0.1852285 0.11794657 0.54782265 0.28430149 -0.78680569 0.00066655286
0.31631631 -0.18716341 0.11830311 -0.50596786 0.3485612 -0.78898776 0.00048850686
0.32496777 -0.18649334 0.11290149 -0.52915817 0.34748515 -0.77410954 0.00058407418
0.3310872 -0.18363996 0.11020343 -0.56503397 0.32566148 -0.75807726 0.00109486
-0.33118665 -0.17445065 0.11220486 0.58319366 0.262685 -0.7686882 0.00025015269
-0.31970814 -0.17744921 0.11967901 0.55274975 0.26486391 -0.79013598 0.00051701366
0.32654583 -0.17665634 0.11649962 -0.546381 0.28574193 -0.78728616 0.00078246318
-0.33282417 -0.16494529 0.11419285 0.57916665 0.26055983 -0.77244717 0.00035366163
-0.32631683 -0.16428825 0.11922303 0.55795497 0.25341743 -0.79023159 0.00037633075
0.32859811 -0.16607271 0.11848857 -0.55818111 0.24733841 -0.791996 0.00044175866
0.33484283 -0.16517141 0.11399612 -0.57541692 0.24912268 -0.77899498 0.00054144743
-0.33772731 -0.15276672 0.11466679 0.57643181 0.26664913 -0.7724148 0.00036141573
0.33842617 -0.15618345 0.11382958 -0.58659476 0.22760394 -0.77724057 0.00041833558
-0.3456226 -0.14255248 0.11226857 0.58170736 0.27016285 -0.76722139 0.00032987172
-0.33836716 -0.14504161 0.11679309 0.56414843 0.25777856 -0.78440219 0.0003694318
0.33901995 -0.14450794 0.11670163 -0.57797962 0.22007611 -0.7858156 0.000415435
0.34149048 -0.14531252 0.11459381 -0.58591986 0.22396089 -0.77880645 0.00042767153
-0.34474784 -0.13519628 0.1153901 0.56457877 0.2632286 -0.78227973 0.00034717587
0.33940348 -0.13895902 0.11798956 -0.57719254 0.21790235 -0.78699893 0.00035320967
0.34786314 -0.13611761 0.11236493 -0.60378951 0.21919385 -0.76641524 0.0003552376
-0.35265943 -0.12114956 0.11426926 0.57764637 0.23557754 -0.78155488 0.00050600484
-0.3465642 -0.12448989 0.11764998 0.56558228 0.24067254 -0.78879231 0.00034255345
0.34408832 -0.12487992 0.1184346 -0.58203286 0.21468471 -0.7843138 0.0003856082
0.35245669 -0.12564705 0.11185221 -0.60466379 0.22697929 -0.76345408 0.0003924068
-0.36025995 -0.1166009 0.11018266 0.61382556 0.21494432 -0.75961643 0.00088357658
-0.3533515 -0.11654999 0.11530539 0.57830542 0.21174447 -0.78786242 0.00068116677
-0.34739554 -0.11817847 0.11915915 0.56190979 0.22131743 -0.79704201 0.00041404215
-0.36025792 -0.10074922 0.11364374 0.61413181 0.14992477 -0.77483201 0.00055658515
-0.35560834 -0.10191953 0.11721126 0.59246892 0.15140265 -0.79123819 0.00058650598
0.35587659 -0.10470556 0.11521272 -0.5877586 0.22300278 -0.77769506 0.0002628158
0.36000493 -0.10254068 0.11268944 -0.59604436 0.22385156 -0.77111709 0.00030791099
-0.36242723 -0.090699367 0.11325008 0.62323833 0.12079059 -0.77264714 0.00024632836
-0.35728949 -0.092952944 0.11706374 0.60102987 0.12862585 -0.78880829 0.00051000289
0.35786062 -0.090482906 0.1177526 -0.58937562 0.16487481 -0.79085565 0.00098922837
0.36573365 -0.091630563 0.11143854 -0.6178984 0.16158669 -0.76947474 0.0010539679
-0.36205509 -0.087200582 0.114016 0.61506635 0.11070523 -0.78066486 0.00032140015
-0.35730562 -0.08438845 0.11819603 0.60157907 0.097338982 -0.79286045 0.00035709277
0.35927013 -0.086030543 0.11794811 -0.60281295 0.13281426 -0.78675079 0.00083684281
0.36413407 -0.085143656 0.11441858 -0.6110906 0.13087304 -0.78066671 0.00086905301
-0.36182323 -0.073546931 0.11602741 0.61258751 0.10042312 -0.78399724 0.00037981736
