# .PCD v0.7 - Point Cloud Data file format
VERSION 0.7
FIELDS x y z normal_x normal_y normal_z curvature
SIZE 4 4 4 4 4 4 4
TYPE F F F F F F F
COUNT 1 1 1 1 1 1 1
WIDTH 587
HEIGHT 1
VIEWPOINT 0 0 0 1 0 0 0
POINTS 587
DATA ascii
-0.26484352 -0.40898275 0.18779889 0.57311273 0.77551579 -0.26479632 0.0020596562
0.2667042 -0.40652084 0.18306936 -0.56852329 0.7922436 -0.22165589 0.001917719
0.27075875 -0.40400565 0.18201341 -0.56697869 0.79288357 -0.22331785 0.0019786521
-0.28596544 -0.39228752 0.18639037 0.61111081 0.75464314 -0.23886645 0.00054632191
0.27816176 -0.39742878 0.1852807 -0.56091624 0.79002404 -0.2474568 0.0013746711
0.28528887 -0.39127457 0.18796155 -0.56380481 0.78021097 -0.27091497 0.00052678527
-0.29888436 -0.38093403 0.18838182 0.60916734 0.75115663 -0.25432035 0.00072189519
0.29437023 -0.38525701 0.18660174 -0.56623101 0.78239697 -0.25930166 0.00069929432
0.30206099 -0.38112557 0.1829246 -0.57349306 0.78982133 -0.21745795 0.0019444077
-0.31079653 -0.37288144 0.18418257 0.60973132 0.75870734 -0.22932668 0.001863032
-0.3048304 -0.37588987 0.18884528 0.60749757 0.75172567 -0.25662279 0.00081971509
0.30426314 -0.37837085 0.18598659 -0.56267279 0.78651214 -0.25455442 0.00073128124
0.31409574 -0.37141162 0.18567638 -0.57397139 0.77971739 -0.25019532 0.0010221776
-0.32336447 -0.36383593 0.18112531 0.6196546 0.74977607 -0.23208614 0.001909211
-0.33282572 -0.35401541 0.1863448 0.61105961 0.75303578 -0.24401493 0.00085733726
-0.32812947 -0.35841173 0.18494859 0.61243278 0.75547528 -0.23277292 0.001281878
-0.34682506 -0.34300208 0.18528129 0.65377343 0.72088605 -0.2300079 0.0023722195
0.34742275 -0.34257591 0.18291153 -0.73870552 0.6348291 -0.22650875 0.0016767638
-0.36147651 -0.33062637 0.18053457 0.74163526 0.63436466 -0.2180794 0.0021283701
-0.35389629 -0.33738551 0.18487789 0.6992408 0.67804348 -0.22653745 0.0030632091
-0.34866261 -0.33977985 0.18957947 0.66776425 0.69855684 -0.25711721 0.002507325
0.34826958 -0.33892685 0.18824442 -0.74335402 0.62272286 -0.24421491 0.0011769588
0.35964513 -0.32646403 0.18526691 -0.7578904 0.61205351 -0.22581565 0.0019808449
0.36055225 -0.32504076 0.18590601 -0.75784725 0.61208701 -0.22586969 0.0020331054
-0.3711049 -0.31522992 0.18434203 0.78196377 0.56927156 -0.25389478 0.00083217758
-0.36851153 -0.31793803 0.18602811 0.77423334 0.57852775 -0.25664824 0.0010126397
0.36756483 -0.31473896 0.18941617 -0.74491519 0.61466551 -0.25939876 0.0011168179
0.37391949 -0.31056994 0.18205208 -0.7579242 0.61614484 -0.21428123 0.0017374532
-0.3749488 -0.30904654 0.18593124 0.78048801 0.56746024 -0.26234955 0.00079562643
0.37942928 -0.30157667 0.18664522 -0.75207776 0.60959089 -0.25055549 0.00088886934
-0.38981831 -0.29105592 0.18090597 0.79318291 0.57136446 -0.21072152 0.0020391487
0.38483948 -0.29756021 0.18132892 -0.75532657 0.62498271 -0.19717611 0.0022694217
-0.39001548 -0.28962314 0.18308985 0.79461092 0.56691825 -0.21724933 0.002087682
-0.38802919 -0.28899232 0.18947886 0.78097242 0.56173062 -0.27302161 0.00049584365
0.39458182 -0.28534862 0.18191831 -0.76084125 0.61494201 -0.20728475 0.0016298571
-0.4027749 -0.27053246 0.18566206 0.79108989 0.56665403 -0.23039071 0.0012411925
-0.397268 -0.27851075 0.18504396 0.78705436 0.56343794 -0.25116369 0.00067179807
0.39794409 -0.27909523 0.18628332 -0.78267062 0.57379222 -0.24122447 0.0081918016
0.40299124 -0.27189147 0.18837951 -0.88187414 0.40344918 -0.24398099 0.092483222
-0.4061521 -0.26666203 0.18411414 0.79436773 0.56966656 -0.2108548 0.0017512833
0.40657121 -0.26801208 0.18735529 -0.93727285 0.32569477 -0.12426811 0.12662064
-0.41445008 -0.25513473 0.18411313 0.7844826 0.58021903 -0.21893612 0.0020313167
0.41550753 -0.25737041 0.18492925 -0.84789437 0.47981423 -0.22550713 0.12559569
0.42019072 -0.25113487 0.18139844 -0.76463526 0.61649883 -0.18778212 0.1119016
-0.42453691 -0.2430135 0.18054819 0.81931514 0.53531045 -0.2053424 0.0027805271
-0.41813132 -0.24840003 0.18716724 0.79149461 0.55236715 -0.26158512 0.0006685218
0.39820385 -0.24644357 0.186156 -0.59103096 -0.79823583 -0.11619805 0.11893004
0.40293568 -0.24937204 0.18620269 -0.88145363 -0.34227002 -0.32540855 0.21736445
0.4215962 -0.2457791 0.18436143 -0.7115624 0.66279221 -0.23320709 0.12578511
0.37542206 -0.23234421 0.18898547 0.52622986 0.85034239 -1.0009868e-05 0
0.42651352 -0.23558505 0.18340667 -0.79535222 0.49727675 -0.34659868 0.028959654
-0.43128672 -0.22798264 0.18843727 0.87231874 0.43177235 -0.22941792 0.0015313618
0.3557938 -0.22019652 0.18505409 0.52622479 0.85034549 1.3867842e-05 5.4133943e-06
0.36500862 -0.22589946 0.18356244 -0.52626902 -0.85031813 2.3509622e-06 3.5132293e-06
0.42779833 -0.22849759 0.18901898 -0.87607169 0.40190357 -0.26640558 0.00092453946
0.43096888 -0.22387996 0.18581268 -0.87801325 0.39742318 -0.26673487 0.00082242582
-0.43534923 -0.21631896 0.18951043 0.89516461 0.36344966 -0.25803998 0.00093655067
0.34926262 -0.21615443 0.18744817 -0.52630371 -0.85029662 -1.5346857e-05 1.6205302e-05
0.43565023 -0.21569532 0.18288952 -0.87685734 0.39728421 -0.27071464 0.0006190798
-0.44106859 -0.20676944 0.18316984 0.91202432 0.34901637 -0.2154047 0.0013793168
0.32419273 -0.20063899 0.18320888 0.52622777 0.85034364 -3.0959112e-05 1.9234909e-05
0.33100539 -0.20485526 0.18741572 -0.52629352 -0.85030293 -4.1506813e-05 3.8630783e-06
0.43697417 -0.2090448 0.1878078 -0.87695509 0.39160317 -0.27856213 0.00043649186
0.4417226 -0.20008835 0.18571 -0.88005245 0.39500946 -0.26358163 0.00080713519
-0.44565588 -0.1918755 0.18635139 0.91074127 0.33795273 -0.23735698 0.0013330762
0.31516376 -0.19505107 0.18425238 0.52624655 0.85033208 -7.2016528e-06 2.0474135e-06
0.4438929 -0.19642243 0.18418449 -0.88791901 0.39965251 -0.22776657 0.0022444203
-0.45017785 -0.18475315 0.18084928 0.91186738 0.35025188 -0.2140595 0.001972287
0.29474792 -0.18241596 0.18015072 0.52625662 0.85032576 -1.3873648e-05 1.340939e-05
0.30378157 -0.18800676 0.18485229 0.52623951 0.85033637 1.6494963e-05 0
0.44823352 -0.1882772 0.18221113 -0.89344716 0.39633182 -0.21136045 0.0019334842
-0.45107353 -0.17831582 0.18550348 0.90737534 0.34538177 -0.23954426 0.001429607
0.27483857 -0.1700943 0.18537974 -0.52625334 -0.85032785 -1.2219393e-05 1.9860161e-05
0.28438121 -0.17600012 0.18542531 0.52622497 0.85034531 -2.4168862e-06 4.7104277e-06
0.45383355 -0.17332092 0.18555865 -0.88309819 0.39516565 -0.25294614 0.00097873271
-0.45745599 -0.16171533 0.18521965 0.90736002 0.35193646 -0.22986636 0.0018830318
0.26580459 -0.16450325 0.1836513 0.52622861 0.85034311 -2.0354566e-05 0
0.45748591 -0.16354384 0.18777174 -0.87830293 0.39802161 -0.26488274 0.0012375336
-0.46348587 -0.15007363 0.18033317 0.91560519 0.34682751 -0.20341548 0.0024208894
0.24805707 -0.15351954 0.18548223 0.52623099 0.85034162 -2.1985117e-05 0
0.25093776 -0.15530235 0.18393067 0.52621961 0.85034871 -2.0580215e-05 3.0635945e-06
0.46015146 -0.15931627 0.18553381 -0.89576334 0.37559012 -0.23778166 0.0016243542
-0.46340397 -0.14645207 0.18471853 0.90579486 0.34150356 -0.25082046 0.0013103004
0.23184738 -0.14348754 0.18569703 0.52626038 0.8503235 -7.5575026e-06 1.7704566e-06
0.4663116 -0.14632729 0.18457922 -0.91594034 0.32196996 -0.23955895 0.0020716845
-0.46796024 -0.13061345 0.18907318 0.90380931 0.32726422 -0.27572972 0.00062248512
0.21647537 -0.133974 0.18584232 -0.52625859 -0.85032457 -2.8557502e-05 5.535991e-06
0.47128654 -0.13264643 0.18068826 -0.95042962 0.21701638 -0.22268231 0.0024064716
-0.47222197 -0.12307398 0.18483269 0.9218896 0.30502629 -0.23891118 0.0016794186
0.19913352 -0.12324135 0.1897534 -0.52626145 -0.85032278 -3.6408252e-05 4.2880166e-07
0.20362088 -0.12601851 0.18715812 0.52624178 0.850335 1.1828877e-05 5.2132982e-06
0.47225195 -0.12328458 0.1824705 -0.95815378 0.18887377 -0.21509999 0.0018222508
-0.47733074 -0.11374542 0.18008146 0.95234579 0.21813098 -0.2132051 0.0034816796
0.18774045 -0.11619029 0.18537568 -0.52625716 -0.85032552 -7.4360128e-06 3.2132018e-06
0.19341531 -0.11970241 0.18797828 -0.52627349 -0.85031533 -3.8122223e-05 0
0.47293186 -0.11400174 0.18512049 -0.95384926 0.15785921 -0.255445 0.0008186929
-0.47685316 -0.10499665 0.18556662 0.95549774 0.1721953 -0.23952633 0.0026533825
0.16569456 -0.10254636 0.18782714 -0.5262695 -0.85031784 5.0484664e-06 0
0.17143941 -0.10610177 0.18625934 0.52625722 0.85032547 -1.3831335e-05 0
0.47346437 -0.10571867 0.1877214 -0.95288485 0.14996049 -0.26367098 0.00081543071
0.14909983 -0.092276074 0.18625796 -0.52625453 -0.85032713 -1.2200434e-05 5.2823948e-06
0.15468912 -0.09573523 0.18491291 -0.52625012 -0.85032982 -7.9919109e-06 0
-0.47816119 -0.088338062 0.1867497 0.96740323 0.089906946 -0.23674405 0.0011876442
0.13259165 -0.082059368 0.18254112 -0.52625674 -0.8503257 -3.3909046e-06 1.8193837e-06
0.14044161 -0.086917616 0.18175319 -0.52625734 -0.85032529 -7.4466584e-06 0
-0.47876734 -0.07320182 0.18969341 0.96387625 0.097834781 -0.24773179 0.001098518
0.11617679 -0.071900412 0.18014115 0.52625144 0.85032904 -5.1059415e-06 1.9517213e-06
0.12142496 -0.075148441 0.1870921 0.52625519 0.85032666 -2.2148461e-05 2.7499116e-06
0.47804427 -0.075958274 0.18857594 -0.95295024 0.15961844 -0.25769708 0.0013865911
-0.4815309 -0.063978471 0.18380304 0.9687776 0.11690696 -0.21863861 0.0011895429
0.097650319 -0.060434598 0.18020993 0.52625501 0.85032678 -3.0712838e-06 0
0.10534663 -0.065197766 0.18814611 0.52625728 0.85032541 -4.6104401e-06 0
0.11024214 -0.06822753 0.18511063 0.52625382 0.85032761 -4.3334381e-07 0
0.48116794 -0.0631193 0.18529014 -0.95765322 0.16702631 -0.23452623 0.001629019
0.087122045 -0.053918771 0.18593685 0.52625555 0.85032648 2.3809427e-07 1.2531219e-06
0.092772394 -0.057415709 0.18682933 -0.52625901 -0.85032433 -1.0399693e-06 0
0.48246232 -0.055219356 0.18526669 -0.95564598 0.15665706 -0.2493979 0.0013856518
0.073447093 -0.045455515 0.18740714 -0.52625728 -0.85032535 -1.6190079e-06 7.093339e-07
0.48330706 -0.046925589 0.18687887 -0.95688182 0.15365842 -0.24650805 0.0013602561
-0.48380044 -0.034635808 0.18599707 0.9597497 0.095913231 -0.26397195 0.00076795404
0.056017503 -0.034668546 0.18695527 -0.52625698 -0.85032558 -5.619605e-06 0
0.48692524 -0.032004535 0.18309855 -0.95932668 0.14478277 -0.24234326 0.0016898438
0.047145851 -0.029177986 0.18398748 0.52625722 0.85032541 -1.2941114e-06 0
0.488639 -0.022716116 0.18246 -0.97083622 0.091640137 -0.22153799 0.0034146823
-0.48554933 -0.013113311 0.18733625 0.96014142 0.097507238 -0.26195571 0.0015286232
0.01972237 -0.012205922 0.18202358 -0.53521174 -0.84464836 -0.010839609 0.0040154234
0.024520887 -0.015175666 0.18668719 -0.52695078 -0.84985501 -0.0083324872 0.0033861792
0.031021066 -0.01919855 0.1833265 -0.52625674 -0.8503257 -8.8677626e-07 0
0.48824212 -0.013240754 0.18697277 -0.9647159 0.020919047 -0.26246065 0.0030817406
-0.4879787 -0.0064333188 0.18169695 0.97257316 0.083817653 -0.21697004 0.002592444
-0.0021438478 -0.0026482325 0.18823798 -0.55643374 -0.82972956 -0.043937121 0.045134779
0.0015934649 -0.0032952928 0.18353687 -0.51556653 -0.85532737 -0.051051538 0.025925478
0.48741198 -0.0087402286 0.18841717 -0.96349645 -0.011371605 -0.2674796 0.0025979187
-0.48993218 0.0096474048 0.18062153 0.98035556 -0.0073541249 -0.19710127 0.0036626032
-0.0057720868 0.0040381984 0.18754348 0.53793538 0.84296346 -0.0061687143 0.035381477
0.0021246041 0.0032699732 0.18423946 -0.53809637 -0.84251779 -0.024821276 0.031376295
0.48764303 0.0015859528 0.1843399 -0.96281224 -0.076661021 -0.25906679 0.0018351667
-0.48858452 0.018776827 0.18467672 0.97232825 -0.062561959 -0.22508612 0.0029423421
-0.031239649 0.019333862 0.18394397 -0.52385211 -0.85180926 1.8118502e-05 1.1062723e-05
-0.025674334 0.015889555 0.1857682 -0.51998359 -0.85417449 -0.0017279414 0.00078136177
-0.019645892 0.012158626 0.18421724 0.51368278 0.85782117 -0.016518392 0.011434641
0.48568678 0.015634829 0.18608069 -0.96288204 -0.093526058 -0.25320175 0.0010706095
-0.48750937 0.02707614 0.18379506 0.96640593 -0.12065227 -0.22694173 0.0026396995
-0.48560023 0.037939642 0.18423861 0.96303791 -0.14830174 -0.22486578 0.0021779535
-0.063822523 0.039499007 0.18620707 0.52625871 0.85032451 -6.5397408e-06 0
-0.051273439 0.031732533 0.18053715 0.52625692 0.85032564 -3.6311128e-06 0
-0.48415533 0.045049623 0.18515122 0.95646465 -0.1576232 -0.24562228 0.001474553
-0.080034852 0.049532622 0.18717359 0.52625567 0.85032642 -1.4501138e-05 1.7973665e-06
-0.075489968 0.046719849 0.18221168 0.52625531 0.85032666 -9.5250343e-06 1.4047158e-06
-0.067764044 0.041938365 0.18128775 -0.52625543 -0.85032648 -2.506363e-06 2.4910292e-07
0.48362309 0.04289249 0.18389934 -0.96648926 -0.10192979 -0.23560309 0.0020841472
-0.48293355 0.053706422 0.18455094 0.96341693 -0.15579039 -0.21807633 0.0015378487
-0.092848778 0.057463005 0.18347155 -0.52625811 -0.85032493 -4.3529499e-06 9.4084476e-07
-0.086198643 0.053347319 0.18530741 0.5262568 0.85032564 -1.0336952e-06 1.855978e-06
0.4821609 0.05402324 0.1849968 -0.96972787 -0.092840478 -0.22585061 0.0019079249
-0.48121101 0.06577114 0.18377754 0.96510142 -0.1493613 -0.21510558 0.001642808
-0.11191865 0.069265127 0.18343355 0.52626824 0.85031867 -7.0681908e-06 0
-0.10571727 0.065427162 0.18417861 0.52625751 0.85032523 -2.4408746e-06 0
0.48118204 0.069241941 0.18322247 -0.97295243 -0.095529094 -0.21032768 0.0022709614
-0.47888458 0.076819263 0.18545398 0.9570837 -0.154441 -0.24523203 0.0016537152
-0.12360492 0.076497614 0.18484949 -0.52625585 -0.8503263 -6.1069261e-07 2.7614444e-06
-0.11404026 0.070578158 0.18421333 -0.52625644 -0.85032588 -8.2690838e-07 3.7523139e-06
0.48082519 0.076954894 0.18187638 -0.97434968 -0.092075974 -0.20534062 0.0020673517
-0.47819903 0.088485725 0.18158552 0.96424901 -0.15935113 -0.21173325 0.0028479106
-0.14171888 0.08770813 0.18818785 0.52626896 0.85031819 -8.8460156e-06 0
0.47836843 0.081030548 0.18844482 -0.95845288 -0.10081736 -0.26684052 0.0011220385
-0.47656384 0.092976175 0.18446255 0.95678401 -0.15566114 -0.24562979 0.001501153
-0.14889401 0.092148721 0.1855657 0.526263 0.85032183 7.1569666e-06 0
0.47839522 0.092741802 0.18457587 -0.95942551 -0.11490393 -0.25748739 0.0013866444
-0.17772329 0.10999082 0.18448344 -0.52625436 -0.85032713 -5.3246094e-06 0
0.47787175 0.1020056 0.18326366 -0.95761883 -0.16086173 -0.2389345 0.0026179948
-0.47351101 0.11198989 0.18432003 0.96104628 -0.16212302 -0.22384407 0.0021949287
-0.18584901 0.11501973 0.18606971 -0.52625865 -0.85032451 -3.1321663e-06 8.4215827e-07
0.47561634 0.11214178 0.18708551 -0.93933123 -0.22562177 -0.2583634 0.0025189971
-0.47278017 0.12285633 0.18101083 0.95931059 -0.17877741 -0.21854483 0.0023183061
-0.2037643 0.12610728 0.1854886 0.5262723 0.85031611 -5.2224218e-06 8.9865007e-06
-0.19732028 0.12211917 0.18475492 0.52627021 0.85031736 2.0255443e-06 0
0.46909025 0.12775858 0.18892661 -0.91227752 -0.30683362 -0.27129835 0.0014535612
0.47189081 0.12541167 0.18316035 -0.92041802 -0.3224383 -0.22105263 0.0025122359
-0.47021499 0.13709168 0.18179409 0.94483793 -0.2558459 -0.20450956 0.0029102103
-0.46929881 0.13335839 0.18664742 0.93956244 -0.22982416 -0.25377801 0.0025812513
-0.21827085 0.13508523 0.18138769 0.52627403 0.85031497 -2.6743288e-05 8.4320154e-06
0.46838415 0.13372093 0.18424347 -0.91159588 -0.34230205 -0.22764517 0.0018570967
-0.46605808 0.14476259 0.1873486 0.91111088 -0.31216201 -0.26913154 0.0020522231
-0.23180819 0.14346331 0.18311493 -0.52624518 -0.85033286 -8.0908321e-06 3.2956197e-07
-0.22818562 0.14122136 0.18851714 -0.52624607 -0.85033232 -2.9701423e-05 8.1201479e-06
0.46386436 0.14442405 0.1856472 -0.90888 -0.34436211 -0.23526995 0.0016243055
-0.4622997 0.15773584 0.18130977 0.90409511 -0.36934912 -0.21492602 0.0025647769
-0.25125924 0.15550135 0.18294579 0.52627355 0.85031533 -2.5426152e-06 0
-0.24692467 0.15281871 0.18629278 0.52626055 0.85032338 -9.6930908e-06 0
0.45887753 0.1561899 0.18724537 -0.90322119 -0.34742039 -0.25197333 0.0013903156
-0.45638007 0.16738492 0.18593444 0.88054347 -0.38944438 -0.27014127 0.00070946588
-0.26312676 0.16284601 0.18710291 0.52627915 0.85031182 1.5022123e-07 0
-0.25937742 0.16052559 0.18364556 0.52627289 0.85031575 1.2707746e-05 0
-0.45305076 0.17532945 0.18519944 0.88576669 -0.40054768 -0.23447591 0.0017992235
-0.2835176 0.17546563 0.18729991 0.52628499 0.8503083 3.2558055e-06 0
-0.27612257 0.17088893 0.18254673 0.52628088 0.85031074 -1.9159757e-05 1.7203051e-06
0.45561156 0.17000386 0.18131216 -0.91302949 -0.34258196 -0.2213926 0.0017693556
-0.44715989 0.18838674 0.18522367 0.88004696 -0.39947671 -0.25677949 0.0010600702
-0.30120549 0.18641245 0.18992917 -0.52622259 -0.8503468 -4.5143614e-05 5.2601449e-06
0.44809306 0.18806396 0.183355 -0.91106248 -0.3440156 -0.22719677 0.0021354032
0.45043457 0.18124944 0.1840786 -0.9090932 -0.34515715 -0.23327245 0.0017555015
-0.44362929 0.19727628 0.18382843 0.88895857 -0.39881322 -0.22516821 0.0019321286
-0.31167066 0.19288924 0.18473923 -0.5262267 -0.85034436 5.3673225e-06 0
-0.30804974 0.19064827 0.18464887 0.52624607 0.85033232 -2.7827911e-05 2.3085668e-06
0.44295937 0.19931017 0.18598993 -0.90310425 -0.3374415 -0.26558593 0.00074426859
-0.44083712 0.20178828 0.18606189 0.87960696 -0.39883485 -0.25927272 0.00083975884
0.4417499 0.20039374 0.18840027 -0.9030751 -0.33750424 -0.2656056 0.00082849781
-0.43400058 0.21660338 0.18653817 0.87771869 -0.41281584 -0.24329615 0.0011385464
-0.34407806 0.21294577 0.18291958 0.52626324 0.85032165 7.6045453e-06 3.0192149e-07
-0.43095645 0.22249143 0.18768919 0.88081884 -0.40231234 -0.24960549 0.0010985263
-0.42882738 0.22648513 0.18865922 0.87697285 -0.40115529 -0.26456174 0.00074530538
-0.36298206 0.22464524 0.18610319 0.52627879 0.85031205 1.8374309e-05 0
0.43348321 0.22491343 0.18531853 -0.87468296 -0.41119975 -0.25660175 0.0020251393
-0.42545709 0.23589313 0.18610559 0.79466105 -0.5412758 -0.27483493 0.032121465
-0.37799281 0.23393521 0.18618375 -0.52621925 -0.85034895 -6.1219785e-06 1.143474e-05
0.42779818 0.23633227 0.18460099 -0.82493103 -0.51408857 -0.23495047 0.0020834086
-0.42135495 0.24631417 0.18436199 0.72534657 -0.64272952 -0.24651805 0.096525416
-0.40346068 0.24969697 0.18607287 -0.34651762 -0.93782252 -0.020356787 0.24005851
-0.39286733 0.24314088 0.1898925 -0.5178321 -0.8554461 -0.0078632943 0.086249731
0.41951936 0.24762201 0.18499954 -0.80195397 -0.54551214 -0.24348763 0.0008954354
0.42319533 0.24214816 0.1856914 -0.80448502 -0.54443061 -0.23748513 0.0010659902
-0.41489607 0.25677422 0.18214688 0.79070747 -0.57523859 -0.20948093 0.13873513
0.41377142 0.25376308 0.18847489 -0.78445154 -0.56223422 -0.26177928 0.00040643933
0.40552008 0.26758522 0.18402922 -0.78943086 -0.55810326 -0.25557706 0.00065125653
-0.40255651 0.27514049 0.18283422 0.86074674 -0.45839089 -0.22134325 0.047127094
0.397677 0.27545446 0.18973283 -0.7811408 -0.56226915 -0.27142677 0.00047707206
0.40213463 0.27119887 0.18608233 -0.78578043 -0.55853796 -0.26567733 0.00062623667
-0.39599681 0.282767 0.18365332 0.75074875 -0.62089318 -0.22553922 0.001757957
0.38951388 0.28797916 0.18750119 -0.77974635 -0.56628656 -0.26704863 0.00078663288
0.39768037 0.28035867 0.18048197 -0.78964472 -0.56900644 -0.22954939 0.0016232013
-0.38072929 0.29873675 0.18919457 0.74448484 -0.60730922 -0.27734065 0.00044742334
0.38433284 0.29605445 0.18584725 -0.78287864 -0.56519061 -0.26011631 0.00087847619
-0.37444431 0.30865547 0.18464889 0.75020963 -0.62211567 -0.22395915 0.0020319254
0.3775011 0.30552563 0.18588436 -0.78217161 -0.57703626 -0.23502494 0.0014371595
0.38112339 0.30204844 0.182954 -0.79116309 -0.57520109 -0.2078575 0.0021786317
-0.37168616 0.31149703 0.18573861 0.74017096 -0.6283192 -0.23950355 0.0016435607
-0.36690217 0.31677455 0.18691675 0.74169272 -0.62137812 -0.25254926 0.00097794435
0.37193638 0.31482998 0.18291903 -0.78801173 -0.57706875 -0.21454389 0.0020198983
0.36566341 0.32360455 0.18280594 -0.76980054 -0.59350395 -0.23486219 0.0012101264
-0.35103941 0.33763421 0.18396422 0.75434905 -0.61734629 -0.22325134 0.001942368
-0.34742862 0.33990535 0.18834788 0.74077076 -0.61814827 -0.26296648 0.0010269792
0.3559584 0.3349669 0.18577164 -0.70917815 -0.65771663 -0.25391972 0.0020795567
-0.3449561 0.34426653 0.18562257 0.73103738 -0.63818401 -0.24146542 0.0019540773
-0.33151382 0.36085039 0.18050151 0.65234524 -0.72993833 -0.20404826 0.0027732709
-0.3250401 0.36353609 0.18567008 0.60373998 -0.75782734 -0.24737754 0.002468229
0.31502709 0.36723664 0.18964784 -0.60853058 -0.74662256 -0.26878473 0.00041264392
-0.3164812 0.37085322 0.18264295 0.55626643 -0.79687309 -0.2357135 0.00099736033
0.30480382 0.37697244 0.18619534 -0.61733961 -0.74385476 -0.25606999 0.001290351
0.3124564 0.37183967 0.183397 -0.62415671 -0.74357516 -0.23984252 0.0013929035
-0.30366004 0.38040042 0.18180968 0.56521648 -0.79764771 -0.21044821 0.0018068048
-0.29976463 0.38232672 0.18410742 0.57145399 -0.79072362 -0.21953709 0.0019018162
0.28965622 0.38874376 0.18770924 -0.61073291 -0.74853927 -0.25825259 0.001068054
0.29615399 0.38439187 0.18531737 -0.61278099 -0.75316626 -0.23924896 0.0014727146
-0.28554624 0.39301929 0.18290877 0.57010335 -0.79151195 -0.22020683 0.0015433917
0.27779403 0.39777914 0.18935135 -0.60482943 -0.74707562 -0.27578875 0.00025351049
0.28315872 0.39543316 0.18426169 -0.61295015 -0.74930084 -0.25067973 0.0012057723
-0.27658004 0.40032041 0.1806912 0.57422441 -0.7916469 -0.20871396 0.002081115
-0.26938006 0.40380031 0.18514919 0.56716239 -0.78751957 -0.24112175 0.0013841904
0.26800904 0.40752167 0.18498752 -0.57719034 -0.77591294 -0.25457877 0.0018208144
0.27345094 0.4037267 0.18335968 -0.60542578 -0.75219649 -0.26011541 0.00073239725
-0.2559658 0.412992 0.18636431 0.5735684 -0.786834 -0.22784103 0.0016720014
0.25586268 0.41691995 0.18421425 -0.50817698 -0.82533014 -0.246143 0.0028842557
0.26261264 0.41157904 0.18586701 -0.53429496 -0.80265588 -0.26508945 0.0024989957
-0.24260744 0.4245652 0.18123934 0.53684622 -0.81537557 -0.21669997 0.0022555389
-0.23671064 0.42595345 0.18871751 0.49908927 -0.82722497 -0.25808677 0.0025844465
0.22788684 0.42834264 0.18822767 -0.40053371 -0.88552278 -0.23541929 0.0015842036
0.24401635 0.42280242 0.18314986 -0.42883688 -0.87852514 -0.21045785 0.0024186138
-0.23015174 0.43026039 0.18905456 0.4288075 -0.86062789 -0.27467039 0.0023386485
-0.22287768 0.43387631 0.18645898 0.40056133 -0.8794753 -0.25704834 0.0017983076
-0.21504618 0.43682691 0.1865073 0.35808691 -0.89981788 -0.24920174 0.0013348686
0.20478587 0.43826938 0.18964191 -0.39795157 -0.87837082 -0.26476261 0.00099391292
0.21786359 0.43498796 0.18196452 -0.40534961 -0.89114666 -0.20383659 0.0016297101
-0.18478499 0.44872135 0.18520656 0.35799548 -0.90803587 -0.21750905 0.0019294148
-0.1781038 0.44998628 0.18902545 0.34382975 -0.90047431 -0.26632127 0.00035590224
0.19300477 0.4448882 0.18578589 -0.3943657 -0.88452095 -0.24919531 0.001280982
0.20342329 0.44158706 0.18168977 -0.39012098 -0.88961506 -0.23746715 0.0015089149
-0.15319279 0.45938656 0.18913472 0.34492868 -0.90216637 -0.25907546 0.00090545666
0.17437637 0.45321208 0.18598792 -0.40518242 -0.87901938 -0.25130117 0.00092585612
-0.15233234 0.46193576 0.18242805 0.34507319 -0.91367388 -0.21476613 0.0020643391
-0.14579163 0.46461144 0.18183081 0.35030627 -0.91222936 -0.21242191 0.0023902198
-0.13717797 0.46694458 0.1846357 0.34738061 -0.91133636 -0.22089107 0.0023986287
0.13649805 0.46921861 0.18527448 -0.23037572 -0.93616533 -0.26555857 0.0031937636
0.14267682 0.46759143 0.18553689 -0.25756159 -0.93024433 -0.26135707 0.0039460831
0.15662384 0.46191537 0.1839135 -0.39530158 -0.89327669 -0.21399406 0.0023935365
-0.11247519 0.4746725 0.18955173 0.22057673 -0.94002974 -0.26017293 0.0021203342
-0.10182233 0.476421 0.18797916 0.14887941 -0.95605904 -0.25255886 0.0016268647
-0.09164875 0.47701266 0.18936633 0.10571025 -0.9605341 -0.25729287 0.0010521535
-0.088091262 0.47971493 0.18184242 0.11035511 -0.96921372 -0.22010562 0.0016764381
-0.071482442 0.47983694 0.18681587 0.094344474 -0.96800828 -0.23250586 0.0016314604
0.072984025 0.4788602 0.18752088 -0.14957851 -0.95127726 -0.26962537 0.00074022554
0.082340039 0.47659677 0.18987446 -0.14763905 -0.94928271 -0.27760616 0.00046493069
0.098297819 0.4747892 0.18735239 -0.16219017 -0.95109481 -0.26289344 0.00089083181
0.10998451 0.47515821 0.18011589 -0.16347076 -0.95815396 -0.23498595 0.0015673762
0.13647915 0.47063413 0.18077746 -0.22035399 -0.94837165 -0.22811267 0.0040926277
-0.077750251 0.48076183 0.18182287 0.10121813 -0.97314298 -0.20675488 0.0023975074
-0.052686922 0.48282731 0.18328963 0.10548103 -0.9749431 -0.19585615 0.0022984166
-0.04127755 0.48435417 0.18207455 0.097741947 -0.96918392 -0.22611734 0.0021618505
-0.03950683 0.48258534 0.18832363 0.093560368 -0.96034193 -0.26265898 0.0010590251
-0.022881323 0.48564407 0.18387677 0.096373126 -0.96406728 -0.24756122 0.0012270295
-0.012474369 0.48612809 0.18568508 0.10143537 -0.96263802 -0.25107539 0.0012908443
-0.0019435034 0.48810652 0.18273701 0.075126693 -0.97150904 -0.22478017 0.0028546222
0.00035387557 0.48912346 0.18021518 0.055304311 -0.97954237 -0.1934894 0.0025627455
0.012617527 0.4897064 0.1823056 -0.013477455 -0.97570056 -0.21869312 0.0024971066
0.023966748 0.48727983 0.18613857 -0.079453327 -0.96454352 -0.2516804 0.0020722791
0.035521954 0.48618564 0.18362892 -0.13977225 -0.96057874 -0.24031681 0.0016179334
0.044324484 0.48488718 0.18319719 -0.1540914 -0.95432037 -0.25598529 0.00089006044
0.064710438 0.48184919 0.18229589 -0.16453393 -0.95973796 -0.22766559 0.0022546605
-0.041936956 -0.48042834 0.19863153 0.15339822 0.943878 -0.29251221 0.00012022041
-0.038539957 -0.48251307 0.19375616 0.1455749 0.94514561 -0.29241681 0.00011468587
-0.024831384 -0.48455864 0.1943537 0.091039971 0.95049983 -0.29708895 0.0015386525
-0.0072038649 -0.4867202 0.1901411 -0.045740269 0.96440572 -0.26044115 0.00147067
0.0039501935 -0.48350412 0.19686034 -0.064256415 0.95322609 -0.29534906 0.00076015148
0.016431147 -0.48341748 0.19310682 -0.09752322 0.9551273 -0.27968028 0.00024519308
0.04436199 -0.48079818 0.19249137 -0.1013428 0.95867032 -0.26585886 0.00059236534
-0.11405651 -0.47123685 0.19048859 0.16007842 0.95038688 -0.26672032 0.0007673818
-0.10733262 -0.47085613 0.19518827 0.15433532 0.9463113 -0.28403464 0.00030021375
-0.094991669 -0.47160798 0.19919538 0.15211502 0.94385213 -0.29326478 0
-0.078177422 -0.4742507 0.19950278 0.15452729 0.94319874 -0.29410446 9.9403202e-05
-0.065388627 -0.47797656 0.19427364 0.15358409 0.94275355 -0.29601949 4.2441308e-05
-0.049831733 -0.47887248 0.19949019 0.15311719 0.94359118 -0.29358259 0
0.05458653 -0.47867823 0.19599263 -0.096510544 0.9520399 -0.29035431 0.00010756442
0.065143429 -0.47718978 0.19735986 -0.094718046 0.95241666 -0.28970855 0.0001541536
0.096565381 -0.4747172 0.19514565 -0.13218415 0.94366324 -0.30335942 0.0007451867
0.10470529 -0.47393942 0.1950126 -0.16441318 0.94068843 -0.29677203 0.0016993601
0.11413279 -0.47314024 0.19227982 -0.24275243 0.93000138 -0.27598652 0.0021685576
-0.15117313 -0.46114403 0.19340444 0.3608658 0.88906634 -0.28166813 0.00086908438
-0.14394346 -0.46339056 0.19637679 0.31584081 0.90733719 -0.27745962 0.0014617404
-0.13826856 -0.46722955 0.19068873 0.26611537 0.92613399 -0.2673173 0.0021696188
-0.10945661 -0.46998966 0.19684525 0.15282303 0.9431597 -0.29511872 5.3947304e-07
0.12724952 -0.46607044 0.19861776 -0.30491525 0.90449572 -0.29818487 0.00082054851
0.13579546 -0.46446815 0.19368571 -0.33682033 0.9011032 -0.27306592 0.00053027761
0.14385274 -0.46181422 0.1924843 -0.33850166 0.89695925 -0.28439558 0.00010848025
-0.17175132 -0.45083791 0.19644876 0.39274582 0.87416834 -0.28562289 0.0002358319
-0.16374426 -0.45461822 0.19594018 0.39015731 0.87593585 -0.28374919 0.00017231145
-0.15298742 -0.45891082 0.19756854 0.35356194 0.89078021 -0.2854903 0.00093890569
0.15068838 -0.45927709 0.19232672 -0.34132704 0.8992328 -0.27363488 0.00055545371
-0.19752115 -0.44112483 0.19086975 0.38850859 0.87870437 -0.27738002 0.00060772581
-0.18220781 -0.44678682 0.194508 0.39034295 0.87474155 -0.28715786 0.00016037723
-0.17707591 -0.44870952 0.19565319 0.39240885 0.87443781 -0.2852608 0.00020858401
0.17355341 -0.44921023 0.19656625 -0.34125686 0.89423329 -0.28963879 0.00013367513
-0.21370323 -0.43344873 0.19200397 0.39997473 0.87473196 -0.27361342 0.00067201868
-0.19924533 -0.43938136 0.19371274 0.39261413 0.87235302 -0.29129788 0
0.20414615 -0.43804741 0.19528118 -0.3351672 0.89874184 -0.28271213 0.00023272343
0.21329771 -0.43483308 0.19451991 -0.36211625 0.8881169 -0.2830551 0.00072991924
-0.23316547 -0.42357612 0.19525187 0.39548716 0.87395728 -0.28246871 0.00032636322
-0.22700816 -0.42520493 0.19861999 0.39421362 0.87157547 -0.29146487 8.3076891e-05
0.22556619 -0.42908788 0.19783142 -0.42428896 0.8582353 -0.28880981 0.0016620182
0.23782346 -0.4221442 0.19659315 -0.49663144 0.81826508 -0.28948134 0.0014665318
0.24210103 -0.42027265 0.19343188 -0.54527581 0.79223102 -0.27394223 0.00057046476
-0.25445497 -0.41418678 0.19465733 0.48922831 0.8189519 -0.29995573 0.0021210397
-0.24699855 -0.41713458 0.19586754 0.46104836 0.836487 -0.29618236 0.0015495896
-0.2395848 -0.41973355 0.19804725 0.41562584 0.86295748 -0.28733188 0.00062862242
0.24614049 -0.41853815 0.19036038 -0.54748708 0.7940321 -0.26414177 0.00076829875
0.2569831 -0.41032273 0.19143552 -0.56086689 0.78548431 -0.26161572 0.00091946014
-0.26732373 -0.40384531 0.19556952 0.58844101 0.75412405 -0.29160592 0.00056402903
-0.28074187 -0.39162675 0.19870269 0.60460848 0.74196452 -0.28971934 0
-0.27696744 -0.39665279 0.19385207 0.60406655 0.74628168 -0.27958411 0.0003316215
0.27434537 -0.39643583 0.19507249 -0.55938607 0.77919334 -0.28274503 0.00032985859
0.28126156 -0.39033407 0.19801337 -0.55856866 0.77746761 -0.28904182 0.00010809545
-0.29496205 -0.38332826 0.19040698 0.6125834 0.74726605 -0.25755593 0.00089057034
-0.28579074 -0.38821805 0.19691207 0.60406381 0.74271476 -0.28893185 0.00020417539
0.28508109 -0.38705552 0.19939874 -0.55796409 0.77591443 -0.29433486 5.5645327e-05
0.29566118 -0.38216737 0.19225773 -0.56347764 0.78094834 -0.26946723 0.00054985931
-0.29778731 -0.37849218 0.19672045 0.6084795 0.73969275 -0.28741503 5.9363738e-06
0.30336583 -0.37602794 0.19381136 -0.56255102 0.77998924 -0.27414081 0.00045021367
-0.32288697 -0.36015365 0.19129783 0.60712242 0.74884242 -0.26577702 0.00073328224
-0.31560403 -0.36518803 0.1935875 0.60685211 0.7441268 -0.27929509 0.0003026179
0.31610996 -0.36696804 0.19351406 -0.55976427 0.77922207 -0.28191641 0.00051914551
0.32085863 -0.36264551 0.19588158 -0.5835616 0.75574595 -0.29715997 0.00080721651
-0.32615823 -0.35578352 0.19553711 0.60492474 0.74527055 -0.28042445 0.00015552103
0.33140403 -0.35604239 0.19329572 -0.65811962 0.69933093 -0.27895296 0.0014590416
-0.34319341 -0.34228179 0.194493 0.62422508 0.72833431 -0.28261667 0.00078952021
0.33849218 -0.34652638 0.19715603 -0.70110929 0.64998072 -0.29320759 0.001116538
-0.35411003 -0.33410963 0.19241296 0.70442665 0.65763456 -0.2670204 0.0024013987
-0.34876233 -0.33906168 0.19116977 0.66816115 0.69482946 -0.26603135 0.002426859
0.34742323 -0.33766302 0.19293807 -0.73866642 0.61610633 -0.27346832 0.00030317291
0.35098219 -0.33451676 0.19046997 -0.74632221 0.61606789 -0.25191942 0.00098954129
-0.36388603 -0.32034054 0.19361025 0.76087874 0.58704239 -0.27648646 0.00091850257
-0.35896087 -0.32546905 0.19683965 0.74144608 0.60613585 -0.28784898 0.001261555
0.35580796 -0.32642487 0.19493172 -0.7404384 0.60650873 -0.28965184 0.00010576902
-0.36519763 -0.31825459 0.19410738 0.76301086 0.57689178 -0.29156533 0.00042541456
0.36453804 -0.31723931 0.19187325 -0.74928099 0.60972059 -0.2584933 0.0011024735
-0.37377244 -0.30582777 0.19507679 0.77523077 0.55797917 -0.29610217 1.2808558e-05
0.37288436 -0.3055566 0.19487041 -0.73958683 0.60490805 -0.29512289 2.5024099e-05
-0.38179839 -0.29450712 0.19539861 0.77520955 0.55798084 -0.29615462 5.8828038e-05
-0.37960795 -0.29567125 0.19893938 0.77519101 0.55799234 -0.2961815 6.7548579e-05
0.38301224 -0.29318607 0.19482119 -0.7428776 0.60429424 -0.28803009 0.00011490907
-0.38823792 -0.28474149 0.19694315 0.77520561 0.55801749 -0.2960957 8.0178586e-05
0.38630706 -0.28778273 0.19761975 -0.73956376 0.60444862 -0.29612046 0
-0.39594671 -0.27469462 0.19569466 0.77518111 0.55804533 -0.29610735 8.3986619e-05
0.3984533 -0.27542561 0.1925014 -0.84272325 0.47361547 -0.25594124 0.046529241
0.40153614 -0.27223381 0.19131562 -0.86616659 0.42490962 -0.26307279 0.071569607
-0.40289688 -0.26424423 0.19719289 0.77525663 0.55792671 -0.2961331 0
0.40676254 -0.262676 0.19776866 -0.95606858 0.20520744 -0.20933878 0.14432286
-0.41189313 -0.25449061 0.19202124 0.78144795 0.56397468 -0.26696777 0.00088817609
-0.40976179 -0.25844243 0.1901539 0.78317004 0.5608151 -0.2685726 0.00074444019
0.40581277 -0.25115263 0.19168842 -0.93659979 0.093988061 -0.33756045 0.23059446
0.41333085 -0.256179 0.19303495 -0.87329912 0.38118985 -0.30338547 0.14921112
-0.41988063 -0.24140903 0.19576219 0.79645014 0.53261817 -0.28633046 0.00091460155
0.39627546 -0.24525012 0.19052884 -0.61858058 -0.78464794 -0.041056793 0.11651129
0.40269095 -0.24922058 0.19423744 -0.8620702 -0.46423611 -0.20327276 0.23718248
0.41859928 -0.24724647 0.19123131 -0.7402491 0.63860089 -0.21028598 0.10420062
-0.42404628 -0.23646975 0.19416451 0.82267898 0.49212158 -0.2846325 0.0018643331
0.37548527 -0.23238333 0.19941387 -0.52627265 -0.85031593 2.3362692e-05 1.1042776e-05
0.38560674 -0.23864736 0.19429462 -0.52632183 -0.85028547 -3.0196217e-05 0
-0.4276216 -0.22836652 0.19905463 0.8416267 0.45273396 -0.2944425 0.0020233176
0.35771263 -0.22138405 0.19919619 -0.52632356 -0.8502844 -1.7202889e-05 1.1117532e-05
0.36366707 -0.22506917 0.19507182 -0.52637869 -0.85025024 2.6358757e-05 0
-0.43361539 -0.21994507 0.1905973 0.88555586 0.38660097 -0.2575472 0.0014296597
0.34641266 -0.21439064 0.19328332 -0.52631432 -0.85029006 -4.487903e-06 8.3227023e-06
0.35416558 -0.21918884 0.19145367 -0.52627385 -0.85031515 2.1422515e-05 2.8346955e-07
-0.43521315 -0.20966637 0.19752295 0.89040828 0.34993079 -0.29106969 0.00038890957
0.32399929 -0.20051925 0.19299197 0.52625275 0.85032821 -2.8103275e-05 1.7949329e-05
0.33726451 -0.20872894 0.19049594 -0.52629822 -0.85030007 -3.4244611e-05 1.3346535e-05
0.43733388 -0.20476729 0.19241771 -0.87464494 0.39715511 -0.27796412 0.00037485044
-0.44204804 -0.19713613 0.19122337 0.89492601 0.33941239 -0.28966647 0
-0.43896309 -0.19910622 0.19827813 0.8946119 0.33949745 -0.29053572 0
0.3178696 -0.19672567 0.19640623 -0.52632022 -0.85028642 -2.138633e-05 2.0048001e-06
0.43912494 -0.19797912 0.19614473 -0.87162071 0.39217299 -0.29407081 4.0877017e-05
0.4431088 -0.19206093 0.19226964 -0.87370676 0.39574099 -0.28288794 0.00035617815
-0.44512239 -0.1845962 0.19627883 0.89470857 0.33921966 -0.29056257 8.120299e-05
0.29912323 -0.18512379 0.19602232 -0.52630323 -0.85029691 -3.4257278e-05 0
0.30582255 -0.1892699 0.19619831 -0.52627277 -0.85031575 3.9349638e-06 0
-0.44849852 -0.17277141 0.1996067 0.89366275 0.33832806 -0.2947897 6.9232708e-05
0.2840676 -0.17580602 0.19784507 0.52622938 0.85034263 -1.8607601e-06 8.0945147e-06
0.44705242 -0.17881697 0.19821993 -0.87115753 0.39293563 -0.29442525 3.9273918e-06
-0.45595422 -0.16003926 0.19166507 0.90118361 0.33980706 -0.26907122 0.0004701108
0.2613312 -0.16173473 0.19625321 0.52625734 0.85032535 -8.2627939e-06 2.3480011e-06
0.45553342 -0.16578922 0.19053896 -0.87624586 0.39837885 -0.27108559 0.00091673166
-0.45963588 -0.15122283 0.19063379 0.89853644 0.34200081 -0.27507776 0.0005011324
0.24923359 -0.15424767 0.19376916 0.52624309 0.85033417 -2.3680284e-05 0
0.25304738 -0.15660796 0.19515048 0.52621883 0.85034919 -5.6386682e-05 1.6207428e-05
0.46056181 -0.15188161 0.19417812 -0.88455516 0.37034729 -0.28355789 0.00041453502
-0.46069014 -0.14487244 0.19471012 0.89389795 0.33845079 -0.29393455 0
0.22902796 -0.14174265 0.19475403 -0.52626985 -0.8503176 -2.0027179e-05 8.5838064e-07
0.23088551 -0.14289227 0.19307375 -0.52628028 -0.85031122 -3.0966898e-05 0
0.24190694 -0.14971328 0.19541833 0.52623254 0.85034078 -2.0469499e-05 2.2578279e-05
0.46278486 -0.14917888 0.19122122 -0.90687293 0.32820523 -0.26431572 0.001532907
-0.46348342 -0.13462257 0.19799651 0.89565569 0.33609819 -0.29127148 3.2614927e-05
0.21157908 -0.13094375 0.19703668 0.52623874 0.85033685 -3.730071e-05 0
0.22007483 -0.13620165 0.19998668 -0.52628779 -0.85030645 6.1693131e-06 0
-0.46785098 -0.12330626 0.19775255 0.90124422 0.31246778 -0.30020455 0.00065530406
0.19488463 -0.12061174 0.19533157 -0.52626759 -0.85031903 -2.6556118e-05 6.2396333e-07
0.20772001 -0.12855542 0.19164343 0.52625608 0.85032612 -1.1585392e-06 0
-0.47027808 -0.11791962 0.19658647 0.91695541 0.26197064 -0.30093864 0.0018530746
-0.46902707 -0.11975959 0.1982577 0.91146821 0.27141008 -0.30913144 0.0020091678
0.18581118 -0.11499628 0.19526678 0.52624875 0.85033065 2.0656455e-06 1.0573905e-06
0.46947852 -0.11595009 0.19510458 -0.94708389 0.1521389 -0.28264078 0.00022928083
0.47044849 -0.11709303 0.19142374 -0.95034015 0.15649448 -0.2690039 0.00063280849
-0.47356302 -0.10971165 0.19460359 0.93266279 0.20991944 -0.29338354 0.0024615298
0.16447419 -0.10179108 0.19218484 -0.52627462 -0.85031456 -2.0405345e-05 0
0.46965474 -0.10996822 0.19764635 -0.94323623 0.15273379 -0.29491979 6.0936545e-05
-0.47519788 -0.093457446 0.19460678 0.94884539 0.11575519 -0.29375687 0.00039275724
0.15552555 -0.096252881 0.19663428 0.52624571 0.8503325 -1.5456391e-05 2.8995244e-06
0.472491 -0.094978765 0.19639093 -0.94306147 0.15367347 -0.29499057 0
-0.47622609 -0.085864887 0.1937592 0.95671254 0.098880686 -0.27372196 0.00021345555
0.12932804 -0.080039561 0.19381823 0.52625674 0.85032576 -5.61967e-06 0
0.13742138 -0.085048437 0.19326496 0.52624995 0.85032994 -1.0999633e-05 5.5005185e-06
0.14210787 -0.087948836 0.19588549 -0.52625662 -0.85032582 -5.7292095e-06 5.0178033e-07
0.4727897 -0.087512083 0.1993126 -0.94294363 0.1539816 -0.29520664 0.00010254484
-0.47767097 -0.073342122 0.19316697 0.95662785 0.10231738 -0.27275303 0.00027386891
0.11432693 -0.070755549 0.1959337 -0.52625567 -0.8503263 -5.8666355e-06 0
0.12583514 -0.077877842 0.19364117 0.52625448 0.85032713 -7.8892454e-06 2.2923832e-06
0.47688013 -0.074416086 0.19308218 -0.94809592 0.16382904 -0.27253303 0.00076183229
0.10414399 -0.064453453 0.19784608 -0.52626431 -0.85032105 -6.7696119e-06 0
0.47748655 -0.066651329 0.19517872 -0.94298154 0.15361811 -0.29527494 0
-0.47922584 -0.058573734 0.19294709 0.95811749 0.098357163 -0.26895493 0.00048450424
0.082442522 -0.051022667 0.19754614 -0.52625841 -0.85032469 -6.1275709e-06 3.8391468e-07
0.094629869 -0.058565274 0.19189009 0.52625793 0.85032505 -1.7392593e-06 0
0.47910684 -0.055304982 0.19590531 -0.94297498 0.15393342 -0.29513174 0
0.066707782 -0.041284632 0.19264314 0.52625763 0.85032517 -1.9845586e-06 3.8567691e-07
0.074150175 -0.045890637 0.19607385 0.52625525 0.85032672 -6.1706737e-06 1.0757309e-07
0.47976491 -0.044711556 0.19930477 -0.94278324 0.15353449 -0.29595089 0
0.48200986 -0.044192459 0.1924265 -0.94883108 0.15204212 -0.2767722 0.00048505241
-0.48101777 -0.037118051 0.19412637 0.95391637 0.097026959 -0.28395304 0.00025223815
0.058554225 -0.036238492 0.19196749 0.52625412 0.85032737 -3.6523211e-06 1.2270542e-06
0.063810088 -0.039491281 0.19906935 -0.52625668 -0.85032582 -4.2908091e-08 0
0.48334482 -0.033969171 0.19347891 -0.94726688 0.14010751 -0.2881934 0.00030053317
-0.48182717 -0.024181163 0.19570744 0.95091486 0.094733693 -0.29459545 0.00018110524
0.48391393 -0.022746846 0.19748767 -0.94935673 0.08207339 -0.30329156 0.0015718517
-0.48400187 -0.010153823 0.19325876 0.95169216 0.091306478 -0.29316407 0
0.025147634 -0.015563549 0.1963499 -0.47250453 -0.88083637 -0.029441677 0.024398556
0.031414211 -0.019441858 0.19332355 -0.52625662 -0.85032576 -2.4395547e-07 0
0.48603216 -0.01416434 0.19374664 -0.95472378 0.011449149 -0.29727319 0.0019622899
-0.004786856 -0.0043759709 0.19807605 -0.51464015 -0.84778857 -0.12806307 0.081698231
0.0034899663 -0.0037672445 0.19602071 -0.5356217 -0.84133333 -0.072577752 0.066111468
0.012033593 -0.0074474271 0.19326927 -0.54129326 -0.84041452 -0.026551856 0.040915776
0.48590863 -0.0016499965 0.19095208 -0.95791054 -0.063590005 -0.27993536 0.00088891922
-0.48524809 0.0059553613 0.19446275 0.95704263 0.030419437 -0.28834713 0.0017681257
-0.0041387333 0.0054109618 0.19393319 -0.53958732 -0.83756572 -0.085611477 0.060892265
0.001009799 0.0070622689 0.19770186 -0.57514298 -0.81797516 0.011274432 0.095160641
-0.48454666 0.017655555 0.19811386 0.95383912 -0.050430272 -0.2960535 0.0019914832
-0.024701236 0.015287317 0.19505812 -0.53532064 -0.844625 -0.0063535376 0.019499049
0.48298597 0.013746222 0.19535889 -0.95074624 -0.093920618 -0.29539898 4.6804667e-05
-0.48605505 0.023342781 0.1903618 0.95236617 -0.10406977 -0.28664997 0.0011546253
-0.043213934 0.026744602 0.19357131 0.52625626 0.85032606 -4.014732e-06 0
-0.036651894 0.022683436 0.19140385 0.52625751 0.85032523 -9.0987561e-07 0
0.48177701 0.023794856 0.19599324 -0.95056045 -0.09600959 -0.29532519 5.3741231e-05
-0.48274264 0.034778893 0.19497605 0.95009214 -0.1339259 -0.28176013 0.00046674107
-0.062554076 0.038713988 0.19351745 0.52625698 0.85032558 -1.1979605e-06 0
-0.055246454 0.034191385 0.1947282 -0.52625453 -0.85032713 -1.0469617e-05 0
0.48240077 0.035793729 0.19011538 -0.96121854 -0.089439087 -0.26088232 0.0010432414
-0.48266292 0.040376492 0.19232643 0.94864798 -0.14959833 -0.27872431 0.00028135965
-0.071073763 0.043986719 0.19367066 0.52625448 0.85032713 -3.6889205e-06 7.8863872e-07
0.47967514 0.040428501 0.19736627 -0.95053726 -0.095516101 -0.29555961 0.00016255424
0.4801794 0.042038552 0.19522777 -0.95063275 -0.095433839 -0.29527912 0
-0.48066407 0.052442506 0.19243203 0.94910336 -0.15289003 -0.27536765 0.00063165714
-0.47939113 0.056661054 0.19429678 0.94557142 -0.15094146 -0.28829041 0
-0.092996255 0.057554282 0.19116649 0.52625769 0.85032511 -1.0582284e-05 9.4216568e-07
-0.087500498 0.054153025 0.19221681 0.52625871 0.85032457 -1.723686e-07 1.0587376e-06
0.47876847 0.053911135 0.19592106 -0.95060289 -0.094909519 -0.29554412 4.4727152e-05
-0.47780132 0.069920212 0.19248132 0.94609916 -0.15393852 -0.28495482 0.00025084754
-0.10090327 0.062447846 0.19798422 0.52626061 0.85032338 -1.1466224e-05 0
0.47933072 0.062660754 0.19129026 -0.95175463 -0.098563239 -0.29060018 0.00020802493
-0.12227092 0.075672016 0.19533417 0.52626276 0.85032201 -4.7875374e-06 0
-0.11729254 0.072590955 0.19988725 0.52626026 0.85032356 -1.295469e-05 4.6429548e-07
0.47657022 0.076420702 0.19570535 -0.95177048 -0.095217057 -0.2916618 0
-0.47405142 0.081612885 0.19835551 0.94291973 -0.15413369 -0.2952036 6.2177191e-05
0.47590676 0.087018311 0.19441158 -0.95164573 -0.099567808 -0.29061452 7.6564444e-05
-0.47222251 0.095138878 0.19716254 0.94295007 -0.15381908 -0.29527074 6.1564415e-06
-0.15483862 0.095827781 0.19526798 0.52626145 0.85032278 -7.9879719e-06 0
-0.14906512 0.092254631 0.19716521 -0.5262565 -0.85032588 -8.5592937e-06 5.3523354e-06
0.47459206 0.096422046 0.1955936 -0.94521272 -0.13006219 -0.29942724 0.00093758304
-0.47181121 0.10267736 0.19456205 0.94543594 -0.15780264 -0.28504252 0.00026869401
-0.17364059 0.1074641 0.19417107 -0.52624512 -0.85033286 7.4819873e-06 0
0.47449753 0.10331635 0.19366989 -0.94304937 -0.16776846 -0.28724837 0.0016946133
-0.18456617 0.1142258 0.19569397 -0.52624589 -0.85033244 -7.3372335e-06 2.105417e-06
0.46984908 0.11745933 0.19840655 -0.91806197 -0.26643914 -0.2935513 0.0014708261
0.47281373 0.1162967 0.19079192 -0.92776239 -0.25009438 -0.27696502 0.0020837847
-0.46660751 0.1247327 0.19969003 0.9343189 -0.19405158 -0.29898527 0.00091782358
-0.2038615 0.12616745 0.19606338 0.52627403 0.85031509 2.0816071e-05 0
-0.19819379 0.12265977 0.19775333 -0.52625275 -0.85032821 -1.0207477e-05 0
0.46788049 0.12477394 0.19598646 -0.91259068 -0.284758 -0.29341307 0.0012367328
-0.46623647 0.13380039 0.19616802 0.93025327 -0.22708493 -0.28820351 0.0011846579
-0.21577449 0.13354024 0.19303071 -0.52624494 -0.85033309 -1.7219629e-05 7.5251302e-07
-0.46341324 0.14400731 0.19622542 0.90173095 -0.31990036 -0.29076633 0.0013219442
-0.23320498 0.14432776 0.19639681 0.52626622 0.8503198 -1.6771077e-05 5.0414803e-07
0.46129534 0.14205754 0.19610101 -0.89342034 -0.33958676 -0.29407638 2.2986291e-05
-0.46229291 0.15014327 0.19139004 0.89395827 -0.34492218 -0.28612465 0.0012780247
-0.2526198 0.15634337 0.19695492 0.52629572 0.85030156 -1.9415414e-05 0
0.45799592 0.15415899 0.19222561 -0.89666402 -0.33945617 -0.28418845 0.00020389729
-0.45447743 0.16141094 0.19944595 0.87359089 -0.38631427 -0.29597336 6.1019226e-05
-0.26812252 0.16593783 0.1941644 0.5262624 0.85032219 -2.974296e-05 6.9629323e-06
0.45286044 0.16670503 0.19338062 -0.89885771 -0.33900183 -0.27772769 0.00048722193
-0.44912934 0.17553651 0.19645822 0.87182724 -0.39272261 -0.29272214 1.1956397e-05
-0.28544194 0.17665657 0.19748092 0.52630007 0.85029894 -1.7397788e-06 0
-0.27642268 0.17107469 0.1924831 -0.52624881 -0.85033065 -4.8590027e-06 0
0.45100257 0.17316273 0.19160587 -0.90375066 -0.33393136 -0.26781455 0.0007400951
-0.4476358 0.18201295 0.19226936 0.87275147 -0.39566883 -0.28592142 0.00013815085
0.44570455 0.18567497 0.19328992 -0.89832866 -0.34491116 -0.27210656 0.00089995022
-0.43959996 0.19900224 0.1933919 0.87476277 -0.39164117 -0.28531966 0.00017757616
-0.3231236 0.19997731 0.19104186 -0.52620703 -0.85035652 -2.196278e-05 3.7198377e-05
-0.31491756 0.19489872 0.19615738 -0.52622426 -0.85034591 3.3301267e-06 4.6558957e-06
-0.30755529 0.19034231 0.19356063 0.52627653 0.85031343 1.8871771e-05 0
-0.43770581 0.20174123 0.19533359 0.87533391 -0.38991022 -0.28593791 0.00024221701
-0.33602601 0.20796247 0.19670922 -0.52625138 -0.85032898 -7.3865044e-06 4.1921585e-06
-0.32590419 0.2016982 0.19492476 -0.52619302 -0.85036522 -3.8420832e-05 1.6329186e-05
0.43775526 0.20509487 0.19507839 -0.89537233 -0.34087667 -0.286551 0.00025915817
-0.43331993 0.21040882 0.19674787 0.87148583 -0.39210713 -0.29455805 0
-0.42936361 0.21984993 0.19587401 0.8715542 -0.39185157 -0.29469594 0
-0.35307068 0.21851122 0.19436646 0.5262711 0.85031682 -1.7428863e-05 3.286092e-05
-0.3412447 0.21119225 0.19377625 0.52626824 0.85031855 -2.1742417e-05 5.3552862e-06
0.43519783 0.21433656 0.19223246 -0.89256692 -0.35860085 -0.27336738 0.00058837736
-0.42675084 0.22511648 0.19657996 0.8708294 -0.3935076 -0.29463178 5.3864722e-05
-0.37088668 0.22953734 0.19245213 0.52633381 0.85027802 -7.0102338e-05 0
-0.36771458 0.22757414 0.19682203 0.52626711 0.85031927 8.2616607e-06 0
-0.35920072 0.222305 0.19580194 -0.52624375 -0.85033381 2.0200319e-05 0
0.43109161 0.2236734 0.19395012 -0.86506838 -0.4127962 -0.28505409 0.0017843808
-0.42475164 0.23258604 0.19256228 0.80542451 -0.51768667 -0.28860319 0.028564868
-0.37517747 0.23219283 0.19463764 0.52632797 0.8502816 -4.1459742e-05 0
0.4242371 0.2361827 0.1942059 -0.80774367 -0.51383466 -0.28900561 0.0012038241
-0.41914821 0.24530753 0.19218591 0.74759728 -0.60601568 -0.27174124 0.085571729
-0.40198135 0.24878144 0.19856098 0.81637961 -0.56371075 -0.12551662 0.1966618
-0.39894575 0.24690273 0.19054736 -0.49158698 -0.8700127 0.03768599 0.22722144
-0.38789496 0.24006352 0.1996865 0.56098431 0.82590586 -0.056356084 0.031131722
0.4164885 0.24506025 0.19776215 -0.79025012 -0.54082072 -0.28812796 0.0004235266
-0.41218549 0.25851616 0.19271336 0.83147293 -0.49434218 -0.2535322 0.10056719
-0.40503919 0.25067389 0.19845739 0.85295272 -0.48224106 -0.199788 0.18073234
0.40800428 0.25827029 0.19507958 -0.78105301 -0.56005794 -0.2762087 0.00029012118
0.41310143 0.25189346 0.19375214 -0.78486645 -0.55865467 -0.26812246 0.00030468238
-0.40521869 0.26559073 0.19567609 0.88398522 -0.40748435 -0.22918707 0.088005356
0.40531349 0.26422012 0.1909115 -0.78171486 -0.56100845 -0.27238098 0.00032545044
-0.40079087 0.27154702 0.19457895 0.86126727 -0.43620938 -0.26065317 0.065625243
-0.3956202 0.27668205 0.19701399 0.78931296 -0.53425062 -0.30259091 0.015151517
0.39655325 0.27414545 0.1951417 -0.77780032 -0.55840713 -0.28845817 0.00017060699
-0.39051035 0.28173962 0.19945484 0.74043983 -0.604873 -0.29304847 7.1646231e-05
