# .PCD v0.7 - Point Cloud Data file format
VERSION 0.7
FIELDS x y z normal_x normal_y normal_z curvature
SIZE 4 4 4 4 4 4 4
TYPE F F F F F F F
COUNT 1 1 1 1 1 1 1
WIDTH 573
HEIGHT 1
VIEWPOINT 0 0 0 1 0 0 0
POINTS 573
DATA ascii
-0.056673419 -0.4776125 -0.085771084 -0.19259392 0.97022718 -0.14685646 0.00478529
-0.043941528 -0.47532639 -0.08649645 -0.19275565 0.95672458 -0.2179985 0.0050668726
-0.034468841 -0.47237408 -0.085361347 -0.17932656 0.93744755 -0.29838547 0.003822485
-0.021856122 -0.47051099 -0.087522954 -0.13254891 0.93237603 -0.33631197 0.0037914051
0.025671795 -0.47149619 -0.087752961 0.13321331 0.92580152 -0.35375956 0.0036754184
0.030676024 -0.47218671 -0.087343268 0.16598664 0.93469864 -0.31430379 0.0046975613
0.043567996 -0.47486052 -0.085375458 0.19001833 0.9533537 -0.23454176 0.0045814137
0.055127282 -0.47717699 -0.08434353 0.19280162 0.96497893 -0.17788528 0.0037493852
0.064791903 -0.47845203 -0.084836707 0.16829507 0.97980601 -0.10796721 0.0027908862
0.0701859 -0.47939396 -0.08922226 0.1610565 0.98067337 -0.1110874 0.0024699257
0.17475523 -0.47896251 -0.085362189 -0.22173673 0.96295166 0.15348256 0.0017576196
0.18670386 -0.47758526 -0.081836328 -0.28980309 0.94446063 0.15494567 0.0024290874
0.20054048 -0.47129482 -0.082133219 -0.38525483 0.90286487 0.19082372 0.0017886817
-0.21463366 -0.46304387 -0.083125867 0.44815633 0.87012076 0.20505105 0
-0.2054311 -0.46726903 -0.085318118 0.43584272 0.87829709 0.19655865 0.00032050262
-0.022213075 -0.46739969 -0.080504045 -0.16242734 0.90767586 -0.38696492 0.0021339892
-0.01190069 -0.46708569 -0.082519762 -0.064933792 0.91445106 -0.39945325 0.002351789
-0.0036515649 -0.46760106 -0.084952548 -0.0059164036 0.91431457 -0.40496159 0.002031578
0.0072662607 -0.46701825 -0.083208591 0.049384631 0.90874708 -0.41441521 0.002051597
0.015819209 -0.46819553 -0.084233053 0.10160628 0.9143737 -0.39191449 0.0020930024
0.026343668 -0.46950728 -0.083121702 0.17673209 0.92028713 -0.34905198 0.0034617858
0.20790738 -0.46706465 -0.083975241 -0.43875024 0.87837297 0.18962881 0.00084119383
0.21392544 -0.46396095 -0.083398804 -0.45387512 0.87055618 0.19007701 0.00043463253
-0.24090898 -0.45009327 -0.080589913 0.53468144 0.81586254 0.22019106 0.0023252186
-0.23199859 -0.45423913 -0.082482196 0.49252823 0.84389585 0.21273394 0.0018577189
-0.22733693 -0.45688733 -0.081460364 0.46883088 0.86053014 0.19921215 0.00076395366
0.23535874 -0.45258415 -0.083255708 -0.50179017 0.84531546 0.18343522 0.0015436721
-0.25153768 -0.4400025 -0.085796043 0.61741668 0.74870604 0.24132133 0.0021592297
-0.24402463 -0.44713265 -0.085742697 0.56396711 0.79051012 0.23881984 0.0027372604
0.24608861 -0.44608045 -0.083289795 -0.63046205 0.75434047 0.1829976 0.0014030195
-0.25548542 -0.43605453 -0.086348228 0.63134915 0.73271686 0.25401628 0.0015443773
0.25635117 -0.43621925 -0.083677016 -0.65648764 0.72895437 0.1940349 0.00085760141
0.26146245 -0.43051639 -0.086529493 -0.67600101 0.70846498 0.20273133 0.00027981945
-0.27114776 -0.42178106 -0.08492291 0.66557997 0.70053238 0.25740594 5.7722398e-05
-0.2668215 -0.42538494 -0.086197749 0.66664237 0.69893312 0.25899905 0
0.26642805 -0.42575282 -0.086279094 -0.6783579 0.7072345 0.19912271 0.00038949732
0.27101347 -0.42104673 -0.087242834 -0.68085045 0.7047779 0.19932567 0.00033182252
-0.28209341 -0.41133788 -0.085144699 0.68277049 0.68832695 0.24501123 0.0005846236
-0.27891761 -0.41344562 -0.087479532 0.67735428 0.68828291 0.25972646 0.00039133153
0.27645537 -0.41716036 -0.081777819 -0.69160384 0.69831836 0.18448728 0.00024915897
-0.29294133 -0.40008822 -0.087275602 0.75879407 0.59325963 0.26883912 0.001926798
-0.2881704 -0.40438884 -0.088262156 0.72519791 0.63528061 0.26553079 0.0018896849
0.2836892 -0.40828431 -0.08894635 -0.71048379 0.67631018 0.19446674 0.00082882389
0.29131016 -0.40162143 -0.086040668 -0.75012439 0.63549691 0.18291253 0.0017908631
-0.29603562 -0.39642632 -0.085214756 0.76501846 0.58546865 0.26827815 0.0019122683
0.29547283 -0.39590365 -0.085198343 -0.78752577 0.58772552 0.1854233 0.0018921737
-0.3048923 -0.38378122 -0.08291626 0.81750542 0.52203673 0.24323349 0.0013801171
0.30337888 -0.38352889 -0.084104098 -0.82811725 0.5244925 0.19781131 0.00029626419
-0.31092605 -0.37186265 -0.086848021 0.81714141 0.51218945 0.2644653 0.0010432005
-0.3078827 -0.3762168 -0.087622762 0.81382716 0.50932974 0.27976522 0.00071599561
0.30795389 -0.37654817 -0.08300411 -0.83366632 0.51520211 0.19891514 0
-0.31413192 -0.36743826 -0.085761808 0.81395417 0.51757199 0.263814 0.0010729992
0.31618041 -0.36268994 -0.084408581 -0.83378488 0.51501721 0.19889705 3.3367152e-05
-0.3226611 -0.35477865 -0.084350511 0.82423681 0.50192434 0.26211721 0.0011250554
0.31967676 -0.35629296 -0.086318821 -0.84084415 0.50328737 0.19920579 0.00025713755
0.3223539 -0.35270265 -0.084394142 -0.84784198 0.49312621 0.19491172 0.00047312173
-0.33056277 -0.34015635 -0.087858707 0.86948454 0.40811038 0.27828512 0.0019832749
-0.32736894 -0.34649193 -0.085733026 0.84256333 0.47076783 0.26165736 0.0020753683
0.32660031 -0.34535792 -0.085614391 -0.86412174 0.45856714 0.20738827 0.0009812169
-0.3344776 -0.33652097 -0.081113882 0.88305533 0.39473185 0.25377166 0.0025772252
0.33195442 -0.33488721 -0.084897965 -0.89448589 0.39805552 0.20358473 0.0014819219
-0.33794627 -0.3271749 -0.080598474 0.90671629 0.34062624 0.2486752 0.0023577642
0.33525261 -0.32395098 -0.087148614 -0.91667545 0.34408844 0.20324667 0.00029425154
-0.34101316 -0.31281173 -0.08606267 0.9079724 0.31724149 0.27375868 0.0015254542
-0.339086 -0.31796539 -0.086386919 0.90133315 0.32408553 0.2873449 0.00088789803
0.33921057 -0.31464556 -0.083864734 -0.92465162 0.32103166 0.20483667 3.1270924e-05
0.34042749 -0.31209868 -0.082362518 -0.92469299 0.32091904 0.2048265 9.5743431e-05
-0.34538126 -0.30562398 -0.08096689 0.91879523 0.32046345 0.23047476 0.0018713113
-0.3492581 -0.29245496 -0.083033718 0.9098841 0.32645825 0.25599989 0.0020008518
0.34621039 -0.2955749 -0.082153067 -0.92463607 0.32107055 0.20484586 7.7850651e-05
-0.35196084 -0.28221703 -0.085500568 0.91189647 0.29610416 0.28419557 0.0014772337
-0.3494612 -0.288719 -0.086098343 0.90852499 0.31621918 0.27310777 0.0017557685
0.34723794 -0.28953618 -0.086978883 -0.92642087 0.31580472 0.20496751 0.00014406843
-0.35439306 -0.27496654 -0.085815683 0.92801934 0.25851786 0.26823232 0.0019443535
0.35312298 -0.27445537 -0.084047042 -0.94380254 0.2638157 0.19909333 0.00099692971
-0.35652772 -0.26273775 -0.08829052 0.93832278 0.18910097 0.28946713 0.0016147443
0.35569805 -0.26515967 -0.083531424 -0.95990729 0.19565645 0.20073989 0.0011719968
-0.35880098 -0.2571727 -0.083784401 0.9529562 0.16584435 0.25371265 0.0019447767
0.35775849 -0.25138086 -0.082301214 -0.96791995 0.1455189 0.20482984 0.00019774619
-0.3612259 -0.24507995 -0.081224918 0.96263868 0.12666988 0.23933546 0.0018473027
0.35874733 -0.24475873 -0.081705429 -0.97060835 0.13122106 0.20174363 5.1387015e-05
-0.36162758 -0.23271975 -0.084581554 0.95787483 0.12678115 0.2576867 0.001521609
-0.3592273 -0.23934975 -0.089064151 0.95018429 0.12324165 0.28628874 0.00090610899
0.35918105 -0.23615147 -0.085027143 -0.97116733 0.12681554 0.20187104 2.4183994e-06
-0.36316553 -0.22502983 -0.082965635 0.95867693 0.12727825 0.25443825 0.0018780144
0.36101425 -0.22477165 -0.083358623 -0.97115821 0.12681861 0.20191309 9.2665196e-06
-0.36339664 -0.21418756 -0.086258613 0.9485755 0.12283163 0.29174793 0.00073393038
0.36203587 -0.21523145 -0.084438466 -0.97172195 0.12304573 0.20153451 2.328035e-05
-0.36514473 -0.20176363 -0.08576645 0.9566592 0.073741876 0.28171861 0.0019242255
0.36329833 -0.20562387 -0.084402233 -0.97738612 0.081923418 0.19494867 0.00087309058
-0.36600277 -0.19487484 -0.085813433 0.96091574 0.036201309 0.27446404 0.0020728353
0.36481696 -0.19574034 -0.083306924 -0.97943872 0.056725763 0.19360249 0.0011386586
-0.36641583 -0.18544537 -0.08388257 0.96500528 -0.0075486763 0.26212171 0.0019791196
0.36424413 -0.18760335 -0.086680889 -0.98123026 0.0084634135 0.19265409 0.0012381931
0.36397615 -0.17582168 -0.083757587 -0.98037249 -0.048651513 0.19105697 0.00033725894
0.36362323 -0.16352321 -0.081080705 -0.97909313 -0.069692813 0.1911011 0
-0.36532423 -0.1597119 -0.080834977 0.96650833 -0.070581727 0.24673852 0.0015471714
0.36237991 -0.15260419 -0.083468795 -0.97908932 -0.069672726 0.19112773 0
-0.3623336 -0.14532273 -0.086244985 0.95024902 -0.077702299 0.30164406 0.00026759953
0.36150068 -0.14421271 -0.084913276 -0.97908789 -0.070492297 0.19083437 0.00010190056
-0.36200595 -0.13435487 -0.084534772 0.95527953 -0.08362823 0.28363237 0.00081090513
0.36024511 -0.13246635 -0.087062523 -0.97710347 -0.09163975 0.19201824 0.00048625001
-0.36124083 -0.12482172 -0.084483936 0.94904572 -0.12374519 0.28982645 0.0014119362
0.35925573 -0.12109456 -0.087984622 -0.97394496 -0.13358246 0.18326712 0.001254593
0.36054772 -0.12299891 -0.082059756 -0.97477257 -0.12632184 0.18401422 0.0011783538
-0.36119798 -0.11497495 -0.081290491 0.94252306 -0.2000908 0.2676079 0.0015355677
-0.35933742 -0.11350181 -0.085688271 0.93408895 -0.2056749 0.29184875 0.0012150094
0.35857731 -0.11397181 -0.086620674 -0.96319693 -0.20249395 0.17677088 0.001182255
0.36002362 -0.11738813 -0.082698837 -0.96989769 -0.16602749 0.17813902 0.0019083908
-0.35549569 -0.10153711 -0.086240463 0.92417336 -0.2497779 0.28898901 0.00071047398
0.35607943 -0.10626025 -0.088157639 -0.95698047 -0.22784491 0.17965287 0.00087011175
-0.35410097 -0.095489591 -0.084812403 0.92239738 -0.27289015 0.27333882 0.00049996277
0.35324594 -0.094888933 -0.085742973 -0.9488793 -0.26343009 0.17387573 0.00010096021
-0.35089788 -0.088007808 -0.087656707 0.91476488 -0.27965993 0.29153985 2.37228e-05
0.34972149 -0.08071737 -0.08269608 -0.94654578 -0.27261212 0.1724344 2.4330704e-05
0.35102919 -0.088059515 -0.087129354 -0.94529521 -0.27339444 0.17796765 8.7643974e-05
-0.34786463 -0.075848341 -0.08549992 0.91426796 -0.28005555 0.29271656 1.5324658e-05
0.34817427 -0.076075539 -0.083861634 -0.94655317 -0.27250203 0.17256817 6.9255635e-05
-0.34487581 -0.06458053 -0.08405672 0.91278917 -0.28892976 0.28867882 0.0001474392
0.34625894 -0.068206459 -0.081940144 -0.94504845 -0.27899644 0.17042403 0.00011395318
-0.34245315 -0.055241153 -0.082690209 0.89995217 -0.33072281 0.28409228 0.0010071722
0.34176683 -0.053440969 -0.083282046 -0.92999738 -0.32838932 0.16512206 0.0011726733
-0.34007519 -0.048502974 -0.083670117 0.88623536 -0.37612081 0.27040708 0.0016243822
-0.33771095 -0.044079278 -0.085327923 0.87939429 -0.39315858 0.26849955 0.0015350666
0.33879495 -0.043507181 -0.081262603 -0.90166783 -0.40154779 0.16048211 0.0014776667
-0.33117384 -0.032545783 -0.085278109 0.84670198 -0.46388099 0.26059565 0.0007104433
0.33474433 -0.036640648 -0.082579412 -0.88626361 -0.43369532 0.16261987 0.0010412779
-0.32776555 -0.025783991 -0.083436213 0.83736312 -0.48501879 0.25215036 8.3818435e-05
0.32697725 -0.023982108 -0.086828433 -0.85754204 -0.47796151 0.19019592 0.00096029625
-0.3218095 -0.016577192 -0.085271746 0.83456039 -0.4895103 0.25276187 0
-0.31886098 -0.012317454 -0.0867576 0.83455807 -0.48951226 0.25276574 0
0.3224344 -0.015570519 -0.085893989 -0.85765284 -0.47855049 0.18820502 0.00081185269
-0.31482241 -0.0045733103 -0.085094355 0.83288741 -0.49359459 0.25032568 4.9734834e-05
0.31729394 -0.0063210786 -0.085748158 -0.84671354 -0.49142161 0.2039139 0.0012477675
-0.31027821 0.0013283398 -0.088669121 0.82022578 -0.5153023 0.24838105 0.00061202288
-0.30882624 0.0064040143 -0.083633177 0.8111816 -0.53426605 0.23779035 0.001047932
0.30959734 0.0078943269 -0.084285535 -0.81922942 -0.53673238 0.20194428 0.0016317104
0.31018159 0.0064225048 -0.085729286 -0.82287967 -0.52847332 0.20877068 0.0016575146
-0.30373871 0.013805308 -0.085638881 0.77613753 -0.58582932 0.23326917 0.002085452
0.30753702 0.010156979 -0.089129403 -0.80792564 -0.54220819 0.23079532 0.0021741318
-0.2954351 0.022914056 -0.086221561 0.72611517 -0.65570623 0.20689625 0.0017406978
0.29671368 0.024788938 -0.082897373 -0.72913212 -0.66237915 0.17210577 0.0013052089
-0.28177047 0.036453649 -0.086092949 0.69116509 -0.69689274 0.19139303 0
0.28704098 0.033418141 -0.086570621 -0.6855877 -0.69753402 0.20836456 0.00088195247
-0.27819914 0.040425066 -0.084473029 0.69004542 -0.69823718 0.19053143 2.1325986e-06
-0.26953569 0.04768382 -0.08924932 0.67551637 -0.7135908 0.18564983 0.00045864182
0.27606708 0.044779066 -0.083610117 -0.67813289 -0.70257527 0.21569389 0.00079868414
-0.26335403 0.055168569 -0.084207885 0.64100438 -0.74410248 0.18821473 0.002065456
-0.25918466 0.059181437 -0.084602416 0.60207015 -0.7798419 0.1713419 0.0027469129
0.25996086 0.057875417 -0.08829543 -0.59478801 -0.76911265 0.23386541 0.0024526406
0.26276484 0.055937435 -0.08661665 -0.61213595 -0.75705385 0.22838356 0.0026829736
-0.25447661 0.063190311 -0.081985235 0.56130731 -0.81210262 0.15944721 0.0027131131
-0.24734697 0.066916063 -0.08614926 0.52949786 -0.83564734 0.14603263 0.0023387456
0.24624774 0.068312004 -0.081537575 -0.49286014 -0.85389543 0.1671872 0.0017494805
0.25580963 0.061795667 -0.086772867 -0.56422579 -0.79699761 0.21550894 0.0028816485
-0.24064648 0.070984915 -0.081597157 0.48818168 -0.86372566 0.12512673 0.00083754031
-0.2334787 0.074359737 -0.08512035 0.46029356 -0.87784469 0.1323576 0.00046699101
-0.22696659 0.077446327 -0.088145524 0.44408262 -0.88420427 0.14482181 0.00052541785
-0.11265451 0.078065068 -0.081574306 0.47861001 0.68657041 0.54731482 0.09500847
-0.1062926 0.078326046 -0.085722364 0.49078625 0.66942853 0.55766857 0.16517986
-0.092351452 0.078362256 -0.086298108 0.31467304 0.83483416 0.4517 0.17343673
-0.085279226 0.078401461 -0.086921126 -0.12220394 -0.99087882 0.056791671 0.16492811
-0.073581517 0.078486264 -0.088269129 -0.049998708 -0.99695885 -0.059775438 0.16188666
-0.065369748 0.078344658 -0.086018339 0.023039497 -0.99902087 0.037768196 0.12627147
-0.035424389 0.078533962 -0.089027449 -0.054661091 -0.99559909 -0.076121122 0.10176252
-0.024717115 0.07819815 -0.083689854 -0.021750839 -0.97096568 -0.23822789 0.080462813
-0.016700836 0.078370079 -0.086422458 0.068583295 -0.96847796 -0.23947179 0.081412084
-0.0044437367 0.078416713 -0.087163769 -0.0062379655 -0.98240632 -0.18665175 0.095469937
0.0074086762 0.07824365 -0.084413067 -0.0028230923 -0.97607958 -0.21739522 0.074943252
0.026449241 0.078087591 -0.081932634 -0.048683874 -0.96960074 -0.23980054 0.077877454
0.035974916 0.07843186 -0.087404624 -0.018444669 -0.98405218 -0.17692098 0.10595784
0.044387724 0.078301877 -0.085338555 0.093196772 -0.97287667 -0.21172 0.10427816
0.053526595 0.078190982 -0.083576024 0.0033155796 -0.99184316 -0.12742086 0.091302551
0.085850209 0.078164071 -0.083148263 0.028366283 -0.96439421 -0.26294318 0.18489434
0.093897901 0.078320086 -0.085628092 0.2067019 -0.91086626 -0.35720715 0.20261578
0.10296778 0.078219868 -0.084035255 -0.43827724 0.71686363 0.54223579 0.15803015
0.11182799 0.078039013 -0.081160642 -0.36541441 0.70988923 0.60210437 0.15169141
0.22635369 0.077607743 -0.084864475 -0.44126189 -0.8832891 0.15839307 2.4876483e-05
0.23212084 0.074478194 -0.086271554 -0.44888839 -0.87864745 0.16272017 6.1483181e-05
0.24116814 0.070198715 -0.085042357 -0.47395578 -0.86459994 0.16683151 0.00093797134
-0.22060189 0.081341594 -0.083561115 0.43272555 -0.89140767 0.13468885 0.00042815908
-0.2167234 0.08361607 -0.081619211 0.42462537 -0.89610106 0.12921385 0.00076053781
-0.02642088 0.089252196 -0.08154358 -0.080510207 -0.95585781 -0.28258428 0.08105626
-0.014472112 0.088268116 -0.082063168 0.027940091 -0.94016862 -0.33956194 0.071891718
-0.0062076114 0.087206833 -0.081548132 -0.0050987247 -0.92018121 -0.39145964 0.064389355
0.0023193881 0.087629855 -0.081903316 -0.0074522225 -0.93181312 -0.36286169 0.062510014
0.012177426 0.089011014 -0.083552927 -0.024110375 -0.9641127 -0.26439631 0.079021744
0.02802735 0.089289166 -0.081139699 0.018996486 -0.95160806 -0.30672669 0.079804532
0.20952795 0.086018965 -0.084682524 -0.39229953 -0.90863842 0.14309905 0.0019037443
0.2157276 0.082702585 -0.085934125 -0.42558759 -0.89246798 0.14958686 0.00061473798
0.22092196 0.081129476 -0.080407128 -0.42612669 -0.89246047 0.1480889 0.00057555776
-0.1945561 0.092653595 -0.087543152 0.30229402 -0.94764042 0.10293705 0.0030819883
-0.18661487 0.093988895 -0.083435982 0.20586491 -0.97702479 0.055156153 0.0015838708
-0.17635421 0.095486484 -0.083402216 0.16849068 -0.98442364 0.050209861 0.00078441773
-0.15592563 0.098491773 -0.082652733 0.12897518 -0.99127156 0.027313 0.00041420705
-0.14664058 0.099661946 -0.087960884 0.086859532 -0.99621606 0.0030100534 0.0016934111
-0.11058676 0.098831654 -0.080573231 -0.35135585 -0.85951215 -0.37119797 0.14174943
-0.10293684 0.098484464 -0.083330348 -0.22072327 -0.87964076 -0.42132342 0.12403622
-0.094817601 0.098590866 -0.088692486 -0.30570301 -0.86968714 -0.38754356 0.14337474
-0.082937732 0.096343815 -0.084214069 -0.19014822 -0.939403 -0.2852467 0.15541922
-0.074834339 0.095348068 -0.083913624 -0.063187584 -0.98235774 -0.17601338 0.1562257
-0.064456686 0.094789185 -0.086185314 -0.054299407 -0.97539401 -0.21367756 0.13587859
-0.052516621 0.093869172 -0.086221859 -0.064003058 -0.97267377 -0.22318 0.12374856
-0.04413186 0.093231022 -0.086283363 -0.095803112 -0.95940596 -0.26525828 0.096562676
-0.035003707 0.091797948 -0.085212678 -0.12154966 -0.95972699 -0.25327793 0.088161178
-0.023179963 0.09236896 -0.087852798 -0.0045475038 -0.9426657 -0.33370736 0.087128282
-0.014926143 0.091770947 -0.08771944 0.00073268579 -0.92796004 -0.37267911 0.073957957
-0.0091418978 0.092150778 -0.089373343 0.054122824 -0.94839388 -0.31244156 0.091724426
0.0037741705 0.091993771 -0.088851601 -0.028834747 -0.97023916 -0.24042574 0.1003809
0.012882792 0.092515536 -0.089326859 0.012401768 -0.96420413 -0.26487082 0.094441786
0.029612333 0.09032131 -0.082406536 0.041939054 -0.94522238 -0.32372174 0.087847471
0.033596762 0.091473825 -0.083792545 0.082319491 -0.94704092 -0.3103821 0.092860207
0.043473236 0.093028724 -0.085654877 0.17551062 -0.9443137 -0.2783303 0.1050064
0.054219197 0.093569197 -0.084715664 0.077318713 -0.95624226 -0.28217489 0.11064308
0.063960902 0.093964592 -0.082067207 0.097861752 -0.93812913 -0.33216989 0.11753658
0.078642741 0.096025616 -0.085080802 0.013174118 -0.97827387 -0.20689765 0.16438046
0.084412716 0.096532404 -0.084815525 0.17496036 -0.94809341 -0.26553321 0.16600876
0.094888419 0.098217584 -0.087451577 0.21932526 -0.91629022 -0.33512473 0.13712478
0.10654245 0.098717354 -0.081854254 0.27320951 -0.86970741 -0.41105416 0.14135613
0.14736478 0.099759862 -0.08646524 -0.11158995 -0.99364007 0.015069321 0.0012394602
0.15445741 0.098823674 -0.085303053 -0.12592143 -0.99157703 0.030311618 0.00036791363
0.16423351 0.097353697 -0.085679866 -0.14521725 -0.98896456 0.029344885 7.3051895e-05
0.17534088 0.095613912 -0.085076272 -0.16351332 -0.98601002 0.032365605 0.00019791748
0.18426435 0.094234459 -0.083369993 -0.20846027 -0.9765783 0.053284008 0.002134355
0.19623959 0.09220849 -0.085250698 -0.30510184 -0.94602931 0.10927685 0.0040127523
0.20037743 0.091228351 -0.081119835 -0.32290393 -0.94065195 0.10443653 0.0039248765
-0.1434688 0.10023629 -0.084735647 0.066807784 -0.99762505 -0.01676593 0.0026026366
-0.13391219 0.10148939 -0.088794403 0.033481479 -0.9991551 -0.023832085 0.0033421903
-0.12339444 0.10102805 -0.083063871 -0.1763863 -0.96810281 -0.17794611 0.087211199
-0.11897917 0.10120879 -0.087787695 -0.1462741 -0.95817041 -0.24599466 0.086333409
-0.10988365 0.10000814 -0.087024778 -0.22422108 -0.92431688 -0.30880952 0.12611869
0.10847658 0.10030232 -0.089299642 0.23637085 -0.91402858 -0.32966751 0.12405638
0.1164234 0.1009545 -0.087094307 0.18415627 -0.94986439 -0.25267413 0.11570372
0.12421691 0.10147146 -0.08424519 0.11515625 -0.95773578 -0.26359299 0.0913449
0.13300315 0.10183111 -0.083050117 0.018205905 -0.99516642 -0.096500367 0.033806909
0.14380272 0.10036028 -0.083977781 -0.083336093 -0.99649382 0.0074322578 0.0019335345
-0.15527499 -0.48328236 -0.075222813 0.15598913 0.98067719 0.11806624 0.00023209555
-0.14592905 -0.48499599 -0.073802449 0.12138411 0.98693204 0.1059767 0.0015793417
-0.13288327 -0.48689452 -0.075965725 0.020537883 0.99689651 0.075997353 0.0032703259
-0.12552874 -0.48675692 -0.078239501 -0.027325781 0.99783272 0.059859641 0.0030328131
-0.11489517 -0.48517585 -0.075822353 -0.097056299 0.99503762 0.021914005 0.0022483398
-0.10490873 -0.48368868 -0.076165311 -0.13819554 0.99033159 -0.012054098 0.00032090608
-0.095779233 -0.48230094 -0.074541263 -0.14981672 0.98846948 -0.021977225 0.00010496692
-0.087950885 -0.48124281 -0.076953903 -0.14968556 0.98790497 -0.040472683 0.00046378319
0.084832177 -0.48058474 -0.074457958 0.17050676 0.98431414 -0.045310073 0.0015657796
0.099585831 -0.48290175 -0.07601548 0.1491933 0.98855126 -0.022533728 0.00010949343
0.10892874 -0.48438668 -0.076948203 0.12148887 0.99257571 -0.0058301361 0.000843613
0.11413471 -0.48514122 -0.072592273 0.12171002 0.99248552 0.012620072 0.0014494013
0.12559965 -0.48688263 -0.075791478 0.018937051 0.9989934 0.040664338 0.0042546834
0.13356508 -0.48686171 -0.075071439 -0.032047343 0.99686265 0.07237231 0.0035098363
0.14518529 -0.48509321 -0.07469862 -0.13774626 0.98380977 0.1146486 0.00033165395
0.15507843 -0.48365119 -0.073927969 -0.14553295 0.98293477 0.11251436 0.00046251982
0.1660122 -0.48184401 -0.074213535 -0.16670217 0.97888148 0.118328 0.00022895174
-0.20209649 -0.47173947 -0.073771447 0.40866977 0.89576924 0.17488968 0.0011408821
-0.19643225 -0.47426409 -0.075439818 0.3764329 0.90832299 0.182339 0.0020521642
-0.18692289 -0.47834122 -0.072793409 0.27827644 0.94643402 0.16378284 0.0029160206
-0.17804609 -0.47969857 -0.073714308 0.20969008 0.96843088 0.13480243 0.001217854
-0.080658756 -0.47996974 -0.070904896 -0.17948329 0.98189175 -0.060616463 0.0020696314
-0.070795402 -0.4786078 -0.073114559 -0.23391394 0.96703994 -0.10058831 0.0040152925
-0.066337153 -0.47785857 -0.070255309 -0.25166857 0.95893854 -0.13076667 0.0042185737
-0.054173876 -0.47482792 -0.07568597 -0.2572706 0.94844455 -0.1851074 0.0058185537
-0.047721773 -0.47291794 -0.076905861 -0.23952086 0.93988484 -0.24340542 0.0052788034
0.049759574 -0.47213623 -0.073456243 0.27363196 0.92717433 -0.25587755 0.0038456428
0.05459702 -0.47367024 -0.071897335 0.28514147 0.93625116 -0.20525126 0.004356747
0.064804137 -0.47793016 -0.074932136 0.23083407 0.96442175 -0.12886551 0.0039614346
0.07450597 -0.47914934 -0.073833227 0.22099595 0.97184509 -0.08171843 0.0031927663
0.17755242 -0.47973144 -0.076043844 -0.23547301 0.96018475 0.15032552 0.0019731487
0.18232852 -0.47905302 -0.074623197 -0.26576772 0.95248848 0.14877243 0.0022845597
0.1955958 -0.47488365 -0.076464973 -0.35413036 0.92300546 0.150508 0.0020293572
0.20296931 -0.47087604 -0.076970026 -0.40357834 0.90081465 0.16017929 0.0016868974
-0.22221844 -0.4614284 -0.073480614 0.45615715 0.87196422 0.17776087 0.00022353318
-0.21435533 -0.46502671 -0.075403757 0.44764736 0.87461972 0.18615104 3.5023484e-05
-0.040985342 -0.46869504 -0.071826354 -0.27688226 0.90532774 -0.32205275 0.0021071669
-0.035290305 -0.46859503 -0.076037385 -0.24432293 0.90761209 -0.34138933 0.0021637671
-0.024925733 -0.46640912 -0.07678403 -0.19078298 0.9057216 -0.37851045 0.0017583596
-0.01061648 -0.46200943 -0.072069719 -0.099027529 0.90528756 -0.4130955 0.0026825273
-0.0057480396 -0.46330175 -0.07555639 -0.048794322 0.90442866 -0.42382538 0.0010985767
0.0035464391 -0.46293297 -0.075001821 0.015360292 0.90338326 -0.42855895 0.0018241516
0.013300527 -0.46221662 -0.072118446 0.098481864 0.90803748 -0.40714762 0.0020727327
0.027304178 -0.46412528 -0.07067097 0.22643346 0.90014589 -0.3721092 0.0013453029
0.034772642 -0.46852502 -0.076076902 0.22740214 0.91404641 -0.33586821 0.0029313134
0.2090679 -0.46836272 -0.072649293 -0.44297463 0.88162667 0.16281237 0.0004081431
0.2109898 -0.46633804 -0.078576595 -0.45389441 0.87312937 0.17783403 0.00048888219
-0.24045242 -0.4525319 -0.071339846 0.51505643 0.8388055 0.17641497 0.001617012
-0.23519686 -0.45449775 -0.074469306 0.50172848 0.84271044 0.19521154 0.0018970908
0.23538832 -0.4540177 -0.074686244 -0.50500977 0.85037583 0.14773624 0.0013082066
0.24206764 -0.45100993 -0.071462914 -0.55645055 0.81735259 0.14932364 0.0030273309
-0.25182965 -0.44431639 -0.073855422 0.60390675 0.7694205 0.20805918 0.0023134083
-0.24708726 -0.44677776 -0.079126731 0.58392519 0.78184652 0.218512 0.0027811935
0.24707343 -0.44746602 -0.074490786 -0.6112029 0.77394181 0.16566589 0.002617714
0.25221545 -0.44262099 -0.074415579 -0.63745642 0.74784291 0.18541926 0.0015316653
-0.26646936 -0.43051887 -0.073709562 0.67418456 0.7024529 0.22811188 0.00066137488
-0.2570309 -0.43912119 -0.074566275 0.63666278 0.73801088 0.22360781 0.0015558015
0.26284429 -0.43237409 -0.07407549 -0.67969996 0.71058071 0.18188716 6.285563e-05
-0.27418166 -0.42272222 -0.075006083 0.68419862 0.70218748 0.19699001 0.00095317001
-0.26861566 -0.42608547 -0.079958878 0.67410761 0.69932348 0.2377509 0.00062520802
0.26708654 -0.42788172 -0.075505808 -0.6849407 0.70562267 0.18152924 1.4719321e-05
0.27553713 -0.41881531 -0.078812569 -0.68808597 0.70227522 0.18261191 3.61323e-05
0.28198433 -0.41315895 -0.076430917 -0.70571887 0.68444777 0.18300875 0.00075609877
-0.29487157 -0.4018712 -0.0783154 0.74868143 0.62087291 0.23236386 0.0025274127
0.28860509 -0.40718204 -0.074639775 -0.73508346 0.65099061 0.18937685 0.0016729183
0.29375657 -0.40227085 -0.073849201 -0.75008655 0.63510114 0.18443638 0.0020654413
-0.29910034 -0.39770448 -0.075011581 0.78273076 0.58785671 0.20434551 0.0027623582
0.29575521 -0.39806098 -0.078426927 -0.76804137 0.60897642 0.19814175 0.0024611638
0.30113834 -0.39209163 -0.071319692 -0.79866129 0.56747377 0.20028369 0.0016225427
-0.3061029 -0.38630572 -0.075103439 0.81958181 0.53432137 0.20684837 0.0013671202
0.30361146 -0.38524872 -0.078674637 -0.82473606 0.53054827 0.19577797 0.00035199171
-0.31243694 -0.37597728 -0.076019816 0.82753521 0.51795578 0.21658081 0.0013548244
-0.30893308 -0.37989575 -0.078733131 0.82700318 0.51510108 0.22524782 0.0012706147
0.30899692 -0.3767246 -0.078174397 -0.83378273 0.51502091 0.19889627 0
0.31222031 -0.37332061 -0.073477246 -0.83372909 0.51510602 0.19890109 0
-0.32150277 -0.36098713 -0.077072263 0.82642221 0.51663244 0.22386868 0.0011584299
-0.31708345 -0.36818457 -0.076741979 0.82721603 0.51933026 0.2144987 0.0013979097
0.31890529 -0.36004987 -0.079822712 -0.83584613 0.51140285 0.19957052 3.3156477e-05
-0.32589749 -0.3547776 -0.074923128 0.84357792 0.5016287 0.19168943 0.0016018644
0.31944108 -0.35950428 -0.078989446 -0.838597 0.5070926 0.19902788 0.00018984872
0.32417446 -0.35277361 -0.076578006 -0.84649003 0.49271891 0.20169932 0.00059867476
-0.33322051 -0.34249014 -0.075811826 0.87463754 0.44324529 0.19632339 0.0027787799
-0.32938778 -0.3480677 -0.077790841 0.85486305 0.4733566 0.21246812 0.0023273386
0.32899699 -0.3459788 -0.073958889 -0.87237465 0.44235298 0.2080538 0.0013854558
0.33110332 -0.34306362 -0.072678484 -0.87358546 0.43976074 0.20846818 0.0012432835
-0.33618224 -0.33584088 -0.076389089 0.88596725 0.40527204 0.22542548 0.0030118704
0.3342621 -0.33433723 -0.075341813 -0.89372617 0.39268756 0.21691045 0.0012034527
-0.34194613 -0.32143524 -0.072511725 0.92755246 0.32611126 0.18247694 0.0020822126
-0.33892816 -0.329256 -0.0757799 0.90569133 0.35441554 0.23262152 0.0025765379
0.33651724 -0.32863563 -0.074096642 -0.90601909 0.36531118 0.21372239 0.00072289776
-0.34353885 -0.31658 -0.073699109 0.92832267 0.31470668 0.1979309 0.0021006637
0.33968857 -0.31840736 -0.075810641 -0.92141134 0.33084771 0.20381583 0.00025786451
0.34231773 -0.31151211 -0.074748158 -0.92465794 0.32103932 0.20479605 0
0.34404448 -0.30583811 -0.075845562 -0.92469215 0.3209182 0.20483124 6.4917331e-05
-0.35150775 -0.2911225 -0.078109652 0.9198457 0.32432303 0.22067738 0.0023290664
-0.34938094 -0.29728216 -0.07791312 0.91857302 0.32638606 0.2229252 0.0022397388
0.34792706 -0.29481241 -0.07559818 -0.92457479 0.32129174 0.20477585 0
-0.35352176 -0.28684786 -0.076322302 0.93156266 0.30722517 0.19443156 0.0021117863
0.35177121 -0.28546748 -0.072889961 -0.93271875 0.29943496 0.2009341 0.0002596867
-0.35629562 -0.27926481 -0.075310223 0.94121087 0.27698439 0.1933953 0.0018058044
0.35514331 -0.27368388 -0.076135039 -0.94710338 0.25000331 0.20122977 0.0013053818
-0.36117643 -0.26151034 -0.072984844 0.96291798 0.19135995 0.19018491 0.0021660889
-0.35908607 -0.26811519 -0.078829087 0.94934827 0.21625827 0.2279698 0.0021807433
0.35867637 -0.26269683 -0.070775591 -0.96210152 0.18378697 0.20145246 0.0009627578
-0.36188945 -0.25370702 -0.074191391 0.97013861 0.14888647 0.19147803 0.0021345301
0.35894746 -0.25364158 -0.075161174 -0.96846759 0.14390168 0.20337839 0.00019396958
-0.36193278 -0.24702054 -0.078483738 0.96419966 0.13309038 0.22935992 0.0018667526
0.36115158 -0.24139032 -0.072256073 -0.97114956 0.12687913 0.20191662 9.6673102e-06
0.36172915 -0.23547414 -0.073194958 -0.97116256 0.12679519 0.20190655 0.00011982273
-0.36589593 -0.22232175 -0.07610213 0.96549875 0.13811068 0.22076598 0.001662254
0.36249039 -0.22498488 -0.076123834 -0.97116333 0.12681854 0.20188813 0
-0.36700451 -0.21513477 -0.075537361 0.96686083 0.13593911 0.21610351 0.0015998061
0.3646121 -0.21318039 -0.073334433 -0.97230929 0.11900208 0.2011295 2.9092489e-05
-0.36834368 -0.2040738 -0.074759372 0.97022736 0.10507957 0.21821362 0.0022922824
-0.37020081 -0.19674423 -0.070562512 0.98113447 0.045756698 0.18783347 0.002992257
-0.36978179 -0.19617853 -0.074421972 0.97738522 0.041546151 0.20734531 0.0028825412
0.36571586 -0.19692785 -0.078236803 -0.97800809 0.063446507 0.19868219 0.001022654
-0.36925668 -0.18547276 -0.07511539 0.97441775 -0.021568051 0.2237072 0.0024489434
0.36664748 -0.18064661 -0.07183066 -0.97978806 -0.037874069 0.19642016 0.00051828881
-0.36802533 -0.17271332 -0.075949974 0.97198737 -0.063006632 0.22643027 0.0015432832
0.36543038 -0.17765005 -0.076973505 -0.98031527 -0.039095797 0.19352911 0.00046623565
-0.3670435 -0.16595303 -0.07722684 0.9683513 -0.070298053 0.23948666 0.0016297383
0.36411244 -0.1623933 -0.078162119 -0.97909105 -0.069668248 0.1911203 3.1856154e-05
-0.36685455 -0.15466434 -0.075023428 0.97420067 -0.065420099 0.21599372 0.0021881983
0.36414236 -0.15539053 -0.075455166 -0.97909117 -0.069640376 0.19113034 9.8047803e-06
-0.36567247 -0.14357048 -0.075836167 0.96816742 -0.078646801 0.237627 0.0015574942
0.36385047 -0.14751524 -0.074078873 -0.97908908 -0.069690496 0.19112279 0
-0.36395201 -0.1341808 -0.078675754 0.96283984 -0.082335845 0.25721633 0.001273548
0.3624658 -0.13409017 -0.076277323 -0.97907895 -0.080530919 0.18686695 0.00017086598
-0.36450115 -0.12441394 -0.074639447 0.96330178 -0.12370632 0.23821522 0.0021767726
0.36141741 -0.12632425 -0.078816555 -0.97717941 -0.11242114 0.18022726 0.00084496452
-0.36203706 -0.11329959 -0.077070989 0.94173932 -0.21787675 0.25623554 0.0013248438
0.36079618 -0.11641525 -0.07730335 -0.97087032 -0.17105968 0.167778 0.0016040441
0.35820603 -0.10441629 -0.073522076 -0.95256168 -0.24828398 0.17601535 0.00049678818
-0.3566761 -0.094093218 -0.075442515 0.92751318 -0.28525519 0.24155511 0.0011583022
0.3546707 -0.093684793 -0.075987101 -0.94711161 -0.27075398 0.17225529 0
-0.35460973 -0.085585609 -0.073759183 0.93071008 -0.27315697 0.24323635 0.0011184113
0.35266584 -0.086449377 -0.075562879 -0.9466936 -0.27242997 0.17191027 5.2747215e-05
-0.34963 -0.072233245 -0.076536112 0.92150313 -0.28282079 0.26616606 0.00045007921
0.34823734 -0.073560759 -0.079529062 -0.94653666 -0.27257514 0.17254323 0.00015350145
0.35004997 -0.07714843 -0.075230792 -0.94669878 -0.27242711 0.17188598 8.1584825e-05
-0.34792888 -0.065098919 -0.075025484 0.92085326 -0.29458088 0.25544354 0.00061377184
0.34624207 -0.064533144 -0.076211721 -0.94430983 -0.2829299 0.16801682 0.00014210821
-0.34549159 -0.057788506 -0.075643808 0.91583645 -0.31031701 0.25484675 0.00081518077
0.34331286 -0.054644629 -0.076674059 -0.93151242 -0.32947537 0.1540474 0.0012221973
-0.34251612 -0.048597239 -0.076143727 0.89180899 -0.37083936 0.25914252 0.0019605695
-0.33953539 -0.042080484 -0.076134592 0.88140726 -0.40286148 0.24662502 0.001692379
0.33892763 -0.041217949 -0.072687507 -0.89808142 -0.41179818 0.15450616 0.0015748441
0.34096187 -0.045228332 -0.072754264 -0.90734047 -0.39100328 0.15443349 0.0014698482
-0.33607167 -0.03517165 -0.074190989 0.85522759 -0.46322674 0.23239349 0.0010831262
0.33516297 -0.034723479 -0.073528893 -0.88338923 -0.44306451 0.15269957 0.00085529883
-0.33114719 -0.026978692 -0.074583769 0.84066951 -0.48599491 0.23892173 0.00024932864
-0.32854915 -0.023588721 -0.076596856 0.83970177 -0.48626557 0.24175781 0.00023509396
0.32746661 -0.020652045 -0.072553784 -0.86382818 -0.48248172 0.14495601 7.6354678e-05
0.33097616 -0.027773768 -0.075391278 -0.87161905 -0.465875 0.15244897 0.00044932665
-0.32185912 -0.012684327 -0.077568173 0.83461517 -0.48968577 0.25224063 0
0.32498491 -0.017509189 -0.076971538 -0.86164635 -0.48259169 0.15706901 0.00018625402
-0.31745902 -0.0032222318 -0.073771313 0.83085936 -0.50323421 0.237546 0.00038862141
0.31503555 -0.00034462288 -0.079192519 -0.84526932 -0.50396258 0.17759924 0.00085277262
0.32068262 -0.0094442125 -0.075750843 -0.86275512 -0.48171178 0.15364672 0.00020281636
-0.3121177 0.0033590449 -0.078662023 0.81449437 -0.52708054 0.24245605 0.00099496741
-0.30948997 0.0093161501 -0.075801194 0.79325479 -0.56151956 0.23546274 0.0019243289
0.31193966 0.0066899313 -0.074136652 -0.82912189 -0.54091555 0.14130561 0.0014852508
-0.30511677 0.016889801 -0.073099233 0.75914752 -0.61390245 0.21637683 0.0023050953
0.30417976 0.017747471 -0.078265056 -0.77145559 -0.61527699 0.16214371 0.0020894087
-0.30180845 0.020187415 -0.073129937 0.74029315 -0.63862908 0.21004502 0.0021076265
-0.29638991 0.025542591 -0.073129475 0.71187407 -0.6718874 0.20445684 0.00093005761
0.29814017 0.024378777 -0.07547795 -0.73789054 -0.65821481 0.14923374 0.0012508704
0.30217403 0.020782199 -0.071522951 -0.75109977 -0.64504707 0.14058234 0.0013339065
-0.29020846 0.031059647 -0.075299002 0.69772416 -0.68842572 0.19811882 0.00021359537
-0.28730723 0.033662476 -0.076268114 0.69232637 -0.69559544 0.19191433 3.353654e-05
0.28483957 0.038053438 -0.075831138 -0.69245744 -0.7021631 0.1657398 0.00096459192
0.29252556 0.030713366 -0.071699642 -0.71446323 -0.68850237 0.1245267 0.00034894006
-0.2812863 0.040343426 -0.073590532 0.69004041 -0.69824338 0.19052672 2.9804328e-06
-0.27415788 0.047124851 -0.074555956 0.67670685 -0.71138144 0.18974809 0.0004585626
0.28127831 0.041826911 -0.075142577 -0.69544947 -0.69849014 0.16870537 0.00096799189
-0.26405984 0.056687128 -0.076085716 0.62443382 -0.76066107 0.17741773 0.0030721789
0.26545805 0.057255302 -0.076817185 -0.61489546 -0.76768535 0.18045166 0.0032826297
0.27009127 0.053278923 -0.075786784 -0.66393781 -0.72565085 0.18060338 0.0017084127
-0.2548466 0.064578585 -0.072217673 0.55828798 -0.81713581 0.14353937 0.0031802272
-0.24730274 0.068230063 -0.075071096 0.49238408 -0.86255622 0.11642466 0.00082565279
0.25857091 0.064010344 -0.070838302 -0.5608536 -0.81630641 0.13815635 0.0029090645
0.26116866 0.061444707 -0.07645686 -0.59140372 -0.78887254 0.16709802 0.0032830243
-0.24190511 0.071034759 -0.075464003 0.4903543 -0.86380643 0.11571982 0.00075284787
-0.23359071 0.075488023 -0.074928112 0.46305302 -0.879224 0.11201349 0.00010144852
-0.12061079 0.077435292 -0.071564555 0.57890964 0.66319591 0.47437844 0.13766776
-0.11103189 0.077716693 -0.076037258 0.50773537 0.72288918 0.46865335 0.13785401
-0.096117415 0.077617586 -0.074461974 -0.093792759 -0.96932089 -0.22720033 0.16954404
-0.084726147 0.07751061 -0.072761722 0.01700207 -0.997329 -0.071033716 0.13105436
-0.074470952 0.07748051 -0.072283268 -0.020584486 -0.99650753 -0.080926016 0.11564256
-0.065852247 0.077488758 -0.072414428 -0.024723232 -0.99421698 -0.10450502 0.095166117
-0.054358594 0.077566624 -0.073652074 -0.073749907 -0.98047674 -0.18228063 0.084302567
-0.044635452 0.07769689 -0.075722478 -0.1186152 -0.98242098 -0.14415117 0.071476407
-0.024276959 0.07771837 -0.076063819 -0.081082083 -0.96243846 -0.25910968 0.058978904
-0.012334426 0.07789316 -0.078842111 -0.0026612028 -0.94421142 -0.32932904 0.059017785
-0.0042406269 0.077612028 -0.074373603 0.0070135472 -0.93743587 -0.3480874 0.048285518
0.0072463248 0.077888608 -0.07876987 -0.0033826772 -0.94838578 -0.31710088 0.051751103
0.013376795 0.077528805 -0.073051006 0.021290783 -0.94681799 -0.32106426 0.045959041
0.025827015 0.077655584 -0.075066037 0.032086387 -0.96084613 -0.27521849 0.061048761
0.03587085 0.077628084 -0.074629091 0.1047409 -0.96419758 -0.2436236 0.059126515
0.044663105 0.077869736 -0.078469932 0.099269554 -0.98549378 -0.13764989 0.086605467
0.056966145 0.077623568 -0.074557215 0.094041124 -0.97527021 -0.20001067 0.084778786
0.068492435 0.077727281 -0.076205634 0.0096876575 -0.9804945 -0.19630793 0.11341824
0.07646288 0.077654608 -0.0750506 -0.012398466 -0.98779863 -0.15524206 0.13340385
0.083872862 0.077620417 -0.074507147 0.0058100661 -0.99917662 -0.040154323 0.14259419
0.096960053 0.077553473 -0.073443204 0.09007103 -0.99515784 -0.039344236 0.19593583
0.1090855 0.077915341 -0.079194903 -0.52386004 0.73655009 0.42786059 0.16985409
0.11483233 0.077655219 -0.075060502 -0.63473958 0.61310995 0.47032115 0.18916106
0.12196729 0.077381 -0.070701994 -0.62089002 0.64949459 0.43892187 0.13695341
0.22787046 0.078314751 -0.076888442 -0.44643256 -0.88237286 0.14871472 0.00015928198
0.24314347 0.071444824 -0.072880298 -0.47261712 -0.87048924 0.13740981 0.00077595579
-0.22340249 0.08080624 -0.075461432 0.45003393 -0.88465291 0.12189592 0.00022047471
-0.21121384 0.087009259 -0.077468187 0.37746096 -0.91978949 0.10728776 0.0023717387
-0.051471427 0.089889735 -0.073501118 -0.10699104 -0.96143198 -0.25338003 0.082148246
-0.045060433 0.087611333 -0.072252855 -0.13538419 -0.95272118 -0.27201736 0.063755639
-0.02479938 0.085314415 -0.075383157 -0.07494159 -0.94967067 -0.30415377 0.064006984
-0.014674301 0.083936311 -0.074932091 0.013664924 -0.93943775 -0.34244719 0.054453593
-0.0063809268 0.082233198 -0.073336557 -0.0040957863 -0.93291199 -0.36008114 0.048102807
0.0083770398 0.084275275 -0.076142505 0.018928733 -0.93559033 -0.35257971 0.049692307
0.013518716 0.083256744 -0.07420028 -0.0040280237 -0.94990271 -0.31251985 0.049112998
0.027148213 0.085845202 -0.075579301 0.027160516 -0.95056576 -0.30933332 0.069879279
0.036554083 0.087878734 -0.076175243 0.11932454 -0.94383079 -0.30813155 0.070053048
0.20614491 0.089938581 -0.072490767 -0.34111661 -0.93529451 0.094147407 0.0037722667
0.21727838 0.084328853 -0.072851554 -0.40604952 -0.90553111 0.12303314 0.0014852065
0.22641534 0.080027521 -0.071498021 -0.44061419 -0.88834274 0.12925264 0.00051627163
-0.2005831 0.092014238 -0.07745029 0.29989254 -0.95011693 0.085686624 0.0031717271
-0.19562872 0.092826203 -0.075408429 0.26270327 -0.96193761 0.075253472 0.0031480368
-0.18567349 0.094386816 -0.075205289 0.19187734 -0.980277 0.047330461 0.0014830964
-0.17567031 0.095948771 -0.072940491 0.15053731 -0.98843408 0.018347552 6.7005261e-05
-0.16655506 0.097265415 -0.073307648 0.14829294 -0.98871744 0.021142429 6.5537584e-05
-0.15731497 0.098483384 -0.077047579 0.1188747 -0.99280167 0.014621454 0.00089500594
-0.14773214 0.099799387 -0.07940121 0.083908215 -0.99644709 -0.0072509488 0.0020051235
-0.12389805 0.099495053 -0.073040783 -0.2598871 -0.92665178 -0.27161598 0.11983455
-0.11740491 0.098223992 -0.071004845 -0.29734048 -0.91253579 -0.28083304 0.13289973
-0.10473418 0.096797042 -0.073491074 -0.29683757 -0.91797084 -0.26309133 0.15004234
-0.086338297 0.094381556 -0.072131917 -0.19665475 -0.97123611 -0.13426563 0.12860917
-0.074693218 0.094085515 -0.077521384 -0.06006436 -0.9585616 -0.27848166 0.12484363
-0.064793125 0.091993377 -0.072663099 -0.10567015 -0.96760166 -0.22930521 0.10297361
-0.056317151 0.091849662 -0.075754829 -0.15117395 -0.9560836 -0.25109857 0.092041224
0.06162953 0.091985226 -0.073880635 0.10062091 -0.94042659 -0.32476628 0.089007132
0.075785689 0.093936086 -0.076421507 0.16256505 -0.95498455 -0.24814738 0.12960939
0.088369668 0.094987221 -0.074368037 0.090657823 -0.97392362 -0.20797595 0.1520914
0.096439905 0.095796101 -0.072948739 0.23991232 -0.9419961 -0.23470277 0.18330014
0.10611007 0.096954621 -0.072307445 0.3073355 -0.92789924 -0.21106367 0.15808912
0.11547603 0.098465323 -0.073861375 0.30273816 -0.89891517 -0.31670338 0.15659587
0.12088908 0.098734073 -0.071377024 0.3086921 -0.88119 -0.358069 0.13146512
0.1528597 0.09927956 -0.076642565 -0.098761633 -0.9951092 0.0019297276 0.0018879811
0.16723382 0.09701141 -0.076978207 -0.15179372 -0.98821288 0.019848337 2.52767e-05
0.17499328 0.095838405 -0.07372085 -0.15951724 -0.98697847 0.020681597 8.7163266e-05
0.18408051 0.094373606 -0.075998217 -0.19630019 -0.97962117 0.042527933 0.0015095891
0.19351587 0.092863142 -0.077664018 -0.26962829 -0.96040821 0.070118792 0.0042586713
0.20477504 0.090228111 -0.074632019 -0.36238179 -0.92513996 0.11311667 0.0028943012
-0.14273304 0.1007288 -0.073620409 0.017294273 -0.9986397 -0.049189601 0.0033674764
-0.13007304 0.10080606 -0.075614765 -0.15581501 -0.96993035 -0.1869677 0.093143582
-0.12833823 0.10057547 -0.075751014 -0.15135045 -0.97490132 -0.16328031 0.089067481
0.12772892 0.10052448 -0.076357603 0.27182379 -0.94042093 -0.20425545 0.09238255
0.13378136 0.10104941 -0.074800387 0.078873917 -0.99067777 -0.11106931 0.036020637
-0.17519391 -0.48147082 -0.062788777 0.17981996 0.97687542 0.11566836 0.00057827093
-0.16365798 -0.48304904 -0.065545999 0.16271985 0.98063374 0.10899426 7.9649173e-05
-0.15324455 -0.48498601 -0.063732199 0.1417011 0.98457748 0.10260598 0.00067745557
-0.14598086 -0.48597199 -0.065533437 0.094821915 0.99211431 0.081962928 0.00256008
-0.13783145 -0.48783699 -0.061181426 0.029905578 0.99707222 0.070374705 0.0034720246
-0.12129685 -0.48624271 -0.063587047 -0.096310712 0.99480939 0.032840781 0.0024867607
-0.11624902 -0.48540384 -0.063339241 -0.11955272 0.99261713 0.020454077 0.001371878
-0.10516901 -0.48356831 -0.061868418 -0.15992193 0.98712873 -0.0013699469 4.8311442e-05
-0.09440162 -0.48181278 -0.064285778 -0.16658491 0.98587263 -0.017452342 0.00049290131
-0.087022267 -0.48076102 -0.066957705 -0.18818386 0.98132575 -0.039833222 0.0020588308
0.089579508 -0.4811945 -0.067199677 0.17279755 0.98436457 -0.034167975 0.00078744505
0.091944098 -0.4815343 -0.065024748 0.17700796 0.98387468 -0.025664505 0.00086374907
0.1024107 -0.48314708 -0.062674232 0.16204527 0.98677355 -0.0043912162 0.0001647204
0.11462111 -0.4850421 -0.060839579 0.1539375 0.98806471 0.0055968938 9.4978677e-05
0.12673065 -0.48701674 -0.065390214 0.044534437 0.99841672 0.034362685 0.0037465468
0.13390425 -0.48773682 -0.064074352 0.01265586 0.99744928 0.070248425 0.003728328
0.14536458 -0.48632655 -0.06464567 -0.11769926 0.98812044 0.098817155 0.0011453703
0.16517505 -0.48288116 -0.065385155 -0.16290823 0.98052001 0.10973296 0.00012107113
0.18215474 -0.48038569 -0.061196085 -0.24589352 0.96303654 0.10998628 0.0021390393
-0.20655635 -0.47218111 -0.062257607 0.41433561 0.89846903 0.14518759 0.0011110209
-0.19331178 -0.47799683 -0.064411506 0.32750106 0.93393832 0.14318608 0.0030659037
-0.18602893 -0.47925815 -0.066333123 0.2580615 0.95554882 0.14258586 0.0025328291
-0.07505665 -0.47887188 -0.062799841 -0.26130101 0.96066684 -0.094026335 0.0048836297
-0.062035285 -0.47479266 -0.065416068 -0.31317857 0.92945927 -0.19499895 0.0051630335
-0.059198834 -0.47336692 -0.064921603 -0.34311193 0.91255194 -0.22253773 0.0035629997
-0.049514763 -0.47044164 -0.067994833 -0.32550088 0.90747321 -0.26559648 0.0020829216
0.049624082 -0.47100493 -0.069887988 0.30123526 0.91993451 -0.25095397 0.0038240484
0.057926394 -0.47275639 -0.064287379 0.32730529 0.92661256 -0.18509571 0.0046687718
0.063115604 -0.47512728 -0.0650618 0.2793206 0.94886559 -0.14708515 0.0053494163
0.077147484 -0.47920313 -0.064925365 0.23648721 0.96747965 -0.089759625 0.003914264
0.18147771 -0.47982562 -0.068160012 -0.22826849 0.9655025 0.12529309 0.0015269831
0.19282824 -0.47799721 -0.064434662 -0.31594315 0.94008225 0.12816128 0.0034457881
0.20252326 -0.4723109 -0.069888718 -0.39842767 0.90520191 0.14786765 0.0013224544
-0.22391443 -0.4625451 -0.06502898 0.45584476 0.87556028 0.15999888 0.00048149796
-0.044614978 -0.46793348 -0.065906182 -0.3093448 0.90585583 -0.28936327 0.0022729391
-0.037956797 -0.46389842 -0.061281182 -0.31271753 0.9003554 -0.30260181 0.0023934022
-0.023131493 -0.46134278 -0.066005334 -0.19985828 0.89757901 -0.39294857 0.0021100237
-0.0079670865 -0.46034673 -0.069149055 -0.086281829 0.90160292 -0.42387226 0.0030899553
0.014502765 -0.46102607 -0.069038026 0.1082411 0.91044998 -0.399205 0.0020625526
0.025586348 -0.46075171 -0.063393243 0.23669043 0.9048956 -0.35375351 0.0021597189
0.035215028 -0.46401393 -0.064273849 0.29930043 0.89766502 -0.32344511 0.0022124012
0.045112006 -0.46753904 -0.064366192 0.3412576 0.89538348 -0.28606221 0.0019581427
0.21476734 -0.46649408 -0.065772504 -0.46101278 0.87480658 0.14893171 0.00011058495
0.22433524 -0.46231067 -0.060415063 -0.46567708 0.87251937 0.14783393 3.6922342e-05
-0.23599501 -0.45597342 -0.066544943 0.49844739 0.85189325 0.1607112 0.0010852593
-0.013233169 -0.4583399 -0.063716769 -0.11210191 0.90485984 -0.41068459 0.0034885183
-0.0094462465 -0.45709014 -0.061926112 -0.11050507 0.90346158 -0.41418085 0.0038440744
0.0044173365 -0.45837551 -0.065477103 0.03336918 0.90025413 -0.43408406 0.0034008715
0.011341766 -0.45951509 -0.066934027 0.098237783 0.90051472 -0.42358303 0.0034102015
0.021929303 -0.45844606 -0.060396239 0.22853847 0.89310104 -0.38747975 0.0036939566
0.23667926 -0.45571992 -0.060560711 -0.4990896 0.85189945 0.15867205 0.0013674232
-0.25455511 -0.44486636 -0.064332232 0.62342584 0.76420307 0.16532981 0.0017940322
0.24890892 -0.44777393 -0.066788577 -0.59208369 0.78691655 0.17377914 0.0034126407
0.25375119 -0.44295132 -0.067321315 -0.63564843 0.75082648 0.17947307 0.0021702067
-0.26921403 -0.43051782 -0.064107805 0.68822408 0.70752764 0.16047503 0.0010469939
-0.25968528 -0.43975103 -0.065034732 0.65032917 0.73958355 0.17345925 0.0016012683
0.25982609 -0.43797654 -0.063696235 -0.65972358 0.72997379 0.17861456 0.0010710998
0.26320225 -0.434306 -0.065205559 -0.6746375 0.71551597 0.18138672 0.00039631195
-0.27463269 -0.42516214 -0.064408019 0.69512743 0.70125556 0.15823562 0.00097407179
0.26774102 -0.42880744 -0.069428824 -0.68536502 0.7052663 0.18131284 0
0.27477208 -0.42287669 -0.06590613 -0.68576086 0.70490032 0.18123899 1.9481055e-05
-0.28562266 -0.41405281 -0.066962034 0.69729096 0.69440556 0.17772526 0.00079923728
0.27837679 -0.41899583 -0.067369118 -0.68803847 0.702411 0.18226862 0
0.28584859 -0.41195261 -0.066507168 -0.7111702 0.67824543 0.18498679 0.00078550336
-0.29514107 -0.40515935 -0.063106664 0.75574607 0.64095479 0.13425657 0.0021053483
0.2914539 -0.40652403 -0.066423923 -0.74042237 0.64672381 0.183093 0.0018376722
-0.30169752 -0.39655265 -0.063593432 0.79789376 0.5868699 0.13765615 0.0014602324
0.29955661 -0.39742845 -0.064128585 -0.79089212 0.58431679 0.18183383 0.001940483
0.30168763 -0.39242628 -0.068150103 -0.8041324 0.56219083 0.19316444 0.0013710265
-0.31191927 -0.38030112 -0.061468787 0.8419283 0.52316391 0.13212173 0.00092353951
0.30614871 -0.3864255 -0.064989761 -0.82336527 0.53208798 0.19736296 0.00049162837
-0.31502211 -0.37505236 -0.062690377 0.84062797 0.52476871 0.13402364 0.0010264389
0.31281868 -0.37602121 -0.063973889 -0.83377087 0.51504791 0.19887619 0
-0.32245809 -0.36291394 -0.063013598 0.84319973 0.52140796 0.13095044 0.00075605733
-0.318903 -0.36790049 -0.067689903 0.8373183 0.52326918 0.15838993 0.0011429099
0.31825858 -0.36687142 -0.064866155 -0.83370304 0.51515734 0.19887744 0
0.32097119 -0.36371526 -0.061668217 -0.8337996 0.5150342 0.19879156 0
-0.32771048 -0.35454667 -0.062019639 0.86083251 0.49461654 0.11967378 0.00069472298
0.32711238 -0.35186264 -0.066620529 -0.85449672 0.48033553 0.19777046 0.00072482933
-0.33261353 -0.34553152 -0.068214901 0.87113404 0.46572971 0.15563194 0.001774592
