# .PCD v0.7 - Point Cloud Data file format
VERSION 0.7
FIELDS x y z normal_x normal_y normal_z curvature
SIZE 4 4 4 4 4 4 4
TYPE F F F F F F F
COUNT 1 1 1 1 1 1 1
WIDTH 585
HEIGHT 1
VIEWPOINT 0 0 0 1 0 0 0
POINTS 585
DATA ascii
-0.16720098 -0.26599851 0.22344556 0.39371863 0.64596438 -0.65399969 0.0038369801
-0.15613908 -0.26819789 0.22841147 0.36945039 0.59362739 -0.71492171 0.0069408268
0.16502009 -0.26732436 0.22379655 -0.37365565 0.67289579 -0.63842982 0.0012346918
0.18267733 -0.26050439 0.22034785 -0.43729252 0.65452975 -0.6167382 0.0015921012
-0.19346513 -0.25216874 0.22133169 0.46367311 0.62247014 -0.63050634 0.0020275107
0.17913759 -0.25617734 0.22755586 -0.37016284 0.61647701 -0.69493562 0.0076867761
0.183671 -0.25525695 0.22571987 -0.42634663 0.61245543 -0.66567779 0.0059933863
-0.19452506 -0.24638832 0.22635901 0.47924295 0.56472254 -0.67187405 0.0050861351
0.19469041 -0.24748881 0.22462332 -0.49569556 0.59291494 -0.63461626 0.0015507351
-0.21350397 -0.23144901 0.22306788 0.54598379 0.54141778 -0.63935006 0.0013242743
0.19884154 -0.23968145 0.22818086 -0.49176905 0.52063245 -0.69792914 0.0065158219
0.20563829 -0.23424199 0.22709911 -0.52000266 0.51790607 -0.67924255 0.004888664
0.21274856 -0.23215434 0.22257915 -0.52937424 0.54655921 -0.64887285 0.0032815167
-0.2154109 -0.22681332 0.22550139 0.54552299 0.52922106 -0.64986908 0.0019282426
0.21736819 -0.22598781 0.22416636 -0.51363993 0.53404629 -0.67154193 0.0044934275
0.22197041 -0.22359321 0.22222202 -0.53444719 0.55430114 -0.63805664 0.0019127118
-0.23110503 -0.21525507 0.22128053 0.55146039 0.53420055 -0.64071935 0.0014477926
-0.22318879 -0.21564886 0.22836646 0.52397001 0.51957572 -0.67490482 0.0052134669
0.2249646 -0.21534398 0.22724999 -0.50018817 0.53017551 -0.68463552 0.0042581321
0.2334712 -0.21256515 0.22210693 -0.54400456 0.55074716 -0.63303775 0.001454554
-0.23714632 -0.20742297 0.22274034 0.55170155 0.53489518 -0.63993156 0.0014221451
0.2329815 -0.20702134 0.22776724 -0.53027683 0.51279598 -0.67516422 0.0049973987
0.24463874 -0.2011745 0.22263677 -0.58529317 0.50242132 -0.63639987 0.0023820358
-0.24759093 -0.1908748 0.22800642 0.54670852 0.45462665 -0.70315307 0.0069427462
-0.23898053 -0.19811946 0.22949846 0.52158898 0.49168471 -0.69727409 0.0062426338
0.24989963 -0.19818859 0.22064795 -0.60327435 0.48978668 -0.62941962 0.0018357433
-0.25567248 -0.18339184 0.22542234 0.62142771 0.42430761 -0.65862781 0.0040221931
0.25388291 -0.18481851 0.22521898 -0.627002 0.40303496 -0.66665691 0.0038614846
-0.26265916 -0.17307295 0.22400318 0.66913253 0.39046028 -0.63229924 0.0012405495
0.25820839 -0.17757685 0.22522593 -0.63283259 0.37750623 -0.67602658 0.005187728
0.26284596 -0.17408195 0.22236264 -0.64862597 0.39610553 -0.64991128 0.0027999913
-0.27293152 -0.16044664 0.22029445 0.68834615 0.38285547 -0.61611784 0.00026403819
-0.26756254 -0.16400969 0.22416799 0.66159451 0.37474564 -0.64950627 0.0025612819
0.25979334 -0.16820905 0.22974342 -0.61397111 0.3910118 -0.68567425 0.0053945412
0.26549184 -0.1646539 0.22572796 -0.62335569 0.38551432 -0.68029875 0.0049097706
-0.27097285 -0.15598845 0.22537732 0.67596185 0.37472501 -0.63455242 0.0022692422
-0.2689544 -0.15441139 0.22869237 0.60972673 0.35710686 -0.70760721 0.0094733378
0.26870006 -0.15636884 0.22769256 -0.631024 0.3890034 -0.6711818 0.0037785079
0.27699232 -0.15115181 0.2218788 -0.66973025 0.39253417 -0.6303795 0.0010939309
-0.28075877 -0.1424132 0.22283003 0.68768829 0.36759594 -0.62606549 0.0010030473
-0.27678573 -0.14579238 0.22522318 0.65307081 0.37219495 -0.65952206 0.0049916813
0.2779398 -0.14273623 0.22647262 -0.66243899 0.36489108 -0.65423942 0.0026443612
0.28008479 -0.14430167 0.22300866 -0.67387694 0.38389772 -0.6312784 0.0012570826
-0.28074342 -0.13913225 0.22493866 0.68624467 0.36742371 -0.62774843 0.0010439649
0.28352064 -0.13507563 0.22535002 -0.66848332 0.33366603 -0.6646781 0.0028899577
-0.29093885 -0.12436649 0.22268145 0.69539344 0.3285813 -0.63911051 0.0012633122
-0.28753164 -0.12612088 0.22546262 0.67523408 0.31335306 -0.66773409 0.0039458289
0.2941747 -0.12267084 0.22028761 -0.71110392 0.29687995 -0.63733315 0.0015258422
-0.29297754 -0.11568093 0.22541857 0.68968457 0.27936214 -0.66805089 0.0029643509
0.2928836 -0.11563117 0.22443853 -0.70101768 0.26978907 -0.66014242 0.0030927337
-0.29610643 -0.10442114 0.22537911 0.69966823 0.20882767 -0.68326813 0.0052197878
0.29662246 -0.1057798 0.2232603 -0.7254312 0.20508097 -0.65703231 0.0035502957
-0.30214933 -0.090345114 0.22219856 0.75392073 0.18984589 -0.62893718 0.00052845076
-0.29738724 -0.096297361 0.2263469 0.69871175 0.19720219 -0.6876868 0.0068186685
0.29667383 -0.097947091 0.22600409 -0.71889478 0.19642417 -0.66678929 0.0035614953
-0.30296141 -0.082147032 0.22378552 0.72678292 0.17230824 -0.6649034 0.0034728558
-0.29993868 -0.087080263 0.22604978 0.70496267 0.15234397 -0.6926896 0.0051084985
-0.30249411 -0.075691536 0.22644126 0.72080517 0.18632735 -0.66762424 0.0032704019
0.30273157 -0.075914644 0.22627199 -0.71941817 0.2119204 -0.66145843 0.0036395849
-0.31011567 -0.062714763 0.22090405 0.76318574 0.19412847 -0.61632925 0.0001163656
-0.3070693 -0.060617793 0.22544388 0.71331114 0.18232234 -0.67671704 0.0056234659
0.30393511 -0.062643677 0.22951415 -0.68807262 0.16853955 -0.70579767 0.0068166847
-0.31079179 -0.056216404 0.22212082 0.76195049 0.19595546 -0.61727858 0.00024733946
-0.30968544 -0.057070602 0.22325349 0.74672562 0.18103947 -0.64001995 0.0023614846
0.30738917 -0.055582017 0.22769454 -0.69395363 0.14390847 -0.70549184 0.008106783
0.31182009 -0.058420144 0.22109434 -0.7614826 0.17301559 -0.62466788 0.001869261
-0.3116512 -0.044287294 0.22483951 0.75413615 0.11343195 -0.64684767 0.0027781355
-0.30771092 -0.048584085 0.22847265 0.6981495 0.14227141 -0.70167381 0.0083086593
0.31533146 -0.040425401 0.22107205 -0.77234393 0.073971406 -0.63088286 0.0012533483
-0.31257072 -0.034543358 0.2261935 0.7545535 0.089614391 -0.65009099 0.0025599911
-0.3133651 -0.024293132 0.22495878 0.77465343 0.01998095 -0.6320703 0.0009292168
0.31282651 -0.024317781 0.22467932 -0.7459566 0.022299264 -0.66562116 0.0033435014
-0.31209517 -0.014433462 0.22642232 0.76525843 -0.013766926 -0.64357597 0.0017475703
0.30932397 -0.014004844 0.22947577 -0.71847624 0.023286268 -0.69516158 0.0061273756
0.31013888 -0.016038407 0.22836725 -0.71962428 0.017634727 -0.6941396 0.0065904767
-0.31349513 -0.0045291567 0.22438806 0.75559616 -0.010923335 -0.65494668 0.0025536653
-0.30969292 -0.0066402359 0.2294108 0.69260168 -0.010760944 -0.72124004 0.0095981807
0.31224325 -0.0033706806 0.22586763 -0.74847507 0.011560125 -0.6630621 0.0032116345
-0.3144547 0.0043369429 0.22295155 0.7538563 -0.024348509 -0.65658808 0.0025774608
0.31411758 0.0064303926 0.22361135 -0.75272638 -0.0041704644 -0.65832025 0.0034482072
-0.31296593 0.01554772 0.22467436 0.74623162 -0.015234645 -0.66551197 0.0025537221
0.31612855 0.012094591 0.22109219 -0.77981472 0.00033591379 -0.6260103 0.00069659128
-0.3145124 0.025206996 0.22245312 0.76127893 -0.019374752 -0.64813501 0.0024778137
0.30954438 0.020921845 0.22989477 -0.71830982 -0.0083491383 -0.69567323 0.0046797707
0.31398341 0.025018916 0.22416367 -0.74815702 -0.023047527 -0.66312146 0.0028139262
-0.31523225 0.03887362 0.22123337 0.77324659 -0.073333107 -0.62985075 0.0023287446
-0.30960542 0.037233353 0.22863647 0.71204829 -0.033391055 -0.70133609 0.0067065274
0.3152988 0.035894118 0.22252814 -0.75960201 -0.080938347 -0.64533228 0.0025484406
-0.31377637 0.041268915 0.22309168 0.77142459 -0.077875026 -0.6315375 0.0022333916
-0.30905375 0.048691347 0.22806802 0.68139201 -0.10569824 -0.72424638 0.0087459087
0.30937472 0.041352734 0.22866894 -0.7182166 -0.10889854 -0.68724525 0.0043915403
0.31372473 0.041068904 0.22323337 -0.75336504 -0.10628432 -0.64895672 0.0023338387
-0.31172168 0.052539431 0.22332691 0.73760813 -0.12621278 -0.66332841 0.0041960911
-0.30586725 0.056516759 0.22927681 0.67174661 -0.13393259 -0.72857291 0.0086334767
0.31331074 0.051525299 0.22041929 -0.75811839 -0.16888314 -0.62986892 0.0011987484
-0.3110967 0.061024841 0.22107172 0.76063609 -0.1871596 -0.6216141 0.0011805966
-0.30757251 0.064371191 0.22431195 0.73055249 -0.19306338 -0.65499592 0.0032388424
0.30508462 0.066391818 0.22612089 -0.73701257 -0.17742446 -0.65217561 0.0025611261
-0.30348065 0.074687712 0.22576813 0.70576543 -0.21999976 -0.67342067 0.0042699268
0.3042753 0.073060438 0.2250189 -0.74585909 -0.18195927 -0.64076924 0.0020882725
-0.30297399 0.086071588 0.22232461 0.73417282 -0.2209475 -0.64200658 0.0017817713
-0.2990109 0.083156027 0.22836316 0.68266088 -0.20209858 -0.70223236 0.0076662465
0.29888165 0.080125086 0.2296143 -0.67865235 -0.18685706 -0.71029258 0.0086851427
0.30464026 0.084980398 0.22074775 -0.76403886 -0.19185472 -0.61598396 0.00029271544
-0.30068412 0.094884194 0.22204974 0.74473 -0.21200359 -0.6327967 0.0017784105
0.2976979 0.095692098 0.22614563 -0.72714657 -0.19154902 -0.65921676 0.0024597086
0.30121338 0.097912803 0.22097026 -0.75115997 -0.19349764 -0.63112384 0.0010840924
-0.29581782 0.10444475 0.22475274 0.73834395 -0.21455204 -0.63938695 0.0021834362
0.29652163 0.10569971 0.2244433 -0.72225565 -0.21245569 -0.6581865 0.0025154194
-0.29217052 0.11522588 0.22548223 0.69353384 -0.23376895 -0.68144184 0.0059825191
-0.28968716 0.11305982 0.22938773 0.67769927 -0.22313137 -0.70066828 0.0068799905
0.29354063 0.11651817 0.22435629 -0.71565229 -0.28672776 -0.63689011 0.0023272659
-0.28316599 0.12951669 0.22948685 0.65347815 -0.30434796 -0.69306463 0.0068243193
0.28786901 0.12487177 0.22587281 -0.66476554 -0.31744498 -0.67625105 0.0054213661
0.2937052 0.12053134 0.22196005 -0.7151041 -0.29264924 -0.63480896 0.0021633056
-0.2820445 0.13610572 0.22631693 0.66701794 -0.34857711 -0.65846878 0.004288015
0.27987289 0.13377088 0.22935204 -0.6464563 -0.34209624 -0.68195629 0.0047706282
0.28501642 0.1348449 0.22278118 -0.67148519 -0.36308521 -0.64596957 0.0023710718
-0.28181088 0.14062446 0.22354096 0.67747384 -0.37896228 -0.63041013 0.0015317096
0.27173617 0.14965516 0.22854032 -0.6308189 -0.35366234 -0.69064498 0.0058334628
0.28225827 0.14092696 0.22206138 -0.67309922 -0.38176948 -0.63339525 0.0011438903
-0.27149016 0.15391923 0.22620332 0.64716375 -0.38832906 -0.65603322 0.0025376871
-0.26595134 0.15922758 0.22886039 0.59776962 -0.38390049 -0.70376986 0.0053727753
0.26787961 0.1566398 0.2285023 -0.63471234 -0.33961779 -0.69411808 0.0067450972
0.27312499 0.15477809 0.22368591 -0.6653924 -0.36527398 -0.65102065 0.0027496915
-0.26701486 0.16351506 0.22478175 0.65353698 -0.39190364 -0.64753449 0.0021422985
0.26407042 0.16421305 0.22803497 -0.64977598 -0.3497099 -0.67490309 0.0047215815
0.27076903 0.16350195 0.22082213 -0.68095034 -0.37796071 -0.62725776 0.00074704824
-0.26426786 0.17430784 0.22061242 0.6609965 -0.40442902 -0.63207662 0.0010331174
-0.25561243 0.1775417 0.22816798 0.61450201 -0.37918052 -0.69181597 0.0046024891
0.25877544 0.17608349 0.22652923 -0.62324536 -0.38892531 -0.67845583 0.0038019596
0.26061857 0.17690103 0.22389887 -0.64908832 -0.39520723 -0.64999664 0.0024203004
-0.2534759 0.1855644 0.22517507 0.62726963 -0.41259643 -0.66052788 0.0037611988
0.25655487 0.18524662 0.22323056 -0.6145612 -0.43418396 -0.65863413 0.0035908667
-0.24783845 0.19498014 0.22489582 0.61559409 -0.45166698 -0.645787 0.0025898339
0.23964639 0.19696628 0.22992386 -0.52006948 -0.48036849 -0.70623922 0.0061023454
0.24585687 0.19946218 0.22180724 -0.58008635 -0.50571918 -0.63855147 0.0021999096
0.25344679 0.19355869 0.22005209 -0.61114299 -0.49078381 -0.62099558 0.0014640191
-0.24667022 0.20074704 0.22118652 0.59793693 -0.49778056 -0.62824047 0.002468826
0.23772044 0.20337272 0.22589362 -0.54803318 -0.5023483 -0.66880929 0.0040993863
0.2406996 0.20537333 0.22126761 -0.57183933 -0.53078902 -0.62551004 0.0010200867
-0.22565591 0.21663728 0.22540343 0.52795947 -0.54502696 -0.65130973 0.0032618558
-0.21943355 0.2181482 0.22965607 0.50024694 -0.51714528 -0.69448817 0.0081047229
0.22160402 0.21567827 0.22983024 -0.50256628 -0.48865616 -0.71319157 0.007380533
0.2350437 0.21037886 0.22202267 -0.56840503 -0.54583693 -0.61561167 0.00026767113
-0.22256844 0.22288258 0.22234505 0.5476684 -0.55602074 -0.62522018 0.00079774309
-0.21982627 0.22066213 0.22693367 0.52082145 -0.52679384 -0.67173904 0.0059928508
-0.20877931 0.22944471 0.22874664 0.50197685 -0.51757079 -0.6929211 0.0075458456
0.20839778 0.2291345 0.22998068 -0.50744259 -0.5081498 -0.69590646 0.005528125
0.21601522 0.22589779 0.22576796 -0.52344662 -0.5146063 -0.67910528 0.0056633018
0.22168149 0.22074217 0.22513998 -0.51851016 -0.52074683 -0.67821091 0.0057264916
-0.21016297 0.23528516 0.22199224 0.54431385 -0.56742007 -0.61786491 0.00030955716
-0.20487568 0.23607786 0.22606778 0.5113973 -0.53336626 -0.67379016 0.0058502327
-0.19918942 0.2380628 0.22938573 0.47444537 -0.5102253 -0.71733665 0.006743439
0.20847946 0.23507752 0.22448486 -0.51007336 -0.53461868 -0.67380118 0.0037867171
0.21397996 0.23269796 0.22148153 -0.54707927 -0.53600556 -0.64296377 0.0021122934
-0.19516701 0.24610254 0.2254923 0.4676604 -0.57001197 -0.67555922 0.0049023135
0.18947691 0.24832666 0.2283328 -0.42912495 -0.57986563 -0.69253707 0.0054098847
0.19698264 0.246801 0.22458674 -0.47056317 -0.58772641 -0.65813977 0.0029963842
0.20176755 0.24527225 0.22150145 -0.51760817 -0.58348125 -0.62580454 0.0009123683
-0.19124761 0.25459236 0.22108163 0.47385544 -0.61185753 -0.63331783 0.00205698
-0.1786782 0.25557491 0.2285379 0.37611052 -0.5865823 -0.71726006 0.0061097965
0.17501512 0.25737935 0.2278807 -0.37275153 -0.62607539 -0.6848985 0.006010246
0.18633008 0.2504676 0.22804205 -0.41341075 -0.5870136 -0.69606507 0.0061481129
0.19371235 0.25257891 0.22070448 -0.46902207 -0.6266219 -0.62238508 0.0018233381
-0.17527977 0.26284766 0.22238074 0.3880316 -0.66870344 -0.63424528 0.001568302
-0.16697977 0.26846492 0.22124211 0.37308678 -0.67157859 -0.64014721 0.0016636115
0.15807226 0.26719508 0.22823918 -0.36228967 -0.60379273 -0.71005678 0.0091387313
0.16389802 0.26613307 0.22551559 -0.37863529 -0.6440866 -0.66467112 0.0049898047
0.17172495 0.26289159 0.22389644 -0.40227199 -0.66092038 -0.63353103 0.0014617136
-0.15543115 0.27259257 0.22387871 0.36934957 -0.67154264 -0.64234835 0.0016080445
-0.14680326 0.27646416 0.22494686 0.37665924 -0.66730958 -0.64251512 0.0016079912
-0.1378291 0.2789911 0.22777459 0.36563984 -0.6231342 -0.6913836 0.0064975331
0.15748838 0.2731978 0.22188374 -0.39497179 -0.67552555 -0.62262541 0.000968504
0.16073479 0.27203664 0.2210061 -0.40648949 -0.67960978 -0.6106528 6.7748374e-06
-0.13501334 0.2837483 0.22412491 0.35849747 -0.65354913 -0.66659814 0.0048717964
-0.12267477 0.2875801 0.22760355 0.29299974 -0.65307993 -0.69831061 0.0074254004
0.13438462 0.28721961 0.22165674 -0.35390013 -0.69451952 -0.62641627 0.0017145496
-0.11277018 0.29169738 0.22831355 0.24384083 -0.66879475 -0.70232129 0.0055778371
-0.1005979 0.29647499 0.22613224 0.20693514 -0.71468461 -0.66813457 0.0036275124
-0.090152837 0.29905468 0.22619145 0.1995268 -0.6970433 -0.68870878 0.0071509155
0.086553425 0.2979545 0.22847611 -0.17423801 -0.67092627 -0.72076285 0.010454084
0.094835877 0.2961486 0.22778153 -0.19256933 -0.69367814 -0.69406611 0.0077937408
0.10622413 0.29413551 0.22623442 -0.22236286 -0.70453012 -0.67393774 0.0044119265
0.12328046 0.29025191 0.22501159 -0.27186903 -0.70615172 -0.6537866 0.0028267992
-0.093834274 0.30105701 0.22247177 0.19472806 -0.73269266 -0.65210623 0.0036450077
-0.075655721 0.30314273 0.22562881 0.18305379 -0.72755069 -0.66118181 0.0041670562
-0.065467119 0.30675188 0.22429825 0.18186285 -0.73908865 -0.64859384 0.0032454131
-0.05562643 0.30737603 0.22664869 0.16310091 -0.69801199 -0.69726419 0.0068054614
-0.0043959632 0.30924204 0.22995603 0.005699981 -0.67671013 -0.73622751 0.012191679
0.034153417 0.30935657 0.22902498 -0.048457026 -0.71756262 -0.69480634 0.0046973685
0.056177039 0.30800813 0.22670142 -0.17098436 -0.69054651 -0.70278722 0.0065662409
0.076806396 0.30183917 0.22707674 -0.20358649 -0.70967197 -0.67447633 0.0043547079
0.083393335 0.30342314 0.22271925 -0.20621544 -0.72849214 -0.65327978 0.0026164672
0.10073476 0.30016327 0.22060835 -0.21216665 -0.74831867 -0.62849385 0.0012263301
-0.057398215 0.31076771 0.22177404 0.18126498 -0.75798666 -0.62657738 0.00090605795
-0.043013852 0.31211552 0.22465654 0.12684534 -0.73866248 -0.66203326 0.0032795102
-0.03479084 0.31241798 0.22588803 0.086849302 -0.74795616 -0.6580416 0.0042239297
-0.014813081 0.31324533 0.22492369 -0.0013132144 -0.74617612 -0.66574728 0.0041693342
-0.0038215751 0.31521177 0.22212541 -0.016446643 -0.76302969 -0.64615417 0.0027041626
0.0046285451 0.31166163 0.22660404 -0.0088774813 -0.72785485 -0.68567371 0.0063191308
0.015661933 0.31210566 0.22579895 -0.011669178 -0.7508204 -0.66040331 0.0032162489
0.026164588 0.31385022 0.22330114 -0.018044055 -0.74890262 -0.66243428 0.0033772015
0.034703404 0.31154525 0.22614713 -0.052873515 -0.73680419 -0.67403561 0.003495428
0.044082951 0.31249452 0.22438712 -0.08070004 -0.73856646 -0.66933328 0.0044379462
0.051943213 0.31185713 0.22337013 -0.13674338 -0.74075472 -0.65771091 0.0037538107
0.062455423 0.31129152 0.22031347 -0.19231084 -0.75452489 -0.62746227 0.0008440793
-0.064902276 -0.30214101 0.23096456 0.15974781 0.64562571 -0.74675834 0.0093176113
-0.05543758 -0.30236313 0.23407848 0.14552082 0.64452863 -0.75060415 0.0092559801
-0.043767754 -0.30443868 0.234954 0.075259581 0.63957298 -0.76503754 0.01129003
-0.038025729 -0.3058238 0.23357341 0.071086764 0.67554957 -0.73387969 0.0067069079
-0.023289425 -0.30457938 0.23520088 -0.014641419 0.66415834 -0.74744856 0.010413028
-0.016364565 -0.30482101 0.23521399 -0.0095772119 0.64084679 -0.76760906 0.0093015172
-0.0088741081 -0.30471545 0.23458649 0.0021482869 0.63838404 -0.76971501 0.011857941
0.007480789 -0.3074466 0.23236991 0.017876657 0.67732197 -0.73546946 0.0094355913
0.015512413 -0.30402818 0.23627289 0.01541626 0.63817209 -0.76973933 0.0096265133
0.02589958 -0.3053951 0.23516145 8.0844642e-05 0.65502399 -0.7556082 0.011364252
0.036557592 -0.30502895 0.23500046 -0.098821521 0.64504468 -0.75772786 0.0093714623
-0.091426834 -0.29329324 0.23260111 0.20133442 0.66208363 -0.72187942 0.0060583167
-0.085183248 -0.29288006 0.23536035 0.196374 0.63228172 -0.74943781 0.0078460546
-0.072866574 -0.29431587 0.2379677 0.1636999 0.58947742 -0.79102385 0.01176125
-0.065942906 -0.29833853 0.23538218 0.16734958 0.59696525 -0.78461874 0.012794322
-0.053211272 -0.29898849 0.23836519 0.081543043 0.55593824 -0.82721418 0.011668266
-0.0062301178 -0.29895616 0.2395072 0.01308828 0.50777256 -0.86139172 0.013782917
0.038149733 -0.29980123 0.23919027 -0.079481617 0.53766191 -0.83940595 0.014396203
0.046142671 -0.29703873 0.23941332 -0.1390221 0.51259077 -0.84730369 0.012595456
0.063163668 -0.29230225 0.23954865 -0.12528019 0.52471191 -0.8420108 0.008808611
0.073952287 -0.29964465 0.23061666 -0.15343019 0.64891315 -0.74523211 0.0084884753
0.08242397 -0.29632682 0.23212558 -0.14120489 0.64108378 -0.75436908 0.011249313
0.094064482 -0.29407459 0.23126851 -0.14870913 0.66715449 -0.72992492 0.0087965159
-0.13273056 -0.28039178 0.23044416 0.29543191 0.59029156 -0.75118309 0.0080525894
-0.12818559 -0.28233743 0.23131312 0.2841076 0.61141557 -0.73854852 0.0086077927
-0.11821385 -0.28669506 0.23130918 0.22966135 0.63523906 -0.73737848 0.0083110528
-0.10485713 -0.28032714 0.23971915 0.14932252 0.50582343 -0.8496148 0.011434145
-0.077906564 -0.28778061 0.23978281 0.16962427 0.50008708 -0.84919995 0.013213376
0.078388833 -0.28919202 0.23933594 -0.091324888 0.50567579 -0.8578763 0.011663345
0.086521603 -0.28880638 0.23884428 -0.10814916 0.57921541 -0.80796862 0.016218647
0.095385276 -0.28622338 0.2389493 -0.1485403 0.57076573 -0.80756557 0.012331144
0.10472798 -0.28519964 0.23817576 -0.19693981 0.55088937 -0.81100893 0.010925931
0.11675387 -0.28533533 0.23394619 -0.24892096 0.58163142 -0.77443087 0.011352111
0.1224861 -0.28343397 0.23246881 -0.30533418 0.61346895 -0.72830409 0.0078742085
-0.14654735 -0.27155459 0.23108774 0.35371614 0.56291556 -0.74700129 0.0089658303
-0.13490842 -0.27375752 0.23643772 0.28422511 0.51393777 -0.8093726 0.0095574521
-0.11975229 -0.27936888 0.23875499 0.21334544 0.54879165 -0.80827683 0.010858976
-0.1089391 -0.27938896 0.23965347 0.13938318 0.51814359 -0.84385997 0.010732187
0.12751147 -0.27645451 0.2372534 -0.32736975 0.52275884 -0.78711635 0.012347894
0.13409777 -0.27410597 0.23574343 -0.30324686 0.55406219 -0.77527827 0.013198674
0.14437951 -0.27173507 0.23190382 -0.3241266 0.58555114 -0.74301541 0.01187082
-0.16408814 -0.26179737 0.23026152 0.35329351 0.59833574 -0.71915096 0.0089501096
-0.15939443 -0.26090783 0.23441771 0.33287969 0.55280697 -0.76393425 0.010921797
-0.14808308 -0.26991838 0.23189454 0.34441182 0.56713563 -0.74815607 0.0091961417
-0.13036588 -0.26939899 0.23978227 0.27891728 0.46971974 -0.83759689 0.011343204
0.13189086 -0.26827192 0.23965041 -0.25142521 0.46015137 -0.8514964 0.012216949
0.14789918 -0.26699221 0.23508845 -0.2953369 0.57004887 -0.76669437 0.012132803
0.15761746 -0.26168334 0.23497024 -0.30170929 0.55419725 -0.77578151 0.010922291
-0.17675234 -0.25077504 0.23413664 0.36966601 0.55750138 -0.74332976 0.010413626
-0.16528182 -0.25319576 0.23855457 0.26022604 0.52036083 -0.81333077 0.015601631
-0.15508039 -0.25842661 0.23849912 0.2947877 0.49509516 -0.81730103 0.011863329
0.15347387 -0.25574291 0.23978636 -0.2176532 0.42776838 -0.87729204 0.011038737
0.16737059 -0.25360256 0.23800202 -0.29000506 0.4846766 -0.82521856 0.014272791
0.17327093 -0.25472355 0.23295866 -0.33927771 0.57780296 -0.7423169 0.011375928
0.18426245 -0.25006521 0.23128448 -0.41626075 0.5655095 -0.71198738 0.008111042
-0.19522163 -0.24219032 0.23046777 0.45212665 0.52885777 -0.71825546 0.0092351176
-0.18290414 -0.24437056 0.23705956 0.36750987 0.50697863 -0.77968526 0.014028001
-0.17535678 -0.2437633 0.23944765 0.28084981 0.44326636 -0.85125691 0.013604678
-0.16680874 -0.24753739 0.23979875 0.22586152 0.43655774 -0.87086391 0.014454978
0.16951045 -0.2480664 0.23945153 -0.30544898 0.45678946 -0.83549041 0.013265886
0.17538819 -0.24680415 0.23809053 -0.33165643 0.47147736 -0.81713712 0.012407003
0.18667385 -0.24518912 0.2340505 -0.40765899 0.51404887 -0.75469714 0.011746918
-0.19371343 -0.23727517 0.23636794 0.39689749 0.46060574 -0.79392362 0.010992172
-0.18554427 -0.23668073 0.23970692 0.3103711 0.36044094 -0.87963176 0.011399472
0.19523416 -0.23687525 0.23410928 -0.44647816 0.45747766 -0.76900673 0.0085359318
-0.20330706 -0.22011325 0.23945618 0.35338458 0.35617283 -0.86502045 0.010147696
0.1954971 -0.22833833 0.23920062 -0.37564367 0.39427781 -0.83871138 0.010902247
0.20580542 -0.22624227 0.23447022 -0.41696444 0.48124009 -0.77106977 0.011216565
-0.2210779 -0.21484964 0.23108047 0.46888512 0.49677533 -0.7303158 0.012788818
-0.21271065 -0.2142127 0.23864833 0.40816262 0.40508047 -0.81811553 0.013687462
-0.20748036 -0.2160054 0.23941438 0.37004563 0.39049354 -0.8429597 0.013797874
0.21941234 -0.211584 0.23584884 -0.39950517 0.45557058 -0.79551935 0.012668678
0.22189635 -0.21371791 0.23157699 -0.47629416 0.50818974 -0.7175563 0.0052327304
-0.23599385 -0.20032492 0.23029636 0.51185066 0.47785312 -0.71390849 0.0095944591
-0.22497651 -0.20296104 0.23791018 0.41712052 0.39933246 -0.81642157 0.015378962
-0.21799636 -0.20526032 0.23939283 0.36519706 0.34961221 -0.8627876 0.013768398
0.2164644 -0.20478818 0.23990734 -0.32857147 0.4060314 -0.85274804 0.012798343
0.22562648 -0.20475039 0.23599043 -0.46407032 0.47725442 -0.74623513 0.008263546
0.23380837 -0.20150405 0.23220217 -0.51225042 0.45404175 -0.72900319 0.011254467
-0.23554675 -0.19431956 0.23529802 0.47791794 0.42671189 -0.76779646 0.0098185586
-0.22615242 -0.19708765 0.23934186 0.38026798 0.34270447 -0.85904014 0.013619688
0.22841465 -0.19648235 0.23918775 -0.40811342 0.37994027 -0.83011377 0.014430956
0.23469453 -0.19461466 0.23693706 -0.47520605 0.39444545 -0.78650624 0.011180895
0.24047439 -0.1903646 0.23656298 -0.49976858 0.38917187 -0.77380663 0.0098536825
-0.24463041 -0.18163715 0.23831421 0.47398391 0.3364782 -0.8137086 0.011028654
0.2452876 -0.1846083 0.23502286 -0.54329336 0.37173316 -0.7527594 0.0079206536
-0.25290257 -0.17269427 0.23541024 0.51473916 0.31512383 -0.79733348 0.010183833
-0.24817634 -0.17513414 0.23808448 0.47606346 0.31960055 -0.81927967 0.012300295
0.24496332 -0.17433473 0.23929331 -0.42128947 0.23679604 -0.87546718 0.011119103
0.25178534 -0.17293198 0.23556988 -0.54166514 0.33550838 -0.77073532 0.012742874
-0.26400638 -0.16117573 0.23004396 0.6211431 0.35167798 -0.70035976 0.0088511622
-0.25715873 -0.1668822 0.23424365 0.55594224 0.32865164 -0.7634896 0.01339421
0.24824789 -0.16583034 0.23976593 -0.42491096 0.24000311 -0.87283975 0.012543166
0.25409594 -0.16645516 0.23608474 -0.51611698 0.31926429 -0.79479152 0.013554755
0.26091009 -0.16406465 0.23127487 -0.6011135 0.34977704 -0.71855307 0.008722499
-0.26434115 -0.15246885 0.23521 0.54009348 0.28521362 -0.79180312 0.012292601
-0.25576812 -0.15532787 0.23950404 0.47043034 0.2280589 -0.85245788 0.013072288
0.25649858 -0.15414684 0.23943502 -0.45304194 0.28689232 -0.84406501 0.012120289
0.26416463 -0.15477441 0.23386331 -0.56217319 0.33371502 -0.75670052 0.010428349
-0.27166328 -0.14556277 0.23123182 0.62435377 0.32927606 -0.70834994 0.008169909
-0.26658106 -0.14184575 0.23825324 0.51803839 0.29185632 -0.80402493 0.011826353
0.26703566 -0.14372589 0.23806515 -0.54232663 0.30035815 -0.78464437 0.011393584
0.27262491 -0.14513135 0.23083685 -0.59974647 0.33588761 -0.72628063 0.010324319
-0.27314088 -0.13514423 0.23595646 0.57524115 0.2831119 -0.76742768 0.00723982
0.26972052 -0.13407749 0.23911585 -0.50851291 0.28360066 -0.81301004 0.011993806
0.27219534 -0.13530138 0.23750353 -0.53108913 0.29026011 -0.7960487 0.012371173
-0.28239819 -0.12322056 0.23318596 0.56434089 0.2776632 -0.77744609 0.0096878083
-0.27225202 -0.12811691 0.239149 0.49946204 0.23674063 -0.83336157 0.011555195
0.27188629 -0.12723 0.23962195 -0.49778178 0.23684038 -0.83433801 0.013381655
0.28309757 -0.12327161 0.23373254 -0.62584549 0.26074076 -0.73507255 0.0086565223
0.28792274 -0.11406193 0.2312513 -0.64167821 0.23929615 -0.72868806 0.0077876421
-0.29116207 -0.10568394 0.23125696 0.6221264 0.19882415 -0.75725013 0.007955214
-0.28333119 -0.10505201 0.23875034 0.52792734 0.14860085 -0.83618814 0.0091585563
0.27850381 -0.10978019 0.23984328 -0.48675665 0.1761615 -0.85559046 0.010635921
0.28570247 -0.10594817 0.2363579 -0.59178329 0.2218775 -0.77495998 0.01080125
-0.29367769 -0.093890227 0.23182838 0.62200582 0.15896308 -0.76670688 0.010276417
-0.28635025 -0.093175448 0.23907632 0.50946921 0.14199355 -0.84869254 0.009690756
0.28753212 -0.096873865 0.2372306 -0.5494293 0.18112534 -0.81567222 0.01068919
0.29336354 -0.093365289 0.23181759 -0.65379661 0.20276685 -0.72899628 0.010238985
-0.2860924 -0.085103735 0.23975411 0.49958089 0.15308103 -0.85263425 0.010634203
0.28803617 -0.08620955 0.23901333 -0.53533292 0.15572815 -0.83016104 0.0065046703
0.29315719 -0.080760263 0.2365973 -0.57118535 0.18557452 -0.7995683 0.011250333
-0.29369375 -0.074858658 0.23640206 0.56511408 0.13761219 -0.81345487 0.011420006
0.29756829 -0.075370781 0.23297222 -0.64005852 0.19191593 -0.74397129 0.011393488
-0.29515752 -0.065554373 0.23741537 0.55147392 0.14340074 -0.82177413 0.0097498251
0.29641455 -0.063745007 0.23758192 -0.57097924 0.12965147 -0.81066221 0.01568898
0.30213428 -0.06311778 0.23161307 -0.67864412 0.17699096 -0.71282285 0.006791051
-0.30053559 -0.051496629 0.23665775 0.60526538 0.1370952 -0.78412932 0.015969083
-0.29733422 -0.057704162 0.2373307 0.57473952 0.13896917 -0.80645025 0.012126478
0.29695025 -0.05618082 0.23873961 -0.56193197 0.11203944 -0.81956059 0.012879649
0.30197397 -0.052741867 0.23553543 -0.60140103 0.088191859 -0.79406482 0.013557528
-0.30567616 -0.046061724 0.23186326 0.68075752 0.14889821 -0.7172159 0.009080057
0.30554557 -0.045146693 0.23345542 -0.64551377 0.078555778 -0.75969797 0.0096507631
-0.3057296 -0.038027603 0.23436169 0.66224796 0.090946406 -0.74374485 0.0091581512
0.29882261 -0.035730422 0.2394086 -0.52572185 0.048032247 -0.84929931 0.010578237
0.30525264 -0.034205168 0.23439902 -0.65771931 0.058667686 -0.75097501 0.0083429376
-0.30600071 -0.022151163 0.2336456 0.65440422 0.019175362 -0.75590169 0.010140955
0.29876539 -0.020448063 0.23949829 -0.49785748 0.0057108756 -0.86724007 0.012014341
0.30579388 -0.022464057 0.23392798 -0.67297226 0.049950667 -0.73797917 0.010890972
-0.30521315 -0.014620732 0.23544002 0.59896487 0.0020352681 -0.80077273 0.012742848
0.29730934 -0.011104166 0.2399873 -0.5259645 0.0070198579 -0.85047752 0.011477433
0.30294061 -0.014215291 0.23783225 -0.61011839 0.010957637 -0.79223442 0.014069438
-0.30532193 -0.003718883 0.23426402 0.64297307 0.029954052 -0.76530278 0.01236454
-0.29827604 -0.0039063506 0.23976293 0.49943063 0.013252574 -0.86625254 0.011137242
0.30453858 -0.0049211802 0.23583815 -0.65265834 -0.0061905766 -0.75762707 0.0099275522
-0.30643857 0.0016760532 0.23350477 0.66762519 -0.022386312 -0.74416095 0.0090023121
-0.29897234 0.0017637863 0.2395234 0.53719181 -0.0099719744 -0.84340119 0.012551175
0.3054952 0.0037435703 0.23485017 -0.65747619 0.0034476882 -0.75346738 0.009516038
-0.30384502 0.015419343 0.23658197 0.5883913 -0.0065412051 -0.80854982 0.012574111
0.29881674 0.014435364 0.23964748 -0.5231154 -0.0050984453 -0.85224658 0.013804069
0.30640915 0.014930388 0.2338798 -0.67449349 -0.0070908559 -0.73824686 0.0090845376
-0.30762315 0.025801759 0.23146443 0.69924188 -0.028944213 -0.71429902 0.0058839503
0.29843289 0.021620519 0.23979869 -0.53661805 0.010265355 -0.84376281 0.013335227
0.30564636 0.024473676 0.23500948 -0.62649965 -0.015202391 -0.77927339 0.01218866
-0.30400291 0.036954701 0.2358222 0.64988798 -0.068830781 -0.75690687 0.008128575
0.29858691 0.03263383 0.2398037 -0.50245774 -0.062580585 -0.86233395 0.01074291
0.30540067 0.033340886 0.23479055 -0.64769411 -0.074548617 -0.75824457 0.01102572
-0.30483487 0.046095427 0.23426478 0.6490916 -0.09345606 -0.75494778 0.0088654449
0.29790881 0.044205531 0.23929986 -0.53534716 -0.081810877 -0.84066075 0.010158558
0.3031368 0.046064693 0.23508836 -0.62274563 -0.11336221 -0.77416849 0.011222992
-0.30039454 0.053916901 0.23710409 0.59563082 -0.13109277 -0.79248893 0.011894897
-0.29771221 0.055366516 0.2387494 0.56612045 -0.11453538 -0.81632674 0.010894833
0.2955316 0.056655552 0.23880431 -0.50881737 -0.11856695 -0.85267037 0.011661226
0.30520615 0.050918929 0.23090898 -0.67979187 -0.14020677 -0.71987855 0.0080531407
-0.30087793 0.065714128 0.23226494 0.60881013 -0.15118487 -0.77877676 0.012540721
-0.2948595 0.063890815 0.23816991 0.55050826 -0.14858849 -0.82149988 0.011108358
0.29289189 0.063947558 0.23931558 -0.45510569 -0.12273685 -0.88193792 0.0073049408
0.30003008 0.065834515 0.23272009 -0.63079304 -0.16007838 -0.75925958 0.011667549
-0.30082917 0.070323169 0.23067378 0.63630372 -0.2013163 -0.74470752 0.010215815
-0.29622799 0.076832756 0.23413664 0.6067636 -0.1937782 -0.77090073 0.011749515
-0.28936297 0.074267492 0.23962219 0.48141274 -0.15321749 -0.86299837 0.011136508
0.29504976 0.073355153 0.23585291 -0.56885707 -0.18004647 -0.80248672 0.011272955
-0.29371989 0.085237801 0.23428288 0.63437235 -0.17601827 -0.75272125 0.011799344
-0.28649119 0.086183175 0.23946957 0.50026035 -0.15321696 -0.85221136 0.010413031
0.28806892 0.083897404 0.23925832 -0.55353218 -0.15117097 -0.81899297 0.012989864
0.2948404 0.085179485 0.23313375 -0.65308607 -0.16765352 -0.73849231 0.010032874
-0.29278544 0.096100308 0.23156525 0.66405785 -0.18822658 -0.72360069 0.0091073271
-0.28780621 0.09932664 0.23668176 0.58858085 -0.14356247 -0.79558927 0.011709602
0.29351208 0.092448898 0.2324992 -0.67902666 -0.1768764 -0.71248692 0.0073782103
-0.28624219 0.10719632 0.23583046 0.63648665 -0.17322186 -0.75158441 0.011105337
0.28527632 0.10498875 0.23773298 -0.55699378 -0.1736373 -0.81216258 0.0091194976
-0.28382641 0.11683395 0.23541835 0.6250627 -0.23067918 -0.74571025 0.0075709182
0.27981278 0.11388867 0.23924592 -0.51339537 -0.1892717 -0.83701938 0.011864532
0.28515702 0.11375807 0.23543848 -0.60385561 -0.22829042 -0.76370275 0.011167825
0.29012805 0.11236976 0.23043504 -0.66332591 -0.25073791 -0.70507389 0.0058034533
-0.281793 0.12550692 0.23372662 0.61784548 -0.28524619 -0.73273569 0.0098449579
-0.27576154 0.12507696 0.23881979 0.52520937 -0.25406855 -0.81216025 0.014307872
0.26993251 0.12978591 0.23952007 -0.46770284 -0.25541323 -0.84617853 0.011506096
0.27915171 0.12715824 0.23439182 -0.59910131 -0.31211779 -0.73733312 0.0094727846
0.2822246 0.12374578 0.23305 -0.61992133 -0.30702662 -0.72210258 0.0087660803
-0.27533862 0.13400415 0.23526859 0.56280684 -0.30044711 -0.77005196 0.01235201
-0.26791835 0.13961254 0.23872027 0.43825036 -0.2683045 -0.85787487 0.013691157
0.26602376 0.13715239 0.23946838 -0.4497219 -0.2444701 -0.85906029 0.01048991
0.27591604 0.13443236 0.23345876 -0.61516541 -0.32763347 -0.71709687 0.0066252849
-0.27003112 0.14108026 0.23647685 0.57695025 -0.33012134 -0.74709326 0.012518323
-0.26309362 0.14498766 0.2391423 0.44654101 -0.28523096 -0.84808278 0.01301439
0.26017389 0.14920995 0.23923747 -0.47635311 -0.25853983 -0.84038383 0.012664727
0.27098894 0.14756869 0.23072523 -0.61323094 -0.35842139 -0.70390475 0.0069786762
-0.26497999 0.15332836 0.23391919 0.570427 -0.36598632 -0.73530066 0.010450202
-0.25714505 0.15011819 0.2398974 0.38414305 -0.23945613 -0.89168096 0.010881687
0.25620291 0.15556662 0.23935251 -0.47850925 -0.27102742 -0.83520836 0.01366347
0.26171452 0.15493606 0.23664366 -0.52213156 -0.28718802 -0.80305773 0.011595968
-0.25700301 0.16397183 0.23572958 0.55726427 -0.34876052 -0.7535401 0.012290961
-0.24922229 0.16635326 0.23942846 0.45694497 -0.27185547 -0.84693325 0.013138385
0.24926704 0.16573504 0.2396923 -0.46428227 -0.27292374 -0.84258801 0.012822707
0.25680831 0.16350521 0.23632182 -0.5368647 -0.28627178 -0.79361492 0.011653443
-0.25732309 0.17092641 0.23069327 0.59391391 -0.35361651 -0.72264904 0.0080202138
-0.24345736 0.17614058 0.23940498 0.41762975 -0.29078451 -0.86083084 0.0118583
0.24557897 0.17725597 0.23886487 -0.46951601 -0.34349623 -0.81336653 0.013021609
0.25264189 0.17337725 0.23527341 -0.53416425 -0.3407397 -0.77366984 0.010431577
-0.24448349 0.18575196 0.23488045 0.49240011 -0.38086075 -0.7826156 0.012610199
0.23652795 0.18644969 0.23932835 -0.41975686 -0.38310751 -0.82282007 0.012785786
0.24534659 0.1848077 0.23513079 -0.52859825 -0.3818354 -0.75814629 0.0095093977
0.25254494 0.18074374 0.23068944 -0.57041925 -0.39692101 -0.71907967 0.0065359655
-0.24246143 0.19008788 0.2345154 0.49188432 -0.41822985 -0.76363176 0.010903509
-0.23469424 0.19494505 0.23726317 0.46060506 -0.38817996 -0.79822248 0.012320628
0.2341204 0.19551694 0.23607862 -0.45003465 -0.44304731 -0.77535659 0.013638253
0.24168277 0.19241621 0.23215756 -0.51871508 -0.45022219 -0.72679746 0.0090139806
-0.23534422 0.20154947 0.23075917 0.49470201 -0.45719332 -0.73908341 0.009523727
-0.22473045 0.20233956 0.23747516 0.39955068 -0.39578521 -0.82686961 0.012452454
-0.21792173 0.20841423 0.23880196 0.37854522 -0.36956036 -0.84860396 0.012815066
0.22500351 0.20376827 0.23749292 -0.40957206 -0.4065581 -0.81667703 0.011836433
0.23261285 0.20388637 0.23022881 -0.49545267 -0.49552897 -0.71342665 0.0065640686
-0.21831369 0.21328655 0.2352494 0.43441409 -0.45921794 -0.77485687 0.013422422
0.20839885 0.21395326 0.23964939 -0.35992861 -0.34294897 -0.86766201 0.011548568
0.21472482 0.21199486 0.23826653 -0.39330438 -0.36522156 -0.84375644 0.010020539
-0.21319626 0.22102903 0.23263395 0.50149697 -0.50398123 -0.70320964 0.0077630472
-0.20277961 0.2231234 0.2387957 0.3813363 -0.38722005 -0.83943027 0.012948943
-0.19667557 0.22753376 0.23912643 0.3372876 -0.37123364 -0.86511427 0.010640164
0.205852 0.22630055 0.23492548 -0.46437252 -0.47412658 -0.74803889 0.0060708565
0.21067373 0.22629301 0.23043111 -0.50146717 -0.50642157 -0.70147556 0.0068369638
-0.20401394 0.23045377 0.23214281 0.45336014 -0.49925318 -0.73838395 0.0099153416
-0.19169 0.2338495 0.23810363 0.36703265 -0.42489508 -0.82749695 0.013127289
0.18511096 0.23728341 0.2395902 -0.35922951 -0.45121118 -0.81692266 0.01059969
0.19704776 0.23525883 0.23449993 -0.43370181 -0.5196898 -0.73608786 0.00489819
-0.19376826 0.24063602 0.2319088 0.44467679 -0.51682436 -0.73154306 0.010947132
-0.1833694 0.24683943 0.23514354 0.35995325 -0.52735066 -0.76963294 0.0097038522
0.17863815 0.24683949 0.2371363 -0.38362744 -0.54157883 -0.74801219 0.0074427668
-0.17753659 0.25161576 0.2337964 0.36267471 -0.54336965 -0.7571106 0.0078658061
-0.16575754 0.25802264 0.23363672 0.30912706 -0.5496183 -0.7761187 0.011352611
-0.15515523 0.256488 0.2393375 0.30464646 -0.45217308 -0.83828998 0.012295563
-0.14917645 0.25982022 0.2393368 0.28647164 -0.44213215 -0.84997249 0.012824492
0.15931439 0.25585896 0.23879227 -0.27485323 -0.50969326 -0.81527209 0.012889418
0.1692218 0.25468078 0.23480992 -0.35845304 -0.57717866 -0.73374128 0.0091581959
0.18105777 0.25150305 0.23042332 -0.39302236 -0.58456272 -0.70980263 0.0071358392
-0.15206344 0.2654641 0.2341831 0.32536826 -0.57006657 -0.75442672 0.010811459
-0.13702537 0.26772329 0.23903356 0.27066088 -0.44205183 -0.85518008 0.010362283
0.14446631 0.26677483 0.23754844 -0.28474498 -0.5190047 -0.80594939 0.013527064
0.1537056 0.26238 0.23646551 -0.31107703 -0.51521122 -0.79861665 0.015728228
0.16126725 0.26258242 0.23127615 -0.34329566 -0.60530144 -0.71816313 0.0094370944
-0.13468884 0.27399552 0.23521674 0.31724319 -0.57280105 -0.75581455 0.011830405
-0.12508447 0.27668858 0.23727611 0.27153292 -0.56506222 -0.7790857 0.012310432
-0.1130664 0.27758384 0.23996313 0.18032287 -0.45517591 -0.87195092 0.0096986508
0.12653649 0.27154103 0.2398213 -0.18405239 -0.42619643 -0.88570946 0.0094899582
0.13406351 0.27457756 0.23608436 -0.30412018 -0.56485379 -0.76710576 0.011629783
0.14526482 0.27124956 0.23229346 -0.33414036 -0.5928551 -0.73271614 0.008911456
-0.1304788 0.28053081 0.23069715 0.3272374 -0.61108947 -0.72075325 0.0082503641
-0.12571737 0.28140885 0.23272696 0.29842812 -0.59884864 -0.74318296 0.012373733
-0.11752793 0.28066003 0.23838857 0.19768727 -0.52068663 -0.83054507 0.011476493
0.088966295 0.28759351 0.2389129 -0.13563414 -0.51219845 -0.84808975 0.012913557
0.094443671 0.2856234 0.23889206 -0.16377057 -0.52931648 -0.83246821 0.014647827
0.10271175 0.28551015 0.23727137 -0.19400404 -0.56269825 -0.80357522 0.011739057
0.11816184 0.28318787 0.23566926 -0.24287976 -0.60578418 -0.75765085 0.0075298348
0.12807092 0.28177473 0.23202318 -0.2634452 -0.59993047 -0.75543368 0.010885636
-0.10418376 0.29247007 0.23007464 0.19476423 -0.65694457 -0.72834802 0.0064814622
-0.093045436 0.29135263 0.23505205 0.15008476 -0.58550143 -0.7966572 0.0093515459
-0.081546724 0.29391176 0.23547393 0.17847939 -0.59218431 -0.78578806 0.012217877
-0.07321322 0.2980842 0.23283525 0.18506907 -0.63233155 -0.75226748 0.0098058088
-0.065230653 0.29751384 0.23610963 0.17420746 -0.62555099 -0.76048523 0.010106816
-0.055772197 0.29427215 0.23951571 0.12978701 -0.47724655 -0.8691324 0.011701492
-0.048932467 0.29512012 0.23977403 0.10120297 -0.49957919 -0.8603363 0.011911057
-0.036188234 0.29889533 0.23954268 0.039078798 -0.52297294 -0.85145295 0.013134415
0.0003726501 0.29958856 0.23934172 -0.0019453762 -0.49907303 -0.86655772 0.011609796
0.013256469 0.29860419 0.23958157 -0.00013043682 -0.52652073 -0.85016233 0.012182729
0.03024135 0.2979432 0.23970324 -0.016161261 -0.51970142 -0.85419506 0.011980126
0.049347237 0.29641062 0.23963532 -0.10430115 -0.54190803 -0.83394063 0.013811547
0.055034339 0.2975969 0.23881108 -0.15331335 -0.56510019 -0.81065208 0.011668188
0.065925777 0.29219639 0.23948723 -0.13752271 -0.52732676 -0.83845937 0.010913007
0.07699883 0.29390955 0.23686929 -0.17250456 -0.60524839 -0.77712071 0.010048345
0.084979415 0.29515594 0.23256636 -0.17960909 -0.64257395 -0.74487537 0.011068963
0.093058757 0.29229978 0.23326786 -0.17115623 -0.65104407 -0.73949111 0.011256048
-0.053689897 0.30236849 0.23362879 0.13715772 -0.63624793 -0.75919455 0.01023484
-0.045627736 0.30281645 0.23563489 0.10707483 -0.61183006 -0.78370839 0.010981916
-0.036790673 0.30430409 0.23578125 0.060895827 -0.62801963 -0.77581125 0.011853883
-0.024503473 0.30479425 0.23618901 0.018388657 -0.56338006 -0.82599318 0.011294289
-0.017746665 0.3039642 0.23713928 0.017974505 -0.56997794 -0.82146347 0.010680931
-0.0058492795 0.30313003 0.23788111 -0.010114849 -0.52985662 -0.84802693 0.010919503
0.0086687626 0.30790961 0.23143649 -0.010251901 -0.69726896 -0.7167362 0.0081491694
0.016940454 0.30434868 0.23544629 -0.0088817487 -0.67824519 -0.73478192 0.0086430376
0.023765419 0.30651289 0.23295999 -0.012638726 -0.67297918 -0.73955345 0.0089255981
0.032877095 0.30159461 0.23857528 -0.037237398 -0.56217444 -0.82617992 0.01234627
0.046374824 0.30429834 0.23489009 -0.11126269 -0.63559663 -0.76396173 0.011220368
0.052104585 0.30190635 0.23584923 -0.14019245 -0.61483234 -0.77609748 0.010151557
-0.062055781 -0.29030782 0.24036583 0.12998044 0.4732857 -0.87126678 0.01337854
-0.055890087 -0.29105255 0.24066263 0.10011402 0.46964547 -0.87716043 0.01305473
-0.040148698 -0.29598618 0.24025424 0.0549502 0.48587659 -0.87229842 0.0089383991
-0.035147812 -0.29270056 0.24128163 0.04559264 0.45639944 -0.88860613 0.0087801805
-0.021768799 -0.29398429 0.24095267 0.016295113 0.46932778 -0.88287371 0.010293358
-0.013920307 -0.29636243 0.24026325 0.016155247 0.50273454 -0.86428988 0.010073736
-0.0048060874 -0.29378778 0.24109286 0.010133144 0.46476772 -0.88537461 0.011620991
0.0052045374 -0.29638541 0.24034663 -0.013929054 0.46980125 -0.88266236 0.010505994
0.01261439 -0.2950646 0.24078514 -0.0036078491 0.46645647 -0.8845368 0.0094788987
0.027475346 -0.2971788 0.24020948 -0.047946483 0.495985 -0.86700636 0.010978825
0.035973929 -0.29397872 0.24107766 -0.074366473 0.4726561 -0.87810361 0.012202072
0.052396428 -0.29127946 0.24065395 -0.11387627 0.47812152 -0.87088007 0.010706
-0.098015264 -0.28061724 0.24020611 0.13920002 0.47015384 -0.8715381 0.011407933
-0.078108899 -0.28550255 0.24043536 0.16962644 0.50023502 -0.84911233 0.013146702
-0.06733615 -0.28531864 0.24139035 0.13322374 0.40434289 -0.90485263 0.0098782098
-0.056958389 -0.28424808 0.24257293 0.10230643 0.3927401 -0.91394132 0.008044241
-0.045250576 -0.28395125 0.2436046 0.061284844 0.33756033 -0.9393068 0.0024684707
-0.028533615 -0.28539872 0.24354361 0.026545631 0.36024165 -0.93248123 0.002808498
-0.014920806 -0.28358912 0.24416077 0.00731218 0.3203342 -0.94727641 0.0010679465
-0.0070115402 -0.28587726 0.24349913 -0.0024889151 0.35763273 -0.93385905 0.0031465045
0.0041504027 -0.28560835 0.24363405 0.010366648 0.3476302 -0.93757439 0.0029534795
0.013903594 -0.28340459 0.24435335 0.0019603441 0.32244593 -0.94658583 0.0013868177
0.025706619 -0.28411111 0.24419332 -0.017043846 0.31683818 -0.94832641 0.00093497726
0.034056533 -0.28662488 0.24333353 -0.039955046 0.36750323 -0.92916358 0.0050933305
0.042678267 -0.28893685 0.24207214 -0.087053828 0.42953864 -0.89884269 0.010686096
0.052089721 -0.28254437 0.24326514 -0.079505883 0.34355602 -0.93576068 0.0046701268
0.072892055 -0.28342015 0.24145576 -0.082655333 0.43665567 -0.8958236 0.011244423
0.082875967 -0.28240925 0.24101147 -0.09475527 0.43791965 -0.89400661 0.014270357
0.093848944 -0.28225067 0.2402409 -0.12156016 0.45290253 -0.88323402 0.010926701
-0.1227842 -0.27185547 0.2403273 0.23036766 0.43180189 -0.87205386 0.010087006
-0.11403616 -0.27376419 0.2408801 0.16815591 0.44377941 -0.88021785 0.010892607
-0.10860595 -0.27410924 0.24123287 0.1306664 0.44579393 -0.88554728 0.009214798
-0.096478745 -0.27285117 0.24261683 0.1013509 0.41218284 -0.90544653 0.0092916172
-0.086592585 -0.27510285 0.24278197 0.07772544 0.33920771 -0.93749511 0.0035563486
-0.065251105 -0.27627152 0.24422342 0.087028928 0.32208872 -0.94270074 0.0024422091
-0.055790331 -0.2744596 0.24554715 0.070466012 0.29095638 -0.9541378 0.00032288555
-0.044824082 -0.27524158 0.24623449 0.053590748 0.28427425 -0.9572441 0.0001049058
-0.034228869 -0.27812147 0.24573991 0.030319897 0.30450299 -0.95202869 0.00045489086
-0.022596212 -0.2758683 0.24648324 0.0070164748 0.29256234 -0.95622069 1.0199948e-05
-0.017836893 -0.2728734 0.24742067 0.0071033919 0.29261047 -0.95620537 6.3569169e-06
-0.0057253302 -0.27816588 0.24586105 0.0047268393 0.30505082 -0.95232439 0.00063965155
0.0036621527 -0.27313054 0.24744372 0.0045261257 0.29223099 -0.95633703 0
0.012194994 -0.27073836 0.24821486 0.00017996281 0.29115817 -0.95667493 1.4681811e-05
0.024800371 -0.27544323 0.24683709 -0.019413035 0.2868973 -0.95776469 0.00015189055
0.033858299 -0.27498984 0.24686201 -0.03068329 0.28711209 -0.95740545 0.00015719674
0.043541707 -0.272802 0.24678883 -0.063897014 0.28463781 -0.95650327 3.3443081e-05
0.067615077 -0.27588269 0.24408239 -0.081795514 0.32528651 -0.9420712 0.0029260872
0.073518336 -0.27684537 0.24335732 -0.094747379 0.34793943 -0.93271703 0.0054969704
0.083737679 -0.27506036 0.24312486 -0.081146717 0.36730054 -0.92655575 0.0077028065
0.094195068 -0.27730793 0.24167973 -0.10858285 0.39718339 -0.91129309 0.0085821766
0.10429482 -0.27861074 0.24054122 -0.14914365 0.43372336 -0.88861704 0.0079493532
0.11617507 -0.27562258 0.24002455 -0.22974744 0.45519578 -0.8602401 0.012290285
0.12410332 -0.27073747 0.24014996 -0.25715199 0.42608634 -0.86736566 0.013242483
-0.13622424 -0.26351538 0.24040616 0.27270204 0.41899571 -0.86606938 0.0097120646
-0.12329024 -0.2645739 0.24215724 0.22903688 0.36666462 -0.90172011 0.0080643874
-0.11644103 -0.26525056 0.24305201 0.17445858 0.34668788 -0.92161363 0.0065591601
-0.10263702 -0.26623106 0.24404724 0.10556202 0.30387917 -0.9468444 0.0026033791
-0.097135089 -0.26554719 0.24470834 0.086120926 0.27844879 -0.95658219 0
-0.085402451 -0.26346391 0.24630181 0.080853283 0.28069034 -0.9563868 2.4141978e-05
-0.073378593 -0.26519346 0.24679917 0.079990834 0.2811107 -0.95633584 0
-0.066342622 -0.26430571 0.24764851 0.079273768 0.28108189 -0.95640397 2.0553563e-05
-0.054796267 -0.26463151 0.24851844 0.066817448 0.28057569 -0.95750338 4.6122866e-05
-0.038119614 -0.2690624 0.2484891 0.045143872 0.28676987 -0.95693523 0.00019171843
-0.028613251 -0.26781577 0.24891487 0.018779369 0.29144233 -0.95640409 0.00013404318
0.034646049 -0.26421636 0.24999565 -0.03662933 0.28765789 -0.95703256 0.00013309094
0.04363976 -0.26782253 0.248257 -0.065246671 0.28486663 -0.95634401 4.4712102e-05
0.051004753 -0.26520216 0.24848476 -0.068209559 0.28425425 -0.95631945 3.4147604e-05
0.067242049 -0.26877049 0.24621764 -0.071246609 0.28341788 -0.95634627 0
0.075493157 -0.26110083 0.24787553 -0.071280941 0.2833882 -0.95635259 2.1976866e-05
0.087144874 -0.26436579 0.24603994 -0.075130716 0.2830075 -0.95617056 5.6879908e-05
0.10110986 -0.26307327 0.2453825 -0.10871366 0.28430304 -0.95255083 0.00065544248
0.11748129 -0.26413295 0.24289735 -0.1686327 0.35462436 -0.9196763 0.0053709294
0.12200546 -0.26214272 0.24275604 -0.19276515 0.33306488 -0.92298937 0.0037371886
-0.14296184 -0.2544353 0.24173029 0.20184451 0.37128517 -0.90631455 0.0075499727
-0.13366339 -0.25886831 0.24202633 0.23485562 0.37709585 -0.89590269 0.0090168091
-0.12956302 -0.25553232 0.24354418 0.19043455 0.32469735 -0.92644817 0.0047986638
-0.11305039 -0.25568804 0.24609323 0.12088071 0.2670801 -0.95606285 0.0002780983
-0.093215212 -0.25503123 0.24812651 0.087275147 0.27462912 -0.95758134 3.5667123e-05
-0.076077119 -0.25354809 0.24999571 0.079998761 0.2810674 -0.95634794 0
-0.063781336 -0.25906634 0.2494024 0.078864761 0.28104153 -0.95644969 0
0.064463355 -0.25892526 0.24934196 -0.071243681 0.28336319 -0.95636272 0
0.075810172 -0.25770944 0.24885683 -0.071250319 0.28340754 -0.95634902 2.5907051e-05
0.08468511 -0.25640866 0.24858105 -0.073874094 0.28277612 -0.95633692 0
0.09173578 -0.25577626 0.24824314 -0.090555958 0.2766172 -0.95670402 8.3957806e-05
0.10570449 -0.25338888 0.24751604 -0.11648719 0.26334023 -0.95764434 0.00012218469
