# .PCD v0.7 - Point Cloud Data file format
VERSION 0.7
FIELDS x y z normal_x normal_y normal_z curvature
SIZE 4 4 4 4 4 4 4
TYPE F F F F F F F
COUNT 1 1 1 1 1 1 1
WIDTH 594
HEIGHT 1
VIEWPOINT 0 0 0 1 0 0 0
POINTS 594
DATA ascii
0.071012512 -0.47574544 -0.0065942085 -1.28016e-05 0.9925456 -0.12187371 4.2629184e-05
0.087194078 -0.47550702 -0.0046523595 -0.029258734 0.99148059 -0.12692606 0.00069550471
0.10198466 -0.47554755 -0.0049825925 -0.15892434 0.97176266 -0.17441458 0.0050333142
0.11518647 -0.47231233 -0.004727602 -0.29106498 0.94274199 -0.16284584 0.0055605555
-0.13677935 -0.46148491 -0.0015805457 0.43075821 0.89419723 -0.12189609 0.00010044411
-0.1198088 -0.46997166 -0.003885882 0.34551629 0.92644107 -0.14941685 0.00272873
0.11947131 -0.46963042 -0.00018923171 -0.37149227 0.91838259 -0.13626014 0.0025144704
0.12982036 -0.46572912 -0.0081330575 -0.40928578 0.90455514 -0.11943696 0.00073061464
0.13579975 -0.46223941 -0.003655849 -0.4307099 0.89422494 -0.12186398 0
-0.15574042 -0.45264211 -0.0036966002 0.43068263 0.89423919 -0.12185585 0
0.15760231 -0.45140827 -0.0012220454 -0.43062001 0.89426702 -0.12187263 0
-0.18122008 -0.44103518 -0.0085650478 0.4307403 0.8942107 -0.12186066 2.7178423e-05
-0.17744043 -0.44226268 -0.0042159893 0.43068996 0.89423501 -0.12185986 0
-0.16871598 -0.44603625 -0.001075628 0.43072602 0.89421821 -0.12185628 0
0.16690518 -0.44716546 -0.0029629134 -0.43065521 0.89425153 -0.12186167 0
0.18151876 -0.44026101 -0.0039389692 -0.43071431 0.89422029 -0.12188206 0
-0.20159337 -0.43009126 -0.00025319494 0.43072757 0.89421821 -0.12185076 0
-0.19693115 -0.43241793 -0.00085094338 0.43069661 0.89423209 -0.12185837 0
0.1945181 -0.43401706 -0.0040582549 -0.43071193 0.8942259 -0.12184983 0
0.20193475 -0.43070424 -0.0059579033 -0.43066102 0.89424765 -0.12186977 4.8598929e-05
-0.22025594 -0.42240798 -0.0098234219 0.43066233 0.89424634 -0.12187454 6.2921783e-05
-0.21517754 -0.4244163 -0.0066144508 0.43054673 0.89430386 -0.12186132 1.389162e-05
0.20602067 -0.42902884 -0.0081027001 -0.43058011 0.89428592 -0.12187459 2.6026504e-05
-0.23640013 -0.41393384 -0.0046902653 0.43065369 0.89425254 -0.12186037 0
0.2281622 -0.41763887 -0.002766503 -0.43073073 0.89420682 -0.12192314 0.00019376155
0.23717242 -0.41340309 -0.0035245079 -0.43067557 0.89423972 -0.12187692 6.5992186e-05
0.24152051 -0.41165772 -0.006082356 -0.43073508 0.89421266 -0.12186501 0
-0.25908196 -0.40328974 -0.00673676 0.43055981 0.89429802 -0.12185755 0.00011235918
-0.24868074 -0.40844363 -0.0078004953 0.43064129 0.89425707 -0.12187045 3.224429e-05
0.24779707 -0.40898925 -0.0086816447 -0.43078041 0.89419055 -0.12186708 6.9780077e-07
0.25049746 -0.40703031 -0.0038492847 -0.43072614 0.89421785 -0.12185869 0
-0.26572734 -0.39944974 -0.002041853 0.43068328 0.89423752 -0.1218657 0
0.2678279 -0.39933068 -0.0085917832 -0.43064442 0.89425325 -0.12188734 8.3414576e-05
0.27613193 -0.39460686 -0.0032725651 -0.43079707 0.89418495 -0.12184873 0
0.28240618 -0.39138493 -0.0018022452 -0.44494048 0.88751251 -0.11978959 0.00043968792
-0.29595983 -0.38493174 -0.0023444304 0.5402047 0.83126932 -0.1310353 0.0052742627
0.28825119 -0.38913351 -0.0059365965 -0.46766442 0.87576407 -0.11969607 0.001714507
0.29697475 -0.38469604 -0.0042014606 -0.54103857 0.83325052 -0.1138893 0.0056226035
0.3047429 -0.38005638 -0.0023055037 -0.61669379 0.77915955 -0.11224558 0.0060553318
-0.30780435 -0.37746364 -0.0086336657 0.68067604 0.72226733 -0.1225154 0.005193708
0.31183067 -0.37166059 -0.0048039602 -0.70752716 0.69237548 -0.14149746 0.0056127054
-0.31446186 -0.36805463 -0.0032468948 0.74466288 0.65553629 -0.12549636 0.002231115
0.31781942 -0.36503938 -0.0093153026 -0.76010269 0.6370523 -0.12809537 0.00072921609
-0.32409793 -0.35607982 -0.0037978436 0.7758888 0.61898124 -0.12189654 0
0.32552221 -0.35417795 -0.0032091651 -0.77601516 0.61882633 -0.12187855 6.1564926e-05
-0.33253837 -0.3453877 -0.0032485754 0.77589703 0.61898285 -0.12183646 0
0.32972068 -0.34856483 -0.0014401227 -0.77603567 0.61880344 -0.12186389 1.4544327e-05
0.34206024 -0.33370265 -0.004543656 -0.77590162 0.61897826 -0.12183043 0
-0.35204911 -0.32124075 -0.0048673847 0.77599776 0.61885148 -0.12186225 0
-0.34747314 -0.32693654 -0.0046524694 0.77599728 0.6188519 -0.12186295 0
0.34514439 -0.32960686 -0.0033839038 -0.7760334 0.61880577 -0.12186696 2.567694e-05
0.35471889 -0.3178536 -0.0046676248 -0.7760182 0.61882442 -0.12186936 5.7355668e-05
-0.36711228 -0.30164787 -0.0012909479 0.77600658 0.61883545 -0.12188737 8.9504218e-05
0.3660444 -0.30321348 -0.0024416023 -0.77600628 0.61884075 -0.12186193 0
-0.37429458 -0.2937718 -0.0070306659 0.77600646 0.61884075 -0.12186085 0
0.37284756 -0.29493964 -0.0037465363 -0.77605832 0.61877024 -0.12188878 4.148782e-05
-0.3828443 -0.28286377 -0.0060810545 0.77594668 0.61891538 -0.12186223 5.0782288e-05
-0.37813246 -0.28931707 -0.0088481121 0.77592373 0.61894721 -0.12184722 4.9117294e-05
0.37976149 -0.28721893 -0.0085664429 -0.77602148 0.61882001 -0.12187051 2.0814383e-05
0.38049707 -0.28495753 -0.0017667003 -0.77587146 0.619012 -0.12185103 0.00011365418
-0.39030164 -0.27235994 -0.00022761524 0.77597874 0.61886919 -0.12189336 0.00013716778
-0.38776046 -0.27708617 -0.008046573 0.77600175 0.61884254 -0.12188105 7.5678036e-05
0.3863017 -0.27842972 -0.005580253 -0.77602881 0.61881155 -0.12186702 0
0.39466068 -0.26698017 -0.00066588144 -0.77598995 0.6188612 -0.12186204 0
-0.40105745 -0.25907928 -0.0012775958 0.7759307 0.61893004 -0.1218895 0.00010790665
0.40513054 -0.25537667 -0.0084118368 -0.77598196 0.61886853 -0.12187591 9.1555312e-06
-0.4159447 -0.24025032 -0.00046017952 0.77593046 0.61893332 -0.12187516 0.00010397626
0.40994638 -0.24880701 -0.005716186 -0.7759679 0.6188885 -0.12186389 7.4515074e-06
0.4121922 -0.24640334 -0.0078110667 -0.77596641 0.61889225 -0.12185457 1.4347711e-06
-0.42447913 -0.23033994 -0.0044793887 0.77672005 0.61804366 -0.12135926 2.2388132e-05
-0.41824999 -0.23879325 -0.0077406373 0.77600449 0.61883909 -0.12188192 6.7480927e-05
-0.43130118 -0.22182782 -0.0046949554 0.80937672 0.57441753 -0.12228585 0.0018641819
-0.42666107 -0.22825672 -0.0077945669 0.79765195 0.59097141 -0.12043346 0.001343483
0.42645535 -0.2273117 -0.0016855933 -0.78969604 0.60054326 -0.12541048 0.0006890457
-0.43539432 -0.21630713 -0.0027244249 0.8683989 0.47908631 -0.12790509 0.0063933395
0.43676221 -0.2153735 -0.0066936794 -0.86794138 0.47973266 -0.12858626 0.0053030266
-0.44133663 -0.20370841 -0.0054164389 0.91510528 0.38022757 -0.13419908 0.0055562039
0.44058695 -0.20424515 -0.00043644139 -0.9270224 0.35538009 -0.11972649 0.0059560803
-0.44373965 -0.19292124 -0.0049473564 0.96158946 0.24443804 -0.12488258 0.00065394555
0.44324097 -0.19364308 -0.0022954403 -0.96056026 0.24686919 -0.12798306 0.00053151196
-0.4445928 -0.18959077 -0.0056857332 0.9631995 0.23803559 -0.12484342 0.00043959357
0.4461033 -0.18353181 -0.0066986247 -0.96766126 0.2208655 -0.12186141 0
-0.44819847 -0.17234083 -0.0030535695 0.96766323 0.22085622 -0.12186198 0
0.44773865 -0.17486772 -0.0039817784 -0.9676609 0.22086723 -0.12186106 0
-0.45046717 -0.16275644 -0.0036972798 0.96767104 0.22081877 -0.12186771 1.1701602e-05
-0.44962537 -0.16934197 -0.0089487024 0.96766102 0.22086406 -0.12186529 1.4781532e-05
0.45054466 -0.16466901 -0.0077791349 -0.96765703 0.22085759 -0.12190894 0.00015444019
-0.45332482 -0.15188986 -0.0066944058 0.96766454 0.22084241 -0.12187695 4.3079192e-05
0.45164189 -0.15646183 -0.0016171876 -0.96767175 0.22082321 -0.12185417 5.8109581e-06
-0.45393917 -0.14886318 -0.0060871551 0.9676519 0.22090501 -0.12186357 0
0.45380735 -0.14770406 -0.0029398166 -0.96764356 0.22092777 -0.1218892 0.00013813372
-0.45694256 -0.1358265 -0.0063083186 0.9676652 0.2208478 -0.12186197 0
-0.4580887 -0.12901787 -0.0030691484 0.96765637 0.22088601 -0.1218629 1.4658172e-05
0.45897853 -0.12623744 -0.0050960071 -0.96766037 0.22086217 -0.12187377 3.9398987e-05
0.46188843 -0.113423 -0.0049775084 -0.96765262 0.22090042 -0.12186663 3.1422136e-05
-0.46446273 -0.10114782 -0.003171524 0.96766174 0.22086321 -0.12186162 0
0.46406579 -0.10578482 -0.0084235417 -0.96764976 0.22090252 -0.12188508 9.8099306e-05
-0.46604335 -0.095796578 -0.0060240403 0.96765321 0.22090249 -0.12185817 0
-0.46868905 -0.082701035 -0.0032982435 0.96765751 0.22086713 -0.1218881 0.00012111477
0.4687252 -0.083450273 -0.0049432311 -0.96765196 0.22089188 -0.12188697 8.9898487e-05
-0.4714992 -0.073009886 -0.0080482457 0.96766174 0.22086173 -0.12186372 0
0.47141227 -0.074272238 -0.0096460357 -0.96765268 0.22089364 -0.12187833 5.4255765e-05
-0.47224247 -0.069538526 -0.0076592769 0.96766686 0.22084002 -0.12186275 0
0.47241032 -0.065777883 -0.0021761081 -0.96765894 0.22087523 -0.12186163 0
-0.47585967 -0.053500552 -0.0073146611 0.96765751 0.22087857 -0.12186734 3.5824542e-05
0.47481284 -0.054534432 -0.00087584695 -0.96765459 0.22088832 -0.1218728 5.0817747e-05
-0.47741324 -0.044669293 -0.0036454559 0.96766222 0.22086222 -0.12185981 0
0.47704691 -0.047808141 -0.0064250343 -0.96765679 0.22088446 -0.12186237 0
-0.48241314 -0.023287715 -0.0045956089 0.96765608 0.22088234 -0.12187133 3.866648e-05
0.48287022 -0.022070859 -0.0060195159 -0.97088766 0.20414189 -0.12531309 0.00038646263
-0.48389187 -0.015932607 -0.0030076606 0.97688526 0.17475863 -0.12310388 0.0014276948
-0.48558915 -0.0077266414 -0.0016124919 0.98842746 0.093889691 -0.11914659 0.0039088787
0.48650619 -0.0065243142 -0.0067153499 -0.98425984 0.11148114 -0.13712984 0.0034620936
0.48628962 0.0055318438 -0.0031968951 -0.98907578 -0.088807501 -0.11765361 0.0052440246
-0.48486575 0.013862635 -0.0069889864 0.97779518 -0.15426576 -0.14183982 0.0024208759
0.48444149 0.01408727 -0.0040274481 -0.98044163 -0.16185451 -0.11196996 0.0018146875
-0.48138377 0.026812455 -0.0028099534 0.96766025 -0.22086819 -0.1218643 0
0.48154923 0.026782695 -0.004070296 -0.96765733 -0.22087932 -0.12186765 0
-0.47942033 0.036971409 -0.0056313747 0.96765935 -0.22087264 -0.12186363 1.1648246e-05
0.47956133 0.037943352 -0.0085125752 -0.96765882 -0.22087906 -0.12185618 0
0.48061591 0.033167478 -0.0082308594 -0.96766073 -0.2208685 -0.12185989 0
-0.47753641 0.044806018 -0.0048714145 0.96765566 -0.22088571 -0.12186872 4.4248893e-05
0.4762758 0.048264198 -0.0011287425 -0.96766382 -0.22085263 -0.12186425 0
-0.47609702 0.05299142 -0.0082766935 0.96765554 -0.22088477 -0.12187165 4.509827e-05
0.47535944 0.055343613 -0.0066829659 -0.9676649 -0.22084844 -0.12186335 7.7805998e-06
-0.47292507 0.063526556 -0.0021831561 0.9676612 -0.22086513 -0.12186245 0
0.4735173 0.0633002 -0.0064758305 -0.96765888 -0.22087622 -0.12186086 0
-0.47048813 0.076322943 -0.0060245972 0.96766168 -0.22086355 -0.12186129 0
-0.46837935 0.08434248 -0.0038142067 0.96765721 -0.22088191 -0.12186334 5.5768996e-06
0.46750736 0.086899072 -0.0015238253 -0.96765971 -0.22087097 -0.12186346 0
-0.46635556 0.093757376 -0.0048079123 0.96765143 -0.2208934 -0.12188836 6.6526634e-05
0.46555543 0.097237974 -0.0047623478 -0.96765196 -0.22089739 -0.12187734 5.7278117e-05
-0.46421194 0.10315698 -0.0048221312 0.96766096 -0.22085418 -0.12188377 7.5149474e-05
0.4637239 0.10388109 -0.0022587541 -0.96766019 -0.22086938 -0.121863 0
-0.4613812 0.11379383 -0.0016223211 0.96765828 -0.22087888 -0.12186094 0
0.46162018 0.11331595 -0.0026537871 -0.96765184 -0.22090584 -0.1218628 0
0.45983791 0.12248079 -0.0051118545 -0.967659 -0.22087672 -0.12185895 0
-0.45637655 0.13651288 -0.0030583632 0.96765625 -0.2208852 -0.12186574 3.231039e-06
-0.45502424 0.14328508 -0.00459396 0.96764815 -0.22091714 -0.12187156 5.1190138e-05
0.45484686 0.14481391 -0.0059558153 -0.967659 -0.22087528 -0.12186135 0
-0.45278668 0.15509489 -0.0082303751 0.96767187 -0.22081812 -0.12186261 0
0.45356917 0.1521166 -0.0090458822 -0.96763837 -0.2209754 -0.12184403 0
-0.45013902 0.16589046 -0.0067720069 0.96764678 -0.22093055 -0.12185826 0
-0.44911969 0.16697186 -0.00063759461 0.96766061 -0.2208458 -0.121902 0.00018891349
-0.44748831 0.17593038 -0.0039200354 0.96764904 -0.22091006 -0.12187727 7.0565467e-05
0.44641834 0.1788651 -0.00074286293 -0.96765643 -0.22088479 -0.12186434 0
-0.44491419 0.18578489 -0.001340276 0.96766579 -0.22083762 -0.12187568 5.2477018e-05
0.44518062 0.18698677 -0.0056342115 -0.96672082 -0.2244961 -0.12268842 0.00023319414
0.443959 0.19181034 -0.0046757581 -0.96320468 -0.23833179 -0.12423644 0.00056225405
-0.44178006 0.20119405 -0.0043807868 0.93167901 -0.34210935 -0.12221059 0.0043909899
-0.43958271 0.2088006 -0.00071838684 0.91107833 -0.39409208 -0.12094523 0.0059734122
0.43996429 0.20903406 -0.00417171 -0.89908332 -0.41963974 -0.12470612 0.0079355836
0.44090894 0.20362216 -0.0018640667 -0.92616248 -0.35590279 -0.12472455 0.0064012767
-0.43570197 0.21631803 -0.0047389353 0.83488953 -0.52652532 -0.16040768 0.0038718595
0.43839025 0.21275488 -0.0050056432 -0.88623291 -0.44678965 -0.12235238 0.0070059188
0.44037905 0.21006224 -0.009328464 -0.90256929 -0.41245142 -0.12350116 0.0084705614
-0.43201739 0.22031075 -0.0015515834 0.81900901 -0.55792582 -0.13395149 0.0027753746
-0.42790276 0.22574574 -0.0029504029 0.80129921 -0.58611542 -0.11995149 0.0018392911
0.42685419 0.22677229 -0.0014863182 -0.79818958 -0.5893032 -0.1249604 0.001301684
-0.42443085 0.23113225 -0.0081956834 0.77924144 -0.61456746 -0.12283997 0.00011286937
-0.41832566 0.23854263 -0.0069501102 0.77598506 -0.6188671 -0.12186346 0
0.41777855 0.2386601 -0.0040627602 -0.7759797 -0.61887532 -0.12185588 0
0.42203262 0.23276977 -0.0012395587 -0.77953482 -0.61420113 -0.12281082 0.00013177168
-0.41143537 0.24623528 -0.0021384517 0.77599621 -0.61885238 -0.12186723 1.2611297e-05
0.40942085 0.24930054 -0.0048762257 -0.77597815 -0.61887348 -0.12187493 3.5884394e-05
-0.40386009 0.25629982 -0.005009695 0.77605492 -0.6187796 -0.12186301 0
0.40680367 0.25299901 -0.0069920421 -0.77597266 -0.61887944 -0.12187933 6.6628862e-05
-0.40083373 0.26070899 -0.0081292232 0.77602702 -0.6188103 -0.12188511 9.9588811e-05
-0.39598036 0.26622996 -0.0052599949 0.77598864 -0.61886084 -0.12187211 2.9040257e-05
0.39596015 0.26587391 -0.0033230833 -0.77600449 -0.6188432 -0.12186107 0
0.40036753 0.26085749 -0.0059142374 -0.77596128 -0.61888778 -0.12190958 0.00011102803
-0.38544446 0.27930844 -0.0045839651 0.77602065 -0.618819 -0.12188078 7.1827177e-05
0.39195716 0.27085492 -0.0031271656 -0.77603441 -0.61880279 -0.12187645 1.973241e-05
-0.37187386 0.29595476 -0.002701439 0.7760157 -0.61882865 -0.12186332 0
0.37405497 0.29388726 -0.0060913758 -0.77595931 -0.61889869 -0.1218674 0
-0.36611575 0.30305791 -0.002105935 0.77594113 -0.61891699 -0.12189005 0.00013412416
0.36648989 0.30338779 -0.0061634113 -0.77594483 -0.61891633 -0.12186965 4.4007338e-05
-0.35583302 0.31653896 -0.0050862343 0.77592832 -0.61894155 -0.12184697 0
0.35692254 0.31499788 -0.0041982932 -0.77600121 -0.61884272 -0.12188427 9.2245697e-05
-0.34761 0.32671034 -0.0043755174 0.77588379 -0.61900586 -0.12180372 0
0.34865892 0.32599896 -0.007442446 -0.77589571 -0.61898202 -0.12184893 0
0.33782035 0.33887175 -0.0037945206 -0.77601165 -0.6188339 -0.12186263 0
0.34309977 0.33248726 -0.004991157 -0.77607495 -0.61875147 -0.12187867 1.9027164e-05
0.33362007 0.34449351 -0.0055960328 -0.7759006 -0.61897302 -0.12186266 0
-0.32654244 0.35332435 -0.0053713201 0.77597964 -0.61887324 -0.12186698 0
-0.31820017 0.36282784 -0.00050954893 0.77212435 -0.62388748 -0.12078235 9.0100097e-05
0.31744975 0.36403617 -0.0018670503 -0.77130514 -0.62486386 -0.12096921 0.00017631079
-0.30901116 0.37529635 -0.0053129774 0.67117697 -0.72769165 -0.14137308 0.0053154044
-0.30209479 0.38236758 -0.0052462961 0.60912752 -0.78332555 -0.12395455 0.0059729535
-0.29122251 0.38781005 -0.0067251697 0.50660783 -0.85200685 -0.13203311 0.0024602183
-0.28749967 0.38957408 -0.0065140259 0.47553906 -0.86995548 -0.13053754 0.001326082
0.2927019 0.38672233 -0.0039712992 -0.47664383 -0.87129724 -0.11684091 0.0016262576
-0.28356689 0.39134997 -0.0056477599 0.44272688 -0.88862181 -0.11976761 0.00022417166
0.26716787 0.39867502 -0.0014479766 -0.43074903 -0.89420468 -0.12187386 0
0.27246213 0.39663851 -0.0052130204 -0.4305965 -0.89427727 -0.12188057 6.5908105e-05
0.28261328 0.39201596 -0.007165134 -0.44193098 -0.88899314 -0.11995061 0.00015745321
-0.25295463 0.40622088 -0.006593084 0.43067598 -0.89424181 -0.12185936 0
-0.2493692 0.40705961 -7.7581033e-05 0.43070978 -0.89422691 -0.12184961 0
0.24898766 0.40791434 -0.0050010141 -0.43063414 -0.89426178 -0.12186088 0
0.25530556 0.40516731 -0.0071696732 -0.43070281 -0.89422822 -0.12186436 0
0.26305217 0.40166989 -0.0088803852 -0.43070033 -0.89422804 -0.12187432 5.2103947e-05
-0.23655362 0.41399446 -0.0056777503 0.43063819 -0.89425635 -0.12188673 0.00011134708
-0.22278813 0.41985837 -6.2535284e-05 0.43062726 -0.89426196 -0.12188426 8.5809726e-05
0.22490059 0.41948381 -0.004779025 -0.43066433 -0.89424747 -0.12185893 0
0.23647603 0.4142049 -0.0069477698 -0.43071273 -0.89421874 -0.12189866 0.00011994246
0.24025205 0.4121539 -0.0052411314 -0.43058777 -0.89427716 -0.12191182 0.00011834263
-0.21230416 0.42558539 -0.0050394088 0.43063423 -0.8942613 -0.12186417 0
-0.20861408 0.42737973 -0.0051663294 0.43062136 -0.89426535 -0.12187923 4.9352348e-05
0.20489056 0.42882848 -0.0026389908 -0.4306874 -0.89423364 -0.12187914 6.6620982e-05
0.21514066 0.42423293 -0.0051386631 -0.4306637 -0.89424092 -0.12190934 0.00016414534
-0.19173795 0.43556118 -0.0055648941 0.43071529 -0.89422113 -0.12187237 0
-0.18652061 0.43761492 -0.0021981474 0.43067357 -0.89424288 -0.12186053 0
0.18267761 0.43976584 -0.0044012461 -0.43075481 -0.8942017 -0.12187563 0
0.19407447 0.4341884 -0.0037482397 -0.43058714 -0.89428502 -0.12185622 0
0.20229335 0.43091735 -0.0087894313 -0.43071154 -0.89422524 -0.12185549 0
-0.18127167 0.44112328 -0.009394167 0.43077344 -0.89419127 -0.12188641 0
-0.17475645 0.44382861 -0.0062220213 0.43069896 -0.89422822 -0.12187768 3.1311636e-05
0.1666539 0.44787157 -0.007256675 -0.43064061 -0.89425743 -0.12186976 2.7958713e-05
0.17141712 0.44515038 -0.0041208817 -0.4306863 -0.89423674 -0.12186061 0
-0.1590468 0.45062655 -0.00059077889 0.43071491 -0.89422292 -0.12186056 0
-0.14878313 0.45617381 -0.0050268834 0.43063349 -0.89426035 -0.1218738 4.0584553e-05
0.14406022 0.45844615 -0.0050115082 -0.4306626 -0.8942464 -0.12187322 4.8902919e-05
0.15887742 0.45198098 -0.0099310838 -0.43058702 -0.89428443 -0.12186156 2.9275749e-05
0.12453816 0.46760932 -0.0032636852 -0.39677617 -0.90879852 -0.12905006 0.00089712813
0.13912949 0.46125489 -0.0081978925 -0.43072814 -0.89421797 -0.12185039 0
-0.12004378 0.47039413 -0.0078167655 0.37676921 -0.91877985 -0.1178498 0.0019172023
-0.11578045 0.47164834 -0.0019540172 0.36041117 -0.92637378 -0.10924924 0.0016426657
-0.084303901 0.47520092 -0.0021594502 6.1959581e-05 -0.99254209 -0.12190204 7.9601828e-05
-0.076986492 0.47586322 -0.0075533376 2.922078e-06 -0.99254578 -0.12187256 3.4596957e-05
-0.065615386 0.47548342 -0.0044602761 -1.4682021e-05 -0.99254674 -0.12186435 0
-0.054278202 0.47515687 -0.0018004561 1.4761717e-07 -0.99254698 -0.12186244 0
-0.03145574 0.47532591 -0.0031773038 7.2777211e-06 -0.99254727 -0.12186012 0
-0.016420146 0.47591773 -0.0079977112 5.144529e-06 -0.99254507 -0.12187836 8.4439045e-05
-0.0080502946 0.47608143 -0.0093309768 -5.6453005e-06 -0.99254555 -0.12187444 5.3629345e-05
0.0054573114 0.47516665 -0.0018799553 1.534348e-06 -0.99254489 -0.12187965 4.0250001e-05
0.016583128 0.47581807 -0.007185847 4.4151257e-06 -0.99254715 -0.12186086 0
0.025404045 0.47560108 -0.0054184389 -7.2745233e-06 -0.99254811 -0.12185349 0
0.035009399 0.47573879 -0.0065400312 1.8483339e-05 -0.99254644 -0.12186726 0
0.044921119 0.4756918 -0.0061573652 1.2932122e-05 -0.99254668 -0.12186543 0
0.057001658 0.47548705 -0.0044896957 -2.2890843e-05 -0.99254656 -0.12186581 0
0.064201616 0.47534832 -0.0033596994 1.0147122e-05 -0.99254352 -0.12189089 0.00011089899
0.078519255 0.47572434 -0.0064225164 5.107046e-06 -0.99254721 -0.12186034 0
0.086003833 0.474985 -0.00040063635 -0.018517911 -0.99180794 -0.12638915 0.00042255849
0.0931108 0.47545525 -0.0042307153 -0.03319769 -0.99146342 -0.1260877 0.0013408066
0.10235581 0.475299 -0.0029581785 -0.18099259 -0.97615385 -0.11985553 0.006621589
0.11061658 0.47427374 -0.0029713623 -0.25095144 -0.95872635 -0.13366815 0.0066778394
-0.11497103 -0.47140086 0.0027225979 0.32257378 0.93535656 -0.14510122 0.0039549703
-0.10629418 -0.47412008 0.0059224013 0.19553836 0.97135019 -0.13506837 0.0065711341
-0.094733611 -0.47416881 0.0062469728 0.063660331 0.99258661 -0.10353285 0.0024745937
-0.073100328 -0.47411954 0.0066484977 -2.222884e-05 0.99254167 -0.12190585 0.00016007599
-0.066737339 -0.47457904 0.0029060794 -1.8786086e-07 0.99254668 -0.12186464 0
-0.052637264 -0.4738473 0.0088655148 3.6111951e-06 0.99254644 -0.121867 0
-0.036678419 -0.47427124 0.0054127919 1.3900734e-05 0.99254572 -0.12187304 4.315452e-05
-0.026387267 -0.4743467 0.0047978279 1.2384646e-05 0.9925465 -0.12186671 1.5899814e-05
-0.016898854 -0.47435033 0.0047686235 9.5565929e-06 0.9925468 -0.12186357 0
-0.0066482825 -0.47376835 0.0095087104 -1.454428e-06 0.99254662 -0.12186548 0
0.0040499913 -0.47438452 0.0044900971 -8.7606213e-07 0.99254698 -0.12186264 0
0.015829422 -0.47454906 0.0031499858 5.994757e-07 0.99254698 -0.12186275 0
0.035727222 -0.4744325 0.0040994138 -1.5245403e-06 0.99254704 -0.12186267 0
0.04504177 -0.47435418 0.0047371509 4.8423635e-07 0.99254107 -0.12191099 0.00018248911
0.053156186 -0.47463709 0.0024330914 -1.2963241e-05 0.99254304 -0.12189418 0.0001224703
0.065066382 -0.47441116 0.0042732698 -2.4704921e-05 0.99254715 -0.12186082 0
0.076654002 -0.47411156 0.0067133456 1.2826378e-05 0.99254447 -0.12188287 9.4124807e-05
0.082138583 -0.47446117 0.0038657766 -0.0072101988 0.99256909 -0.12146861 5.777027e-05
0.1107107 -0.47356856 0.0018709917 -0.24987245 0.95834714 -0.13832732 0.0073005608
-0.13508287 -0.46096128 0.0082572997 0.43069702 0.89422834 -0.12188427 5.9284055e-05
-0.12899987 -0.46421739 0.0058599017 0.42448992 0.89694184 -0.12370793 6.5697444e-05
0.11819801 -0.46959448 0.0045741592 -0.3710914 0.9210934 -0.11780522 0.0027316499
0.12592645 -0.465929 0.0041609001 -0.41154319 0.9038896 -0.11668675 0.00065888447
0.13487689 -0.46164167 0.0039920402 -0.43064103 0.89425832 -0.12186215 0
-0.15505119 -0.45220092 0.0019764195 0.43066412 0.89424658 -0.12186646 1.4291221e-05
-0.14657865 -0.45586133 0.0050566383 0.4306643 0.89424533 -0.121875 2.6526661e-05
-0.13940683 -0.45959231 0.00302264 0.43064055 0.89425886 -0.1218593 0
0.13742004 -0.45978284 0.0086454144 -0.4306871 0.89423406 -0.1218771 7.1748036e-05
0.14098819 -0.45876533 0.0035029016 -0.43059194 0.89428222 -0.12186046 0
0.15604982 -0.45102561 0.0070719142 -0.43064949 0.89425218 -0.12187725 5.5877321e-05
-0.17254829 -0.44315812 0.0065015908 0.43063819 0.89425898 -0.12186746 1.3148024e-05
-0.16561916 -0.44695607 0.0031183916 0.43067867 0.89424032 -0.12186068 0
0.15986554 -0.44951129 0.004700277 -0.43068665 0.89423728 -0.12185474 0
0.16451228 -0.44712445 0.0057942364 -0.43068054 0.89423877 -0.12186576 1.2224341e-05
0.17182478 -0.44338298 0.0074082436 -0.43067023 0.89424396 -0.12186491 0
-0.1962117 -0.43168744 0.0070518032 0.43065542 0.89425123 -0.12186299 8.1358112e-06
-0.18576872 -0.43654513 0.0083094388 0.43072349 0.89422053 -0.12184807 0
0.18322842 -0.43823621 0.0048773261 -0.43061092 0.89427292 -0.12186093 0
0.19350284 -0.43371031 0.0017805343 -0.43062979 0.89426225 -0.12187314 2.4230914e-05
-0.21835737 -0.42144024 0.0039876485 0.43067208 0.89424312 -0.12186385 3.1163097e-06
0.20514534 -0.42770731 0.0046885088 -0.43070588 0.89422858 -0.12185082 0
0.2164163 -0.42155963 0.0099708587 -0.43068391 0.89423841 -0.12185623 0
-0.23457977 -0.41325411 0.006730794 0.43069664 0.89423281 -0.12185297 0
-0.22968411 -0.41567889 0.006237885 0.43069431 0.89422715 -0.12190247 0.00016965279
0.22438258 -0.41795421 0.0082766684 -0.43071938 0.89421582 -0.12189668 0.00014079749
0.23532292 -0.41339839 0.0030458723 -0.43054253 0.89430654 -0.12185618 7.2459115e-05
-0.26149172 -0.40106633 0.0010633338 0.43066826 0.89424312 -0.12187761 7.4170355e-05
-0.25343052 -0.40436053 0.0053771762 0.43055797 0.89429784 -0.12186597 1.2732177e-05
0.24497643 -0.40793818 0.0089997835 -0.43064582 0.89425033 -0.12190332 0.00020458431
0.25459749 -0.40382683 0.0051696561 -0.43063727 0.89425969 -0.12186517 0
-0.27556908 -0.39364207 0.0057963096 0.4307096 0.89422268 -0.12188133 4.3762288e-05
-0.26809937 -0.39738822 0.0047032516 0.43066418 0.89424688 -0.12186427 0
0.26462173 -0.39916164 0.0039791316 -0.43064681 0.89425564 -0.12186126 0
0.2733568 -0.39437041 0.0082695708 -0.43064806 0.89425063 -0.12189385 0.00011928169
-0.30136952 -0.38150328 0.0036971159 0.58164954 0.79996473 -0.14744577 0.0049776593
-0.29327771 -0.38536084 0.0039851493 0.51512903 0.84703231 -0.13106629 0.0037344533
0.28914559 -0.38777214 0.0008928515 -0.46879113 0.87561595 -0.1163251 0.0018741719
0.29992095 -0.38212276 0.0042703748 -0.55716527 0.82097626 -0.12475897 0.0061442167
-0.30629778 -0.376771 0.0044772886 0.67871529 0.72285539 -0.12971342 0.0059127216
0.30754015 -0.37590852 0.00094576715 -0.66001689 0.74111933 -0.12296275 0.0062762816
-0.3157984 -0.36523414 0.0025648104 0.75500709 0.6442678 -0.12199692 0.0011249153
0.31370544 -0.36760572 0.0038494072 -0.74952573 0.65013427 -0.12464613 0.0014765851
-0.32506946 -0.35370728 0.0020639347 0.77595997 0.61889857 -0.12186346 0
0.32715815 -0.35099167 0.0025539957 -0.77588171 0.61899376 -0.12187804 0
-0.33407235 -0.34204185 0.0039741918 0.77597135 0.61888093 -0.1218804 3.0488749e-05
-0.32862753 -0.34964168 5.2568503e-05 0.7760008 0.61884552 -0.12187274 3.2791271e-05
0.33226579 -0.34340221 0.0085699297 -0.77601564 0.61882645 -0.12187506 5.343452e-05
-0.34137002 -0.333175 0.0025311969 0.77593499 0.6189279 -0.12187323 0
-0.35094035 -0.32159513 0.00039359182 0.77601224 0.61883312 -0.12186225 0
-0.34768674 -0.3251251 0.0031863991 0.77595109 0.61891127 -0.12185559 0
-0.35762072 -0.3124761 0.0041622147 0.77598459 0.61886817 -0.12186077 1.0669865e-05
0.35475945 -0.316089 0.0040350161 -0.77607912 0.61874831 -0.12186706 7.2799216e-05
-0.36232316 -0.30587322 0.0077480571 0.77601141 0.6188345 -0.12186129 0
0.3606599 -0.30853361 0.0048297802 -0.77600908 0.61883497 -0.12187385 5.6007753e-05
-0.37287018 -0.29332802 0.0042935326 0.77596909 0.61888838 -0.12185685 0
0.36827868 -0.29895332 0.0049648276 -0.77595162 0.61891288 -0.12184367 0
0.37299728 -0.29312578 0.004511103 -0.77600342 0.61883885 -0.12188987 0.0001188946
-0.38305134 -0.2803511 0.0053603426 0.77593428 0.61893171 -0.12185919 0
0.37756833 -0.28807268 0.0010639112 -0.77595365 0.61890954 -0.12184829 0
0.38100272 -0.28330788 0.0033906195 -0.77597636 0.61888063 -0.12185038 0
-0.38663509 -0.27618775 0.0036819279 0.77595061 0.61890954 -0.12186717 2.6893526e-05
0.38696483 -0.27544311 0.0053636525 -0.77603817 0.61879677 -0.12188236 9.7160395e-05
-0.39357463 -0.26737058 0.0042674765 0.77589446 0.6189751 -0.1218916 0
0.39617905 -0.26417151 0.0039282804 -0.77602828 0.61880749 -0.12189127 9.9084347e-05
-0.40283972 -0.25532252 0.0064511271 0.77593386 0.61893326 -0.12185383 0
0.4038713 -0.25448096 0.0041558305 -0.7759285 0.61893213 -0.12189299 5.6725563e-05
-0.41389102 -0.24201217 0.0036706491 0.77597255 0.61888391 -0.1218577 2.3615603e-05
0.41270232 -0.24332541 0.0045708255 -0.7759586 0.61889672 -0.12188183 6.35334e-05
0.41791549 -0.23628776 0.0071127228 -0.7758863 0.61898625 -0.1218873 0
0.42278585 -0.23133326 0.0012590233 -0.78044397 0.61280525 -0.12400398 6.8802481e-05
-0.43041733 -0.2210604 0.004830325 0.8244915 0.55058604 -0.13064721 0.0031602271
-0.42640007 -0.22573838 0.0066560162 0.79982632 0.58815229 -0.11981125 0.0012574138
0.42895752 -0.22285341 0.0050210995 -0.79981333 0.58769429 -0.12212322 0.0010371336
-0.4361639 -0.21332815 0.0075030513 0.88078845 0.45581135 -0.12824854 0.0057153939
0.43595773 -0.21330976 0.0089092432 -0.87769395 0.46895328 -0.098671153 0.0067078723
-0.44006282 -0.203475 0.0051215431 0.92664683 0.35138249 -0.13362606 0.0044852542
0.43896022 -0.20814747 0.005408287 -0.91389412 0.39529163 -0.092422634 0.0059294445
0.44240907 -0.19243959 0.0064912173 -0.96147066 0.24750833 -0.11964035 0.00062990573
-0.44360363 -0.18860975 0.0039469879 0.96220738 0.24503256 -0.11881107 0.00068297912
0.44433045 -0.18537465 0.0040388666 -0.96612448 0.2273615 -0.12210736 0.00010619922
-0.44583172 -0.1791589 0.0033834577 0.96766627 0.22084342 -0.1218612 0
0.44641373 -0.17630903 0.0039267275 -0.96767658 0.22079261 -0.1218714 3.8240094e-05
-0.44840223 -0.16575924 0.0072573614 0.96765804 0.22085829 -0.12189939 0.00016958269
0.44899482 -0.16353162 0.0065891733 -0.96765524 0.22087908 -0.12188411 8.7005326e-05
-0.44998831 -0.15883072 0.0072204005 0.9676562 0.22087462 -0.12188539 0.00011739282
0.44958174 -0.15923497 0.0097157722 -0.96766353 0.22085364 -0.12186442 0
0.45172581 -0.15327428 0.0034938632 -0.96764219 0.22094209 -0.12187334 0
-0.45379189 -0.14335181 0.0050711553 0.9676621 0.22085944 -0.12186561 1.3322241e-05
0.4541744 -0.14430265 0.00031017605 -0.96766758 0.22083719 -0.12186203 0
-0.45604643 -0.13437952 0.0034302436 0.96765441 0.22088026 -0.1218889 9.834316e-05
0.45533115 -0.13766453 0.0031564422 -0.96765333 0.22090036 -0.12186018 0
-0.45799962 -0.12349719 0.0076436414 0.96764129 0.22092883 -0.1219049 0.0001569022
0.45752898 -0.12758984 0.0039632777 -0.96765876 0.22086635 -0.12187949 5.7003137e-05
-0.46090457 -0.11312021 0.0033836942 0.96764958 0.22091326 -0.12186747 0
0.45995885 -0.11625249 0.0052165221 -0.96765912 0.22087356 -0.12186351 0
0.46123487 -0.11105002 0.0045129322 -0.96765506 0.22088264 -0.12187944 7.3255374e-05
-0.46216843 -0.10446302 0.0090382108 0.96765888 0.22086929 -0.12187329 4.780955e-05
0.4626658 -0.1040281 0.005877072 -0.96766186 0.22086318 -0.12186067 0
-0.46535954 -0.093239836 0.0040395502 0.96766508 0.22084692 -0.12186394 0
0.46436802 -0.095174029 0.0084075332 -0.96766454 0.2208506 -0.12186219 0
-0.46713632 -0.082204692 0.0099310819 0.96765471 0.22089371 -0.12186187 0
0.46805093 -0.082971558 0.0012786628 -0.96765471 0.22088945 -0.12186966 0
-0.46892539 -0.079125173 0.0013058847 0.96766287 0.22085792 -0.12186182 0
0.46926951 -0.073644854 0.0085057216 -0.96764255 0.22091921 -0.12191179 0.00018708753
-0.4716419 -0.062752411 0.0094089955 0.96766281 0.22085454 -0.12186842 2.7689677e-05
0.47147858 -0.066544123 0.0038335554 -0.96765065 0.22090532 -0.12187346 6.0588583e-05
-0.47374499 -0.055890739 0.0051452736 0.96766043 0.22086823 -0.12186273 0
0.47347119 -0.055544131 0.0079475911 -0.96764493 0.22091812 -0.12189461 0.00011860264
0.47706708 -0.042908613 0.0022944077 -0.96763897 0.22093882 -0.12190516 0.00018902379
-0.47791207 -0.038848549 0.0029433542 0.96764755 0.22090784 -0.12189321 0.00012371766
0.47815865 -0.036461744 0.0053108465 -0.96765703 0.22087857 -0.12187152 0
-0.48158157 -0.021724336 0.0048411284 0.97274077 0.19439442 -0.12643689 0.00099900225
-0.47992092 -0.026441211 0.0094784629 0.96766365 0.22085308 -0.12186456 1.1799315e-05
0.48081642 -0.022883011 0.0088166595 -0.96917248 0.21484651 -0.12060594 0.0001626796
-0.48391619 -0.012296102 0.0033901464 0.98494697 0.12681937 -0.11745765 0.0038138491
-0.48552397 -0.0058546579 0.0022978988 0.98889816 0.076744825 -0.12724265 0.0041354871
0.4859198 -0.0028460212 0.0046076309 -0.99248374 0.031680822 -0.11820476 0.0062771677
-0.48517427 0.0059325579 0.0049333517 0.98908132 -0.049408808 -0.13884141 0.0043885875
0.48548388 0.0030914014 0.0076241549 -0.99308991 -0.012035986 -0.11673749 0.0073781246
-0.48371649 0.014659883 0.00069190655 0.9799642 -0.1494052 -0.13171227 0.0026291423
-0.48110273 0.02605411 0.00079562515 0.96766037 -0.22086838 -0.12186285 0
0.48069057 0.026370758 0.0034946417 -0.96904188 -0.21461125 -0.12206503 0
-0.47839892 0.035938401 0.0043515498 0.96765417 -0.22089145 -0.12187013 5.9077916e-05
-0.47583479 0.045344934 0.0076638218 0.96766049 -0.22086935 -0.12186041 0
0.47649693 0.042809386 0.0070015988 -0.96765876 -0.22087559 -0.12186295 0
-0.47472766 0.051361535 0.0055507175 0.96765894 -0.22087546 -0.12186133 0
0.47399062 0.057025891 0.0011371868 -0.96765029 -0.22091703 -0.12185475 0
-0.47074097 0.067911357 0.0072126677 0.96765459 -0.22088495 -0.12187894 6.4285588e-05
-0.46938777 0.075013824 0.0050854343 0.96765578 -0.22088201 -0.12187465 6.0970582e-05
0.46961653 0.073626608 0.005783014 -0.96766645 -0.22084188 -0.12186278 0
0.47074044 0.071502879 0.00070760678 -0.96766442 -0.22084688 -0.12186997 3.7035235e-05
-0.46733737 0.084895484 0.0034574652 0.96765465 -0.22089078 -0.12186845 0
0.46699524 0.0867185 0.0028698321 -0.96766162 -0.22086178 -0.12186479 0
-0.4643102 0.095788211 0.007753002 0.96765649 -0.22088727 -0.12185962 0
0.46325487 0.10105994 0.0065787635 -0.96766776 -0.22083668 -0.12186193 0
-0.46149415 0.11106819 0.0024206853 0.96765536 -0.2208795 -0.12188214 8.8121531e-05
-0.45941198 0.1192342 0.0041545536 0.96766049 -0.22085837 -0.1218799 7.5478842e-05
-0.45796019 0.12490327 0.0054080836 0.96767002 -0.22082394 -0.12186713 0
0.45771581 0.12531941 0.0065944917 -0.96766126 -0.22085615 -0.12187755 8.0991638e-05
-0.45536321 0.13517003 0.0074219657 0.96765512 -0.22089469 -0.12185672 0
0.45469737 0.13709001 0.0092293788 -0.96766293 -0.22085758 -0.12186194 0
-0.45221311 0.14841372 0.0084331371 0.96766704 -0.22084078 -0.12185936 0
-0.44903165 0.1646909 0.0041954648 0.96765339 -0.22089788 -0.12186458 0
0.44912913 0.16341092 0.0057411403 -0.96765155 -0.22090182 -0.12187256 2.7244911e-05
-0.44743648 0.17084946 0.0057002017 0.96765929 -0.22086237 -0.12188239 8.860894e-05
0.44725367 0.17220651 0.0046924977 -0.96764606 -0.22091083 -0.12189949 0.00016001399
-0.44407091 0.18597403 0.0050133988 0.96526307 -0.22998844 -0.1239865 0.00020491458
0.44441921 0.18410724 0.0056309686 -0.96767008 -0.22083095 -0.12185386 2.5998781e-06
0.44202381 0.19512543 0.0046825842 -0.96154141 -0.24387839 -0.12633842 0.00069062109
0.44026285 0.20290942 0.004557698 -0.9271419 -0.34699997 -0.1414174 0.0061003435
-0.43314037 0.21701622 0.0080277529 0.84280103 -0.51993656 -0.13911282 0.0050423974
0.43485814 0.21522357 0.0061922763 -0.86885267 -0.47696751 -0.13265364 0.0057408898
-0.4286575 0.22394393 0.0013933284 0.8051194 -0.57986754 -0.12464464 0.0019348514
0.4273546 0.22555718 0.0014975313 -0.79988062 -0.58687973 -0.12555134 0.0013843161
-0.42108804 0.23343781 0.0013826936 0.77595204 -0.61890852 -0.1218631 6.4257634e-05
-0.41526139 0.23938724 0.0082738213 0.77593803 -0.61892802 -0.12185391 0
0.41548201 0.23955853 0.0059991032 -0.77597946 -0.6188733 -0.12186765 0
-0.41043252 0.24677673 0.0014981031 0.77594793 -0.61890703 -0.12189717 9.740574e-05
0.40918788 0.24793796 0.0035266466 -0.77603018 -0.61881131 -0.12185983 0
0.41073182 0.24571913 0.0049627768 -0.77600366 -0.6188423 -0.12187108 3.1287429e-05
-0.40379733 0.25448364 0.004612864 0.77599317 -0.61885732 -0.12186197 0
0.40184426 0.25650871 0.0067658909 -0.77594501 -0.61891818 -0.12185893 1.2379976e-05
-0.39562112 0.26477498 0.0044163214 0.77597755 -0.61887896 -0.12185122 0
0.39573234 0.26524884 0.0013018455 -0.77597439 -0.61888039 -0.12186389 0
-0.39042109 0.27069753 0.0074534612 0.77589893 -0.61897963 -0.12183995 0
0.38424525 0.2785871 0.0067155985 -0.77596921 -0.61888689 -0.12186386 3.6608864e-05
-0.37655991 0.28799522 0.0078787003 0.77600765 -0.61883789 -0.1218678 2.3880102e-05
0.38167873 0.28204405 0.0055037318 -0.77601373 -0.61882859 -0.12187635 5.6960569e-05
-0.37398767 0.29089406 0.0095372126 0.77602363 -0.61881381 -0.12188877 8.0385318e-05
0.36798567 0.29974204 0.0028254911 -0.77602392 -0.61881697 -0.12187064 3.9804174e-05
0.37304717 0.29363966 0.0015835729 -0.77601999 -0.61882252 -0.12186711 6.6162429e-06
-0.36330545 0.30491531 0.0063578561 0.77602279 -0.61881804 -0.1218723 7.1004753e-05
0.36230016 0.30614051 0.0065371962 -0.77606171 -0.61876816 -0.12187776 9.4684452e-05
-0.3510896 0.31983161 0.0083986539 0.77601987 -0.61882323 -0.12186432 0
0.35396767 0.31688023 0.0050592255 -0.77593958 -0.61892289 -0.12186925 3.9918817e-05
-0.34938037 0.32203215 0.0081078997 0.77598488 -0.61886799 -0.12186043 3.0462375e-06
0.34631774 0.32649469 0.0049485611 -0.77595615 -0.61890113 -0.12187457 0
0.35174578 0.32051614 0.00074365363 -0.77600724 -0.61883938 -0.1218634 0
-0.34359583 0.3302868 0.0030242978 0.77599829 -0.61884844 -0.12187383 5.4497857e-05
-0.33721489 0.33885741 0.00013403594 0.77599072 -0.61885929 -0.12186746 2.3791685e-05
0.33756483 0.33701354 0.0072691734 -0.77603513 -0.61880314 -0.12186914 1.2580649e-05
0.34040299 0.33320588 0.0085319858 -0.7760452 -0.61878633 -0.12189043 6.318598e-05
-0.33126831 0.34537607 0.0048979465 0.7760368 -0.61880016 -0.12187354 6.2096085e-05
0.33252364 0.34343588 0.0067566847 -0.77598912 -0.61886263 -0.12185996 0
0.32317656 0.3554495 0.005270239 -0.77588445 -0.61898249 -0.12191793 5.9560505e-05
-0.31621248 0.36441055 0.0041104835 0.77150273 -0.62452161 -0.12147576 6.8962829e-05
0.31586879 0.36457184 0.0054798145 -0.76126552 -0.63623083 -0.12523995 0.00088565721
-0.30767468 0.37466115 0.0064234631 0.66427875 -0.73692513 -0.12520006 0.0045701168
0.30704552 0.37630817 0.002065788 -0.66708821 -0.73342091 -0.13071755 0.0048678382
-0.2910943 0.38602203 0.0068490487 0.47686982 -0.8699038 -0.12594695 0.0014329498
-0.28930038 0.38712883 0.0050662253 0.47736478 -0.86879981 -0.13156675 0.0017032663
0.28627041 0.38888678 0.0028736871 -0.453798 -0.88286752 -0.12088169 0.00056543114
0.29496503 0.38389528 0.0087769683 -0.52064312 -0.84428883 -0.12691358 0.0043384759
-0.28191376 0.39119753 0.0013130028 0.43068686 -0.8942346 -0.12187406 5.0448911e-05
-0.26907095 0.39689523 0.0048873154 0.43078011 -0.89418817 -0.12188559 0
0.26517797 0.39905319 0.0028092393 -0.43092141 -0.89412338 -0.12186115 0
0.2756013 0.39427173 0.0010613911 -0.43077198 -0.89419532 -0.12186154 0
0.28052333 0.39116237 0.0064847935 -0.43712363 -0.89086926 -0.12359185 0.00017700347
-0.25336587 0.40444443 0.0049898853 0.43069527 -0.89423269 -0.12185843 0
-0.24253082 0.40924865 0.008025229 0.43063915 -0.89425892 -0.12186503 0
0.24753173 0.40755975 0.0027459506 -0.43066192 -0.89424819 -0.12186249 0
0.2522172 0.40486258 0.0059807124 -0.4306995 -0.8942306 -0.1218587 0
-0.2400936 0.41043392 0.0079403445 0.43065879 -0.89424968 -0.12186252 0
-0.23615897 0.41310167 0.0022687018 0.43066067 -0.8942486 -0.12186412 0
-0.22690235 0.41746941 0.0029290146 0.43064672 -0.89425445 -0.12187018 3.8141894e-05
0.22862102 0.41695023 0.00066511147 -0.43072179 -0.89421928 -0.12186267 0
0.23496336 0.4130266 0.0070444816 -0.43069229 -0.89423388 -0.12186034 1.41977e-07
0.24254034 0.41019064 0.0010789405 -0.4307889 -0.89418775 -0.12185749 8.8036932e-06
-0.22034392 0.42011595 0.0066850833 0.43071464 -0.89422148 -0.12187222 4.8665566e-05
-0.20942476 0.42591909 0.0026874323 0.43070921 -0.89422655 -0.12185424 0
0.20296971 0.42926297 0.00096089498 -0.43071881 -0.89422125 -0.12185926 0
0.21428841 0.42317703 0.0056214784 -0.43061888 -0.89426821 -0.1218675 3.376626e-05
-0.1875207 0.43602929 0.0059033609 0.43063635 -0.89426053 -0.12186286 0
0.18887295 0.4359456 0.0017385237 -0.4307245 -0.89421713 -0.12186911 0
0.19192432 0.43355587 0.0084917946 -0.43077603 -0.89418912 -0.12189215 0.00013216937
-0.17148486 0.44368663 0.0063810032 0.43065655 -0.89425015 -0.12186712 0
-0.15827669 0.44979826 0.0082090273 0.43065384 -0.89425218 -0.12186188 0
0.16295902 0.44804162 0.0045528105 -0.43066221 -0.89424789 -0.12186375 0
-0.1568619 0.45101121 0.0043080235 0.43066612 -0.89424598 -0.12186409 0
-0.14200245 0.45776716 0.0072431043 0.43069947 -0.8942318 -0.12185036 0
0.14445724 0.45688924 0.0050105727 -0.43066427 -0.89424711 -0.12186259 0
0.15149924 0.45301268 0.0085720001 -0.43070167 -0.89422768 -0.12187261 0
-0.12106957 0.46872854 0.00078070536 0.39419678 -0.9113099 -0.11884129 0.0013326809
0.12469038 0.46694601 0.0010658782 -0.40011269 -0.90785038 -0.12536953 0.00080491224
0.13430782 0.46142632 0.0075833928 -0.4306809 -0.89423919 -0.1218614 0
-0.11585265 0.47076964 0.0042388598 0.37849244 -0.91776115 -0.12024103 0.001448805
-0.10366104 0.47443449 0.0040832674 0.12965524 -0.9854688 -0.10973068 0.0036831833
-0.084426194 0.47400489 0.0075822575 3.5594559e-05 -0.99254537 -0.12187575 0
-0.07784535 0.47437799 0.0045433473 -6.2355666e-06 -0.99254304 -0.12189463 0.00015117481
-0.066788584 0.47413138 0.0065518357 1.3332049e-05 -0.99254096 -0.12191167 0.00023178617
-0.057825863 0.47454506 0.0031828582 4.288319e-07 -0.9925468 -0.12186398 0
-0.045894183 0.47414234 0.0064627733 -5.2792479e-06 -0.99254715 -0.12186079 0
-0.032453641 0.47375742 0.0095977671 9.5462419e-06 -0.99254662 -0.12186585 2.1471167e-06
-0.021504398 0.47396481 0.0079086591 5.8601399e-06 -0.99254692 -0.12186345 0
-0.014802025 0.47482508 0.00090176612 6.5870959e-06 -0.99254704 -0.12186193 0
-0.0043239687 0.47436401 0.0046570865 2.2303068e-06 -0.99254692 -0.12186297 0
0.014256512 0.47435543 0.0047271531 7.4129593e-06 -0.99254692 -0.12186283 0
0.029989626 0.47485119 0.00068922248 2.3879613e-05 -0.9925409 -0.12191224 0.00019026268
0.033610184 0.47463927 0.0024153993 6.7874794e-06 -0.9925468 -0.12186436 0
0.049205098 0.4742575 0.0055244626 4.6823488e-06 -0.99254614 -0.12186889 2.9004656e-05
0.050412234 0.47459054 0.0028122971 2.9530114e-05 -0.99254513 -0.12187742 7.4757372e-05
0.094254099 0.47452775 0.0033237871 -0.071581788 -0.9903819 -0.11840473 0.0017809062
0.10452229 0.47374853 0.0096701365 -0.19788897 -0.97184181 -0.1279197 0.0043880395
0.11397988 0.47157517 0.0049459394 -0.30019626 -0.94559652 -0.12541701 0.0047206543
-0.090712741 -0.47305 0.015359745 0.034405299 0.99264473 -0.11607182 0.0012707983
-0.082267575 -0.47263303 0.01875592 0.002768741 0.99251771 -0.12206974 5.3464213e-05
-0.075252831 -0.47289181 0.016648114 5.8490609e-06 0.99254644 -0.12186705 1.7618488e-05
-0.066820562 -0.47358191 0.011027481 -3.0305424e-05 0.99254638 -0.12186787 0
-0.054514363 -0.47326151 0.013636562 -9.5069208e-06 0.99254709 -0.12186141 0
-0.044204213 -0.47335953 0.012838737 7.0101096e-06 0.99254596 -0.12187052 1.576244e-05
-0.035892803 -0.47353959 0.011372114 1.3473836e-05 0.99254727 -0.12186047 0
-0.027368402 -0.47321594 0.014007864 9.6710419e-06 0.99254531 -0.12187622 7.5083357e-05
-0.016844532 -0.47297654 0.015957957 5.2729038e-06 0.99254286 -0.1218962 0.00018519761
0.014224786 -0.47352394 0.011499253 -3.4472853e-06 0.99254757 -0.12185797 0
0.025188345 -0.47323209 0.013876691 1.0364407e-05 0.99254549 -0.12187471 5.3226984e-05
0.033162065 -0.47346741 0.011959853 9.2117716e-06 0.99254668 -0.12186482 1.4419641e-05
0.044706386 -0.47319657 0.014165831 6.9193975e-06 0.99254686 -0.12186385 3.192135e-05
0.055843316 -0.47315001 0.014544861 -1.5675228e-05 0.99253976 -0.12192119 0.00019812891
0.063274741 -0.47344887 0.012111064 -8.4925859e-06 0.99254501 -0.12187827 5.0453185e-05
0.071155027 -0.4730967 0.014979089 1.5765232e-05 0.99254549 -0.12187471 2.7344302e-05
0.086226836 -0.47297931 0.015935291 -0.02759907 0.99278432 -0.11669452 0.00091813918
0.093931414 -0.4733817 0.012657883 -0.089366145 0.98996735 -0.10944578 0.0028223582
-0.13231809 -0.46135879 0.015110598 0.43064702 0.89425379 -0.12187418 3.4689554e-05
-0.12750924 -0.46382251 0.014025343 0.42389396 0.89767659 -0.12037693 5.2059469e-05
0.11586881 -0.46928754 0.015057705 -0.32564268 0.93875664 -0.11266219 0.0049790726
0.12592709 -0.4642908 0.01618005 -0.42410606 0.89687425 -0.1255011 8.3455219e-05
0.13149302 -0.46221426 0.011748828 -0.43058839 0.89428294 -0.12186756 2.7900507e-05
0.13913108 -0.45833868 0.013196485 -0.43057686 0.89429051 -0.12185297 1.3868818e-05
0.15067548 -0.45206693 0.018423237 -0.43069014 0.89423418 -0.12186556 0
-0.1755321 -0.44086894 0.012755693 0.4306868 0.89423603 -0.12186421 5.264374e-05
-0.1661606 -0.44478852 0.017110713 0.43063152 0.8942613 -0.12187423 4.7345991e-05
0.1647867 -0.44592252 0.013644616 -0.43066505 0.89424592 -0.12186845 3.4753964e-05
0.17433211 -0.44054973 0.019338662 -0.43061835 0.89426726 -0.12187664 5.9883179e-05
-0.19108115 -0.43244925 0.019592311 0.4307183 0.89422113 -0.1218617 0
-0.18440737 -0.43611538 0.016274041 0.43066585 0.8942464 -0.12186153 5.1349766e-06
0.17981711 -0.43858257 0.014390855 -0.43070048 0.89422947 -0.12186337 0
0.18256313 -0.4370726 0.01576712 -0.4306455 0.89425594 -0.1218635 0
0.19429518 -0.43152964 0.014982864 -0.43069187 0.89423096 -0.12188321 0.000101912
-0.21554846 -0.4209801 0.017290507 0.43064559 0.89425492 -0.12187149 0
-0.20413154 -0.426671 0.01587571 0.43067908 0.89423621 -0.12188984 0.00010622471
-0.19865751 -0.42939949 0.015197977 0.43073371 0.89421266 -0.12186933 0
0.198158 -0.42930818 0.017633399 -0.4306207 0.89426625 -0.12187617 3.0205276e-05
0.21103975 -0.42310891 0.017602263 -0.43060634 0.89427453 -0.12186559 1.4824606e-05
-0.23441207 -0.41239873 0.013600516 0.43068716 0.89423305 -0.12188439 7.8178738e-05
-0.225088 -0.41724461 0.010990841 0.43065849 0.89424694 -0.12188359 0.00010908936
0.21897286 -0.41956085 0.015603784 -0.43069887 0.89423001 -0.12186537 2.9962988e-05
0.22492558 -0.41631699 0.018371858 -0.43076101 0.89418727 -0.12195909 0.00018091587
0.23219788 -0.41340074 0.01407253 -0.43064827 0.89425522 -0.12185936 0
-0.2505236 -0.40428108 0.016232893 0.43065655 0.89425051 -0.12186451 1.6750135e-05
-0.24400806 -0.40765059 0.014532032 0.43077442 0.89419347 -0.12186641 0
0.23947531 -0.40982777 0.014573783 -0.4306576 0.89424753 -0.12188314 8.626769e-05
0.24887198 -0.40582308 0.01075422 -0.43061268 0.89427227 -0.12185995 0
0.25396752 -0.4027319 0.015430814 -0.43060249 0.89427668 -0.12186329 0
-0.27944824 -0.39082503 0.012759725 0.43062913 0.89426315 -0.12186839 3.1414012e-05
-0.26427811 -0.39781991 0.015039369 0.43072268 0.89421618 -0.12188275 8.2985833e-05
0.26527089 -0.39724252 0.015768025 -0.43072847 0.8942154 -0.12186781 0
0.27429917 -0.39301649 0.01487452 -0.43061826 0.8942672 -0.12187754 3.8931921e-05
0.28040844 -0.39014226 0.014376845 -0.44126922 0.88864678 -0.12485358 0.0002167616
-0.29707947 -0.38162085 0.017995039 0.5798412 0.80452085 -0.12857029 0.0067200754
-0.28210926 -0.38899127 0.016812392 0.43966526 0.89010465 -0.12003388 0.00039918369
0.28523356 -0.38759461 0.0160206 -0.45032009 0.88470751 -0.12043434 0.00062894553
0.29506144 -0.38237029 0.019627178 -0.54445267 0.827492 -0.13721591 0.0050242529
0.30469647 -0.37652296 0.01593408 -0.64152402 0.7577818 -0.11922082 0.0078576561
-0.31478614 -0.36427426 0.013885584 0.75571799 0.64301634 -0.12417838 0.00091974589
0.31483772 -0.36437452 0.013047989 -0.75421208 0.64488524 -0.12364116 0.0012750642
-0.32556611 -0.35113582 0.01195988 0.77593511 0.61893094 -0.12185723 0
0.31884131 -0.3589246 0.015229362 -0.77201128 0.6235171 -0.12338973 0.00015307781
0.32106096 -0.35712105 0.010253586 -0.77585167 0.61903703 -0.12184954 0
-0.33137631 -0.34291643 0.016700702 0.77578068 0.61912096 -0.12187476 0
-0.34097144 -0.33209828 0.010537112 0.77595145 0.61890852 -0.12186727 0
-0.33637026 -0.33683181 0.015798802 0.77596694 0.61888957 -0.12186412 0
0.33609635 -0.33722502 0.015546573 -0.77600187 0.61884558 -0.12186541 0
-0.34596124 -0.32475457 0.016055698 0.77589947 0.6189782 -0.12184406 2.0355295e-05
0.34619102 -0.32491943 0.013755001 -0.77593809 0.61892414 -0.12187295 0
-0.34982121 -0.31953287 0.017992392 0.77596885 0.61888796 -0.12186056 0
0.35582241 -0.31251049 0.01543881 -0.77597475 0.6188823 -0.1218516 0
-0.36605108 -0.30065626 0.010502229 0.77600521 0.61884028 -0.12187165 5.106724e-05
-0.35931996 -0.30820796 0.01501629 0.77599305 0.61885417 -0.12187827 2.3512883e-05
0.35841939 -0.30952704 0.014052321 -0.77594471 0.61892092 -0.12184729 0
0.36255077 -0.30448359 0.013355602 -0.77603513 0.6188044 -0.1218631 2.4123321e-05
-0.37440813 -0.29017481 0.010512498 0.77603745 0.61880141 -0.12186264 0
-0.36734474 -0.29861552 0.012627881 0.77600247 0.6188429 -0.12187557 4.7745994e-05
0.36882722 -0.29686877 0.012057748 -0.77596831 0.61888999 -0.12185431 2.1338887e-05
0.37190694 -0.29262936 0.013975013 -0.77601385 0.6188314 -0.12186136 0
-0.37444139 -0.28866443 0.017970912 0.77604163 0.61879605 -0.12186399 0
0.3772431 -0.28572059 0.015079332 -0.77600318 0.61884117 -0.1218796 9.5014359e-05
-0.38665706 -0.27349186 0.017232306 0.77600634 0.61883992 -0.12186649 0
0.38620013 -0.27442807 0.015387725 -0.77602553 0.61881524 -0.12186839 5.1491323e-05
