# .PCD v0.7 - Point Cloud Data file format
VERSION 0.7
FIELDS x y z normal_x normal_y normal_z curvature
SIZE 4 4 4 4 4 4 4
TYPE F F F F F F F
COUNT 1 1 1 1 1 1 1
WIDTH 566
HEIGHT 1
VIEWPOINT 0 0 0 1 0 0 0
POINTS 566
DATA ascii
-0.066507943 0.43273523 -0.086543262 0.21752039 -0.97087467 0.10043564 0.0014177057
-0.052913353 0.43424445 -0.086863101 0.12903331 -0.98746616 0.090890504 0.00039423149
-0.045607019 0.43523255 -0.084893227 0.12102792 -0.98867738 0.088708766 9.305936e-05
-0.036235847 0.43630794 -0.084458128 0.10981112 -0.9899385 0.089237206 9.5852702e-05
-0.0240843 0.43775976 -0.083266899 0.097585328 -0.99117494 0.089718275 0.00031270424
-0.012540785 0.43901172 -0.083522558 0.066734672 -0.99381536 0.088754654 0.00091148802
-0.0079092747 0.43951324 -0.083633639 0.0375426 -0.99538529 0.088310182 0.0016275682
0.005553015 0.43929181 -0.084434323 -0.036578164 -0.99585998 0.083216816 0.0015285644
0.013561008 0.4380365 -0.088471934 -0.074485801 -0.99331558 0.088181108 0.00068749685
0.05494 0.43386635 -0.084089801 -0.17297518 -0.98084718 0.089545153 0.0011657767
0.064132839 0.4324933 -0.084316015 -0.22724721 -0.97010857 0.085134648 0.0013431391
-0.010967763 -0.44011509 -0.073382951 0.058436766 0.99572814 0.071488626 0.0010831174
-0.005600248 -0.44073606 -0.073080465 0.010794632 0.99780899 0.065274037 0.0015946167
-0.074554823 -0.43187881 -0.071014419 0.25240144 0.96543294 0.065058962 0.0013948143
-0.066914819 -0.43376067 -0.073958889 0.21244615 0.97338158 0.085993633 0.0015084001
-0.059458323 -0.43428332 -0.07855086 0.16311336 0.98252279 0.089682505 0.0010095147
-0.04255601 -0.43666199 -0.072978064 0.11091726 0.99124694 0.071602121 0.00024678104
-0.03254329 -0.43757725 -0.075060822 0.10942217 0.99111009 0.075680599 0.0001765818
-0.025112834 -0.43846664 -0.074314572 0.1074727 0.99110943 0.078432895 0.0002230602
-0.019486889 -0.43934968 -0.071464546 0.098787107 0.99298227 0.065018475 0.00049436447
0.013650146 -0.43935743 -0.073965967 -0.086245857 0.99303818 0.080229364 0.00063670566
0.023186043 -0.43824399 -0.074618228 -0.10603581 0.99181443 0.071136773 0.00038690833
0.03725484 -0.43638369 -0.077953637 -0.11349933 0.99015135 0.081964426 0.00011986955
0.043381717 -0.43591705 -0.075660609 -0.11393862 0.99032092 0.079261631 5.577278e-05
0.054993883 -0.43455613 -0.076508045 -0.16668049 0.98224157 0.086134821 0.00075371802
0.065011762 -0.43297368 -0.079548754 -0.20808579 0.97401643 0.08939974 0.0016395112
-0.10381973 -0.42146248 -0.073936984 0.32867107 0.94219428 0.065156139 0.00043398197
-0.094448321 -0.42479444 -0.073040262 0.32525501 0.94268233 0.074559808 0.00028903104
-0.081346542 -0.42909998 -0.075499535 0.2931498 0.95209998 0.086998299 0.00090736471
-0.079414025 -0.42963073 -0.076959714 0.28928345 0.95352632 0.084277973 0.00085215375
0.078387499 -0.4286887 -0.077143565 -0.29635769 0.9519558 0.077151351 0.00063519878
0.084980562 -0.42656744 -0.07542868 -0.32452735 0.94307142 0.072789222 0.00030489601
0.095490701 -0.42303792 -0.074252017 -0.32755759 0.94229174 0.069227196 0.00020378876
-0.11662422 -0.41697866 -0.074438944 0.34229788 0.93578446 0.084495403 0.00035567049
-0.10981293 -0.41962463 -0.071425393 0.32768238 0.94274265 0.062133361 0.00039883802
0.11119184 -0.41758388 -0.074402153 -0.33236191 0.9403609 0.072504878 0.0001865815
0.12269115 -0.41363454 -0.074039407 -0.37208414 0.92469424 0.080584802 0.0013756879
-0.15147747 -0.40066263 -0.07545536 0.51542795 0.85297781 0.082237229 0.00019440259
-0.14395103 -0.40521529 -0.076875053 0.4797383 0.87393498 0.078030825 0.00090235367
0.13518031 -0.40897414 -0.071142197 -0.44206691 0.89411861 0.071614906 0.0017966933
0.14548311 -0.40199953 -0.076440915 -0.49946928 0.86262447 0.080058977 0.0005852718
-0.16282949 -0.39393151 -0.072015591 0.52750343 0.84662807 0.070434742 0.00034706594
0.15364386 -0.3969014 -0.076487675 -0.52663028 0.84581077 0.08523339 4.0573828e-05
-0.17538106 -0.38570371 -0.075846322 0.52727026 0.8454721 0.084634431 4.9523416e-05
-0.16926619 -0.38952485 -0.075800277 0.52699047 0.84580261 0.08305981 9.8811406e-06
0.17307255 -0.38452172 -0.078958265 -0.52775109 0.84517443 0.084610969 6.9691654e-05
-0.20070285 -0.3704614 -0.070388012 0.60132146 0.79636633 0.064908423 0.0010374793
-0.18957335 -0.37715197 -0.072872609 0.55244309 0.83034939 0.072983108 0.00046477185
0.18696919 -0.3763338 -0.074232541 -0.55974656 0.82527995 0.074812457 0.00062317157
0.19445299 -0.37159616 -0.074870929 -0.59825945 0.7972424 0.080561928 0.0011217914
-0.21060625 -0.36125085 -0.071182042 0.66648561 0.74338216 0.056391984 0.00097989349
-0.20430958 -0.36659259 -0.076401688 0.6113835 0.7875495 0.077304251 0.0010985956
0.20470262 -0.36329785 -0.072154455 -0.65762579 0.75040597 0.066477336 0.00086108228
-0.21574801 -0.35574174 -0.075236596 0.68586719 0.72310758 0.081863716 0.00039184344
0.20789051 -0.35964704 -0.076664865 -0.66501552 0.74320763 0.073463514 0.00080200931
0.21376948 -0.35382354 -0.077254623 -0.69337445 0.71697831 0.071930669 0.00024803693
-0.23003541 -0.34219635 -0.07150878 0.6978901 0.71346521 0.062584087 0.00026515243
-0.22652437 -0.34528756 -0.074445792 0.69980633 0.71144563 0.064158209 0.00024382626
0.2230601 -0.34513789 -0.073790334 -0.69970739 0.71166283 0.062814139 0.00035387708
-0.23175362 -0.33965433 -0.078828074 0.69820869 0.71163899 0.077939086 0
0.22805509 -0.33959949 -0.079311348 -0.69744098 0.71242273 0.077652767 8.0738471e-05
0.23582381 -0.33234096 -0.076377615 -0.6990518 0.71111876 0.07507766 6.5435386e-05
-0.24705917 -0.3248232 -0.077558041 0.70753938 0.70244694 0.077177137 0.00034324144
0.24345508 -0.32461959 -0.078523815 -0.70997167 0.69994068 0.077610217 0.00029895903
-0.25586233 -0.31662881 -0.073969811 0.74134487 0.66707408 0.07361982 0.0011163671
0.25112462 -0.3177827 -0.072836995 -0.73585588 0.67424327 0.062547214 0.0010298804
-0.26601219 -0.30375314 -0.075810798 0.79650468 0.60040164 0.071401373 0.00084314542
0.25937021 -0.3081924 -0.075352639 -0.79184037 0.60722059 0.065359674 0.0012026778
0.26030725 -0.30702978 -0.073781446 -0.79458344 0.60452002 0.056505013 0.0010641729
-0.27450579 -0.29073232 -0.078732051 0.8267017 0.55728209 0.077464685 4.7980069e-05
0.26537505 -0.29884917 -0.07836929 -0.81702971 0.57164359 0.075405948 0.00013995152
0.27174279 -0.29013512 -0.073318027 -0.82617253 0.55992746 0.062611312 0.00029818004
-0.28028235 -0.28307265 -0.07245411 0.82697427 0.5588342 0.061788384 0.00024093974
-0.27685338 -0.28720671 -0.079033345 0.82626927 0.55794549 0.077304177 6.1552608e-05
0.27536029 -0.28437856 -0.07601992 -0.82663238 0.55739599 0.07738556 0
-0.28348064 -0.27833229 -0.072430149 0.82643312 0.55940956 0.063790381 0.00020138713
0.28290647 -0.27346951 -0.074058473 -0.82867384 0.55517495 0.071277335 6.8818059e-05
-0.29277599 -0.26423758 -0.074554205 0.82822138 0.55691391 0.062420018 0.00015044532
0.28756168 -0.26654315 -0.074207097 -0.82801729 0.55630213 0.070109285 9.3013528e-05
0.29100454 -0.26130491 -0.0751165 -0.82724166 0.55738282 0.070679955 0.00014861622
-0.30140164 -0.25151256 -0.074076749 0.84732586 0.52708465 0.064967059 0.00067836279
-0.2966826 -0.25801545 -0.07750982 0.83585089 0.54399532 0.073637016 0.00031953203
0.29256585 -0.25832567 -0.079700559 -0.83224684 0.54913771 0.076243147 0.00011802822
-0.30660269 -0.24373595 -0.074345611 0.86271363 0.50121021 0.067182831 0.00092959136
0.30087298 -0.24659371 -0.075622618 -0.85651273 0.51166207 0.067733757 0.00073944381
-0.3110151 -0.23482382 -0.074596219 0.89243311 0.4467831 0.062834024 0.0011777095
-0.30851072 -0.23986557 -0.078538939 0.87911898 0.47171491 0.068079382 0.0013993232
0.30805701 -0.23260053 -0.077174038 -0.89201862 0.44598159 0.073506549 0.00077423954
-0.31468064 -0.2270132 -0.070998251 0.9076497 0.41532758 0.060621865 0.00057770382
0.31048149 -0.22836171 -0.070121244 -0.90886772 0.41222218 0.063500956 0.00030042755
-0.31898388 -0.21557871 -0.078191079 0.91615397 0.39421779 0.072485432 0
0.31589255 -0.21555606 -0.071237579 -0.9173522 0.39460838 0.052432463 0.00026702773
-0.32288116 -0.20702675 -0.075613879 0.91648549 0.3941474 0.068572409 6.9120892e-05
-0.33002561 -0.19088359 -0.073236398 0.91812837 0.39172733 0.059917234 5.6314348e-05
-0.32835343 -0.19424622 -0.075887941 0.91686624 0.39305475 0.069744609 1.4778881e-05
0.32535079 -0.19238494 -0.077157438 -0.91637766 0.39397818 0.070944868 6.8242596e-05
-0.33395654 -0.18202798 -0.071794815 0.91981506 0.38839108 0.055611886 0.00018107802
0.32846037 -0.18561034 -0.074854113 -0.91630715 0.39468956 0.067832984 8.8207817e-05
-0.33674526 -0.17482574 -0.075407788 0.92569858 0.37099904 0.073768906 0.00040305307
0.33427423 -0.17258149 -0.072375342 -0.92878544 0.36630622 0.056368239 0.00042510868
-0.34268612 -0.16139549 -0.071099326 0.95057368 0.30591232 0.05317172 0.0011802065
0.33705664 -0.1649304 -0.077285759 -0.93735796 0.34169936 0.067835219 0.00069752155
-0.34432966 -0.15203406 -0.078587152 0.96261054 0.26242504 0.067186415 0.00054612191
0.34094986 -0.15329643 -0.070777379 -0.96028543 0.27500513 0.047159705 0.00047655639
-0.34873399 -0.13467786 -0.075261205 0.97100055 0.23088433 0.062051307 2.3830207e-05
0.3456068 -0.13267916 -0.074123807 -0.97099245 0.23063658 0.063090093 0.00019082833
-0.35113254 -0.12438843 -0.075983413 0.97017062 0.23373826 0.064306416 0.00017995092
-0.34962872 -0.12967542 -0.079053894 0.96994716 0.23326582 0.069206774 2.0344029e-05
0.34830761 -0.12178114 -0.072858728 -0.97030908 0.23344606 0.063271485 0.00015711557
-0.35337359 -0.11470544 -0.076868728 0.96995556 0.23203793 0.073106624 3.6903351e-05
0.34936643 -0.11692809 -0.074120574 -0.9700473 0.23308021 0.068424575 2.4020624e-06
0.35042933 -0.11323257 -0.071826719 -0.96991366 0.23774004 0.052413382 0.00024415366
-0.35538211 -0.10680167 -0.075317688 0.9704088 0.23192526 0.06721136 0.0001535991
0.35482115 -0.094260208 -0.073555097 -0.97643328 0.20549151 0.065963201 0.00046088101
-0.3609356 -0.084130846 -0.073502429 0.98357654 0.16938007 0.062350355 0.00066507742
0.3566688 -0.085822262 -0.075660281 -0.98271114 0.17204799 0.068397775 0.0006533736
-0.36221048 -0.07426995 -0.074863799 0.99142909 0.1176566 0.056792408 0.00038398409
-0.36264968 -0.06682016 -0.076546662 0.9938007 0.089236446 0.066310406 0.00019149118
0.35941866 -0.064724661 -0.07257361 -0.9924432 0.10363623 0.065696076 0.00027431836
-0.36376348 -0.054697718 -0.074042663 0.99438602 0.079074048 0.07031209 3.500341e-05
0.35970512 -0.05678042 -0.076754555 -0.99404776 0.082290061 0.07139647 0.00010708988
0.36033988 -0.051619217 -0.073579796 -0.995116 0.076260246 0.062678076 0.00017530864
-0.36459279 -0.045759298 -0.072091326 0.9959178 0.071864344 0.054618508 0.00013895919
0.36110178 -0.041662138 -0.073530525 -0.9946332 0.075271994 0.070985228 3.1508927e-05
-0.36479288 -0.037238441 -0.077985302 0.99494845 0.074137561 0.06768553 0
0.3616057 -0.036785692 -0.071788788 -0.99575597 0.071235217 0.05827174 0.00032437459
-0.36585015 -0.023513496 -0.07782656 0.9952507 0.071137682 0.066449426 6.6076136e-05
-0.36663127 -0.018401537 -0.072681159 0.99587566 0.068308786 0.059712447 0.00028103348
0.36302811 -0.016237143 -0.073655806 -0.99668652 0.055171777 0.05976744 0.00018716928
-0.36763573 -0.003092021 -0.074798323 0.99746972 0.030911203 0.06402117 0.00051663775
-0.36740822 0.0062550069 -0.074622124 0.99760264 -0.018662402 0.066638805 0.00085709401
-0.36657226 0.017864825 -0.073989823 0.99633604 -0.064179868 0.056527682 0.00024459156
0.36316279 0.013858725 -0.074264988 -0.99608737 -0.063226216 0.061744027 0.00026951235
0.36228815 0.025025835 -0.074584961 -0.99493313 -0.072354659 0.069805548 2.0145359e-05
0.36148298 0.038652375 -0.071534134 -0.99530548 -0.078402653 0.056744181 0.00032417726
0.36054546 0.049475685 -0.073023081 -0.99517721 -0.077928111 0.059578091 0.00021894096
-0.36364219 0.055238307 -0.075092152 0.99434906 -0.078556553 0.071405828 0.00011538319
0.35981351 0.053199764 -0.078911319 -0.99441767 -0.076996557 0.072146334 4.2661744e-05
0.36025605 0.055027071 -0.071273372 -0.99514365 -0.080659308 0.056420229 0.00025687701
-0.36308348 0.062892869 -0.074774563 0.99391919 -0.093874089 0.057551514 0.00032152209
-0.36205286 0.076556437 -0.074646845 0.98951489 -0.13117634 0.060440268 0.00077519775
0.35849401 0.077081159 -0.07236103 -0.98914701 -0.13626933 0.054944616 0.00074215682
-0.35793525 0.097065702 -0.072405882 0.97415936 -0.21955006 0.0530218 0.0003568044
0.3541896 0.095088698 -0.079055086 -0.97342724 -0.21705359 0.072986946 6.1692488e-05
-0.35330212 0.11566321 -0.07487645 0.97039849 -0.23074915 0.071285293 4.9188293e-05
0.35034814 0.11219788 -0.075988092 -0.97004664 -0.23200174 0.072004586 4.2567994e-05
-0.35157645 0.12247463 -0.076146334 0.97045428 -0.23032883 0.071882881 0
0.34730327 0.12373742 -0.079675138 -0.97002035 -0.23147932 0.074013025 1.9276718e-05
-0.34907198 0.13247383 -0.077645004 0.97041589 -0.23005672 0.073259093 0
0.34440088 0.13742672 -0.075047322 -0.97006196 -0.23566993 0.058647696 0.00023002012
-0.34579507 0.14724731 -0.074490815 0.96436542 -0.25738004 0.061276611 0.00025634575
0.34178719 0.14758652 -0.077441439 -0.96556026 -0.25039449 0.070682421 0.00039399508
-0.34307665 0.15824255 -0.075688109 0.95414746 -0.29401112 0.056214578 0.00077746232
0.33961391 0.15655603 -0.077853441 -0.95615137 -0.28441259 0.069885768 0.00061251951
0.34104627 0.15178317 -0.074135303 -0.96444619 -0.25785217 0.057929732 0.00053977728
-0.33922109 0.16838124 -0.07886865 0.93525177 -0.34652907 0.072261795 0.00088413333
0.33812386 0.16270697 -0.076841511 -0.94705945 -0.31429932 0.0655315 0.00090722629
-0.33715904 0.17370608 -0.076201051 0.92580551 -0.372049 0.066811256 0.00041890889
-0.33239514 0.18516451 -0.074287906 0.91824901 -0.39151132 0.059476603 0.00019083217
0.32727867 0.18822645 -0.075519331 -0.91649741 -0.39327851 0.073242955 2.9252842e-05
0.33041042 0.18136343 -0.073401652 -0.91879547 -0.38817549 0.071656391 9.0248192e-05
-0.3272512 0.19737259 -0.073050044 0.91709501 -0.39335033 0.064902179 0.00021636179
0.32317698 0.19756238 -0.076543055 -0.91629988 -0.39372787 0.07329981 0
-0.3232033 0.20639119 -0.075041175 0.9171232 -0.39334953 0.064507008 6.2335137e-05
0.3204743 0.2047583 -0.071954787 -0.91591084 -0.3962706 0.063850358 0.00021657288
-0.32058823 0.2118265 -0.078298055 0.91643596 -0.39388847 0.070688181 0
-0.31899768 0.21703537 -0.070687376 0.91636747 -0.39629307 0.056766387 8.8192784e-05
0.31372231 0.21968809 -0.075848788 -0.91448534 -0.39839226 0.07071165 0.00012479184
-0.31587601 0.22329938 -0.075705707 0.91111195 -0.40751696 0.061685421 0.0002265474
0.31205338 0.22453719 -0.070972055 -0.91024631 -0.40896097 0.064827278 0.00025454737
-0.31037408 0.2368349 -0.071973108 0.88959837 -0.45334581 0.055607621 0.00075832207
-0.3091554 0.23882985 -0.076202996 0.88424015 -0.46066737 0.076842494 0.0010425641
0.30840036 0.23277746 -0.072258599 -0.8941716 -0.44299859 0.064879835 0.0007854146
-0.3052893 0.24535437 -0.076782621 0.86109239 -0.50208396 0.080196895 0.000869204
0.2988987 0.24934709 -0.0768326 -0.85267419 -0.51834154 0.065335549 0.00077038276
0.30338103 0.24241185 -0.077966541 -0.87778574 -0.47423479 0.067775682 0.0011649909
-0.30240294 0.25046703 -0.071038596 0.84026468 -0.53853148 0.062762104 0.0002673163
0.29606816 0.25358662 -0.076550096 -0.84201032 -0.53523064 0.067429267 0.00047994492
-0.29020008 0.26806834 -0.074484624 0.82638788 -0.5583486 0.073005676 7.7149387e-05
0.29153457 0.26006427 -0.078257479 -0.8279103 -0.5564155 0.070472486 6.7442728e-05
-0.2860586 0.27444893 -0.072841734 0.82721537 -0.55715185 0.07277672 0.00013117721
0.28372684 0.27184892 -0.076848507 -0.82684028 -0.55723059 0.07634899 0
-0.27645287 0.288221 -0.076128691 0.82641071 -0.55868185 0.070142277 7.1575661e-05
0.27373993 0.28672671 -0.076401398 -0.82652503 -0.55811602 0.073232174 8.2197694e-05
-0.2732054 0.29312652 -0.075515419 0.8226701 -0.56441325 0.068202317 0.00018916518
0.26926413 0.29308218 -0.078359038 -0.82653999 -0.55788231 0.074825913 0
0.25940993 0.30827132 -0.074399792 -0.77643925 -0.62579 0.074356101 0.0011679564
0.26365474 0.30188927 -0.074993663 -0.81030655 -0.58147109 0.072764046 0.00046427429
-0.26094279 0.31141806 -0.074090093 0.76090717 -0.64522761 0.068569198 0.0014097343
-0.25798035 0.31452951 -0.074189372 0.74721879 -0.66111308 0.067776181 0.0010965744
0.2493016 0.31914598 -0.076427773 -0.73303962 -0.6760658 0.074752443 0.00088024163
-0.24261436 0.32946593 -0.075052232 0.69898742 -0.71142185 0.072770208 0.00018938896
0.23944892 0.3289699 -0.074891329 -0.7014361 -0.70809823 0.081143066 0.00011516227
-0.24032256 0.33183032 -0.074021354 0.69825089 -0.71213037 0.072910026 0.00012810457
-0.23520149 0.33655104 -0.076499492 0.69857174 -0.71094018 0.081004255 0
0.2324153 0.33584642 -0.07495667 -0.69679457 -0.71283472 0.079648398 0
-0.22316813 0.34827632 -0.076945066 0.69659364 -0.71300107 0.079917036 0
0.21969669 0.34850487 -0.073169418 -0.69634479 -0.71424204 0.070443012 0.00011453427
0.22531992 0.34249035 -0.0775152 -0.69667542 -0.7128579 0.080480076 1.8018283e-05
-0.2160511 0.3553026 -0.076431066 0.69527143 -0.71437633 0.079145566 5.3813699e-05
0.21363719 0.3541247 -0.075814605 -0.68794656 -0.72152275 0.078322709 0.00022362177
-0.21031138 0.36091709 -0.076459378 0.65894002 -0.74783105 0.08091142 0.0010819524
-0.20839883 0.36262771 -0.0778303 0.6483205 -0.75716543 0.07988096 0.0012997841
0.19940394 0.36764219 -0.07931073 -0.62996233 -0.77285182 0.076468445 0.0016614731
0.20312038 0.36411273 -0.078397892 -0.64564401 -0.75966907 0.077761441 0.0010717585
-0.20037347 0.37029123 -0.074042976 0.60349792 -0.79343009 0.079113528 0.0012160364
-0.19187936 0.37591881 -0.07088533 0.56078875 -0.82510138 0.068728484 0.0010264952
-0.18792699 0.37763786 -0.078158796 0.55242723 -0.82882351 0.088744834 0.00055802503
0.18685335 0.37637579 -0.074509211 -0.55612957 -0.82875085 0.06238554 0.00044812312
0.19224057 0.37272084 -0.0773542 -0.58544558 -0.80755019 0.071527384 0.0012966408
-0.18323149 0.38084373 -0.075483434 0.53024971 -0.84366494 0.084052294 0
-0.17219053 0.38778308 -0.075011745 0.5264402 -0.84639651 0.080458663 4.0859359e-05
-0.16850851 0.38957018 -0.079984345 0.52694887 -0.84564841 0.084874198 0
0.16532682 0.38984007 -0.07422594 -0.52640218 -0.84696883 0.074461997 0.00018918316
0.17591973 0.38308516 -0.07562276 -0.52918684 -0.84442836 0.083078288 0
-0.16388221 0.39266214 -0.077993013 0.52664512 -0.84611088 0.082105458 1.4629337e-05
-0.15478617 0.39841464 -0.077258423 0.52549827 -0.84684283 0.081907123 0.0001063277
0.14975429 0.39967757 -0.073075943 -0.52072865 -0.85063481 0.072540551 0.00035641805
0.15457293 0.39610845 -0.078535601 -0.52532166 -0.84690022 0.082444772 0.00010408494
-0.14635533 0.40377489 -0.076300949 0.49438667 -0.86518657 0.083869539 0.0011044699
-0.13993752 0.40838969 -0.070370704 0.44649118 -0.89231676 0.0664564 0.0016177995
0.13865414 0.40663353 -0.072812319 -0.47777653 -0.87567538 0.070158564 0.0011810774
0.14420143 0.40276465 -0.076761499 -0.5055902 -0.85887796 0.08189714 0.00038904359
-0.13451481 0.41072807 -0.074988857 0.41669747 -0.90649354 0.068063855 0.0017271502
-0.12465049 0.41407168 -0.075762987 0.3625429 -0.92865765 0.078469791 0.00086650008
-0.11638847 0.41744256 -0.070409216 0.33472016 -0.94059587 0.056936327 0.00032303721
0.10976718 0.4183017 -0.072047152 -0.33032894 -0.94176883 0.062883526 0.00036396668
0.11665398 0.41536427 -0.07785435 -0.33593538 -0.93823993 0.082784466 0.00015272596
0.12200375 0.41358441 -0.077079371 -0.36481383 -0.92740917 0.082602002 0.0010668742
0.1309959 0.41106242 -0.070830993 -0.43831635 -0.89616817 0.06900239 0.0015766732
-0.10811716 0.42009121 -0.072693668 0.33010089 -0.94186759 0.06260094 0.00025419809
-0.094189219 0.4244926 -0.077156805 0.32692504 -0.94106728 0.086673558 7.5874465e-05
-0.082279801 0.42848217 -0.078593917 0.30883294 -0.94749528 0.082915686 0.00017697408
0.077099159 0.42934412 -0.074947648 -0.29124874 -0.95380628 0.073673882 0.0005852629
0.087198049 0.42583564 -0.075050712 -0.32044193 -0.94406968 0.077777259 0.00013499183
0.09535557 0.42317662 -0.073290609 -0.32425272 -0.94354874 0.067646325 0.00030502462
0.10220011 0.4207603 -0.07376419 -0.32486627 -0.94192708 0.085060328 5.5330627e-05
-0.080027945 0.43006781 -0.070115089 0.29720166 -0.95237178 0.068258598 0.00072814565
-0.074271344 0.43141437 -0.076934427 0.25214702 -0.96413386 0.082872272 0.0015133717
-0.064194098 0.43427679 -0.07291957 0.18342097 -0.97993726 0.077972613 0.0015263737
-0.052001268 0.43573236 -0.071739949 0.13553315 -0.98863858 0.064996295 0.00064187433
-0.03561417 0.43723413 -0.075107157 0.10996292 -0.99106032 0.075549111 0.00033797586
-0.026610782 0.43830216 -0.074308448 0.10870355 -0.99108934 0.076977141 0.00013830324
-0.015414411 0.43961143 -0.073520064 0.080030262 -0.99489504 0.061474167 0.00074943813
0.016834063 0.43893504 -0.074731164 -0.085197836 -0.99376196 0.071962759 0.00053297437
0.033452392 0.43715215 -0.074150831 -0.10519903 -0.99183267 0.072118238 0.00022500507
0.04762657 0.43577677 -0.072072238 -0.13060465 -0.98952991 0.061423965 0.00052470667
0.055848867 0.43476996 -0.07314416 -0.17533222 -0.98215306 0.068072401 0.0012904418
0.062973678 0.43357554 -0.075805664 -0.20141292 -0.97679317 0.072855391 0.0015826491
-0.012437433 0.44015241 -0.071208328 0.059654739 -0.99658018 0.057177328 0.001028193
-0.0072411522 0.4402698 -0.076188982 0.03616764 -0.99650264 0.07532879 0.0011563792
0.00089087535 0.44038075 -0.078178577 0.0021023147 -0.99699461 0.077441566 0.0011194071
-0.017827626 -0.44035751 -0.06247592 0.089641459 0.99553818 0.029463401 0.00084396894
-0.0011921338 -0.44186357 -0.064519562 0.0037050953 0.99922794 0.03911113 0.0018717289
0.0055241873 -0.44094604 -0.06643308 -0.034538064 0.99817973 0.049439788 0.0014803867
0.014304581 -0.44047752 -0.060963273 -0.080527976 0.99651277 0.021854606 0.0014533034
-0.073081836 -0.43307656 -0.063777298 0.25072247 0.96740341 0.035621598 0.0014901478
-0.06496428 -0.43490618 -0.065128595 0.19556472 0.97989845 0.039414834 0.0015143573
-0.056323044 -0.43596548 -0.063989259 0.15614121 0.98725814 0.030679872 0.0012353942
-0.043384388 -0.43731838 -0.064824596 0.11748997 0.99226993 0.039956771 0.00070080016
-0.037657294 -0.43793574 -0.064992949 0.11172371 0.99249351 0.049744017 0.0005456566
-0.024514576 -0.43929285 -0.066028468 0.098958828 0.99419516 0.042226762 0.00071082474
-0.018153243 -0.43987176 -0.067379385 0.09254612 0.99449646 0.049110956 0.00058972638
0.018367153 -0.43982482 -0.063186184 -0.10355058 0.99389952 0.037960138 0.00097328762
0.021813877 -0.43924251 -0.065383136 -0.10617667 0.99329609 0.045709871 0.00063215516
0.037185118 -0.43732366 -0.067787915 -0.11399138 0.99179381 0.057887562 0.00033615396
0.046462227 -0.43631566 -0.067602672 -0.12736431 0.99057776 0.050338373 0.00055746705
0.054173235 -0.43573028 -0.064695418 -0.15876876 0.98574185 0.055725873 0.0012406462
0.064748771 -0.43421566 -0.06575904 -0.21974671 0.97467053 0.041577954 0.0017318804
0.074715063 -0.43091327 -0.067120209 -0.27796841 0.95909017 0.053662531 0.0011246601
-0.10440694 -0.42240697 -0.061849251 0.32442555 0.94523299 0.035814658 0.00079347641
-0.096054949 -0.42471114 -0.068055756 0.33336902 0.94072318 0.062490311 0.00048663409
-0.085500278 -0.42909056 -0.060445935 0.31791434 0.9479059 0.020121094 0.00075073651
0.086041689 -0.42740697 -0.062721692 -0.31541571 0.94811124 0.039973233 0.00031796191
0.096208289 -0.42392233 -0.062325455 -0.32262361 0.94560724 0.041725203 0.00047540534
-0.133595 -0.41207871 -0.063321449 0.41141602 0.91055459 0.04033741 0.0014861902
-0.11292365 -0.41890085 -0.067698389 0.32575238 0.94368726 0.057790089 0.00046411931
0.11816588 -0.41565371 -0.069286317 -0.33829743 0.93944287 0.054789104 0.00047162062
0.1247879 -0.41372228 -0.065468155 -0.37450525 0.92604095 0.046840642 0.0012274531
0.13317657 -0.41086888 -0.06330917 -0.43221983 0.90106463 0.03561642 0.0021363937
-0.14818205 -0.40374917 -0.065445207 0.50385988 0.86275876 0.042100791 0.0010096234
0.13778536 -0.40796036 -0.065185204 -0.45330667 0.89007717 0.047703754 0.0022618885
0.14536884 -0.40343595 -0.063155025 -0.50791591 0.86080796 0.032108005 0.001123815
-0.16500093 -0.39340577 -0.063952565 0.53152877 0.84619337 0.037867904 0.00087295106
-0.1563389 -0.39863777 -0.065645024 0.52020383 0.85225219 0.055264372 0.00053612719
0.15330087 -0.39808655 -0.067037053 -0.52730721 0.84822142 0.049673747 0.00055668992
0.16285801 -0.39225265 -0.065762833 -0.53172004 0.84558904 0.047466069 0.00055869215
-0.18384087 -0.38165092 -0.063918076 0.53314728 0.84425694 0.054627631 0.00040451565
-0.1766198 -0.38581949 -0.067205638 0.52887666 0.846407 0.062327445 0.00043553158
0.16634479 -0.3897354 -0.069082677 -0.53285795 0.84452802 0.05324357 0.00054054114
0.17686862 -0.38350239 -0.065820664 -0.53419048 0.84402961 0.047483046 0.00056765892
-0.19106519 -0.37677002 -0.067534201 0.56009042 0.82651907 0.056258362 0.00084700534
0.18671434 -0.37733772 -0.06601318 -0.5645178 0.82439488 0.041143008 0.00075566879
-0.20954314 -0.36255109 -0.068972751 0.66279715 0.74693495 0.052802414 0.0010376887
0.19962882 -0.36874244 -0.068087101 -0.62501633 0.77898896 0.050307028 0.001277498
0.20443241 -0.36402726 -0.068202868 -0.65183133 0.75610638 0.058472846 0.0011928937
-0.21863344 -0.35407269 -0.065411106 0.69309247 0.71966946 0.04121479 0.00043621261
0.21492751 -0.35402513 -0.065907955 -0.6994552 0.71344674 0.041906822 0.00061087287
-0.23105356 -0.341427 -0.069575652 0.69627577 0.71505374 0.062436219 0.00026614312
-0.22470754 -0.34859973 -0.061394565 0.69769758 0.71579486 0.029253449 0.00052962051
0.22205271 -0.34701073 -0.066252783 -0.70136529 0.71107459 0.049595281 0.0004748076
-0.24097261 -0.33202258 -0.066989571 0.69644165 0.71605891 0.047208201 0.00036128997
-0.23688103 -0.33650142 -0.062955454 0.69747531 0.71615362 0.025538141 0.0005360322
0.22986853 -0.33998537 -0.060945656 -0.70159936 0.71205366 0.027163701 0.00072317541
0.23779778 -0.33182636 -0.064330347 -0.69799942 0.71449232 0.047932737 0.00043255836
-0.25179279 -0.32133326 -0.067832023 0.71822405 0.69365436 0.054751869 0.00081171637
-0.24836086 -0.32490194 -0.066048354 0.71065521 0.70175999 0.050020259 0.00072785793
-0.26161912 -0.31173906 -0.065435007 0.76791453 0.63759959 0.061431952 0.0016293109
-0.2567628 -0.31671545 -0.065734044 0.74863333 0.66145784 0.044963345 0.0016423466
0.25804237 -0.31159148 -0.065472737 -0.76983219 0.63712001 0.037901323 0.0015629998
-0.27248091 -0.29561496 -0.065745123 0.82073677 0.56962723 0.043771464 0.00059398118
0.26770714 -0.2969532 -0.067566775 -0.81863219 0.57158244 0.055990275 0.00041682893
0.27136636 -0.29212043 -0.063455917 -0.8247261 0.56480515 0.028670423 0.00058854918
-0.28246793 -0.28102791 -0.06418173 0.82748413 0.56040972 0.034799166 0.00042028798
-0.27870476 -0.28676394 -0.063115023 0.82420719 0.56554747 0.028957117 0.00049831718
0.27625594 -0.2845608 -0.065579362 -0.82744819 0.55939251 0.049087059 0.00028912496
0.27953222 -0.27991539 -0.064099148 -0.82688957 0.56076604 0.042367399 0.0004757001
0.28349566 -0.2745553 -0.060514793 -0.82961619 0.55806267 0.017407496 0.00079122756
-0.29318699 -0.26509291 -0.064430043 0.83015114 0.55622536 0.038243461 0.00056175486
0.28867364 -0.2666533 -0.062047213 -0.83147842 0.55477637 0.029442996 0.0006869075
0.29110831 -0.26253071 -0.065581664 -0.83328742 0.55114734 0.043228608 0.00049851218
-0.30111328 -0.25347662 -0.063460194 0.84343046 0.53660583 0.026060279 0.00066910754
-0.29878116 -0.25672552 -0.064912818 0.83735949 0.54532319 0.038102165 0.00057256583
0.29599762 -0.255732 -0.062448017 -0.84283614 0.53689235 0.037064411 0.00056235236
0.30402035 -0.24378425 -0.062779129 -0.86037606 0.50844353 0.035187613 0.00083372527
-0.31262612 -0.23327596 -0.063514329 0.89785385 0.43913022 0.03198665 0.0012158451
-0.30988771 -0.23961762 -0.063648969 0.88302404 0.46774802 0.038474441 0.0012128745
-0.31557474 -0.22526255 -0.06934204 0.91401935 0.40216792 0.053194746 0.00042237091
-0.3191573 -0.21830066 -0.062439263 0.91672361 0.39886501 0.022904757 0.00047416711
-0.32285091 -0.20891221 -0.066465095 0.91833001 0.39424276 0.0352506 0.00042236396
0.32129046 -0.20413667 -0.065522075 -0.91577315 0.40017426 0.034929451 0.00054397515
-0.3304593 -0.19232769 -0.060874805 0.9206655 0.39012226 0.013405741 0.00055870385
-0.3273102 -0.19977623 -0.060243342 0.92018765 0.39091435 0.02099039 0.00045631037
0.32703605 -0.19101575 -0.06430655 -0.91680384 0.39783835 0.034573194 0.00047767544
0.32830751 -0.18814647 -0.063865326 -0.91581941 0.40018579 0.033558473 0.00041863203
0.3309046 -0.18212651 -0.063764796 -0.91713607 0.39755258 0.028519625 0.00062774902
-0.33753201 -0.1747849 -0.066392556 0.92624927 0.37504879 0.0374263 0.00048589564
0.33420056 -0.17491844 -0.061460931 -0.93034995 0.36614591 0.019652331 0.00069750391
-0.34180099 -0.16463429 -0.064918771 0.94337708 0.32966241 0.036910873 0.0011749981
0.33677515 -0.16805311 -0.065885358 -0.93973768 0.33921835 0.042708043 0.00090701564
-0.34434122 -0.15629807 -0.065537468 0.95749521 0.2859703 0.037734311 0.00096478936
0.34203944 -0.15180944 -0.061460115 -0.96191096 0.27289307 0.016015632 0.00052656443
0.34360495 -0.14389287 -0.065568559 -0.96937466 0.24299288 0.035597995 0.00035221409
-0.34919459 -0.13563833 -0.066514149 0.97080809 0.23550859 0.045466371 0.00018192333
0.34572402 -0.13479425 -0.066235058 -0.97163385 0.23533924 0.023304021 0.00045138909
-0.35168603 -0.1257799 -0.064755015 0.97020012 0.23837389 0.043469429 0.00036768863
0.34740537 -0.12944172 -0.061113544 -0.97150242 0.23639618 0.017320465 0.00052560907
-0.3531734 -0.1189405 -0.066591486 0.97114229 0.23517649 0.039682467 0.00052691373
0.35039243 -0.11671369 -0.061757661 -0.97204834 0.2343958 0.013440575 0.00044894172
-0.35695872 -0.10446044 -0.062411439 0.97292829 0.22939475 0.028082717 0.0005597999
0.35197532 -0.10863085 -0.066149503 -0.97300333 0.2288236 0.03007268 0.00049083517
-0.35870466 -0.096816123 -0.063405029 0.97485548 0.22095191 0.028931228 0.00071838067
0.35610271 -0.092407487 -0.062911846 -0.97904646 0.20258504 0.02067359 0.00087799982
-0.36039084 -0.089003772 -0.065665022 0.9799788 0.19150946 0.054458451 0.00069177814
0.3572816 -0.086791418 -0.064959131 -0.98213691 0.18548706 0.031650685 0.00081840594
-0.36339176 -0.07144694 -0.062173739 0.99343783 0.11259662 0.020083278 0.00056958693
0.35925907 -0.076322235 -0.063073859 -0.99059397 0.13268393 0.033443112 0.00084969506
-0.36355448 -0.064780876 -0.066702962 0.99525368 0.089003459 0.039351434 0.00031253567
0.35957745 -0.067855597 -0.067358352 -0.99293357 0.1099801 0.044579085 0.00047340171
0.36039636 -0.061564773 -0.062894866 -0.99535108 0.089349143 0.035958104 0.0003724987
-0.36483312 -0.050149202 -0.064544261 0.99687964 0.072256275 0.031782169 0.00039556756
0.36081305 -0.052583802 -0.066402517 -0.99618042 0.076283924 0.042489387 0.00055981765
-0.36520949 -0.044639703 -0.065111488 0.99672824 0.074371845 0.031648606 0.00040264367
0.36132076 -0.044184022 -0.06813325 -0.99592763 0.076897472 0.047063585 0.00040749452
-0.36628929 -0.030147595 -0.065425038 0.99636489 0.077381611 0.035625841 0.00034004371
0.36213875 -0.038201056 -0.063374303 -0.99670118 0.075265191 0.030361664 0.00078774063
-0.36654505 -0.025681946 -0.06653171 0.99624223 0.077274315 0.039116666 0.00038673007
0.36305934 -0.028465301 -0.06101983 -0.99766964 0.062924318 0.02637727 0.00062157051
-0.36745125 -0.014280179 -0.06603387 0.99726158 0.05948849 0.043937225 0.00051041099
0.36381841 -0.018138357 -0.061377306 -0.99789023 0.058840461 0.027440047 0.00048486778
-0.36817241 -0.0045224293 -0.066321112 0.99922156 0.019143477 0.034493987 0.00076293648
-0.36836612 0.0030889891 -0.065210126 0.99946266 -0.004213654 0.032507241 0.00086155883
0.3644298 0.0076937713 -0.063791521 -0.99903941 -0.025295217 0.035781898 0.00045277498
-0.36773881 0.015030141 -0.061506689 0.9984172 -0.050685581 0.024375807 0.00037883446
-0.36650062 0.028284051 -0.064511821 0.99678695 -0.073527381 0.031774171 0.00033174601
0.36277971 0.025877595 -0.067278743 -0.99593627 -0.074072376 0.051227044 0.00032103059
-0.36594617 0.034894984 -0.065181263 0.99650884 -0.073673844 0.039270982 0.00059947313
0.36257845 0.032298233 -0.063502409 -0.99665505 -0.076658815 0.028319776 0.00034548718
-0.3654713 0.042325884 -0.063986063 0.99653488 -0.076260373 0.033205107 0.00043944141
0.36195028 0.042211771 -0.061839048 -0.9969511 -0.074660435 0.022677585 0.00045252554
-0.36441064 0.053976394 -0.066264004 0.99651855 -0.076151177 0.033935551 0.00042176581
-0.36356366 0.067712881 -0.063649423 0.9932977 -0.11149415 0.030475965 0.00047345972
0.35970351 0.069284432 -0.064274572 -0.99349916 -0.10763151 0.0370786 0.00075263093
0.3604573 0.061513484 -0.062145699 -0.9963212 -0.0834352 0.019561527 0.00049672148
-0.36293113 0.073572122 -0.066095807 0.99062288 -0.13078234 0.039525844 0.00062420388
0.35925847 0.07289762 -0.06650573 -0.99127263 -0.12220392 0.049445041 0.00085056585
-0.36053699 0.089625008 -0.061931524 0.9817819 -0.18790045 0.028242035 0.00073509669
0.35797155 0.08294607 -0.067846142 -0.98747373 -0.15164301 0.043590408 0.00073846499
-0.35914686 0.094552487 -0.064647526 0.97753298 -0.20705017 0.039489798 0.00053253694
0.35475799 0.095872626 -0.069476843 -0.97525805 -0.2151266 0.050914027 0.000313294
-0.35620672 0.10766207 -0.06225821 0.97285968 -0.23044875 0.020916095 0.00064674258
0.35346356 0.10245191 -0.065978482 -0.97245139 -0.2288696 0.044237956 0.00033661971
-0.35410202 0.11603241 -0.063616715 0.97185344 -0.23394002 0.027804129 0.00050942932
0.35030854 0.11646044 -0.063588664 -0.97183079 -0.23307157 0.034965072 0.00053605175
0.34858882 0.12429897 -0.061671391 -0.97130364 -0.23664086 0.023882926 0.00056682108
-0.34891272 0.13741833 -0.064702213 0.97155744 -0.23214674 0.046734039 0.0004684052
0.34534892 0.13682707 -0.064839609 -0.9716441 -0.23269221 0.041977171 0.00027633985
-0.34697434 0.14394955 -0.069516703 0.96726835 -0.24785711 0.054394811 0.00037677787
0.34253359 0.14981347 -0.061234966 -0.96803719 -0.2486971 0.032460421 0.00056499505
-0.34466296 0.15472811 -0.066208489 0.95800406 -0.2841087 0.038866527 0.00061614363
-0.34155336 0.16532089 -0.066957407 0.94281459 -0.33068347 0.041823555 0.00088905141
0.33766901 0.1661773 -0.06465058 -0.94082165 -0.3367717 0.037941601 0.0010531243
-0.33866352 0.17227012 -0.065804765 0.93368 -0.35572019 0.041288704 0.00063859526
-0.3339923 0.18320331 -0.06545198 0.919559 -0.3894248 0.052531075 0.00023728728
0.32999885 0.18470974 -0.061362166 -0.91910434 -0.39347491 0.020610804 0.00069238083
-0.32770914 0.19740036 -0.06754303 0.91854906 -0.39286953 0.043830454 0.00039553407
0.32430044 0.19816199 -0.060354769 -0.9185586 -0.3943319 0.02743 0.0007192067
-0.32462242 0.20581068 -0.061333228 0.91693896 -0.39818051 0.025985375 0.00054182042
0.3194606 0.20828493 -0.066063061 -0.91868383 -0.39248094 0.04448206 0.00051151984
0.3209385 0.20517296 -0.064424783 -0.91849923 -0.39417073 0.031443544 0.00069422653
-0.32157022 0.21212587 -0.065279216 0.91795278 -0.39438507 0.042698346 0.00049048406
0.31776622 0.2131566 -0.0613706 -0.91800803 -0.3957448 0.025442105 0.0005972322
-0.31646356 0.22440368 -0.063253 0.91032273 -0.41278303 0.030375687 0.00049273513
0.31102568 0.22826317 -0.06423974 -0.90491897 -0.4242993 0.033040293 0.00067652517
-0.31221867 0.23408028 -0.064236395 0.89253873 -0.44899178 0.042200904 0.00075118744
0.30841637 0.233731 -0.067265987 -0.89675289 -0.44001043 0.047170822 0.00073577161
-0.30336082 0.24940717 -0.068544298 0.85468709 -0.51636475 0.053641226 0.0010249406
0.30372697 0.24389312 -0.065033525 -0.86610293 -0.49807134 0.042316519 0.0012218384
-0.30112913 0.25264558 -0.069040649 0.83941036 -0.5408892 0.053188287 0.00043340586
-0.29824457 0.25807396 -0.061094105 0.83608675 -0.54804373 0.024638286 0.00060481502
0.29746747 0.2530095 -0.066196516 -0.84913397 -0.52683139 0.03768592 0.00067180634
-0.29239669 0.26564464 -0.068717904 0.82871717 -0.55722237 0.052260861 0.00029936156
0.28762874 0.26747069 -0.067109682 -0.82714987 -0.55909801 0.05685506 0.00020092929
-0.28421143 0.27832475 -0.064990938 0.83126479 -0.55426353 0.042316753 0.00064861588
0.28299582 0.27461553 -0.065222114 -0.82707328 -0.56096077 0.035676792 0.00045524773
-0.28216603 0.28130025 -0.065394178 0.83157092 -0.55362654 0.044581287 0.00062029238
0.27703813 0.2832776 -0.066429213 -0.82812083 -0.5584088 0.048943378 0.0004623468
-0.27181166 0.29683471 -0.064175077 0.8191697 -0.57228798 0.038045056 0.00055332569
0.2672286 0.29759124 -0.068062551 -0.81776619 -0.57347566 0.048827253 0.00060700031
0.27114594 0.2923027 -0.064456098 -0.82713181 -0.561122 0.031544752 0.00054608408
-0.26707044 0.30319515 -0.068819098 0.8055498 -0.59087032 0.044291697 0.00062456744
0.26391608 0.30270249 -0.066694722 -0.80003774 -0.59789127 0.049654823 0.00089349586
-0.25690389 0.31645596 -0.066761106 0.74319369 -0.66693139 0.053530809 0.0013981822
0.25411966 0.3159717 -0.063312717 -0.75685388 -0.65285313 0.030904293 0.0010297258
-0.25149515 0.32162166 -0.067845769 0.71686846 -0.69534492 0.050941303 0.00075260724
-0.24566482 0.32755655 -0.065904222 0.69946975 -0.71369684 0.037133284 0.00061146519
0.24445736 0.32528141 -0.064565882 -0.7130152 -0.70052832 0.029484123 0.00082894467
-0.24194564 0.33154488 -0.062945761 0.69918901 -0.71448475 0.025421362 0.00062337267
-0.23583841 0.33720359 -0.065654568 0.6993196 -0.71400535 0.033888955 0.00054801151
0.2379477 0.33218825 -0.060010009 -0.69926536 -0.71449316 0.022965575 0.00076039409
0.24000487 0.33015701 -0.06016127 -0.70457476 -0.70931733 0.021057025 0.0006919083
-0.22604811 0.34667408 -0.066604868 0.69995028 -0.71259052 0.047795679 0.0005134042
0.219896 0.34886909 -0.068411052 -0.69580746 -0.71563619 0.060966078 0.00025486594
0.22860485 0.34032667 -0.068568997 -0.69573408 -0.715904 0.058614373 0.00048901525
-0.22069772 0.35251251 -0.061491095 0.69721812 -0.71625394 0.029448174 0.00076617213
-0.2173513 0.35567504 -0.062449649 0.6938439 -0.71954292 0.028958065 0.00081198727
0.20903523 0.35935083 -0.069672644 -0.67004722 -0.74001855 0.058388494 0.0008684207
0.21447346 0.3544879 -0.065761134 -0.69331247 -0.71977377 0.035263762 0.00054849952
-0.20593594 0.36702561 -0.060939111 0.63596851 -0.77134031 0.024044622 0.0019562782
0.20586832 0.36287484 -0.06606207 -0.65137661 -0.75738972 0.045488775 0.0010564766
-0.20193782 0.37038666 -0.063590288 0.60768092 -0.79342288 0.034698684 0.0018715487
-0.18773092 0.37890142 -0.067055948 0.54557681 -0.83613187 0.056828283 0.00074300519
0.18260883 0.37974364 -0.067522846 -0.55035526 -0.83317554 0.054105386 0.00039540173
0.19315141 0.37313956 -0.067758195 -0.58579063 -0.80880392 0.051821854 0.0013747792
-0.18225434 0.38265109 -0.063828655 0.52418905 -0.85094118 0.033539318 0.00065856095
-0.17772454 0.38486493 -0.069797628 0.52716798 -0.84767282 0.059537817 0.00047367634
0.16853239 0.38879806 -0.064907633 -0.52885586 -0.84736758 0.047745015 0.00035084493
0.17617874 0.38397369 -0.065414898 -0.53324682 -0.84454471 0.048908204 0.000327777
-0.15694834 0.39829826 -0.065257713 0.52368671 -0.85049528 0.049091298 0.00052974443
0.15548363 0.39705837 -0.063777015 -0.5278371 -0.84852505 0.037323903 0.00075322023
0.16353196 0.39174131 -0.06663423 -0.52998149 -0.84600496 0.058268011 0.00035885585
-0.14588331 0.40541169 -0.063238129 0.48276979 -0.87529796 0.028049968 0.0014325139
-0.1386766 0.40942618 -0.067942455 0.43727839 -0.8978712 0.051136296 0.001546873
0.14681356 0.40245396 -0.063928649 -0.51404583 -0.85707968 0.034223165 0.00075216335
-0.12475576 0.41474268 -0.068314612 0.36067227 -0.93114305 0.053741414 0.00077554677
-0.11370835 0.41870558 -0.066888712 0.3356759 -0.94055235 0.051797893 0.00039426432
0.1168059 0.41662204 -0.064055651 -0.33671191 -0.94068593 0.041653346 0.00069377909
0.12615703 0.41336855 -0.064200088 -0.39390412 -0.91805959 0.044788755 0.002050855
0.13335808 0.41059804 -0.066205621 -0.44034189 -0.89649254 0.048992187 0.0019916671
-0.10650042 0.42150864 -0.063669503 0.33215848 -0.94196093 0.048789494 0.00055219646
-0.097079821 0.42472064 -0.064214468 0.33117044 -0.94218606 0.051103458 0.00029491383
-0.082120642 0.42953032 -0.068140663 0.31195971 -0.94790828 0.064428672 0.0003296654
0.082510367 0.42836064 -0.065564513 -0.31047273 -0.94954491 0.044396635 0.00092274224
0.095805228 0.42403555 -0.062605403 -0.33827555 -0.94079113 0.021946378 0.0006180174
-0.076510891 0.4316754 -0.066019148 0.27827093 -0.95866764 0.059343193 0.0013096427
-0.061945491 0.43545443 -0.062790029 0.17327599 -0.98434144 0.032362033 0.0016466841
-0.046706349 0.43717211 -0.062419631 0.11731571 -0.99266171 0.029322039 0.00098505942
-0.036684204 0.43799579 -0.0655123 0.11462928 -0.99241555 0.044401299 0.00078979164
0.03423347 0.43770713 -0.067159757 -0.11403012 -0.99220961 0.050172154 0.00050799083
0.043566354 0.43678212 -0.066002496 -0.11565289 -0.9920752 0.049104951 0.00049282599
0.052486662 0.43621206 -0.061472606 -0.15286583 -0.98802894 0.020757908 0.0011085335
0.064695127 0.43434873 -0.065158769 -0.2335327 -0.97135603 0.04393068 0.0015746091
0.074048594 0.43165019 -0.06179544 -0.26780877 -0.96312726 0.025776066 0.0013323717
-0.018415589 0.44017264 -0.063784868 0.080149129 -0.99610734 0.036691882 0.00066461234
0.0055850227 0.44125307 -0.063010357 -0.037081055 -0.99892884 0.027679566 0.00097124011
-0.014895347 -0.44103083 -0.056798287 0.082918234 0.99646151 0.013749635 0.0011369374
-0.007130181 -0.44189087 -0.056989368 0.031858303 0.99946296 0.0076718745 0.0014022894
0.0031582848 -0.44187087 -0.054922722 -0.025999673 0.99966156 0.00076200726 0.001710947
0.016077772 -0.44051066 -0.05824041 -0.095632732 0.99536055 0.010571536 0.0009431786
-0.075280428 -0.43274203 -0.056385271 0.26057222 0.96544373 0.0045216852 0.0015264692
-0.06407553 -0.43542248 -0.053009175 0.18650964 0.98243147 0.0065211169 0.0016311341
-0.054913994 -0.43636513 -0.051952407 0.13664708 0.99059677 -0.0067472453 0.00070518715
-0.048475988 -0.43729818 -0.058912247 0.12350906 0.99218774 0.017578617 0.00058932079
-0.035793446 -0.43864599 -0.054508567 0.1068941 0.99425578 -0.0053938506 0.00038966432
-0.025172731 -0.43961823 -0.051452462 0.1029947 0.99461466 -0.011567358 0.00066477066
0.029862715 -0.43872523 -0.05195953 -0.11560767 0.9932552 -0.0088927923 0.00066512689
0.032656088 -0.43833911 -0.050782561 -0.11557665 0.99325556 -0.0092441682 0.00082918914
0.044941857 -0.43728971 -0.056497864 -0.11764844 0.99305469 0.0011580409 0.00068629195
0.059093852 -0.43558848 -0.053370684 -0.18707581 0.98232895 -0.0057037915 0.0016290619
0.066074602 -0.43428075 -0.053351816 -0.22632609 0.97400862 0.0091479747 0.0015561556
-0.087958619 -0.42837781 -0.055224307 0.31763732 0.94820523 0.0036495812 0.00056331151
0.085707769 -0.42774406 -0.053261332 -0.31107485 0.95037621 0.0041853883 0.00080345792
0.094472356 -0.42462578 -0.05206278 -0.32402417 0.9460308 -0.005832707 0.00094822934
0.10293186 -0.42172211 -0.052460931 -0.32578063 0.9454239 -0.0063767796 0.00088621391
-0.13231523 -0.41301483 -0.055291153 0.40671077 0.9135409 0.0054123797 0.0020275617
-0.1230595 -0.41622326 -0.055466522 0.35911024 0.93329507 0.00036399069 0.0014569368
-0.11721686 -0.41814172 -0.054691877 0.31678015 0.94849139 -0.0037854523 0.00079353875
0.10860942 -0.4199802 -0.055761777 -0.33019722 0.94390219 0.0042870655 0.00071622356
0.11486182 -0.41758069 -0.052340448 -0.34089857 0.94007766 -0.0065028085 0.00066909107
0.12861623 -0.41288054 -0.053295366 -0.3875556 0.92157912 -0.022193547 0.001578867
0.13318464 -0.41102856 -0.052875578 -0.4311761 0.90217191 -0.013149967 0.0022249236
-0.15310161 -0.40127665 -0.054312371 0.52136075 0.8533327 0.0024920085 0.00096368586
-0.14778441 -0.40476105 -0.056560107 0.49288812 0.86994874 0.015826914 0.0013003065
-0.13881038 -0.40995616 -0.051059447 0.44325891 0.8961485 -0.020962384 0.0018359184
0.13678862 -0.40893561 -0.051378276 -0.45574331 0.89000851 -0.013523601 0.0022367826
0.1457094 -0.40373814 -0.057311531 -0.51733369 0.85571259 0.011035151 0.00092602428
-0.16235295 -0.39555654 -0.055838317 0.52952707 0.84822232 0.010950713 0.00096865487
-0.15690401 -0.39909673 -0.056931667 0.53052372 0.8474561 0.019047953 0.0008307884
0.15671444 -0.39673114 -0.056709468 -0.52622515 0.85033756 0.0036040857 0.00063667883
0.16743398 -0.3900525 -0.057146307 -0.5320949 0.84668308 -0.0016872721 0.00068271428
-0.18382406 -0.38220346 -0.055685338 0.53325045 0.84592223 0.0077140075 0.0006540732
-0.1713084 -0.38991606 -0.059608355 0.53052932 0.84730041 0.024913648 0.00080979348
0.17420086 -0.38592872 -0.058411196 -0.53156668 0.84701455 0.0018038893 0.00066948519
0.18068457 -0.38184384 -0.056114621 -0.54491878 0.83848369 0.0029442487 0.0006510705
-0.19438244 -0.37565219 -0.058275513 0.57421029 0.81835127 0.024161126 0.0012289172
-0.18920855 -0.37842509 -0.050021421 0.55433518 0.83180892 -0.02839523 0.00088704017
0.18561426 -0.37842873 -0.050920941 -0.55367833 0.83265316 -0.011359598 0.00056802278
-0.21136388 -0.36199552 -0.057912141 0.66618347 0.74564803 0.014445241 0.0012620088
-0.2040242 -0.36906525 -0.05449279 0.63374782 0.77351153 0.0066016414 0.0016661355
0.20424747 -0.36515743 -0.053613015 -0.63794315 0.77008325 -0.0005897705 0.0011270664
0.2155672 -0.35419786 -0.056729741 -0.69154203 0.72212303 0.017548023 0.00053279899
-0.23354447 -0.34027171 -0.0586618 0.69606298 0.71788114 0.011960413 0.00056309853
-0.22720686 -0.34634298 -0.055019688 0.69702578 0.71702707 0.0052169608 0.00072955323
0.21977285 -0.34989837 -0.052859917 -0.69863188 0.71548033 0.0012089277 0.00075879938
0.22237755 -0.34753811 -0.055343647 -0.70182055 0.71215397 0.016875988 0.00074079999
-0.24188147 -0.33180597 -0.052051075 0.69755238 0.716425 -0.012484267 0.00068047247
-0.23547935 -0.33833778 -0.055196367 0.69893467 0.71517384 -0.0040888023 0.00050901674
0.23541075 -0.33469748 -0.054102372 -0.70117527 0.71285039 0.014052866 0.00073362427
-0.25081882 -0.32312107 -0.052791499 0.70978975 0.70419341 -0.017609442 0.00077789754
-0.24864423 -0.32540774 -0.056727417 0.70597357 0.70822018 0.005052642 0.00084983534
0.24720399 -0.32307231 -0.053124569 -0.72407687 0.68967652 -0.0076764659 0.00087678578
-0.2610504 -0.31337309 -0.055943124 0.76206249 0.64745432 -0.0079758428 0.0018665025
-0.25753963 -0.3165518 -0.055257738 0.75046301 0.66090852 -0.002252619 0.0016791299
0.25547984 -0.31525266 -0.057071157 -0.76271147 0.64646858 0.018698601 0.0013735838
0.26450327 -0.30265328 -0.053662863 -0.80867499 0.5882557 -0.00022963235 0.00081585703
-0.27263248 -0.29626799 -0.055144388 0.82706839 0.56208473 0.0043206615 0.00064876047
0.27145651 -0.29263377 -0.056762263 -0.82508808 0.5649873 0.0043740659 0.000453218
-0.28069037 -0.28445858 -0.055627093 0.82683736 0.5623455 0.010367213 0.00066422502
0.27457118 -0.28800324 -0.055794127 -0.82312447 0.56784767 0.0038879754 0.00043188332
0.28398681 -0.27396542 -0.054423042 -0.82863909 0.55972481 -0.0080789262 0.00057595695
-0.29239294 -0.26692343 -0.053921361 0.82726216 0.56180924 -0.002787272 0.00057595572
0.28817442 -0.26737234 -0.050747704 -0.82684302 0.56207943 -0.019931056 0.0004397232
0.2901907 -0.26448318 -0.051725216 -0.82868612 0.55961162 -0.010681707 0.00061114709
-0.30159706 -0.25306118 -0.051898859 0.84110731 0.5408085 -0.0080468571 0.00075063051
-0.29856974 -0.25762764 -0.052631631 0.836676 0.54765272 -0.0070632612 0.00064203911
0.29509866 -0.25741535 -0.053764544 -0.83556658 0.54938561 0.0020228738 0.00074080296
-0.3088454 -0.24253838 -0.057065099 0.87300092 0.48767766 0.006310164 0.0012575677
0.30469236 -0.24314086 -0.053335041 -0.86587602 0.50021106 0.0068993648 0.001270902
-0.31296799 -0.23330526 -0.054697517 0.89464897 0.44675618 -0.0034754062 0.0012218114
0.30826518 -0.235624 -0.054504219 -0.89571023 0.44460455 0.005480215 0.0010227176
-0.31598768 -0.22611269 -0.053503636 0.90950698 0.4156819 -0.0023662888 0.00073413202
-0.31950679 -0.21766011 -0.05161747 0.91764551 0.3971802 -0.013216405 0.0005682357
0.31698045 -0.21541624 -0.055876363 -0.9171766 0.39843589 0.0059956741 0.00046740315
-0.32663512 -0.20121044 -0.052513566 0.92061865 0.39030129 -0.011234162 0.00046875657
0.3190639 -0.20992917 -0.050424628 -0.91752619 0.39679897 -0.026386678 0.00021761305
-0.32796508 -0.19811329 -0.052483372 0.91930056 0.39348412 -0.0075344862 0.00043210649
