# .PCD v0.7 - Point Cloud Data file format
VERSION 0.7
FIELDS x y z normal_x normal_y normal_z curvature
SIZE 4 4 4 4 4 4 4
TYPE F F F F F F F
COUNT 1 1 1 1 1 1 1
WIDTH 587
HEIGHT 1
VIEWPOINT 0 0 0 1 0 0 0
POINTS 587
DATA ascii
-0.48144212 0.072304055 0.057849512 0.96767747 -0.12673904 -0.21803094 0.00011777497
0.48048681 0.07804092 0.058704153 -0.96844029 -0.12783402 -0.21396683 0.00032100233
-0.4809438 0.083763376 0.053533874 0.9726277 -0.13329169 -0.19033834 0.00065350416
-0.47970587 0.08831276 0.05626341 0.96823508 -0.13448149 -0.21079743 0.00020504872
0.48104095 0.083792008 0.053102825 -0.97190022 -0.12940253 -0.19663393 0.00047727709
-0.47862065 0.096439451 0.056328844 0.96886134 -0.13179907 -0.20961075 0.00033550774
0.47942099 0.099203773 0.051355623 -0.97537565 -0.1274237 -0.18001528 0.00085055787
0.47884256 0.10015629 0.053290717 -0.97384286 -0.12490921 -0.18980995 0.00082876784
-0.47562671 0.11649561 0.057838731 0.96692866 -0.15029272 -0.20606074 0.00061298761
0.47674626 0.11658705 0.053005226 -0.96445853 -0.18180571 -0.19174555 0.0013489788
-0.47521472 0.12932423 0.050221499 0.93999153 -0.28185749 -0.19228172 0.003081925
0.47555822 0.12002802 0.056144789 -0.95502311 -0.21435907 -0.20489287 0.0019400611
-0.4705568 0.13565713 0.058320723 0.91711462 -0.32981926 -0.223875 0.001482107
0.47073025 0.13571267 0.057538837 -0.92488462 -0.31341904 -0.2153068 0.0015050976
-0.46684891 0.14548004 0.056884173 0.90698242 -0.36317757 -0.21327189 0.00046525197
0.46683848 0.14603582 0.056009401 -0.9083429 -0.36293325 -0.2078284 0.00044022576
-0.46253043 0.15867862 0.05231259 0.90588188 -0.37739974 -0.19221738 0.00043102371
0.46321312 0.15400763 0.057296276 -0.90310425 -0.37332708 -0.21220154 0.00012566044
-0.46081242 0.16078264 0.055681925 0.90788555 -0.37094671 -0.19530086 0.00044937339
-0.4587031 0.16859861 0.051191263 0.90808159 -0.37468544 -0.18707907 0.00055284897
0.45965508 0.16202259 0.058244467 -0.90354329 -0.37206328 -0.21255225 0.00011516501
0.45549023 0.17427225 0.054625537 -0.90210801 -0.37259662 -0.21765327 0.00013176279
-0.45365167 0.18021686 0.052142635 0.90958577 -0.36994225 -0.1891991 0.00045267268
0.44922721 0.1880728 0.056801438 -0.90522331 -0.37437212 -0.20103784 0.00034042072
0.45022297 0.18521626 0.057547588 -0.90104932 -0.37355188 -0.22038412 0
-0.44723219 0.19218391 0.057964396 0.90204537 -0.37301114 -0.21720247 0
0.44618642 0.19630468 0.055332795 -0.90449828 -0.37422767 -0.20453961 0.00032073114
-0.44166774 0.2056939 0.057838559 0.90152019 -0.37241536 -0.2203816 2.3406874e-05
0.44175726 0.20571728 0.057443835 -0.90133309 -0.37589571 -0.2151767 9.3601586e-05
-0.43608069 0.2199721 0.056536376 0.90211284 -0.3731842 -0.21662381 0.00010452866
0.44095844 0.21165535 0.050832901 -0.90835649 -0.37736088 -0.18024233 0.0008048474
-0.43331838 0.22884779 0.052897692 0.8997587 -0.39852989 -0.17778672 0.00078446232
0.43608397 0.22225519 0.052758932 -0.90296435 -0.3837029 -0.19346176 0.00048375383
0.42924154 0.23631266 0.056817494 -0.88071704 -0.42805907 -0.20273837 0.001393833
0.43110079 0.23146485 0.05740986 -0.89329964 -0.40111923 -0.20277816 0.00097154645
-0.42695588 0.24408716 0.052946858 0.85267317 -0.48466849 -0.19505098 0.00170535
0.42620531 0.24460836 0.054540884 -0.85847312 -0.47799474 -0.18586233 0.0015271778
-0.41502428 0.25912642 0.056788918 0.79140478 -0.57463622 -0.20849876 0.00079695915
0.41689476 0.25613964 0.058229104 -0.80561459 -0.55348474 -0.21128118 0.0011090982
-0.41254836 0.26359907 0.053520992 0.78052044 -0.59510267 -0.19141763 0.00051153504
-0.40875041 0.26870888 0.053100783 0.78169698 -0.59336054 -0.19202398 0.00040939744
0.4073433 0.26921844 0.056573927 -0.77480012 -0.59485817 -0.214076 0.00011167377
0.41239256 0.26360661 0.054033712 -0.7797246 -0.59013677 -0.20920832 0.00033596819
-0.40619344 0.27136153 0.054883461 0.77905416 -0.59477019 -0.19830011 0.0003249514
0.40423498 0.27456233 0.053182557 -0.77353889 -0.60183984 -0.19856082 0.00044422579
-0.39302289 0.28842977 0.055134952 0.77560115 -0.59541643 -0.20957634 0.00038855523
0.39551687 0.2852723 0.054891638 -0.77872539 -0.59553754 -0.19728613 0.00028789623
-0.38833791 0.29599363 0.051310241 0.77917391 -0.59589529 -0.1944139 0.00073622551
0.39006427 0.29296333 0.053357176 -0.77676439 -0.59463245 -0.20748341 0.00010935745
-0.38067061 0.30542699 0.052776031 0.7765277 -0.59514737 -0.20689224 0.00019184811
0.38227826 0.30239007 0.055246219 -0.77542716 -0.59579533 -0.20914283 0.00012203867
-0.3738701 0.31317437 0.055700965 0.7743845 -0.59577185 -0.21303678 0.0001866903
0.36958101 0.31934142 0.054186702 -0.77355355 -0.60237747 -0.19686638 0.00058615196
0.37512469 0.31180745 0.054997791 -0.77489352 -0.59765029 -0.20580076 0.00014952658
0.36248758 0.32794797 0.055859294 -0.77488726 -0.60125571 -0.19504181 0.00048787301
-0.35708195 0.33642325 0.052107442 0.75793797 -0.62717229 -0.17940158 0.00090820785
0.35946351 0.33072856 0.058903068 -0.7661975 -0.60673565 -0.21169148 0.00032906228
-0.3516717 0.34225771 0.055297628 0.73877329 -0.64838594 -0.18387413 0.0010912224
-0.34780496 0.34765947 0.053133421 0.71231478 -0.67788792 -0.18186696 0.0014737049
0.34680456 0.34783641 0.055643745 -0.67271453 -0.70921427 -0.2108798 0.0025129432
0.33360302 0.35728204 0.058820374 -0.59649378 -0.77243197 -0.21804594 0.00029088359
0.3435992 0.35061505 0.055390891 -0.67273372 -0.70920509 -0.21084931 0.0024550783
0.32473892 0.36558166 0.053700257 -0.59260827 -0.77741104 -0.21082559 0.00025853957
-0.31245485 0.37558639 0.051721767 0.60838068 -0.77271962 -0.18104531 0.00085760513
0.31447887 0.37317848 0.054643493 -0.59567171 -0.77530736 -0.20993757 9.2199924e-05
-0.30293909 0.38268524 0.052414969 0.60840428 -0.77199864 -0.18401742 0.00089203584
-0.29564011 0.38755763 0.054904476 0.59955615 -0.77401417 -0.20355441 0.00080394524
-0.29010835 0.39243639 0.052737214 0.59525359 -0.77924913 -0.19607136 0.00059341337
-0.28878719 0.39318255 0.053651981 0.59630668 -0.77848852 -0.19589286 0.00048975664
0.28386644 0.39683801 0.054063186 -0.59904313 -0.77732468 -0.19212934 0.00069362251
-0.27935547 0.40138963 0.050336663 0.59907132 -0.77563512 -0.19875574 0.00057791837
-0.26828364 0.40812111 0.056367092 0.59226394 -0.7778874 -0.21003474 0.000127509
0.27839434 0.40082633 0.054783002 -0.59466261 -0.77998281 -0.1949441 0.00046409355
-0.26615912 0.41070229 0.053116463 0.59529883 -0.77947807 -0.19502106 0.00040550521
-0.25669673 0.41818047 0.052373372 0.56184369 -0.80411839 -0.19422966 0.0013310603
0.26224461 0.41330972 0.054471083 -0.58290201 -0.78870147 -0.19538487 0.00043454935
-0.24926601 0.42244136 0.057298489 0.5180974 -0.82783955 -0.21507391 0.0020182573
-0.23703101 0.42966497 0.053947747 0.42609209 -0.88431764 -0.19086102 0.0010690743
0.23960052 0.42772141 0.057447501 -0.4514713 -0.86408818 -0.22254269 0.0017975853
0.24620314 0.42467996 0.056011513 -0.49388254 -0.8413617 -0.21952368 0.0015891682
-0.22619537 0.43430009 0.053363234 0.38788968 -0.90116614 -0.19349727 0.00040023652
-0.21849978 0.43740165 0.05370561 0.38183391 -0.90408969 -0.19189757 0.00062987476
0.21796933 0.43795878 0.052362856 -0.3800582 -0.90724134 -0.18019159 0.00085887319
0.22757116 0.43327242 0.055185534 -0.38721201 -0.90010774 -0.19968185 0.00058835919
0.23065409 0.43319774 0.05039965 -0.39311862 -0.90151995 -0.18088508 0.00071379024
-0.20722698 0.44168231 0.055252969 0.37684605 -0.90352285 -0.20404291 0.00040121598
-0.19431129 0.44589511 0.059778914 0.37650716 -0.90187782 -0.21179868 0.00033636333
0.20464936 0.44277003 0.055173136 -0.37308988 -0.90641147 -0.19804588 0.00049581827
-0.17587967 0.45456117 0.05567345 0.3734993 -0.90595394 -0.19936305 0.00044463057
-0.16410665 0.4595415 0.055260267 0.38000467 -0.90165257 -0.20644411 0.00026465629
0.1662097 0.4592095 0.053114347 -0.37290785 -0.90806884 -0.19065902 0.00063407776
0.17339319 0.45631653 0.052785859 -0.37732548 -0.90594691 -0.19205679 0.0008061257
0.18048097 0.45365348 0.051699862 -0.38208306 -0.90310168 -0.1960101 0.00061770092
-0.16225772 0.46130815 0.051276639 0.38018543 -0.90564346 -0.18780081 0.00075766532
-0.15226853 0.46522903 0.05213945 0.37083191 -0.9051072 -0.20800169 5.3564047e-05
-0.14390871 0.46750674 0.056856599 0.3489987 -0.91294944 -0.21147855 0.00050349772
-0.13821667 0.46949601 0.058323063 0.33057845 -0.9216361 -0.20323579 0.00073803897
0.13855241 0.4698022 0.056550853 -0.3280431 -0.92070544 -0.21139839 0.0010913655
0.14031553 0.4689371 0.057087332 -0.33771792 -0.91715974 -0.21157664 0.00095729314
0.15555638 0.46262088 0.057100385 -0.37225819 -0.90452272 -0.20799659 0.00027757886
0.16067198 0.46138704 0.053577125 -0.37166771 -0.90794456 -0.19364843 0.00051323738
-0.13310398 0.47299972 0.052806318 0.2756775 -0.94430864 -0.17967513 0.0012049254
-0.12200061 0.47533202 0.056001835 0.22350648 -0.95480716 -0.19592866 0.0013953466
-0.10722753 0.47795677 0.053097993 0.13621645 -0.96815038 -0.21007122 0.00030597195
-0.089505523 0.47949946 0.05647441 0.12632917 -0.96767884 -0.21826285 4.2647313e-05
0.093868181 0.47915313 0.055500403 -0.12803538 -0.96821249 -0.21487573 0.00011082475
0.10600347 0.47852761 0.051347945 -0.14130844 -0.97137761 -0.19093835 0.00056634721
0.12776056 0.47421744 0.056769155 -0.23159863 -0.94834113 -0.21682046 0.001424383
0.13203076 0.47247058 0.05668208 -0.2867249 -0.93424314 -0.21208142 0.0021706717
-0.082930326 0.48121864 0.052828334 0.12872812 -0.97548079 -0.17851126 0.00085973117
-0.072185367 0.48263082 0.052838713 0.1306407 -0.97210914 -0.19477375 0.00060329982
-0.063073635 0.48328504 0.055168424 0.12903371 -0.96961659 -0.20783165 0.00019982862
-0.057252202 0.48437336 0.053793222 0.12938735 -0.96984768 -0.20652954 0.00034997956
-0.040799662 0.4872888 0.050591923 0.12946066 -0.97371697 -0.18739013 0.00073499442
-0.033390786 0.48670509 0.057251737 0.12770802 -0.96832645 -0.21455644 4.6403347e-05
-0.022131337 0.48889083 0.054247234 0.12597181 -0.97197801 -0.19846883 0.00069230277
-0.015265598 0.48928332 0.05643164 0.10950197 -0.97226411 -0.20666862 0.00074001664
0.014944637 0.48933762 0.056380041 -0.090920046 -0.97446221 -0.20532174 0.0011912028
0.020627867 0.48980111 0.051204327 -0.1142774 -0.97481471 -0.19151232 0.0006678733
0.043280464 0.48605421 0.054470427 -0.13455538 -0.96976131 -0.20361198 0.00024070634
0.055831186 0.48437905 0.054567896 -0.1296273 -0.97245288 -0.19373207 0.00061343214
0.075134479 0.4817698 0.054858238 -0.12264489 -0.97137105 -0.20346144 0.00033560014
0.095396116 0.48015839 0.050346971 -0.12764426 -0.97533822 -0.18006192 0.001000365
-0.013634907 0.49074122 0.051121153 0.076300383 -0.98047739 -0.18122429 0.0016513137
-0.0036517926 0.49062151 0.057246722 0.013626107 -0.97963625 -0.20031768 0.0018932312
0.0002077735 0.49050015 0.059701793 -0.0021543384 -0.98007166 -0.19863255 0.001450356
-0.061930761 -0.48078752 0.066479273 0.12717754 0.9658066 -0.22592817 0.00011026983
-0.05647146 -0.48077297 0.069611713 0.12719628 0.96581042 -0.22590105 0.00012852003
-0.034049321 -0.4857735 0.060860761 0.13025509 0.96700776 -0.21892819 5.0990697e-05
-0.023071833 -0.4851101 0.069868028 0.1186642 0.96580452 -0.23052207 5.4269232e-05
-0.013479128 -0.48779428 0.063796937 0.076596558 0.96737891 -0.24147671 0.0011682924
-0.0044467095 -0.48881781 0.064504221 0.05454772 0.97157532 -0.2303604 0.0015262802
0.0086028809 -0.48764187 0.067190081 -0.038989495 0.97587138 -0.21483678 0.0019562466
0.016015019 -0.48707342 0.06544999 -0.095581226 0.97012645 -0.22297721 0.00099499139
0.038550135 -0.48423374 0.064907081 -0.12715305 0.96576983 -0.22609887 0
0.049813967 -0.48280334 0.0646827 -0.12712465 0.96576262 -0.22614568 0
0.067663535 -0.48051354 0.064425744 -0.12759015 0.96739674 -0.21877919 2.3631677e-05
-0.12694988 -0.47197127 0.066282958 0.27739078 0.9362191 -0.21575019 0.0021690589
-0.11534591 -0.47453803 0.063135952 0.18051587 0.95803034 -0.22269237 0.0014180056
-0.096098557 -0.47721526 0.062523812 0.1294232 0.96678489 -0.22040093 0.00014701371
-0.086912893 -0.47769776 0.065628238 0.12770265 0.96599233 -0.22483492 0
-0.068348497 -0.47948053 0.068453066 0.12711939 0.96581501 -0.22592476 0
0.094509721 -0.47654778 0.066268593 -0.12753199 0.9662081 -0.22400303 6.5986278e-05
0.10982377 -0.47376555 0.069540955 -0.14584658 0.96251184 -0.22869135 0.00047454674
0.11729572 -0.47325599 0.067515627 -0.20151843 0.95188224 -0.23089077 0.0020374621
0.12667263 -0.47311607 0.062395513 -0.25412101 0.94111377 -0.22299631 0.0019184758
0.13260849 -0.47077751 0.062468741 -0.30125958 0.92465049 -0.23294641 0.0011450755
-0.15057701 -0.4629699 0.06392096 0.3728416 0.90069997 -0.22299927 0
-0.14262192 -0.46500564 0.068933725 0.34273776 0.91092569 -0.22966321 0.0007341064
-0.13220771 -0.46947366 0.068319552 0.3128688 0.92110658 -0.2316802 0.0013257822
0.14516796 -0.46505156 0.06455306 -0.35201398 0.90989769 -0.2194822 0.00049761776
0.15449288 -0.46130493 0.064091846 -0.37335983 0.90127558 -0.21978338 6.6031025e-05
-0.17555724 -0.45206806 0.06612882 0.3730076 0.89991355 -0.22587807 0
-0.16528498 -0.45641133 0.065777034 0.3729037 0.90026659 -0.2246393 0
0.16248545 -0.45685536 0.06862545 -0.3728455 0.89994079 -0.22603694 0
0.17632669 -0.45302325 0.061058033 -0.37397328 0.90200531 -0.21570925 8.7854787e-05
-0.20467982 -0.44098908 0.062211998 0.37257448 0.90065044 -0.22364485 3.6735823e-05
-0.19392133 -0.44499058 0.064022452 0.37346339 0.90031648 -0.22350661 2.5165073e-05
-0.18681711 -0.44841912 0.062088352 0.37134606 0.90236145 -0.21873699 4.960311e-05
0.19228037 -0.44562232 0.064213246 -0.3739495 0.90008384 -0.22363104 0.00015108338
0.20110221 -0.44207966 0.063769527 -0.37320852 0.90050781 -0.2231614 5.2447507e-05
-0.22374985 -0.4327006 0.063762099 0.3862156 0.89513391 -0.22264923 0.00025738933
-0.21610783 -0.43595743 0.06339813 0.3733657 0.90209776 -0.21637383 0.00018335781
-0.20805466 -0.43996131 0.060738809 0.3741844 0.90130228 -0.21826628 0.00013584533
0.20789428 -0.43787593 0.069303989 -0.37281856 0.89993209 -0.2261163 3.8375714e-05
0.21444389 -0.43667752 0.063275427 -0.37291932 0.9009673 -0.22178602 4.4707249e-05
0.22614361 -0.43192825 0.06288965 -0.37556848 0.90048945 -0.21924175 0.00017565898
-0.24466403 -0.42286959 0.066542313 0.48243627 0.84659964 -0.22477598 0.0023140409
-0.23505169 -0.42783648 0.064489454 0.40756038 0.8847574 -0.22605059 0.00065014989
0.22950345 -0.42966554 0.066356719 -0.39119968 0.89263952 -0.22395898 0.00058133801
0.24432558 -0.42385525 0.064969212 -0.47706169 0.85149908 -0.2176266 0.0029194995
-0.26116446 -0.41047916 0.066979349 0.59066385 0.77473789 -0.22560462 0
-0.2499858 -0.41908735 0.066874996 0.52150458 0.82176888 -0.22962786 0.0023109335
0.25405177 -0.41679272 0.06405405 -0.55742306 0.80014628 -0.22146229 0.0015477276
-0.27236441 -0.40336776 0.061911445 0.59262431 0.77584141 -0.21648662 6.8656176e-05
0.26683009 -0.40585938 0.06791041 -0.59162658 0.77406001 -0.22540827 0.0001457661
0.27098155 -0.4033128 0.065726466 -0.5932548 0.7730158 -0.22471169 0
-0.28778195 -0.39045182 0.0656223 0.59315425 0.77276397 -0.22584055 0
0.27715543 -0.39857015 0.065744467 -0.59287274 0.77327776 -0.22481868 3.3039527e-05
0.28456384 -0.39203796 0.068641409 -0.59299809 0.77281094 -0.22608958 0
-0.29211304 -0.38788909 0.063022271 0.593036 0.7728647 -0.22580621 7.4217365e-05
0.28948385 -0.38938516 0.064804517 -0.59308589 0.77272326 -0.2261593 0
0.29383105 -0.38657409 0.063011184 -0.59342855 0.77418292 -0.22018954 0
-0.31147265 -0.37206304 0.066341013 0.59301317 0.77280223 -0.22608028 8.5250053e-05
-0.30923054 -0.37555015 0.060302392 0.5931766 0.77372324 -0.22247212 9.7746633e-05
0.31307447 -0.37222284 0.061593689 -0.59443057 0.77343005 -0.22013241 6.6963141e-05
-0.33363307 -0.35444704 0.068432011 0.61705101 0.75458997 -0.22325362 0.00095560768
-0.34264749 -0.34722584 0.069471732 0.66831255 0.70665675 -0.23236719 0.0024507688
-0.35434067 -0.33508879 0.064977393 0.73725152 0.63292813 -0.2363518 0.0014267399
0.35529363 -0.33265176 0.068112008 -0.7592541 0.61148095 -0.22276501 0.00010508198
-0.36328623 -0.32252768 0.067345887 0.7727862 0.59304118 -0.22606111 1.2389845e-05
-0.36788735 -0.31682181 0.066584215 0.77278233 0.59303856 -0.22608149 0
0.36593312 -0.31883213 0.067991249 -0.77274954 0.59306818 -0.22611548 0
-0.38012841 -0.30270913 0.061757602 0.77228439 0.59541965 -0.22147761 7.5269301e-05
-0.37789011 -0.30479625 0.063934416 0.77233827 0.59535313 -0.22146831 7.9081299e-05
0.37642291 -0.30692255 0.06337259 -0.77286524 0.59299755 -0.22590543 4.1767827e-05
-0.38721821 -0.29286888 0.063333102 0.77267015 0.59357387 -0.22505729 0
0.38495469 -0.29438561 0.067092024 -0.7727685 0.59312314 -0.22590654 7.0462178e-05
-0.39511085 -0.28268436 0.063067295 0.7735914 0.59272492 -0.22412862 0
0.39271349 -0.28405985 0.067653999 -0.77280492 0.59301323 -0.22607073 2.119483e-05
-0.40194276 -0.27433991 0.061600886 0.77321261 0.59329069 -0.22393852 0
0.39761755 -0.27762043 0.067780718 -0.77279919 0.59305239 -0.22598742 0
0.40333039 -0.27265906 0.061266378 -0.7761308 0.59376562 -0.21228109 0.00017579038
-0.40617988 -0.26910183 0.060856432 0.77466464 0.59290391 -0.21990812 0
0.40627438 -0.26607931 0.068461001 -0.7728256 0.59302127 -0.22597876 4.8657606e-05
-0.41513026 -0.25641519 0.063537814 0.78469127 0.57496756 -0.23167202 0.00040844511
-0.4233405 -0.24467888 0.065019324 0.83619839 0.49938452 -0.22668777 0.0018118398
0.4261362 -0.24015225 0.062847845 -0.87020832 0.43744248 -0.22667511 0.0011160951
0.4275263 -0.23573554 0.064596571 -0.87439299 0.42920074 -0.22632615 0.0010039184
-0.43135366 -0.22652614 0.064546235 0.89853483 0.37687463 -0.22494598 9.2876966e-05
-0.436708 -0.21325161 0.06511981 0.90085471 0.37238759 -0.22313295 6.2239866e-05
0.43453565 -0.21930459 0.063786842 -0.89993167 0.37282932 -0.22610015 0
-0.44209296 -0.20056 0.064610638 0.90003616 0.37402007 -0.22370516 6.8466972e-05
0.43933213 -0.20609421 0.066475458 -0.89993453 0.37281877 -0.22610626 0
0.44321454 -0.20041612 0.060383461 -0.90212291 0.37399173 -0.21518464 0.0001880592
-0.44376919 -0.19450177 0.067927159 0.90001059 0.37272418 -0.22595949 5.3125991e-06
0.44349027 -0.1962456 0.066162288 -0.90124971 0.3722088 -0.2218321 0
-0.44865215 -0.18463427 0.064759851 0.89994097 0.37287879 -0.2259818 6.0458533e-06
0.45066619 -0.18220764 0.060743991 -0.90238303 0.3746686 -0.21290453 0.00028362716
0.4520658 -0.17373444 0.069143206 -0.89990395 0.37284094 -0.22619124 0.00020209631
-0.45756495 -0.16253543 0.065718539 0.90041912 0.37243369 -0.22480784 0.0001004727
-0.46043324 -0.15304071 0.0699559 0.90002996 0.37263602 -0.22602771 0
0.4589704 -0.15848339 0.066805013 -0.90000099 0.37276372 -0.22593227 1.7953596e-05
0.46129167 -0.15223989 0.067859471 -0.90092546 0.37085816 -0.22538306 0
0.46403345 -0.14796591 0.06399259 -0.90237439 0.36935458 -0.22203095 0
-0.47201565 -0.13013569 0.061617337 0.93521506 0.27158973 -0.22718252 0.0022684194
-0.46829632 -0.13690974 0.065253355 0.91747427 0.32635173 -0.22745447 0.001340835
0.46918368 -0.13431466 0.065999791 -0.91957343 0.31880504 -0.22966956 0.0013917534
-0.47205281 -0.12802435 0.064827286 0.93516779 0.2714377 -0.22755799 0.002496477
0.47346586 -0.12596817 0.060696013 -0.93966901 0.24838653 -0.2352155 0.0024050523
-0.47358334 -0.11932152 0.064978056 0.94583601 0.20987929 -0.2476792 0.0019671412
0.47479123 -0.11414194 0.062731303 -0.95778161 0.17260408 -0.22991787 0.00098598923
-0.47631288 -0.10580329 0.060920775 0.96497291 0.13292958 -0.22617921 0.00017040857
0.47674912 -0.096480869 0.064299814 -0.96560651 0.12836696 -0.22611073 4.3048149e-05
-0.47891152 -0.083070792 0.062604286 0.96667653 0.12898201 -0.2211336 0.00022925466
0.47824773 -0.083997667 0.064918645 -0.96576279 0.12716022 -0.22612485 0.00014772367
-0.47887921 -0.078503624 0.065310769 0.96579224 0.12731117 -0.22591415 6.9308677e-05
0.47906265 -0.0768333 0.065466575 -0.96575511 0.12714916 -0.22616412 0.00021407519
0.4803184 -0.073584884 0.061929315 -0.96741247 0.12808172 -0.21842189 0.00017570761
-0.48092136 -0.063730933 0.064895242 0.96647388 0.12765823 -0.22278187 0.00017177762
0.47968218 -0.064300522 0.069868132 -0.96577281 0.12714206 -0.22609249 0
0.48092073 -0.067328371 0.062874995 -0.96698332 0.12584932 -0.22159716 9.4472329e-05
-0.48150471 -0.059243318 0.064927086 0.96641791 0.12834406 -0.2226302 0.00021842029
0.48236009 -0.057568736 0.062214978 -0.96869755 0.12430179 -0.21488152 0.00014119147
-0.48300782 -0.047836691 0.064921118 0.96576589 0.12714893 -0.22611775 0
-0.48448554 -0.035182856 0.065725133 0.96649808 0.12660286 -0.22327822 0
-0.013859687 -0.036171984 0.066227734 0.41018721 0.89679372 0.16585372 0.08848732
-0.0024281563 -0.038675904 0.065709308 0.14029735 0.98195022 0.12684762 0.077993549
0.015081263 -0.035772569 0.067072034 -0.47705162 0.85673201 0.19604091 0.065316088
0.48398304 -0.034645356 0.068173639 -0.96614665 0.12754525 -0.2242609 0.00016763959
-0.48628527 -0.022166677 0.065357171 0.96744913 0.117313 -0.22423162 0.00029469779
-0.033177845 -0.021001128 0.069520324 0.84148502 0.52579135 0.12428375 0.084637292
-0.020993523 -0.020012559 0.06636139 0.72577417 0.67684805 0.12299842 0.086773209
-0.015767904 -0.024250561 0.062436327 0.56519938 0.8228966 0.058232255 0.084354505
0.0094606765 -0.027295459 0.063854158 -0.38172582 0.92308724 0.046854518 0.086574264
0.032457259 -0.021914894 0.069388166 -0.81548738 0.5608083 0.14308859 0.089721106
0.48654523 -0.022689296 0.063952774 -0.96734214 0.11917828 -0.22370897 0.00016633542
-0.48779061 -0.013795506 0.063634701 0.97072357 0.101492 -0.21770419 0.00065362203
-0.035548061 -0.014097596 0.062065803 0.90903205 0.39320093 0.13803528 0.072352804
-0.024133679 -0.015920229 0.066401131 0.81601351 0.57328099 0.073965803 0.094955057
0.023645254 -0.016556757 0.064222664 -0.78495687 0.61021692 0.10713591 0.079873204
0.48652294 -0.019470708 0.065858044 -0.96850932 0.10506289 -0.22572449 0.00032669574
-0.48901209 -0.0047639832 0.063495956 0.9755426 0.013259039 -0.21941029 0.002223002
-0.038270693 -0.0083553828 0.068898253 0.96980518 0.17306006 0.17183743 0.094828404
-0.028229728 -0.0065116286 0.062382441 0.96313703 0.23719038 0.12691651 0.089964852
0.028410671 -0.005137241 0.063269116 -0.93686378 0.34112152 0.076956198 0.089541435
0.037333123 -0.0079493774 0.060473494 -0.98407841 0.15822329 0.080963328 0.076921381
0.48865241 -0.0034470782 0.065772898 -0.96888179 0.030391747 -0.24565119 0.0013205135
-0.48783177 0.0051505361 0.068320498 0.97632742 -0.016160969 -0.21569315 0.0022772185
0.02849485 0.0044978308 0.063419379 -0.98631912 -0.067844816 0.1502385 0.090152204
0.037628464 0.008207188 0.063272722 -0.9732064 -0.19655432 0.11931321 0.073389731
0.4893271 0.0064055594 0.061227202 -0.97430187 -0.040238533 -0.22162285 0.0019570354
-0.48722413 0.01719683 0.064141586 0.97030461 -0.10735474 -0.21675786 0.0002268836
-0.036759257 0.013431396 0.069474593 0.90368575 -0.39909521 0.1551615 0.083228305
-0.023786593 0.016372561 0.068826608 0.81207138 -0.58323318 -0.019470634 0.082098089
0.024331121 0.015305676 0.062105048 -0.83230656 -0.54735851 0.087546937 0.096286371
0.036297325 0.011664087 0.060016226 -0.93685055 -0.33033735 0.11483973 0.057411216
-0.4853946 0.026233511 0.066874638 0.96578586 -0.12719764 -0.22600549 3.4754736e-05
-0.028573673 0.025793921 0.063217528 0.74377424 -0.66696829 0.044194352 0.070483968
-0.016954338 0.023340181 0.067893997 0.52924269 -0.8483398 0.01489127 0.084137596
-0.0047074794 0.028335467 0.067710638 0.27082542 -0.96088272 0.057947967 0.094496824
0.0014808988 0.028892037 0.066702366 -0.044883814 -0.99490815 0.0902403 0.0884431
0.014270049 0.025058726 0.066021442 -0.44817013 -0.89193457 0.059969023 0.092466377
0.028628143 0.025951363 0.064409912 -0.66460657 -0.73869127 0.11239836 0.082617037
0.48462686 0.029458066 0.06834057 -0.96577948 -0.12714718 -0.22606109 0
-0.48442152 0.036278661 0.065382086 0.96580094 -0.12713742 -0.22597475 0
-0.014440748 0.035892311 0.065918826 0.42199698 -0.90309358 0.079627588 0.083085075
0.0026563203 0.038507361 0.064531848 -0.071697064 -0.99614537 0.050535712 0.062977262
0.019029198 0.033754647 0.064040869 -0.40423623 -0.90234423 0.14955911 0.066421039
0.48437625 0.030757226 0.068680435 -0.96577805 -0.127158 -0.22606128 0
-0.48395705 0.042072676 0.064107984 0.96579885 -0.12711993 -0.2259936 0
0.48422724 0.046031233 0.060727634 -0.96846467 -0.1281658 -0.21365765 0.00028923331
-0.48256925 0.056916781 0.061688311 0.96684957 -0.12827528 -0.22078803 7.3295851e-05
0.48130357 0.057774503 0.066612333 -0.9660123 -0.12700757 -0.225143 0.00016291243
-0.48141974 0.06642437 0.061251577 0.96757406 -0.12764718 -0.21796006 0.00018483521
0.48101282 0.065243192 0.063654065 -0.96717089 -0.12689641 -0.22017665 9.6079202e-05
-0.47957784 0.075625896 0.063944817 0.96657288 -0.12824664 -0.22201283 0.00010455079
0.47880268 0.072696663 0.068903461 -0.96576142 -0.12716496 -0.22612818 8.2595419e-05
0.4800064 0.07053829 0.064975351 -0.96712983 -0.12734044 -0.22010045 0.00020833255
-0.47764617 0.085357666 0.066723436 0.96631426 -0.12719646 -0.22373635 5.4728698e-05
0.47803044 0.08850465 0.063312277 -0.9657591 -0.12715435 -0.22614387 0.00012273126
-0.47596678 0.093630247 0.069244966 0.9657777 -0.12713052 -0.22607806 3.9782946e-05
0.47653264 0.092309475 0.067570612 -0.96575958 -0.12715834 -0.22613958 7.7746277e-05
-0.47555017 0.10333482 0.06556686 0.96563131 -0.13253355 -0.22358669 0
0.47543752 0.10809325 0.06337212 -0.96083099 -0.1574806 -0.22804327 0.00095371343
-0.47357032 0.11856681 0.065458216 0.9523629 -0.19563067 -0.23395246 0.0017255761
-0.47297722 0.12570392 0.063977942 0.93578702 -0.26209369 -0.23581657 0.002302537
0.47238949 0.12709036 0.065150388 -0.93074852 -0.28549948 -0.22846708 0.0012701401
-0.47115293 0.13008749 0.065130822 0.92941421 -0.2875123 -0.23135641 0.0017428676
0.46836507 0.13650781 0.065642267 -0.9216125 -0.31664985 -0.22441775 0.0015199195
-0.46267813 0.14804003 0.069265097 0.90045685 -0.37164894 -0.22595248 0
0.4653039 0.14690252 0.060688794 -0.907525 -0.36353227 -0.21033925 0.00039425204
-0.46196419 0.15120278 0.066892341 0.90055835 -0.37136364 -0.22601709 0.00012541647
-0.45505896 0.16725393 0.067913964 0.89993352 -0.37282851 -0.22609404 0
0.45831072 0.16261195 0.062623732 -0.90112126 -0.37330106 -0.22051474 9.5841126e-05
0.45313695 0.17573461 0.061581612 -0.9007414 -0.37339902 -0.22189659 0
-0.44704586 0.18619409 0.06858179 0.89988184 -0.37295005 -0.22609933 5.3867912e-05
0.44763392 0.18940458 0.060947638 -0.90092123 -0.37342048 -0.22112927 1.0135214e-05
0.45005524 0.18002059 0.066781878 -0.90004337 -0.37269223 -0.22588134 0
-0.44286418 0.19663414 0.068013914 0.89997715 -0.37293649 -0.22574204 2.4217537e-05
0.44552904 0.19287361 0.06360665 -0.90102053 -0.37286502 -0.22166115 3.9453978e-05
0.43627232 0.21207577 0.068792731 -0.89995086 -0.37278044 -0.22610456 4.5798533e-05
-0.43224087 0.22365971 0.065740533 0.89835143 -0.37882423 -0.22238918 0.00016687273
0.43355978 0.22142564 0.064174071 -0.90083194 -0.3755801 -0.21781075 6.6544766e-05
-0.42764887 0.23477255 0.065696567 0.86617649 -0.45249295 -0.21210492 0.001552933
0.42762858 0.23488837 0.065586373 -0.87830418 -0.42154193 -0.22557525 0.0011254831
-0.42147738 0.24778539 0.064477012 0.82632226 -0.52019781 -0.21583751 0.0014432167
0.42403117 0.24355978 0.063907512 -0.85590088 -0.46651205 -0.2231594 0.001961035
-0.41415453 0.25708061 0.065127641 0.79066592 -0.56969738 -0.22425942 0.00046596772
-0.41016448 0.26368183 0.061452314 0.77889282 -0.58895248 -0.21554793 0.00010611222
-0.40607017 0.26762396 0.065107659 0.77282298 -0.59315771 -0.22562928 9.6269818e-05
0.39903396 0.27805471 0.061800402 -0.77331203 -0.59596455 -0.21636741 2.1318624e-06
0.40194452 0.27307081 0.06492351 -0.77333516 -0.59338623 -0.22326133 3.8655231e-05
-0.39361447 0.28408298 0.06451378 0.77303845 -0.59286183 -0.22566864 5.3231841e-05
0.38825563 0.28984943 0.067706615 -0.7727946 -0.59304017 -0.22603512 3.4477835e-05
0.39197016 0.28627023 0.064397506 -0.77300459 -0.59487301 -0.22043155 8.39196e-05
-0.38610548 0.29382935 0.064617552 0.77295333 -0.59418958 -0.22244553 0
0.38515103 0.29413328 0.067082755 -0.77277809 -0.59308505 -0.22597387 0
-0.38207817 0.3007431 0.060249764 0.77360654 -0.5933612 -0.22238587 1.5359816e-05
-0.37761599 0.3049219 0.064541921 0.77367568 -0.59311682 -0.22279654 2.9941589e-06
-0.36818302 0.31813955 0.062117431 0.77375656 -0.59425426 -0.21946001 2.713265e-05
0.36672744 0.3183924 0.066429541 -0.77271116 -0.59311521 -0.22612339 0.00010284146
0.37333143 0.31147873 0.061989646 -0.77465636 -0.59421879 -0.21635984 0
-0.36322534 0.32294887 0.066449225 0.77219337 -0.59368485 -0.22639714 1.6193841e-05
-0.35878646 0.32810807 0.068090342 0.76551455 -0.60193539 -0.22729129 0.00021246413
0.36316538 0.3228125 0.067012027 -0.77028596 -0.59634024 -0.22591586 0.00013916177
-0.35335723 0.33703813 0.063226163 0.73982906 -0.62878525 -0.23933671 0.0016195928
0.35621324 0.33194506 0.066822179 -0.75737453 -0.61057305 -0.23148301 0.00046323851
-0.34578937 0.34757578 0.060034879 0.68967593 -0.68836087 -0.22473648 0.0023102777
0.34571651 0.34535116 0.065072559 -0.69829005 -0.67927891 -0.22576809 0.0025209379
-0.34050375 0.35000229 0.065604135 0.66277176 -0.71080673 -0.23555773 0.0019792449
-0.33496165 0.35438028 0.065175436 0.62644565 -0.74098402 -0.24188532 0.00094463013
0.32823706 0.35912049 0.066610329 -0.59785026 -0.76967508 -0.22399867 6.3108382e-05
0.33475843 0.35418797 0.066365816 -0.62220228 -0.74662364 -0.23540902 0.0010436792
-0.3231028 0.36211684 0.069834769 0.5929538 -0.77283931 -0.22610874 0
0.32306775 0.36360088 0.064853996 -0.59633851 -0.77107996 -0.22319488 3.1534972e-05
-0.31047952 0.37449247 0.060641825 0.59322619 -0.77274162 -0.22572756 0.00012046432
-0.30554995 0.3759557 0.06856969 0.59303981 -0.7728191 -0.22595224 2.6177071e-05
0.30840874 0.37604603 0.060762856 -0.59385937 -0.7751258 -0.21566446 0.00010950496
0.29588461 0.38540846 0.061609335 -0.59628284 -0.77302307 -0.21652269 0.00011560229
0.30213889 0.38078204 0.061019242 -0.59392655 -0.77471042 -0.21696766 0.0001555091
-0.28347456 0.39389634 0.065145999 0.59303397 -0.77279687 -0.22604351 2.3687817e-05
-0.26731065 0.40625089 0.065311715 0.59302473 -0.77278686 -0.22610229 5.844322e-05
0.26531574 0.40868902 0.062210027 -0.59213305 -0.77573019 -0.21822302 0.00012735464
0.27194217 0.40358776 0.062266883 -0.59313464 -0.77307981 -0.22480886 0
-0.25463679 0.4173297 0.060684074 0.56238413 -0.79872006 -0.21394022 0.00089662807
0.2566379 0.41522458 0.062631093 -0.56380945 -0.79323345 -0.22999905 0.00055342092
-0.24289928 0.42421317 0.065516807 0.45981053 -0.86102331 -0.21728602 0.0021122829
-0.2362891 0.42711732 0.065311968 0.4194746 -0.87980986 -0.22355227 0.0009958857
0.24869721 0.42068449 0.064795546 -0.51031548 -0.82857674 -0.23030129 0.0022145975
-0.22681436 0.43025243 0.06845437 0.38834754 -0.89352447 -0.22538882 0.0003310288
-0.21624762 0.43563566 0.064448521 0.37465131 -0.90041316 -0.22111645 0
-0.20642774 0.43896642 0.067381121 0.37272447 -0.90002352 -0.22590689 0
0.20669156 0.43955499 0.064603463 -0.37273535 -0.90001822 -0.22591028 0
0.21545756 0.43594405 0.064523794 -0.3718276 -0.90143919 -0.22170161 6.1498191e-05
0.22547597 0.4307487 0.068685539 -0.38512903 -0.89498019 -0.22513573 0
-0.2032239 0.44154072 0.062416587 0.3736645 -0.90103316 -0.22025909 4.206314e-05
-0.19177558 0.44512677 0.067018032 0.3728345 -0.90005141 -0.22561443 0
-0.18683001 0.44698209 0.067787215 0.37283969 -0.90003449 -0.2256735 0
0.17974159 0.44995493 0.067641012 -0.37287205 -0.89996427 -0.22589993 1.0986877e-05
0.1873095 0.44682258 0.067631587 -0.37288773 -0.89996791 -0.22585934 0
0.20193712 0.4408884 0.067134902 -0.37277758 -0.89998841 -0.22595967 0
-0.17813052 0.45243663 0.060419023 0.37302449 -0.89993894 -0.2257489 2.4025821e-05
-0.16056381 0.45819062 0.066478714 0.37281907 -0.89994627 -0.226059 0
0.16975929 0.45441654 0.066340208 -0.37274745 -0.90076196 -0.22290634 4.1267594e-05
0.17641459 0.45122218 0.068082146 -0.37297371 -0.89992607 -0.22588407 5.6157289e-05
-0.15923658 0.46000162 0.061458368 0.37174967 -0.90211493 -0.21906807 0.0001641245
-0.14345667 0.46632636 0.062300313 0.34388426 -0.91376817 -0.21626683 0.00090399763
-0.13897204 0.46762127 0.064540073 0.34039605 -0.91501296 -0.21652217 0.0006422656
0.13721439 0.46832299 0.064644799 -0.33177075 -0.91458738 -0.2312099 0.0010024467
0.1462252 0.46376643 0.067925498 -0.36289111 -0.90356576 -0.22776923 0.0001338726
0.15410702 0.46027663 0.068821095 -0.3727729 -0.89995551 -0.22609806 0
-0.12421561 0.47310659 0.064262398 0.22825812 -0.95099193 -0.20859659 0.0019458301
-0.11499255 0.47356531 0.067489624 0.18487243 -0.9583869 -0.21752386 0.0012831358
-0.095702909 0.47653675 0.065644644 0.12715569 -0.96577054 -0.22609475 5.3769298e-05
-0.082651615 0.47857717 0.064268477 0.12657501 -0.96619767 -0.22459033 0
-0.069178365 0.47957021 0.067603298 0.1273919 -0.96605629 -0.22473642 0
0.079893604 0.47947532 0.061982855 -0.12705795 -0.96709013 -0.22043799 0.00013187838
0.095812052 0.47719002 0.062792771 -0.12714291 -0.96576732 -0.22611524 0
0.10704494 0.47503892 0.065664284 -0.13572776 -0.96508449 -0.22403094 0.00021347153
0.11440305 0.47356775 0.067810617 -0.18111491 -0.9577046 -0.22360525 0.001211235
0.12136227 0.47330645 0.0650132 -0.20405909 -0.95235693 -0.22666325 0.0017303418
-0.056107849 0.4817661 0.065573826 0.12682515 -0.96622252 -0.22434245 0.00012744391
-0.036261577 0.48467851 0.064293988 0.12715033 -0.96662277 -0.22242577 0
-0.012295984 0.48752442 0.065614864 0.082214601 -0.97168797 -0.22150233 0.0013040267
-0.0041950126 0.48833859 0.066692777 0.005804948 -0.97470903 -0.2234024 0.0017792841
0.021917216 0.48535663 0.069464259 -0.11757925 -0.96737373 -0.2244174 3.4964287e-05
0.033426553 0.48463073 0.066092394 -0.12790775 -0.96600991 -0.22464271 0
0.041868329 0.4837772 0.064990975 -0.12745452 -0.9661299 -0.22438456 0
0.05689723 0.48129392 0.067146719 -0.12691636 -0.96592057 -0.22558752 0
0.063388906 0.48062882 0.066337325 -0.12717897 -0.96576363 -0.22611076 3.2651278e-05
-0.051225957 -0.48028174 0.074659824 0.12717009 0.96577394 -0.22607186 0
-0.035344489 -0.4833768 0.070370033 0.1271413 0.96576887 -0.22610959 0
-0.025996491 -0.48438698 0.071312085 0.12714179 0.96577656 -0.22607669 0
0.0045934445 -0.48630083 0.075173341 -0.0085447431 0.97657043 -0.21502861 0.0017175835
0.040611397 -0.48188984 0.073759973 -0.12716407 0.96576232 -0.22612514 9.4015588e-05
0.054203935 -0.48094225 0.07016369 -0.12718605 0.96577001 -0.22607929 0
-0.11507429 -0.47164163 0.075660758 0.18060741 0.95857227 -0.22027282 0.0012891327
-0.09504544 -0.47434616 0.075371645 0.1271601 0.96576953 -0.22609664 8.4491694e-05
-0.080926746 -0.47632009 0.074879698 0.127158 0.96576768 -0.22610548 0
-0.079608612 -0.47590986 0.077373311 0.12713714 0.96576822 -0.22611491 0
-0.066044703 -0.47840127 0.074358836 0.12714702 0.96576297 -0.22613153 0
0.05616466 -0.47917229 0.076621637 -0.12716319 0.96576118 -0.22612986 0
0.062419865 -0.47897685 0.073938876 -0.1271726 0.96576607 -0.22610411 2.0586045e-05
0.071909249 -0.47798869 0.072823323 -0.12714837 0.96578252 -0.22604717 0
0.094783351 -0.47444612 0.075092092 -0.12713249 0.96577388 -0.2260931 0
0.11439306 -0.4720588 0.074261911 -0.17240962 0.95706588 -0.23302332 0.0013679967
-0.15038452 -0.46094552 0.072296314 0.37202683 0.90026879 -0.22608003 0
-0.14458653 -0.46295202 0.073869132 0.35821137 0.90535057 -0.22808982 0.00015014771
-0.12169801 -0.46989787 0.079384424 0.24403323 0.94168496 -0.23168357 0.0019850768
0.14307031 -0.46357238 0.073899433 -0.34334579 0.91128933 -0.22730024 0.00078748295
0.15115446 -0.45997781 0.074878722 -0.37281105 0.89992601 -0.22615255 7.137494e-05
0.16411905 -0.45517564 0.072618067 -0.37284735 0.89993858 -0.2260429 3.8926431e-05
-0.1985659 -0.4410702 0.071969554 0.37263119 0.90006292 -0.22590427 3.6559089e-05
-0.17813715 -0.44924322 0.073119387 0.37272426 0.89998126 -0.22607599 0
0.18455407 -0.44580376 0.076230079 -0.37279361 0.8999514 -0.22608055 1.4827082e-05
0.19650158 -0.44110674 0.075227767 -0.37274939 0.89996117 -0.22611463 0
-0.22142942 -0.43172985 0.071451873 0.37484556 0.89913213 -0.22594716 0
-0.21582215 -0.43309867 0.075248584 0.37277201 0.89994735 -0.22613233 0.00010681684
-0.20138103 -0.43980199 0.072376162 0.37264749 0.90004408 -0.22595243 1.1383231e-05
0.20617709 -0.43683597 0.076274693 -0.37275803 0.8999511 -0.22613992 0
0.21081135 -0.43582219 0.072669327 -0.3729223 0.89989215 -0.22610429 0
-0.23404464 -0.42569974 0.074655078 0.40558562 0.88622034 -0.22386123 0.00046035569
0.24267325 -0.42207927 0.074061528 -0.49074873 0.8394469 -0.23344049 0.002247548
-0.25170466 -0.41519323 0.075677335 0.5484128 0.80359101 -0.23126815 0.0011395128
-0.24846676 -0.41729635 0.076980986 0.52639937 0.81804663 -0.23174003 0.0017565824
0.25384215 -0.41381168 0.074793421 -0.58679938 0.77787536 -0.22489223 6.8183217e-05
-0.26439309 -0.40599424 0.073841073 0.59159034 0.77408689 -0.22541153 1.4137708e-05
-0.25915015 -0.40905038 0.077146307 0.59162885 0.77421242 -0.22487882 1.8300932e-05
0.26577228 -0.40459347 0.07501179 -0.59072137 0.77453446 -0.22615187 0
-0.2802546 -0.39481404 0.070454679 0.59308767 0.7727375 -0.22610536 0
0.27312675 -0.39859334 0.076231644 -0.59297383 0.77281243 -0.22614823 8.3589184e-05
0.28070182 -0.39190918 0.079210863 -0.59289956 0.77289027 -0.22607639 2.5981095e-05
-0.29209319 -0.38425094 0.07551007 0.59301817 0.77279782 -0.22608171 2.5333131e-05
-0.28973791 -0.38497272 0.079220399 0.59327161 0.7725839 -0.22614825 0
0.28774577 -0.38758612 0.075512744 -0.59314513 0.77269846 -0.22608823 0
0.29341 -0.38307953 0.076060593 -0.5929296 0.77285933 -0.22610378 0
-0.29899028 -0.37917423 0.074773021 0.5931505 0.77269429 -0.22608867 0
0.3039512 -0.3762551 0.071739584 -0.5929426 0.77286446 -0.22605225 2.6892916e-05
-0.32176238 -0.36073679 0.078067511 0.59389734 0.77202255 -0.22642216 7.6969118e-05
-0.31797165 -0.36502329 0.073358037 0.59303641 0.77276343 -0.22615166 0.00010559792
0.31824771 -0.36408764 0.075832307 -0.59304428 0.77276462 -0.22612697 7.288823e-05
0.32226685 -0.36168575 0.073500693 -0.59305245 0.77276123 -0.22611691 6.9642178e-05
-0.33419982 -0.35184035 0.075855501 0.62688881 0.74428272 -0.2303337 0.0011662593
-0.32664692 -0.35828322 0.07364291 0.59791899 0.7693103 -0.22506569 0.00016871137
0.32275695 -0.35941768 0.079967827 -0.59301794 0.77279246 -0.22610088 1.9362518e-05
0.33069819 -0.35607794 0.070554949 -0.59327686 0.77260256 -0.22607051 0
-0.34718931 -0.34217334 0.07084021 0.71137184 0.66396469 -0.23043641 0.0020988632
-0.33855885 -0.34963098 0.071974427 0.64695603 0.72569412 -0.23412815 0.001901451
-0.35099721 -0.33671179 0.072148852 0.73442978 0.64051867 -0.22438526 0.0014892787
0.35184535 -0.33452135 0.074995019 -0.75813395 0.61371142 -0.22043431 0.00015444563
-0.35703012 -0.32818139 0.073901489 0.76005596 0.6091153 -0.22648098 0.00048313293
0.35855699 -0.32525536 0.076356776 -0.77278572 0.59302086 -0.22611593 6.0216065e-05
0.36723968 -0.31553382 0.072176062 -0.77279657 0.5930168 -0.22608981 3.1227763e-05
0.37035125 -0.31073505 0.074126527 -0.77282327 0.59297758 -0.226101 9.0375172e-05
-0.37257707 -0.30607471 0.078741774 0.77275205 0.5930714 -0.22609836 4.6340654e-05
-0.38002473 -0.29705158 0.076950699 0.77276683 0.5930531 -0.22609617 2.9072033e-05
-0.37981629 -0.29992086 0.07013768 0.77274948 0.59307224 -0.22610508 7.1002243e-05
0.3793062 -0.29857957 0.07539916 -0.77281469 0.59298402 -0.2261138 3.0801581e-05
0.38414332 -0.29388547 0.071177199 -0.77281314 0.59307265 -0.22588681 0.00012073863
-0.39300162 -0.2820515 0.071936741 0.77277696 0.59303975 -0.22609687 2.28108e-05
0.39134744 -0.28220809 0.077180207 -0.77277863 0.59302908 -0.22611865 7.0310845e-05
-0.39785218 -0.27292544 0.079292879 0.77277303 0.59303743 -0.22611611 6.6213812e-05
-0.40511847 -0.2656039 0.073658928 0.77422792 0.59133434 -0.22559866 0
-0.41189778 -0.25547251 0.077059194 0.79273379 0.56647843 -0.22511205 0.0003738938
0.41438323 -0.25323132 0.074441887 -0.80078381 0.55439574 -0.22669508 0.00088758511
0.41984981 -0.24655068 0.073278613 -0.82781112 0.50947046 -0.23488003 0.0020140074
-0.42514488 -0.23500705 0.075276956 0.86836386 0.43942866 -0.22988404 0.0016597839
0.42630404 -0.23165128 0.076195776 -0.88010061 0.41797522 -0.22521003 0.00072287599
-0.43093765 -0.22254807 0.072760873 0.89924288 0.37465328 -0.22582549 7.2269926e-05
-0.42819065 -0.22801077 0.074688651 0.88286817 0.40369013 -0.23995434 0.0010284127
0.43045232 -0.2210122 0.077225149 -0.89697194 0.38010865 -0.22574036 0.00017680715
0.43510461 -0.21264659 0.072499745 -0.89993995 0.37282121 -0.22608052 0
-0.4390887 -0.20164168 0.074785642 0.89994329 0.3728205 -0.22606854 0
0.43757987 -0.20311207 0.078367129 -0.89995271 0.3727693 -0.22611541 0
0.43981382 -0.19854447 0.077005923 -0.89994204 0.37279823 -0.22611022 0
-0.44703072 -0.18283166 0.074185982 0.89993536 0.37282169 -0.22609766 1.4082127e-05
0.44546127 -0.18522617 0.076485261 -0.89995652 0.3727794 -0.22608365 1.0096849e-06
-0.44922629 -0.17967314 0.070654333 0.89994186 0.37286478 -0.22600119 7.317416e-05
0.44851157 -0.1782838 0.075789958 -0.89992869 0.37283576 -0.22610122 5.6826004e-05
0.45011961 -0.17689319 0.071682014 -0.89993989 0.37280124 -0.22611348 0
0.45463282 -0.16518573 0.073020086 -0.8999176 0.37285653 -0.22611128 0
-0.45872775 -0.15477875 0.073879085 0.8999387 0.37280774 -0.22610764 0.00010227296
-0.46242648 -0.14540382 0.074613333 0.91145068 0.34582061 -0.22285829 0.00071095867
0.46439338 -0.14330643 0.070242226 -0.90395153 0.36131316 -0.22874522 0.00012425669
-0.46732274 -0.13336167 0.07497853 0.92372292 0.3118484 -0.22245571 0.0017159372
0.46769848 -0.13456994 0.071490787 -0.92001277 0.31873226 -0.22800511 0.00098176848
-0.4716205 -0.12238087 0.071642071 0.94311213 0.23534541 -0.23484482 0.0013536157
-0.4721145 -0.11727654 0.07240244 0.94923675 0.20269881 -0.24054693 0.0018314732
0.47221655 -0.11045693 0.075801603 -0.95927936 0.16183178 -0.23150271 0.00073802745
-0.47251737 -0.10846792 0.075635165 0.96293622 0.14310291 -0.22863799 0.00052799238
0.47314674 -0.10298463 0.076030448 -0.96520531 0.12996225 -0.22691077 0
-0.47470272 -0.092368245 0.075354174 0.96576846 0.12716189 -0.2260997 0
0.47437295 -0.096968941 0.074175484 -0.96576977 0.12714288 -0.22610502 0.00010636712
-0.47688302 -0.083048269 0.071281955 0.96575546 0.12714902 -0.2261624 0.00014292453
0.47505638 -0.088473357 0.076033801 -0.96577239 0.12719317 -0.22606552 0
-0.47724974 -0.074292123 0.074639633 0.96576524 0.12715669 -0.22611667 7.1237482e-05
0.47770619 -0.072708748 0.073580347 -0.96578091 0.12713532 -0.2260616 2.9870359e-06
-0.47738183 -0.06573467 0.078887776 0.96575922 0.12716746 -0.2261364 4.4529017e-05
0.47892493 -0.053494886 0.079179503 -0.96576321 0.1271707 -0.22611739 0.00012851809
-0.48089287 -0.041713342 0.077398866 0.96577191 0.12716289 -0.22608455 5.1808352e-06
-0.025765087 -0.031208239 0.07694073 0.69785655 0.67957103 0.22622862 0.09961731
-0.016277039 -0.036695093 0.075748295 0.36883545 0.89816129 0.2393046 0.11396673
-0.0047973823 -0.039249711 0.073238879 0.1111837 0.97567481 0.1889362 0.084064782
0.01555823 -0.036683023 0.074407555 -0.45136994 0.88868797 0.080615468 0.097275563
0.48207724 -0.036820799 0.075091094 -0.96577424 0.12715724 -0.22607781 0
-0.48382527 -0.022936154 0.075432584 0.96724468 0.11469053 -0.22645931 0.00031132871
-0.032939993 -0.023532329 0.076788217 0.83576143 0.52532685 0.15979534 0.090236902
-0.028395619 -0.027228056 0.070748091 0.71450067 0.68554688 0.1396935 0.077661797
-0.016630063 -0.023523498 0.074409574 0.55201966 0.80577856 0.21446517 0.10540149
0.0047454122 -0.028312823 0.074978992 -0.20568877 0.97188777 0.11457101 0.10736949
0.014156059 -0.025015052 0.073997721 -0.6042158 0.79240549 0.083766371 0.097068675
0.020890301 -0.020147083 0.073495507 -0.77700454 0.62260318 0.092893906 0.10306454
0.035435736 -0.020394638 0.077266224 -0.81067735 0.48409289 0.32932699 0.10458992
0.48281327 -0.028572537 0.076585621 -0.96577418 0.12714532 -0.22608468 2.5646999e-05
-0.48472148 -0.018702798 0.073984958 0.96697372 0.11262301 -0.22864366 0.00025002545
-0.036900006 -0.013857078 0.071986385 0.93230975 0.34811956 0.098037191 0.099461809
-0.024704799 -0.014524709 0.075070418 0.90341651 0.42798066 0.025905738 0.10299904
0.023180669 -0.01692321 0.075116038 -0.82454127 0.53939027 0.17084992 0.11705381
0.037398744 -0.014429934 0.0757256 -0.86820483 0.41670856 0.26939619 0.11964589
0.48361874 -0.017916044 0.079137862 -0.96636635 0.1168881 -0.22907038 0.00030848259
-0.48557144 -0.0053496873 0.077863619 0.97121865 0.037057601 -0.23528923 0.0022314214
-0.040396836 -0.00068674795 0.075945161 0.97387052 0.078951702 0.2129385 0.10948367
-0.039328463 -0.0050370512 0.074176602 0.96215218 0.16887102 0.21388224 0.09973488
-0.028562006 -0.0039877323 0.079013743 0.984249 0.15866879 0.0779626 0.12625654
0.028972981 -0.00086604658 0.079606012 -0.98227233 0.18564014 0.02605325 0.12288535
0.039881855 -0.0074907793 0.077185288 -0.89097011 0.35272551 0.28593162 0.10737032
0.040916681 -0.00090561074 0.077732004 -0.98307693 0.086874388 0.16128387 0.11648259
0.48562962 -0.0032649403 0.078787431 -0.97035909 0.030441932 -0.23974262 0.0018712198
-0.48659822 0.005020889 0.073662519 0.97538888 -0.021262717 -0.21946396 0.0023177699
-0.040273767 0.0026182842 0.076372527 0.980241 -0.021432992 0.19664223 0.1095649
-0.039447609 0.0010200299 0.070693664 0.98259574 0.034294352 0.18256404 0.090153657
-0.028262965 0.0059958249 0.075921774 0.97279602 -0.17976463 0.14612566 0.13279386
0.028524311 0.0042740586 0.078958653 -0.9966253 -0.073298723 -0.03694918 0.11800694
0.039426703 0.00059647806 0.07004191 -0.98211342 0.092112221 0.1642209 0.084369436
0.48575705 0.0051438482 0.077186525 -0.97318548 -0.040907621 -0.226355 0.0020281915
-0.48510036 0.016176499 0.073787257 0.96804512 -0.098357804 -0.23068242 0.00063608226
-0.025217379 0.014151695 0.075344637 0.85190964 -0.51574218 0.090884343 0.12072989
0.48505327 0.015492115 0.07437326 -0.96760744 -0.11582908 -0.22432005 0.00021410182
-0.48349351 0.029580288 0.073113307 0.96576887 -0.12715502 -0.2261018 6.8223504e-05
-0.029268714 0.028062748 0.075386837 0.67230153 -0.72043514 0.17024684 0.099878535
-0.01299649 0.025830872 0.0778891 0.50017422 -0.85686523 0.12493078 0.12360703
-0.0040320219 0.028556176 0.074928202 0.25675145 -0.93627834 0.23971149 0.11275146
0.006793391 0.028192636 0.072077654 -0.20926313 -0.96725452 0.14362365 0.1000019
0.012793345 0.025915019 0.079921246 -0.41625476 -0.90495425 0.088258773 0.12508334
0.02816573 0.029012676 0.076076612 -0.60693169 -0.74846876 0.26726109 0.086597137
0.032525737 0.022587242 0.073363505 -0.85053664 -0.50858921 0.13388208 0.10418295
0.48321187 0.020736149 0.079290003 -0.96744066 -0.11901377 -0.22337012 0.00015462225
-0.01692421 0.036623072 0.076507032 0.43952224 -0.86994231 0.22365275 0.089624248
-0.0083329855 0.038867302 0.073944986 0.25142825 -0.93743247 0.24084075 0.10201042
0.48223361 0.037406899 0.074093327 -0.9657746 -0.12716016 -0.22607471 2.0726306e-05
-0.48137239 0.045969587 0.072956972 0.96576995 -0.12715536 -0.22609703 0.00011909956
0.48154822 0.047528569 0.071329236 -0.96576405 -0.12714121 -0.22613013 7.7303172e-05
-0.4804737 0.054429587 0.07203836 0.96576059 -0.12717317 -0.22612712 0
0.47849956 0.057852663 0.078545868 -0.96575814 -0.12716492 -0.22614211 0
-0.47705048 0.067112394 0.07952828 0.96577036 -0.1271639 -0.22609043 0
0.47720623 0.067126572 0.078855246 -0.96578145 -0.12714769 -0.22605252 0
0.47735056 0.072706595 0.075100698 -0.96576172 -0.12716387 -0.22612761 0
-0.47634596 0.082675457 0.07378576 0.96576303 -0.12714811 -0.2261305 4.4208438e-05
0.47421563 0.088019304 0.079880595 -0.96577489 -0.12712641 -0.22609213 1.5134594e-05
-0.47466159 0.094161525 0.074521326 0.96575677 -0.12718517 -0.22613664 5.2106319e-05
0.47457165 0.094225541 0.074869625 -0.96576178 -0.12719257 -0.22611135 0
-0.47391838 0.10032757 0.07422851 0.96576613 -0.12715231 -0.22611512 0
-0.47198135 0.11339784 0.075152412 0.95591921 -0.17730503 -0.23405425 0.001323904
0.47240859 0.11562327 0.07207606 -0.95866084 -0.17296462 -0.2259483 0.00093721756
-0.46446523 0.13809998 0.078540429 0.91879153 -0.32367244 -0.22596069 0.0013414695
0.466306 0.13486299 0.076550379 -0.91938537 -0.32551518 -0.22084042 0.00073806936
