# .PCD v0.7 - Point Cloud Data file format
VERSION 0.7
FIELDS x y z normal_x normal_y normal_z curvature
SIZE 4 4 4 4 4 4 4
TYPE F F F F F F F
COUNT 1 1 1 1 1 1 1
WIDTH 589
HEIGHT 1
VIEWPOINT 0 0 0 1 0 0 0
POINTS 589
DATA ascii
-0.037914854 -0.0019130888 -0.20438237 0.99957401 0.0040238355 0.028906066 0.02116332
0.037469685 -0.0052944594 -0.20270583 -0.99470389 0.10199264 -0.012720279 0.020628549
0.39047992 -0.0075364662 -0.20833999 -0.99442273 0.065519266 0.082647972 0.0011616059
-0.39049608 0.0093408283 -0.20520198 0.9937247 -0.064000979 0.091733947 0.0014048611
-0.037288077 0.0066738664 -0.20374401 0.98260641 -0.18517388 0.013971343 0.023016799
0.037364196 0.0060375864 -0.20723298 -0.97394985 -0.22675714 -0.0017063345 0.01847177
0.39145342 0.003512484 -0.20285076 -0.99587983 -0.025106199 0.087137908 0.0020300862
-0.39048943 0.011725172 -0.2014008 0.99359983 -0.068691127 0.089671031 0.0013212868
-0.38953936 0.017871175 -0.20314407 0.99177557 -0.099699304 0.080257989 0.00062249938
0.034019601 0.016750604 -0.20600358 -0.91577476 -0.40168232 0.0028240902 0.022279816
-0.38893902 0.020492237 -0.20630154 0.99029946 -0.11247683 0.081583939 0.00030640647
-0.031279515 0.021395031 -0.2053785 0.87335104 -0.48691428 0.013135942 0.019568613
-0.028881758 0.024519848 -0.20695302 0.83121914 -0.55548441 0.022624662 0.016053276
0.025555076 0.027878912 -0.20221539 -0.67184591 -0.74025315 0.025462914 0.021673663
0.03141233 0.021221966 -0.20781934 -0.84740639 -0.53084254 0.010425309 0.0180113
0.38815877 0.027672991 -0.20425917 -0.98827749 -0.13010563 0.079875074 0
-0.38719875 0.034390904 -0.20519438 0.98827165 -0.13011263 0.079936646 0
-0.021410987 0.031267278 -0.20358384 0.53818762 -0.84059626 -0.06125319 0.030339831
-0.014313834 0.035028934 -0.20834851 0.37744185 -0.92504531 -0.042764235 0.020415228
0.0038507218 0.037659746 -0.20486076 -0.13559453 -0.99067986 0.012945414 0.021960797
0.018113904 0.033369344 -0.20781466 -0.51750511 -0.85549718 -0.017690856 0.014736137
0.022556301 0.030388447 -0.2036033 -0.59440994 -0.80409932 -0.010059284 0.026861083
0.38688588 0.037078343 -0.20468807 -0.98827589 -0.13012464 0.079864375 5.4171283e-05
-0.38568211 0.044827502 -0.20695955 0.98827952 -0.13008824 0.079878256 3.83771e-05
0.38588199 0.046398059 -0.20192823 -0.98827094 -0.13011621 0.079939403 0
-0.38414508 0.057766251 -0.20490098 0.98827547 -0.13012418 0.07987047 0
0.38544106 0.050800093 -0.20021382 -0.98827112 -0.13011487 0.079939745 0
-0.3836759 0.060172983 -0.2067852 0.98826748 -0.13012643 0.079964988 0
0.38341787 0.065495364 -0.20130837 -0.98827076 -0.13009597 0.079974756 0
-0.38255888 0.072507322 -0.20051521 0.98827946 -0.13009852 0.079862893 1.2528863e-05
0.38234961 0.071371779 -0.20495307 -0.98826933 -0.13011825 0.079956472 0
0.38074297 0.085149072 -0.20239033 -0.98285574 -0.16496435 0.082349107 0.00054105034
-0.38007072 0.090642788 -0.20175929 0.97922289 -0.18279411 0.087799981 0.0012844
-0.37893328 0.094424717 -0.20967096 0.97090417 -0.22585084 0.079602107 0.0020701967
-0.37597522 0.10675097 -0.20728403 0.94864976 -0.30577487 0.081026755 0.0014013839
0.3760404 0.10738017 -0.20319566 -0.94807571 -0.31058884 0.068462975 0.0013333766
-0.3725965 0.11512354 -0.20625427 0.9349969 -0.34642261 0.07597506 0.00059039379
0.37370467 0.11303254 -0.2034642 -0.94320846 -0.3241443 0.072720952 0.0014263229
-0.37003928 0.12135588 -0.20597437 0.92683911 -0.36660668 0.081047818 0.00019280567
-0.36818942 0.12580384 -0.20605998 0.92094332 -0.38142493 0.079865724 3.3631826e-05
0.36798719 0.12616283 -0.20667768 -0.9211055 -0.38104504 0.079807714 2.7022485e-05
0.36423531 0.13558227 -0.20495084 -0.92090833 -0.38150126 0.079903975 0
-0.36122215 0.14244433 -0.20691955 0.92092854 -0.38146314 0.079852849 2.8371414e-05
-0.35936454 0.14734684 -0.20492435 0.92092472 -0.38144305 0.079993494 0
0.3614161 0.14331043 -0.2005488 -0.92093539 -0.38143525 0.079906709 0
-0.3565236 0.15387079 -0.20652282 0.92091006 -0.38150612 0.079860657 0
0.35550606 0.15655181 -0.20545124 -0.92091686 -0.38147351 0.079938523 0
-0.35350817 0.16170856 -0.203859 0.92092603 -0.38146174 0.079888448 1.7098706e-06
0.35034364 0.16919801 -0.20457679 -0.92090505 -0.38151696 0.079867005 0
-0.34668159 0.17877698 -0.20105325 0.91755313 -0.38902536 0.082192935 4.1357096e-05
0.34786105 0.17503229 -0.20533758 -0.9155094 -0.39451674 0.078734212 0.00022534456
-0.34471923 0.18272798 -0.20480892 0.90055895 -0.42837861 0.074062705 0.0011483952
0.34368494 0.18534435 -0.20423904 -0.89955902 -0.42966145 0.078642219 0.0010339591
-0.33697355 0.19912264 -0.20292108 0.84558553 -0.52871883 0.073767014 0.0020766063
0.33729112 0.19871277 -0.2028915 -0.8569749 -0.50860435 0.083160944 0.0023165355
0.34152526 0.19028358 -0.2055506 -0.89455366 -0.43971491 0.080152966 0.0016307444
-0.33073008 0.20722027 -0.20321772 0.81830943 -0.5693512 0.078796737 0.0010623857
-0.32928362 0.20899996 -0.20401786 0.81072187 -0.58006722 0.079070188 0.00071474153
0.33494243 0.20182018 -0.2025376 -0.84771043 -0.52461314 0.078537144 0.0022927907
-0.32449964 0.21493343 -0.20630567 0.79318243 -0.60390121 0.078516059 4.7369445e-05
0.32383603 0.21611989 -0.20386247 -0.79198366 -0.60531932 0.079689324 0
-0.31637654 0.22590363 -0.2033888 0.79080904 -0.60682088 0.079934485 1.7243266e-05
0.31653318 0.22545354 -0.20525758 -0.79074597 -0.60689926 0.079962917 0
-0.30779755 0.23693921 -0.20448864 0.79080284 -0.60683841 0.079863146 0
0.31171012 0.23187883 -0.20419581 -0.79074013 -0.60692132 0.079852536 0
-0.30443746 0.24113397 -0.2058876 0.79077703 -0.60686952 0.079881467 6.0405611e-05
-0.29986185 0.24732399 -0.20416358 0.79081059 -0.60682559 0.079883158 2.2399499e-05
0.29942966 0.24743077 -0.20763108 -0.7908113 -0.60683095 0.079835318 0
0.30218175 0.24409552 -0.20572172 -0.7907927 -0.60685766 0.079816498 0
0.29490501 0.2533837 -0.20720376 -0.79076725 -0.60688245 0.079879604 0
-0.28574282 0.26533902 -0.20709041 0.77665967 -0.62437057 0.083433561 0.00023142177
0.28680858 0.26438874 -0.20375867 -0.76962197 -0.63357234 0.079171479 0.00069422531
0.29005998 0.2600233 -0.2047314 -0.78287005 -0.61700279 0.08013773 0.00015669812
-0.2770049 0.27677166 -0.20117745 0.68066496 -0.72883773 0.074100085 0.001661927
0.27388006 0.27947456 -0.20426388 -0.69894779 -0.71032202 0.083154611 0.0021267163
-0.2639468 0.28709152 -0.20431392 0.6267041 -0.7752316 0.079106957 0.00046209566
0.26756519 0.2841678 -0.20577188 -0.6493957 -0.75597775 0.082357392 0.0011433823
0.27158391 0.28135252 -0.20311505 -0.6845637 -0.72513777 0.074484058 0.0025815968
-0.25623682 0.29299712 -0.20441779 0.61093283 -0.78760415 0.080254868 1.0505696e-05
-0.24906851 0.29814616 -0.20789635 0.60685951 -0.79078662 0.079863697 0
0.25714517 0.29239562 -0.2034727 -0.60786539 -0.78992558 0.080729023 0
-0.2438681 0.30270857 -0.20223436 0.60686421 -0.79077518 0.079940505 0
0.23924012 0.30596346 -0.20516747 -0.60684842 -0.79078829 0.079930566 0
0.24104656 0.30422884 -0.20861693 -0.60682786 -0.79080164 0.079954013 1.5065939e-05
-0.22505835 0.31701419 -0.20349747 0.60684067 -0.7907967 0.079906449 0
0.23159726 0.31186125 -0.20483823 -0.60684317 -0.79079974 0.079856813 6.4539108e-06
-0.21490979 0.3247281 -0.20422368 0.60123062 -0.79476732 0.082865752 1.4154893e-05
0.20887232 0.32921988 -0.20561889 -0.58842415 -0.80445182 0.081328273 0.00070142839
0.21723446 0.32310969 -0.20258681 -0.60678864 -0.79083937 0.079879075 9.6661624e-06
0.22081098 0.32000482 -0.2061553 -0.6068067 -0.79081422 0.079990081 0
-0.20344315 0.33325279 -0.20693558 0.54109323 -0.83647376 0.086774409 0.0019489581
-0.19720659 0.33847946 -0.2025684 0.51427495 -0.85410982 0.077574953 0.0018711889
0.19687352 0.33838552 -0.20593271 -0.50194389 -0.86039609 0.088152349 0.0025004756
0.20588209 0.33186463 -0.20215186 -0.55671829 -0.82663524 0.082090884 0.0014252815
-0.18076044 0.34535539 -0.20687017 0.41749284 -0.90527469 0.078596987 0.0009119219
-0.17906627 0.34633672 -0.20364723 0.40256095 -0.91155922 0.08369194 0.00043831024
0.17202201 0.34936762 -0.20234421 -0.38309449 -0.92021084 0.080315098 6.0497958e-05
0.18156523 0.34510893 -0.20586848 -0.41697425 -0.90545839 0.079231232 0.00080486195
0.19196653 0.34082419 -0.20559663 -0.45864382 -0.88410091 0.089506119 0.001462117
-0.16420424 0.35200751 -0.2092413 0.38147339 -0.92092097 0.079891287 0
-0.14618993 0.35947251 -0.20920414 0.38147172 -0.92092019 0.079908445 0
0.14834675 0.35907793 -0.20345432 -0.38147128 -0.92091572 0.079961739 0
0.15871219 0.35490966 -0.20201039 -0.38139021 -0.92095512 0.079894796 0
0.16226581 0.35325122 -0.20416008 -0.38142499 -0.92094278 0.079870865 3.2123811e-05
-0.14268567 0.36147979 -0.20279743 0.38150468 -0.92091411 0.079820991 4.2342646e-05
-0.13429746 0.36459443 -0.20694613 0.38144273 -0.92093754 0.079847254 3.2816486e-05
-0.12660088 0.36837143 -0.20015676 0.38139686 -0.92095566 0.079856597 2.2309046e-05
0.12581825 0.36802542 -0.20788226 -0.38141522 -0.92093515 0.080005109 0
0.1352576 0.36428741 -0.20590039 -0.38154507 -0.92089462 0.079852879 0
0.14257029 0.3612797 -0.20565513 -0.38148525 -0.92092079 0.0798373 3.3743661e-05
-0.12016308 0.37077707 -0.20316528 0.36913094 -0.92611361 0.077819586 0.00022220094
-0.11352302 0.37301606 -0.20906053 0.3438426 -0.93571717 0.078776211 0.00086255465
-0.097070411 0.37893981 -0.20528156 0.22800159 -0.9706443 0.076583348 0.0018279228
0.096105315 0.37887233 -0.20768782 -0.20784573 -0.97577024 0.068357222 0.0011630985
0.1065174 0.37621486 -0.20563711 -0.28307647 -0.95576137 0.079924293 0.0020356507
0.11179805 0.37403584 -0.20554127 -0.33189207 -0.94069707 0.070261456 0.0012279591
-0.077707127 0.38140264 -0.20635025 0.13012169 -0.98827714 0.079854883 0
-0.064390883 0.38336825 -0.20372149 0.13012438 -0.98827618 0.079860635 0.00011837762
-0.054406263 0.38431579 -0.20826054 0.13013017 -0.98827511 0.079864822 2.116414e-05
-0.048673555 0.38557598 -0.20200831 0.13011099 -0.98827791 0.079860941 0
-0.034365863 0.3872253 -0.20490624 0.13011071 -0.98827678 0.079876631 2.0758911e-05
-0.027409637 0.38800749 -0.20655982 0.12859105 -0.98848182 0.079799905 0
-0.014680696 0.38961869 -0.2073589 0.11035421 -0.9908883 0.07721597 0.00037470405
0.016523777 0.38960019 -0.20458575 -0.096000358 -0.99204516 0.081426345 0.00088946539
0.033399519 0.38715091 -0.20740092 -0.13010903 -0.9882766 0.079880685 2.9649465e-05
0.044849407 0.38584542 -0.20490268 -0.13010338 -0.98827571 0.079901196 0
0.05451148 0.38454872 -0.20520796 -0.13013816 -0.98827988 0.079792976 0.00016187197
0.062769376 0.38337818 -0.20623899 -0.13011736 -0.98827195 0.079925917 2.8710717e-06
0.070352413 0.38266233 -0.20274486 -0.13008136 -0.98828042 0.079879142 0
0.082306303 0.38109234 -0.20269832 -0.14186566 -0.98667306 0.079689004 0.00011549226
-0.012630482 0.39039087 -0.20114516 0.088182464 -0.99328583 0.074880205 0.0011240342
-0.0062042112 0.39123482 -0.20117131 0.066358037 -0.99527603 0.070867553 0.0017771845
0.0017545109 0.3916105 -0.20377073 -0.005315755 -0.99683011 0.079382665 0.0027004762
-0.017213404 -0.39048201 -0.19255374 0.11440005 0.99023974 0.079610527 0.00026880568
-0.00060412858 -0.39250788 -0.19454297 0.0026377193 0.99627239 0.086223006 0.0022019786
0.0030661458 -0.39197636 -0.19710878 -0.0036777386 0.99637944 0.084938534 0.0026018049
0.013994423 -0.39039779 -0.19883868 -0.10059492 0.99173957 0.079582788 0.00062997144
-0.091677822 -0.38082319 -0.19076546 0.19329731 0.97815961 0.076419041 0.0013833781
-0.083935246 -0.38186419 -0.19049689 0.15593657 0.98458952 0.079165764 0.000451759
-0.072151214 -0.38286817 -0.19726905 0.13010031 0.98828447 0.079798408 2.8746408e-05
-0.062132493 -0.38425422 -0.19643967 0.13012338 0.98826718 0.079974286 0
-0.053504031 -0.3853271 -0.19721963 0.13010183 0.98828053 0.079844043 3.8451191e-05
-0.044684272 -0.38654423 -0.19652723 0.13013554 0.98827386 0.079871528 0.0001413666
-0.036336634 -0.38752633 -0.19797304 0.13010994 0.98827678 0.079877824 4.3476834e-05
-0.025655199 -0.38898814 -0.19728574 0.12710321 0.98867965 0.079732485 4.9137772e-05
0.025326993 -0.38941395 -0.1925523 -0.12579682 0.98895901 0.078327581 5.4849919e-05
0.037711386 -0.38782024 -0.19209866 -0.13011299 0.98827451 0.079900451 0
0.045594048 -0.3867031 -0.19308078 -0.13010925 0.98827487 0.079902582 1.2269251e-05
0.055833593 -0.38513863 -0.19575743 -0.13012658 0.98827612 0.079858415 7.0528644e-05
0.062883668 -0.38399258 -0.19845301 -0.13011205 0.98827839 0.079854071 0
0.075433731 -0.38268909 -0.19413877 -0.13091195 0.9881866 0.079682305 0
0.08590129 -0.38104129 -0.19747525 -0.16952388 0.98191035 0.084342502 0.00083056098
-0.12143093 -0.37078038 -0.19707312 0.36785689 0.92644215 0.079914652 0.00022467048
-0.11665006 -0.37296724 -0.19469191 0.35888016 0.92985392 0.081096843 0.00075609609
-0.10648231 -0.37704539 -0.19623055 0.2950604 0.9522143 0.078913964 0.0021086305
-0.096408442 -0.37954491 -0.19887391 0.22501057 0.97002846 0.091733418 0.0020587409
0.10190666 -0.37887943 -0.19565497 -0.25064203 0.96334928 0.095586449 0.0026599746
0.11484042 -0.37358207 -0.19624525 -0.34384862 0.93548673 0.081441253 0.0010013462
-0.14282763 -0.36203378 -0.19573358 0.38146758 0.92092043 0.079924606 2.1287347e-05
-0.13061064 -0.36722779 -0.19419345 0.38147134 0.92092645 0.079837568 0
0.12756002 -0.36833179 -0.1960337 -0.38105768 0.92108619 0.079970814 0
0.13598272 -0.36500975 -0.19411173 -0.38157248 0.92090303 0.079624623 4.7772821e-05
0.14351185 -0.36185324 -0.19454753 -0.38154757 0.92091244 0.079634935 0
-0.17182902 -0.35035157 -0.19192314 0.38159376 0.92097145 0.078725927 1.9424902e-05
-0.16729748 -0.35158038 -0.19939511 0.38150328 0.92091334 0.079836503 4.8103142e-05
-0.15611811 -0.35643828 -0.19677579 0.38153216 0.92091304 0.079702042 0
0.14916785 -0.35937312 -0.1961302 -0.38146502 0.92092407 0.079895526 4.3390795e-05
0.15569155 -0.35704094 -0.19186524 -0.38139531 0.92115211 0.077564821 4.3800006e-05
-0.19525783 -0.34053674 -0.19319449 0.49631456 0.86486965 0.075315684 0.0023072294
-0.18582082 -0.344484 -0.1927525 0.43254399 0.8983373 0.076783121 0.0014662835
0.17632464 -0.34834683 -0.19356677 -0.38811073 0.91826165 0.078521356 7.23263e-05
0.18256263 -0.34560093 -0.19543464 -0.41021347 0.90818185 0.083250187 0.0007648652
0.19175662 -0.34183949 -0.19489479 -0.47840217 0.87353027 0.089868166 0.0020505458
0.19918892 -0.3378996 -0.19325128 -0.52373767 0.84845787 0.076275863 0.0022044713
-0.21529694 -0.32551047 -0.19353835 0.60547876 0.79182518 0.080052063 4.1453139e-05
-0.2097479 -0.32963023 -0.19490588 0.58825642 0.80481648 0.078897662 0.00049768167
0.21702699 -0.32407534 -0.1946032 -0.60685611 0.79078376 0.079916723 0
0.22005194 -0.32195055 -0.1926598 -0.60696876 0.79074323 0.079460651 0
-0.22643845 -0.31717625 -0.19141041 0.6071474 0.79080546 0.077451497 6.1339248e-05
0.22523014 -0.31758088 -0.19658299 -0.60680741 0.79082322 0.079895541 0
-0.2413415 -0.30542517 -0.19453397 0.60681856 0.79081714 0.079871647 0
0.23924065 -0.30729613 -0.19197127 -0.60699517 0.7907635 0.079056226 8.5081942e-05
0.24420896 -0.30315745 -0.19520171 -0.60681093 0.79081804 0.079919808 5.0448467e-05
-0.26194671 -0.29002413 -0.1904766 0.62310988 0.77823132 0.078038886 0.00051869231
-0.2551232 -0.29470611 -0.19595955 0.60795617 0.78993011 0.079998381 4.2415713e-06
-0.24967277 -0.29886168 -0.19622345 0.6068821 0.79075652 0.079989426 0
0.24903065 -0.29971376 -0.19266701 -0.60676712 0.79107976 0.077629857 0
0.25092441 -0.29815096 -0.19375211 -0.60675639 0.79094201 0.079104051 0
0.26146135 -0.29014352 -0.19298157 -0.61567432 0.78414071 0.077900067 0.00032512756
-0.27057052 -0.28275383 -0.19694114 0.66373026 0.74411184 0.075892881 0.0019694357
-0.26829249 -0.28470787 -0.1949012 0.64633244 0.75902486 0.078330196 0.0016050277
0.26865444 -0.28422618 -0.19692048 -0.64923114 0.75494802 0.092479728 0.00167098
0.27083933 -0.28293094 -0.19314584 -0.65246218 0.75165254 0.096496068 0.0018133298
-0.28228846 -0.2711255 -0.19733232 0.74296665 0.66312438 0.090920575 0.0021472292
-0.27682072 -0.27774692 -0.19902968 0.6962781 0.71337146 0.079359606 0.0025802222
0.27832511 -0.27659974 -0.1939261 -0.7199837 0.68951267 0.078713261 0.0024470517
0.28241721 -0.27185175 -0.19054148 -0.73698521 0.67137355 0.078168735 0.0018544038
-0.28823993 -0.26360455 -0.19554584 0.77350712 0.62865734 0.080477491 0.00069284876
0.28684723 -0.26540688 -0.19564235 -0.77002043 0.63242638 0.084294036 0.00072242395
0.29055741 -0.26047224 -0.19639724 -0.7846204 0.61446857 0.082456924 0.00021853983
-0.29546729 -0.2540127 -0.19685963 0.79085052 0.60676593 0.079940677 0
0.29634711 -0.25349197 -0.19210602 -0.79073519 0.60702831 0.079085737 1.273747e-05
-0.30239636 -0.2453624 -0.19397435 0.7908057 0.60682726 0.079918668 1.4685503e-05
-0.29873931 -0.24995407 -0.19529845 0.79079849 0.60682958 0.07997261 0
0.3031413 -0.24401051 -0.19686899 -0.79077637 0.60686994 0.079885118 0
-0.31265467 -0.23157495 -0.19715403 0.79078698 0.60685188 0.079917133 2.6440441e-05
-0.30915952 -0.23605141 -0.19774993 0.79085106 0.60676873 0.079914577 5.1311788e-05
0.31117913 -0.23417211 -0.19203298 -0.79093081 0.60690522 0.078067243 0
-0.32017145 -0.22210629 -0.19466704 0.79078567 0.60685474 0.079908989 0
0.3181577 -0.22470948 -0.19482788 -0.7908107 0.60682613 0.07987804 0
0.32021612 -0.22234485 -0.19241305 -0.79098141 0.60679126 0.078439862 0
-0.3252421 -0.21551175 -0.19456299 0.79307342 0.60361242 0.081771553 8.6448663e-06
0.32620329 -0.21427538 -0.19443977 -0.79299182 0.60416859 0.078384735 1.3167294e-06
-0.331848 -0.20683908 -0.19504669 0.81123662 0.57910782 0.080804281 0.00082211406
0.33289739 -0.20607626 -0.19045323 -0.8173309 0.57135469 0.074324027 0.0012850398
0.33814135 -0.19878364 -0.19393644 -0.84783244 0.52393675 0.081672743 0.0032384363
0.34146509 -0.19283698 -0.19405198 -0.87697446 0.47473973 0.074417718 0.0029197573
0.34432399 -0.18549745 -0.19614141 -0.90838677 0.40993336 0.082390524 0.00083731679
-0.34836641 -0.17625578 -0.1936696 0.91678578 0.39175487 0.077665605 0.00017720944
0.3502745 -0.17220676 -0.19100752 -0.91980398 0.38457265 0.077874258 6.6639826e-05
-0.35092974 -0.16961026 -0.19585207 0.92089683 0.38153329 0.079883881 0
0.35428464 -0.16214031 -0.1928466 -0.92091691 0.38148034 0.079904318 3.3023884e-05
-0.35604239 -0.15790075 -0.19282709 0.92093289 0.38145491 0.079841517 3.7094389e-05
0.35633609 -0.15763648 -0.19070359 -0.92140251 0.38084131 0.077312857 0
-0.36161608 -0.14453116 -0.19241473 0.92096514 0.38148907 0.079305232 5.0392111e-05
0.3606841 -0.14580226 -0.19708858 -0.92091912 0.38148355 0.079864107 7.4474439e-05
-0.36593902 -0.13340619 -0.19570161 0.92091656 0.3814829 0.079896443 0
0.3646763 -0.13596627 -0.19803414 -0.92091817 0.38148192 0.079881795 0
-0.36809126 -0.12833084 -0.19512589 0.92091542 0.38149697 0.079842262 5.4814442e-05
-0.37226543 -0.1180726 -0.19598982 0.93135601 0.35589954 0.076886535 0.00043732263
0.37253815 -0.11822097 -0.19213763 -0.92691857 0.36769846 0.074965246 0.00028145334
-0.37722832 -0.1060607 -0.19613488 0.94491005 0.31508586 0.088690899 0.0015975066
0.37762094 -0.10476661 -0.19778782 -0.95940751 0.26812875 0.087430649 0.0025925278
-0.38069594 -0.091795944 -0.19214725 0.97727084 0.1899914 0.094047561 0.0015303153
-0.37976819 -0.099075846 -0.19176762 0.96825379 0.23322837 0.089939415 0.0023241336
-0.38158774 -0.08416146 -0.19354883 0.98496825 0.14996527 0.085720703 0.00055172615
0.38187262 -0.083121702 -0.19171774 -0.98645103 0.14242269 0.08142522 4.8211103e-05
-0.38283053 -0.073259905 -0.19592918 0.98827726 0.13010068 0.079887435 8.3452214e-05
0.38238287 -0.075929746 -0.19711864 -0.98721433 0.13839318 0.079089843 3.8466795e-05
-0.38398856 -0.063805178 -0.19700149 0.98827201 0.13009726 0.079956755 0
0.38394552 -0.063861392 -0.1974425 -0.98827612 0.13012712 0.079857208 3.0910342e-05
-0.38518572 -0.056036934 -0.19484355 0.98827219 0.13010883 0.079936564 0
0.38558173 -0.052205667 -0.1961844 -0.988276 0.13009842 0.079905801 0
-0.38598472 -0.047905929 -0.1982017 0.98827112 0.13009734 0.079967938 0
0.38665828 -0.047028407 -0.19129865 -0.98838633 0.13011687 0.078498796 3.7115271e-05
-0.38813272 -0.034462854 -0.19352333 0.98828638 0.13010734 0.079763032 0
-0.021520352 -0.031183377 -0.19438332 0.56792927 0.82307696 -0.00072942307 0.022306208
-0.0031015179 -0.037758395 -0.19681503 0.045443833 0.99857014 -0.028152745 0.021784881
0.004799908 -0.037534796 -0.19977167 -0.079917036 0.9968012 -0.00072674121 0.020810803
0.01330736 -0.035445839 -0.19365859 -0.42541859 0.90495932 -0.0082245013 0.010786054
0.021255376 -0.031386696 -0.19223681 -0.57096571 0.82082134 0.015821284 0.019760692
0.38814473 -0.035773225 -0.19124077 -0.988648 0.12989458 0.075515345 0
-0.38951898 -0.023417544 -0.1943633 0.98972583 0.12115154 0.075927585 0.00021265818
-0.031592522 -0.020987129 -0.19913499 0.89247352 0.45108169 -0.0040286477 0.014168179
-0.023711048 -0.029502396 -0.19473791 0.69386053 0.71959507 -0.027212895 0.020831319
0.024678189 -0.028760286 -0.19696154 -0.6693505 0.74294686 -9.7568278e-05 0.022270178
-0.39008144 -0.019528851 -0.19373798 0.98944801 0.12226287 0.07774549 0.0002079635
-0.035928927 -0.012141064 -0.19459641 0.92585248 0.37722191 0.02237889 0.020787273
0.033906579 -0.016726712 -0.19541219 -0.88098741 0.47212589 0.030956823 0.017984159
0.39076781 -0.012667037 -0.1964229 -0.99352318 0.082258657 0.078392029 0.0014601954
-0.39163643 -0.0051922966 -0.19785124 0.99621964 0.023691628 0.083577 0.0022218334
-0.037632108 -0.0040607331 -0.19275296 0.99032044 0.13735932 0.019944761 0.029765435
0.036965501 -0.0091241635 -0.19684178 -0.95996565 0.28009677 -0.0034354737 0.023401588
0.39179522 -0.0048143216 -0.19650279 -0.99572486 0.029260706 0.087611631 0.0016720332
-0.39217636 0.003793668 -0.19344963 0.99602824 -0.023838118 0.085787214 0.0018864053
-0.037185967 0.0074494677 -0.19919793 0.97998607 -0.19903354 0.0036047741 0.02270025
0.037295174 0.0066199657 -0.19609365 -0.96841991 -0.24930505 0.0031469741 0.021949876
0.39232022 0.0047537684 -0.19010653 -0.99556363 -0.033989072 0.087737627 0.002053407
-0.39073363 0.012542965 -0.19704819 0.99399334 -0.074478067 0.080188684 0.0012173126
-0.034328416 0.016005017 -0.19972906 0.92280805 -0.38450682 0.024080573 0.022190353
0.035008069 0.014226434 -0.19737533 -0.91828525 -0.39590952 0.0028216222 0.018790124
0.39077783 0.015282916 -0.19203836 -0.99131781 -0.094253935 0.091680385 0.00079827243
-0.38918698 0.024918387 -0.19602591 0.98827708 -0.13012895 0.079841897 4.6862962e-05
-0.031165104 0.021544129 -0.19923237 0.87582642 -0.48231703 -0.017271649 0.013165838
-0.025360221 0.028033974 -0.19434811 0.73065305 -0.67981815 -0.063192844 0.01602041
0.027501205 0.025794845 -0.1996951 -0.70154428 -0.71258217 -0.0078855669 0.022475336
0.031365179 0.021283414 -0.19828877 -0.80197215 -0.59736151 0.00036622747 0.022240655
0.38870209 0.029669251 -0.19428672 -0.98835707 -0.13031226 0.078542642 0
-0.004045309 0.037634127 -0.19188127 0.050036855 -0.99846417 0.023784347 0.019585669
0.0064853644 0.037312888 -0.19748037 -0.22163947 -0.97481275 0.024821702 0.024243305
0.011582242 0.036160395 -0.19626567 -0.36306694 -0.93169737 -0.01106374 0.017429035
0.022061456 0.030768152 -0.19535711 -0.59243327 -0.80517614 -0.026723653 0.018255103
0.38759449 0.03529004 -0.19883437 -0.98827738 -0.13011223 0.079866387 0
-0.38651085 0.044363551 -0.19746265 0.98827434 -0.13011751 0.079896018 8.2615472e-05
0.38725039 0.041993763 -0.192173 -0.98851287 -0.13043846 0.076342367 4.3834243e-05
-0.38542819 0.051991779 -0.19843233 0.98826993 -0.13010788 0.079965726 0
0.38518476 0.056549851 -0.19402041 -0.98832679 -0.13013811 0.079209432 0
-0.38376427 0.065873206 -0.19640863 0.98827195 -0.13011697 0.079926267 0
0.38433695 0.062768005 -0.19438095 -0.9883545 -0.12996462 0.079149023 0
-0.38295507 0.073248118 -0.19440754 0.98832899 -0.13000071 0.079407476 1.3349839e-05
0.38281667 0.074178718 -0.19460404 -0.98827022 -0.13011654 0.079948381 0
-0.38108164 0.084847368 -0.1986924 0.98621207 -0.14395833 0.081619672 0.0002604691
0.38109636 0.087939799 -0.19347382 -0.98072314 -0.17579244 0.085318029 0.001121643
-0.38071588 0.092143036 -0.1913355 0.9776445 -0.1962031 0.075601265 0.0015648633
-0.37954226 0.098287746 -0.19584599 0.96746844 -0.2412674 0.076123461 0.0024234669
0.37937123 0.097424507 -0.19936799 -0.97172916 -0.22342087 0.076324992 0.0019443354
0.38041264 0.093020901 -0.19365676 -0.97888845 -0.18943146 0.076767087 0.0013261309
-0.37202555 0.11928802 -0.19295143 0.92892528 -0.36169749 0.079201236 0.00026475076
0.37392783 0.11420745 -0.19528186 -0.94010347 -0.33409449 0.067722499 0.00086682802
-0.37111914 0.12018651 -0.19911002 0.92883712 -0.36170095 0.080212526 0.00042615831
-0.36770782 0.12932217 -0.19481218 0.92095882 -0.3815707 0.078985214 0.0001426305
0.36875165 0.12660778 -0.19574076 -0.92120504 -0.38091585 0.079274453 0
0.37030935 0.12335223 -0.19332916 -0.92309189 -0.3763181 0.079284295 4.0680203e-05
-0.36462221 0.1366 -0.19563149 0.92090273 -0.38156596 0.079659037 3.9017497e-05
0.36565232 0.13403042 -0.19602573 -0.92096406 -0.38135582 0.079956099 0
-0.36089012 0.14527138 -0.1972485 0.92091483 -0.38149989 0.079835214 1.6860406e-05
0.36079016 0.14657888 -0.19215769 -0.92104489 -0.38145509 0.078538068 6.2152831e-05
-0.35659134 0.15580127 -0.19652365 0.92090636 -0.38150918 0.07988885 7.4626136e-05
0.35898474 0.15069495 -0.19331622 -0.92100406 -0.38144037 0.079087399 0
-0.35371113 0.16310121 -0.19486922 0.92091745 -0.38148564 0.079874039 8.6442142e-06
0.35263532 0.16603479 -0.19326374 -0.9208988 -0.38150775 0.079982258 0
-0.34706819 0.17902517 -0.19541138 0.91555732 -0.39435619 0.078980803 0.00032683686
0.34743774 0.17774701 -0.19725458 -0.91246587 -0.40146807 0.078926764 0.00038056963
0.35010058 0.17186899 -0.19462553 -0.92076993 -0.38186124 0.079778478 2.8634371e-05
-0.34413847 0.18640776 -0.19393297 0.89373285 -0.43924069 0.091154829 0.0016562314
0.34460059 0.18530995 -0.19384786 -0.90406185 -0.42031071 0.077530995 0.00088017696
-0.34097973 0.19379981 -0.19504939 0.862611 -0.49923617 0.081642777 0.0020120982
0.33992267 0.19668186 -0.19226834 -0.8652252 -0.49531186 0.077791698 0.0025870237
0.34071147 0.19413993 -0.19651802 -0.86980039 -0.48590416 0.085699968 0.0029570942
-0.33215925 0.20637462 -0.19549344 0.8200646 -0.56666732 0.079888962 0.0011541191
0.33438066 0.20358528 -0.19469123 -0.82676774 -0.55762839 0.074200504 0.0016901869
-0.3261663 0.21429758 -0.19463702 0.7930665 -0.60384274 0.080121465 9.1112752e-06
0.32583538 0.21482868 -0.19387881 -0.79305863 -0.60402077 0.07884711 8.8775356e-05
-0.32110286 0.22110376 -0.1930621 0.7907989 -0.60693973 0.079128139 1.0679984e-05
-0.31657434 0.22677313 -0.19482628 0.79093838 -0.60678256 0.078938685 1.3261056e-05
0.31810093 0.22517817 -0.19182986 -0.79085863 -0.60700661 0.078010343 0
-0.31066516 0.23459889 -0.19387856 0.79077405 -0.60688013 0.079830311 9.7032025e-05
-0.30833811 0.23729162 -0.1964609 0.79078466 -0.60686284 0.079856604 0
0.3074863 0.23804301 -0.19918579 -0.79079521 -0.60684478 0.079889372 0
0.31301808 0.23148464 -0.1942423 -0.79082751 -0.60680223 0.079892464 0
-0.30460456 0.24243845 -0.19432521 0.79080689 -0.60691744 0.07921911 6.2904153e-05
0.29908472 0.24920079 -0.19760123 -0.79072112 -0.60693574 0.079931699 0
0.30617136 0.24014066 -0.19626905 -0.7908392 -0.60679305 0.07984703 4.155987e-06
-0.29741359 0.2517283 -0.1949451 0.79081917 -0.60681546 0.079874232 0
0.28771207 0.26458666 -0.19331139 -0.76490957 -0.63949817 0.077171519 0.00075750391
0.29060248 0.26048028 -0.19589046 -0.77798086 -0.6231308 0.080335826 0.00040954744
-0.2810868 0.27282131 -0.19634616 0.73624444 -0.6717909 0.081492797 0.0020785888
-0.27686679 0.27742136 -0.19778132 0.6883586 -0.72218877 0.067866117 0.0017931892
0.28168231 0.27255017 -0.1925108 -0.7445159 -0.66323358 0.076270998 0.0011177538
-0.27316695 0.281187 -0.19272897 0.67041481 -0.73767406 0.079881184 0.0017452737
-0.26168841 0.28932321 -0.19937706 0.61676025 -0.78325629 0.078206733 0.00016861998
0.26690769 0.28611374 -0.19150308 -0.64400345 -0.76094043 0.078925461 0.0015514522
0.27148813 0.28241283 -0.1933468 -0.68154478 -0.72666138 0.086370967 0.0020198536
-0.25548214 0.29450774 -0.19519664 0.61029506 -0.78813589 0.079885326 0
0.24986821 0.29841113 -0.19919911 -0.60689092 -0.79074997 0.079986386 0
0.2557466 0.29454339 -0.19283505 -0.60656089 -0.79119903 0.078024678 0
-0.24003798 0.30680555 -0.19077121 0.60664761 -0.79116511 0.077694856 0
0.23853973 0.30745867 -0.19568641 -0.60683173 -0.79080427 0.079898238 0
0.24506673 0.30251732 -0.19502333 -0.60692143 -0.7907297 0.07995633 0
-0.2310995 0.31312039 -0.19615501 0.60685867 -0.79077649 0.079969399 0
0.23399694 0.31091681 -0.19596016 -0.60678571 -0.79083991 0.079895757 3.5657482e-05
-0.21301574 0.32716349 -0.19450216 0.6001209 -0.79595274 0.079462089 0.00019313925
-0.20884056 0.32997614 -0.19837356 0.58503455 -0.8074168 0.076240525 0.00056153222
0.21630445 0.32470664 -0.19384296 -0.60688519 -0.79076523 0.07987868 2.5961426e-05
-0.20500416 0.33330384 -0.19457333 0.55507857 -0.82827824 0.076439351 0.0015666584
-0.19589368 0.33989704 -0.19753233 0.51007372 -0.85722721 0.070612609 0.0020305251
0.20469981 0.33343318 -0.19560464 -0.55443525 -0.82726485 0.09074302 0.0014316696
-0.19096284 0.34225965 -0.19384111 0.47926447 -0.87500376 0.068365894 0.0022076271
-0.18322913 0.34558499 -0.19243594 0.42127442 -0.90379399 0.075393714 0.0010366013
-0.17534535 0.34823331 -0.19955122 0.38526592 -0.9194386 0.078757629 6.9148191e-06
0.17672522 0.3480531 -0.19504002 -0.38782325 -0.91829407 0.079555839 9.5448966e-05
0.18301909 0.34561297 -0.19311643 -0.41494733 -0.90604395 0.083084635 0.00085121806
0.19109748 0.34203202 -0.19582257 -0.45337686 -0.88679296 0.089708447 0.0014713556
-0.1607618 0.35466057 -0.19509506 0.38151127 -0.92089671 0.079990506 0
-0.15176576 0.35847569 -0.19407138 0.38144025 -0.92093515 0.079886355 4.9241862e-06
0.14843501 0.35960895 -0.19691129 -0.38148156 -0.9209078 0.080004305 0
0.15688799 0.35613692 -0.1965735 -0.38141331 -0.92094487 0.079901628 0
0.16604424 0.35279045 -0.19143051 -0.38088879 -0.92133349 0.077899374 2.883525e-06
-0.14474635 0.36139837 -0.19389655 0.38144207 -0.92094058 0.079814836 0
-0.13119605 0.36715728 -0.19221124 0.38153249 -0.92088813 0.079986975 0
-0.12692635 0.36874184 -0.19433269 0.38136277 -0.92097723 0.079770409 2.1506356e-05
0.12420646 0.36972672 -0.19596632 -0.38151607 -0.92088938 0.080051944 0
0.13333528 0.36603218 -0.19496614 -0.38145977 -0.92092556 0.079903319 0
0.14095446 0.36280662 -0.19576885 -0.38147125 -0.92092592 0.07984411 0
-0.11306845 0.37476608 -0.19105722 0.33025062 -0.94071662 0.077374533 0.0013721319
-0.10155261 0.37927622 -0.19382016 0.26787502 -0.96059716 0.074135073 0.0024799046
0.10520624 0.37756681 -0.19631261 -0.29051408 -0.95319754 0.0837612 0.0019658967
0.11602519 0.3733156 -0.19365975 -0.34676677 -0.93417209 0.084114656 0.00095361011
0.12231994 0.3706077 -0.19481878 -0.37411773 -0.92388821 0.080414221 0.00014475394
-0.0962504 0.38017732 -0.19130811 0.21281858 -0.97376674 0.080539376 0.0016631358
-0.085683145 0.38131243 -0.19447641 0.1558792 -0.98484516 0.076037206 0.00084644184
-0.076165907 0.38244247 -0.19599696 0.1301048 -0.98827624 0.079891972 8.6693746e-07
-0.061047725 0.38466731 -0.19309559 0.13013159 -0.9882654 0.079982355 9.1458249e-05
-0.059440974 0.38436577 -0.199443 0.13012053 -0.98827523 0.079878993 5.3517528e-05
-0.047702614 0.38636577 -0.19381873 0.13010415 -0.98827571 0.079899929 0
-0.03282411 0.38838023 -0.19313037 0.13011719 -0.98827547 0.079882048 3.3667027e-05
0.024483681 0.38937253 -0.19443829 -0.12491727 -0.9889484 0.07985381 0.00014314178
0.034788448 0.38810527 -0.1933326 -0.13095683 -0.988388 0.077068225 1.0157996e-05
0.046186522 0.38623646 -0.19788784 -0.13011086 -0.98827541 0.079892866 2.103623e-05
0.055922676 0.38540778 -0.19228299 -0.13013431 -0.98827475 0.079863295 0.00010230862
0.064557627 0.38405117 -0.19500148 -0.13012415 -0.98827833 0.079834588 3.5090161e-05
0.07082814 0.38344067 -0.19234142 -0.13004468 -0.98840809 0.078344762 0
0.087162852 0.38110873 -0.1945862 -0.17937775 -0.98068839 0.077935621 0.0010525241
0.094833806 0.38010588 -0.1944987 -0.21288341 -0.9728319 0.090987615 0.0016963907
-0.010306456 0.39151856 -0.19098002 0.092350528 -0.99285424 0.075576633 0.00071208819
-0.0046011941 0.39175001 -0.19740857 0.042082902 -0.9964875 0.072399415 0.0021764948
0.0079458877 0.39139715 -0.19632608 -0.060074087 -0.99558282 0.07215225 0.0015375856
-0.021753108 -0.39016411 -0.18909323 0.1234922 0.98923522 0.078506976 0.0001416943
-0.016358489 -0.39106026 -0.18679279 0.11234957 0.99061012 0.077904537 0.00034055751
-0.0029001946 -0.3930282 -0.18436727 0.0067559616 0.99764091 0.068316065 0.0021681057
0.01566218 -0.39103469 -0.1882433 -0.11441296 0.99060577 0.074899167 0.00025348246
-0.096808799 -0.38046041 -0.18689655 0.23334508 0.96940023 0.076244146 0.0021546097
-0.086293086 -0.38238788 -0.18017888 0.16082786 0.98506671 0.061464436 0.00077204907
-0.074180022 -0.38359335 -0.1849941 0.12887618 0.98909396 0.071302764 7.0296504e-05
-0.06507729 -0.38489327 -0.18373831 0.12926383 0.98901039 0.071758367 8.1168298e-05
-0.052749857 -0.38643414 -0.18475311 0.12965941 0.98936194 0.065965168 0.00017118338
0.023342786 -0.38990539 -0.18970442 -0.12593804 0.98913938 0.075782314 3.2017128e-05
0.034837645 -0.38861531 -0.18694341 -0.1319415 0.98897439 0.067238986 0.00012780461
0.054738186 -0.38597727 -0.18716751 -0.12993273 0.98882127 0.073144227 0
0.074162886 -0.38333148 -0.18826178 -0.13090774 0.98839235 0.077095032 0
0.083643146 -0.38197851 -0.18955874 -0.14752267 0.98581105 0.080085397 0.00039070324
0.096435674 -0.38066277 -0.18500094 -0.20047125 0.9768433 0.074755289 0.0015050346
0.10006343 -0.3803308 -0.18319944 -0.2139158 0.97462928 0.065862402 0.0019854859
-0.12230925 -0.37157127 -0.18376219 0.37736568 0.92362726 0.06714046 0.00019751235
-0.11084044 -0.37604618 -0.18693949 0.31794471 0.94494563 0.077388413 0.0016525367
-0.10427225 -0.37883317 -0.18617447 0.28850326 0.95462173 0.073913231 0.0019701708
0.10859061 -0.37720516 -0.18432201 -0.31493416 0.94600922 0.076700605 0.0018680028
0.11495472 -0.3746309 -0.18360917 -0.36056849 0.93004769 0.070722304 0.0005238562
-0.15036273 -0.3602367 -0.1804706 0.38035518 0.92215455 0.070434302 0.00012742764
-0.14778736 -0.3607862 -0.18643299 0.38232663 0.92117637 0.072528683 7.4665768e-05
-0.13643259 -0.36583191 -0.1824858 0.38058937 0.92280591 0.059840493 0.00026940589
0.13019688 -0.36817139 -0.18529208 -0.38113284 0.92145771 0.075189523 6.8605591e-06
0.1468479 -0.36122918 -0.185812 -0.38027221 0.92184532 0.074794248 3.8746472e-05
-0.1733273 -0.3500455 -0.18829724 0.38178176 0.9208988 0.078665264 5.3963959e-06
-0.16555613 -0.35337457 -0.18702745 0.38203502 0.92082506 0.078296714 0
-0.15655518 -0.35721791 -0.18570152 0.38038114 0.92196298 0.072762445 1.326566e-05
-0.14989205 -0.35983276 -0.18737388 0.38122562 0.92163169 0.072539687 0
0.15330182 -0.35871983 -0.18392225 -0.38324216 0.92126024 0.066369206 0.00019911962
0.16502874 -0.3538247 -0.18435641 -0.38151512 0.92141455 0.073766537 0.00010753437
-0.19660163 -0.34032774 -0.18886726 0.49598542 0.86536175 0.071745627 0.0022915772
-0.17781323 -0.34848249 -0.18489471 0.3838619 0.92026663 0.075890325 9.0699046e-05
0.17839335 -0.34817478 -0.18567204 -0.39532885 0.91602945 0.06786146 0.00042764898
0.18441729 -0.3456777 -0.18569383 -0.41571218 0.90644532 0.074432641 0.00085357123
0.19222488 -0.34246567 -0.18544023 -0.44854382 0.89141017 0.064779744 0.0016117935
-0.2056746 -0.33376524 -0.18491343 0.57196391 0.8173092 0.069734834 0.0013311069
0.20328468 -0.33548287 -0.18606392 -0.54449981 0.83596265 0.068456478 0.0018304103
-0.22047967 -0.32221329 -0.1868102 0.60814452 0.79052597 0.072310515 2.9687015e-05
-0.21423444 -0.32697511 -0.18711033 0.60281265 0.79418868 0.076688953 0
0.2166826 -0.32480845 -0.18996264 -0.60646278 0.79138535 0.076890267 6.4160333e-05
0.22197893 -0.3214213 -0.18326242 -0.60757399 0.79155028 0.065589547 0.00018226331
-0.23347557 -0.31263703 -0.18289179 0.60774279 0.79184926 0.060195088 0.00018294387
-0.22793004 -0.31708512 -0.18098283 0.60883921 0.79140764 0.054669894 0.00029695896
0.22675017 -0.31778771 -0.18298998 -0.60718638 0.79237247 0.058911625 0.00039297761
0.23338218 -0.31253403 -0.18462047 -0.60802931 0.79032302 0.075430512 0
-0.25012085 -0.30000877 -0.18146533 0.60517591 0.79307771 0.069208577 0.00015985135
-0.24507621 -0.30355424 -0.18468681 0.60546458 0.792831 0.069510087 7.9873069e-05
-0.26274243 -0.29010233 -0.18365842 0.61923605 0.7816661 0.074464157 0.00042118141
-0.25417763 -0.29636282 -0.18674207 0.60587537 0.79188919 0.076331995 3.4489076e-05
0.25517333 -0.29570591 -0.18568191 -0.60725552 0.7918005 0.065519042 0.00019057639
0.26085052 -0.29131097 -0.186065 -0.61648536 0.78406948 0.071977451 0.00037761577
-0.27397844 -0.28092608 -0.18914837 0.68056691 0.72915435 0.07185144 0.0023616506
0.26717591 -0.28674877 -0.18317971 -0.62404376 0.77861989 0.065729946 0.00051061419
0.27079228 -0.2836065 -0.18681586 -0.64477032 0.75992966 0.082329296 0.0013038078
-0.28275457 -0.27236152 -0.18332961 0.7320019 0.67828518 0.064050965 0.0021951343
-0.27954578 -0.2763778 -0.18458675 0.71612424 0.69481236 0.066346079 0.0023655354
-0.29108906 -0.26127338 -0.18504924 0.78578532 0.61412942 0.073393367 0.00012125784
-0.2896921 -0.26247734 -0.18973291 0.77723795 0.62366134 0.083352692 0.00049304758
-0.29748738 -0.25305638 -0.1841266 0.79222423 0.606529 0.067105956 0.00016033091
0.29548517 -0.25577065 -0.18332988 -0.7923528 0.60623771 0.06821207 0.00023640256
-0.30256814 -0.24598283 -0.18756133 0.7912904 0.60705251 0.073121645 0
0.29972574 -0.2497237 -0.18728384 -0.79155469 0.60612804 0.077781014 1.3757239e-05
0.30398059 -0.24458446 -0.18420132 -0.79300368 0.60563248 0.065988451 0.00016260102
-0.31192058 -0.23368424 -0.1883989 0.79057217 0.60752767 0.076849185 4.1072017e-05
-0.30830395 -0.23935893 -0.18109606 0.79107499 0.60838974 0.063735649 0.0001709886
0.30953017 -0.23719627 -0.1853855 -0.79107976 0.6074568 0.072035253 0.0001304219
-0.32101086 -0.22244628 -0.18377519 0.78918642 0.61115098 0.060656928 0.00020776723
-0.31547159 -0.22903089 -0.18859325 0.79078525 0.60699123 0.078868791 0
0.31634629 -0.22824159 -0.18592998 -0.79212862 0.60600758 0.072711937 7.0082584e-05
0.32151747 -0.2209892 -0.18982798 -0.79105687 0.60671055 0.078303203 0
-0.32571608 -0.21610078 -0.18539707 0.79135507 0.60636568 0.07796032 0
0.32580495 -0.21588524 -0.18615489 -0.79353386 0.60411876 0.073106885 5.9547958e-05
-0.33698878 -0.20133431 -0.18597166 0.84295774 0.53261948 0.075754218 0.0026205739
0.33754292 -0.20044677 -0.18722786 -0.83509892 0.5458706 0.068081528 0.002301136
-0.34067154 -0.19674355 -0.18438604 0.86576778 0.49659109 0.061994985 0.0024075916
-0.33859468 -0.1996972 -0.18250969 0.85614258 0.51406443 0.052512266 0.0028378149
0.33987454 -0.19763775 -0.18548375 -0.86382753 0.50085938 0.0542388 0.0027752344
0.34019616 -0.19671294 -0.18932416 -0.86806828 0.49092919 0.07379771 0.0026300782
-0.34493715 -0.18712291 -0.18131141 0.89691508 0.43903726 0.052817188 0.0016909384
0.34556133 -0.18528882 -0.18287402 -0.90594381 0.41909584 0.060203847 0.0010044788
0.34847209 -0.17824399 -0.18295832 -0.91852963 0.39032871 0.062823437 0.00042689202
-0.35361743 -0.16525638 -0.18565869 0.92228436 0.37984443 0.071482703 7.4755917e-05
0.35342482 -0.16575874 -0.185481 -0.92286026 0.37917662 0.067483492 0.00010827307
-0.35854486 -0.15444005 -0.1805044 0.9230895 0.37973738 0.0608708 0.00018100991
0.35706431 -0.15632534 -0.18856964 -0.92253059 0.37941578 0.070575751 5.7614343e-05
0.36001515 -0.15090731 -0.18042389 -0.92091846 0.38545221 0.057756387 0.00020636361
-0.36197233 -0.14526214 -0.18481751 0.92151189 0.38251373 0.067074537 6.7269822e-05
0.3620947 -0.14446366 -0.18721971 -0.92066532 0.38359094 0.072341405 3.4845703e-05
-0.36607435 -0.13557683 -0.18377708 0.92110735 0.38411659 0.063369393 0.00013549824
0.36673748 -0.13354217 -0.18584806 -0.92153633 0.38051522 0.077323742 0
-0.37069976 -0.12405735 -0.1854617 0.9223116 0.37843764 0.078270502 6.8763024e-05
-0.36831331 -0.12933837 -0.18775529 0.92123002 0.38125208 0.077343851 0
0.36880013 -0.12830943 -0.1870563 -0.92119908 0.38134736 0.077242985 0.00013385146
0.37081602 -0.12416603 -0.18360253 -0.92328334 0.37912151 0.061762962 0.00022407246
-0.37427902 -0.11479918 -0.18840806 0.9325912 0.35162538 0.081444949 0.00061149319
0.37354115 -0.11663675 -0.1881396 -0.927724 0.36561358 0.075198345 0.00034573555
0.37939689 -0.10250061 -0.18813592 -0.95890647 0.27350423 0.075457409 0.0024130798
-0.38083062 -0.095251068 -0.18485388 0.97364062 0.21242301 0.083068617 0.0020275735
0.38086456 -0.094285592 -0.1860067 -0.97334343 0.20755631 0.097585469 0.0020246746
0.38202658 -0.084753975 -0.18715492 -0.98654848 0.14206712 0.080864079 0.00013213616
-0.38350958 -0.073981062 -0.18635406 0.98957014 0.12785141 0.066370457 9.8945631e-05
0.38404864 -0.072338641 -0.18236038 -0.98962015 0.1303596 0.060484048 0.0001829759
-0.38450196 -0.067741185 -0.18424018 0.98957795 0.13091469 0.059973326 0.00029507009
0.38468105 -0.065137938 -0.18626454 -0.98849046 0.13024463 0.076960683 4.2678985e-05
-0.38641703 -0.054348305 -0.18236136 0.98852968 0.13685326 0.063877098 0.00020993224
0.38511315 -0.059612252 -0.18991858 -0.98845869 0.12968688 0.078298949 0
-0.38755006 -0.044269778 -0.18475929 0.98848677 0.13118681 0.075392365 1.8834407e-05
0.38732979 -0.048524301 -0.1805554 -0.98955053 0.1318886 0.058267489 0.00035442374
-0.0216338 -0.031096328 -0.18190226 0.60023439 0.79943854 -0.024836209 0.020245129
-0.017511923 -0.033704262 -0.1876642 0.487946 0.87273413 -0.015615961 0.023842037
-0.0030579471 -0.037764132 -0.18628621 0.096620932 0.99529052 0.0078221206 0.018419037
0.0076412931 -0.037159503 -0.18660954 -0.25934234 0.96536374 -0.028538305 0.018402429
0.022282224 -0.030598767 -0.18482246 -0.61392748 0.78918409 0.016777443 0.028951187
0.38908899 -0.034883805 -0.18100818 -0.98965621 0.12741815 0.065918259 0.00016936049
-0.38981521 -0.029751411 -0.18038283 0.98916191 0.13000308 0.068249144 0.00026482565
-0.025028309 -0.028491624 -0.18508072 0.70107573 0.71274966 0.021923652 0.022941623
0.028189378 -0.025232015 -0.18426637 -0.72715372 0.68645316 0.0054171835 0.018357964
0.030989196 -0.021773418 -0.18859085 -0.8059566 0.5919655 0.0032922234 0.017322265
0.38943148 -0.02821066 -0.18763933 -0.98861217 0.1309662 0.07412038 0
0.39033747 -0.022571892 -0.1856153 -0.9906894 0.11859728 0.066851482 0.00028708417
-0.034840755 -0.014768144 -0.18553975 0.92110735 0.38718268 0.0406298 0.01501036
0.033713255 -0.01749021 -0.18020788 -0.90174574 0.43224746 -0.0040995968 0.011314035
0.39107144 -0.01641327 -0.18656571 -0.9914608 0.11041172 0.069389008 0.00029362304
-0.39257732 -0.0040390259 -0.18809004 0.99650753 0.020166123 0.081031658 0.002130056
-0.037611112 -0.0042201928 -0.18748343 0.98783326 0.15504187 0.012144989 0.023770804
0.037537344 -0.0047804988 -0.18453702 -0.99306571 0.11675984 0.013696395 0.031023758
0.39325973 -0.0037588093 -0.18010446 -0.99747378 0.031712949 0.063564442 0.0018997656
-0.39267746 0.0034689074 -0.18777937 0.99580258 -0.024552604 0.088171899 0.0021713085
-0.03771713 0.0034149031 -0.18407159 0.99475533 -0.10226263 -0.0020466554 0.022440054
0.037702404 0.0035267191 -0.18630055 -0.995408 -0.094118215 0.017457791 0.013810676
0.39270914 0.0053347708 -0.18434866 -0.99551195 -0.041735616 0.084935986 0.002537691
-0.39104411 0.0151988 -0.18888167 0.99154711 -0.10063222 0.081898615 0.00068400567
-0.033136446 0.018882699 -0.18437859 0.89506918 -0.44305411 -0.050538518 0.014207503
0.03400689 0.016781293 -0.18679123 -0.9238019 -0.38254553 0.015778435 0.013768784
0.39146954 0.014262475 -0.18514374 -0.99256754 -0.088589109 0.083436616 0.0011621994
-0.39085218 0.020302866 -0.18294331 0.9902302 -0.11894453 0.072776169 0.00019562191
-0.38986105 0.02419024 -0.18887359 0.98907161 -0.12538804 0.07755854 5.7638463e-05
-0.026415553 0.027222911 -0.18447125 0.69757676 -0.71554959 -0.037085023 0.020964131
0.02971784 0.023430269 -0.18098757 -0.76571327 -0.6431812 -0.0010925652 0.02364577
0.031236297 0.021451378 -0.18515815 -0.82413918 -0.5663873 -0.00030735397 0.014776258
0.38927412 0.028053191 -0.18984234 -0.98860228 -0.13040079 0.075240925 8.8626693e-05
0.39077529 0.02070654 -0.18323703 -0.99063456 -0.11836398 0.068067566 0.00031169626
-0.38888016 0.033575822 -0.1857219 0.98915434 -0.12821692 0.071653418 7.6316916e-05
-0.0079218028 0.037123777 -0.18512563 0.16978762 -0.9854759 -0.0030763228 0.012934851
0.0045564827 0.037566829 -0.18599935 -0.1774593 -0.98351425 -0.034755368 0.019972403
0.018172115 0.033343684 -0.18221079 -0.51321858 -0.85825777 -0.00047157489 0.017437683
0.022244781 0.030627485 -0.18682265 -0.58004612 -0.8140949 -0.02821389 0.016968464
0.38868982 0.037080456 -0.18236899 -0.98941505 -0.13189386 0.060513243 0.00040228534
-0.38740247 0.044050552 -0.18694222 0.98834151 -0.13058205 0.078289442 0
0.38778174 0.042261358 -0.18516429 -0.98906177 -0.13117582 0.067452312 3.8917355e-05
0.3863129 0.053254604 -0.18543091 -0.98919958 -0.12926601 0.069097757 0
-0.3847684 0.062278096 -0.18984175 0.9885087 -0.12988904 0.077327386 3.8805734e-05
0.38468772 0.065685205 -0.18529055 -0.98860604 -0.12975661 0.076297827 0
-0.38349587 0.075089112 -0.18471959 0.98885584 -0.13075018 0.07119374 0
0.38374949 0.073687971 -0.18386343 -0.98882067 -0.13201933 0.069314621 0
-0.38233221 0.084015235 -0.18457714 0.98744643 -0.14325513 0.06653975 0.00024023383
0.38187778 0.088804841 -0.18239845 -0.98089367 -0.1780968 0.078289106 0.0011371626
-0.38076282 0.095697485 -0.18496551 0.97202355 -0.22263162 0.074868977 0.001906691
0.38076103 0.095944196 -0.1845859 -0.97109383 -0.2287765 0.06810353 0.0016581313
-0.37825781 0.10595286 -0.18478195 0.94944376 -0.30514121 0.07379283 0.001444006
0.3778384 0.10636139 -0.18735693 -0.95194089 -0.29572776 0.079709664 0.0013728817
-0.37474734 0.11470812 -0.18344414 0.93216312 -0.35546267 0.068689518 0.00058212329
-0.37232053 0.12114188 -0.18069865 0.92853558 -0.36533937 0.065945804 0.00033870764
-0.36959484 0.12670025 -0.18557908 0.92173159 -0.38102442 0.072327606 0.0001835993
-0.3667542 0.13336696 -0.18649179 0.9209159 -0.38167804 0.078966685 0
0.359997 0.14914654 -0.18904063 -0.92159456 -0.38066292 0.075889535 8.7272674e-05
0.36307025 0.14273071 -0.18424846 -0.92211294 -0.3808184 0.068447046 3.0667583e-05
-0.35848275 0.15361066 -0.18518031 0.92063016 -0.38364685 0.072492138 0.00018756989
0.35935652 0.15152276 -0.18507767 -0.92259014 -0.38108876 0.059989199 0.00018760635
-0.35416394 0.16369003 -0.18683818 0.9211489 -0.38131383 0.078003012 8.8026754e-05
0.35383794 0.16533552 -0.18273933 -0.92196417 -0.38219887 0.062498771 0.00018866216
-0.35134679 0.17156452 -0.18171316 0.92071122 -0.38548526 0.060760502 0.00029782049
0.35052067 0.17370686 -0.18100694 -0.92038018 -0.38566145 0.064541422 6.6671477e-05
-0.34581622 0.18324012 -0.18971735 0.90526015 -0.4177357 0.077465668 0.00092766085
0.33865443 0.19911151 -0.18636733 -0.84991825 -0.52278715 0.06582199 0.0023732162
0.34135425 0.19464369 -0.18658422 -0.87298596 -0.48298717 0.067961849 0.0028126475
-0.33696347 0.20184968 -0.1823072 0.83881241 -0.53955394 0.072631665 0.0016969973
0.33392599 0.20544873 -0.18503787 -0.81635135 -0.57213467 0.078945205 0.0011712221
-0.32668635 0.2146204 -0.18703702 0.79272354 -0.60442072 0.079150982 1.6938009e-05
0.32565388 0.21631226 -0.18440674 -0.79397744 -0.60321701 0.075690694 4.2750686e-05
-0.32229027 0.22006638 -0.18918721 0.79081178 -0.60693616 0.079026721 7.6764147e-05
-0.31718636 0.22728524 -0.18487805 0.79229254 -0.60629505 0.06840279 0.00015303407
0.31876558 0.2248871 -0.18746129 -0.79060578 -0.60758638 0.076035231 0
0.32032701 0.22307594 -0.18576173 -0.79044735 -0.60785198 0.075558387 2.3537175e-05
-0.31204897 0.23332268 -0.18987405 0.79072952 -0.60713452 0.078323245 7.7170531e-05
0.30952355 0.23731336 -0.18456119 -0.79089105 -0.6082927 0.066867955 0.00016343086
0.31280786 0.23306756 -0.18430017 -0.79068291 -0.60847259 0.067687675 0.0002152504
-0.30200991 0.24671569 -0.1875207 0.79060912 -0.60727686 0.078435443 3.6845213e-07
0.30394685 0.24478734 -0.18299459 -0.7913686 -0.6078009 0.065678798 0.00012415522
-0.29610735 0.25447553 -0.18700777 0.79065728 -0.60739559 0.077017367 0
