# .PCD v0.7 - Point Cloud Data file format
VERSION 0.7
FIELDS x y z normal_x normal_y normal_z curvature
SIZE 4 4 4 4 4 4 4
TYPE F F F F F F F
COUNT 1 1 1 1 1 1 1
WIDTH 586
HEIGHT 1
VIEWPOINT 0 0 0 1 0 0 0
POINTS 586
DATA ascii
-0.013021035 0.26648927 -0.12756261 0.0016009408 -0.53833574 0.84272891 0.0035633566
0.0031047997 0.2687262 -0.12493604 -0.041081831 -0.57033157 0.82038665 0.0019753536
0.017728899 0.26742557 -0.12532856 -0.023454342 -0.56338382 0.82586229 0.0026585995
0.023940612 0.26677954 -0.12557328 -0.037668664 -0.56996751 0.82080334 0.0023266487
0.043770775 0.26525852 -0.12590332 -0.086438783 -0.55897558 0.82466638 0.0022048266
0.064809047 0.26425275 -0.12260979 -0.17065275 -0.57329768 0.80137843 0.0009876223
0.071362354 0.26388365 -0.12118962 -0.17347898 -0.58054513 0.79553276 0.00098361808
-0.040290307 0.27121896 -0.120538 0.11634821 -0.59375298 0.79619133 0.0011081634
-0.02180808 0.27427828 -0.12118031 0.044273231 -0.60975862 0.79134965 0.0013863529
-0.01665174 0.27329153 -0.12206547 0.026769865 -0.60766739 0.79374039 0.0014085731
-0.0053392705 0.27074295 -0.12365456 -0.02041401 -0.59304357 0.80491149 0.0011226243
0.0092078736 0.27040181 -0.12325111 -0.033556439 -0.58807427 0.80811054 0.0016625414
0.017703569 0.27230373 -0.12126442 -0.033581682 -0.61257476 0.7896989 0.00086339907
0.028870489 0.27176699 -0.1211838 -0.041866761 -0.61242354 0.78942055 0.00067722489
0.035387762 0.27014428 -0.12222803 -0.048844196 -0.59623861 0.80132002 0.0014490439
0.042107929 0.27143973 -0.1208307 -0.078919604 -0.60029495 0.79587549 0.0013767168
-0.059610475 -0.28048685 -0.11109907 0.14664632 0.61795765 0.77241385 0.0008470288
-0.035100758 -0.28161794 -0.11267977 0.049658194 0.63792306 0.76849735 0.00012357537
-0.023737438 -0.28233245 -0.11262155 0.03629585 0.63975692 0.76771975 1.6888966e-05
-0.018786447 -0.28040245 -0.11446401 0.035655685 0.63409251 0.77243471 0.00016579361
-0.006429066 -0.28242946 -0.11335899 0.03621478 0.63923323 0.76815963 0
0.00528487 -0.28445545 -0.11222439 0.0096524712 0.6376766 0.7702437 0.0004328753
0.015379191 -0.28666255 -0.11086229 -0.021228954 0.6378538 0.76986486 0.00076171226
0.035118625 -0.2815364 -0.11298575 -0.10006507 0.6368956 0.7644285 0.00054609223
0.048946504 -0.28072768 -0.11129555 -0.13052933 0.62735224 0.7677182 1.1562738e-05
-0.081407547 -0.27033186 -0.11345245 0.20066777 0.60861963 0.76766819 0
-0.072702847 -0.27203572 -0.11437681 0.19644326 0.60528058 0.77139193 6.6299712e-05
-0.065528437 -0.2721577 -0.11615521 0.16685998 0.60927135 0.77520716 0.00042748649
-0.054547161 -0.27405599 -0.11752041 0.12680647 0.61136341 0.78112417 0.00079136417
-0.037464559 -0.27707559 -0.11635348 0.065849282 0.62652206 0.77661705 0.00037623633
-0.011762467 -0.27878815 -0.11614139 0.033801511 0.6281932 0.77732283 0.00033168308
0.0026173554 -0.2778202 -0.11762788 0.029057104 0.62811136 0.77758074 0.00038150171
0.014667723 -0.27863705 -0.11751685 -0.010845253 0.63520271 0.77226925 0.00062114809
0.023370832 -0.27863955 -0.1173505 -0.067648463 0.62600118 0.77688241 0.0011354329
0.033090934 -0.27533984 -0.11839442 -0.093209922 0.61943942 0.77949125 0.00088223408
0.044776268 -0.27550393 -0.11627351 -0.12888359 0.61689126 0.77642399 0.00025531597
0.054676224 -0.27448881 -0.11541986 -0.12799846 0.6198442 0.77421552 9.5824107e-05
0.065155245 -0.27543396 -0.11286577 -0.13054344 0.62739879 0.76767784 0
0.073302701 -0.2739304 -0.1127092 -0.13132527 0.62741125 0.76753426 3.516521e-06
0.080332354 -0.27146649 -0.11352753 -0.16073346 0.61645865 0.77080703 0.00052269833
-0.12243457 -0.26065743 -0.11039896 0.26399958 0.58103895 0.76986879 0.00089149375
-0.11397264 -0.26227915 -0.11132494 0.23470297 0.59252775 0.77060062 0.00046590663
-0.10547936 -0.2628845 -0.11306486 0.21049023 0.60001099 0.7718035 0.00012868417
-0.095055521 -0.26225442 -0.11628873 0.20012029 0.60288537 0.77232188 0.00010432997
-0.082762003 -0.26617324 -0.11639515 0.19648394 0.60002911 0.77547342 0.0003035327
-0.064147815 -0.26817027 -0.11967704 0.16835719 0.60047042 0.78172308 0.00083644816
0.065632738 -0.26726335 -0.11946168 -0.12699552 0.59014827 0.79724348 0.001110487
0.077700302 -0.26789469 -0.11689394 -0.15780471 0.60837942 0.77779955 0.00051321468
0.084770888 -0.26420769 -0.11870486 -0.17930251 0.59141088 0.786183 0.0005790994
0.10459986 -0.26445222 -0.11261697 -0.24731407 0.58658385 0.77120382 0.00067012414
-0.12434404 -0.25256073 -0.11581999 0.2808204 0.55870742 0.7803756 0.00083656504
-0.11725073 -0.25423449 -0.1168455 0.24952491 0.57920855 0.77605069 0.00080214278
-0.10442984 -0.2571719 -0.11786775 0.21028131 0.59197736 0.77803898 0.00029890798
0.10285447 -0.25907961 -0.11727734 -0.24690554 0.58366066 0.77354884 0.00058973342
0.11651063 -0.25211075 -0.11734044 -0.27990404 0.56291687 0.77767491 0.00036447117
0.12758921 -0.25445065 -0.11143368 -0.28844798 0.5721696 0.76773673 1.0161185e-05
-0.152271 -0.24051444 -0.11144909 0.35132542 0.53589195 0.76771754 1.4604607e-05
-0.14347166 -0.24559526 -0.1119291 0.3447386 0.53688884 0.77000374 4.1596097e-05
-0.13516849 -0.24473771 -0.11632749 0.32415158 0.53066289 0.78314924 0.00051163597
-0.12774011 -0.24548681 -0.11920401 0.29532403 0.53844035 0.78921843 0.00082934304
0.12659703 -0.24628532 -0.11789259 -0.28062338 0.56084085 0.77891463 0.00039275127
0.13561165 -0.24667275 -0.11421666 -0.2871196 0.5676344 0.77159148 0.00014762278
0.14162073 -0.24207482 -0.11538589 -0.29447234 0.56088144 0.77375585 0.0002512917
0.15591407 -0.24121413 -0.11065684 -0.32377008 0.54831052 0.77105677 0.00041957857
-0.16355342 -0.23235324 -0.11198311 0.35134333 0.53593016 0.76768273 0
-0.15775989 -0.23744303 -0.1110813 0.35133758 0.53588426 0.76771748 8.5639622e-06
-0.14511853 -0.23614746 -0.11777076 0.33205694 0.51804739 0.78826714 0.00074845128
0.13917199 -0.23845951 -0.11900069 -0.29274565 0.55060172 0.78175294 0.00050233235
0.14296922 -0.23558077 -0.11971963 -0.2998707 0.54675585 0.78175157 0.0006258802
0.15562689 -0.23400247 -0.11614 -0.33836094 0.53117061 0.77676874 0.00085908605
0.16207001 -0.23101762 -0.11508693 -0.36646625 0.51520979 0.77476537 0.00075809081
-0.17431213 -0.22274484 -0.11376705 0.37335014 0.51746178 0.76996297 0.00047898036
-0.16730963 -0.22836198 -0.11305038 0.35249826 0.53540909 0.76751685 0
0.16378769 -0.22689399 -0.11669998 -0.37781224 0.50306666 0.77729142 0.00091457629
-0.19319217 -0.21109223 -0.11139223 0.4539564 0.44985208 0.76912731 0.0005071637
-0.18677984 -0.21866667 -0.11090833 0.40534133 0.48781803 0.77313131 0.0010103056
-0.17784929 -0.21239094 -0.11937623 0.38887548 0.48239073 0.78490448 0.0010883565
0.17627259 -0.21930888 -0.11448357 -0.42225203 0.47994849 0.76899457 5.1909868e-05
0.18747771 -0.21053612 -0.11371808 -0.42598256 0.47759721 0.76840079 7.6169804e-06
-0.20083646 -0.20194449 -0.11171682 0.4719992 0.43262556 0.76814842 0.00013120098
-0.19629379 -0.20411439 -0.11333945 0.46145934 0.44156548 0.76946419 0.00042595723
-0.18653153 -0.20452404 -0.11919083 0.42360491 0.43315798 0.79557097 0.001243168
0.18576701 -0.2052839 -0.11793961 -0.41211605 0.46539479 0.78330576 0.00087725418
0.19760457 -0.20398179 -0.11217052 -0.42735821 0.47744989 0.76772821 1.2909542e-05
0.20098874 -0.20222557 -0.11138305 -0.43388224 0.47161123 0.76767772 0.00011887524
-0.20258993 -0.19093455 -0.11674479 0.46140173 0.41347927 0.78494805 0.00065617968
-0.19780979 -0.19427881 -0.11786254 0.45699826 0.41539168 0.78651285 0.00060962769
0.18948218 -0.19907421 -0.11974138 -0.40045261 0.45522264 0.79524213 0.0014536589
0.19759859 -0.19367222 -0.11859374 -0.42333239 0.44603157 0.78857183 0.00095402205
0.20505844 -0.19057813 -0.11637393 -0.44357303 0.44482496 0.77805763 0.00054609356
0.21012422 -0.19002739 -0.11390103 -0.45097181 0.44182524 0.77550936 0.00059803872
0.2077876 -0.18654734 -0.11736692 -0.44863418 0.42483565 0.78628373 0.00066884822
0.21476328 -0.18634284 -0.11335383 -0.4740209 0.41995811 0.77391171 0.00090015068
0.22106636 -0.18119448 -0.1117892 -0.49924862 0.39077225 0.77333552 0.0009415567
-0.22504318 -0.17435299 -0.11197976 0.48708591 0.41563144 0.76811314 0.00015752032
-0.21701868 -0.17726518 -0.11535798 0.47543573 0.42095301 0.77250201 0.00011991654
0.22571969 -0.17206499 -0.11271872 -0.5245592 0.36298335 0.77011734 0.0001924143
-0.23570684 -0.16312942 -0.11139462 0.52233762 0.36741659 0.76952487 0.00087166758
0.23348372 -0.16076815 -0.11246856 -0.53593606 0.35136008 0.76767093 0
-0.23789296 -0.15735246 -0.11259181 0.53588623 0.34867343 0.76892966 0.0010497819
-0.22945094 -0.15591407 -0.11942462 0.51067966 0.34901336 0.7857455 0.0014013065
0.22748627 -0.15691055 -0.11842061 -0.52740538 0.34929565 0.77449089 0.00023094814
0.23481527 -0.15566428 -0.11387473 -0.53256214 0.35032079 0.77048868 4.8397611e-05
-0.24476123 -0.14455509 -0.11228099 0.56767887 0.29509985 0.76854199 0.00013419877
-0.23645434 -0.14455438 -0.1184729 0.54526204 0.30222109 0.78188986 0.00070842309
0.23699644 -0.1428784 -0.11820327 -0.51666665 0.34034449 0.78563428 0.00093775248
0.24200697 -0.14366478 -0.11434565 -0.5364759 0.35006961 0.76788336 0
0.25006938 -0.14006618 -0.11036426 -0.54174435 0.33890709 0.76919115 0.00016740615
-0.25190842 -0.13335797 -0.11116102 0.57224435 0.28847399 0.76767123 0
-0.24373688 -0.13868132 -0.11525153 0.56848061 0.28809109 0.7706058 6.8831738e-05
0.24609151 -0.13537851 -0.11528634 -0.54058999 0.33453691 0.77191162 0.00022359959
0.2536639 -0.13015905 -0.11238877 -0.5590409 0.29786167 0.77379048 0.00084380317
-0.25855041 -0.12091695 -0.11088496 0.57253164 0.28812966 0.76758641 2.7123842e-05
-0.24751672 -0.12574726 -0.11729407 0.55475247 0.27950874 0.78366107 0.00067415438
0.2476026 -0.12551838 -0.11874378 -0.53842545 0.28004777 0.79477745 0.0011006738
0.25314435 -0.12418465 -0.11533977 -0.56261218 0.27448744 0.77982318 0.00093251787
0.26032746 -0.12461108 -0.11009169 -0.57548773 0.26584494 0.77339536 0.0010312083
-0.25538442 -0.11700249 -0.11471558 0.56940275 0.28606436 0.77068007 5.8488331e-05
-0.24752873 -0.11869664 -0.11993434 0.54914296 0.27510536 0.78915077 0.00081329903
0.25812379 -0.11576296 -0.11415116 -0.5841192 0.25222668 0.77148324 0.00097737345
0.26167339 -0.11959282 -0.1103363 -0.58652872 0.24742784 0.77120906 0.00094786182
-0.26446608 -0.10474592 -0.11255177 0.58403325 0.25284058 0.7713474 0.00041378773
-0.25773984 -0.10551818 -0.11727507 0.56510067 0.25915751 0.78326154 0.00070171239
0.25876623 -0.1047973 -0.11650785 -0.59292406 0.20944424 0.77754372 0.00030475348
0.26374581 -0.10211271 -0.113262 -0.60187441 0.205654 0.77165645 0.00015815778
-0.26409495 -0.096878156 -0.11578466 0.58832276 0.2308712 0.77496761 0.00070297252
0.26385328 -0.095710233 -0.11485015 -0.60427153 0.19972757 0.77133965 6.9740752e-05
-0.27229688 -0.083832867 -0.11225373 0.61407232 0.17308636 0.77003658 0.00049139099
-0.26974696 -0.085550264 -0.11404556 0.60848761 0.17773636 0.77340335 0.00051979354
0.26442075 -0.085230492 -0.11713928 -0.60226023 0.20256749 0.77217162 6.1009945e-05
0.27148521 -0.084455073 -0.11174169 -0.60859412 0.20063846 0.76769614 2.2351745e-05
-0.26702979 -0.074273854 -0.11818334 0.61048216 0.13717191 0.78006119 0.00045029147
0.2691811 -0.071432464 -0.11697181 -0.61185348 0.18936117 0.76796985 0.00014759388
0.27402472 -0.074644804 -0.11229247 -0.61023736 0.19325989 0.7682845 8.2410435e-05
-0.27482748 -0.06303712 -0.1137215 0.62586552 0.12949423 0.76910567 1.0855914e-05
0.26839334 -0.064486697 -0.11941162 -0.58595908 0.1630833 0.79376054 0.0015569223
0.27436465 -0.063038677 -0.11505642 -0.62199801 0.15356393 0.76781291 0.00076483632
-0.26926494 -0.053531073 -0.11988354 0.5966109 0.12351806 0.79296833 0.0011855473
0.27396351 -0.056026272 -0.11720715 -0.61902177 0.13015246 0.77451432 0.0011069709
-0.28061059 -0.049813248 -0.11124387 0.62737232 0.13047549 0.76771098 6.0156767e-06
0.27527469 -0.04636658 -0.1174334 -0.62266248 0.09232679 0.77702457 0.00087964768
0.28063959 -0.047393262 -0.11291391 -0.63452321 0.10267056 0.76605415 0.00081889972
-0.28457865 -0.033881776 -0.11070988 0.63204896 0.088670015 0.76983881 0.00043634619
-0.27352521 -0.037006363 -0.11921162 0.61304641 0.10169917 0.78347391 0.00063699088
0.27712449 -0.033620432 -0.11649445 -0.62975907 0.049542844 0.77520901 0.00041319992
0.28473979 -0.034425367 -0.11011002 -0.63892275 0.039572749 0.76825237 4.086483e-05
-0.27660674 -0.025018174 -0.11871328 0.61909938 0.069764115 0.78220779 0.0010049588
0.27635944 -0.024209699 -0.11757693 -0.63300961 0.036827248 0.77326751 0.00016735405
0.2822336 -0.023787923 -0.11270149 -0.63868755 0.036225956 0.76861298 2.5367519e-05
-0.28394455 -0.014019055 -0.1130631 0.63948458 0.011544231 0.76871729 0.00064237043
-0.27793428 -0.011000607 -0.11792915 0.62056577 0.0061851442 0.78412998 0.00094064139
-0.007883356 -0.010762356 -0.11343776 0.10807688 -0.97831255 0.17670317 0.21751767
0.00019668593 -0.011237027 -0.11877606 0.572797 -0.81197709 0.11223527 0.20889778
0.276961 -0.011698905 -0.11766709 -0.62609541 0.036901701 0.77887285 0.00042707421
0.2849828 -0.012571799 -0.11094067 -0.6397664 0.036295235 0.76771194 0
-0.28484064 -0.0017118487 -0.11173443 0.63948566 -0.030372923 0.76820284 2.7402812e-05
-0.27645206 -0.0074527143 -0.11899665 0.61775023 -0.0011675222 0.78637356 0.0010263699
-0.017357303 -0.0065823211 -0.11528193 -0.54425991 -0.75206357 0.37172785 0.23726149
-0.0037021106 -0.0017837278 -0.11799385 -0.65503114 -0.75379235 0.05226199 0.25797987
0.0063880514 -0.0064428994 -0.1165502 0.70482141 -0.70283467 0.096178114 0.2021942
0.010662816 -0.0024520825 -0.11544028 0.81806004 -0.5620963 0.1217603 0.19476758
0.27667242 -0.0070640538 -0.11812669 -0.62402248 0.030289076 0.78081912 0.00054541638
-0.27611393 0.0040566083 -0.11873432 0.62200397 -0.028283464 0.78250307 0.00072719069
-0.026457585 0.0032016595 -0.11162124 0.99869549 0.010751791 -0.049916383 0.16084567
-0.0017206654 0.0033108909 -0.11778312 0.51844388 0.80166066 0.29758367 0.25414738
0.0039256546 0.0039439611 -0.11880071 0.8614853 0.46052164 0.21392241 0.26686883
0.01030922 0.0024984363 -0.11513603 0.96539712 -0.14505756 0.21671799 0.23436804
0.27955249 0.00075874757 -0.11609638 -0.62880224 0.022757901 0.77723217 0.00041062295
0.28362915 0.0055946112 -0.11292768 -0.63673466 0.010644287 0.77100945 0.00037324787
-0.28419089 0.013090789 -0.11157611 0.63973671 -0.036297537 0.76773661 2.9161263e-05
-0.27754709 0.013254487 -0.11710513 0.6274296 -0.03525611 0.77787477 0.00036154813
-0.022887435 0.016199108 -0.11398205 -0.54099685 0.79393286 0.2774761 0.21740654
-0.01426341 0.018892746 -0.11582986 -0.34200552 0.88805252 0.30723754 0.20667507
-0.0056653046 0.0170801 -0.1144905 0.30263376 0.81130821 0.50019187 0.22079627
0.0037973493 0.011931038 -0.11550294 0.60717946 0.65358686 0.45183778 0.22621715
0.27846414 0.01567059 -0.11770838 -0.6393612 -0.0013631586 0.76890528 0.00051449583
0.28546309 0.01385484 -0.11178981 -0.63782793 0.00081564271 0.77017838 0.00051786774
-0.27635387 0.025422523 -0.11752421 0.63240373 -0.035468619 0.77382648 0.00022433438
0.27539405 0.025023358 -0.11972179 -0.60085279 -0.067064688 0.79654145 0.0012751566
0.28380322 0.024818435 -0.11288458 -0.63292044 -0.075632185 0.77051383 0.0010395331
-0.28269285 0.038309369 -0.11163221 0.63980567 -0.053096168 0.76670039 0.00016681827
-0.27450714 0.035827931 -0.11857129 0.62452269 -0.047474343 0.77956235 0.0004947923
0.27818859 0.031806707 -0.11628471 -0.63082874 -0.10497488 0.76878828 0.00050966674
0.28508955 0.031417213 -0.11071141 -0.63437879 -0.096318305 0.76699829 0.00062696089
-0.28248489 0.045995641 -0.11144217 0.62911713 -0.089792944 0.77210683 0.00078800519
-0.27412769 0.044018961 -0.11850028 0.6171602 -0.092102401 0.7814284 0.00085462444
0.2765016 0.047279045 -0.11503267 -0.62182623 -0.13013554 0.77226734 0.0001529846
-0.28262305 0.051481493 -0.11106768 0.62912685 -0.10608724 0.77002913 0.0010788081
-0.27847493 0.053397052 -0.11429678 0.61685777 -0.11855871 0.77809399 0.00090751535
0.27532953 0.053337343 -0.11496043 -0.62197882 -0.12975715 0.77220815 0.00014938482
0.28017199 0.056661293 -0.11043793 -0.62738895 -0.13052739 0.76768857 0
-0.27227184 0.066925474 -0.11569962 0.60675734 -0.17688484 0.77495629 0.00024941025
0.27585906 0.065232396 -0.11250523 -0.62744957 -0.1305398 0.7676369 0
-0.27379292 0.072394729 -0.11306434 0.61033762 -0.18827192 0.7694425 0.00015185577
-0.26504004 0.075959839 -0.11907129 0.58859134 -0.18584943 0.78677833 0.0009116219
-0.26282424 0.086666539 -0.11802956 0.59828943 -0.19331455 0.77761126 0.00035589692
0.26791123 0.088221133 -0.11509164 -0.60300213 -0.19354509 0.77390486 0.00094376842
0.2715598 0.085067675 -0.11264613 -0.61502951 -0.17482491 0.76887906 0.0008416081
-0.26454353 0.096407309 -0.11412078 0.60535073 -0.19895129 0.77069372 0.00011214984
0.26567936 0.095084511 -0.11525327 -0.58752298 -0.24056739 0.77262157 0.00048692388
0.27027979 0.09814994 -0.11069684 -0.59782785 -0.24151616 0.7643767 0.00089494517
-0.26030689 0.10801245 -0.11444621 0.60275817 -0.21044904 0.7696712 0.00010238339
-0.25574109 0.10619012 -0.11854196 0.58855599 -0.20350146 0.78242511 0.00070265209
0.2559835 0.10579399 -0.11848056 -0.56132787 -0.26199052 0.78503001 0.0012035045
0.26669985 0.10411948 -0.1111222 -0.58611655 -0.26542202 0.76551843 0.00038857153
-0.26323327 0.11238885 -0.11098254 0.59879947 -0.22779006 0.76782215 0.00052032282
-0.25585037 0.11545415 -0.11603411 0.58032084 -0.24230263 0.77750701 0.00083313184
0.25483423 0.11491837 -0.11590876 -0.57115221 -0.28339845 0.7703703 7.7807825e-05
-0.26109549 0.12010604 -0.11066028 0.58830917 -0.25304264 0.76802462 0.0007719245
-0.25908977 0.12660889 -0.11022573 0.56326014 -0.29216349 0.77290273 0.00067181385
-0.24677289 0.12660626 -0.11882512 0.5488748 -0.29615256 0.78168416 0.0013014721
0.24596858 0.12637115 -0.11821357 -0.55996603 -0.28445318 0.77815455 0.00041286094
0.25102144 0.12239106 -0.11594286 -0.5707435 -0.28796929 0.76897687 0
-0.24662872 0.135203 -0.11499164 0.55006981 -0.32960084 0.76732427 0.00038508835
0.23850217 0.13939853 -0.11888378 -0.55286908 -0.29786023 0.77821273 0.00034242863
0.24401017 0.13394377 -0.11682793 -0.56472796 -0.28662479 0.77390486 0.00013160767
0.25294912 0.13149227 -0.11108634 -0.57215875 -0.28847122 0.76773608 3.5716723e-05
-0.24338178 0.14443132 -0.11303511 0.53510171 -0.35007003 0.76884139 1.6740763e-05
-0.23656203 0.14499927 -0.11753596 0.52397841 -0.34494832 0.77875358 0.00064046332
0.23733421 0.14568539 -0.11739209 -0.54548734 -0.30998802 0.77868545 0.00058016699
0.24600661 0.14414178 -0.11150805 -0.56571317 -0.30151036 0.76750249 0.00020246381
-0.23558772 0.15334575 -0.11439651 0.53392482 -0.34935826 0.76998252 1.372369e-05
0.2320796 0.15459827 -0.11787335 -0.52787602 -0.35080376 0.77348799 0.00075064483
0.24114868 0.15570113 -0.11078562 -0.54636931 -0.33186278 0.76899135 0.00065610331
-0.23620251 0.16013956 -0.11085829 0.53594297 -0.3513208 0.7676841 0
-0.22265281 0.16568716 -0.11777834 0.51402068 -0.35179871 0.78231734 0.00081536482
0.22647029 0.16389385 -0.11690481 -0.50114828 -0.3787266 0.77808517 0.00069270382
0.23174764 0.16588649 -0.11251093 -0.51371437 -0.37733221 0.770531 0.00086172321
-0.22377276 0.17510968 -0.1126845 0.5166775 -0.37386507 0.77023971 0.00045545318
0.22314477 0.17128818 -0.11486553 -0.48996788 -0.40255493 0.77322763 0.00041695288
-0.21526702 0.1831795 -0.11492922 0.48806179 -0.41046908 0.77026671 0.00075934822
-0.20485127 0.18817143 -0.11798774 0.44304439 -0.4322055 0.78543627 0.0011439264
0.20666425 0.18354687 -0.11831412 -0.45899674 -0.4122321 0.78701127 0.00075079926
0.21238306 0.18530078 -0.11377803 -0.47803968 -0.42672864 0.7677114 1.3324209e-05
0.22240719 0.180365 -0.11027946 -0.47914794 -0.42460766 0.76819628 1.8433408e-05
-0.21089391 0.19266088 -0.1118333 0.46083686 -0.44627929 0.76711428 0.00070853648
-0.20548928 0.19503818 -0.11335711 0.44101387 -0.46175456 0.76960337 0.00033690894
0.19877875 0.19752216 -0.11545633 -0.47511956 -0.4249832 0.77048725 3.2178625e-05
0.20155148 0.19383088 -0.11578152 -0.47205347 -0.41703266 0.7766912 0.00031940706
-0.20379512 0.20155543 -0.11024041 0.43355027 -0.47144952 0.76796442 0.00011947271
-0.1942029 0.20381238 -0.11416685 0.42627624 -0.4749639 0.76986873 1.6124681e-05
-0.18628268 0.2087554 -0.11549121 0.4228135 -0.47128153 0.77403003 0.00017001794
0.18597299 0.20654078 -0.11841764 -0.42521581 -0.45700613 0.78124058 0.00096019875
0.19217762 0.20522086 -0.1152876 -0.45440641 -0.4439643 0.77227622 0.00054547779
-0.191421 0.21094504 -0.11127158 0.42672986 -0.47802734 0.76771843 3.8207718e-06
-0.18333705 0.21634199 -0.11240431 0.42651054 -0.47746634 0.76818925 0
-0.172067 0.21552967 -0.11917462 0.40878165 -0.45972407 0.78838527 0.0011925366
0.1723159 0.21526024 -0.11990544 -0.36703873 -0.50331599 0.78227597 0.00054062327
0.18841363 0.21728934 -0.11092319 -0.42374334 -0.4790892 0.76870996 0.00097035029
0.19272821 0.21019332 -0.11218079 -0.45089772 -0.45206895 0.76962656 0.00053785893
-0.18077055 0.22179319 -0.11043637 0.42529565 -0.48035702 0.7670598 0
-0.17662184 0.22435728 -0.11114573 0.42042595 -0.48519516 0.76669914 0.00011835575
-0.16586328 0.22478843 -0.11685742 0.39099938 -0.49572751 0.77548289 0.00069877174
-0.15905227 0.2295593 -0.11767246 0.36513329 -0.51049721 0.77850515 0.00097671372
0.16601385 0.22325402 -0.11720913 -0.35571584 -0.51817453 0.77779263 0.00027444799
0.17669053 0.22610685 -0.11033166 -0.36754343 -0.52168131 0.76990938 0.00031360015
-0.16234711 0.23420608 -0.11291379 0.36502877 -0.52408731 0.76947153 0.00092505087
-0.14724676 0.23566288 -0.11805116 0.31016874 -0.53142881 0.78827572 0.00079335255
0.13728863 0.23981427 -0.11879423 -0.32679799 -0.52478331 0.78600603 0.00078335387
0.14452139 0.23809212 -0.11668653 -0.34168404 -0.52377433 0.78032851 0.00068862276
0.15397254 0.23641922 -0.11352921 -0.35086718 -0.53368223 0.76946443 5.1627801e-05
-0.15196916 0.2420301 -0.11153089 0.31553397 -0.55445892 0.77007383 0.00044228582
-0.14676528 0.2411401 -0.11414959 0.30926147 -0.55533779 0.77198279 0.00043216921
-0.13494188 0.24358332 -0.11677104 0.28572825 -0.55421728 0.78179443 0.00046075651
-0.12541319 0.24581623 -0.11868706 0.27454284 -0.54810667 0.79006666 0.00076674408
0.13438091 0.24525926 -0.11632386 -0.32259089 -0.53816116 0.77866399 0.00048524648
-0.13149202 0.25142121 -0.11222526 0.28761235 -0.57084888 0.7690323 2.1358044e-05
-0.11714114 0.25069708 -0.11815724 0.27761737 -0.56024349 0.7804203 0.00031784884
-0.10693184 0.2578634 -0.11665179 0.26122448 -0.56396568 0.78339297 0.00055464986
-0.098567151 0.25881928 -0.11908228 0.22391875 -0.56576645 0.79357976 0.00086205947
0.098357052 0.25828552 -0.11857214 -0.20525827 -0.59359658 0.77814662 0.00038041981
0.1026642 0.25691834 -0.11853024 -0.2121252 -0.58667403 0.78154755 0.00041783042
0.11511011 0.25784016 -0.11454666 -0.23869061 -0.58109367 0.77804679 0.0004776305
0.12505618 0.25559226 -0.11337785 -0.27613464 -0.57051849 0.77347153 0.00088711886
-0.11112935 0.26167551 -0.11223324 0.27934295 -0.57716507 0.76736438 0.00018501469
-0.10381765 0.26483649 -0.11262447 0.24791773 -0.58230084 0.77424961 0.00055538793
-0.095537998 0.26404095 -0.11627612 0.21446301 -0.58133554 0.78489143 0.00071491784
-0.074313238 0.26736528 -0.11790244 0.14228001 -0.60563082 0.78292257 0.00043066803
-0.060220163 0.26973757 -0.11835998 0.12321583 -0.60980713 0.78291327 0.00060168002
-0.059948917 0.2684108 -0.11949037 0.12320685 -0.60980344 0.7829175 0.00059978745
0.067207798 0.268058 -0.1189663 -0.1711593 -0.58064681 0.7959609 0.00095487299
0.074372105 0.26734748 -0.1176571 -0.18891801 -0.59221119 0.78332353 0.00066917395
0.085867524 0.26273584 -0.11830846 -0.1983296 -0.59816456 0.77644354 0.00023899217
0.092830658 0.26550531 -0.11429311 -0.20066366 -0.60864979 0.76764536 0
0.10500268 0.26345557 -0.11273673 -0.20592508 -0.60283691 0.7708323 7.9517289e-05
0.11487475 0.26167813 -0.11156563 -0.2302908 -0.5893842 0.77433354 0.00032085826
-0.085124388 0.27166086 -0.11255392 0.17394197 -0.61201054 0.77148384 0.00057339168
-0.076039806 0.27357602 -0.11253345 0.15163222 -0.61923575 0.77042502 0.00027376151
-0.06189942 0.27672654 -0.11236301 0.13053776 -0.62735617 0.76771355 7.7920895e-06
-0.048967749 0.27798688 -0.11353177 0.13000891 -0.62739831 0.76776886 0
-0.035371616 0.27842787 -0.11548307 0.10887498 -0.61745006 0.77903897 0.00052722881
-0.026786668 0.27751189 -0.11769126 0.080154583 -0.61870372 0.78152478 0.00092290464
-0.011896193 0.27841252 -0.11757295 0.0099851741 -0.62243116 0.78261077 0.0010928065
-0.0071403245 0.27540979 -0.11985049 -0.011030325 -0.61147195 0.79118919 0.0011224896
0.0063886154 0.27791026 -0.11712708 -0.035525925 -0.62548381 0.77942795 0.000389508
0.012245014 0.27593642 -0.11849511 -0.03903034 -0.6165235 0.78636849 0.0007433701
0.025965339 0.27418321 -0.11930753 -0.03640265 -0.61837989 0.78503579 0.00067884097
0.035484809 0.27728134 -0.11627559 -0.051769331 -0.6225763 0.78084487 0.00059190573
0.046460357 0.27833441 -0.11487909 -0.095548034 -0.62259477 0.77668935 0.000606685
0.054040883 0.27320209 -0.11825987 -0.12530819 -0.61866236 0.7755996 0.00073726359
0.067012064 0.27474365 -0.11371747 -0.17542328 -0.61069345 0.77219188 0.00037098225
0.077568963 0.27087709 -0.11402349 -0.20040712 -0.60850567 0.76782662 3.1625848e-05
0.085358232 0.27112308 -0.1117927 -0.20064172 -0.60857046 0.76771414 1.1565477e-05
-0.02010994 0.28109655 -0.11572449 0.044583682 -0.63669556 0.76982528 0.0011425494
-0.015784957 0.2830736 -0.11387239 0.014453478 -0.63640732 0.77121782 0.00072436349
-0.0037585467 0.28450882 -0.11210773 -0.026742004 -0.64042091 0.76755846 0.00010417676
0.004760087 0.2828753 -0.11306635 -0.035448078 -0.63843471 0.76885927 1.0774197e-05
0.014749061 0.28236476 -0.11301954 -0.035744078 -0.63825947 0.76899093 8.0717627e-06
0.028608117 0.28292757 -0.11189531 -0.038729139 -0.63938493 0.76791072 1.9968589e-05
0.032101769 0.28204602 -0.11246477 -0.038928706 -0.63942081 0.7678709 1.3475085e-06
0.040917009 0.28341544 -0.11090679 -0.06701494 -0.63723516 0.76775014 0.00039644656
0.05450543 0.28171277 -0.11146151 -0.12197489 -0.62140119 0.77393967 0.00080624013
-0.063374773 -0.29074362 -0.1019843 0.14830743 0.61782432 0.77220339 0.00078419381
-0.055269171 -0.29162014 -0.10310259 0.12293294 0.61814708 0.77639014 0.0010383991
-0.035061803 -0.29494447 -0.10157564 0.04637488 0.63850296 0.76822084 0.00014721608
-0.023062693 -0.2935195 -0.10333046 0.036295008 0.6397801 0.76770049 0
-0.015401009 -0.2947146 -0.10269674 0.036000323 0.64022273 0.76734531 0
-0.0049460903 -0.29346985 -0.10422836 0.036210727 0.64024997 0.76731271 2.1576823e-05
0.0047570895 -0.29586461 -0.10269136 0.016714234 0.64193594 0.76657605 0.00023080062
0.014888881 -0.2940864 -0.10465228 -0.0081054252 0.63605654 0.77159995 0.00058908242
0.025117757 -0.29364306 -0.10479246 -0.060096383 0.633066 0.77176154 0.00078577973
0.035088718 -0.29327226 -0.10340017 -0.10386552 0.63093865 0.76884878 0.00035874892
0.048456121 -0.29187688 -0.10226768 -0.13021758 0.6278193 0.7673893 0
0.055068862 -0.29199973 -0.10104299 -0.13057186 0.62751979 0.76757401 0
-0.09704943 -0.28139588 -0.10059345 0.20138191 0.61019349 0.76623052 2.047925e-05
-0.083670057 -0.28225097 -0.10341239 0.19979352 0.60906106 0.76754618 2.5773908e-05
-0.070426747 -0.28439805 -0.10517158 0.1917363 0.61126775 0.767847 0.00018277901
-0.067709424 -0.28553775 -0.10497831 0.17472196 0.61961889 0.76520896 0.00050328497
-0.058955453 -0.28484043 -0.10781902 0.14207442 0.62175697 0.77021623 0.0008963194
-0.044559792 -0.28727773 -0.10751585 0.086824328 0.62591618 0.77504224 0.0005508702
-0.035641301 -0.28647327 -0.1086079 0.050277218 0.63693804 0.76927376 0.0001131332
-0.026772823 -0.28859225 -0.10726128 0.037608087 0.63986838 0.7675637 1.451268e-05
-0.014434937 -0.28865528 -0.10779208 0.036299143 0.63982081 0.76766634 0
-0.0037711589 -0.28855225 -0.1083821 0.033469342 0.64044267 0.76727635 6.2532621e-05
0.0074566202 -0.28748077 -0.10980587 0.0015029357 0.64282411 0.76601225 0.00048709559
0.031488888 -0.28860497 -0.1078264 -0.089715801 0.63608491 0.76638573 0.00062331976
0.044670772 -0.28528264 -0.10830019 -0.12526478 0.6281718 0.76792508 6.8431604e-05
0.054594029 -0.2821146 -0.10920193 -0.13052817 0.62734735 0.76772249 8.6222208e-06
0.06285955 -0.28592798 -0.10468026 -0.13053112 0.62738162 0.76769394 0
0.07971555 -0.2839489 -0.10343163 -0.14716886 0.62421155 0.76726872 0.00025253146
0.086901754 -0.2805123 -0.10501821 -0.17732184 0.61278844 0.77009553 0.00068053242
0.091969185 -0.28279591 -0.10229043 -0.1795633 0.61078703 0.77116549 0.00077400025
-0.12040834 -0.27187154 -0.10203868 0.24119395 0.59698278 0.76513857 0.00076035049
-0.11563999 -0.27258068 -0.10272275 0.22390461 0.6008358 0.76737416 0.00038109688
-0.10324385 -0.27454665 -0.1044041 0.20063454 0.60853428 0.7677446 5.9474369e-06
-0.097966701 -0.27239084 -0.10749234 0.20066559 0.60861939 0.76766902 0
-0.086560994 -0.27610576 -0.10752836 0.20064563 0.60862529 0.76766956 0
-0.071844786 -0.27918974 -0.10892981 0.19242214 0.61175257 0.7672891 0.00019964408
0.078282416 -0.27649584 -0.10976601 -0.15058814 0.62188566 0.76849294 0.00035040482
0.085215285 -0.27736741 -0.10787498 -0.17149253 0.61611372 0.76876146 0.00053077127
0.09741798 -0.27615958 -0.10658935 -0.20742832 0.60258764 0.77062416 0.00059380644
0.10692301 -0.27571025 -0.1033528 -0.24156909 0.58152688 0.77683389 0.00068196561
0.11444325 -0.27195612 -0.10332532 -0.27164292 0.57850105 0.76912069 0.00024030819
-0.14337382 -0.2610569 -0.1011804 0.33071586 0.54723823 0.76886761 0.0002831867
-0.13421777 -0.26506796 -0.10257041 0.30409083 0.56130117 0.76972049 0.00078325853
-0.1232594 -0.26815134 -0.10424268 0.26075339 0.58401221 0.76872456 0.00096899952
-0.1168416 -0.26952067 -0.1048345 0.23478276 0.60075527 0.76417947 0.00055431447
-0.10616717 -0.26739714 -0.10930778 0.20581959 0.6072824 0.76736325 5.0745588e-05
0.10477544 -0.26962554 -0.10869502 -0.24428596 0.58902591 0.77030694 0.0006088845
0.11763607 -0.26558396 -0.10687519 -0.28844705 0.57225621 0.76767254 0
0.12579748 -0.26531526 -0.10400887 -0.28846958 0.57222015 0.7676909 0
0.13137935 -0.265953 -0.10143618 -0.28845644 0.57223606 0.76768404 0
-0.15360992 -0.25231168 -0.10260093 0.35139269 0.53605044 0.7675761 0
-0.14871494 -0.25474748 -0.10314063 0.34650457 0.53832334 0.76820737 8.0772028e-05
-0.13847138 -0.25716493 -0.10614079 0.32222861 0.55382514 0.76775414 0.00048139264
0.12900734 -0.2589266 -0.10756465 -0.28847849 0.5722084 0.76769632 0
0.13886011 -0.25538146 -0.10650493 -0.28848338 0.57226181 0.76765472 0
0.14274096 -0.25554284 -0.10492645 -0.29164708 0.57061338 0.76768631 1.1860818e-05
0.15562861 -0.25315434 -0.10186434 -0.31388915 0.55963087 0.76699865 0.00045847453
0.16353428 -0.25004113 -0.10121432 -0.34460455 0.54697841 0.76293004 0.00090520037
-0.15688479 -0.24695505 -0.10484161 0.35129675 0.53589922 0.76772571 2.7351225e-05
-0.14923555 -0.24460882 -0.10997999 0.35127452 0.53591096 0.76772755 1.4879558e-05
0.14859714 -0.24583898 -0.10995892 -0.29816774 0.5637086 0.77027828 0.00014512573
0.15438993 -0.24617778 -0.1075298 -0.31003833 0.55844986 0.76942194 0.00034111983
0.16119388 -0.24256182 -0.10766847 -0.3467409 0.53428608 0.77091449 0.00095761492
0.17095505 -0.24666487 -0.10040443 -0.37082428 0.5283702 0.76375014 0.00089934247
-0.18409674 -0.23410296 -0.10136043 0.37320855 0.52123249 0.76748419 0.00044550782
-0.17150454 -0.23444496 -0.10688425 0.35211676 0.53542453 0.76768112 2.1913758e-05
-0.16802378 -0.23631701 -0.10717031 0.3520945 0.53551877 0.76762569 1.3136893e-05
0.16686152 -0.23828651 -0.10789712 -0.37082806 0.51581436 0.77228367 0.00090280827
0.17856744 -0.23522122 -0.10329916 -0.40488595 0.49543604 0.76851195 0.00046902531
0.18516509 -0.23389646 -0.10045677 -0.42385438 0.48515639 0.76483375 9.1750284e-05
-0.19457339 -0.22499563 -0.1026451 0.40624556 0.48431712 0.77485573 0.00085703068
-0.18303321 -0.22246206 -0.10997341 0.39482376 0.50006974 0.77074283 0.00093563373
0.187406 -0.22544721 -0.10447262 -0.42673805 0.47805077 0.7676993 1.6848278e-05
0.19824895 -0.22254446 -0.10025313 -0.42835629 0.47900128 0.76620406 4.3869995e-06
-0.20577696 -0.21553981 -0.10108332 0.46362907 0.44083932 0.76857591 0.00034092984
-0.19799246 -0.21979545 -0.10356532 0.4296816 0.46988055 0.77109402 0.00068290537
0.18846795 -0.21751353 -0.10882276 -0.42677951 0.47808486 0.7676549 0
0.19541827 -0.21467641 -0.1067261 -0.42680761 0.47808364 0.76764017 0
0.203216 -0.21599285 -0.10157197 -0.42822471 0.47918656 0.7661618 8.0207574e-06
-0.20534353 -0.20380512 -0.10787597 0.47242787 0.43106693 0.76876092 0.00012587575
0.20611957 -0.20641723 -0.10592088 -0.43239686 0.47096702 0.76891029 0.0001351893
0.21704337 -0.2018967 -0.10266384 -0.44748127 0.45488545 0.76996088 0.00054614444
-0.22298267 -0.19455075 -0.10203591 0.47804403 0.42673218 0.76770669 3.577964e-06
-0.21611191 -0.19353817 -0.10687725 0.47804374 0.42666966 0.76774156 3.0391429e-05
0.21694018 -0.19421589 -0.10750413 -0.46156767 0.43786183 0.77151299 0.00082511967
0.22560355 -0.19399789 -0.1026001 -0.4875783 0.40720299 0.7723037 0.00095064403
-0.23300594 -0.18462415 -0.10131202 0.48652151 0.41713303 0.76765668 0.00017220924
-0.22560365 -0.1844987 -0.10599124 0.47939235 0.42471266 0.7679857 0
-0.21748044 -0.18790841 -0.10915437 0.47809049 0.42672822 0.76767987 0
0.22483242 -0.18637943 -0.10678741 -0.50246108 0.39007211 0.77160656 0.0010104228
0.23170626 -0.18282859 -0.10361388 -0.51800328 0.37038872 0.7710284 0.00049196358
-0.24292237 -0.17446387 -0.10078453 0.50156659 0.39485332 0.76975435 0.00049614679
-0.23721196 -0.17152718 -0.10597284 0.50455809 0.38403168 0.77326632 0.00069247442
-0.22804703 -0.17818968 -0.10797659 0.49122712 0.41386434 0.76642823 0.00019737311
0.22658104 -0.1791743 -0.10886401 -0.52025115 0.36953372 0.76992446 0.00035030014
0.23497084 -0.17479798 -0.10500997 -0.53015661 0.35561979 0.76971978 6.3870757e-05
-0.25176263 -0.16292872 -0.10015869 0.53683889 0.33604461 0.77387214 0.00086358812
-0.24609669 -0.16562906 -0.10330614 0.53175104 0.3532376 0.76971692 0.00090348406
0.23584747 -0.16755849 -0.107711 -0.53445143 0.35267696 0.76810193 2.9893508e-05
0.24568416 -0.16591907 -0.10159445 -0.53589958 0.35136375 0.76769465 1.5788517e-05
-0.25426391 -0.15364744 -0.1017817 0.56101334 0.30599394 0.76917595 0.00024777176
-0.24607718 -0.15684775 -0.10668129 0.55080062 0.32755861 0.76767451 0.00065376988
0.23956329 -0.15769194 -0.10963229 -0.53590018 0.35134697 0.76770192 0
0.24760799 -0.15371475 -0.10583652 -0.53593963 0.35134944 0.76767337 0
-0.25260195 -0.14568353 -0.10601284 0.57069784 0.29029182 0.76813716 0
-0.24777745 -0.14552914 -0.10966685 0.5692662 0.29536262 0.76726586 0.00012319426
0.25225365 -0.14340103 -0.10731332 -0.53952777 0.34129614 0.76969254 0.00014434884
-0.26158679 -0.13382529 -0.10377155 0.57219958 0.28843972 0.76771754 2.7670353e-06
-0.25525635 -0.13429309 -0.10831422 0.57221794 0.28847432 0.76769084 0
0.26397952 -0.13200293 -0.10434382 -0.56164753 0.29833439 0.77171797 0.00088816765
-0.26608714 -0.12360945 -0.10425568 0.57236362 0.28809974 0.76772296 0
0.2648603 -0.124621 -0.10633072 -0.58470422 0.25931382 0.76868546 0.00090090377
-0.26448181 -0.11707184 -0.10790867 0.5725131 0.28800017 0.76764888 0
0.26632234 -0.11366571 -0.1082 -0.60358709 0.21147923 0.76873869 0.00013735222
0.27312684 -0.11903638 -0.10140213 -0.60011214 0.22728853 0.76694542 0.00047391513
-0.27217382 -0.10866555 -0.10533394 0.58778846 0.25202888 0.76875621 0.00049033418
-0.26915708 -0.1078226 -0.10789924 0.58334666 0.25737384 0.77036709 0.00039198322
0.26903683 -0.10102713 -0.10935135 -0.60778421 0.20240118 0.76787502 0
0.27442065 -0.1048118 -0.10409422 -0.60721338 0.20367129 0.76799077 4.3251555e-05
-0.28415939 -0.094664283 -0.10071793 0.60779983 0.19982205 0.76853788 0.00064615102
-0.27614862 -0.097723164 -0.10633911 0.59881097 0.2177366 0.77072448 0.00081454299
0.27690637 -0.096998774 -0.1041657 -0.60857195 0.20064192 0.76771283 0
0.28361487 -0.092299208 -0.10007587 -0.60872096 0.2007063 0.76757783 0
-0.28107002 -0.086439691 -0.10464101 0.6147002 0.17038758 0.77013749 0.00055333076
-0.277702 -0.081179582 -0.10828774 0.61697775 0.16254796 0.77001083 0.00043905969
0.27835745 -0.084396347 -0.10630915 -0.60858607 0.20065786 0.76769751 0
0.28237632 -0.086382031 -0.10260423 -0.60867953 0.20063651 0.76762903 0
-0.2847015 -0.075782157 -0.10348538 0.6275261 0.1367023 0.76650083 3.128306e-05
-0.27853703 -0.073381826 -0.10893114 0.62559938 0.13511623 0.76835477 2.8960994e-05
0.27986825 -0.075779572 -0.10736353 -0.60975045 0.1962468 0.76791376 5.0385122e-05
0.2873202 -0.070160866 -0.10292459 -0.61298281 0.17830336 0.7697143 0.00036193719
-0.2858867 -0.064430341 -0.1044469 0.62742144 0.13053392 0.76766086 0
0.28611028 -0.06438414 -0.10539353 -0.61970854 0.16154645 0.76802611 0.00063525909
-0.28857973 -0.057411086 -0.10343958 0.62750995 0.13053271 0.76758862 0
0.29238456 -0.056634843 -0.10244501 -0.62522823 0.11750552 0.77154529 0.0009595934
-0.29279879 -0.044185054 -0.1022405 0.62909609 0.12992123 0.76639318 2.7128579e-05
-0.28839469 -0.045931004 -0.1055427 0.62748265 0.13028094 0.76765382 0
0.28993043 -0.042636536 -0.10539606 -0.63281417 0.069697373 0.77116054 0.00045188947
0.29424584 -0.043968588 -0.10173676 -0.63606685 0.065448903 0.76885331 0.0004124752
-0.29379028 -0.031720042 -0.10354959 0.63169193 0.088530362 0.77014786 0.00048183324
-0.28590018 -0.038474172 -0.10884909 0.62919164 0.11089218 0.76929891 0.00020925431
0.28888461 -0.038612179 -0.1064579 -0.63795561 0.05779431 0.76790124 0.00032683939
0.29267111 -0.035593852 -0.10344499 -0.63841885 0.047795489 0.76820374 0.00017879208
-0.29604438 -0.025038395 -0.10284357 0.63534576 0.058476549 0.77001065 0.00088153535
0.28700656 -0.029721603 -0.10844333 -0.63990271 0.037097674 0.76756001 2.8637109e-05
0.29285365 -0.027955823 -0.10365403 -0.64014119 0.037293073 0.76735163 3.3984406e-07
-0.29531062 -0.010180709 -0.10340947 0.64077044 -0.0045180367 0.76771915 0.00042698963
-0.28872159 -0.013315539 -0.10904878 0.63971305 0.0092936195 0.76855761 0.00056216441
-0.0079982253 -0.010742079 -0.10102654 0.0090627111 0.99470133 -0.10240683 0.16320506
0.0016483264 -0.010870568 -0.10314721 -0.55395323 0.83002537 -0.064758919 0.16180816
0.28849089 -0.018622294 -0.10773109 -0.63975209 0.036294967 0.76772386 2.606379e-05
0.29407591 -0.012614047 -0.10336074 -0.63994974 0.036263168 0.7675606 2.8401489e-06
-0.2958492 -0.0072934115 -0.10282411 0.64028871 -0.0042753494 0.76812243 0.00038713746
-0.023872849 -0.0011781591 -0.10385522 0.9029808 0.42880431 0.027433593 0.15257265
-0.014294491 -0.0084780017 -0.10554826 -0.28718334 -0.88855612 0.35776222 0.19915916
0.007425074 -0.0077666114 -0.10700127 0.74203467 -0.65768194 0.12976465 0.1770017
0.010558798 -0.0028062453 -0.10420094 -0.88669527 0.45694509 -0.07051798 0.16899662
0.28885615 -0.0058787093 -0.10802916 -0.63987434 0.036298763 0.76762187 0
0.29210246 -0.0049438085 -0.10536797 -0.63984346 0.036307827 0.76764721 0
-0.29570013 0.0031861269 -0.10245289 0.64006346 -0.033696216 0.76758277 4.1862091e-05
-0.027129576 0.0056873974 -0.10637433 0.99407601 0.10708385 0.018598119 0.17204516
0.0075971112 0.0078321286 -0.1053507 0.96653706 0.21834329 0.13465638 0.17327723
0.010478216 0.0016797882 -0.10515817 0.90164894 -0.42163798 0.096180014 0.16837993
0.29724213 0.0066807587 -0.1016343 -0.6361559 0.01194894 0.7714681 0.00037546904
-0.29570538 0.013435429 -0.10196395 0.63975638 -0.036292154 0.7677204 3.6219924e-06
-0.28792372 0.014206095 -0.10841251 0.63973707 -0.036294334 0.76773638 2.8658966e-05
-0.024909124 0.014635473 -0.10579061 0.93315357 -0.35104403 0.077411734 0.16082211
-0.015895167 0.018537708 -0.10523319 0.23537812 -0.9585371 -0.16063526 0.15945403
-0.0067480719 0.017734148 -0.10288993 0.29412705 0.94121331 0.16615312 0.18210211
0.00480654 0.011115539 -0.10821439 0.78711593 0.57393408 0.22593857 0.18938659
0.29365742 0.019217908 -0.10521445 -0.638928 -0.043876328 0.76801425 0.00089302962
-0.29519987 0.029615277 -0.10162027 0.63990444 -0.039368715 0.76744545 0
-0.28928262 0.02379051 -0.10682696 0.63987041 -0.036308255 0.76762456 0
0.29105961 0.025615217 -0.1068191 -0.63760978 -0.077274285 0.76647401 0.0008365665
-0.29525054 0.035467852 -0.10130139 0.63937128 -0.045835394 0.76753074 0.00012574249
-0.28797677 0.033968389 -0.10743403 0.64063883 -0.043268029 0.76662236 0.00010847258
0.29478252 0.034589529 -0.10225085 -0.63178599 -0.10049509 0.76860082 0.00038532692
-0.29309815 0.041290894 -0.10281982 0.63804603 -0.052284833 0.76822096 0.00027447892
0.28649542 0.045979779 -0.10708653 -0.62803042 -0.12850265 0.76750553 2.9917966e-05
0.29309058 0.047921985 -0.10136665 -0.62827474 -0.12845366 0.76731378 0
-0.29271212 0.05240801 -0.10261488 0.62230211 -0.1044016 0.77578378 0.0010929041
-0.28632039 0.056354724 -0.10711881 0.62321919 -0.12726043 0.77162337 0.0010707623
0.28652281 0.053903341 -0.10571693 -0.62736571 -0.1305341 0.76770633 3.7300335e-06
0.29038897 0.051916324 -0.10289529 -0.6280387 -0.13054369 0.76715434 4.0668463e-05
-0.29231 0.063772984 -0.10063852 0.61410749 -0.15683669 0.77348185 0.00079650816
-0.28488329 0.064310372 -0.10638549 0.61633182 -0.16379674 0.77026343 0.00063579279
0.28623596 0.066348039 -0.10383542 -0.62767524 -0.13065611 0.76743257 0
-0.28500897 0.072811812 -0.10406393 0.60908443 -0.19206506 0.76949793 9.451565e-05
-0.27797192 0.076119222 -0.10877805 0.61012971 -0.19678557 0.76747447 3.747147e-06
0.2847414 0.074864686 -0.10360876 -0.62599558 -0.13506413 0.76804107 2.0792273e-05
-0.28165087 0.084044255 -0.10379034 0.60872251 -0.1998959 0.76778811 0
-0.27760643 0.086882524 -0.10625471 0.60855061 -0.20065358 0.76772678 1.0140684e-05
0.27520949 0.087753646 -0.10920688 -0.6094864 -0.19090517 0.76946843 0.0010172395
-0.28023386 0.098866813 -0.10103963 0.60930061 -0.20072985 0.7671116 2.9523326e-05
-0.27629289 0.094478689 -0.10531066 0.60857081 -0.20066853 0.76770675 1.5430818e-05
0.27696985 0.096151084 -0.10613371 -0.60100794 -0.22158208 0.76791328 0.0008281364
-0.27308536 0.10609499 -0.10481738 0.60766727 -0.20406471 0.76752728 3.6733334e-05
-0.26552185 0.10976782 -0.10985332 0.60397035 -0.21011192 0.7688126 0.00011192648
0.26677907 0.10762822 -0.10974479 -0.57952237 -0.27295634 0.76788586 0.00021837083
0.27533969 0.10396659 -0.10473984 -0.58594811 -0.2568329 0.76857126 0.00044208393
0.2821711 0.10198889 -0.10039108 -0.59842372 -0.23014767 0.76741195 0.00093546882
-0.27403688 0.11520841 -0.1016812 0.60221422 -0.22348562 0.76641512 0.00041844737
-0.26805413 0.11713266 -0.10592103 0.59786612 -0.23303315 0.7669757 0.00045643913
0.2677671 0.11398524 -0.10661972 -0.575023 -0.27597976 0.77018422 0.000183161
0.2715387 0.11650377 -0.10286219 -0.57599938 -0.28019613 0.76792896 0.00013902073
-0.27366692 0.12206867 -0.10018146 0.59707403 -0.2355817 0.76681411 0.00062302034
-0.268352 0.12394796 -0.10390364 0.58471948 -0.254466 0.77029222 0.00082005636
0.25843829 0.12556988 -0.10922021 -0.57217854 -0.28845766 0.76772642 1.8610695e-05
0.26778683 0.12905155 -0.10094396 -0.57397056 -0.28969467 0.76592082 2.7468112e-05
0.27131405 0.12429594 -0.10010181 -0.57248664 -0.28754345 0.76783961 0
-0.26519316 0.13252148 -0.10325928 0.56558013 -0.29057109 0.77180803 0.00073127786
0.25634986 0.13735917 -0.10634714 -0.57220548 -0.28845561 0.76770705 1.03051e-05
0.26353973 0.13183177 -0.10306494 -0.57218468 -0.28846604 0.76771867 9.6298108e-06
-0.26163158 0.14067577 -0.10201392 0.55206805 -0.31742385 0.77101421 0.00045918406
-0.25246969 0.14636879 -0.10580438 0.53910959 -0.34323972 0.76912117 7.7445984e-05
-0.24877322 0.149894 -0.10677159 0.53592092 -0.35128817 0.76771438 7.4740674e-06
0.24926135 0.14596391 -0.10839745 -0.56704521 -0.29619735 0.76858753 8.8999244e-05
0.25579497 0.14522149 -0.10380649 -0.57195938 -0.28855038 0.76785487 1.3830458e-05
0.26286346 0.14072289 -0.10022826 -0.57537538 -0.28957006 0.76491326 1.8204079e-05
-0.25491193 0.15262902 -0.10123461 0.53595811 -0.35128039 0.76769191 7.9676774e-06
-0.24689379 0.15663105 -0.1050005 0.53594047 -0.35131997 0.76768625 0
0.24534813 0.15364763 -0.10842709 -0.55309528 -0.31808197 0.77000624 0.00047059459
0.25188321 0.15001842 -0.10491976 -0.56427783 -0.30060259 0.76891398 0.00020309031
-0.23770119 0.16593586 -0.10715952 0.53547519 -0.35210583 0.76765084 2.1711103e-05
0.23698145 0.16914392 -0.10744112 -0.51279324 -0.38168243 0.76900041 0.00072901743
0.24668425 0.16023307 -0.10495681 -0.53897625 -0.33442065 0.77308953 0.00079678337
-0.23316349 0.17457721 -0.10637267 0.52947897 -0.35866743 0.76877159 0.00012942959
0.22526243 0.1781134 -0.10975301 -0.48570451 -0.41807184 0.76766336 0.00013861235
0.235668 0.17681527 -0.10399488 -0.48945087 -0.4070749 0.77118599 0.00026838237
-0.23161612 0.18284817 -0.10366782 0.51650208 -0.37512326 0.76974553 0.00040309166
-0.22564475 0.18528585 -0.10672078 0.48946232 -0.39980361 0.77497345 0.00072199566
0.22611655 0.18676317 -0.10441315 -0.47802386 -0.42674845 0.76771027 2.5220912e-05
-0.22398956 0.19229272 -0.10439377 0.47461721 -0.41929504 0.77390581 0.0008470302
0.2140628 0.19551001 -0.10705722 -0.47805634 -0.42670083 0.76771641 1.9459525e-05
0.22229999 0.19177654 -0.10400307 -0.47804496 -0.42673758 0.76770306 1.8009489e-06
-0.21159005 0.20732743 -0.1023133 0.43299693 -0.47121474 0.7684207 9.885554e-05
-0.20613678 0.20585033 -0.1062643 0.4321526 -0.47237796 0.76818174 6.4057553e-05
0.20510677 0.20710272 -0.10619043 -0.4753949 -0.4300364 0.76750791 8.1013284e-05
0.21283583 0.20299201 -0.10366237 -0.47819769 -0.42688754 0.7675246 0
-0.20458478 0.21478365 -0.10156411 0.42827123 -0.47846723 0.76658523 4.1034265e-05
-0.19604225 0.21786407 -0.10439427 0.42677903 -0.47804967 0.76767719 0
0.19336285 0.21894358 -0.10692174 -0.42806283 -0.47420201 0.76934695 0.0009763019
0.2053459 0.21038608 -0.10421646 -0.47507042 -0.4306199 0.76738167 4.1028856e-05
0.21138456 0.2108289 -0.10020997 -0.47778702 -0.43263808 0.76455468 9.060611e-05
-0.19784442 0.22304425 -0.10016678 0.42869148 -0.48159859 0.7643863 4.8989536e-05
-0.18351229 0.22393344 -0.1075796 0.42547417 -0.47983176 0.76728946 0
-0.17460331 0.22972935 -0.10892248 0.40870324 -0.49254251 0.76835114 0.00036520459
0.1779362 0.22797498 -0.10845749 -0.37054414 -0.52241284 0.76797253 0.00032582827
0.18712045 0.22592641 -0.10568459 -0.40549874 -0.49936932 0.76563776 0.00092155748
0.19274174 0.22363211 -0.10470238 -0.41505501 -0.48407447 0.77032548 0.0009991891
-0.18185848 0.23062658 -0.10433097 0.42488021 -0.48041594 0.76725304 1.5143194e-05
-0.17477159 0.2353783 -0.10531127 0.4006978 -0.50392354 0.7651813 0.00065061677
-0.16757706 0.23669472 -0.10849062 0.38305938 -0.51366669 0.76773179 0.0008671066
0.16653492 0.23404841 -0.10943534 -0.35194355 -0.5354389 0.76775062 0
0.18028709 0.23696119 -0.10110857 -0.360618 -0.53097558 0.76682436 0.00013872616
-0.16339581 0.24414946 -0.10552752 0.36350095 -0.52706897 0.76815712 0.00092240737
-0.15559272 0.24474919 -0.10814267 0.3282873 -0.54887861 0.76873916 0.0006384544
0.14901239 0.24921584 -0.10686602 -0.34900612 -0.53835243 0.76705366 2.8337932e-05
0.15678644 0.24461229 -0.10652207 -0.35133049 -0.53594983 0.76767492 0
0.16505584 0.24195135 -0.1045953 -0.35133359 -0.53593159 0.76768613 1.6780599e-05
0.17520289 0.24112588 -0.10052794 -0.35415652 -0.53390539 0.76780087 0
-0.14709347 0.25553465 -0.10329714 0.29639333 -0.56733143 0.76830077 3.5103891e-05
-0.13808805 0.25111809 -0.1099728 0.2907902 -0.57099044 0.76773095 0
-0.12792948 0.25832701 -0.10841656 0.28846166 -0.57224119 0.7676782 8.0582524e-08
0.14365488 0.25543475 -0.10497647 -0.34422755 -0.54219252 0.76650816 0.00013393574
0.15298402 0.25022569 -0.10434355 -0.35132885 -0.53602767 0.76762128 0
0.16180146 0.25034758 -0.10022333 -0.35104522 -0.53825867 0.7661885 4.9644882e-06
-0.13378581 0.2625168 -0.10309318 0.28847197 -0.5721882 0.7677139 1.5258261e-05
-0.12445147 0.26672935 -0.10346063 0.28848109 -0.57227898 0.76764274 0
-0.10508677 0.26932955 -0.10879867 0.24801728 -0.58592218 0.7714808 0.00055505056
0.099889681 0.26999447 -0.10888945 -0.20161164 -0.6080001 0.76791185 0
0.10494679 0.26777807 -0.10932475 -0.2048085 -0.60720265 0.76769686 1.1413244e-05
0.11225611 0.26835746 -0.1069551 -0.21136381 -0.60459477 0.76797825 9.1079652e-05
0.12469171 0.26622897 -0.10539226 -0.26144826 -0.57983279 0.7716468 0.0007633947
