# .PCD v0.7 - Point Cloud Data file format
VERSION 0.7
FIELDS x y z normal_x normal_y normal_z curvature
SIZE 4 4 4 4 4 4 4
TYPE F F F F F F F
COUNT 1 1 1 1 1 1 1
WIDTH 585
HEIGHT 1
VIEWPOINT 0 0 0 1 0 0 0
POINTS 585
DATA ascii
0.47967148 -0.11344781 -0.027222838 -0.98298526 0.1604944 -0.089339122 0.0006837509
-0.4809677 -0.10515544 -0.029752504 0.98811233 0.13141428 -0.079777151 0
0.48194981 -0.095044136 -0.025434013 -0.98822528 0.13051759 -0.079849273 0.00013144557
-0.48335788 -0.083667696 -0.024324784 0.9882763 0.13010891 -0.07988482 0
-0.48423839 -0.07653635 -0.023603527 0.98827034 0.13012385 -0.07993485 0.00018688285
0.48391223 -0.078827135 -0.023298835 -0.98826796 0.13016862 -0.079890862 0
0.48612553 -0.063407727 -0.025566928 -0.9882735 0.13012387 -0.079895392 0
-0.48762894 -0.051701318 -0.025099635 0.98826748 0.13015741 -0.079915166 0.0001224266
0.48698831 -0.054355703 -0.021497436 -0.9882741 0.13012491 -0.079886377 0
0.48868719 -0.043492239 -0.024821376 -0.98827106 0.1301298 -0.079916216 0.00018327417
-0.48970941 -0.03670156 -0.026407499 0.98827505 0.1301122 -0.079896122 2.6643109e-05
0.48951751 -0.035125148 -0.021465899 -0.98827821 0.13010049 -0.079875804 0
-0.49080908 -0.027302388 -0.024703393 0.98827124 0.13012506 -0.079921074 0.00010396146
0.49138889 -0.023821523 -0.026206322 -0.98827666 0.13010468 -0.079887368 0
-0.4924407 -0.015882047 -0.026287967 0.99046576 0.10737945 -0.086297654 0.00025944706
0.49429497 -0.0019351518 -0.026511962 -0.99532348 0.0080589848 -0.096261434 0.0020443818
-0.4938511 0.0049384767 -0.025912736 0.99625403 -0.024347831 -0.082976453 0.002547293
0.49338424 0.0078010708 -0.024799269 -0.99548036 -0.054922286 -0.0774744 0.0016234129
-0.49271947 0.015680235 -0.029408049 0.99010116 -0.11127713 -0.085540101 0.00060218503
0.49248475 0.015649468 -0.026454194 -0.99139583 -0.10361862 -0.079983979 0.00025249278
0.4910537 0.024471287 -0.023118453 -0.98863006 -0.12720688 -0.08018133 0
-0.49053955 0.031325843 -0.027922127 0.98827744 -0.13010094 -0.079883941 0
-0.4893164 0.036894001 -0.021859167 0.98827422 -0.13012484 -0.079885215 0
0.48955643 0.036242135 -0.023766667 -0.9882772 -0.13010086 -0.079886734 0
-0.48865604 0.04413674 -0.025485639 0.98827785 -0.13010529 -0.079871781 0
0.48880309 0.042282585 -0.024285505 -0.98827219 -0.13012189 -0.079914697 6.1844068e-05
-0.48735332 0.053803243 -0.025113568 0.988276 -0.13009992 -0.079903163 0
0.48709595 0.058646347 -0.029817443 -0.98827249 -0.13012642 -0.07990367 0
-0.48594177 0.06492018 -0.02575722 0.9882766 -0.13009544 -0.079902537 0
0.48552933 0.067377202 -0.024656534 -0.98827827 -0.13009115 -0.079889327 0
-0.48544049 0.07084287 -0.029201332 0.98827511 -0.13011725 -0.079886809 0
0.48418248 0.078944825 -0.026834689 -0.98827153 -0.13013367 -0.079904243 6.7979003e-05
-0.48312435 0.08462283 -0.02299129 0.98827523 -0.13012341 -0.079875603 0
0.48277551 0.088701449 -0.025318645 -0.98827291 -0.13013057 -0.079891227 0
-0.48205191 0.094297208 -0.025480947 0.98827952 -0.13008587 -0.07988283 0
0.48179883 0.096874505 -0.026547801 -0.98828048 -0.13007674 -0.07988555 0
-0.48051402 0.10629446 -0.025995092 0.98794663 -0.13273683 -0.079638816 0
0.47993809 0.1070103 -0.020036954 -0.98785198 -0.13347653 -0.079577014 0
0.47911039 0.11641943 -0.025121266 -0.98057443 -0.18093282 -0.075743467 0.0012787506
-0.47820139 0.12446868 -0.026985483 0.96558434 -0.25016153 -0.071176395 0.0018545957
-0.4721387 0.14088245 -0.023939915 0.93323088 -0.34943914 -0.083501607 0.0011117694
-0.46961021 0.14648297 -0.02153476 0.9226532 -0.37750867 -0.078729525 0.00011930302
-0.46558976 0.1575588 -0.028074089 0.92091447 -0.38149008 -0.079886861 0
0.4678371 0.1511351 -0.023308141 -0.92163843 -0.37990111 -0.079105452 6.8183232e-05
-0.46147436 0.16645275 -0.023101175 0.92093122 -0.3814483 -0.079893276 0
0.46155152 0.1674341 -0.028676927 -0.92093778 -0.38143641 -0.079874143 0
-0.4597832 0.17045915 -0.022736626 0.92093372 -0.38144419 -0.079883188 1.5240659e-05
0.45817977 0.17421576 -0.022190023 -0.92087066 -0.38159379 -0.0798954 0
0.45493686 0.18276267 -0.025617229 -0.92092538 -0.38146451 -0.079883158 0
-0.45099813 0.19139385 -0.021426452 0.92091447 -0.3814899 -0.079886541 0
0.44876108 0.19749701 -0.024780134 -0.92091477 -0.38148683 -0.079898596 0
-0.44738281 0.20013531 -0.021490149 0.92094111 -0.38142306 -0.079899378 0
0.44644144 0.20404123 -0.029288508 -0.92091477 -0.3814871 -0.079897307 5.1212035e-05
-0.44329318 0.21086785 -0.025592972 0.92088681 -0.38156077 -0.079867333 0
0.44099644 0.21592259 -0.023253007 -0.92093682 -0.3814348 -0.079893649 1.1418126e-05
-0.43267238 0.23684755 -0.02721102 0.90072572 -0.42727408 -0.078294747 0.0010275727
-0.42676747 0.24892405 -0.023941495 0.85914958 -0.50743687 -0.066105001 0.0020095436
-0.4202835 0.25717399 -0.022421245 0.81885201 -0.56857663 -0.078752391 0.0011431836
0.42377272 0.25345451 -0.028708916 -0.83365554 -0.54821849 -0.066895485 0.0018823957
-0.41455996 0.26458246 -0.022037018 0.79369628 -0.60329854 -0.077955104 0
0.41399792 0.26608425 -0.027880453 -0.79205173 -0.60510898 -0.080604963 8.865557e-06
-0.40688294 0.27473831 -0.023183446 0.79071271 -0.60695082 -0.079899743 6.5379871e-05
0.40712813 0.2750726 -0.028149812 -0.79078627 -0.60685402 -0.079907395 6.5202876e-05
-0.40124753 0.28271174 -0.027963335 0.79082602 -0.60680079 -0.079918772 0.00014251401
-0.39924398 0.28558663 -0.029966978 0.79076958 -0.60687888 -0.07988435 0
0.39981896 0.28446454 -0.027135283 -0.79074621 -0.60690767 -0.0798968 5.9906572e-05
0.40284073 0.28022313 -0.024831388 -0.79080743 -0.60682756 -0.079899676 4.0437462e-05
-0.39277372 0.29313001 -0.023215828 0.79079622 -0.60684198 -0.079900265 6.4653461e-05
0.38965625 0.29712921 -0.022732714 -0.79075223 -0.6069026 -0.079875693 0
-0.38377932 0.30516765 -0.025615105 0.79085308 -0.60676765 -0.079903141 4.3024287e-05
0.38424739 0.30511898 -0.029878872 -0.79070324 -0.60696453 -0.079890735 0
0.37494609 0.31633216 -0.022978038 -0.79069203 -0.60697836 -0.079895958 0
0.36665899 0.32745504 -0.025430886 -0.79085177 -0.60677367 -0.079869598 0
-0.36190292 0.33357644 -0.024847284 0.77762812 -0.62434173 -0.074107438 0.00025681598
-0.35987437 0.33559769 -0.020119652 0.77686244 -0.62526053 -0.074390218 0.00019258361
0.3620871 0.33343658 -0.025608143 -0.7761988 -0.62525141 -0.081092738 0.00042304496
0.35436356 0.34330645 -0.024122199 -0.73773116 -0.66837251 -0.09503115 0.002029364
-0.34355557 0.35437176 -0.026095498 0.67511594 -0.73311865 -0.082191311 0.0019923595
-0.33635598 0.35984439 -0.025582854 0.64547032 -0.7604385 -0.071423285 0.00089011644
0.34356511 0.35463607 -0.028784335 -0.66500872 -0.7409243 -0.093779765 0.0017921695
-0.33260909 0.36247993 -0.023210833 0.60680956 -0.79082227 -0.079889581 1.0906994e-05
-0.32822725 0.36565173 -0.021325314 0.60694683 -0.79071814 -0.079877026 0
0.32728118 0.36675167 -0.025027702 -0.60679477 -0.7908321 -0.079903707 4.2862146e-05
0.33373725 0.36175066 -0.024561442 -0.61963356 -0.78056365 -0.082307942 0.00038859335
-0.29760617 0.38973922 -0.027176529 0.60678744 -0.79083794 -0.079902038 8.2143793e-05
0.30601159 0.38295242 -0.023839796 -0.60670805 -0.7909019 -0.079872437 0
-0.29097506 0.39433599 -0.022312032 0.60686529 -0.79078001 -0.079885244 0
0.28534672 0.3984786 -0.020568028 -0.60683602 -0.79080302 -0.079879001 0
-0.27408418 0.40774861 -0.026784241 0.60685712 -0.79078549 -0.079892091 0
0.27468491 0.40667367 -0.020706397 -0.60687566 -0.79077262 -0.079878859 0
-0.27034011 0.41078407 -0.028393388 0.60589266 -0.79153478 -0.079792127 2.9215233e-05
-0.26737455 0.41245487 -0.022406565 0.60607886 -0.79141825 -0.07953383 0.00012841933
0.2588343 0.41923845 -0.024687853 -0.5703494 -0.81696224 -0.085289657 0.00085779693
0.26716003 0.41299903 -0.026163766 -0.6071285 -0.79057711 -0.07989233 0
-0.25419787 0.42294613 -0.026172936 0.56327683 -0.82201314 -0.083747372 0.00098265323
-0.24660468 0.42875209 -0.028608661 0.50119871 -0.8609491 -0.086985312 0.0023484668
-0.24179065 0.43026578 -0.02307171 0.47691283 -0.87493885 -0.083881728 0.0017905468
-0.22034006 0.43896693 -0.020950614 0.38151681 -0.92090338 -0.079886548 0
0.22170258 0.4386729 -0.024066698 -0.38147536 -0.92092031 -0.079889312 0
0.23305385 0.43407756 -0.025294721 -0.42304823 -0.90309477 -0.073823877 0.0013589555
-0.21209671 0.4425655 -0.023072246 0.38146755 -0.92092198 -0.079907879 0.00014774498
-0.20024742 0.44789925 -0.027978582 0.3815904 -0.92087191 -0.079898357 3.2522592e-05
0.19757737 0.44910321 -0.029108051 -0.38153836 -0.92089528 -0.079877824 0
0.20171523 0.44682649 -0.022620998 -0.38143513 -0.92093694 -0.079889677 0
-0.17883611 0.45608574 -0.020112345 0.38150305 -0.92090935 -0.079883456 0
0.17837939 0.4564701 -0.022362381 -0.38152075 -0.92090291 -0.079874165 0
0.18357247 0.45438519 -0.023124794 -0.38149646 -0.92091167 -0.079887867 0
0.19079018 0.45155329 -0.024943149 -0.38160577 -0.92086792 -0.079870902 0
-0.16965064 0.46015298 -0.023138698 0.38150337 -0.92090952 -0.079880215 0
-0.15102099 0.46841916 -0.02947343 0.38133329 -0.92097962 -0.079883695 0.00019649527
-0.14866582 0.46876204 -0.022180263 0.38117424 -0.92105049 -0.079826243 3.8370297e-05
0.1631175 0.46275362 -0.021922447 -0.38144442 -0.92093384 -0.079881594 0
-0.14316231 0.47169656 -0.029729275 0.34335333 -0.93515211 -0.087172747 0.0011429883
-0.13482505 0.47483256 -0.026070833 0.29847246 -0.9506588 -0.084629416 0.0019416
-0.11463875 0.47941732 -0.026017934 0.1886526 -0.97866464 -0.081398249 0.0013952409
0.11274856 0.47942424 -0.023025244 -0.1553216 -0.98440057 -0.082648419 0.00040479403
0.12679325 0.47768554 -0.025662273 -0.23429801 -0.96685201 -0.10149724 0.0019489949
0.13372955 0.47512275 -0.024184262 -0.28695315 -0.95348817 -0.092294283 0.0021674123
-0.10872954 0.48003429 -0.02402677 0.15383215 -0.98473912 -0.081390828 0.0005154243
-0.095657863 0.48169741 -0.023311341 0.13010196 -0.98827702 -0.079887293 0
-0.075066119 0.48480201 -0.028181378 0.13009076 -0.98827803 -0.079893187 2.7546716e-05
-0.068965241 0.48517582 -0.022869246 0.13010406 -0.98827553 -0.079901993 5.6732842e-05
-0.058890581 0.48661223 -0.024230905 0.1301285 -0.98827368 -0.079886235 0
-0.044734165 0.48854092 -0.025034472 0.13014624 -0.98826796 -0.079927534 0.00020867905
0.037546638 0.48932749 -0.023059204 -0.13010867 -0.98827696 -0.07987722 0
0.046049677 0.48811215 -0.021872735 -0.13013427 -0.98827147 -0.079903983 0.0001043907
0.055207744 0.48714727 -0.024851875 -0.13013428 -0.98827261 -0.079889052 0
0.066350363 0.48560768 -0.023953006 -0.13010389 -0.98827672 -0.079888187 0
0.099228516 0.48146373 -0.026235752 -0.13062294 -0.98820233 -0.07996054 0
-0.024371557 0.49127293 -0.025667956 0.12508525 -0.98887086 -0.080549046 0
0.0073118308 0.49371815 -0.028133029 -0.050539035 -0.99533582 -0.082172967 0.0013852351
0.014206161 0.49229062 -0.021701925 -0.091649264 -0.99195778 -0.087294117 0.0012481123
0.026716657 0.49097198 -0.02576429 -0.13011913 -0.9882741 -0.07989566 2.3126724e-05
-0.023014922 -0.49041295 -0.012820374 0.12190183 0.98921621 -0.08118616 0
-0.01688116 -0.49118999 -0.01244317 0.10530081 0.99124432 -0.079664879 0.00039480807
-0.0066404627 -0.49278957 -0.01555259 0.050065801 0.99600869 -0.073892772 0.0014387146
0.0073250644 -0.49265742 -0.015033215 -0.060763445 0.99392426 -0.091773361 0.0019129121
0.01537635 -0.4915452 -0.014386704 -0.1132168 0.99047929 -0.078312345 0.00035829048
0.025027443 -0.49050176 -0.017196706 -0.13013175 0.98827124 -0.079911068 0.00011849865
-0.092885807 -0.48151565 -0.016548326 0.13011833 0.98827428 -0.079894923 4.9450951e-05
-0.088275217 -0.48211524 -0.016456544 0.13009526 0.98827827 -0.079883114 0
-0.073594742 -0.48397827 -0.015594411 0.13011102 0.98827571 -0.079889029 0
-0.050110951 -0.48741227 -0.019828862 0.1301116 0.98827636 -0.07987982 0
-0.04523728 -0.48783189 -0.017082624 0.13010281 0.9882763 -0.0798949 1.3944776e-05
-0.032495845 -0.48932856 -0.014846374 0.13012579 0.98827314 -0.079896681 2.1415693e-05
0.029804761 -0.48969865 -0.015042355 -0.13011868 0.98827517 -0.07988216 0
0.031065641 -0.48950815 -0.014739269 -0.13012341 0.98827392 -0.079890758 0
0.044253003 -0.48772231 -0.014124252 -0.1301045 0.98827624 -0.07989236 5.8730507e-06
0.05467971 -0.48654392 -0.016527962 -0.13013664 0.98826998 -0.079918064 0.00010783091
0.064840779 -0.48516858 -0.016062949 -0.13012333 0.98827451 -0.079883441 0
0.074578404 -0.4836545 -0.013191422 -0.13016306 0.98827016 -0.07987342 0
0.084549174 -0.48248982 -0.015022443 -0.13010101 0.98827738 -0.079885185 0
0.096697256 -0.48070961 -0.01278468 -0.13110308 0.9881624 -0.079668373 0
-0.14065939 -0.47186077 -0.019670984 0.34797159 0.93378609 -0.083422951 0.00094732514
-0.13663416 -0.47325444 -0.016517112 0.31058782 0.94626659 -0.090081111 0.0017960628
-0.12631592 -0.47684073 -0.013665332 0.26199529 0.96013886 -0.097425878 0.0021101292
-0.11236565 -0.47845268 -0.010382775 0.15590273 0.98436332 -0.081995346 0.00096957543
-0.10779425 -0.47956049 -0.016642217 0.14634573 0.98582309 -0.082071461 0.0005452779
0.10754068 -0.47943008 -0.014616029 -0.14556947 0.986063 -0.080555886 0.00010655632
0.11929034 -0.4781819 -0.018310983 -0.20779328 0.97499377 -0.078797154 0.0020312828
0.12469181 -0.47699672 -0.015233658 -0.23535532 0.96912253 -0.073548421 0.0023230535
0.13267967 -0.47465104 -0.013734112 -0.28927821 0.95244038 -0.095788829 0.0018868847
-0.16514993 -0.46122196 -0.013970971 0.38148922 0.92091483 -0.079887025 2.9579629e-05
-0.15392809 -0.46617791 -0.017517889 0.37933609 0.92177874 -0.080175787 0
0.1458191 -0.46896982 -0.010982596 -0.35935217 0.92968279 -0.08096917 0.00039211873
0.15182698 -0.46648544 -0.01103065 -0.3767412 0.92282355 -0.080391578 0.00021519618
-0.17782678 -0.45595753 -0.013815244 0.38146275 0.92092443 -0.079902746 7.5692675e-05
0.18574099 -0.45290637 -0.01643201 -0.38148347 0.92091703 -0.07988847 2.8678594e-06
0.19204611 -0.45016259 -0.014909144 -0.38140598 0.92094839 -0.07989727 0
-0.21193522 -0.44210657 -0.017010795 0.38144934 0.92092925 -0.079910837 0.00013646239
-0.20717971 -0.44375584 -0.013315538 0.38145199 0.92092955 -0.079894349 3.3454988e-05
-0.19342622 -0.44961244 -0.015157288 0.38145572 0.92092866 -0.079886951 2.9584078e-07
0.19903335 -0.44726181 -0.014833296 -0.38146871 0.92092299 -0.079890788 0
0.20718171 -0.44368839 -0.012547736 -0.38148955 0.92091495 -0.079883784 0
0.21252295 -0.44137233 -0.011353085 -0.38147822 0.92091811 -0.079901226 8.1277161e-05
-0.23670885 -0.43125176 -0.010172276 0.42937011 0.8980577 -0.095570371 0.0017923256
-0.22501113 -0.43682986 -0.018618956 0.38338596 0.92016876 -0.079402365 5.807975e-05
0.21941623 -0.43866846 -0.013098413 -0.38134158 0.92097735 -0.079870991 0
0.22435269 -0.43708843 -0.018455803 -0.38345459 0.9201768 -0.078975998 2.782969e-05
0.23906359 -0.43026578 -0.010049678 -0.4463203 0.89174503 -0.074759565 0.0019897467
-0.25479701 -0.42087573 -0.010228978 0.56612444 0.8199957 -0.084321775 0.0010413042
-0.24619851 -0.42781007 -0.01673739 0.49260646 0.86581248 -0.087792292 0.0024624616
0.24232984 -0.42925888 -0.014038676 -0.47742504 0.87380129 -0.092394002 0.0025604751
0.2535232 -0.42258418 -0.017465198 -0.52977401 0.84447283 -0.078772709 0.0014976116
-0.26491284 -0.41383597 -0.017379643 0.60051525 0.79533327 -0.082622588 2.1879341e-05
0.25958216 -0.41805661 -0.0186694 -0.5751422 0.81396902 -0.081645362 0.001062954
0.26593545 -0.41277626 -0.014657232 -0.60141337 0.79499775 -0.079250425 0.00015419383
-0.27492812 -0.40590057 -0.014900792 0.60683817 0.79079968 -0.079895332 0
0.2789101 -0.40291566 -0.015599284 -0.60682952 0.79080594 -0.079898991 1.7023556e-05
0.28102869 -0.40171063 -0.019763075 -0.60682279 0.79081029 -0.079908125 8.6940083e-05
-0.29300201 -0.39246845 -0.019221282 0.60677713 0.7908473 -0.079887927 0
-0.28753835 -0.39593828 -0.012068665 0.60699105 0.79068655 -0.079853155 0.00016499203
0.28719941 -0.39626431 -0.012721245 -0.60672259 0.79088926 -0.079886414 4.4334602e-06
0.29012272 -0.39388907 -0.011414089 -0.60687625 0.79077196 -0.079880141 0
0.2993193 -0.38766816 -0.019688277 -0.60698372 0.7906875 -0.079900838 4.9829014e-05
0.30505216 -0.38253593 -0.012430043 -0.60677999 0.79084319 -0.079907671 0.0001353882
-0.32076269 -0.37079352 -0.015525036 0.60692936 0.79072976 -0.079895027 0
0.31577075 -0.37440544 -0.013362134 -0.60695398 0.79070687 -0.079934202 0
0.32681131 -0.36611491 -0.015155503 -0.60674369 0.79087144 -0.079903342 4.9515849e-05
0.33074966 -0.36334029 -0.017604204 -0.61395383 0.78514874 -0.081253752 0.00029735366
-0.34064022 -0.35549244 -0.015044983 0.65121597 0.75538206 -0.072907969 0.0012817078
-0.3366192 -0.35860658 -0.015328949 0.63405532 0.76969808 -0.074422278 0.00062447489
0.33760121 -0.35791701 -0.015962087 -0.63246155 0.7701664 -0.082680836 0.00096490653
0.34499204 -0.35222572 -0.015762804 -0.68321192 0.72649771 -0.073638462 0.0021896616
-0.35390979 -0.34286177 -0.016252426 0.74472231 0.66329646 -0.073664837 0.0018345769
0.35299873 -0.34422272 -0.017571302 -0.73370707 0.67589855 -0.069535583 0.0022349122
-0.36181343 -0.33255538 -0.016205994 0.78660923 0.61248118 -0.078183345 5.6969817e-05
0.35663906 -0.33954144 -0.018048884 -0.76014858 0.6448431 -0.079696313 0.0012170186
0.36143842 -0.33273619 -0.01386687 -0.78104013 0.61969876 -0.077134334 0.00031711149
-0.36601961 -0.32659441 -0.012564647 0.7907244 0.6069302 -0.079941884 7.5737371e-05
0.36414346 -0.32875726 -0.010420904 -0.79079658 0.60684294 -0.07988967 6.3972795e-05
-0.37812513 -0.31050813 -0.010209079 0.79069287 0.60697263 -0.079931147 0
0.37299809 -0.3179512 -0.015992463 -0.79078317 0.60686094 -0.079886556 0
-0.38299564 -0.30459192 -0.013483925 0.79081887 0.60681331 -0.079894006 3.8574228e-05
0.38309273 -0.30455551 -0.014168676 -0.79084337 0.60678047 -0.07990168 1.0663975e-05
0.38674578 -0.29960746 -0.012746358 -0.79084522 0.60678029 -0.079884373 0
0.39255473 -0.29245681 -0.015934158 -0.79076535 0.60688156 -0.079905897 0.00012292164
-0.39662093 -0.28709796 -0.015480861 0.79078406 0.60686076 -0.07987877 0
0.39979777 -0.283171 -0.017100107 -0.79074234 0.60691345 -0.079890937 3.5782617e-05
-0.4080441 -0.27201054 -0.013958419 0.79085296 0.60676873 -0.079895571 3.4511595e-05
0.40385544 -0.27733433 -0.012932912 -0.79077643 0.60686684 -0.079907686 0.00011045914
-0.41602093 -0.26118314 -0.010678734 0.80376917 0.59006751 -0.07599739 0.00067046029
0.41236484 -0.26670608 -0.016437992 -0.79230934 0.60471553 -0.081025362 6.4197142e-05
-0.42150185 -0.25513113 -0.018964071 0.82492256 0.55960065 -0.079686143 0.001424427
-0.41989636 -0.25626713 -0.01170093 0.81905621 0.56799763 -0.080781467 0.0013373296
0.42404118 -0.25099677 -0.012697821 -0.84867561 0.52396631 -0.072174229 0.0021387648
-0.4274652 -0.24742764 -0.019481558 0.86248428 0.49966499 -0.08034765 0.0024728363
0.42704266 -0.24600768 -0.011446682 -0.86864001 0.48965567 -0.075510107 0.0028423744
0.43001145 -0.24053055 -0.014122786 -0.89402509 0.44402939 -0.059640516 0.0013763108
-0.43178704 -0.23628213 -0.014305695 0.89323664 0.44145864 -0.085102946 0.0018956795
0.43319559 -0.23310907 -0.015391467 -0.90725821 0.41230199 -0.083004013 0.00074611983
-0.43615943 -0.22520903 -0.011835756 0.92058116 0.38233134 -0.0797057 0
0.43796796 -0.22127607 -0.013904407 -0.92002028 0.38359296 -0.080119357 0
-0.44071549 -0.21547037 -0.017854683 0.92093855 0.38142902 -0.079900466 5.9450217e-06
-0.43975598 -0.21814971 -0.019587457 0.9209488 0.38140491 -0.079898 2.3084011e-05
0.44157517 -0.21264569 -0.014277376 -0.92094696 0.38140759 -0.079906099 4.2927819e-05
-0.44506019 -0.20441177 -0.015135152 0.9209162 0.38148648 -0.079884194 0
0.44335455 -0.20813772 -0.013264335 -0.9208957 0.38152879 -0.079918191 0.00018631321
-0.44976634 -0.19253767 -0.012688326 0.92094439 0.38141736 -0.079888836 0
-0.45353508 -0.18399091 -0.015323066 0.92089653 0.38153166 -0.07989496 0
0.45353276 -0.18449152 -0.01768633 -0.92094213 0.38142344 -0.079885513 1.0608644e-06
-0.45716482 -0.17519245 -0.015153475 0.92087275 0.38158619 -0.079907946 0
0.45559311 -0.17966086 -0.018371847 -0.92095441 0.38138843 -0.079911955 0.00011928277
0.46290004 -0.16074324 -0.012273951 -0.92087966 0.38157213 -0.079896338 0
-0.46444738 -0.15750943 -0.014669617 0.9209103 0.38149923 -0.07989075 0
0.46410301 -0.15828405 -0.01439882 -0.92092615 0.38146293 -0.079881094 0
-0.47124261 -0.14099738 -0.014158923 0.93975478 0.33324072 -0.076234043 0.0013238877
-0.46917051 -0.14619732 -0.015102006 0.92583466 0.37061256 -0.07400398 0.00011619415
0.46886858 -0.14693078 -0.015123635 -0.92428946 0.37360114 -0.07817468 0.00010876892
-0.47185397 -0.13940199 -0.013588811 0.94061238 0.33030745 -0.078391925 0.0014383635
0.47277462 -0.13719022 -0.013641234 -0.94318503 0.32395551 -0.073857114 0.0016442416
-0.47861183 -0.11211602 -0.011945139 0.98057973 0.17840275 -0.081460387 0.0010742446
-0.48039225 -0.10159016 -0.016826741 0.9881357 0.13144077 -0.079442553 2.9951336e-05
-0.48124978 -0.095060818 -0.016801525 0.98826873 0.1301672 -0.079883836 0
0.48134437 -0.094281584 -0.016702771 -0.98827469 0.13012069 -0.079885677 1.9275026e-06
-0.48229721 -0.085788935 -0.014658588 0.98827565 0.1300927 -0.079919569 0.00015607671
0.48211691 -0.089476407 -0.018433845 -0.98827153 0.13013375 -0.079903707 9.9037308e-05
-0.48350501 -0.078164354 -0.017182466 0.98827749 0.13010205 -0.079881832 0
0.48539424 -0.062118605 -0.014420979 -0.98827446 0.13011082 -0.079905346 6.96512e-05
-0.48660746 -0.054339815 -0.016760567 0.98827547 0.13012166 -0.079875059 0
0.4864597 -0.054342575 -0.014937028 -0.98827505 0.13011609 -0.079888575 9.5818186e-06
-0.4880124 -0.043310929 -0.016178377 0.98827302 0.13013214 -0.07988742 4.832734e-05
0.48680359 -0.049554419 -0.011392694 -0.98827779 0.13010056 -0.079880208 1.6246644e-05
-0.48913705 -0.033167664 -0.01357161 0.98827243 0.1301301 -0.079898827 8.5802429e-05
0.48858589 -0.038813565 -0.01594818 -0.98828006 0.13007922 -0.079887129 0
-0.49062893 -0.022361726 -0.014428028 0.99117959 0.10689988 -0.078329436 0.00042065213
0.49035317 -0.025392422 -0.01595288 -0.98827475 0.13012241 -0.079882517 0
0.49188846 -0.01397354 -0.016348297 -0.99159569 0.098196082 -0.084234066 0.0005109983
-0.49255639 -0.0074704983 -0.014020082 0.99472195 0.072645858 -0.072463416 0.0011214446
0.49283203 -0.0060419068 -0.015103 -0.9952777 0.054439057 -0.080366179 0.0017975314
-0.49259773 0.0069998116 -0.013764818 0.9954437 -0.048593443 -0.082039684 0.002533972
-0.49092343 0.022734584 -0.018678507 0.9883604 -0.12965241 -0.079586305 0
-0.48857522 0.03824003 -0.014882272 0.9882732 -0.13013589 -0.079879157 0
-0.48760682 0.045823224 -0.015252749 0.98827642 -0.13010615 -0.079888202 0
0.48742607 0.048634104 -0.017594628 -0.98827273 -0.13012674 -0.079900727 0
-0.48686102 0.053424377 -0.018406168 0.98827422 -0.1301126 -0.079905376 6.1257706e-05
0.48705491 0.050173555 -0.015510376 -0.98827225 -0.13013023 -0.07990019 3.2461012e-05
-0.48485464 0.067087449 -0.015838183 0.98827922 -0.13008055 -0.079895899 0
0.48445219 0.068970241 -0.013926006 -0.98827606 -0.13010065 -0.079901852 5.8802398e-05
-0.48412442 0.072639368 -0.015846737 0.98827428 -0.13011114 -0.079905927 2.5221563e-05
-0.48113987 0.095214568 -0.015692264 0.98827779 -0.13009326 -0.079892531 0
0.4815886 0.092888035 -0.017454421 -0.98827553 -0.13010712 -0.079897702 4.547463e-05
0.48035631 0.10009677 -0.013950525 -0.98826927 -0.13015658 -0.079894759 2.3942021e-05
-0.47876549 0.11302247 -0.015321811 0.98186547 -0.17048123 -0.082923248 0.0011148138
0.47880614 0.11375028 -0.017010238 -0.9841699 -0.15788482 -0.08051122 0.00059851352
-0.47643441 0.12825903 -0.013183841 0.96135205 -0.26261389 -0.082681164 0.0026789154
0.47618836 0.12969194 -0.01718986 -0.95674998 -0.277518 -0.087253928 0.002227935
-0.47145078 0.13989684 -0.011303823 0.9368785 -0.34073347 -0.078481406 0.0012078484
0.47267932 0.1379478 -0.016159413 -0.94235265 -0.32357565 -0.085265964 0.001363302
0.46946403 0.14468534 -0.011266016 -0.92122281 -0.38069761 -0.08011131 6.7963338e-05
-0.46704194 0.15212002 -0.018844811 0.92089999 -0.38152406 -0.079891101 0
0.46521148 0.15544187 -0.013605593 -0.92092967 -0.38145292 -0.0798885 0
0.45962876 0.16989343 -0.018254839 -0.92092842 -0.38145661 -0.079885468 0
0.46195257 0.16273765 -0.010874545 -0.92094338 -0.38141978 -0.079889528 0
-0.4580729 0.17314048 -0.015823368 0.92092353 -0.3814685 -0.079885647 0
0.45753589 0.17442469 -0.015765656 -0.92090416 -0.38151443 -0.079889946 0
0.45326227 0.18484195 -0.016241856 -0.92090446 -0.38151357 -0.079890192 0
-0.44392964 0.20689213 -0.013946215 0.92086786 -0.38159645 -0.079915531 0.0001743044
-0.44171047 0.21348479 -0.01984386 0.92091846 -0.38147676 -0.079904221 7.1876035e-05
0.44078815 0.2141587 -0.012429385 -0.92091703 -0.38148546 -0.079879932 0
-0.43602517 0.22619602 -0.015000565 0.91766596 -0.39009371 -0.075604655 8.3720384e-05
0.43606913 0.22690116 -0.018874489 -0.91900635 -0.38611662 -0.079632342 5.5641442e-05
-0.43368027 0.23238657 -0.017528342 0.91046953 -0.40617472 -0.077892773 0.00085335283
0.43430361 0.23033869 -0.014936112 -0.91014045 -0.40741676 -0.07520584 0.00044550659
-0.4254145 0.24948643 -0.014819887 0.85946625 -0.50322598 -0.089896373 0.0020711715
0.42829233 0.24547152 -0.017897774 -0.86828405 -0.48925164 -0.081948869 0.0026843839
0.41880247 0.25775772 -0.012194688 -0.80215222 -0.59085101 -0.086295806 0.00046960395
0.42227158 0.25352785 -0.014405548 -0.83078367 -0.55126864 -0.076820694 0.0018237313
0.4116208 0.26752502 -0.015293205 -0.79234546 -0.60482264 -0.079863958 0
0.40822235 0.27184668 -0.014478345 -0.79089165 -0.60671979 -0.079884134 0
-0.39786488 0.28559431 -0.01637369 0.79080003 -0.60683906 -0.079884745 0
0.39692411 0.28663808 -0.014988951 -0.79078424 -0.60686064 -0.079877354 0
0.40186608 0.28071794 -0.01894144 -0.79081595 -0.60681683 -0.079896085 0
-0.38846409 0.29765621 -0.014934804 0.79080933 -0.60682672 -0.079887047 0
0.39162877 0.29302144 -0.011057016 -0.79068774 -0.60698897 -0.079858452 0
-0.38551962 0.30199111 -0.018714091 0.790775 -0.60687143 -0.0798871 6.9242829e-05
0.37987226 0.30837271 -0.011283502 -0.79078078 -0.6068626 -0.079896994 0
0.3854937 0.30130854 -0.013272707 -0.7907626 -0.60688502 -0.079906486 0.00010505584
0.37480158 0.3159087 -0.018330745 -0.79080927 -0.60682684 -0.079886228 0
-0.37055203 0.32146081 -0.018437345 0.79079854 -0.60684055 -0.079888418 0
-0.36731052 0.32493967 -0.012773959 0.79080647 -0.60683048 -0.079886109 0
0.37099591 0.32104254 -0.019654244 -0.79078025 -0.60686243 -0.079902478 6.2286403e-05
-0.36077785 0.33359164 -0.013825808 0.78024995 -0.62085778 -0.075800218 0.00044844564
-0.35646749 0.33976299 -0.018033309 0.75260377 -0.65430522 -0.07397493 0.0011231479
0.36352441 0.33006176 -0.014201799 -0.79074556 -0.60691291 -0.07986331 0
-0.35373223 0.34285337 -0.014431221 0.74115735 -0.66661805 -0.079410642 0.0016134246
0.34346166 0.35339332 -0.015696634 -0.66500813 -0.74085224 -0.094351158 0.0015751099
-0.32224655 0.36917496 -0.01077365 0.60681307 -0.79081988 -0.07988584 9.038089e-06
0.32623541 0.36637589 -0.013364198 -0.60679871 -0.79083019 -0.079892874 9.5018522e-06
0.33278418 0.36153194 -0.015157079 -0.6242317 -0.7770226 -0.081059277 0.00057173462
-0.32164818 0.37007385 -0.015126943 0.60687178 -0.79077041 -0.079929538 0.0001258018
0.32132179 0.37052286 -0.017092479 -0.60670525 -0.79089981 -0.079913907 1.9088375e-05
-0.30443057 0.38290364 -0.011347909 0.60687798 -0.79077047 -0.079882383 0
0.29642645 0.38924479 -0.013321737 -0.60689694 -0.79075515 -0.079890408 1.9048881e-05
0.30258936 0.38488358 -0.016962145 -0.6068604 -0.79078329 -0.079889193 0
-0.29136187 0.39302379 -0.012260444 0.60688072 -0.79076737 -0.079891369 8.4076775e-05
-0.28589025 0.39730492 -0.013078348 0.60677963 -0.79084468 -0.07989493 0
-0.27271879 0.40714002 -0.010388261 0.60690463 -0.79074585 -0.079923406 0.00010570503
-0.26434055 0.4139823 -0.014481243 0.59916186 -0.79675502 -0.078654759 0.00024677633
0.26671746 0.41208616 -0.013766096 -0.60008597 -0.79593772 -0.079874896 8.1858961e-05
-0.25441206 0.42120707 -0.010584632 0.56132865 -0.82318282 -0.085323788 0.0011838088
0.24281088 0.42887419 -0.011901516 -0.48057967 -0.87392884 -0.072743028 0.0019983046
-0.23483083 0.43248847 -0.015461238 0.41921577 -0.90346199 -0.089524589 0.0010221006
-0.22367999 0.4370304 -0.01457499 0.38141283 -0.92094517 -0.079902254 0
0.22493072 0.43671486 -0.016909109 -0.38274384 -0.92036372 -0.080235161 0
-0.21358655 0.44125494 -0.015078595 0.3814353 -0.92093593 -0.079900302 7.2214272e-05
-0.19617347 0.44840875 -0.014399667 0.38145241 -0.92092836 -0.079906918 9.4851159e-05
-0.19198634 0.45055071 -0.019097803 0.38145339 -0.92092735 -0.079913922 0.00015401386
-0.18625133 0.4522112 -0.010855211 0.38145375 -0.92092735 -0.079912245 0.00013292147
-0.17909059 0.45515168 -0.010560238 0.38156062 -0.92088342 -0.079907008 8.9984387e-05
-0.16344765 0.46207142 -0.015634889 0.38150743 -0.92090648 -0.079895325 4.0888393e-05
-0.1580714 0.46404052 -0.012662853 0.38143566 -0.92093515 -0.07990849 8.8414337e-05
-0.14689159 0.46869928 -0.012984902 0.36490297 -0.92735708 -0.082793139 0.0002277521
0.14905483 0.46756011 -0.010182131 -0.37593588 -0.92321658 -0.079645611 3.2833243e-05
0.16509262 0.46131098 -0.014723354 -0.38152727 -0.92089868 -0.079891466 0
-0.14164217 0.47135895 -0.018578811 0.32949796 -0.9403488 -0.084706292 0.0012840965
-0.13339263 0.47435397 -0.013713753 0.29063961 -0.95384276 -0.075581513 0.002081566
-0.12041422 0.47784203 -0.015936868 0.22336335 -0.97105354 -0.084640026 0.0017410157
-0.11738128 0.47836885 -0.017514391 0.20517968 -0.97475439 -0.088063359 0.0014567274
-0.10979468 0.47893462 -0.012157365 0.15606676 -0.98471445 -0.077333674 0.00021676757
0.11748387 0.47852653 -0.01963193 -0.18789662 -0.97864866 -0.083316267 0.0015674684
0.12611279 0.47722149 -0.017541416 -0.23003048 -0.96877223 -0.092554837 0.0026831368
0.13468626 0.47373375 -0.012741124 -0.2839866 -0.95321804 -0.10357095 0.0017940273
0.14416848 0.47022748 -0.017598949 -0.36254171 -0.92863029 -0.078799501 0.00069537462
-0.10393557 0.48016244 -0.017803926 0.13002734 -0.98828578 -0.079900339 7.3139228e-05
-0.097241461 0.48083493 -0.015221274 0.13009478 -0.98827779 -0.079889067 0
-0.067623958 0.4847782 -0.015766162 0.13010654 -0.98827535 -0.079899915 6.5921726e-05
-0.059806183 0.48573029 -0.014811409 0.13014108 -0.98827082 -0.079900153 0.0001046487
-0.045532122 0.48754007 -0.01395276 0.13010965 -0.9882763 -0.079883479 0
-0.03412807 0.48910341 -0.014719162 0.13012291 -0.9882735 -0.079896241 8.64706e-06
0.026418306 0.48997605 -0.012958694 -0.13011178 -0.98827589 -0.079886205 0
0.034653559 0.48887971 -0.01280808 -0.13010049 -0.98827666 -0.079894178 3.8625763e-05
0.046960957 0.48742574 -0.014865742 -0.13010949 -0.98827535 -0.079895362 0
0.063017011 0.48548299 -0.016981546 -0.13014407 -0.98827183 -0.079883084 0
0.079201669 0.48330086 -0.016345918 -0.13016243 -0.98826897 -0.079888918 0
0.092766315 0.48177657 -0.019581042 -0.1301108 -0.98827583 -0.079888232 0
0.10270912 0.48021033 -0.016399635 -0.13142146 -0.988069 -0.080299608 0
-0.014378658 0.49177328 -0.015583436 0.077194788 -0.99407339 -0.07654468 0.001320261
0.0033559743 0.4932332 -0.015691401 -0.018035583 -0.99718183 -0.072821982 0.0027864671
0.01938922 0.49126831 -0.017496785 -0.12215764 -0.98927754 -0.080046952 4.9859995e-05
0.021876588 0.49067402 -0.014195917 -0.12399525 -0.98894519 -0.081317678 0.00013423892
-0.019982183 -0.4904387 -0.0081992913 0.10743501 0.99115282 -0.077934079 0.00030412799
-0.0010734617 -0.49236912 -0.0012848666 -0.003280896 0.99751341 -0.070400707 0.0025829806
0.0053756926 -0.49202967 -0.0040926002 -0.030765632 0.99714512 -0.068957329 0.0027878764
0.015620196 -0.49051923 -0.0020920057 -0.10654624 0.99146324 -0.075156868 0.00040209744
0.022570128 -0.49015701 -0.0089299902 -0.12863241 0.98840517 -0.080677927 0
-0.092211649 -0.48055074 -0.0035142121 0.13013455 0.98827296 -0.079884827 0
-0.085568383 -0.48146999 -0.0040659895 0.13012418 0.98827302 -0.079900585 7.4508156e-05
-0.075226128 -0.48291844 -0.0051410417 0.13012116 0.98827463 -0.07988558 0
-0.065192327 -0.48442653 -0.0074556582 0.13010876 0.98827606 -0.079888321 0
-0.054285306 -0.4855276 -0.0033125309 0.13014272 0.98827082 -0.0798968 4.2920339e-05
-0.045509279 -0.48672271 -0.0038041803 0.13009755 0.98827744 -0.07988891 0
-0.035620108 -0.4879441 -0.0028079266 0.13009739 0.98827672 -0.079898678 4.5556655e-05
-0.024449896 -0.48950869 -0.0039709383 0.11935755 0.98931104 -0.083770417 0.0001000421
0.025731932 -0.48961282 -0.0073471619 -0.12879719 0.98841047 -0.080349527 0
0.034105267 -0.48828715 -0.0045847232 -0.1301126 0.98827606 -0.079882674 0
0.049345832 -0.48663995 -0.0090288036 -0.13010013 0.98827714 -0.0798885 0
0.064246409 -0.48419526 -0.0030542898 -0.1301022 0.98827714 -0.079885431 0
0.075022116 -0.48303282 -0.0062236944 -0.13007946 0.98827964 -0.079891779 0
0.081532232 -0.48211315 -0.0054490347 -0.13010728 0.98827606 -0.079889849 0
0.093837537 -0.48075935 -0.0087425653 -0.13014139 0.98827142 -0.079892315 9.6780186e-06
-0.13611051 -0.47275475 -0.0082559539 0.31828654 0.94274783 -0.099599548 0.0013937771
-0.12629253 -0.47633785 -0.0069025271 0.25240457 0.96327978 -0.091564856 0.0021411336
-0.11663624 -0.47737941 -0.004061061 0.18256825 0.98001558 -0.078982472 0.0010457495
-0.10084233 -0.47933802 -0.0025679423 0.13027775 0.98826313 -0.079773188 0
0.10466224 -0.47917902 -0.0068220817 -0.14313854 0.98662323 -0.078011721 1.3284041e-05
0.12256676 -0.47676742 -0.0061486848 -0.21535459 0.9727813 -0.085550629 0.0017103179
0.13363484 -0.4734503 -0.0044528451 -0.2840344 0.9547255 -0.088451944 0.0018208987
0.14108765 -0.47057182 -0.0068572499 -0.35461366 0.93130136 -0.083228394 0.00033964351
-0.1625928 -0.46135521 -0.0032965364 0.38146663 0.92092288 -0.079901703 9.0423171e-05
-0.15517381 -0.46471563 -0.0066093453 0.38151148 0.92090672 -0.079873547 0
-0.14539495 -0.4685705 -0.0043539377 0.37410739 0.92384583 -0.080947831 0
0.14423487 -0.46902317 -0.0040324535 -0.36111051 0.92867929 -0.084580548 9.3464492e-05
0.15528715 -0.46447447 -0.0043708012 -0.38146406 0.92092514 -0.079887539 0
-0.18406785 -0.45271304 -0.0062146522 0.3814559 0.9209283 -0.079890139 0
0.16800401 -0.45945275 -0.0072038714 -0.38148165 0.92091656 -0.079902619 5.5778357e-05
0.17254525 -0.45775205 -0.0092829876 -0.38150126 0.92090905 -0.079896122 0
0.18288958 -0.45342699 -0.0088181449 -0.3814162 0.92094427 -0.079894952 4.1936848e-05
-0.21227576 -0.44076389 -0.0031587631 0.38143161 0.92093849 -0.079888888 0
-0.19203818 -0.44938329 -0.005887541 0.38144228 0.92093396 -0.079890057 1.1579506e-05
0.19810086 -0.44669709 -0.0038709091 -0.3815203 0.92090112 -0.079897426 2.5297777e-05
-0.23828669 -0.43018484 -0.0054073911 0.44093916 0.8912251 -0.10625621 0.0018864746
-0.225622 -0.43531674 -0.0040928856 0.38570571 0.91884923 -0.083350047 4.6727022e-05
-0.21569312 -0.43947229 -0.0045873448 0.38146919 0.92092252 -0.07989388 1.6597802e-05
0.21696359 -0.43875045 -0.0023324406 -0.38140139 0.92095143 -0.079883821 0
0.2267489 -0.43474349 -0.0028657932 -0.3851501 0.91921431 -0.081880815 1.5423397e-05
0.23518892 -0.43146622 -0.0053867418 -0.42934978 0.89956892 -0.080215104 0.0017408293
-0.2432389 -0.42794535 -0.0032375641 0.46553937 0.88090861 -0.085282557 0.0025527687
0.2385617 -0.42977399 -0.0019841697 -0.44865301 0.89065099 -0.07383246 0.002110038
0.24569312 -0.42726895 -0.0071588065 -0.49085853 0.86810696 -0.073812075 0.0023932555
0.25344473 -0.42153138 -0.0064472696 -0.5544554 0.82818228 -0.081813149 0.0014196024
-0.25831854 -0.41732591 -0.001837898 0.57601023 0.8143006 -0.071601272 0.00066374056
0.25995511 -0.41641247 -0.0052268282 -0.57738411 0.81243539 -0.081094585 0.00086739508
0.26489878 -0.41226542 -0.0017258177 -0.60585308 0.79155201 -0.079922132 2.3890958e-05
-0.27556044 -0.40419924 -0.0028625319 0.6068933 0.7907564 -0.079904594 8.0776722e-08
-0.29198718 -0.39185756 -0.0054656416 0.60677832 0.79084367 -0.079915442 9.467089e-05
-0.28516048 -0.39737698 -0.0082486626 0.60690737 0.79075032 -0.079859294 3.491297e-05
0.28434592 -0.3976891 -0.0051512048 -0.60686922 0.79077595 -0.079894945 0
-0.30236131 -0.38336444 -0.00019169319 0.60686231 0.79078281 -0.07987874 0
-0.29697156 -0.38818797 -0.0070005618 0.60681403 0.79081851 -0.079892546 3.3707736e-05
0.29837888 -0.38712421 -0.0071603958 -0.60682845 0.79080802 -0.079886913 7.5987887e-06
0.30595273 -0.38122207 -0.0062640468 -0.606848 0.79079068 -0.079909727 9.1172915e-05
-0.31191903 -0.37611496 -0.0010278723 0.60685551 0.79078674 -0.07989163 0
-0.30800986 -0.37954235 -0.005261831 0.60686958 0.79077607 -0.079891041 0
0.30995771 -0.37781167 -0.0029257745 -0.60687619 0.79076999 -0.079900131 0
0.31733859 -0.37263399 -0.0077354675 -0.60687339 0.79076993 -0.079922684 2.6126505e-05
-0.33184668 -0.36096299 -0.0024037929 0.61984956 0.78004706 -0.085517593 0.00030058034
-0.32308924 -0.36769485 -0.0025233212 0.60695076 0.79070967 -0.079930715 4.6568319e-05
0.32399604 -0.36701441 -0.0026751207 -0.60681462 0.79081804 -0.079893529 3.2315744e-05
-0.33547246 -0.35880226 -0.008555714 0.63191485 0.77002954 -0.08796677 0.00061262486
0.33682722 -0.357575 -0.006697217 -0.64171624 0.76316071 -0.076065525 0.0013800064
0.34270534 -0.35301104 -0.006167572 -0.66856343 0.74017 -0.071911514 0.002023899
-0.35226804 -0.3437126 -0.0064635659 0.72733557 0.68315625 -0.065425292 0.0021411937
-0.34845492 -0.34842956 -0.004545839 0.7149502 0.69569808 -0.069643646 0.0022150611
0.35235393 -0.34318754 -0.0033255608 -0.74826938 0.65953702 -0.07144177 0.0014900682
0.35901144 -0.33464965 -0.004376621 -0.77462101 0.62747598 -0.078969732 0.00054726441
-0.36768115 -0.32337052 -0.0045243921 0.7907086 0.60695392 -0.079917476 0
0.36773929 -0.3232218 -0.0039700344 -0.79083061 0.60679877 -0.079889052 0
0.37002549 -0.32053158 -0.0061665624 -0.79078877 0.60685319 -0.079889745 0
0.37470564 -0.31431946 -0.0053098514 -0.79079181 0.60684454 -0.079925694 0.00010321098
-0.38283193 -0.30360663 -0.004379753 0.79079038 0.6068517 -0.079885066 2.7443233e-05
0.38169953 -0.30485585 -0.0026585311 -0.79078835 0.60685337 -0.079891823 5.9880058e-06
-0.38656813 -0.29834741 -0.0014166078 0.79073906 0.60691816 -0.07988821 5.8707308e-05
0.38881105 -0.29636979 -0.0085975211 -0.79075247 0.60690176 -0.07987944 0
-0.40011516 -0.28116554 -0.0050088372 0.79078388 0.60686201 -0.079870798 0
-0.39458799 -0.28863651 -0.007043242 0.79081434 0.60681987 -0.079889834 6.1197866e-06
-0.40534788 -0.27388823 -0.001530984 0.79078215 0.60686135 -0.079893127 9.0292042e-06
0.40176314 -0.27885944 -0.0038059894 -0.79085737 0.60676301 -0.079895154 5.9694299e-05
-0.41437125 -0.26297289 -0.0079425797 0.79211313 0.60513073 -0.079835147 1.2051297e-05
0.41161504 -0.26632628 -0.006131249 -0.79316527 0.6038081 -0.079402208 4.0811876e-05
-0.42126888 -0.25400645 -0.0081151407 0.82839882 0.55324274 -0.08762265 0.0013488057
-0.4177525 -0.25875109 -0.0093462802 0.8136757 0.57529294 -0.083485283 0.0011645157
0.41989768 -0.25532717 -0.0045742374 -0.81859213 0.56818998 -0.084065162 0.0011947013
-0.42774114 -0.24503922 -0.0094797034 0.86783892 0.48821902 -0.092183292 0.00175841
0.42916122 -0.24068193 -0.0050445758 -0.89708722 0.43462318 -0.079606265 0.0011252549
-0.43168771 -0.23423328 -0.0033771535 0.9004057 0.42836317 -0.075990483 0.0014122638
0.43092299 -0.23623857 -0.0041368562 -0.90929258 0.40847981 -0.079569414 0.00068982359
-0.43648177 -0.22362328 -0.0079793502 0.91946602 0.384783 -0.080773212 0
-0.44100267 -0.21140522 -0.0017545677 0.92089641 0.38153002 -0.079903699 6.412957e-05
0.44107702 -0.21104461 -0.00089002959 -0.92093748 0.38143438 -0.07988698 0
0.44504237 -0.20301065 -0.0082397126 -0.9208982 0.38152909 -0.079887159 3.9795774e-05
0.44648659 -0.19904298 -0.0059427717 -0.92094022 0.38142753 -0.079888545 9.152207e-06
-0.45027709 -0.18883047 -0.000874524 0.92091346 0.38149482 -0.079876132 0
0.45246598 -0.18446736 -0.0052737431 -0.92094278 0.38142139 -0.079887554 8.9014208e-07
0.45764035 -0.17200623 -0.0054211081 -0.92091793 0.3814809 -0.079890035 2.8335253e-05
-0.46082091 -0.16450682 -0.0062767807 0.92092824 0.381457 -0.07988625 0
0.46119827 -0.16337928 -0.0052430094 -0.92089748 0.38153243 -0.079879843 0
-0.46308684 -0.15860933 -0.0042374916 0.92095882 0.38138115 -0.079895191 0
0.46354997 -0.15720338 -0.0028629936 -0.92090613 0.3815088 -0.079892986 0
-0.46732795 -0.14795116 -0.0022358932 0.92221177 0.37834021 -0.079901218 2.4936566e-05
0.46821386 -0.14720555 -0.0088881962 -0.92175162 0.37931412 -0.080589749 8.4355575e-05
-0.47356507 -0.1330269 -0.0028733741 0.95294225 0.29659879 -0.062692165 0.0017725145
0.47246632 -0.13598381 -0.004326059 -0.94084239 0.33034047 -0.075437829 0.0014699552
-0.47529021 -0.12945512 -0.0057053473 0.95669341 0.2810823 -0.075698823 0.0018251351
0.47527686 -0.12867019 -0.0018031616 -0.96104634 0.26515526 -0.077991195 0.0020552808
-0.47764075 -0.11608119 -0.0063900957 0.98019719 0.18121374 -0.079843685 0.00088840647
0.47777671 -0.11369518 -0.0041858284 -0.98292637 0.16980086 -0.070876084 0.00076250167
-0.47894019 -0.10492536 -0.0042963191 0.98667574 0.14146526 -0.080365673 0.00020006238
0.47835308 -0.10948593 -0.0044603692 -0.98312187 0.16797775 -0.072490782 0.00081598584
-0.48021066 -0.094195604 -0.0025378028 0.98827845 0.13009219 -0.079886302 0
-0.47991216 -0.096786447 -0.0030649337 0.98827946 0.13007781 -0.07989721 3.1142634e-05
0.47981727 -0.097627506 -0.0032609222 -0.98812985 0.13113528 -0.080017693 0
-0.48188883 -0.081022196 -0.0018433072 0.98827261 0.13013038 -0.079895586 3.5141045e-05
0.48099351 -0.08803165 -0.0021834634 -0.98827428 0.13012242 -0.079888411 0
0.48268661 -0.076541334 -0.0044151093 -0.98827392 0.1301266 -0.079886131 0
-0.48420301 -0.065242991 -0.0047727269 0.98827302 0.13012572 -0.079898499 5.0376959e-05
0.48393357 -0.065729186 -0.0022314638 -0.98827589 0.13009927 -0.079905502 0.0001104619
-0.4860937 -0.054013364 -0.0098729962 0.98827529 0.13011701 -0.079884447 0
0.48496506 -0.057881311 -0.002210513 -0.98827595 0.13010955 -0.079887643 0
-0.48720109 -0.041983873 -0.0039808159 0.98827404 0.13012514 -0.079887487 0
-0.48803243 -0.035716832 -0.0040583299 0.98826945 0.13014542 -0.079909898 0.00015113293
0.48772275 -0.035806339 -0.00037325174 -0.98827374 0.13011646 -0.079904683 9.6063399e-05
-0.48921543 -0.024499657 -0.00042416481 0.98826981 0.1301439 -0.079908662 0.00011672242
0.48914516 -0.029167118 -0.0071567111 -0.98827755 0.13010143 -0.079882428 0
-0.49144661 -0.010440791 -0.0051289303 0.9931255 0.089244202 -0.075744219 0.00088763505
-0.49227637 -0.003094729 -0.0034292403 0.9946183 0.068732731 -0.077526331 0.00096913707
-0.49217141 0.0061604739 -0.0071242005 0.99642563 -0.041731756 -0.073446371 0.0026044871
0.49148688 0.0072724465 -0.00046707131 -0.99494272 -0.066525228 -0.075255476 0.0010622751
0.49055409 0.017870538 -0.0061880169 -0.99017096 -0.1162714 -0.077734038 0.00025016983
-0.48921666 0.028342513 -0.0066984021 0.98826951 -0.13014176 -0.079916075 0.00013155708
-0.48825783 0.0358277 -0.0070273937 0.98827177 -0.13013645 -0.079897173 7.1336486e-05
0.48767966 0.037916679 -0.0032771849 -0.98827201 -0.13013402 -0.079897374 3.4776815e-05
0.48675305 0.045457698 -0.004096346 -0.98827153 -0.13013691 -0.079897411 8.0278638e-05
-0.48622012 0.052256793 -0.0085765235 0.98827219 -0.13013525 -0.079893894 4.257559e-05
0.48541477 0.056693807 -0.0058400356 -0.98827827 -0.13008884 -0.079893373 0
-0.4842813 0.06362927 -0.0031134796 0.98827124 -0.13014594 -0.079886764 1.0288557e-05
0.48391306 0.068707138 -0.0068280404 -0.98827887 -0.13008504 -0.079892337 1.363605e-05
-0.48267734 0.0774327 -0.0057517597 0.98827648 -0.1301017 -0.079894453 1.4758864e-05
0.48266333 0.076101676 -0.0034112018 -0.98827499 -0.13011676 -0.079888187 0
-0.48209363 0.084184505 -0.0095270304 0.98827022 -0.13014017 -0.079908505 0.00012360464
0.48139855 0.084577367 -0.0015687817 -0.9882707 -0.1301444 -0.079896949 3.7079768e-05
-0.48022366 0.094533786 -0.0032496024 0.98827899 -0.13008048 -0.079899073 6.4585191e-05
0.48080245 0.09133999 -0.0052081896 -0.98827589 -0.13011016 -0.079888575 0
-0.47925258 0.10159159 -0.0027311256 0.98780292 -0.1339903 -0.0793228 7.8482823e-05
0.47885442 0.10748453 -0.0074030128 -0.98670042 -0.14044353 -0.081840493 0.00028448144
-0.4773038 0.11720499 -0.0040521724 0.97982258 -0.18334885 -0.079566792 0.0015986864
0.47785008 0.11545128 -0.0079540173 -0.98236287 -0.16752669 -0.08305373 0.00070388557
-0.47568694 0.12864187 -0.0063958364 0.95694131 -0.27879006 -0.080866635 0.0028511672
0.47579074 0.12691663 -0.0011512265 -0.9636451 -0.25705683 -0.072869755 0.0021110009
-0.47245571 0.13595355 -0.0040593985 0.94366735 -0.3175253 -0.093110509 0.0019329468
0.47378638 0.13279852 -0.0043343632 -0.95448709 -0.28934607 -0.072341278 0.0022446748
-0.47067636 0.14083809 -0.0068711452 0.92920774 -0.36001825 -0.083425947 0.00067588652
-0.46733737 0.14757276 -0.000537185 0.92279893 -0.37627998 -0.082797684 3.3429998e-05
0.46733737 0.14844874 -0.0047208695 -0.92120898 -0.38073167 -0.080108956 7.5037504e-05
-0.4653244 0.15276234 -0.0021128375 0.92159766 -0.37972793 -0.080402493 0.00010627817
-0.46093419 0.16327401 -0.0016960567 0.92091739 -0.38148084 -0.079896674 7.774603e-05
-0.459052 0.16828842 -0.0039426745 0.92088753 -0.38155341 -0.079895027 0.00020781846
0.46038994 0.1643151 -0.00039344374 -0.92086595 -0.38160503 -0.079896972 0
-0.45819724 0.17127047 -0.0083277896 0.92093658 -0.38143539 -0.079892382 0
0.45608202 0.17577896 -0.005471671 -0.92090923 -0.38150242 -0.079888716 0
0.45173815 0.18616128 -0.0049719554 -0.92086565 -0.38160327 -0.079908118 0.00016121961
-0.44794884 0.19610114 -0.0087520359 0.92089814 -0.38153073 -0.07988061 0
0.44962278 0.19130409 -0.0051432773 -0.92088473 -0.38155904 -0.079900585 0
-0.44178259 0.20926948 -0.00054726563 0.92089784 -0.38152903 -0.079892822 0
0.44409832 0.20491958 -0.0064721308 -0.92092323 -0.3814683 -0.079889268 0
-0.44146764 0.21067151 -0.0036115008 0.92089254 -0.38153914 -0.079904921 8.6229498e-05
-0.43527013 0.22556269 -0.0032725008 0.91642171 -0.39291078 -0.076107159 0.00032033544
0.4371393 0.22122259 -0.0040965448 -0.91951072 -0.38481137 -0.080126286 4.9362476e-05
-0.4303689 0.23723163 -0.0024907794 0.89645821 -0.43571278 -0.080728464 0.0016620578
0.43315756 0.23132476 -0.0064330236 -0.91307539 -0.40064406 -0.076011188 0.00052457565
-0.42828032 0.24295479 -0.0057420488 0.86847323 -0.48641786 -0.095665127 0.002097233
0.42565125 0.24749605 -0.0035101229 -0.86793625 -0.4889845 -0.087068021 0.0023105466
-0.4223029 0.25238907 -0.0060662273 0.83981729 -0.53540063 -0.089739643 0.0022520558
0.41817793 0.25774214 -0.0058934768 -0.80709052 -0.58416796 -0.085748307 0.00050078181
-0.41403797 0.26240265 -0.00031235255 0.80440027 -0.58853889 -0.081007719 0.00047177912
0.41569811 0.26031479 -0.00088787638 -0.80701631 -0.58427238 -0.085734494 0.00048718927
-0.40501684 0.27460885 -0.0037275809 0.79073924 -0.60691363 -0.07992091 4.2096879e-05
0.40610072 0.27309611 -0.0029664673 -0.79077381 -0.60687315 -0.079886131 0
-0.40051317 0.28104079 -0.0080014076 0.79079705 -0.60684144 -0.079896174 1.4203435e-05
-0.39838701 0.28406626 -0.0099351015 0.79075611 -0.60689533 -0.079892822 0
0.3970876 0.28559068 -0.0086516496 -0.79067552 -0.60701048 -0.079814725 0
0.39097968 0.29312444 -0.0054140128 -0.79084659 -0.60677594 -0.07990431 2.1012351e-05
-0.38175666 0.30488211 -0.0034239586 0.79078162 -0.60686415 -0.079877786 0
-0.37868088 0.30901504 -0.0043693706 0.79076558 -0.6068837 -0.079886593 0
0.38099471 0.30560735 -0.0013900599 -0.79080617 -0.60682994 -0.079893142 0
-0.37177709 0.31775042 -0.0023809113 0.79083335 -0.60679269 -0.079907313 0.00012089859
0.3732366 0.31570029 -0.0012559134 -0.79077888 -0.60686439 -0.079901934 0
-0.36757109 0.32321978 -0.0022894293 0.79081392 -0.60681778 -0.079908766 0.00010580204
0.365219 0.32688332 -0.0068333251 -0.79084557 -0.60677701 -0.079905532 1.2669806e-05
-0.3618927 0.33137625 -0.0080340002 0.78970546 -0.60823518 -0.080095135 0.00011346097
-0.35889637 0.33545375 -0.0093451226 0.7695663 -0.63356775 -0.079746991 0.00083255424
0.35862699 0.33507326 -0.0037885862 -0.77471477 -0.62788016 -0.07472197 0.00056408084
-0.35133362 0.34435922 -0.0021253154 0.74350226 -0.66524136 -0.068252228 0.0015537307
-0.34746113 0.34916767 -0.0042463392 0.70155782 -0.71032959 -0.056994915 0.0016652865
0.35061386 0.34515625 -0.0010542721 -0.71385336 -0.69805706 -0.055943731 0.001862717
