# .PCD v0.7 - Point Cloud Data file format
VERSION 0.7
FIELDS x y z normal_x normal_y normal_z curvature
SIZE 4 4 4 4 4 4 4
TYPE F F F F F F F
COUNT 1 1 1 1 1 1 1
WIDTH 564
HEIGHT 1
VIEWPOINT 0 0 0 1 0 0 0
POINTS 564
DATA ascii
-0.12236944 -0.015275702 -0.49990734 -0.017301058 0.0007131382 0.99985009 0.00045321268
-0.11346439 -0.016145885 -0.49967638 -0.04796144 -0.0028493649 0.9988451 0.00045187658
-0.10464752 -0.011764968 -0.4990553 -0.084365867 -0.0035450601 0.99642849 0.00049974443
-0.094091363 -0.013906077 -0.49817669 -0.10756751 -0.012937886 0.99411356 0.00035902858
-0.085204855 -0.014449938 -0.49684197 -0.12606624 -0.016027845 0.99189234 0.00038646124
-0.075483762 -0.015962658 -0.49523523 -0.18382706 -0.045555439 0.98190242 0.0040091281
-0.065902695 -0.015386833 -0.49445438 -0.25946388 -0.053255491 0.96428329 0.0095372433
-0.058453113 -0.013244212 -0.49266475 -0.39339241 -0.045522355 0.91824293 0.018858006
0.058888637 -0.016323548 -0.49313548 0.38860786 -0.10554566 0.91533828 0.017165016
0.063856773 -0.012543974 -0.49436021 0.29570588 -0.028487591 0.95485413 0.0116913
0.073000349 -0.017510179 -0.49485812 0.22138236 -0.054581895 0.97365838 0.0075386264
0.082137391 -0.011550964 -0.49625993 0.15270571 -0.024906129 0.98795784 0.001197785
0.11734742 -0.016180914 -0.49998727 0.021877894 -0.0026344024 0.99975717 0.00023725306
0.12440255 -0.015631389 -0.49987343 0.0070793442 -0.00073822343 0.99997467 0.00042438373
0.1344465 -0.012563653 -0.49971628 -0.043295871 0.0011524528 0.9990617 0.00040050823
0.15561767 -0.016225036 -0.49791867 -0.13033877 0.015774108 0.99134403 0.00031879329
0.16680424 -0.016895054 -0.49634746 -0.17693342 0.023421755 0.98394412 0.00036954239
0.17033289 -0.013859228 -0.49571401 -0.18398505 0.022310665 0.98267579 0.00017962279
0.1815197 -0.016158452 -0.49338782 -0.22530887 0.026727784 0.97392064 0.0003249892
0.19223291 -0.015045098 -0.49066564 -0.25950518 0.021292336 0.96550697 0.00041838177
-0.19255126 -0.0051390845 -0.4909614 0.26290229 0.0069857668 0.9647972 0.0005020923
-0.18506417 -0.0081184302 -0.49288452 0.24444392 0.013932873 0.96956331 0.00024326138
-0.17736317 -0.0075004012 -0.49446011 0.21265392 0.013423303 0.97703534 0.00034658809
-0.16348353 -0.0010798961 -0.49728182 0.15071607 0.0032788569 0.9885717 0.00046379759
-0.15312536 -0.0024485034 -0.49838564 0.11213597 0.0034200838 0.99368703 0.00045751504
-0.14552733 -0.0052122185 -0.49914995 0.073645219 0.0015961787 0.99728322 0.00046028176
-0.13502038 -0.0065860599 -0.49971977 0.044242218 0.0036878032 0.99901402 0.00046184345
-0.12430607 -0.0010593389 -0.49990627 -0.0086765271 0.0011128295 0.99996173 0.00051034865
-0.11918081 -0.0091075758 -0.49997255 -0.021706389 -0.0033445249 0.99975878 0.00050845114
-0.10630693 -0.0031358516 -0.49909487 -0.069839038 -0.00039390652 0.99755818 0.00062256883
-0.095025584 -0.0050991056 -0.49810195 -0.10316075 -0.0068242447 0.9946413 0.00037533505
-0.081160508 -0.005500955 -0.49596071 -0.15929277 -0.015704434 0.9871065 0.001365426
-0.074440777 -0.0034160246 -0.49478054 -0.24895452 -0.0013214858 0.96851432 0.0089379931
-0.063689239 -0.0056225788 -0.49379864 -0.34804228 -0.028709387 0.93703914 0.016636809
-0.057289809 -0.00090082514 -0.49104935 -0.45388556 0.00018541991 0.89105994 0.021022543
0.05750183 -0.0019137288 -0.49134609 0.40237251 0.0084302798 0.91543722 0.017793
0.06416247 -0.0049249977 -0.49416584 0.32710135 -0.012529914 0.94490623 0.011021751
0.07466799 -0.0042116004 -0.49483654 0.22444341 0.0051912321 0.9744733 0.0078077326
0.084027447 -0.0064998176 -0.49646664 0.13299471 -0.010872718 0.9910571 0.0004205046
0.094438195 -0.0045430954 -0.49812478 0.10988775 -0.0022731407 0.99394143 0.00019132621
0.10238273 -0.00012426972 -0.49876833 0.087746106 0.0010183692 0.99614239 0.00069110468
0.11186522 -0.005458686 -0.49953806 0.059441593 0.0009227168 0.99823141 0.00065254257
0.12374055 -0.0051841796 -0.49990666 -0.0018059127 -0.0026638391 0.99999487 0.00054702465
0.1338709 -0.0047945511 -0.49974236 -0.036697127 -0.00022691717 0.99932635 0.00023323897
0.14776129 -0.0072968588 -0.49889815 -0.085941024 0.0049140975 0.99628812 0.0003144886
0.15291566 -0.0031955689 -0.49839771 -0.10108569 -0.0023157701 0.99487495 0.00049083732
0.16538493 -0.0042344737 -0.49684277 -0.16749349 0.0052302135 0.98585933 0.00037369441
0.17472816 -0.0025916507 -0.49512446 -0.18678167 0.0049412083 0.98238903 0.00038390083
0.18467325 -0.0034937311 -0.49306735 -0.23008566 0.0013088873 0.97316951 0.00029492631
0.19136439 -0.0050656856 -0.49132037 -0.2553339 0.0069053932 0.96682829 0.00031251143
-0.18624201 0.0030583781 -0.49278095 0.23752768 -0.00040832325 0.97138071 0.00040275362
-0.1766004 0.0057558557 -0.49466106 0.20429538 -0.012613585 0.97882795 0.00046060258
-0.1575585 0.0049764751 -0.49786878 0.13025628 -0.0064097089 0.99145967 0.00059987255
-0.14441976 0.0056895111 -0.49928349 0.075963266 -0.0049569765 0.99709821 0.00059228693
-0.13089073 0.008692313 -0.49978256 0.032123018 -0.0027758472 0.99948007 0.0008049485
-0.12362514 0.0053803809 -0.49990812 -0.010644395 0.0040304316 0.99993521 0.00046119626
-0.11794207 0.0032215039 -0.49997506 -0.023607286 0.0017457961 0.9997198 0.00037916907
-0.10044155 0.0017462284 -0.4986378 -0.095870689 0.00032105434 0.99539369 0.00061315688
-0.09600842 0.0062274085 -0.49834204 -0.1026546 0.011312325 0.99465269 0.00036089509
-0.08487758 0.0067561716 -0.49661577 -0.14528121 0.0093390606 0.98934633 0.0007328451
-0.074223742 0.0041465815 -0.49486145 -0.21270871 0.013866954 0.97701728 0.0060964217
-0.06499479 0.0048092376 -0.49411985 -0.33818209 0.053615339 0.93955219 0.015633326
-0.057015285 0.0066922903 -0.49129212 -0.4586269 0.075112619 0.88544875 0.019649601
0.059422188 0.0069699064 -0.49273351 0.36532342 0.067453958 0.92843348 0.01680862
0.066631667 0.0036226702 -0.49447113 0.26788956 -0.00090200081 0.96344924 0.0094857169
0.079700321 0.0050489195 -0.49570426 0.14700872 0.0073258462 0.98910809 0.0010792926
0.084762365 0.0043398384 -0.49654266 0.13463141 0.0052385377 0.99088192 0.00036079591
0.10739838 0.0052557811 -0.49919844 0.070888586 0.014818599 0.99737418 0.00076288334
0.11537078 0.0060275067 -0.49976933 0.032199655 0.0027662702 0.99947762 0.00044633492
0.12780397 0.0053576031 -0.49984002 -0.018771555 -0.0024632325 0.99982083 0.00056639436
0.13011897 0.0088430932 -0.49979484 -0.021541676 -0.0030086162 0.99976337 0.00062312419
0.14926922 0.0086831655 -0.49871483 -0.095551245 -0.0014544365 0.99542344 0.00032022808
0.15567206 0.00038847406 -0.49813884 -0.11863621 -0.0024798824 0.9929347 0.00044698923
0.16338435 0.004585878 -0.49722463 -0.15813497 -0.0068781096 0.98739356 0.00012749755
0.17539378 0.0069782273 -0.49487278 -0.19909559 -0.01281211 0.97989637 0.00030337952
0.18379612 0.0063011055 -0.49318972 -0.22760627 -0.011454318 0.97368592 0.00037467974
-0.19382042 0.01265167 -0.49028388 0.27571782 -0.021897001 0.96098918 0.00045198869
-0.18284877 0.017077368 -0.49309427 0.2237422 -0.022545353 0.97438759 0.00035184849
-0.1730381 0.012781695 -0.49519497 0.1887003 -0.01856423 0.98185921 0.00034592586
-0.16601405 0.016254576 -0.49652448 0.16570464 -0.018397573 0.98600376 0.00039408624
-0.15424091 0.016667988 -0.49806166 0.12246577 -0.016382679 0.99233747 0.00061248004
-0.14426228 0.014906154 -0.49916899 0.074363545 -0.0059275767 0.9972136 0.00041179292
-0.13525949 0.014885666 -0.49969506 0.05062896 -0.0057176338 0.99870116 0.00027809295
-0.12454218 0.01692779 -0.49986839 0.0062660696 3.4181718e-05 0.99998039 0.00040619806
-0.11995125 0.010399064 -0.49995723 -0.019179538 0.0011384644 0.9998154 0.00059087132
-0.10445908 0.0169963 -0.49909315 -0.075129554 0.014388978 0.99706995 0.00042258683
-0.092946514 0.014093209 -0.49813366 -0.11397277 0.015315815 0.99336582 0.00037390745
-0.082689293 0.015987467 -0.49645162 -0.13448334 0.028502766 0.99050581 0.00037920848
-0.076541357 0.013630357 -0.49536359 -0.18637334 0.041212238 0.98161423 0.0029090361
-0.060770996 0.010669539 -0.49361593 -0.3487812 0.07087113 0.93452078 0.01709716
-0.057669722 0.01369299 -0.49239978 -0.38463706 0.086270459 0.91902763 0.020479307
0.056596197 0.016042054 -0.49190602 0.36660802 0.075912245 0.92727339 0.014393762
0.064371213 0.014250331 -0.49418101 0.29595655 0.06188675 0.95319456 0.01195821
0.074295446 0.01821048 -0.49508464 0.18533704 0.031491205 0.98217028 0.002689681
0.085010439 0.010674844 -0.49672526 0.13387378 0.017933555 0.99083614 0.0004333604
0.096477777 0.016766913 -0.49848765 0.1053353 0.02250077 0.99418211 0.00047128295
0.10365 0.011754523 -0.49897984 0.078842156 0.02443555 0.99658751 0.00061110558
0.11435506 0.016172349 -0.49983281 0.030718993 0.0035161122 0.99952185 0.0003762038
0.12539768 0.010999018 -0.49986717 -0.0044765295 -0.0052399826 0.99997628 0.00053942308
0.1346519 0.014290603 -0.49970928 -0.047433093 -0.0034144591 0.99886858 0.00040565676
0.14419813 0.016409894 -0.49915448 -0.074513666 -0.0055113873 0.99720478 0.00048996112
0.15312091 0.01644716 -0.49818623 -0.10747146 -0.0085833212 0.99417108 0.0004335522
0.16404822 0.014557439 -0.49689832 -0.15837866 -0.018556142 0.98720407 0.0003956666
0.17326486 0.016310178 -0.49505505 -0.18652731 -0.023622662 0.98216581 0.00035399041
0.18377407 0.012963412 -0.49301076 -0.23147437 -0.020580495 0.97262329 0.00037068702
0.1919044 0.014852565 -0.4907718 -0.2680144 -0.025634389 0.96307379 0.00033816762
-0.19223814 0.024685999 -0.49028325 0.26716426 -0.02914715 0.96321005 0.00062546361
-0.18600389 0.022281077 -0.49213988 0.24412844 -0.028940782 0.96931094 0.00022932886
-0.17660594 0.02597384 -0.49412107 0.21158847 -0.031023003 0.97686636 0.00063806295
-0.16483119 0.026539989 -0.49648988 0.16553184 -0.028231876 0.98580027 0.00035683825
-0.15622506 0.024143187 -0.49773973 0.13528831 -0.022163311 0.99055833 0.00048938888
-0.1444585 0.027472988 -0.4989683 0.076987922 -0.01127407 0.99696833 0.00034366656
-0.13746683 0.020940203 -0.49964911 0.063576281 -0.0072554266 0.99795061 0.00035192768
-0.12489528 0.028878387 -0.49983698 0.017106561 -0.0088740075 0.99981427 0.00019800804
-0.11804444 0.027046621 -0.49995258 -0.011725658 0.0016951971 0.99992979 0.00038404207
-0.10556462 0.025255322 -0.4992747 -0.05824665 0.016521443 0.99816549 0.00056189188
-0.093873195 0.024941418 -0.49839985 -0.099498965 0.028579816 0.99462712 0.00044190159
-0.084406681 0.024088714 -0.49698454 -0.12380339 0.029675331 0.99186295 0.00014904753
-0.071927115 0.026174072 -0.49515814 -0.16598038 0.053621847 0.9846701 0.0024346558
-0.065546751 0.025493983 -0.49452719 -0.20963739 0.079481572 0.97454345 0.0058527812
-0.057638884 0.025546214 -0.49385428 -0.30502424 0.14047387 0.94192749 0.014523474
0.052465182 0.020362558 -0.49048311 0.42824766 0.15632281 0.89003772 0.018336769
0.063406885 0.025340931 -0.49461204 0.257828 0.093503699 0.96165574 0.010740343
0.07249672 0.020114243 -0.49485302 0.19823174 0.050672192 0.9788444 0.00574345
0.087240398 0.024889365 -0.49748912 0.11351947 0.03429478 0.9929437 0.00028672974
0.10502454 0.024871243 -0.4992142 0.049913876 0.017854197 0.99859393 0.00045415512
0.11609605 0.023062453 -0.49998075 0.029410487 -0.0014389206 0.99956638 0.00039823953
0.13347018 0.024183266 -0.49970731 -0.037327383 -0.014421846 0.99919903 0.00046240253
0.14617908 0.026051145 -0.49880195 -0.10069941 -0.012464366 0.99483877 0.00058223057
0.15661301 0.022496473 -0.49772117 -0.13039719 -0.017386688 0.99130934 0.00059063639
0.16483694 0.027450565 -0.49646443 -0.17521507 -0.02708317 0.98415762 0.00037655831
0.1750152 0.023573523 -0.4945071 -0.20451686 -0.029906414 0.97840613 0.00044048749
0.18298829 0.022784017 -0.492879 -0.23379429 -0.028073706 0.97188079 0.00026635002
0.19132507 0.029445343 -0.4903692 -0.27732557 -0.033142649 0.96020418 0.00049145514
-0.19110177 0.035739228 -0.49018759 0.27177158 -0.04596829 0.9612633 0.00058813341
-0.18178706 0.033420894 -0.49287355 0.22162358 -0.038409673 0.97437555 0.00033117837
-0.17759724 0.032903057 -0.49373567 0.21640284 -0.035694622 0.97565144 0.00014952931
-0.16596769 0.03829224 -0.49594653 0.18000145 -0.041381773 0.9827956 0.00046245745
-0.15356591 0.035315759 -0.4978686 0.12597288 -0.025969861 0.99169374 0.00038128119
-0.1417571 0.0395201 -0.49904686 0.084285766 -0.021977838 0.99619931 0.00065856148
-0.13425659 0.032798272 -0.49966177 0.039694414 -0.010393014 0.99915779 0.00028500881
-0.12276249 0.031630486 -0.49986568 0.0027742086 -0.0058532297 0.99997896 0.00033155392
-0.11503088 0.034970999 -0.49985155 -0.021304218 0.0031178687 0.99976814 0.00046482036
-0.10389956 0.034916092 -0.49936518 -0.059134882 0.022223387 0.99800259 0.00079497934
-0.099451318 0.03769153 -0.49913284 -0.067454539 0.035314657 0.99709713 0.00039863682
-0.085672773 0.036340922 -0.49791631 -0.10073906 0.043943789 0.99394196 0.00034872422
-0.074186549 0.035180379 -0.49609995 -0.13562161 0.062949285 0.98875898 0.0015713321
-0.064171538 0.032536481 -0.49465951 -0.19252604 0.091467753 0.97701967 0.0062484173
-0.055726837 0.032173045 -0.49408761 -0.29021358 0.12286498 0.94904172 0.014086077
-0.04790853 0.035884947 -0.49264461 -0.31177542 0.20726284 0.92727464 0.015469329
0.048283391 0.034302983 -0.49242544 0.34570801 0.19089375 0.91871953 0.019856231
0.050359204 0.038835071 -0.4941029 0.24688937 0.18058829 0.95206797 0.011677169
0.066755675 0.036218628 -0.49499917 0.17354356 0.11702959 0.97784799 0.0056063728
0.074841253 0.032982219 -0.49605975 0.13359663 0.060748938 0.9891721 0.00069669948
0.08981961 0.03437414 -0.49835777 0.1102306 0.045442183 0.99286664 0.00029504838
0.094816096 0.030742163 -0.4986037 0.11137928 0.039308563 0.99300021 0.00030076483
0.10681664 0.03245604 -0.49949881 0.036951087 0.0090266084 0.99927634 0.00026991311
0.12453072 0.036006995 -0.49981672 -0.023599628 -0.0086253844 0.99968427 0.00043927549
0.13239628 0.031535693 -0.49970901 -0.039192643 -0.012565615 0.99915266 0.0006409635
0.14660408 0.034431927 -0.49863625 -0.10256591 -0.023891332 0.99443924 0.00034947004
0.15487863 0.03545253 -0.49772429 -0.12324349 -0.026535256 0.99202162 0.00044994301
0.17341501 0.036885876 -0.49447623 -0.19687934 -0.038681675 0.97966439 0.00028747978
0.1856484 0.033275291 -0.49189511 -0.24386799 -0.040569957 0.96895951 0.00019029819
0.19118311 0.036143046 -0.49014723 -0.26702109 -0.044375163 0.96266848 0.00055947731
-0.18536167 0.046338033 -0.49147534 0.24078356 -0.058594849 0.96880847 0.00046918841
-0.17796493 0.040744681 -0.49345219 0.21896461 -0.047935892 0.97455466 0.00029011583
-0.14373635 0.044461403 -0.49863997 0.09882848 -0.027595047 0.99472177 0.0003415294
-0.1311039 0.041367412 -0.49968308 0.036440846 -0.018480254 0.99916488 0.00035135826
-0.12788004 0.044183046 -0.49971437 0.027172821 -0.013287063 0.99954242 0.00057598262
-0.11020537 0.043497033 -0.49998719 -0.024604226 0.0085308477 0.99966085 0.00030564211
-0.10769007 0.042488016 -0.49985296 -0.034532167 0.020011671 0.99920321 0.00050885271
-0.094732076 0.04294093 -0.49895361 -0.085927635 0.034005016 0.99572092 0.00062100112
-0.088420473 0.04498351 -0.49856874 -0.094606511 0.052661519 0.99412084 0.00027781367
-0.073852159 0.041103188 -0.49643311 -0.1129822 0.060332581 0.99176359 0.00032338663
-0.063059159 0.047470327 -0.49557644 -0.1179599 0.088518068 0.98906523 0.0008818286
-0.03740906 0.046638973 -0.49270964 -0.31553251 0.26638016 0.91075838 0.014080652
0.033899557 0.048669703 -0.49227118 0.23246077 0.33747047 0.91218179 0.01730795
0.04699561 0.045115303 -0.4941113 0.21678777 0.22024973 0.95104849 0.012851001
0.054282583 0.044431001 -0.49446899 0.24141517 0.18893382 0.95185226 0.011798812
0.065964982 0.045404013 -0.49575472 0.12669286 0.087932587 0.98803687 0.00142719
0.072565585 0.049604781 -0.49708116 0.10671452 0.067802094 0.99197525 0.00033763066
0.087323219 0.045710281 -0.49851394 0.089767873 0.051260006 0.99464267 0.00070153363
0.095016934 0.045609429 -0.49905148 0.071900725 0.029072037 0.99698806 0.00071205769
0.10318205 0.043456506 -0.49956375 0.041009929 0.018364418 0.99898994 0.00014545477
0.12888321 0.042766169 -0.49970806 -0.039477818 -0.013794512 0.99912518 0.00037204745
0.13835561 0.044574764 -0.49917904 -0.079263143 -0.029325524 0.99642235 0.00040434132
0.1491565 0.041000374 -0.49823707 -0.11701305 -0.035597887 0.9924922 0.00055109564
0.15525492 0.044267502 -0.49748406 -0.13787599 -0.041869447 0.98956412 0.0005731766
0.16335264 0.045540608 -0.49617815 -0.17331785 -0.048674285 0.98366237 0.00064752443
0.17437626 0.044956166 -0.49406654 -0.20974529 -0.052328974 0.97635478 0.0005061315
0.18481803 0.046048276 -0.49162093 -0.25358272 -0.055564865 0.96571648 0.00052541401
-0.17638955 0.059281077 -0.49265829 0.2340892 -0.080124334 0.96890783 0.0001307621
-0.16422001 0.052216087 -0.49550629 0.17451936 -0.059564266 0.98285049 0.00024104555
-0.15753676 0.055276718 -0.49652797 0.1632888 -0.059119597 0.98480541 0.0002751431
-0.14348018 0.055718951 -0.49819463 0.11764452 -0.042610329 0.99214113 0.00025456911
-0.13867898 0.053556476 -0.49877036 0.092425913 -0.032756086 0.99518067 0.00036512653
-0.1286467 0.057704285 -0.49961057 0.063562445 -0.023421694 0.99770296 0.00054512196
-0.10839562 0.053368982 -0.49995255 -0.01853743 0.0066830269 0.99980587 0.00030801294
-0.097176507 0.052671295 -0.49940962 -0.060914155 0.024275457 0.9978478 0.00057774724
-0.085622594 0.057938688 -0.49889615 -0.068348654 0.041453976 0.99679989 0.00045838594
-0.074025765 0.05376453 -0.49770927 -0.093208984 0.071125276 0.99310285 0.0002652359
-0.06890966 0.059586376 -0.49762166 -0.086623825 0.069014847 0.99384773 0.0002593695
-0.056983631 0.056140248 -0.49567279 -0.12104214 0.10309806 0.98727894 0.0019271708
-0.045559689 0.05201868 -0.49455363 -0.2107337 0.21165307 0.95435542 0.012784412
-0.034277935 0.056872658 -0.49455774 -0.25130108 0.28657874 0.92451084 0.01552391
-0.028655523 0.053563874 -0.49303845 -0.18948355 0.34324861 0.91993284 0.017352968
0.012757762 0.059136517 -0.49296242 0.12549236 0.37948683 0.91664684 0.014790192
0.024810692 0.053226363 -0.49202177 0.18874848 0.37203205 0.90882683 0.015628809
0.045219541 0.053716723 -0.49467528 0.17193857 0.19051866 0.9665091 0.0087934965
0.05504635 0.054930471 -0.49534738 0.11412961 0.121672 0.98598695 0.0014792437
0.062338054 0.054216325 -0.496178 0.10106326 0.089791432 0.99081969 0.00022968593
0.072517172 0.05306346 -0.49743295 0.095762834 0.074046224 0.99264628 0.00038149746
0.084187225 0.056496028 -0.4987424 0.077813894 0.052721798 0.99557292 0.00071958557
0.09195444 0.05629199 -0.49920267 0.06442029 0.031616613 0.99742192 0.00070489018
0.10413492 0.051639721 -0.49986956 0.018819522 0.013040699 0.99973786 0.00019298696
0.11307637 0.055086669 -0.49987066 -0.0065839496 -0.002351057 0.99997556 0.00050298945
0.13340257 0.056074224 -0.4991982 -0.06172967 -0.02666826 0.99773657 0.00017906903
0.14118549 0.058036681 -0.49832952 -0.098345831 -0.036970925 0.99446529 0.00043041885
0.15421151 0.056382824 -0.49689457 -0.14669599 -0.059214219 0.98740768 0.00041658123
0.16909084 0.055333398 -0.49434376 -0.19735242 -0.067244932 0.97802353 0.00051152526
0.17612466 0.056838304 -0.49288487 -0.23309866 -0.077844895 0.9693324 0.00048523658
0.1838354 0.050532047 -0.49168625 -0.24563333 -0.064476915 0.96721607 0.00067234191
-0.18170796 0.063666254 -0.49076003 0.24809438 -0.095274419 0.96403939 0.00052024348
-0.17879505 0.066496894 -0.49124658 0.24690385 -0.097118445 0.96416104 0.00049230206
-0.15754804 0.06476368 -0.49578449 0.16532306 -0.060797598 0.98436373 0.00035575271
-0.14221738 0.067354642 -0.49783516 0.11746462 -0.052822717 0.99167126 0.00036834314
-0.13882436 0.065188408 -0.49826875 0.1108501 -0.052761298 0.99243563 0.00032050695
-0.12715477 0.065649308 -0.49942878 0.067967348 -0.038080014 0.99696052 0.00021991909
-0.11204716 0.065180153 -0.49981332 0.014251786 -0.0062900344 0.99987859 0.000271764
-0.092764258 0.064029157 -0.49961066 -0.047298495 0.030915692 0.99840224 0.00032380773
-0.087753713 0.062545747 -0.49923882 -0.052952729 0.036986802 0.99791181 0.00046697792
-0.074962609 0.067589097 -0.49869931 -0.069754079 0.063595176 0.99553502 0.00049617782
-0.065234683 0.064539306 -0.49767891 -0.078525931 0.078128651 0.99384588 0.00012471474
-0.054009069 0.064695135 -0.49647477 -0.079629064 0.10587212 0.99118632 0.00038074271
-0.044483114 0.06657514 -0.49574167 -0.10223783 0.15060548 0.98329312 0.0029608568
-0.028921559 0.06747251 -0.49470368 -0.08432024 0.19199711 0.97776645 0.0040453495
-0.0041053509 0.066123247 -0.49422491 -0.0056104856 0.3271718 0.9449482 0.010885946
0.0038482053 0.067265242 -0.49458593 0.037706845 0.28455281 0.95791858 0.0097102039
0.015270762 0.067958444 -0.4945257 0.075846538 0.24556437 0.96640849 0.0078333616
0.024081139 0.064743079 -0.49465892 0.082833275 0.27932623 0.95661664 0.0099415537
0.033881851 0.064189091 -0.49465591 0.13026969 0.21818441 0.96717387 0.0074944845
0.044995185 0.0645971 -0.49552765 0.10426186 0.13120116 0.98585784 0.0028518327
0.059030686 0.067163229 -0.49732831 0.079989254 0.095437035 0.99221647 0.00033653699
0.07563135 0.065336287 -0.4986352 0.068546921 0.0632663 0.9956398 0.00059276866
0.082478315 0.064738587 -0.49902153 0.070011616 0.045621838 0.9965024 0.00070126634
0.094996594 0.064244069 -0.49974486 0.03595262 0.017431732 0.99920142 0.00046961548
0.10689306 0.06399475 -0.4998984 0.0038254492 0.0032784319 0.9999873 0.0004809745
0.11702123 0.060580604 -0.49977615 -0.024041492 -0.010249461 0.99965847 0.00055898033
0.12692687 0.062383085 -0.49948791 -0.058328036 -0.026005276 0.99795872 0.00026758615
0.14171267 0.063060574 -0.49806595 -0.11467344 -0.054226831 0.99192202 0.0005845991
0.16583678 0.064675726 -0.49422759 -0.19358571 -0.075447083 0.97817808 0.00044430167
0.17331204 0.066644311 -0.49260342 -0.22355738 -0.088091694 0.97070181 0.0002293182
0.18188773 0.060733821 -0.49104935 -0.25546336 -0.09088771 0.96253717 0.00062112609
-0.17679524 0.075858332 -0.49072158 0.24744394 -0.10099726 0.96362394 0.00048433
-0.16066414 0.077601239 -0.49419338 0.19221501 -0.086086728 0.9775697 0.00038254439
-0.1549467 0.074604146 -0.49550629 0.16660655 -0.074623026 0.98319566 0.00038506355
-0.14535575 0.075347893 -0.49710464 0.13047196 -0.069866404 0.98898721 0.00045925996
-0.13860725 0.074177831 -0.49791414 0.11419007 -0.064233556 0.99138021 0.00072050246
-0.12550847 0.074843369 -0.4991388 0.071801469 -0.045140654 0.99639702 0.00032730043
-0.11468739 0.073966421 -0.49969855 0.034512248 -0.013921902 0.99930733 0.00053939893
-0.10619128 0.075025387 -0.49979877 0.011605808 -0.0087739723 0.9998942 0.00052388577
-0.092505343 0.074183904 -0.49994478 -0.026833856 0.024046965 0.99935067 0.00043638374
-0.084528595 0.07385318 -0.49956849 -0.030396819 0.030769711 0.99906415 0.00053907279
-0.071368948 0.077134818 -0.49900609 -0.059464321 0.058770042 0.996499 0.00053876726
-0.06545081 0.074660316 -0.4985818 -0.071122177 0.076564789 0.99452478 0.00019809004
-0.049795695 0.073449425 -0.49722022 -0.069643013 0.10425196 0.99210954 0.0003390827
-0.03279401 0.075544477 -0.49615803 -0.050012019 0.12365137 0.99106461 0.00017502648
-0.024118969 0.072913811 -0.49517936 -0.058690306 0.16787151 0.98406029 0.003554482
-0.0038509583 0.0729158 -0.49453837 0.0055537582 0.23231563 0.9726246 0.006792597
0.0046455758 0.072304763 -0.49448854 0.02581642 0.26057228 0.96510905 0.0091211712
0.013236828 0.074949406 -0.49508449 0.042113218 0.18952304 0.98097277 0.0040011751
0.026338752 0.07753928 -0.49605128 0.041616857 0.13282385 0.99026555 0.00028902895
0.036273278 0.075144053 -0.49632168 0.056157898 0.12661739 0.99036068 0.00030135797
0.043405268 0.076678328 -0.49705276 0.056256942 0.10954037 0.99238902 0.00034226864
0.053196806 0.074801959 -0.49773824 0.074910074 0.096778728 0.9924829 0.00022259021
0.062233619 0.075743824 -0.49849805 0.068643689 0.084130228 0.99408758 0.00029724848
0.07522767 0.072566628 -0.49895379 0.056375485 0.056430638 0.9968136 0.0005802784
0.085387193 0.075381301 -0.49969131 0.036454972 0.032671563 0.99880111 0.00033957313
0.10359224 0.075892456 -0.49982399 0.0026478949 -0.0015952485 0.99999517 0.00039157673
0.11287609 0.075414658 -0.49970773 -0.029146813 -0.020816689 0.99935836 0.00021803203
0.1250405 0.076677963 -0.49906987 -0.074728154 -0.049108066 0.99599403 0.00041545281
0.13698931 0.076289885 -0.49798948 -0.11384375 -0.066828899 0.99124849 0.00031143377
0.1450209 0.073652305 -0.49727607 -0.14637625 -0.065769494 0.98704016 0.00019372601
0.16725218 0.074313842 -0.4932074 -0.21331652 -0.0929389 0.9725526 0.00054200267
0.17130914 0.078972489 -0.49189478 -0.23168799 -0.099318907 0.9677068 0.00033349323
-0.17347455 0.084838562 -0.49061 0.23718899 -0.11731093 0.96435446 0.00018709355
-0.16349681 0.081242681 -0.49337444 0.2013981 -0.098113686 0.97458327 0.00048922712
-0.1556686 0.083947413 -0.49463993 0.18788256 -0.092375204 0.97783792 0.00045866438
-0.14462817 0.084842354 -0.4965612 0.14094338 -0.081628792 0.98664671 0.00046358973
-0.13393649 0.087332293 -0.49758837 0.12304129 -0.08148437 0.98905069 0.00041023921
-0.11811222 0.081833765 -0.49932778 0.064689808 -0.04617035 0.99683672 0.00022251251
-0.10233396 0.082168743 -0.49977762 0.017001297 -0.01024733 0.99980295 0.00047735058
-0.098620825 0.080801979 -0.49983972 -0.00025770438 0.0018194562 0.99999833 0.00039729863
-0.083608843 0.084987842 -0.49990356 -0.020915264 0.019630041 0.99958849 0.00051783514
-0.077095106 0.083530605 -0.49965855 -0.039167333 0.035282217 0.99860954 0.00052510988
-0.066384956 0.082314149 -0.49908799 -0.050632551 0.055878893 0.99715286 0.00055772252
-0.054679647 0.086816505 -0.49881715 -0.048329756 0.060953565 0.99696988 0.0004896539
-0.033910833 0.086816385 -0.49798322 -0.03733537 0.10243 0.99403936 0.00015585506
-0.023855761 0.086291432 -0.49726573 -0.0279184 0.11171923 0.99334759 0.0001929451
-0.012912584 0.085711494 -0.49689326 -0.013702947 0.12562518 0.99198318 0.00012891136
-0.0090623498 0.085612223 -0.49679101 -0.01491545 0.12750833 0.99172539 0.00028826279
0.0040131663 0.087969363 -0.49707657 0.0037163813 0.12053199 0.99270248 0.00030724387
0.016642155 0.083927698 -0.4966751 0.026366135 0.12863538 0.99134135 0.00030883381
0.021599602 0.08995609 -0.49780247 0.028160321 0.11185886 0.993325 0.00028664575
0.035087448 0.085101433 -0.49775353 0.048520178 0.10363224 0.99343151 0.00015942333
0.04482092 0.086353913 -0.49836451 0.043873034 0.094407789 0.99456644 0.00035724949
0.057880633 0.089132778 -0.49910572 0.034127712 0.056980051 0.99779189 0.00071596936
0.063049622 0.084168673 -0.49904537 0.046698265 0.06110286 0.99703842 0.00067778473
0.087261349 0.087513953 -0.49991581 0.0056261076 0.0060659987 0.99996579 0.0002250932
0.10800441 0.085963264 -0.4996323 -0.038588174 -0.02983427 0.9988097 0.00050105568
0.11573746 0.083914213 -0.49936175 -0.058156013 -0.042138461 0.99741787 0.00052509684
0.12524378 0.081899732 -0.49870449 -0.078580491 -0.052107058 0.99554503 0.00056695734
0.13252723 0.084914356 -0.4978717 -0.1105103 -0.073456861 0.99115676 0.00051369256
0.15763482 0.085019916 -0.49418518 -0.1876823 -0.10399833 0.97670859 0.00048345781
0.16267046 0.081262261 -0.49352878 -0.19530448 -0.096506186 0.9759829 0.00048060255
0.1743025 0.08659745 -0.49017483 -0.26872551 -0.12244949 0.95540178 0.00011973689
-0.15484817 0.097675376 -0.49333993 0.19057204 -0.12369964 0.9738484 0.00025987654
-0.13895506 0.094454296 -0.49631518 0.14678203 -0.099452041 0.98415661 0.00033517563
-0.12625578 0.094503231 -0.4977774 0.10430243 -0.075039715 0.99171066 0.00055399712
-0.11630154 0.094250083 -0.49865809 0.081991598 -0.060615182 0.99478799 0.00049835554
-0.10417244 0.096473746 -0.49956265 0.046487078 -0.045339268 0.99788946 0.00047515621
-0.09352129 0.094520345 -0.4997659 0.012590515 -0.022323182 0.99967158 0.00032636797
-0.074355178 0.096116543 -0.49993691 -0.0029627734 0.0026151487 0.99999219 0.00038986703
-0.067549504 0.094638273 -0.49978757 -0.014165884 0.025644014 0.99957079 0.00028032638
-0.055007324 0.09603034 -0.49942207 -0.022438817 0.042003401 0.99886554 0.00012236013
-0.045625821 0.095591187 -0.49909243 -0.027297053 0.069685988 0.99719548 0.0003254475
-0.036744107 0.093191661 -0.49866438 -0.03029602 0.095012404 0.99501497 0.00054876326
-0.025553944 0.097532973 -0.49866557 -0.024739837 0.08898636 0.99572551 0.00056661176
-0.01610554 0.097474664 -0.49855644 -0.013608692 0.094848074 0.99539876 0.00045877718
-0.00048596767 0.09787678 -0.49843144 0.00010940259 0.10667507 0.99429393 0.00055937545
0.0055751996 0.095917046 -0.4982211 0.0052211573 0.11196903 0.993698 0.00046298842
0.013084179 0.093066812 -0.49805233 0.01491597 0.11663409 0.99306297 0.00044943611
0.024235236 0.094798781 -0.49844971 0.022000181 0.09594474 0.99514353 0.00019640548
0.039729789 0.09884692 -0.49914974 0.02728077 0.064840071 0.99752271 0.00036562505
0.045619741 0.092369385 -0.4988654 0.032411661 0.075989567 0.99658173 0.00066709414
0.057653517 0.095574558 -0.49949813 0.022017844 0.053190324 0.99834162 0.00044515752
0.083835304 0.097058266 -0.49982971 -0.0099166017 -0.014204367 0.99984998 0.00054058689
0.094260551 0.091701686 -0.49978617 -0.019223087 -0.014111152 0.99971569 0.00043637396
0.1049505 0.099328108 -0.49930507 -0.060688268 -0.05987021 0.99635965 0.00014383406
0.11509103 0.096410125 -0.49861932 -0.078258596 -0.068652116 0.99456644 0.0004293728
0.13867404 0.095122658 -0.4962776 -0.1436723 -0.10137815 0.98441899 0.00032704169
0.14501058 0.098143913 -0.49487549 -0.16479895 -0.11199433 0.97994822 0.00032253296
0.15507825 0.096076809 -0.49349657 -0.19081675 -0.11895321 0.97439164 0.00038021404
0.16630569 0.091302253 -0.49182183 -0.22113442 -0.12548693 0.96713626 0.00030438701
0.17221673 0.090432242 -0.49031389 -0.25488392 -0.13221638 0.95788991 0.00025437522
-0.15262455 0.10614716 -0.49264705 0.19594683 -0.13888359 0.97072971 0.00029323736
-0.14534362 0.10391695 -0.49410388 0.17505968 -0.12685183 0.9763518 0.00019246644
-0.13460781 0.10856643 -0.49526516 0.15969823 -0.12521809 0.97919196 0.00039075475
-0.12495975 0.10507134 -0.4971562 0.12274705 -0.10194411 0.98718816 0.00023074247
-0.11514041 0.10594471 -0.49798015 0.095040642 -0.088530347 0.99152893 0.00053725851
-0.10098286 0.10590352 -0.49911213 0.057072572 -0.062389303 0.99641871 0.00061027077
-0.094548412 0.10498941 -0.49960718 0.038884856 -0.038422905 0.99850476 0.00036746656
-0.08479996 0.10475944 -0.49971965 0.018350696 -0.023514956 0.99955505 0.00029262606
-0.071395256 0.10818456 -0.49980915 0.0084276507 -0.0098371431 0.99991608 0.00040735127
-0.062024742 0.1095607 -0.49988037 0.0058625685 -0.0044020312 0.99997312 0.00045959881
-0.053868644 0.10598986 -0.49992949 -0.010297325 0.020929491 0.9997279 0.00015837085
-0.043937314 0.10521788 -0.49972114 -0.016037343 0.032380324 0.99934697 0.0005636157
-0.030211512 0.10674461 -0.4994283 -0.012452165 0.043029044 0.99899626 0.00055285729
-0.025895638 0.10570103 -0.49927554 -0.011411552 0.054241341 0.99846262 0.00059943565
-0.016923519 0.1060405 -0.49921191 -0.0088765426 0.061445694 0.99807096 0.00045919424
-0.0074257692 0.10219432 -0.49882674 -0.0039133811 0.086384736 0.99625415 0.00053369004
0.0039039515 0.10875176 -0.49928728 -7.8672907e-05 0.05800128 0.99831647 0.00068321545
0.016571989 0.10350224 -0.49901661 0.010376737 0.08230637 0.99655306 0.00051471021
0.023457106 0.10229008 -0.49899352 0.018237315 0.079461284 0.99667108 0.00064134732
0.03681609 0.10777891 -0.49969378 0.015602861 0.035492703 0.99924815 0.00016489724
0.045008052 0.10394546 -0.49966279 0.013629821 0.039234057 0.9991371 0.00052084436
0.054355402 0.10243405 -0.49982899 0.014865705 0.041557673 0.99902552 0.00045657411
0.061798684 0.10846196 -0.49989748 0.00068374432 0.0052950215 0.99998581 0.00037532151
0.073673755 0.10859244 -0.49978098 -0.0092998259 -0.021401875 0.99972773 0.00052238931
0.085773185 0.10552604 -0.49969989 -0.033566602 -0.044569112 0.99844217 0.00034792192
0.090669684 0.10903407 -0.49952722 -0.050705578 -0.066524856 0.99649549 0.00054107822
0.10265724 0.10827496 -0.49879485 -0.061740939 -0.072909713 0.99542564 0.00031526378
0.12014946 0.1034169 -0.49771374 -0.10436701 -0.086481817 0.99077165 0.00018197665
0.13442039 0.10640348 -0.4955644 -0.1528248 -0.10983922 0.98213029 0.00037345095
0.14447616 0.10669354 -0.49389923 -0.18166888 -0.13583243 0.97393322 0.00036170712
0.15322635 0.10973864 -0.49193206 -0.20801347 -0.15452196 0.96584332 0
0.16433957 0.10328589 -0.49045271 -0.22902581 -0.15034336 0.96174014 0.00047550187
-0.1575886 0.11411409 -0.49007869 0.22820209 -0.16620949 0.95932174 0.00070714566
-0.13453706 0.11651 -0.49428916 0.15890606 -0.13505462 0.9780128 0.00042894774
-0.12540066 0.11525005 -0.4959259 0.1330523 -0.11605489 0.98429078 0.0005084303
-0.11858647 0.11409681 -0.49705189 0.113 -0.10486647 0.98804557 0.00038121323
-0.10488951 0.11505328 -0.49805796 0.08674442 -0.091320679 0.99203622 0.00035775761
-0.093857802 0.116052 -0.49870586 0.059424784 -0.0760068 0.99533492 0.00050203671
-0.08315222 0.1180463 -0.4992457 0.047682192 -0.065924726 0.99668467 0.00057675887
-0.07099992 0.11480683 -0.49972671 0.02237922 -0.031860277 0.99924177 0.0004741484
-0.062761098 0.11398421 -0.49980855 0.0065142494 -0.012389465 0.99990201 0.00056818617
-0.052324265 0.11659131 -0.49983463 0.0034541285 -0.0065449229 0.99997264 0.00052906206
-0.031965449 0.11499761 -0.49980897 -0.0064408388 0.02487196 0.99966991 0.00055103766
-0.028396884 0.11767077 -0.49995577 -0.0030328697 0.015085584 0.99988163 0.00030982867
-0.014879309 0.11579698 -0.4998225 -0.0023515448 0.02896156 0.99957776 0.0003080481
-0.0031775932 0.11508596 -0.49975875 -0.0040244707 0.034406241 0.99939978 0.00025693679
0.004529167 0.11315607 -0.49962637 0.00013748794 0.045052115 0.99898463 0.00048669087
0.011052904 0.11424671 -0.49977368 0.0036250129 0.044626135 0.99899715 0.00038305952
0.025706835 0.11390781 -0.49981532 0.0049695782 0.033127129 0.99943876 0.00025868969
0.034207236 0.11457407 -0.49990016 0.0038131196 0.027027326 0.99962735 0.00051259843
0.042392273 0.11677283 -0.49989435 0.00075561192 0.0086297831 0.99996245 0.00038572369
0.064361833 0.11510231 -0.49977875 -0.0057760007 -0.017693715 0.99982679 0.00063309917
0.075556584 0.11328682 -0.4997009 -0.017101329 -0.033372905 0.99929667 0.00046704526
0.08652503 0.11800121 -0.49902502 -0.059390191 -0.079157338 0.99509144 0.00038132202
0.095814273 0.11772553 -0.4984304 -0.067158572 -0.082913533 0.99429131 0.00025000464
0.10279483 0.11675473 -0.4980498 -0.073105849 -0.087746017 0.99345666 0.00038924936
0.11299413 0.11517522 -0.49748206 -0.099212594 -0.099371351 0.99009204 0.00028860648
0.12446172 0.11564811 -0.49602854 -0.13408817 -0.12128936 0.98351884 0.00036586807
0.13510235 0.11794746 -0.49401882 -0.16362619 -0.14203784 0.97624373 0.0003622064
0.14331755 0.11172837 -0.49346107 -0.18446198 -0.13647337 0.97331846 0.00033521239
0.15520953 0.11411008 -0.49065059 -0.22670816 -0.16512042 0.95986384 0.00027895183
-0.145494 0.12063015 -0.49178201 0.1944056 -0.1598043 0.96781665 0.00055624137
-0.13678883 0.12534423 -0.49275231 0.17530096 -0.16136935 0.97120005 0.00041248504
-0.12480851 0.12479119 -0.49476027 0.15866797 -0.15005393 0.9758628 0.00048078274
-0.11704558 0.12529263 -0.49572021 0.12512442 -0.14413768 0.98161507 0.00057532388
-0.10753477 0.12574238 -0.49682969 0.10356274 -0.11785729 0.98761553 0.00044663629
-0.093282506 0.12309596 -0.49813291 0.070647687 -0.091923185 0.99325681 0.00034559183
-0.084473677 0.12261485 -0.49876127 0.051631697 -0.072065838 0.99606258 0.00039257796
-0.073183626 0.1241778 -0.49936453 0.037645675 -0.066409215 0.99708205 0.00059429317
-0.066042528 0.12603226 -0.49952576 0.036205892 -0.071930028 0.99675238 0.00033824134
-0.056147009 0.12836108 -0.49963182 0.020842796 -0.052797623 0.99838775 0.00027091918
-0.045062043 0.12701857 -0.49972191 0.011422897 -0.037956197 0.99921411 0.00051133765
-0.036740888 0.12717719 -0.49976996 0.0042212596 -0.020908255 0.99977255 0.0003317369
-0.022201328 0.12529704 -0.49984479 -0.00043430328 -0.0068453499 0.99997652 0.00046817333
-0.016370257 0.12098618 -0.49992755 0.0014250849 0.024813445 0.99969107 0.0002652838
-0.0045763482 0.12869701 -0.49982718 -0.001724469 -0.013428224 0.99990839 0.0004420547
0.0082755797 0.12360569 -0.49990222 0.00025776948 0.012201335 0.99992549 0.00030366943
0.017833 0.12746494 -0.4998188 8.2701254e-06 -0.014531122 0.99989438 0.00028878608
0.024927892 0.12279297 -0.49987975 0.00042673433 0.00040914069 0.99999988 0.00048712856
0.034765422 0.12352266 -0.49983984 -0.008208571 -0.016861243 0.99982411 0.00040368724
0.04666226 0.12512395 -0.49974066 -0.015126196 -0.038894661 0.99912876 0.00034435492
0.064165443 0.12583558 -0.49951583 -0.027512455 -0.062306792 0.9976778 0.00050661148
0.076290108 0.12384762 -0.49919692 -0.045108072 -0.072037168 0.99638134 0.00022179217
0.093238778 0.12494049 -0.49797574 -0.067988455 -0.092111811 0.99342489 0.00054726814
0.10237812 0.12911001 -0.49692512 -0.099203296 -0.1204374 0.98775178 0.00029186098
0.1139575 0.12557724 -0.49605283 -0.11521328 -0.13118112 0.98464072 0.00042573814
0.12577349 0.12728946 -0.49428159 -0.15346821 -0.15870343 0.975326 0.00039849561
0.13394049 0.12889966 -0.49284559 -0.17154616 -0.16431983 0.97137576 0.00036717587
0.14706388 0.12279352 -0.49100652 -0.20941162 -0.1632124 0.9641102 0.00023030234
-0.14138609 0.1340083 -0.4903037 0.19776377 -0.18567084 0.96250498 0.00056350633
-0.12252357 0.13209336 -0.49393749 0.14948578 -0.16475034 0.97494173 0.00046621845
-0.10836163 0.13322251 -0.49551505 0.10957096 -0.1425038 0.98371077 0.00055684889
-0.090903878 0.13568127 -0.49719912 0.082895018 -0.12807646 0.98829389 0.00055818335
-0.075689703 0.13294017 -0.49840277 0.052300218 -0.092047386 0.99438018 0.00041886143
-0.058057241 0.1360075 -0.49885195 0.040496998 -0.083540894 0.99568117 0.00056370965
-0.042245291 0.13384306 -0.49957591 0.015175463 -0.049074061 0.99867988 0.00046318848
-0.031623855 0.13504362 -0.49966162 0.012754108 -0.041768137 0.99904591 0.0005507585
-0.023970917 0.13642196 -0.49965963 0.0096395677 -0.0479494 0.99880326 0.00025918131
-0.01654394 0.13587089 -0.49968457 0.00045583787 -0.044060681 0.9990288 0.00042423795
-0.004464596 0.13715713 -0.49968952 0.00027011958 -0.052276962 0.99863255 0.00035207119
0.003908006 0.13497786 -0.49972621 -0.005985009 -0.0356059 0.99934798 0.00035461006
0.013885208 0.13428052 -0.49971619 -0.00035770627 -0.044540014 0.99900746 0.00050225062
0.021508172 0.13413437 -0.49970222 -0.0054788589 -0.045289434 0.99895889 0.00028316668
0.034481332 0.13583191 -0.49959803 -0.018047152 -0.053393815 0.9984104 0.00023416587
0.042716883 0.13378204 -0.49951553 -0.018578522 -0.04740414 0.998703 0.00046470508
0.054764058 0.13516843 -0.49907458 -0.031860601 -0.078388624 0.99641365 0.00047136084
0.065298818 0.13363849 -0.49878824 -0.040046196 -0.084605485 0.99560946 0.00034420271
0.074437037 0.1380237 -0.49796253 -0.064144596 -0.11317215 0.9915027 0.00051660917
0.081836618 0.138335 -0.49757263 -0.071533643 -0.12341161 0.98977393 0.00042544922
0.10571591 0.13419293 -0.49568668 -0.1112422 -0.14271843 0.98349208 0.00036956347
0.11304305 0.13108571 -0.49527925 -0.11800582 -0.14233968 0.98275834 0.00037838469
0.12886082 0.13615674 -0.49249136 -0.16297702 -0.1808935 0.96990526 0.00037837168
0.13570924 0.13653667 -0.49115458 -0.18620975 -0.18559651 0.96482116 0.00054061494
0.14496037 0.13028149 -0.49013209 -0.21650614 -0.17997961 0.959548 5.685796e-05
-0.12502329 0.14497001 -0.49109849 0.17265171 -0.20037834 0.96438575 0.00029511037
-0.11240238 0.14497204 -0.49310562 0.14551133 -0.18432525 0.97203428 0.00053666567
-0.092203185 0.14289623 -0.49595651 0.10297368 -0.15048613 0.98323458 0.00058001652
-0.086120024 0.14367637 -0.49655566 0.085060358 -0.14485189 0.98579031 0.00026937245
-0.076249622 0.14641874 -0.49690074 0.07266438 -0.13966741 0.98752868 0.00044332334
-0.064675406 0.14851433 -0.49731094 0.056078903 -0.13603969 0.98911494 0.00034502885
-0.057561487 0.14224248 -0.49824259 0.041548505 -0.1103081 0.99302864 0.00063592824
-0.049090147 0.14246173 -0.49857503 0.037631065 -0.10631245 0.9936204 0.00041051765
-0.035863906 0.14423758 -0.4988724 0.018189257 -0.091981232 0.99559462 0.00053821813
-0.027158106 0.14932308 -0.49844521 0.019275704 -0.1129308 0.99341595 0.00037274812
0.0048699188 0.14379559 -0.49932504 -0.00045071013 -0.072649002 0.99735743 0.0002512694
0.01612651 0.14639464 -0.49892029 -0.011023075 -0.089940242 0.99588621 0.00034317342
0.022823842 0.14544503 -0.49892768 -0.012409504 -0.09108983 0.99576539 0.00059241627
0.034514729 0.14628026 -0.49866915 -0.021780964 -0.096604094 0.99508458 0.0003852775
0.049814854 0.14696313 -0.49808979 -0.036665659 -0.11597727 0.99257487 0.00048525815
0.052964531 0.1463564 -0.49801925 -0.040641818 -0.12446265 0.9913916 0.00054211338
0.060450815 0.14707273 -0.49763352 -0.052043337 -0.13166763 0.98992682 0.00023018861
0.077242263 0.14348449 -0.49729323 -0.072297424 -0.13393177 0.9883498 2.1638862e-05
0.083905943 0.14592743 -0.49640584 -0.081003726 -0.14446022 0.98618942 0.00038300056
0.091919065 0.14260247 -0.49603942 -0.097149134 -0.14539889 0.9845919 0.00038674363
0.10118628 0.14190297 -0.49500072 -0.11396008 -0.15519392 0.98128897 0.00015950727
0.11524808 0.14689904 -0.49221602 -0.15252441 -0.19501053 0.96886897 0.00029189358
0.12404096 0.14526901 -0.49120769 -0.16311856 -0.19719072 0.9666996 0.00032190906
-0.11544454 0.15466456 -0.49053559 0.16687147 -0.21299404 0.96269804 0.00046975425
-0.10634551 0.1579162 -0.49143121 0.15201224 -0.20515436 0.96685261 0.00024616442
-0.094294652 0.15474486 -0.49377698 0.11806042 -0.18619667 0.97539359 0.00066373841
-0.084939919 0.15600093 -0.49449968 0.099264033 -0.18400921 0.97789943 0.00026664868
-0.070633277 0.15482876 -0.49583885 0.073337749 -0.16276747 0.98393512 0.00038435045
-0.069290794 0.15710022 -0.4955152 0.072786711 -0.17621925 0.98165619 0.00051245821
-0.053993024 0.15306832 -0.49726522 0.044745237 -0.13200067 0.9902392 0.00036725192
-0.04473722 0.15786882 -0.49720022 0.038952202 -0.14576653 0.98855186 0.00028920427
-0.021453716 0.1550937 -0.49790084 0.016855422 -0.11847074 0.99281448 0.00049564941
-0.013521677 0.15120494 -0.4984358 0.012771967 -0.11078402 0.99376243 0.0003666358
0.0039262185 0.15612827 -0.49803886 -0.0031895109 -0.12712248 0.99188191 0.00049244077
0.014251865 0.15549807 -0.49795982 -0.011793599 -0.11988007 0.99271834 0.0002886185
0.023248527 0.15718284 -0.49764866 -0.012277203 -0.13555422 0.99069387 0.00051071291
0.035560742 0.15399437 -0.49781862 -0.029192915 -0.13224798 0.99078667 0.00019580625
0.046289004 0.15465266 -0.49746031 -0.042593319 -0.13455793 0.98998988 0.00031616871
0.05284274 0.15279546 -0.49737364 -0.047068875 -0.1334157 0.98994184 0.00042758582
0.064431436 0.15696034 -0.49592134 -0.067286707 -0.16995312 0.98315227 0.00015851988
0.074035577 0.15364236 -0.49579677 -0.071837887 -0.15631387 0.98509151 0.00026797131
0.086311936 0.15669641 -0.49425998 -0.10295085 -0.19532314 0.97532046 0.00045957378
0.09559311 0.15359177 -0.49380237 -0.12058072 -0.18235272 0.9758113 0.00035982821
0.10476595 0.15629643 -0.49211106 -0.13466331 -0.19790456 0.97092718 0.00037667539
-0.094460309 0.1637539 -0.49211347 0.11998726 -0.21124853 0.97003973 0.00037482969
-0.084302962 0.16407916 -0.49302542 0.1054977 -0.2099697 0.97199941 0.00043842892
-0.071239404 0.16544364 -0.49378884 0.084071994 -0.20641622 0.97484571 0.000502465
-0.065699793 0.16499023 -0.49430728 0.073499791 -0.18685673 0.97963381 0.00029759822
-0.050193522 0.16788766 -0.49497241 0.056544378 -0.18727536 0.98067868 0.00060490344
-0.042846091 0.16597544 -0.49582359 0.045154147 -0.18172413 0.98231232 0.00046062909
-0.033145778 0.16512085 -0.49625516 0.034195371 -0.18097408 0.98289317 0.00032445995
-0.013205858 0.16517766 -0.49673158 0.013853016 -0.15695927 0.98750788 0.0005219485
-0.0079361657 0.16638201 -0.49667174 0.0095160306 -0.16699329 0.98591202 0.00050645124
0.0057975892 0.16505405 -0.49686044 -0.0079464419 -0.16021962 0.9870494 0.0005205684
0.01640844 0.16395882 -0.4968434 -0.015007159 -0.15582542 0.9876706 0.00053102744
0.026484581 0.16632842 -0.49618819 -0.025638847 -0.17372456 0.98446041 0.00015419767
0.037413508 0.16592363 -0.49597883 -0.038976341 -0.17821355 0.98321962 0.00018268674
0.053576156 0.16491294 -0.4952693 -0.059228338 -0.18948007 0.98009658 0.00039423446
0.06337405 0.16211189 -0.49503207 -0.068801224 -0.17492816 0.9821744 0.00042792058
0.074197344 0.16627385 -0.49340105 -0.086848721 -0.20095149 0.97574371 0.00037239175
0.082757309 0.16514939 -0.4929443 -0.098465487 -0.20460559 0.97387934 8.0540471e-05
0.096042156 0.16245957 -0.49223852 -0.12609832 -0.20760825 0.97005051 0.00038828576
0.1026374 0.16171385 -0.49120253 -0.1406215 -0.22151126 0.96496546 0.00045482567
-0.090179481 0.17006534 -0.49094465 0.11522865 -0.22187902 0.96824169 0.00046124725
-0.083644062 0.17025945 -0.49164724 0.10581691 -0.22016166 0.96970695 0.00047135257
-0.074547306 0.17696881 -0.49082488 0.096190214 -0.23603942 0.96697092 0.00014227531
-0.06501957 0.17406125 -0.49264908 0.083860897 -0.22476628 0.9707973 0.00033530575
-0.05684856 0.17181465 -0.49371147 0.074870817 -0.21213008 0.97436911 0.00047700046
-0.045118257 0.17547849 -0.49381989 0.064185001 -0.22500634 0.97224098 0.00030410753
-0.034844596 0.17356046 -0.4945012 0.036153968 -0.20031118 0.97906506 0.00021176356
-0.026027584 0.17772688 -0.49389267 0.025990108 -0.21456635 0.97636348 0.00053133402
-0.01222647 0.17376626 -0.49506238 0.022408552 -0.19570827 0.98040611 0.0001590983
-0.0069740349 0.17684454 -0.49457917 0.015243653 -0.20727351 0.97816426 0.0005244299
0.0044243955 0.17549196 -0.49492097 -0.013864522 -0.20855425 0.97791255 0.00039553418
0.019247005 0.17439318 -0.49474835 -0.023188978 -0.18890092 0.9817223 0.0003419806
0.025410399 0.17515169 -0.49443048 -0.028717732 -0.20342684 0.97866887 6.9771748e-05
0.039736029 0.17275989 -0.49453288 -0.045896497 -0.19534498 0.97966003 0.00037343503
0.04602797 0.17809758 -0.49325526 -0.060917623 -0.22097032 0.97337615 0.00036989711
0.058671307 0.17229545 -0.49347833 -0.073207252 -0.20976496 0.97500736 0.00042468737
0.066500157 0.17241618 -0.49284375 -0.08543352 -0.21555388 0.97274745 0.00064186117
0.076638505 0.17329617 -0.49160954 -0.10692392 -0.24060501 0.96471578 0.00044063403
0.083593749 0.17588076 -0.49008143 -0.11494456 -0.2559227 0.95983928 0.00051098689
-0.060465567 0.18342826 -0.4906497 0.086659834 -0.25494504 0.96306443 0.00045463996
-0.044402074 0.18576355 -0.49144706 0.056665991 -0.25286269 0.96584135 0.00029566206
-0.035000641 0.1862625 -0.4916687 0.044703346 -0.25716889 0.96533197 0.00025704975
-0.022863455 0.18767925 -0.49172306 0.032874741 -0.25330397 0.96682799 0.00024263009
-0.012267322 0.18871208 -0.49183172 0.023339584 -0.25856882 0.96571082 0.00034018353
-0.0043523139 0.18418676 -0.49316052 -0.00095685071 -0.23318583 0.97243172 0.00039196288
0.0037346778 0.1843695 -0.49313349 -0.0097344713 -0.23400146 0.97218752 0.00040500419
0.014603214 0.18338071 -0.49305254 -0.019751148 -0.22177948 0.97489679 0.00018733089
0.021781724 0.18557516 -0.49223369 -0.032330099 -0.24723125 0.96841705 0.00055727275
0.034878444 0.18714648 -0.49140832 -0.0484378 -0.26299599 0.96358025 0.00026099323
0.04410661 0.18537286 -0.49156174 -0.054125872 -0.25760403 0.96473342 0.00047518933
0.053318121 0.18430424 -0.49123254 -0.075422712 -0.25210869 0.96475524 0.00032424665
0.06016618 0.18409441 -0.49049813 -0.090767376 -0.25836411 0.96177405 0.0005518641
-0.036780149 0.1912466 -0.49010301 0.05003272 -0.27079332 0.96133637 0.00048358491
-0.014816951 0.19370125 -0.49023411 0.027897082 -0.26975456 0.96252495 0.00058844016
0.0020539402 0.19285858 -0.49099106 -0.0067296419 -0.2578806 0.96615332 0.00034798915
0.014307285 0.19088826 -0.49109823 -0.028097574 -0.26237211 0.96455759 0.00032288799
-0.0239213 -0.22064894 -0.48043203 0.044542897 0.38439751 0.92209244 0.00037917844
0.024466909 -0.22152869 -0.48004842 -0.0398192 0.38416603 0.92240494 0.00062664173
-0.055648685 -0.21312727 -0.48169565 0.094479956 0.35856068 0.92871302 0.0005130645
-0.046105813 -0.21357448 -0.48210663 0.065913707 0.35315683 0.93323934 0.00042117908
-0.035016935 -0.21432543 -0.4823924 0.052646462 0.35920367 0.93177313 0.00028644968
-0.024955373 -0.21506397 -0.48262873 0.047408063 0.36043411 0.93157917 0.00073336664
