# .PCD v0.7 - Point Cloud Data file format
VERSION 0.7
FIELDS x y z normal_x normal_y normal_z curvature
SIZE 4 4 4 4 4 4 4
TYPE F F F F F F F
COUNT 1 1 1 1 1 1 1
WIDTH 582
HEIGHT 1
VIEWPOINT 0 0 0 1 0 0 0
POINTS 582
DATA ascii
0.0078589274 -0.19801858 -0.33265859 -0.058523543 0.38172135 0.92242283 0.0013931838
0.039004859 -0.19223534 -0.33076015 -0.11767252 0.37249526 0.92054355 0.00020129007
0.043834619 -0.19008753 -0.33094209 -0.11901972 0.3696194 0.92152905 2.7290202e-05
-0.053319778 -0.18486647 -0.33168128 0.12133975 0.36128482 0.92452687 7.0816503e-05
-0.0448878 -0.18689901 -0.33201748 0.12247109 0.36183706 0.92416167 0.00010125762
-0.036166735 -0.18692683 -0.33315504 0.12274221 0.36357027 0.92344517 4.9769485e-05
-0.02824224 -0.18670045 -0.33428454 0.12032951 0.36435547 0.92345327 7.6075674e-05
-0.015540897 -0.18552169 -0.33640555 0.087597989 0.3590211 0.92920971 0.00080511509
-0.0015947389 -0.18568502 -0.33817938 0.004465234 0.35696658 0.93410647 0.0020372577
0.0061460133 -0.18294181 -0.33862472 -0.050591499 0.36020407 0.93150073 0.0015365303
0.013626613 -0.18862088 -0.33547747 -0.086660847 0.36869925 0.92550033 0.00092011516
0.025811121 -0.1825497 -0.33618501 -0.12047222 0.36139521 0.92459726 5.3851563e-05
0.031136505 -0.18510616 -0.33451054 -0.12074919 0.36278689 0.92401582 8.9999085e-05
0.045181885 -0.18323922 -0.33337227 -0.12025059 0.3610276 0.92476964 4.5160294e-05
0.052574314 -0.18539929 -0.33157659 -0.12229668 0.36416867 0.9232685 8.0113496e-05
0.065041468 -0.1828016 -0.33092433 -0.1249436 0.35923591 0.92484528 3.5444547e-05
-0.085485347 -0.17501897 -0.33119619 0.24048419 0.34718725 0.90643722 0.0017026297
-0.073467717 -0.17764689 -0.33177769 0.15232943 0.36001715 0.92042565 0.00049095839
-0.0654613 -0.17281127 -0.33467296 0.12203274 0.35316974 0.92756629 3.7374139e-06
-0.044098981 -0.17392717 -0.33706048 0.12215421 0.35325193 0.9275189 2.989922e-05
-0.035086811 -0.1748215 -0.33790642 0.12188717 0.35442066 0.92710811 7.2530725e-05
-0.02635061 -0.17829387 -0.33773446 0.12218523 0.35513866 0.92679411 0
-0.016020427 -0.17604481 -0.3399508 0.096657753 0.35732403 0.92896551 0.00054016826
0.019882986 -0.17576516 -0.33954877 -0.1128682 0.35308331 0.92875886 0.00010576023
0.02593625 -0.17886192 -0.33757269 -0.12018754 0.35447991 0.92730737 0.00010449379
0.034234658 -0.17600685 -0.33756727 -0.12202723 0.35365936 0.9273805 6.519113e-06
0.050951451 -0.17258881 -0.33666795 -0.12214252 0.35297331 0.92762661 0
0.068525165 -0.17130193 -0.33484429 -0.13926373 0.35570595 0.92416382 0.00035684582
0.073594347 -0.17416358 -0.33308733 -0.15108275 0.35981563 0.92070991 0.00049771473
0.084298268 -0.17332257 -0.33199835 -0.19881247 0.35885742 0.91197312 0.0015056251
0.093080446 -0.17135128 -0.33043814 -0.27943784 0.35518754 0.89205176 0.0018163675
-0.082342654 -0.16441549 -0.33564728 0.20881815 0.34984574 0.91323769 0.0019664513
-0.079514697 -0.16940129 -0.33412117 0.18505818 0.35154417 0.91769826 0.001229641
-0.066070534 -0.16751885 -0.33660793 0.12217238 0.35167682 0.92811495 0
-0.056473292 -0.1663574 -0.33831364 0.12192092 0.35229445 0.92791378 9.6202544e-05
-0.045374777 -0.16910231 -0.33872962 0.12175922 0.35190165 0.92808402 3.5341753e-05
-0.034342438 -0.16998909 -0.33984441 0.12224438 0.35263586 0.92774147 0
0.041723855 -0.16959029 -0.33902448 -0.12214363 0.35212252 0.92794973 0
0.058002561 -0.16689923 -0.337906 -0.12246188 0.35011277 0.92866796 8.0606937e-05
0.064203016 -0.1638515 -0.3382501 -0.12125885 0.34939986 0.9290942 3.5521065e-05
0.075356856 -0.16509908 -0.33630666 -0.15020537 0.35002947 0.92461765 0.00046937721
0.087913685 -0.16220468 -0.33575559 -0.24180239 0.33742002 0.90976888 0.0022918638
0.094574377 -0.16501024 -0.33241031 -0.28008944 0.35702604 0.89111292 0.0017264814
-0.1057388 -0.15511565 -0.33182883 0.32054576 0.34432438 0.88243479 0.00062425487
-0.098046571 -0.15757896 -0.33400854 0.30229586 0.33889899 0.89093465 0.00079104706
-0.081770949 -0.15583357 -0.33899018 0.18386617 0.33998811 0.92228043 0.0012629894
-0.064159036 -0.15945382 -0.33993039 0.12087209 0.34366563 0.93128079 9.8558769e-05
0.074246056 -0.15867883 -0.33889747 -0.14956631 0.34774238 0.92558372 0.00045930242
0.086378001 -0.15613639 -0.33826837 -0.22648232 0.33953434 0.91291958 0.0018059683
0.095066108 -0.15638719 -0.33573005 -0.2784881 0.34187639 0.8975327 0.0013914595
0.1043322 -0.15828829 -0.3311151 -0.3359603 0.34191573 0.87762415 0.0004386479
0.11047335 -0.15350378 -0.33052635 -0.34888601 0.33067578 0.87688774 0.00014932729
-0.1140468 -0.14281365 -0.33316618 0.36220536 0.31668311 0.87665224 0.00016757545
-0.10588132 -0.14105403 -0.33712637 0.3258096 0.3193711 0.88985962 0.00074376917
0.097477064 -0.14813463 -0.33810344 -0.29391032 0.32502291 0.8988753 0.0010649983
0.10606679 -0.14645267 -0.33516252 -0.33757353 0.32226354 0.88441533 0.00041717081
0.11452956 -0.14970559 -0.33039817 -0.35547414 0.3280527 0.87522542 0.00010639529
-0.12071881 -0.13584918 -0.33269003 0.36125177 0.30938351 0.87964708 0.00011696697
-0.11348518 -0.13616395 -0.33558291 0.3629958 0.3052066 0.88038796 0.00018140169
-0.10692483 -0.13205943 -0.33964843 0.33313525 0.30292156 0.89289385 0.00073382584
0.11342883 -0.13619514 -0.335596 -0.3617335 0.30601925 0.88062543 8.9312103e-05
-0.12290048 -0.1254649 -0.33519706 0.36636579 0.29072863 0.8838852 3.6840447e-05
-0.11590948 -0.12614566 -0.33786923 0.36525095 0.28970388 0.88468266 0
0.10988797 -0.12837902 -0.33962989 -0.3386254 0.29779863 0.89255184 0.00061057077
0.11990015 -0.1288573 -0.3353256 -0.36416286 0.29662362 0.88283622 1.8262503e-05
0.12325682 -0.12558132 -0.33501124 -0.36517122 0.29242662 0.88381934 0
-0.14385809 -0.11305591 -0.33059186 0.36649773 0.28911126 0.88436097 5.6455312e-05
-0.13655502 -0.11885829 -0.33171111 0.36622885 0.29070854 0.8839485 1.3213915e-05
-0.12263164 -0.11748662 -0.33792889 0.36619836 0.29038194 0.88406843 1.1127195e-05
0.11772774 -0.11887123 -0.33950537 -0.3642047 0.29064307 0.88480586 1.2136046e-05
0.12505235 -0.11938059 -0.33630413 -0.366202 0.29039708 0.88406205 5.9550828e-05
0.13557643 -0.11348034 -0.33388287 -0.36676079 0.28751308 0.88477278 0
-0.14634812 -0.10184393 -0.33324304 0.36849335 0.27836075 0.8869769 9.5330666e-05
-0.13402084 -0.10497618 -0.33732039 0.36827156 0.28275859 0.88567698 3.6248788e-05
0.13032259 -0.10345244 -0.33935273 -0.36685035 0.28193957 0.88652754 0.00011836724
0.14738992 -0.10570267 -0.33154413 -0.36784756 0.28402671 0.88544732 8.9955625e-05
-0.15544212 -0.095135115 -0.33162788 0.36524543 0.26879206 0.89126128 0.00014661271
-0.1429705 -0.096747704 -0.33631596 0.36860487 0.26726139 0.890338 0
0.13484322 -0.098097205 -0.33923918 -0.37035039 0.26808169 0.88936651 0.00017223683
0.14632323 -0.093054801 -0.3360849 -0.37021574 0.2599847 0.89182299 9.3298564e-05
0.15085347 -0.099626213 -0.33210528 -0.36993527 0.27029634 0.88886881 0.00019861794
0.16234107 -0.090296134 -0.33027068 -0.37222975 0.25640541 0.89202088 0.00021490399
-0.16500014 -0.08128424 -0.33143583 0.3790364 0.24014024 0.8936801 0.00016049245
-0.15410814 -0.084046155 -0.33525276 0.37028924 0.24487773 0.89605844 8.8884517e-05
-0.14571388 -0.088708438 -0.3375572 0.37163648 0.24976073 0.89415097 0.00012084467
0.14966723 -0.087694079 -0.33617479 -0.36973688 0.24681854 0.8957541 2.5397252e-05
0.15425608 -0.083659589 -0.33528873 -0.37037337 0.2433953 0.89642751 0.00011481695
0.16062964 -0.085522592 -0.33218014 -0.36854443 0.24398232 0.89702153 0.00010768714
-0.15318868 -0.077274472 -0.33733684 0.37029168 0.23420602 0.89890575 1.0111503e-05
0.14949238 -0.07309477 -0.33991909 -0.37267977 0.23042604 0.8988958 2.9170369e-05
0.15311594 -0.076069959 -0.33766985 -0.37146291 0.23100898 0.89924979 0
0.16540089 -0.074278042 -0.33303198 -0.37766629 0.23031813 0.89683992 0.00014011137
-0.17243175 -0.065459609 -0.33233765 0.40396404 0.21613495 0.88887501 0.00080291624
-0.16600952 -0.061374839 -0.33602518 0.37648791 0.22650041 0.89830643 1.3250725e-06
-0.15703644 -0.063445367 -0.33922118 0.3730748 0.22520779 0.90005368 2.6896192e-05
0.1658857 -0.063345611 -0.33558077 -0.37333664 0.22495411 0.90000862 0
0.17157933 -0.06861645 -0.33189672 -0.39041671 0.22549804 0.89259481 0.00039556198
-0.17521326 -0.054939698 -0.3338314 0.41390863 0.21886924 0.8836152 0.00069937488
-0.15892489 -0.058852345 -0.33959416 0.37274474 0.22503702 0.90023315 0
0.1714184 -0.053313583 -0.33581227 -0.38956088 0.22432126 0.89326495 0.00032859622
0.18196239 -0.053114049 -0.33149496 -0.43539381 0.21667978 0.87377465 0.0015136779
-0.183055 -0.042769425 -0.33364421 0.44297752 0.20938651 0.87173861 0.0009989012
-0.17579015 -0.045777522 -0.33589685 0.39777327 0.20876497 0.89341688 0.00031974728
0.16421361 -0.049690183 -0.33970788 -0.37499121 0.21384014 0.90202773 3.5759062e-05
0.17575045 -0.043265041 -0.33654517 -0.39288729 0.20699716 0.89598644 0.00042226064
-0.1753048 -0.032981303 -0.33898944 0.40508756 0.18728098 0.89489102 0.00059387792
0.17840761 -0.036128674 -0.33705199 -0.4129059 0.19691315 0.88923216 0.00096085644
0.18169984 -0.031561442 -0.33659175 -0.42247185 0.17893094 0.88853884 0.0012604727
0.19172895 -0.033074126 -0.33206442 -0.49705288 0.17883672 0.84909123 0.0020705913
-0.19402961 -0.025584111 -0.33196208 0.51263946 0.16910397 0.84178656 0.0019137814
-0.18479468 -0.026454389 -0.33621356 0.44367912 0.183382 0.87722278 0.001375225
0.17799053 -0.026241435 -0.33906958 -0.39375311 0.18100762 0.90121847 0.00035843614
0.18551342 -0.022757374 -0.33656999 -0.44470513 0.17513548 0.87838769 0.0018700642
-0.19489795 -0.016317725 -0.33320525 0.51018673 0.17518187 0.84203368 0.0018939578
-0.183264 -0.014056792 -0.33904132 0.42346525 0.16669598 0.89044356 0.0010377762
0.18332 -0.018039307 -0.33831343 -0.42637789 0.16764101 0.88887477 0.0014713783
0.19440751 -0.012901348 -0.33397284 -0.50693977 0.16654815 0.84573859 0.0022229289
-0.1933258 -0.0046180594 -0.33618498 0.48771477 0.15935309 0.85833615 0.0020574548
-0.18530276 -0.0085491482 -0.33917141 0.43225271 0.16101924 0.88726002 0.0013444677
0.18754937 -0.0060804607 -0.3386777 -0.4505223 0.16198893 0.87794608 0.001954136
0.19444746 -0.0026958138 -0.33635783 -0.47534752 0.17051154 0.86311674 0.0016992002
-0.19722173 0.0056548072 -0.33562386 0.51486605 0.16754022 0.84073967 0.0019995742
0.18741579 0.00045740139 -0.33988988 -0.43253577 0.15545268 0.88811445 0.0013782535
0.19415067 0.0047320062 -0.33732426 -0.47560987 0.16256557 0.86450428 0.0019795909
0.20201269 0.0050338362 -0.33214563 -0.56280476 0.15273686 0.81235605 0.001238236
-0.20614006 0.01632078 -0.33130446 0.57632363 0.13544214 0.80591965 0.0006770576
-0.1964203 0.012355499 -0.33775118 0.50301921 0.15235955 0.85073984 0.0020766121
0.19513136 0.019041186 -0.33991602 -0.48292577 0.11927013 0.86750054 0.0019820803
0.20533359 0.016997648 -0.33202195 -0.56107688 0.12424441 0.81838626 0.0010148176
-0.20224325 0.027089512 -0.33575273 0.54194123 0.11635572 0.83232272 0.0019838356
-0.19872783 0.021140242 -0.33772954 0.53431356 0.13194619 0.83492476 0.0020928439
0.20344833 0.023856048 -0.33443636 -0.55639011 0.1116736 0.82338274 0.001017029
-0.198045 0.033026554 -0.33969325 0.49059814 0.10789276 0.86468065 0.0029124755
0.20565809 0.036158651 -0.33423087 -0.55975109 0.10227281 0.82232535 0.0010180575
-0.20212486 0.044628005 -0.33796793 0.5579797 0.088791765 0.82509065 0.0016096284
0.20516713 0.045834724 -0.33577967 -0.55646133 0.089595512 0.8260287 0.00098035473
0.21094143 0.041537426 -0.33082837 -0.5744229 0.098259255 0.81263977 0.00086492009
-0.20592335 0.053926926 -0.33617958 0.56218058 0.089670815 0.82213873 0.0013242532
0.20363131 0.052703116 -0.33779007 -0.54874295 0.087736249 0.83137441 0.0011792772
0.21273705 0.054424249 -0.33101147 -0.5832777 0.094197929 0.80679232 0.00061091135
-0.2151629 0.069605634 -0.33098891 0.59916413 0.072648704 0.79732329 0.00018681308
-0.20739233 0.064382777 -0.33631885 0.57119793 0.085863166 0.81630892 0.0012709792
0.20879279 0.063720606 -0.33516404 -0.56493741 0.07462991 0.82175183 0.00091264804
0.2119786 0.065022916 -0.33287722 -0.57555056 0.074147411 0.81439781 0.00068684021
-0.21207729 0.076032557 -0.33395872 0.59578586 0.058219619 0.80103052 0.00031067093
-0.20938039 0.076733798 -0.33606973 0.57307261 0.060874946 0.81724042 0.0012620644
0.21396421 0.07721141 -0.33257023 -0.5973025 0.054776117 0.8001433 0.00023912045
-0.21319404 0.08181069 -0.33333269 0.59662801 0.055302851 0.80061013 0.00019160495
0.2155098 0.080308832 -0.33149976 -0.59717083 0.049647205 0.80057621 0.00017269772
-0.21757784 0.092171788 -0.33035523 0.60514075 0.035677828 0.7953186 6.199065e-05
0.21025966 0.094904244 -0.33607253 -0.57469094 0.048606534 0.81692582 0.00099456671
-0.21182121 0.10475225 -0.33524156 0.57976478 0.02985692 0.81423664 0.00080072525
-0.20693788 0.10816558 -0.33911592 0.56083578 0.025284745 0.82754087 0.0014864199
0.20791726 0.10585456 -0.33827826 -0.56101739 0.034443609 0.82708716 0.0013224935
0.21460392 0.10634843 -0.33316582 -0.60183161 0.029164167 0.7980904 3.5069228e-05
-0.21410748 0.11597528 -0.33390567 0.5936805 0.022125935 0.80439657 0.00038882115
-0.2089204 0.11206084 -0.33773994 0.57305771 0.027113602 0.81906635 0.0012320216
0.21555418 0.11373193 -0.33271196 -0.59987384 0.023365997 0.79975337 0.00015322099
-0.21728933 0.12678149 -0.33186707 0.60074592 -0.0012985287 0.79943895 0.00029287452
-0.20913091 0.1248977 -0.33805704 0.55193496 0.00011528748 0.83388722 0.0016418013
0.2075416 0.12238379 -0.33918282 -0.55735809 0.010324749 0.830208 0.001394866
0.2166059 0.12502427 -0.33232599 -0.60002059 -0.0010279402 0.79998392 0.00030673525
-0.21793881 0.13749559 -0.33104268 0.60550624 -0.031146888 0.79523081 0.00030552212
0.20868784 0.13442798 -0.33833757 -0.55892628 -0.022375295 0.82891536 0.0013346315
0.21518607 0.1397555 -0.3330102 -0.59933478 -0.044063844 0.79928482 0.00035665315
-0.21365958 0.14861318 -0.33361447 0.59116405 -0.06865643 0.80362386 0.00041403572
-0.2099147 0.1462442 -0.33663967 0.57814234 -0.070742562 0.81286347 0.00086000521
0.21201046 0.14745058 -0.33495432 -0.5841223 -0.07112851 0.80854309 0.00077956752
-0.21122217 0.15686116 -0.33467948 0.57434726 -0.1029623 0.81211078 0.0011658936
-0.20701863 0.15736929 -0.33781135 0.54975986 -0.10622919 0.82854056 0.001795906
0.20646907 0.15717004 -0.3382698 -0.538966 -0.10874096 0.83527899 0.001443153
0.21584725 0.15427446 -0.33139464 -0.6011923 -0.096333839 0.79327655 0.00053993403
-0.20515016 0.1655699 -0.33773383 0.53767502 -0.1569982 0.82840633 0.0019803368
0.20574173 0.16504492 -0.33737665 -0.5431692 -0.13485436 0.82872283 0.0017371679
0.21396196 0.16435722 -0.33119577 -0.59538466 -0.1399342 0.79116088 0.00046512554
-0.2038842 0.17544623 -0.33688521 0.53066701 -0.17139269 0.83007056 0.0020629517
0.20869759 0.17390469 -0.33347586 -0.56827652 -0.17707069 0.80355942 0.00087127317
0.21255633 0.17553926 -0.33021376 -0.58706176 -0.18394113 0.78836805 0.00055106712
-0.19714475 0.18590307 -0.33922008 0.48284104 -0.23187554 0.84445149 0.0020075492
0.19992508 0.18320657 -0.33791715 -0.51995367 -0.21541774 0.82658535 0.0018103803
0.19165754 0.19789439 -0.33863872 -0.46856901 -0.27994126 0.83789974 0.0017261822
-0.1936598 0.2029793 -0.33585572 0.47028768 -0.27354437 0.83904886 0.0016322011
0.19476032 0.20714983 -0.33385131 -0.49630499 -0.30777723 0.81176019 0.0014454772
-0.19188531 0.21096706 -0.33409977 0.46653798 -0.31658462 0.82590342 0.0017816992
-0.18684667 0.21239005 -0.33565205 0.41708925 -0.31584594 0.85221934 0.001278535
-0.17605913 0.21653458 -0.33856285 0.38182628 -0.34227008 0.85852194 0.00082514598
0.17918712 0.21490923 -0.33787802 -0.39499471 -0.3413083 0.85292906 0.00091836369
0.18345776 0.21584526 -0.33575729 -0.42041743 -0.34101889 0.84080625 0.0012164304
-0.18422225 0.22086644 -0.33355358 0.41773528 -0.35309744 0.83714968 0.0018823406
-0.17444286 0.22611783 -0.33546549 0.358529 -0.38246095 0.85157543 0.00035965772
-0.16666681 0.2265016 -0.33851281 0.35659793 -0.38411549 0.85164148 0.0003170878
0.16677833 0.22725315 -0.33806562 -0.35979974 -0.38320646 0.85070372 0.00031746307
0.17725201 0.2237708 -0.33527997 -0.38912845 -0.37309328 0.84224725 0.0007105174
0.18583643 0.22460327 -0.33148062 -0.43755567 -0.37218195 0.81855088 0.0013887027
-0.16285926 0.23646557 -0.33517396 0.34663138 -0.41601473 0.84070116 0.00031538351
-0.15561441 0.23975769 -0.33654571 0.34744605 -0.42107642 0.83784002 0.00038939048
0.15663883 0.23280638 -0.33956134 -0.35103425 -0.40441227 0.84452689 0.00031514396
0.16935867 0.23921371 -0.33112186 -0.35814273 -0.42259157 0.83255637 0.00051771151
-0.16214064 0.24556674 -0.33096775 0.3360593 -0.4596062 0.82208657 0.00055010337
-0.15540347 0.24987116 -0.33125702 0.33534685 -0.46734858 0.81800228 0.00047068787
-0.14785585 0.24769224 -0.33569098 0.33842838 -0.4568806 0.82263374 0.0004991907
0.14638077 0.24557839 -0.33732465 -0.34414235 -0.44761354 0.82535332 0.00025279843
0.15534274 0.24469744 -0.33414498 -0.33361354 -0.4519724 0.82729858 0.00027316003
0.16487785 0.24182285 -0.33168668 -0.34821436 -0.4370169 0.82931477 0.00034258529
-0.14581442 0.25371203 -0.33282882 0.33252656 -0.48847821 0.8067311 0.00030217314
-0.13205428 0.25853872 -0.33551231 0.32880396 -0.50358486 0.7989307 0.00034580036
-0.12781121 0.25705177 -0.33819905 0.33004153 -0.49362078 0.80461872 0.00053531944
0.12503031 0.25810385 -0.3386935 -0.33634722 -0.49355468 0.80204386 0.00035026358
0.13181759 0.25692958 -0.33661592 -0.33406129 -0.49126029 0.80440432 0.00044619062
0.14354317 0.25580052 -0.33246452 -0.33279911 -0.49022856 0.80555618 0.00049944519
-0.12438878 0.26490188 -0.33471119 0.3228122 -0.53105456 0.78343683 0.00035302955
-0.11294211 0.26724672 -0.33798733 0.31085387 -0.53793615 0.78357804 0.00038352923
0.11577478 0.26673165 -0.33707666 -0.31930733 -0.52982497 0.78570247 0.00043566976
0.12749507 0.26973659 -0.33014745 -0.32068911 -0.54398566 0.77539545 0.00057434017
0.13460979 0.26350632 -0.33134961 -0.32810396 -0.52326798 0.7864722 0.00026978098
-0.12333393 0.27056405 -0.33123371 0.31860101 -0.55830091 0.76602447 0.00039020792
-0.11262121 0.2744776 -0.33265677 0.30916956 -0.57096094 0.76053774 0.00054004544
-0.10461611 0.27356628 -0.33667451 0.28619251 -0.557863 0.77902675 0.00095094898
-0.098632455 0.27706003 -0.33646211 0.26667413 -0.57274985 0.7751404 0.001009496
0.09619642 0.27695587 -0.33755133 -0.2436285 -0.56840104 0.78585327 0.0011097923
0.10969467 0.27634808 -0.33242828 -0.30319938 -0.5748384 0.76002038 0.00045066833
0.11211678 0.27355123 -0.33357921 -0.30878454 -0.5621689 0.7672146 0.00038743374
-0.091183603 0.2854501 -0.33308527 0.20881061 -0.61079419 0.76375943 0.0015834635
-0.083233446 0.28567371 -0.33446321 0.15708604 -0.61121076 0.77572256 0.0010083921
-0.075301953 0.28451264 -0.33634076 0.1342476 -0.6124143 0.7790547 0.00066826469
-0.065192237 0.28421921 -0.33788234 0.10846425 -0.60279834 0.79048711 0.00046163841
-0.052793529 0.28670517 -0.33765233 0.10468747 -0.61906904 0.77832776 0.00053810474
-0.046600409 0.28671411 -0.3385393 0.10396484 -0.61520714 0.78148031 0.0003804639
-0.03099527 0.28859103 -0.33910501 0.10006873 -0.62163901 0.77688557 0.00057052117
0.028302582 0.2896457 -0.33853865 -0.096683525 -0.62845385 0.77181482 0.00046439091
0.033959024 0.28939354 -0.3380141 -0.098187931 -0.62284929 0.77615589 0.0002478667
0.044374458 0.28748649 -0.33816701 -0.10621238 -0.62048787 0.77699018 0.00054642069
0.053837538 0.28711545 -0.33729845 -0.10338829 -0.62592399 0.77300066 0.00059705024
0.083388813 0.28517517 -0.33470288 -0.16590147 -0.61559987 0.77039826 0.001232988
0.093513705 0.28592181 -0.33171031 -0.23610096 -0.61556709 0.75188655 0.0013321154
-0.063631907 0.2926926 -0.33122721 0.1006266 -0.6435895 0.75872707 0.00046186618
-0.054981239 0.29354626 -0.33162075 0.10474843 -0.64501905 0.7569533 0.0004575045
-0.044383444 0.29221112 -0.3341817 0.099920854 -0.63552135 0.76559025 0.00031074425
-0.031917166 0.29283714 -0.33527631 0.10091735 -0.63996482 0.76174843 0.00056180893
-0.027657915 0.29393896 -0.33487505 0.097863846 -0.64530426 0.75763124 0.00055134192
-0.014236764 0.29420227 -0.33641207 0.078764498 -0.64701658 0.75839674 0.0004415602
-0.0056201685 0.29801729 -0.33421558 0.02834175 -0.6553728 0.75477362 0.0013027625
0.004880595 0.29576528 -0.33627915 -0.040489428 -0.6540603 0.7553581 0.0010130942
0.016893307 0.29941183 -0.33151385 -0.075953707 -0.66893929 0.73942626 0.00054806011
0.022510849 0.29455921 -0.33501112 -0.09474013 -0.64367837 0.75940931 0.00065099826
0.030670287 0.29223353 -0.33596748 -0.096438192 -0.63817513 0.76382726 0.00055354618
0.044171024 0.29272276 -0.33376294 -0.099617124 -0.64172244 0.76043981 0.00045164191
0.057457518 0.29291216 -0.33184838 -0.099445969 -0.64456815 0.75805169 0.00033711604
0.062916219 0.29140967 -0.33244157 -0.10185936 -0.64042491 0.76123631 0.00068557955
0.07930696 0.29129303 -0.33038554 -0.16064152 -0.6394949 0.7518248 0.0011610752
0.001155232 0.30248648 -0.33090129 -0.0047440315 -0.68428624 0.7291981 0.00098715303
0.019840265 0.30040434 -0.33025929 -0.084757335 -0.67253888 0.73519218 0.00046349701
0.0048796996 -0.22173618 -0.3221916 -0.022364771 0.42303497 0.9058373 0.0020501798
0.018046178 -0.22125909 -0.32067734 -0.10932759 0.41295442 0.90416592 0.00010282276
-0.047021762 -0.21104319 -0.32155538 0.11586466 0.40155175 0.90847766 0.00021727727
-0.038763866 -0.21502702 -0.32081252 0.11800361 0.409199 0.90478241 7.4503543e-05
-0.023908976 -0.2136133 -0.32341766 0.11063655 0.40982047 0.90543187 0.00026899064
-0.011973876 -0.21443556 -0.32461122 0.075983196 0.41845417 0.90505397 0.001016108
-0.0022287918 -0.21182203 -0.32709473 -0.0021734177 0.42047292 0.90730244 0.002090924
0.0047137272 -0.21487021 -0.32536736 -0.033858094 0.41560984 0.9089126 0.0020889081
0.015427887 -0.21503016 -0.32388335 -0.097554721 0.41087082 0.90645915 0.00056003127
0.025658084 -0.21529363 -0.32241547 -0.11772674 0.4118802 0.90360117 5.6967892e-06
0.036976818 -0.21361989 -0.3216942 -0.12093975 0.40889803 0.90453076 3.9532377e-05
0.041630715 -0.21171601 -0.32195604 -0.11965544 0.40890923 0.90469652 7.6631186e-05
0.055779438 -0.21033125 -0.3207294 -0.11863417 0.40450361 0.90680915 5.4639775e-05
-0.062575333 -0.2022609 -0.32354191 0.12322149 0.39487281 0.91043502 0.00014463635
-0.056361049 -0.20344912 -0.32381418 0.11744594 0.39695698 0.91029203 0.00014514277
-0.043325081 -0.20517705 -0.32473668 0.11592375 0.39919081 0.90951002 9.3226117e-05
-0.033391241 -0.20257157 -0.32724136 0.11691736 0.38819456 0.91413093 8.3652332e-05
-0.012818091 -0.20401068 -0.32928881 0.096092515 0.39393118 0.91410315 0.00057807879
-0.0059832428 -0.20789462 -0.32840452 0.039226085 0.41032371 0.91109592 0.0017562101
0.002944269 -0.20853677 -0.32850963 -0.034050502 0.40458989 0.91386408 0.0020121948
0.017221427 -0.20597877 -0.32780504 -0.10968523 0.39540312 0.91193497 0.00016447417
0.028975204 -0.20720783 -0.32569304 -0.11999833 0.39724216 0.90983468 0.00015516319
0.035452053 -0.20724346 -0.32482398 -0.11789265 0.39416444 0.91144705 0.00021333116
0.041163944 -0.20383167 -0.32563919 -0.11662721 0.3939645 0.91169626 0.00018992813
0.050078142 -0.20179978 -0.32539898 -0.11849372 0.39460033 0.9111805 7.145603e-05
0.066786364 -0.20491906 -0.32176647 -0.13725908 0.39348501 0.90902662 0.00028006549
0.07221777 -0.20691137 -0.32013619 -0.17346634 0.39652756 0.90148503 0.00094746199
-0.092722259 -0.19028056 -0.3228519 0.29282534 0.36105639 0.88537645 0.0012109107
-0.08439488 -0.19709715 -0.32293326 0.21340677 0.38095281 0.89962906 0.0017774651
-0.070368819 -0.19850689 -0.32424027 0.14925483 0.38552359 0.91054636 0.00052647636
-0.064255647 -0.19981912 -0.32444233 0.123267 0.38872561 0.91307038 0.00017531124
-0.056224603 -0.19268198 -0.32832304 0.11898977 0.37426421 0.91965634 0.00016650134
-0.049767565 -0.19871256 -0.32685801 0.11662338 0.38950098 0.91361254 0.00023279211
0.025816431 -0.19940245 -0.32969436 -0.11787467 0.38427767 0.91566163 0.00020282318
0.048539974 -0.19527012 -0.32832539 -0.12049148 0.37731737 0.91821212 6.5705513e-05
0.055629425 -0.19417351 -0.32783347 -0.12044339 0.37497941 0.91917562 6.4564265e-05
0.065729737 -0.19253308 -0.32712838 -0.12499625 0.36841017 0.92122191 0.0001393111
0.079190381 -0.19973172 -0.32251626 -0.19496098 0.38684827 0.90129834 0.0011943005
0.084998354 -0.19379808 -0.32388926 -0.23341064 0.37731215 0.89618915 0.0014238971
-0.10419966 -0.18337655 -0.3209188 0.33928007 0.35686195 0.87036687 0.00030822324
-0.095011838 -0.18622792 -0.32355943 0.2933746 0.35871997 0.8861441 0.0012367982
-0.077770442 -0.18607348 -0.32800275 0.1840132 0.37078381 0.91030687 0.0013536827
-0.055652939 -0.18884708 -0.32985851 0.12141106 0.36299676 0.92384672 6.9391201e-05
0.07843712 -0.18060097 -0.32999867 -0.18052883 0.36633039 0.91280413 0.0013374949
0.084894188 -0.18499649 -0.32732415 -0.22861741 0.37660152 0.89772224 0.0015881038
0.09622778 -0.18997377 -0.32152522 -0.30256361 0.37406158 0.87666029 0.00094113359
0.10354957 -0.18489373 -0.32056817 -0.33390534 0.36316776 0.86983699 0.00039088842
-0.10673756 -0.17595164 -0.3229014 0.34386259 0.35176027 0.87064523 0.00024150961
-0.0967362 -0.17544973 -0.32724923 0.30575553 0.34449381 0.88760215 0.00089038897
-0.085948065 -0.17803447 -0.32998705 0.24610916 0.35269767 0.90279275 0.0017445092
0.096580155 -0.17305467 -0.32829249 -0.29147318 0.35340247 0.88890392 0.0015231348
0.10494521 -0.17353158 -0.32463273 -0.33722597 0.35771695 0.87081414 0.00030396658
-0.12278907 -0.16335799 -0.32139853 0.35914391 0.345162 0.86710942 7.5997627e-06
-0.11708947 -0.16387609 -0.32354769 0.3579531 0.34643224 0.86709541 1.9488212e-05
-0.10967753 -0.16297251 -0.326987 0.34409121 0.34758738 0.87222946 0.00016399291
0.11502206 -0.16635075 -0.32339287 -0.35812196 0.35281318 0.86444861 3.5312376e-05
0.12368244 -0.16531169 -0.32023016 -0.3583957 0.35073406 0.86518103 1.644252e-05
-0.13334259 -0.15080565 -0.32215604 0.36261109 0.32956636 0.87172198 0.00012559044
-0.12287518 -0.15549469 -0.32457581 0.35976636 0.34171972 0.86821419 5.3110685e-05
-0.11351898 -0.15536612 -0.32850382 0.35874429 0.33971879 0.86942148 0.00013401998
0.11555517 -0.15546703 -0.32761919 -0.35860664 0.33579454 0.87100136 5.3517502e-05
0.12562247 -0.1581044 -0.32237151 -0.35882422 0.34438232 0.86755168 2.1107364e-05
-0.14637545 -0.14051688 -0.32052958 0.36188811 0.31381798 0.8778128 9.9833655e-05
-0.13700008 -0.1444032 -0.32304442 0.36210471 0.31949177 0.87567419 0.00017338659
-0.1215516 -0.14535445 -0.32922304 0.36053163 0.31806293 0.87684262 0.00016563054
0.13480578 -0.14598465 -0.32349488 -0.36050481 0.32146618 0.87561166 0.0002333657
-0.14788099 -0.13396817 -0.32205689 0.36542481 0.30038071 0.88104266 0.00010506942
-0.13408402 -0.13770087 -0.32654577 0.36277881 0.30929109 0.87905091 0.00018253415
-0.12807921 -0.13806987 -0.32891184 0.36414307 0.30994928 0.87825465 0.00021575774
0.12807728 -0.13844299 -0.32879013 -0.36294091 0.30718669 0.87972164 0.00014070306
0.13472903 -0.13555744 -0.32698262 -0.36326867 0.30375552 0.88077718 8.3976964e-05
0.14561735 -0.13426469 -0.32289714 -0.36612618 0.30268803 0.87996107 8.1661929e-05
-0.15307906 -0.12828231 -0.32177129 0.36427009 0.29556674 0.88314641 0
-0.14359885 -0.12529898 -0.32667801 0.36574534 0.29367763 0.88316703 4.2327672e-05
-0.13708811 -0.12788814 -0.32852441 0.36635971 0.29339752 0.88300538 0
0.13645883 -0.12728779 -0.32898226 -0.36644459 0.2920174 0.88342756 3.4475146e-05
0.14153865 -0.12089139 -0.32897907 -0.36623728 0.29098859 0.88385284 3.3055683e-05
0.15498596 -0.12341242 -0.32258096 -0.36571231 0.29205307 0.88371915 3.2772536e-05
-0.15664761 -0.11197565 -0.32564908 0.36648795 0.28550157 0.88553679 0
-0.14733638 -0.11723628 -0.32777807 0.36617702 0.29056063 0.8840186 0
0.14902924 -0.11892822 -0.32652119 -0.36618793 0.29010701 0.88416308 1.2772138e-05
0.15820737 -0.1171573 -0.32330111 -0.36628306 0.28938091 0.88436157 0
0.1631552 -0.11450062 -0.32212424 -0.37968495 0.29085195 0.87820524 0.00027398104
-0.17530203 -0.10443695 -0.32039827 0.42222148 0.28280446 0.86124945 0.0013034618
-0.16410536 -0.10567745 -0.32462865 0.37337646 0.27937797 0.88461173 0.0001340673
0.16550007 -0.1059008 -0.32397759 -0.385876 0.28372666 0.87783766 0.00034443068
0.17051993 -0.10453736 -0.32234609 -0.40620765 0.28764728 0.86732596 0.00083856884
-0.18323612 -0.090094157 -0.32166642 0.45515943 0.25172028 0.85408825 0.0020767939
-0.17162226 -0.091496736 -0.32610357 0.39098355 0.25740653 0.88367063 0.00049223262
-0.16397531 -0.099819504 -0.32660654 0.37758979 0.26926908 0.88595718 0.00030015307
0.16822946 -0.09590055 -0.32613158 -0.39560127 0.27088168 0.8775664 0.00064518367
0.17463312 -0.093322434 -0.32429218 -0.42280897 0.27385065 0.86385089 0.0012322234
0.18372171 -0.094224304 -0.32026505 -0.46383157 0.27909547 0.84081268 0.002007158
-0.18477078 -0.085506096 -0.3220531 0.46101448 0.23990585 0.85434824 0.0020073405
-0.17559199 -0.087806806 -0.32540804 0.41370755 0.24175242 0.87772536 0.0013367498
-0.16600028 -0.087062605 -0.32956824 0.38099855 0.24874389 0.89048672 0.00019966591
0.17678407 -0.086284757 -0.32529706 -0.42626092 0.24742252 0.87010556 0.00158984
0.18100792 -0.081874222 -0.32465681 -0.44935504 0.24175085 0.86002129 0.0016732294
-0.18928486 -0.074038155 -0.32243389 0.48575827 0.21872185 0.84628582 0.0021805118
-0.17723715 -0.07334581 -0.32836369 0.42368528 0.22268623 0.87801003 0.0012151946
0.17892322 -0.07951837 -0.32611284 -0.43687811 0.23979819 0.86696839 0.0014793749
0.19069916 -0.07812725 -0.32015103 -0.51742423 0.23454677 0.82295799 0.0019149003
-0.19733049 -0.061138459 -0.32003853 0.54808092 0.21993683 0.80699134 0.0014126629
-0.18592882 -0.065780476 -0.32666627 0.46041223 0.22379518 0.85903209 0.0012960396
0.18626174 -0.066818021 -0.32626739 -0.49185601 0.21761625 0.84304261 0.0021250241
0.19333935 -0.064985067 -0.32197434 -0.52814609 0.22075985 0.81995529 0.0020133678
-0.19499581 -0.05153368 -0.32464314 0.53373265 0.22097561 0.8162716 0.0014247983
0.18808945 -0.052474242 -0.32911792 -0.47155297 0.21952426 0.85407656 0.0018707062
0.19539095 -0.055785645 -0.32309455 -0.53286397 0.21311247 0.81892556 0.0016728385
-0.19673203 -0.045455817 -0.32509109 0.53427726 0.20391667 0.82034498 0.001526658
0.1937369 -0.048255771 -0.3265692 -0.5259732 0.20776677 0.82473344 0.0016019065
-0.20254298 -0.039332405 -0.32242566 0.57960254 0.19755797 0.79058951 0.00056559261
-0.19545104 -0.039920982 -0.32769513 0.5311327 0.20547305 0.82199693 0.001477149
0.20377724 -0.034103803 -0.32272685 -0.56952792 0.188067 0.80016792 0.00080386823
-0.20735863 -0.025444197 -0.32176319 0.58893472 0.1721399 0.78963518 0.00020567818
-0.19945787 -0.027930876 -0.32731324 0.54758275 0.17360532 0.81854403 0.0013875995
0.19942087 -0.023116095 -0.32833377 -0.54227072 0.18285096 0.82006586 0.0012399799
0.20554677 -0.025049012 -0.32323489 -0.57121438 0.17417952 0.80210698 0.00088757282
-0.21066788 -0.011751531 -0.32204545 0.59801871 0.16108084 0.78512847 5.1704219e-06
-0.20493062 -0.013783882 -0.326029 0.56564903 0.16266923 0.80844289 0.00094351213
-0.19980803 -0.018815577 -0.32892287 0.54753673 0.16135451 0.82107753 0.0014082213
0.20895067 -0.015910968 -0.32250601 -0.58569026 0.16324671 0.79392534 0.00026669362
0.21021545 -0.013775697 -0.3219755 -0.59235334 0.15990022 0.78965145 7.5503995e-05
-0.21402904 -0.0073703239 -0.32036912 0.59886426 0.16030276 0.78464293 7.2814531e-05
-0.20457762 -0.0016884042 -0.3287923 0.56215137 0.16090676 0.81123048 0.0010518484
0.20484895 -0.00570449 -0.32775652 -0.57380414 0.16835253 0.80150253 0.00059833319
-0.21150427 0.0092727114 -0.32573599 0.59073681 0.14471571 0.79378045 0.00039447052
-0.20695361 0.0052510966 -0.32839912 0.57196409 0.14962804 0.80651629 0.00075595273
-0.22035332 0.018981045 -0.32087421 0.60440159 0.1244196 0.78690445 0.00019279479
-0.21453193 0.013837492 -0.3243534 0.60167617 0.13893843 0.7865634 8.3335821e-05
0.207518 0.010212643 -0.32898846 -0.57704854 0.14317419 0.80406231 0.00070069573
0.2186718 0.01231268 -0.32086253 -0.60117167 0.14400987 0.78603673 0
-0.22275774 0.029389309 -0.32028994 0.60369194 0.10784531 0.78988945 6.991285e-05
-0.21553084 0.02785198 -0.32564914 0.59941477 0.10755542 0.79317951 0.00016919468
0.21642597 0.025620997 -0.32469201 -0.59965718 0.11183718 0.79240376 4.3230275e-06
0.22193918 0.028637482 -0.32082698 -0.60305774 0.10903826 0.79021013 7.2799972e-05
-0.22370437 0.036473423 -0.32042164 0.60534465 0.097808324 0.78993124 0
-0.21528141 0.035838231 -0.32680786 0.59844178 0.10090789 0.79478621 0.00016441329
0.21605569 0.034677342 -0.32607311 -0.60099977 0.10202999 0.79271001 9.6421836e-06
0.22167565 0.033076692 -0.32156685 -0.60377336 0.1031412 0.79045528 1.0887451e-06
-0.22373563 0.04721408 -0.32169864 0.60592705 0.095093206 0.78981614 0
-0.21905269 0.044057716 -0.32490966 0.60598779 0.096406773 0.78961039 5.8851445e-05
0.21765704 0.048094667 -0.32646954 -0.60191703 0.095205069 0.79286307 7.6392651e-05
-0.22679006 0.059899427 -0.32089141 0.60638821 0.086131632 0.79049009 3.9472987e-05
-0.21759339 0.053904921 -0.32722217 0.6014111 0.093944952 0.79339713 6.5276414e-05
0.21634857 0.053615067 -0.32814223 -0.60275126 0.091377132 0.79267973 5.4325148e-05
0.22345063 0.052701257 -0.32258189 -0.60616189 0.092354104 0.78996104 0
-0.22726101 0.065785162 -0.32124293 0.60682082 0.077570066 0.79104447 0.00020776741
-0.2177489 0.067797616 -0.3287856 0.60049754 0.073565401 0.79623544 0.00019011977
0.21738279 0.063426636 -0.32853708 -0.60570765 0.088293478 0.79077333 1.987808e-05
0.22440238 0.066146813 -0.32348025 -0.60576826 0.075667009 0.79203498 0.00015967221
-0.22773172 0.072255976 -0.32166556 0.60917842 0.071335942 0.78981823 0.00022456642
-0.21809176 0.075490206 -0.32924759 0.59929925 0.06725987 0.79769444 0.00017264635
0.22823261 0.077046774 -0.32161561 -0.60326546 0.054784436 0.79565662 0.00019142048
-0.23045552 0.082669199 -0.32011953 0.61057699 0.051877405 0.7902559 0.00016168815
-0.22557697 0.084116027 -0.32391694 0.60862219 0.046625517 0.7920891 3.7838217e-05
-0.21936594 0.086390957 -0.32876763 0.60648715 0.042209223 0.79397213 0.00010344636
0.22611032 0.081546634 -0.32341182 -0.6025452 0.050237931 0.79650199 7.2673814e-05
-0.22575666 0.095255256 -0.32419437 0.60772812 0.034871429 0.79337925 4.4515753e-05
0.21849963 0.097676381 -0.32985318 -0.60318124 0.031032123 0.79700023 0.00012667711
0.22772205 0.095895618 -0.32271019 -0.6080842 0.033369388 0.79317093 0
0.23097861 0.096449174 -0.32023197 -0.60864806 0.031025071 0.79283351 0
-0.22793858 0.1068039 -0.32295075 0.60863799 0.02755508 0.79296947 1.0483513e-05
0.2185922 0.1015036 -0.32992482 -0.60280615 0.030741243 0.79729515 0.00013178294
0.22280274 0.10113841 -0.32668036 -0.60849756 0.029609868 0.79300308 0.00013988979
-0.23142032 0.11334904 -0.32052314 0.61103076 0.018973241 0.79137945 9.0758513e-05
-0.22414672 0.11554708 -0.32618636 0.60977829 0.023991261 0.79220879 0
0.22628878 0.11321358 -0.32445568 -0.60895663 0.025886964 0.792781 1.9224401e-05
-0.22453594 0.12735718 -0.32632801 0.6070919 -0.0083239544 0.79458809 0.00024794988
0.22256266 0.12393699 -0.32771468 -0.60808074 0.010491425 0.7938059 0.00017166078
0.23215625 0.12395082 -0.32035372 -0.60713565 0.0041313758 0.79458737 0.0002300654
-0.22326878 0.13476014 -0.32712799 0.60786545 -0.02734136 0.79356921 0.00028409605
0.22744064 0.13248228 -0.3240726 -0.60760409 -0.033734228 0.79352331 0.00023695013
-0.23134547 0.14898911 -0.32001957 0.60668612 -0.085786983 0.79029906 0.0004345692
0.22368461 0.14495343 -0.32615632 -0.60819066 -0.057476066 0.7917074 0.00030171068
0.23163474 0.14387354 -0.3201251 -0.60585397 -0.052255724 0.79385793 0.00022658487
-0.22346437 0.15659435 -0.32533491 0.60835975 -0.097847104 0.78760672 0.00031353912
0.22291896 0.15663069 -0.32574672 -0.60391629 -0.11412542 0.78883493 0.00039028411
0.2300355 0.1578076 -0.3200691 -0.60387582 -0.11652026 0.78851575 0.00032055707
-0.22452614 0.1628021 -0.32337618 0.60317057 -0.13169359 0.78666508 0.00043374003
0.22496766 0.16186142 -0.32321075 -0.60524499 -0.11997216 0.78694665 0.00044012288
-0.22531459 0.17354125 -0.32079217 0.59635031 -0.17479019 0.78346324 0.00022687817
0.21429682 0.17847371 -0.32833743 -0.58811241 -0.19200757 0.78565693 0.00050739141
0.22306678 0.17675963 -0.32192388 -0.59888273 -0.18610147 0.77891314 0.00043955952
-0.2167321 0.18604313 -0.32414702 0.58881134 -0.22482733 0.77637225 0.00041646161
0.21713351 0.18351081 -0.32461894 -0.59522879 -0.21007338 0.77561069 0.000473405
-0.21332631 0.19006619 -0.32552135 0.58559698 -0.22904158 0.77757066 0.00043010933
-0.20994273 0.19260184 -0.32733673 0.57573408 -0.24524094 0.77999175 0.00037384219
0.20850717 0.19209135 -0.32859552 -0.56398487 -0.24310102 0.78919131 0.00092793425
0.21265362 0.19489753 -0.32454959 -0.58155578 -0.25699082 0.77184755 0.00021279149
-0.20575435 0.20579118 -0.3260099 0.56082034 -0.31062329 0.76745933 0.0003804593
0.20587036 0.20638052 -0.32566297 -0.55567515 -0.30232289 0.77448434 0.00065373548
0.21440914 0.20294973 -0.32061237 -0.58187973 -0.2798149 0.76362276 0.00043637864
-0.20164515 0.21890084 -0.32342565 0.54325062 -0.34249127 0.76653671 0.0010538833
0.19958569 0.21238925 -0.32785568 -0.51279724 -0.32022676 0.79655117 0.001262557
0.20476514 0.21315245 -0.32354733 -0.54611903 -0.33585113 0.76743597 0.00081253116
-0.19349118 0.22578239 -0.32642484 0.49350205 -0.37816787 0.78322709 0.0019414105
-0.18773457 0.22889455 -0.32861692 0.45081374 -0.389799 0.80300915 0.0020839854
0.19463411 0.22861253 -0.32405302 -0.50660396 -0.38804993 0.7699154 0.0014874042
-0.19009063 0.23439816 -0.32420522 0.46028578 -0.41289306 0.7859112 0.0021572912
-0.18537124 0.23870826 -0.32473934 0.44223571 -0.42933294 0.7874648 0.0019058869
0.17748502 0.23752776 -0.32859015 -0.39908132 -0.41641241 0.81690568 0.0014613769
0.18910028 0.23927788 -0.322153 -0.45816782 -0.4188816 0.78397727 0.0019717044
0.19039945 0.23767589 -0.32207933 -0.46529868 -0.41246808 0.78317767 0.001769366
-0.18145807 0.2463519 -0.32257766 0.42058697 -0.45514664 0.78482366 0.002012837
-0.17978737 0.24144942 -0.32569575 0.40335926 -0.43960136 0.8025285 0.0019062461
-0.16595356 0.24779709 -0.32814205 0.34983107 -0.46155909 0.81521857 0.00062747835
0.16618462 0.24848749 -0.32760608 -0.35667586 -0.46336713 0.81121719 0.00077919936
0.17391947 0.24889344 -0.32419842 -0.38675711 -0.45940909 0.79960132 0.0013302576
0.18333916 0.24500495 -0.32246506 -0.44764242 -0.4429844 0.77677613 0.0022138285
-0.1772325 0.250797 -0.32163659 0.3978982 -0.48297122 0.78001022 0.0017195935
-0.16490817 0.2537576 -0.32489145 0.34280512 -0.4993327 0.79570818 0.00042677365
-0.15628125 0.2570788 -0.32638946 0.33185685 -0.50218385 0.79855019 0.00031843266
0.15504751 0.25508821 -0.3281444 -0.33134317 -0.48744091 0.80784464 0.00045066304
0.17297572 0.25543928 -0.32049891 -0.39210743 -0.49475837 0.77554238 0.0014013501
-0.15614055 0.26682901 -0.32035497 0.32310745 -0.53711379 0.7791729 0.00041617491
-0.14902312 0.26199865 -0.32632151 0.32935944 -0.51834989 0.78919941 0.00028318647
-0.13449192 0.26760381 -0.32878545 0.32096568 -0.54552877 0.77419597 0.00038309829
0.14319906 0.26910314 -0.32413051 -0.32268754 -0.54395974 0.77458405 0.00059032498
0.15552428 0.26141158 -0.32399553 -0.33261836 -0.51665682 0.78894281 0.00040188507
-0.1420868 0.27013367 -0.32379749 0.3219218 -0.54756188 0.77236158 0.0004268068
-0.13497992 0.27436337 -0.32348347 0.31487599 -0.56483626 0.76276672 0.00029995482
-0.12380946 0.27641881 -0.32652727 0.31046692 -0.57237935 0.75894147 0.00039735372
-0.11757295 0.27863562 -0.3274031 0.31150386 -0.57393771 0.75733805 0.00043425479
0.12787929 0.27425081 -0.32651132 -0.31701949 -0.5609892 0.76471543 0.00039228666
0.13915685 0.27386194 -0.3221395 -0.31370962 -0.57088554 0.75873309 0.00047310509
0.14244717 0.27176279 -0.32239342 -0.3153418 -0.56161213 0.76495188 0.00038147267
-0.12351967 0.28383154 -0.32093787 0.30477107 -0.60391229 0.73648113 0.00028980177
-0.10560157 0.28426167 -0.3280285 0.28971034 -0.60060322 0.74521387 0.00060535601
-0.095492423 0.28931558 -0.32805037 0.24211127 -0.62398469 0.74298412 0.0011738542
0.093262762 0.28867486 -0.32957429 -0.23684636 -0.63125336 0.73852754 0.0012828759
0.10729086 0.28326789 -0.32809418 -0.28593105 -0.60321051 0.74456733 0.00050277694
0.1100315 0.2820842 -0.32787073 -0.29543594 -0.6014244 0.74229801 0.00044337814
0.12268277 0.28314459 -0.32181364 -0.29746231 -0.60622096 0.73757184 0.00032366559
-0.1044208 0.29120597 -0.32258099 0.28473291 -0.62718433 0.72495997 0.00068722846
-0.098408803 0.29384205 -0.32260126 0.25409546 -0.64519888 0.72052336 0.00096178672
-0.083952069 0.2978138 -0.32390451 0.1763113 -0.65922123 0.73098677 0.0013274003
-0.073053628 0.29462275 -0.32830158 0.12011471 -0.64787453 0.75221747 0.00055100798
-0.067957796 0.29532495 -0.32835934 0.11344243 -0.64833134 0.75285947 0.00049980317
-0.056962885 0.29799846 -0.32747263 0.096698217 -0.65912628 0.74578947 0.00035350281
-0.03301644 0.29964703 -0.32918584 0.096272208 -0.66827989 0.73765415 0.00041561996
0.058446422 0.29833427 -0.32698411 -0.097575448 -0.66392952 0.74140185 0.00040687958
0.062677443 0.29614639 -0.32833734 -0.101 -0.65726769 0.74685884 0.00060291885
0.070990071 0.29774988 -0.32584295 -0.12065724 -0.65691823 0.74424475 0.00071585283
0.083982907 0.29477105 -0.32666829 -0.18273672 -0.649198 0.73834223 0.0012859894
0.093168952 0.29326382 -0.32531348 -0.23571542 -0.64410901 0.72771001 0.0010967568
-0.076783791 0.30164886 -0.32167596 0.14415863 -0.67608094 0.72258765 0.00097079901
-0.063868396 0.30051908 -0.32436273 0.10025182 -0.67442816 0.73150277 0.00057530211
-0.058397133 0.30249828 -0.32335496 0.09500777 -0.67722535 0.72961587 0.00045144511
-0.046239637 0.30696583 -0.32086825 0.097022966 -0.69437891 0.71303892 0.00052968989
-0.034163993 0.30534652 -0.32398617 0.097684957 -0.68428922 0.72263825 0.00050844968
-0.022738857 0.30488113 -0.32596898 0.095728248 -0.68568969 0.72157174 0.00059589546
-0.015820073 0.30493072 -0.32671508 0.085742787 -0.68508351 0.72340089 0.000455089
-0.0073300391 0.30521801 -0.32752392 0.030015625 -0.68369657 0.72914886 0.0011821333
0.0029772935 0.3069897 -0.32653865 -0.0079438696 -0.6918757 0.72197294 0.0011916414
0.020904902 0.30299079 -0.32786092 -0.080893569 -0.68127912 0.72754031 0.0003524631
0.039307375 0.3045648 -0.32395166 -0.095748156 -0.67998976 0.72694314 0.00046662509
0.041384149 0.30684432 -0.32163566 -0.096775614 -0.68978298 0.71751928 0.00055597397
0.051636748 0.30413586 -0.32281524 -0.089534484 -0.67747813 0.73007321 0.00030767615
0.065525882 0.30381367 -0.32126796 -0.11082906 -0.67999154 0.72479546 0.00032570612
0.075587489 0.30196831 -0.32155454 -0.14732128 -0.68413442 0.71432239 0.00079817756
-0.020699436 0.31001461 -0.32100898 0.088281408 -0.70348459 0.70520622 0.00033861859
-0.017701274 0.31065875 -0.32072306 0.081773609 -0.71161538 0.69779402 0.00053671049
-0.0058978163 0.31221494 -0.32063252 0.017921535 -0.70770323 0.7062825 0.0013088176
0.018411003 0.31086844 -0.32040796 -0.080712415 -0.70884603 0.70073014 0.00056762568
-0.019108031 -0.24135701 -0.31130546 0.1029715 0.43308368 0.89545256 0.00032172797
-0.0044947583 -0.24648774 -0.31087247 0.038631577 0.43789232 0.89819705 0.0012496588
0.0068566459 -0.24697076 -0.31033966 -0.040931899 0.44477549 0.89470631 0.001390178
-0.045058504 -0.23164433 -0.31235057 0.1185621 0.41709441 0.9010967 0
-0.035350073 -0.23579907 -0.31172022 0.11894313 0.42246187 0.8985424 8.4269042e-05
-0.023816964 -0.23571461 -0.31327739 0.11137325 0.41924337 0.90101671 0.00014156343
-0.017707506 -0.23221821 -0.31568781 0.10015269 0.41848904 0.9026829 0.00024718756
-0.0030611183 -0.23523839 -0.31622869 0.0075397682 0.43062755 0.90249825 0.0017674547
0.0045361617 -0.23474497 -0.31626117 -0.021285055 0.42619255 0.90438193 0.0020505316
0.014388688 -0.23366597 -0.31545967 -0.10442574 0.42350334 0.89985561 0.00018324179
0.025641195 -0.23543666 -0.31316489 -0.11531752 0.42412618 0.89823097 7.1996255e-05
0.031479593 -0.2354674 -0.3123821 -0.11836441 0.42236453 0.89866465 5.142498e-05
0.04283176 -0.23354593 -0.3117702 -0.11935586 0.42022562 0.89953578 7.3431867e-05
-0.07583227 -0.22454023 -0.31156245 0.19382735 0.42131615 0.88595915 0.0014528062
-0.066843048 -0.22308104 -0.31341618 0.14715432 0.41386878 0.89836425 0.00061821123
-0.055173911 -0.22374156 -0.31464905 0.11874658 0.41474748 0.9021551 0
-0.048762981 -0.22631134 -0.31431264 0.11878527 0.41554719 0.90178186 0
-0.034932803 -0.22396216 -0.31721252 0.11881403 0.41455185 0.90223604 0
-0.023197746 -0.226464 -0.31760824 0.10864472 0.41504803 0.9032892 0.00020903251
0.002120167 -0.2290476 -0.31919634 -0.0120619 0.42473966 0.90523517 0.0018904505
0.012980899 -0.22700523 -0.31870466 -0.093688793 0.41351557 0.90566403 0.00067213492
0.022423521 -0.22530195 -0.31824392 -0.11443742 0.41529223 0.90246129 0
0.03529302 -0.22371419 -0.31727898 -0.11880216 0.41452429 0.90225029 0
0.042720143 -0.22461233 -0.31588858 -0.1188067 0.41447514 0.90227234 3.2054537e-05
0.056410804 -0.22729979 -0.31285167 -0.1187975 0.41526198 0.90191162 4.8727659e-05
0.065847993 -0.22614896 -0.3121379 -0.12973544 0.41582578 0.90014309 0.00013524621
0.073714644 -0.22222921 -0.31290281 -0.19659752 0.40285286 0.89390099 0.0019242684
0.08001487 -0.22557706 -0.31053552 -0.24211836 0.41014802 0.87929362 0.0017236184
-0.092532814 -0.21403942 -0.31190932 0.28915903 0.41214579 0.86401552 0.0014699411
-0.083004683 -0.21409418 -0.31541663 0.21445131 0.41125312 0.88593537 0.0020270757
-0.074803174 -0.21385106 -0.31660804 0.15658015 0.41933081 0.89422828 0.00085796457
-0.066512972 -0.2151545 -0.31710073 0.13791889 0.41078243 0.90124142 0.00047462058
-0.059836321 -0.2173261 -0.31698221 0.11842711 0.41249034 0.90323126 0
-0.043674123 -0.21789749 -0.31884754 0.11896556 0.41248426 0.90316325 4.1898453e-05
0.050425828 -0.21988191 -0.31704709 -0.11903427 0.41240165 0.90319198 6.910057e-05
0.069879055 -0.21224274 -0.31799513 -0.1556585 0.40336201 0.90170372 0.00087371079
0.079140127 -0.21942474 -0.31347677 -0.20886862 0.40794775 0.88879275 0.002072142
0.086119846 -0.21542259 -0.31366238 -0.26605123 0.39941046 0.87731868 0.0011812517
0.094106093 -0.21407974 -0.31123778 -0.30586624 0.41034353 0.85910654 0.00080677518
-0.10285601 -0.2027735 -0.31318685 0.34123024 0.39106429 0.85476935 0.00023869768
-0.09294945 -0.20463347 -0.31637341 0.29100117 0.39994571 0.86911547 0.0014852269
-0.088005252 -0.20685124 -0.3173281 0.25348881 0.40214419 0.87978595 0.0018934945
-0.078163631 -0.20784682 -0.31892371 0.1931269 0.40025589 0.89582205 0.0015888613
0.0997293 -0.20624575 -0.31277031 -0.32371742 0.39706245 0.85880643 0.00056577788
0.1091365 -0.20092635 -0.31149593 -0.34637675 0.39433014 0.85119146 6.3688989e-05
-0.10283954 -0.19242917 -0.31778324 0.33367079 0.37442073 0.8651433 0.00050856045
0.0955979 -0.19995607 -0.3175821 -0.29395211 0.39006206 0.87260741 0.0010319577
0.10834563 -0.19764219 -0.31337246 -0.34793255 0.38460079 0.85500002 0.00013555617
0.11519 -0.19718845 -0.31072286 -0.3513639 0.3839522 0.85388774 0.00021434022
0.1206352 -0.19238244 -0.31043115 -0.35394186 0.37157726 0.85828632 0.00015479223
-0.12946934 -0.18134445 -0.3112821 0.35879833 0.35945848 0.86142516 2.3602275e-05
-0.11322974 -0.18470639 -0.31663507 0.35679966 0.36022785 0.86193383 7.5057833e-05
-0.10660546 -0.18850847 -0.31782538 0.34962955 0.36773163 0.86170328 0.00019269613
0.10863299 -0.18473876 -0.31852585 -0.35072199 0.3634806 0.86306196 0.00011182514
0.11676537 -0.18329883 -0.31574568 -0.35644862 0.35940021 0.86242443 0.00015238576
0.12509802 -0.18664078 -0.31092864 -0.35482648 0.36615813 0.86024785 0.00013183436
0.13271707 -0.18092088 -0.31010994 -0.35790908 0.35795251 0.86242163 8.5868836e-05
-0.12651998 -0.17681095 -0.31435618 0.35808909 0.35341254 0.86421746 4.3469447e-07
-0.11733101 -0.17724746 -0.31798401 0.35753426 0.35483149 0.86386561 4.2449115e-06
0.11742915 -0.17267153 -0.31981307 -0.35806036 0.35318872 0.86432076 0
0.13303055 -0.17552616 -0.31218439 -0.3583262 0.35373926 0.86398548 8.4614832e-05
-0.14502445 -0.16267566 -0.31246716 0.35842583 0.34913144 0.86581647 3.1784399e-05
-0.13075651 -0.16508067 -0.31739441 0.359043 0.34653249 0.86660451 4.0304112e-05
-0.12490598 -0.166465 -0.31925216 0.35799167 0.35117882 0.8651678 0
0.12609369 -0.1671712 -0.31847161 -0.35811251 0.3530305 0.86436379 8.2549443e-05
