ply
format ascii 1.0
comment PCL generated
element vertex 1393
property float x
property float y
property float z
element camera 0
property float view_px
property float view_py
property float view_pz
property float x_axisx
property float x_axisy
property float x_axisz
property float y_axisx
property float y_axisy
property float y_axisz
property float z_axisx
property float z_axisy
property float z_axisz
property float focal
property float scalex
property float scaley
property float centerx
property float centery
property int viewportx
property int viewporty
property float k1
property float k2
end_header
-0.26646701 -0.45364404 0.24455091
0.092218913 -0.45706964 0.24065569
0.11591214 -0.4527522 0.245565
0.26849467 -0.45072958 0.2419149
-0.4287869 -0.43704894 0.23833704
-0.41304418 -0.43030089 0.23972225
-0.40361205 -0.43908674 0.23951107
-0.33717903 -0.4271951 0.23904628
0.2830013 -0.43323073 0.23445818
0.28851876 -0.44170165 0.24545601
0.30453825 -0.42975307 0.24564382
-0.45882353 -0.41112292 0.23901191
-0.44384429 -0.42420974 0.23866093
0.18689634 -0.42498973 0.24159211
0.20283668 -0.41781709 0.23732588
0.29181856 -0.42377517 0.24765593
0.30410832 -0.42069331 0.23633251
0.31977355 -0.41641456 0.24600354
-0.47367814 -0.39768592 0.23940217
-0.4447169 -0.40527827 0.2407589
-0.38354728 -0.40002692 0.23460072
0.23572832 -0.39678919 0.24283171
0.31741565 -0.40045199 0.23851466
0.33403718 -0.40337396 0.24299565
0.33505464 -0.40305245 0.24636254
-0.48415068 -0.38150615 0.23949805
-0.46990219 -0.38082042 0.24766588
0.33443904 -0.39463755 0.24078733
0.34943837 -0.38800123 0.24692759
-0.50134659 -0.36633369 0.24070877
-0.42794427 -0.36526433 0.2394422
0.26383647 -0.37559846 0.23523116
0.36168402 -0.37443486 0.24602577
-0.51460397 -0.34915745 0.24153227
-0.49076632 -0.34921557 0.24738178
-0.42035499 -0.36393628 0.24907491
0.27875054 -0.36079192 0.24476492
0.29068124 -0.35266113 0.24973419
0.36023992 -0.3541638 0.23996159
0.37741032 -0.35593703 0.24828219
-0.51529229 -0.33785379 0.23762015
-0.44226894 -0.34081182 0.23939669
0.30143291 -0.33536321 0.23894435
0.39007688 -0.33713704 0.24928805
-0.52724552 -0.33042252 0.24253353
-0.50769639 -0.33283713 0.24295428
0.30971074 -0.3300477 0.24098319
0.39405715 -0.32123178 0.2491793
-0.53989339 -0.31136665 0.24356398
-0.53067625 -0.31613991 0.24745834
0.3234452 -0.30685017 0.2371124
-0.55111301 -0.28885543 0.24499196
-0.53507602 -0.28726602 0.24697363
0.40452746 -0.29303476 0.23932424
-0.55098701 -0.27618626 0.23762256
0.3444857 -0.27433544 0.24059644
-0.56184232 -0.26092753 0.24535903
-0.54563081 -0.26440918 0.23740825
-0.49521396 -0.26703998 0.24417752
0.35681927 -0.25833651 0.24678183
0.41265047 -0.26758674 0.24790147
-0.50957513 -0.24467216 0.23825625
0.43030298 -0.25118202 0.2471011
-0.57023931 -0.23757116 0.24859595
0.36828399 -0.23406161 0.24161452
0.43756387 -0.22824897 0.24081159
-0.51665318 -0.21644515 0.23490134
0.37630641 -0.20936415 0.23799875
0.44470233 -0.22039436 0.23619649
-0.56878495 -0.19894634 0.24473551
0.43410972 -0.20645139 0.23759493
0.44476491 -0.20546731 0.23457387
-0.5829128 -0.17821869 0.23569238
0.38377753 -0.18450007 0.23463136
0.43713361 -0.18394376 0.24339119
0.45263121 -0.1892805 0.23842806
-0.57284164 -0.17727992 0.24100384
0.38377082 -0.16251314 0.23543793
0.44280216 -0.16592151 0.24296713
-0.58698523 -0.15888813 0.23838598
-0.57480645 -0.15863311 0.23793095
0.45960024 -0.15531744 0.24095261
-0.59139836 -0.13760003 0.23793164
-0.57874382 -0.13433334 0.23557445
0.44623408 -0.14583249 0.24508819
-0.59056592 -0.12070504 0.24075428
0.44761032 -0.1259172 0.2459389
-0.59183741 -0.10168696 0.24159536
-0.54423273 -0.1041872 0.23829275
0.44395238 -0.10470615 0.23998812
0.46278599 -0.11220473 0.24445507
-0.59590614 -0.087105833 0.23996106
0.86130691 -0.08971592 0.23579881
0.88901079 -0.095056728 0.2382856
0.907184 -0.10003833 0.24172559
0.91254735 -0.091053866 0.23667049
0.92512357 -0.094273202 0.24123767
-0.59183741 -0.082739279 0.24159536
0.390001 -0.072363093 0.23930085
0.84320104 -0.070650607 0.23631436
0.84913945 -0.072363093 0.23930085
0.92915595 -0.073585398 0.24978915
0.94074786 -0.08012934 0.24164906
-0.59183741 -0.063791588 0.24159536
0.463649 -0.06263826 0.24862909
0.9400233 -0.056864202 0.23731014
0.9496274 -0.059979405 0.24320355
-0.59183741 -0.044843908 0.24159536
0.39061326 -0.051297124 0.24712592
0.44378328 -0.049334839 0.23564526
0.58488989 -0.045013424 0.24616635
0.83164692 -0.044524472 0.23755786
0.94542396 -0.040119849 0.24164274
-0.59410787 -0.029119095 0.2430968
-0.57829797 -0.027041722 0.24942163
0.84922922 -0.027062088 0.24204713
0.94893789 -0.023499774 0.24446195
-0.59183741 -0.0069485381 0.24159536
0.56165588 -0.016499735 0.24485761
0.58603662 -0.02009939 0.23838311
0.82533753 -0.012423629 0.23940441
0.94997609 -0.0069485381 0.2452949
0.96273971 -0.014576515 0.24641255
0.55907154 -1.8034596e-05 0.24775961
0.5774473 -0.0025579534 0.24775651
-0.59183741 0.011999147 0.24159536
0.56366456 0.011201745 0.24168062
0.58886069 0.0095690992 0.23879671
0.84880638 0.013733797 0.24361661
0.94769418 0.0099500753 0.24584651
-0.5943296 0.027689064 0.24550164
-0.57817578 0.029555848 0.24460998
0.39122525 0.034933388 0.24345833
0.8275857 0.031731784 0.24345532
0.94851959 0.026162131 0.24412635
-0.59183741 0.049894515 0.24159536
0.46290383 0.047006935 0.23562583
0.56697947 0.042910647 0.24509236
0.85446799 0.045037892 0.2375378
0.93678629 0.051454615 0.24322814
0.94875252 0.046038657 0.23799825
-0.59183741 0.068842202 0.24159536
0.39061123 0.056035876 0.23562658
0.44518304 0.060028672 0.24863985
0.86198258 0.060716093 0.24499756
0.9387542 0.059655406 0.23629183
0.94368935 0.068384625 0.24513957
-0.57800758 0.084136143 0.2399725
0.86623538 0.070768848 0.23632905
0.923594 0.07482709 0.24183306
0.92757857 0.076424398 0.24854314
-0.59183741 0.087789886 0.24159536
-0.54371691 0.088639833 0.24055412
0.86858892 0.089287817 0.24362391
0.88577449 0.091729008 0.24030223
0.90748739 0.089636363 0.24469033
0.91584074 0.095292144 0.23673052
0.93218923 0.0924723 0.23918477
-0.59183741 0.10673756 0.24159536
-0.54391646 0.11308597 0.24355626
0.44460016 0.10944314 0.24446395
0.46340188 0.1025145 0.23996335
-0.59057558 0.12576674 0.24076074
-0.57588017 0.13228537 0.23598561
0.44762114 0.13184753 0.24594542
-0.58927333 0.14482218 0.23989931
-0.57875466 0.14166628 0.23556426
-0.54207695 0.13656069 0.24028531
-0.5921638 0.15913281 0.23850355
-0.57688248 0.1630508 0.23728681
0.44158784 0.15229924 0.24097413
0.44624493 0.15177517 0.24509498
-0.58701456 0.16398107 0.23840532
0.38377964 0.16803771 0.24736217
0.44283476 0.17189339 0.24298745
-0.58294213 0.18334892 0.23571187
-0.57286382 0.18467222 0.24098349
0.43670934 0.18920796 0.23939922
0.4556528 0.17976069 0.24640957
-0.56880724 0.20638008 0.24471512
-0.5311228 0.19979002 0.24343082
0.38381585 0.19597003 0.23461413
0.37636346 0.22077332 0.23797289
0.42708844 0.21736692 0.23619783
0.43416452 0.21249913 0.23762882
0.44482529 0.21362184 0.23452148
-0.56830585 0.24099095 0.24888694
-0.55511296 0.2359367 0.24834269
-0.51671493 0.22873975 0.23487467
0.36580157 0.23114577 0.24049619
0.43761244 0.23647657 0.24076945
-0.50962913 0.25371233 0.24425316
0.36834103 0.24540408 0.24158883
-0.56128955 0.26096502 0.24432334
-0.54559326 0.26732972 0.24188596
0.35691369 0.26958692 0.24673924
0.43035206 0.25948209 0.2470589
-0.55106747 0.2815094 0.2376748
-0.53422308 0.28538191 0.24499336
-0.49525455 0.27915576 0.24415973
0.41273952 0.27372754 0.24795565
-0.53515565 0.29492047 0.24690151
-0.49312964 0.2893922 0.24148262
0.40149197 0.29529539 0.24112329
-0.52308464 0.30782795 0.24356663
0.32345858 0.31290093 0.24929547
0.40975672 0.30813453 0.24019533
-0.53078818 0.32154992 0.24753007
-0.51051033 0.32686809 0.24253353
-0.47247604 0.32034269 0.24030197
0.37293774 0.333848 0.24928653
0.39415759 0.32976845 0.24909356
-0.51159751 0.34202698 0.24028227
-0.49793532 0.34557655 0.24153093
-0.45059982 0.34726769 0.24432126
0.30985719 0.34102166 0.24091589
-0.48473355 0.36273289 0.24070612
-0.44242665 0.35261497 0.23932698
0.29084361 0.36347833 0.24965945
0.36036998 0.35663083 0.24417379
-0.47090331 0.37841636 0.24005198
-0.42054954 0.37556267 0.24898896
0.34642759 0.36878535 0.24758562
-0.48099479 0.38672805 0.2390483
-0.46613625 0.38846523 0.24696252
-0.4571391 0.39402488 0.23940089
0.26069894 0.38497001 0.2363345
0.33245575 0.38464555 0.24692327
-0.44231966 0.40746862 0.23900807
-0.38355842 0.40639344 0.24701706
0.2380946 0.40715837 0.2473062
0.31790212 0.40345147 0.24251676
0.3345831 0.40352008 0.24066809
-0.44493529 0.41346899 0.24056968
-0.4317905 0.41717443 0.24256378
0.21128559 0.41668215 0.23513937
0.28762761 0.4263376 0.24564102
0.30285412 0.41303474 0.24599788
-0.41661856 0.43669412 0.23842299
-0.31480128 0.44329697 0.24051425
0.16392483 0.44170663 0.24232268
0.20309402 0.42812812 0.23720279
0.27163303 0.4383007 0.24545068
0.29208663 0.43066949 0.24781036
0.30434918 0.42973712 0.23613626
-0.39618614 0.44415712 0.23825845
-0.38005659 0.45493931 0.23818389
0.25509533 0.44934878 0.2453748
0.26248983 0.45397806 0.24122956
-0.37314549 0.46786141 0.24369696
-0.36170474 0.4669438 0.23733187
-0.34620586 0.47377524 0.23837501
-0.21948403 0.46809241 0.24814123
-0.19562325 0.46954325 0.24651608
-0.17168504 0.47044006 0.2455115
-0.14766517 0.47043997 0.24551159
-0.12364537 0.47043997 0.24551159
-0.099625409 0.47043988 0.24551177
-0.075605601 0.47043988 0.24551177
-0.051585793 0.47043988 0.24551177
-0.027565926 0.47043997 0.24551159
-0.0035461038 0.47043997 0.24551159
0.020473704 0.47043997 0.24551159
0.044467136 0.46927822 0.24681303
0.068424232 0.46782765 0.24843782
0.22087531 0.46962553 0.24545476
0.23739319 0.46686512 0.2474888
0.25834966 0.46584538 0.24370936
-0.3287634 0.48238122 0.23857436
0.18480925 0.48719835 0.24588707
0.20191814 0.48242909 0.24520928
-0.32439414 0.495336 0.24581903
-0.31104028 0.4912751 0.23939955
-0.29681358 0.4986707 0.24169546
-0.27292618 0.50302839 0.23984513
0.14568046 0.50058091 0.24687737
0.171248 0.49372649 0.24425396
0.1911211 0.49309945 0.24562362
0.20995806 0.49021694 0.24563518
-0.27012271 0.50758398 0.24817398
-0.24806428 0.51248991 0.24277389
-0.23608732 0.51349235 0.2450991
-0.21352986 0.51724654 0.23990068
-0.20565757 0.51680797 0.24399704
-0.18880329 0.51790965 0.24324718
-0.17128897 0.51893312 0.24336824
-0.14941761 0.51821959 0.24091804
-0.14196798 0.51985437 0.24572256
-0.12002614 0.51902193 0.24330211
-0.094376832 0.51900834 0.24329793
-0.069338694 0.51781839 0.23673898
-0.068143442 0.52017307 0.2498762
-0.043194607 0.51767665 0.23537567
0.034821391 0.51929837 0.23517019
0.061666884 0.51854068 0.2366471
0.082220808 0.51502007 0.24914914
0.092966802 0.51638108 0.24046767
0.10909306 0.51384139 0.24449167
0.12279482 0.50920558 0.24389353
0.15271527 0.50585443 0.24251729
-0.22885224 -0.52088308 0.26161322
-0.20623577 -0.52240968 0.26283628
-0.18479931 -0.52254134 0.26456895
-0.15848082 -0.52349126 0.26438797
-0.13021687 -0.52259547 0.26176521
-0.10336766 -0.52250934 0.26025197
-0.076792747 -0.52242428 0.25875399
-0.060239136 -0.5234105 0.25130132
-0.050488234 -0.52233988 0.25727135
-0.029711083 -0.52286118 0.2542657
-0.0094510317 -0.52352196 0.25416866
0.0013268292 -0.52217388 0.25435072
0.016329274 -0.52357864 0.2556242
0.026845157 -0.52209204 0.25291243
0.047466412 -0.52226615 0.25436714
0.073283553 -0.52057546 0.25463217
-0.29009297 -0.50763011 0.25919732
-0.27015933 -0.51259899 0.25991926
-0.24640331 -0.51521289 0.25794497
-0.22256145 -0.51726937 0.26261723
0.056125462 -0.5183937 0.26496756
0.076121837 -0.51690149 0.26184833
0.098875642 -0.51443613 0.25694367
0.13358155 -0.50995797 0.26351628
-0.32614985 -0.49336565 0.25704759
-0.30900288 -0.50118798 0.25868216
-0.29022491 -0.49896488 0.25114837
0.16286089 -0.50173146 0.25176215
0.17724358 -0.49018654 0.252285
-0.35654613 -0.47827351 0.25549728
-0.33984002 -0.48112893 0.25584412
0.20790486 -0.48070452 0.25412491
0.22063097 -0.483147 0.26538828
0.23724172 -0.47366345 0.26287228
-0.39708975 -0.45965049 0.2574147
-0.38064459 -0.46985671 0.25741047
0.21758626 -0.47221589 0.26107001
0.25624523 -0.46507487 0.26500154
-0.41322252 -0.44888115 0.25749305
-0.40269133 -0.4478907 0.26098219
-0.38858971 -0.44677159 0.26250485
-0.28948134 -0.44720823 0.25186899
0.13931035 -0.44559631 0.25370187
0.25633058 -0.44917005 0.25149816
0.25970632 -0.44643718 0.25451657
0.27276939 -0.45403641 0.26508266
0.28930247 -0.44299188 0.26516375
-0.42936394 -0.43810597 0.25757164
-0.31223488 -0.44001707 0.26004592
0.16253221 -0.43829417 0.26200515
0.27861935 -0.43828925 0.25607616
0.30531979 -0.43106228 0.26536328
-0.45938769 -0.41219506 0.25829408
-0.44442061 -0.42528483 0.25791693
-0.43612006 -0.42488188 0.25784981
-0.35927901 -0.41725397 0.25052229
0.20896097 -0.4155347 0.25760615
0.30735743 -0.42411646 0.25826544
-0.47425291 -0.39879879 0.25870755
-0.46121362 -0.40233225 0.24996275
-0.38061383 -0.40443432 0.26532173
-0.48804018 -0.38315409 0.25940731
-0.40035704 -0.38655776 0.25500113
0.2553944 -0.38211048 0.25560045
-0.50189376 -0.36743405 0.26011038
-0.48515967 -0.3784458 0.2647621
0.26760089 -0.3744435 0.26034778
0.34278095 -0.37566766 0.25339314
0.35768378 -0.37004068 0.25072926
-0.51517379 -0.3503255 0.26098463
-0.49691579 -0.35748073 0.25497237
-0.51856983 -0.3357653 0.26267266
-0.44752446 -0.34749442 0.26059049
0.37874222 -0.34597808 0.26224566
0.38779598 -0.34402975 0.25912401
-0.52779472 -0.33157057 0.26206067
-0.46953186 -0.32193232 0.25517574
0.37699413 -0.33133635 0.24996307
0.40283433 -0.31820187 0.25030109
-0.5404923 -0.31264335 0.26314893
-0.52364683 -0.31046358 0.25733161
-0.46546826 -0.31609586 0.25704724
0.32537469 -0.30972177 0.26218507
0.3930079 -0.30890882 0.25952268
-0.55171418 -0.29016268 0.26467592
-0.54295313 -0.29513294 0.2553097
-0.4900901 -0.29131103 0.25618356
-0.48107532 -0.29175839 0.25029463
0.40940183 -0.29831991 0.26520658
0.41457719 -0.29698783 0.25158069
-0.55350447 -0.27457103 0.26205736
0.34469473 -0.28235868 0.25224644
0.42309225 -0.27451667 0.25437284
-0.54687488 -0.2656461 0.26489064
-0.50925457 -0.25669497 0.26258463
-0.55531168 -0.2431348 0.2571297
0.42183521 -0.24654499 0.25348067
0.43627396 -0.249736 0.25468323
0.36403739 -0.23610626 0.2518101
0.4292689 -0.22584215 0.25799629
0.44542128 -0.23352912 0.26470539
-0.58184767 -0.21151298 0.250341
-0.57522619 -0.21604465 0.25338796
-0.56249237 -0.22092576 0.25052413
-0.51918578 -0.21570249 0.26193818
0.44572231 -0.22248541 0.25664595
-0.58066678 -0.19653644 0.2569266
-0.52883101 -0.20569582 0.25370789
0.37829798 -0.20860991 0.2645171
0.43653309 -0.20528845 0.26240894
0.44677997 -0.20633891 0.26176336
-0.52756822 -0.1900931 0.25838619
0.38565058 -0.18383126 0.26126978
0.44070604 -0.1851162 0.26494372
0.45248842 -0.18778893 0.25845614
-0.58684564 -0.17723183 0.25630119
-0.53275979 -0.16418698 0.25618616
0.38251442 -0.17602937 0.25507724
-0.58863866 -0.15803336 0.26211166
-0.57686031 -0.15559898 0.26242241
0.39048934 -0.15880431 0.25913286
0.45530486 -0.16142678 0.25426608
0.46083361 -0.15794669 0.26170656
-0.59269214 -0.13858533 0.25990558
-0.58039582 -0.13492258 0.26251346
-0.54100192 -0.13690469 0.25688383
0.39426768 -0.13365249 0.25746402
0.4580279 -0.13919333 0.25187138
-0.59200346 -0.12007681 0.26430005
-0.54398084 -0.12253621 0.25123572
0.45936903 -0.11708476 0.25069207
-0.58746099 -0.10734615 0.26318407
-0.5414623 -0.11028859 0.2542291
0.39588153 -0.10836551 0.25675136
0.44575059 -0.10054987 0.26227966
0.46419886 -0.1152772 0.26542759
-0.58980227 -0.091128126 0.26058295
-0.57842457 -0.085636482 0.25440297
-0.54245591 -0.086531058 0.25751561
0.86034358 -0.090429865 0.26295242
0.88944387 -0.095227592 0.26338091
0.90624356 -0.09385898 0.26232558
0.91763473 -0.091748685 0.25864998
-0.58785021 -0.076596871 0.26282072
0.39659303 -0.083029054 0.25643709
0.83903134 -0.074986652 0.26273704
0.93437719 -0.080288373 0.2618053
-0.59320915 -0.063479461 0.26508439
-0.53998613 -0.059480779 0.25312409
0.39659303 -0.057668883 0.25643709
0.56039906 -0.063720815 0.26531729
0.57701391 -0.058053859 0.26428175
0.58515257 -0.066073976 0.26092747
0.86541796 -0.068400294 0.2565878
0.93764675 -0.056677952 0.25649568
-0.58785021 -0.047099549 0.26282072
0.44555315 -0.045327418 0.25758898
0.56056845 -0.041435059 0.25272027
0.82520747 -0.05131999 0.26382655
0.94880676 -0.045849077 0.26288253
-0.58785021 -0.027024042 0.26282072
-0.53998613 -0.033214658 0.25312409
0.3939113 -0.031232698 0.25569996
0.56699413 -0.034790706 0.25880188
0.8294276 -0.031009894 0.25621068
0.85383832 -0.037845682 0.26419848
0.95109487 -0.024598517 0.26107606
-0.58785021 -0.0069485381 0.26282072
-0.53998613 -0.0069485381 0.25312409
0.39417928 -0.0081189293 0.2598747
0.46414241 -0.010660367 0.25302795
0.8470788 -0.011096369 0.25457627
0.94749308 -0.0069485381 0.26427311
0.95782793 -0.0069485381 0.25631416
0.39224443 -0.0065830555 0.26047054
0.44536197 0.0081676915 0.25304508
0.53932679 -0.0063836612 0.26305285
0.56368285 -0.0032194543 0.25532961
0.58892524 -0.001733901 0.2526575
0.8490783 -0.0066298032 0.26146361
-0.58785021 0.013126966 0.26282072
-0.53998613 0.019317584 0.25312409
0.39417821 0.016247209 0.25410819
0.54163492 0.022645544 0.26189685
0.94735408 0.0095333364 0.26416335
0.95761538 0.011839768 0.25655726
-0.58785021 0.033202473 0.26282072
0.56165946 0.024446575 0.25838292
0.58589745 0.028385678 0.25116768
0.95055866 0.028362809 0.26128575
-0.59320915 0.049582385 0.26508439
-0.53998613 0.045583703 0.25312409
0.39659303 0.043771807 0.25643709
0.46465153 0.042967483 0.25756636
0.58955204 0.050360493 0.25553113
0.85100162 0.048612226 0.25695503
0.9358077 0.047803678 0.26336914
0.94225216 0.04264624 0.26013345
-0.58785021 0.062699795 0.26282072
0.39659303 0.069131978 0.25643709
0.55947828 0.05657167 0.26413703
0.93658471 0.059398748 0.25565684
-0.59727514 0.083222397 0.25438881
-0.58249116 0.078280933 0.26055709
-0.54271781 0.071883149 0.25638038
0.84016359 0.074967243 0.26424921
0.86206031 0.075046852 0.26275694
0.92290604 0.072332345 0.26174304
-0.58785021 0.093428977 0.26282072
-0.57922482 0.087069392 0.26062423
-0.54245305 0.094985813 0.25183591
0.39659303 0.094492152 0.25643709
0.46517706 0.098325364 0.26225126
0.86222672 0.092608929 0.25170588
0.86925137 0.091504574 0.26311693
0.88388705 0.095434599 0.26202559
0.90769374 0.090644062 0.25767323
0.91999876 0.091154203 0.26417613
-0.59320915 0.1061133 0.26508439
-0.54423881 0.10947368 0.25011018
0.44603512 0.11250228 0.26543707
-0.58686841 0.12298851 0.26278988
-0.54149759 0.12607779 0.25829324
0.39588153 0.11982267 0.25675136
0.45938089 0.12521419 0.25068152
-0.59073794 0.14398208 0.26347709
-0.57869792 0.13864131 0.25943807
0.39426768 0.14509618 0.25746402
0.45804003 0.1473362 0.25186083
-0.5916394 0.15779823 0.26128522
-0.57840645 0.16384786 0.26437077
-0.53734493 0.15051724 0.25424325
0.44287142 0.15498237 0.26172197
-0.57160068 0.17393224 0.25309289
-0.53278053 0.1764975 0.2561774
0.39052767 0.17021875 0.25911596
0.4553408 0.16959512 0.25423449
-0.5846895 0.18227002 0.25954309
0.43839166 0.18988061 0.26198831
0.45120147 0.19203962 0.25787488
-0.58069599 0.20159517 0.25694564
-0.56460035 0.20816597 0.25035104
-0.52765083 0.20236498 0.25835112
0.3856889 0.19520569 0.26125285
-0.57528508 0.2211498 0.25342628
0.378355 0.21992476 0.26449189
0.43234155 0.21532916 0.25953889
0.44682831 0.21459143 0.26172078
-0.56254804 0.22842011 0.25047293
-0.51924753 0.22790423 0.2619122
0.42933464 0.23183736 0.25803623
-0.55536759 0.25070229 0.25707814
0.36405647 0.24184893 0.26376748
0.42033309 0.24959843 0.25410157
0.40847331 0.27127257 0.25300992
-0.5535841 0.27977893 0.26210842
-0.54695392 0.27329662 0.26481786
-0.53482807 0.28667158 0.26467887
0.3444978 0.28024191 0.25271285
0.42041993 0.2829828 0.25566247
-0.54304373 0.30043492 0.25536764
0.34482545 0.29351202 0.25218767
0.39729246 0.29377323 0.25158069
-0.52372706 0.31366381 0.26018986
-0.48113564 0.30375913 0.25026855
0.3296161 0.31689501 0.25904274
0.38938594 0.31504375 0.25494742
0.40948915 0.30682376 0.26513103
-0.51107335 0.32802233 0.2620593
-0.46556768 0.32797182 0.25700408
-0.51869285 0.34119028 0.26275006
-0.49851909 0.3467505 0.26098183
0.30144545 0.34150341 0.25118139
0.37711993 0.33769438 0.2500383
-0.49493113 0.3615616 0.25661474
-0.48528877 0.36382836 0.26010749
-0.44609389 0.35147223 0.26542971
0.37885681 0.35466465 0.2621479
-0.47147515 0.37952349 0.25940448
-0.42795941 0.37149441 0.25175476
0.2787621 0.3669886 0.25703603
0.35782579 0.37881288 0.25061005
-0.48532823 0.38407075 0.26486629
-0.4577277 0.39514348 0.25870469
-0.40466133 0.39297345 0.26250911
0.26779661 0.38507247 0.2602579
0.34295684 0.38222522 0.25349623
0.35988486 0.38354698 0.25698936
-0.46145043 0.40815943 0.25010902
-0.44289187 0.40853605 0.25828981
-0.39629897 0.39782909 0.25969943
0.23359792 0.40326014 0.25063401
0.33400673 0.41009834 0.25540829
-0.4279463 0.42161238 0.25791276
-0.35928532 0.42356709 0.26294881
0.20859542 0.42703253 0.26114398
0.28842574 0.42765144 0.26535872
-0.4363502 0.43084088 0.25798959
-0.41393873 0.4379209 0.25764626
-0.33719084 0.43364364 0.25149074
0.18690203 0.43140411 0.25403732
0.27242655 0.43958464 0.26515791
0.29711008 0.43655336 0.25601363
0.30744323 0.43207043 0.26430327
-0.40221605 0.45127806 0.25630182
-0.38065663 0.45598063 0.25740761
-0.28949836 0.45370471 0.26425681
0.25630546 0.45344761 0.25839278
-0.3642244 0.4662075 0.25740066
-0.26648429 0.46021679 0.25696254
-0.24306747 0.46449277 0.25217316
0.092224747 0.46366361 0.25310183
0.1159214 0.45934117 0.25794348
0.22170547 0.470902 0.26516083
0.23938613 0.46167237 0.264994
-0.36455426 0.47810581 0.25600868
-0.35234281 0.48173407 0.25440007
-0.34681633 0.47479784 0.25761372
-0.32938251 0.48340052 0.25782704
0.20375788 0.47976837 0.26537943
0.21756078 0.47555202 0.25077316
-0.31002086 0.49392617 0.25464353
-0.29728469 0.50073677 0.26119837
-0.27357477 0.50404245 0.25918743
0.15594584 0.50190485 0.25954992
0.20840713 0.49039257 0.25372815
-0.26460215 0.50994134 0.25930417
-0.25360778 0.50904721 0.25990787
-0.23297375 0.51321727 0.26075089
-0.21736714 0.51893497 0.25705689
-0.20415825 0.51853883 0.26505253
-0.18952894 0.51897097 0.2628231
-0.17094952 0.52029735 0.26366594
-0.14801785 0.51988542 0.26174825
-0.14275345 0.52096611 0.26546672
-0.1210787 0.51974195 0.26023513
-0.09442398 0.51958883 0.25873888
-0.068030968 0.51944834 0.25725642
-0.042474374 0.51979554 0.25353867
-0.016867131 0.51978135 0.25352544
0.0079153627 0.52050185 0.25415555
0.009553656 0.51902443 0.25289938
0.034237608 0.51961225 0.25356185
0.059608743 0.51841915 0.25375149
0.076109618 0.52011698 0.25174013
0.088442303 0.51822579 0.25892681
0.11906277 0.5136072 0.26108506
0.13844307 0.51311469 0.25096071
0.15713918 0.50776577 0.26375303
-0.20235392 0.52195847 0.25566581
-0.18223402 0.5234338 0.25881103
-0.16236025 0.52357024 0.25910172
-0.14250842 0.52357024 0.25910181
-0.12265673 0.52357024 0.25910181
-0.10280493 0.5235703 0.2591019
-0.082953155 0.52357024 0.25910172
-0.063101426 0.52357024 0.25910172
-0.043249637 0.52357024 0.25910181
-0.023397952 0.52357024 0.25910181
-0.0035461485 0.52357024 0.25910172
0.016305625 0.52357024 0.25910181
0.036176011 0.52305174 0.25799635
0.056116253 0.5215863 0.2548725
-0.18226063 -0.52027577 0.26890156
-0.16238379 -0.52041423 0.26919103
-0.14145505 -0.52142268 0.26896417
-0.12267274 -0.5199489 0.26997259
-0.10533896 -0.52286154 0.27287638
-0.09246397 -0.52198648 0.27034003
-0.077920169 -0.52119708 0.2731148
-0.062097177 -0.52248216 0.27031431
-0.047972128 -0.52117783 0.27258426
-0.02750729 -0.52202189 0.27228546
-0.010340348 -0.52468383 0.27450493
-0.0015778691 -0.52113992 0.27153936
0.017336205 -0.52154809 0.27200261
0.032031149 -0.52167398 0.2706039
0.04635179 -0.52219355 0.27338469
0.069806792 -0.52229172 0.27960527
0.076770552 -0.52144849 0.27035946
0.10021028 -0.51951325 0.26912656
-0.290694 -0.50858611 0.27853072
-0.27079737 -0.51359659 0.27929419
-0.25018123 -0.51483041 0.27486557
-0.21613237 -0.51861274 0.26699835
-0.19844162 -0.5180909 0.27098152
-0.17042208 -0.51880443 0.27253956
0.067991979 -0.51849115 0.27336323
0.091956198 -0.51710284 0.27701324
0.12176441 -0.5151934 0.26824233
0.14319283 -0.51089913 0.26736331
0.16349724 -0.50516826 0.26669368
-0.3284283 -0.49572662 0.27743465
-0.30959439 -0.50214505 0.2779817
-0.29416785 -0.4982833 0.27292058
0.15597275 -0.49865016 0.26963592
0.17160247 -0.49727327 0.26683339
0.18546899 -0.49640626 0.26850191
0.20256254 -0.49185815 0.26562944
-0.3646048 -0.47477916 0.26622483
-0.36380711 -0.47939312 0.27685502
-0.34639904 -0.48799586 0.27708104
-0.33294454 -0.48382184 0.27680621
0.21632469 -0.47572529 0.27444106
-0.39762762 -0.4606007 0.27663404
-0.38118967 -0.47080269 0.27662948
-0.37192175 -0.46177083 0.27411562
-0.24102005 -0.46040112 0.27232218
-0.21761996 -0.46379092 0.26852536
-0.19396719 -0.46525407 0.26688641
-0.17022887 -0.46606091 0.26598275
-0.14641696 -0.46606082 0.26598287
-0.1226052 -0.46606091 0.26598275
-0.098793447 -0.46606091 0.26598275
-0.074981511 -0.46606091 0.26598275
-0.051169783 -0.46606091 0.26598275
-0.027357981 -0.46606091 0.26598275
-0.0035460591 -0.46606091 0.26598275
0.020265654 -0.46606091 0.26598275
0.044051498 -0.46491915 0.26726171
0.067800313 -0.46345639 0.2689001
0.09139625 -0.45936427 0.27348375
-0.4137536 -0.44983646 0.2767176
-0.26422581 -0.45607498 0.27716792
0.1148824 -0.454981 0.27839336
0.26559353 -0.44814852 0.2741535
0.28071257 -0.44291496 0.27363136
-0.44495043 -0.42627329 0.27716628
-0.42988816 -0.43906611 0.27680138
-0.41421261 -0.43323484 0.26718292
-0.33448562 -0.43072811 0.27060837
0.1729189 -0.43550518 0.27787945
0.18531512 -0.4280411 0.2736637
0.2784476 -0.43565506 0.27763891
-0.45991156 -0.41319045 0.27756828
0.29834542 -0.42068428 0.27528191
0.32054707 -0.41773313 0.26574814
-0.47479334 -0.39984521 0.27800292
-0.46681961 -0.39945024 0.27649805
-0.44480476 -0.40737897 0.26973775
-0.36590657 -0.40767264 0.27312207
0.23168585 -0.40068379 0.26965138
0.24218562 -0.39552352 0.27203542
0.32414043 -0.39748013 0.26628232
0.33566132 -0.40042698 0.26774782
-0.48857555 -0.38421032 0.27874848
-0.47030124 -0.38274878 0.27634007
-0.40161285 -0.39142111 0.28034443
0.35020959 -0.38936356 0.26673403
-0.502424 -0.36850029 0.27949774
-0.42480978 -0.37046525 0.26924962
0.27655935 -0.36522609 0.27539051
0.34723428 -0.37323433 0.27959055
0.36142665 -0.37264407 0.2734203
-0.51103497 -0.3534568 0.2791357
-0.42435691 -0.36284363 0.27483442
0.29369363 -0.35149252 0.27523342
0.36465731 -0.35186508 0.26622519
0.37819964 -0.35738277 0.26817611
-0.50846946 -0.33446899 0.27108631
-0.44593635 -0.33975083 0.2654978
0.29920906 -0.34087229 0.26847169
0.39084852 -0.33857659 0.2692554
0.31269592 -0.32895046 0.2666688
0.38047558 -0.32931775 0.27550361
0.39532655 -0.3227143 0.27739906
0.40358847 -0.31963512 0.27034256
-0.53363168 -0.3142319 0.27214232
-0.54071617 -0.29103693 0.2771382
-0.48390517 -0.29077834 0.27688849
0.40443271 -0.28734434 0.26634282
0.41536433 -0.29851189 0.27170253
0.3447639 -0.28184825 0.2727423
0.42662245 -0.27596763 0.2732335
-0.56304717 -0.26743728 0.26622015
-0.49786571 -0.2661292 0.27097267
0.35896412 -0.25741363 0.27305591
0.41539931 -0.26603809 0.27288947
-0.57288814 -0.24082859 0.26823634
-0.56314039 -0.25431061 0.26821971
-0.50984693 -0.2411022 0.26589552
0.36187774 -0.24459349 0.27766863
0.42400336 -0.24518259 0.27802566
0.43453252 -0.25186348 0.27490658
-0.57012081 -0.23451747 0.27268377
-0.55316925 -0.23126072 0.26944718
0.37018687 -0.23320907 0.26809937
0.43939534 -0.22923981 0.26825765
-0.58251214 -0.21304852 0.27038082
-0.57704461 -0.21485753 0.27711174
-0.56375825 -0.22195677 0.2780475
-0.5264287 -0.21665734 0.27643302
0.44653341 -0.22414814 0.27711475
-0.58221698 -0.19548415 0.2804195
-0.5701437 -0.19986245 0.27208567
0.45471528 -0.19363682 0.27961504
-0.58981955 -0.1790774 0.27327397
-0.57427227 -0.1780865 0.2682308
0.3811534 -0.18892577 0.27527422
0.43901029 -0.17397258 0.26888457
0.44486305 -0.16502026 0.26746887
-0.59564757 -0.14054716 0.27670479
0.44806752 -0.14505926 0.26941547
0.45979893 -0.13979183 0.27938432
0.44941348 -0.12525642 0.27023304
0.46118098 -0.11758106 0.27815056
-0.54080474 -0.11158552 0.28085715
-0.54173803 -0.085449301 0.28047001
0.8847636 -0.093761228 0.27076519
0.90856433 -0.090392925 0.27577761
0.91984892 -0.091654323 0.27358773
-0.57966471 -0.082447559 0.27613989
0.84003174 -0.070707075 0.27598748
0.92687356 -0.073334254 0.26899594
-0.54359531 -0.06332431 0.27574492
0.46518257 -0.066040561 0.26988578
0.53750676 -0.055693153 0.28029296
0.85605776 -0.061252594 0.26825452
0.93525982 -0.056493908 0.27551714
0.94082916 -0.063876294 0.27575374
-0.54598284 -0.047369823 0.28013772
0.39321437 -0.048084505 0.27789107
0.4469561 -0.042150807 0.27956298
0.59483862 -0.040111687 0.26820138
0.94053078 -0.039876573 0.27961582
-0.59755027 -0.035290491 0.26560685
-0.57950532 -0.024004243 0.27079111
-0.54173803 -0.033115458 0.28047001
0.39272887 -0.027308416 0.26917002
0.53798318 -0.032362241 0.26933849
0.58957356 -0.033065677 0.26586094
0.61615729 -0.030251289 0.27320492
0.84677827 -0.033590917 0.26708815
-0.54173803 -0.0069485381 0.28047001
0.46559724 -0.013954449 0.27463731
0.5416491 -0.014501441 0.27562174
0.57857823 -0.0084937802 0.26901978
0.81662905 -0.021750826 0.26557457
0.83756316 -0.014567629 0.26812157
0.59712791 0.0054061613 0.2689597
0.6183067 -0.0026273807 0.26980892
0.94345951 0.0023032357 0.26737383
0.96059096 -0.0060853101 0.26732749
-0.59801352 0.021366606 0.2707746
-0.54173803 0.019218385 0.28047001
0.39224878 0.011408454 0.27200496
0.44684681 0.011462051 0.27465421
0.53933382 0.014455929 0.27668166
0.8141346 0.014893228 0.26810291
0.84334719 0.020683443 0.26679993
-0.57936263 0.032478075 0.26562113
-0.54651153 0.031920716 0.27786803
0.3927331 0.032156862 0.2807188
0.57175875 0.031218486 0.26576555
0.62267089 0.031058805 0.27675885
-0.543859 0.048661727 0.27460673
0.46602517 0.039792631 0.27954033
0.56056845 0.049350005 0.26620096
0.84674549 0.041673828 0.28052089
0.93979192 0.042465005 0.27904126
0.94937134 0.049692802 0.26598507
0.4467409 0.06341625 0.26989719
0.54552221 0.056741439 0.26909262
0.83926058 0.058825731 0.26814756
0.93333769 0.061561048 0.27596471
-0.59849322 0.080020137 0.27612475
-0.54173803 0.071552224 0.28047001
0.56038815 0.071658902 0.27873725
0.57399833 0.085945413 0.26721719
0.5848974 0.074622884 0.27310479
0.86548448 0.076125376 0.27024958
0.90714872 0.086016506 0.28097185
0.92524326 0.076112643 0.26772815
-0.54173803 0.09771914 0.28047001
0.90573108 0.093348697 0.27360895
0.92558587 0.088223673 0.26555037
0.45075777 0.11128669 0.27104965
-0.54080474 0.12384768 0.28085715
0.4494243 0.13107663 0.27023965
0.46119303 0.12580974 0.2781398
-0.57800317 0.13729523 0.27673036
-0.54359567 0.14567618 0.27657574
0.45981097 0.14803444 0.27937376
0.44807845 0.1508915 0.26942202
-0.57240808 0.17579827 0.27328801
0.44489554 0.1708795 0.26748869
0.45889232 0.17195302 0.26884973
-0.57429445 0.1855796 0.26821008
0.38252321 0.18149127 0.26696336
0.43696207 0.19062926 0.27962315
-0.58224607 0.20043768 0.28043815
-0.57017708 0.20739682 0.27205437
-0.56527567 0.20969513 0.27039146
-0.57710314 0.21985486 0.27714905
-0.52885211 0.21129991 0.26562145
0.42893434 0.22107895 0.27711955
-0.57016981 0.23957862 0.27271515
-0.5598017 0.23349579 0.27311894
0.43944404 0.23756641 0.2682147
0.44534019 0.24109916 0.27728632
-0.50992858 0.25322896 0.26586094
0.37026238 0.24445833 0.26806599
0.42184138 0.24969764 0.27653638
-0.56319976 0.25943381 0.26825774
-0.54607904 0.2640118 0.26622161
-0.5092777 0.26243877 0.27456245
0.35905796 0.26857167 0.27301443
0.41547662 0.27206129 0.27293551
0.43201005 0.26069677 0.27475271
-0.49790624 0.2781539 0.27095544
0.34237093 0.28812504 0.27923751
0.40925586 0.27278775 0.27323493
-0.54080677 0.29751056 0.27712455
-0.49010965 0.29720089 0.26826933
-0.48398569 0.30269194 0.27685449
0.34730333 0.29244319 0.27820581
0.40130383 0.29438367 0.26904517
0.3864046 0.31638932 0.27033955
-0.53374267 0.31952286 0.27221221
-0.46955076 0.32793477 0.26732975
0.32125914 0.3195017 0.2773661
0.39545256 0.33135292 0.27728984
-0.50855076 0.34239331 0.2710126
-0.49908021 0.34787902 0.28041878
0.29922318 0.34687817 0.28060725
0.31284216 0.33983994 0.26660296
0.37716022 0.33541542 0.2724154
-0.50650311 0.36087891 0.27795309
-0.48582104 0.36487874 0.27949625
-0.44753733 0.35353279 0.27280745
0.29383785 0.36222386 0.27516839
0.3632628 0.35526484 0.27101538
0.38775784 0.35106295 0.27169532
-0.47201255 0.38056397 0.27874693
-0.42455092 0.37439182 0.27475056
0.34729654 0.37490097 0.2735621
0.35876787 0.38068101 0.27928731
-0.46436051 0.39355823 0.27710566
0.25540501 0.38832092 0.26788026
0.33323717 0.38600159 0.26672944
-0.46704343 0.40513602 0.27663407
-0.443423 0.40952682 0.27756372
-0.3806251 0.4106445 0.277643
0.24239555 0.40594244 0.27193886
0.31888199 0.40099737 0.266128
0.3243776 0.40409529 0.26641896
0.33562729 0.40548006 0.26926222
-0.44504878 0.41568118 0.26952299
-0.42848334 0.42259595 0.27716187
-0.36605653 0.41884217 0.2730557
0.20958871 0.42058265 0.26634231
0.29837793 0.42540997 0.27810365
0.30363095 0.41433606 0.26574364
-0.41771331 0.43996489 0.2728163
0.27839661 0.4391067 0.26747274
0.29400846 0.44008008 0.27773806
-0.39732274 0.44616503 0.27671027
-0.38487497 0.45519933 0.27573249
-0.31224957 0.44641775 0.27241892
0.13931882 0.45207679 0.26608023
0.16253915 0.4446654 0.27438167
0.17310293 0.44544643 0.27779317
0.26592299 0.45233154 0.28089961
-0.36851665 0.46884677 0.27522442
-0.21763006 0.47022742 0.28091994
-0.19397619 0.47170484 0.27928969
-0.17023775 0.47253221 0.27837679
-0.14642465 0.47253221 0.27837679
-0.12261149 0.47253221 0.27837688
-0.098798454 0.47253221 0.27837688
-0.074985385 0.47253221 0.27837688
-0.051172331 0.47253221 0.27837688
-0.027359277 0.47253221 0.27837688
-0.0035461932 0.47253221 0.27837688
0.020266995 0.47253221 0.27837688
0.044053853 0.47136658 0.27966294
0.26601565 0.46026909 0.26737046
-0.35152158 0.4818159 0.27676871
-0.34272584 0.47885305 0.27184427
-0.32995066 0.48433584 0.27707347
0.18568353 0.4884983 0.26561919
0.19525766 0.48815784 0.27661604
0.21713004 0.48082551 0.27801105
0.23505253 0.47764188 0.27197695
-0.30928221 0.49554306 0.27503687
-0.29351172 0.50180531 0.27814701
-0.27418312 0.50499392 0.27852026
0.14655945 0.50184554 0.26668319
0.16615629 0.49516004 0.26615018
0.18960944 0.49487132 0.26679984
-0.28026846 0.51152569 0.27966043
-0.26840445 0.50950861 0.26952058
-0.25425351 0.51003993 0.27928197
-0.23394763 0.51514494 0.27358216
-0.11923015 0.52102727 0.27396157
-0.093395084 0.52085161 0.279383
-0.066996783 0.52073747 0.27779189
-0.0408663 0.5206244 0.27621663
-0.01499927 0.52051258 0.27465716
0.010608017 0.5204019 0.27311358
0.035693392 0.51993906 0.27163616
0.059652388 0.51828671 0.27034417
0.083152659 0.51629716 0.26911294
0.087430149 0.51946807 0.27958742
0.1047559 0.5119465 0.26822886
0.12622538 0.50761044 0.2673513
0.13500677 0.5099805 0.27643061
-0.093814284 0.52118856 0.26841575
-0.068980083 0.52130139 0.26991227
-0.043897942 0.52141541 0.27142379
-0.018564209 0.52153057 0.27295032
0.0070250332 0.52164692 0.27449232
0.032865033 0.52177525 0.2760483
0.059580557 0.52114135 0.27773246
-0.22952017 -0.52189285 0.28109774
-0.21485212 -0.5200907 0.28819603
-0.2069594 -0.52348566 0.28239176
-0.18462458 -0.52371866 0.284933
-0.15837333 -0.52464867 0.28473881
-0.13614002 -0.52550238 0.28676626
-0.12922046 -0.52379966 0.28263345
-0.11164975 -0.52556741 0.28834528
-0.086916417 -0.52563304 0.28993997
-0.0619362 -0.5256992 0.29155064
-0.036705405 -0.52576602 0.29317734
-0.011220485 -0.52583373 0.29482043
0.0032396764 -0.52467287 0.2949996
0.014522687 -0.52590191 0.29648033
0.028743014 -0.52461112 0.2933546
0.053704903 -0.52416301 0.29178524
0.077560447 -0.52253091 0.29041153
0.10093908 -0.5205282 0.28910753
-0.28031471 -0.50841939 0.28966349
-0.24626008 -0.51196903 0.2926313
-0.21886089 -0.51483285 0.28298137
0.10015501 -0.51774806 0.28189391
0.11544465 -0.51283759 0.29086408
0.12742908 -0.51381063 0.28631875
0.13985918 -0.50949097 0.29004166
0.1641611 -0.5061391 0.28652126
-0.34375539 -0.48866618 0.29497236
-0.28652027 -0.50311422 0.29421431
0.17011766 -0.49904051 0.28797862
0.18371846 -0.49947345 0.28595325
0.20319937 -0.49282098 0.28538877
-0.36455837 -0.47658655 0.29083899
-0.31629646 -0.48807302 0.28688467
0.20106615 -0.48416466 0.2859247
0.21619634 -0.48345774 0.28986186
0.23917276 -0.47523573 0.2849018
-0.39816508 -0.46155021 0.29583672
-0.38173434 -0.47174782 0.29583189
-0.36566493 -0.46353766 0.28447786
0.23559324 -0.46540946 0.29194969
0.25684324 -0.46602592 0.28472272
0.26257774 -0.46101204 0.2908318
-0.4142842 -0.45079076 0.29592541
-0.41073689 -0.44565839 0.28909376
-0.39470091 -0.44877377 0.28351837
-0.3096655 -0.44285119 0.29197985
-0.28709322 -0.44999215 0.28398111
0.13809644 -0.44807413 0.28612965
0.27336025 -0.45499247 0.28480905
0.28988636 -0.44395313 0.28489551
-0.44547972 -0.42726073 0.29639855
-0.43041191 -0.44002551 0.29601422
-0.42522189 -0.43939844 0.28488672
0.16112497 -0.44081298 0.29426298
0.30590361 -0.43204027 0.2851066
-0.44196919 -0.42181116 0.28451663
-0.35639212 -0.42068192 0.2820318
0.20785405 -0.41770971 0.28541133
0.21353789 -0.41571397 0.28520924
0.29823995 -0.419936 0.29091752
0.30528098 -0.42481148 0.29476082
0.32112494 -0.41871843 0.28551668
-0.37767532 -0.40850145 0.29588202
0.33638552 -0.40536195 0.28592786
-0.39982679 -0.38521096 0.28544778
0.2499194 -0.39036047 0.29136872
0.32929647 -0.39479941 0.29280248
0.35079539 -0.39039841 0.28656268
-0.48923805 -0.37598878 0.29011601
0.27116427 -0.37327343 0.28538775
0.36478961 -0.37452415 0.28731963
-0.49195185 -0.3590036 0.28605568
-0.44442466 -0.35345471 0.28918758
0.36399442 -0.34964582 0.28856996
0.37333861 -0.35413823 0.28978464
-0.52160251 -0.33373436 0.28728506
-0.44891301 -0.33862478 0.29171664
0.3795768 -0.34764424 0.29104212
0.39145774 -0.33971304 0.28924003
-0.52834868 -0.33272868 0.28156695
-0.4662905 -0.32806468 0.28371441
0.31733546 -0.32389882 0.29278684
0.40418741 -0.32077315 0.29040021
-0.53879929 -0.31309918 0.28961962
-0.52448606 -0.3119818 0.28548592
-0.46815851 -0.31501958 0.28356117
0.33202457 -0.30481192 0.28495371
0.39584041 -0.30711338 0.28451607
-0.55231464 -0.29146847 0.28433806
-0.48698798 -0.29866982 0.2832889
0.34000498 -0.28883496 0.29517451
0.41051665 -0.29972175 0.2936548
0.41601539 -0.2997725 0.29183462
-0.55579376 -0.27300027 0.28607625
0.40683973 -0.28572842 0.29096797
0.42446026 -0.27654213 0.28866294
-0.56364453 -0.26876259 0.28598332
-0.54797256 -0.26691464 0.29278624
-0.50641918 -0.26558301 0.28775933
-0.57355309 -0.24233414 0.28811073
-0.56078827 -0.2485908 0.28833175
-0.51195979 -0.24024582 0.29282567
0.43783596 -0.25287706 0.29533499
-0.57195413 -0.23322955 0.29623666
0.37207526 -0.2323629 0.29438606
0.43599874 -0.22745259 0.28938583
-0.58317578 -0.2145824 0.29039532
-0.52110696 -0.21492597 0.28903037
0.38016105 -0.20785372 0.29088768
0.43818194 -0.2042059 0.28648967
0.44814444 -0.20727932 0.28978929
-0.59060717 -0.18093601 0.29343924
-0.57566106 -0.17890535 0.29576945
-0.52956593 -0.18941596 0.28552055
0.38735735 -0.18315864 0.28777415
0.44232914 -0.1841456 0.28896537
0.45271719 -0.18464862 0.285707
-0.5861758 -0.17630504 0.28295124
-0.53461778 -0.16359857 0.28342435
0.44151926 -0.16805166 0.29141301
0.4464606 -0.16416074 0.29143175
-0.59013891 -0.157198 0.28548566
-0.57832956 -0.15392686 0.28721303
-0.54226911 -0.1551871 0.28230599
0.39218041 -0.15822594 0.28568742
0.45696947 -0.16213365 0.28191072
0.46169731 -0.15978798 0.28251588
-0.58697367 -0.13691108 0.28830087
-0.53912652 -0.1376757 0.28155354
0.39583153 -0.13316455 0.2841078
0.44949549 -0.14431879 0.29324335
-0.59333873 -0.11946023 0.28753203
0.45083332 -0.12462251 0.29404199
0.46524391 -0.11754959 0.28644952
-0.58885407 -0.10734247 0.28844544
0.39744002 -0.10797475 0.28341171
0.45216945 -0.10495029 0.29483959
-0.59827459 -0.092936963 0.28122187
-0.58401263 -0.092580073 0.28785542
0.39418912 -0.089789793 0.29539713
0.44706887 -0.097502947 0.28463101
0.85529876 -0.095872529 0.28876126
0.8867979 -0.097637549 0.28252801
0.90512431 -0.094511382 0.28690651
-0.58925581 -0.076543055 0.28806469
0.39813006 -0.082735367 0.28311327
0.56163937 -0.079260901 0.28460571
0.57406652 -0.077711985 0.28136697
0.58530229 -0.078544483 0.28366441
0.8322171 -0.082072094 0.2887249
0.861637 -0.079922169 0.28601336
0.8693608 -0.083108917 0.28338775
0.92350578 -0.073127545 0.28721458
0.93940198 -0.075108841 0.28148225
-0.59449899 -0.063172579 0.28827399
0.39370108 -0.068911411 0.28663343
0.39813006 -0.05747309 0.28311327
0.4663738 -0.068683781 0.29118076
0.59833848 -0.055116352 0.28450242
0.61554766 -0.05377803 0.28386578
0.81589031 -0.061152339 0.28957561
0.84723186 -0.054664798 0.28221139
0.92802739 -0.055673067 0.29213774
-0.59873056 -0.038260117 0.28656474
-0.58925581 -0.047097769 0.28806469
0.51437682 -0.047593657 0.29540271
0.54554367 -0.048462745 0.28295398
0.95185804 -0.048436176 0.28347027
-0.58925581 -0.027023153 0.28806469
-0.54651439 -0.02733415 0.28927359
0.39813006 -0.032210812 0.28311327
0.51514024 -0.02318556 0.28614688
0.61054981 -0.02910815 0.28631568
0.62282562 -0.023167972 0.29120967
0.80354142 -0.035768148 0.29097065
0.82205021 -0.037394963 0.29652664
0.94696963 -0.024656542 0.28758809
-0.58925581 -0.0069485381 0.28806469
-0.58071566 -0.020959452 0.2921102
-0.54757774 -0.0082320869 0.29617074
0.39813006 -0.0069485381 0.28311327
0.46680045 -0.016678765 0.29626304
0.59777105 -0.017649356 0.29031906
0.82835805 -0.019277558 0.29330471
0.94620383 -0.0077576498 0.28702289
0.51672614 0.0040891762 0.2883628
0.79583478 -0.0050003044 0.29301423
0.82476008 0.0061028847 0.29004896
0.957335 0.0067816493 0.28890091
-0.59920824 0.018294413 0.29209083
-0.58925581 0.013126079 0.28806469
-0.54704702 0.011855286 0.28699785
0.39813006 0.018313739 0.28311327
0.44808888 0.014217842 0.29627559
0.61741078 0.012380848 0.28683951
0.94886518 0.010738846 0.28625646
-0.58925581 0.033200692 0.28806469
-0.58054686 0.035393734 0.28658512
0.51948184 0.034838505 0.28343588
0.59262347 0.02684162 0.28626156
0.61603761 0.038625378 0.2862078
0.7985152 0.037727874 0.29650196
0.82661533 0.035937209 0.29098588
0.83445132 0.037145518 0.28751135
0.94627416 0.028482454 0.28798464
-0.59449899 0.049275503 0.28827399
0.39321873 0.052956183 0.28945392
0.39813006 0.043576013 0.28311327
0.53798318 0.040400907 0.28289565
0.58069849 0.053228524 0.28439355
0.93484318 0.042644411 0.28993297
-0.58925581 0.062645979 0.28806469
0.39813006 0.068838291 0.28311327
0.44795749 0.066061877 0.29119122
0.53749979 0.063732602 0.29379997
0.83879924 0.061330847 0.28958231
0.84724832 0.062668197 0.29582259
0.92221355 0.069820106 0.28169322
0.93007314 0.058977067 0.29224154
-0.58401263 0.078682996 0.28785542
0.54386497 0.073470302 0.28464139
0.56605822 0.07242991 0.28339621
0.84466279 0.076440208 0.28602129
0.85516572 0.082111746 0.28874403
0.92204022 0.075845897 0.28609267
-0.58925581 0.093424536 0.28806469
-0.58038926 0.089876279 0.28124321
0.39813006 0.094100557 0.28311327
0.46646705 0.095281132 0.28460231
0.5868175 0.091394834 0.29621971
0.85061765 0.09500546 0.29454532
0.86969614 0.092992812 0.28266612
0.88644624 0.095897399 0.28402776
0.89832342 0.09192843 0.28941533
0.91649842 0.098043166 0.28334758
-0.59449899 0.10549954 0.28827399
0.44962895 0.11268882 0.29065537
-0.5882889 0.122931 0.28807527
0.39745927 0.11933501 0.28340343
0.45084387 0.13033707 0.2940484
-0.58698392 0.14311004 0.28829879
0.3958506 0.14451161 0.28409934
-0.59314251 0.15529098 0.28402081
-0.54070532 0.15517943 0.28779778
0.44662726 0.15343034 0.28789115
-0.57651591 0.17116873 0.29264334
-0.5346384 0.17581101 0.28341594
0.39221856 0.16954397 0.28567111
0.45174313 0.17015824 0.28666994
0.46135244 0.16602413 0.29137763
-0.58621454 0.18122181 0.28297606
-0.57568324 0.1865008 0.29574844
0.38116413 0.19433001 0.28710589
0.3873955 0.19443694 0.28775766
0.44236135 0.18993416 0.28898463
0.45275357 0.19296071 0.28567457
-0.52962792 0.2015897 0.28549477
0.43821433 0.21003135 0.28650904
-0.56595552 0.21123455 0.29040506
-0.52645254 0.22218348 0.28827968
0.38023674 0.21907544 0.29085487
0.44820535 0.21563502 0.28973505
-0.57201278 0.23818229 0.29627341
-0.55470181 0.23907989 0.28471327
-0.52116835 0.22703061 0.2890048
0.43605587 0.23461027 0.28938347
-0.55660331 0.251948 0.28472796
-0.51204121 0.25227737 0.29279181
0.36189651 0.25022128 0.28955695
0.37215063 0.2435181 0.29435349
0.42035466 0.2497039 0.2953434
-0.5650785 0.25792122 0.2919139
-0.54668581 0.2653313 0.28598493
-0.55587292 0.27809608 0.28612608
-0.54174781 0.2813147 0.28852221
0.40991354 0.27406114 0.29346749
0.42173034 0.28435126 0.28379303
0.40284288 0.29414472 0.29142642
-0.52428365 0.31033427 0.28272048
-0.48701307 0.30445594 0.29527235
0.33215362 0.31575078 0.28489673
0.39147085 0.31536832 0.2874828
0.41059163 0.30833507 0.2935887
-0.52460122 0.31985509 0.28537995
-0.51163578 0.32917529 0.28156546
-0.46729079 0.33035702 0.28966117
-0.5217247 0.3390401 0.28736055
-0.44905058 0.35025719 0.29165816
0.31578901 0.33866405 0.29212409
0.37433136 0.3364006 0.28924003
-0.51027155 0.36246306 0.29495153
0.36174756 0.35515562 0.28808987
0.37384742 0.35622954 0.2912415
-0.49204645 0.36709356 0.28596997
-0.42482701 0.37655878 0.28145862
0.27657074 0.37126687 0.28756762
0.34778446 0.37118244 0.28731477
-0.48940524 0.38148481 0.29021761
-0.40001765 0.39655676 0.28536513
0.27134183 0.38382187 0.28530774
0.33383065 0.38703144 0.28655785
0.34008086 0.38312751 0.29068026
-0.40162924 0.39752585 0.29256007
0.23169418 0.40686879 0.28193626
0.24667116 0.40473357 0.29642716
0.3181864 0.40669322 0.29216093
0.32445532 0.40163684 0.28940532
-0.44217542 0.42762884 0.28463981
-0.42902002 0.42357895 0.29639378
-0.35640243 0.42685533 0.29433075
0.21372645 0.42589048 0.28512269
0.30421633 0.41531667 0.28551191
-0.44389549 0.42932296 0.29228598
-0.41397759 0.43634221 0.29600784
-0.33449921 0.43702465 0.28294
0.18532173 0.43429902 0.28599283
0.27301782 0.44054136 0.28488922
0.28901696 0.42862481 0.28510183
0.30547011 0.43409333 0.29460198
-0.41233125 0.44938016 0.28638038
-0.3978605 0.44711506 0.29591745
-0.38174632 0.45787156 0.29582876
-0.28711 0.45631841 0.29626757
0.25649661 0.45157757 0.28480282
0.28588754 0.45070145 0.2818087
-0.38106576 0.47188145 0.28834438
-0.36532214 0.46807897 0.29582247
-0.26424277 0.46247336 0.28947604
-0.24103412 0.46682957 0.28466928
0.067803785 0.46988973 0.28129271
0.091402501 0.46579501 0.28581086
0.11489147 0.46139345 0.29066768
0.22231892 0.47184518 0.28489241
0.23777458 0.46560511 0.28323326
-0.36545411 0.47906092 0.28600311
-0.34793606 0.4766736 0.29606178
-0.33051828 0.48527014 0.29630318
0.1863279 0.4894565 0.28537783
0.20437939 0.48070803 0.28512549
0.23219988 0.47797957 0.29245108
-0.34049574 0.49158162 0.2836349
-0.30490234 0.50086737 0.29418588
0.14722359 0.50280118 0.28651175
0.16681053 0.49611688 0.28594378
0.18798137 0.49875879 0.28552383
0.20736574 0.49316788 0.28469855
-0.26323926 0.51361519 0.29017383
-0.23295176 0.51757151 0.2881771
-0.21288234 0.5183956 0.28108549
-0.20305008 0.51981807 0.28614131
-0.19025394 0.52003121 0.28237942
-0.14700201 0.5210945 0.28261349
0.036515683 0.52103055 0.29177061
0.060458764 0.51937419 0.29039368
0.083889648 0.5173071 0.28909296
0.094596513 0.51926923 0.29584685
0.11008989 0.51384228 0.28726578
0.12240784 0.5118286 0.28454334
0.15021488 0.50883025 0.28444371
-0.2188327 0.52143151 0.29516923
-0.19447359 0.52396154 0.28836596
-0.17067716 0.52272129 0.28421664
-0.14500773 0.52403682 0.28404155
-0.12093052 0.52409488 0.28482327
-0.096733093 0.52415347 0.28561276
-0.072413772 0.52421266 0.28641003
-0.047970533 0.52427238 0.28721526
-0.027368069 0.52599698 0.28289306
-0.016776234 0.52216864 0.29407275
0.0012905449 0.52439922 0.28884926
0.015877917 0.52376914 0.28811559
0.031948403 0.52293581 0.29646337
0.044097647 0.52599686 0.28289306
0.067982718 0.52502275 0.2855126
0.091943659 0.52365988 0.28917724
-0.23018065 -0.52289146 0.30056545
-0.21356374 -0.52157789 0.30936271
-0.20767531 -0.52455014 0.30192927
-0.18444651 -0.52488953 0.30527526
