ply
format ascii 1.0
comment PCL generated
element vertex 806
property float x
property float y
property float z
element camera 1
property float view_px
property float view_py
property float view_pz
property float x_axisx
property float x_axisy
property float x_axisz
property float y_axisx
property float y_axisy
property float y_axisz
property float z_axisx
property float z_axisy
property float z_axisz
property float focal
property float scalex
property float scaley
property float centerx
property float centery
property int viewportx
property int viewporty
property float k1
property float k2
end_header
-0.036661845 -0.32053652 -0.047971964
-0.012074901 -0.32028127 -0.050522327
0.012472782 -0.32020402 -0.05129385
-0.036581725 -0.29548848 -0.053176165
-0.012034902 -0.2952536 -0.055718303
0.012472782 -0.29517928 -0.056522965
0.037005555 -0.29555461 -0.052459359
-0.061186012 -0.27124369 -0.049840331
-0.036527719 -0.27066419 -0.056683898
-0.012008354 -0.27045396 -0.059166789
0.012472782 -0.27038446 -0.059987664
0.036978401 -0.27072316 -0.055986643
0.061564002 -0.27116308 -0.050791621
-0.061186012 -0.24669071 -0.049840331
-0.036527719 -0.24616404 -0.056683779
-0.012008354 -0.24597269 -0.059166908
0.012472782 -0.24590954 -0.059987664
0.036978401 -0.24621764 -0.055986524
0.061564002 -0.24661748 -0.050791621
-0.061186012 -0.22213781 -0.04984045
-0.036527719 -0.22166364 -0.056683898
-0.012008354 -0.22149162 -0.059166789
0.012472782 -0.2214348 -0.059987545
0.036978401 -0.22171195 -0.055986643
0.061564002 -0.22207189 -0.050791502
-0.061186012 -0.19758482 -0.049840331
-0.036527719 -0.19716339 -0.056683898
-0.012008354 -0.1970105 -0.059166908
0.012472782 -0.19696003 -0.059987664
0.036978263 -0.19720526 -0.056004524
0.061564002 -0.19752635 -0.050791502
-0.061186012 -0.17303194 -0.049840331
-0.036527719 -0.17266315 -0.056683898
-0.012008354 -0.17252938 -0.059166789
0.012472782 -0.17248519 -0.059987664
0.036978263 -0.17269973 -0.056004405
0.061564002 -0.1729807 -0.050791502
-0.061185602 -0.14847814 -0.049858332
-0.036527719 -0.14816295 -0.056683898
-0.012008354 -0.14804816 -0.059166789
0.012472782 -0.14801031 -0.059987664
0.036978263 -0.1481943 -0.056004524
0.061564002 -0.14843512 -0.050791502
-0.061185602 -0.12392546 -0.049858212
-0.036527719 -0.12366265 -0.056683898
-0.012008354 -0.12356713 -0.059166789
0.012472782 -0.12353553 -0.059987545
0.036978263 -0.12368888 -0.056004405
0.061564002 -0.12388948 -0.050791502
-0.061185602 -0.099372625 -0.049858332
-0.036527719 -0.099162415 -0.056683898
-0.012008354 -0.099085912 -0.059166789
0.012472782 -0.099060699 -0.059987664
0.036978263 -0.099183351 -0.056004405
0.061564002 -0.099343881 -0.050791621
-0.061185602 -0.074819729 -0.049858332
-0.036527719 -0.074662209 -0.056683779
-0.012008354 -0.074604839 -0.059166789
0.012472782 -0.074585974 -0.059987664
0.036978263 -0.074677914 -0.056004405
0.061564002 -0.074798197 -0.050791502
-0.061185602 -0.050266996 -0.049858212
-0.036527719 -0.050161913 -0.056683898
-0.012008354 -0.050123665 -0.059166908
0.012472782 -0.050111085 -0.059987664
0.036978263 -0.050172381 -0.056004286
0.061564002 -0.050252602 -0.050791621
-0.061185602 -0.025714207 -0.049858332
-0.036527719 -0.025661718 -0.056683898
-0.012008354 -0.025642594 -0.059166789
0.012472782 -0.025636254 -0.059987545
0.036978263 -0.025666952 -0.056004405
0.061563727 -0.025706911 -0.050809503
-0.061185602 -0.0011614207 -0.049858332
-0.036527719 -0.0011614207 -0.056684017
0.012472782 -0.0011614711 -0.059987664
0.036978263 -0.0011614711 -0.056004286
0.061563727 -0.0011614207 -0.050809383
-0.012008354 -0.0011613704 -0.059166908
-0.061185602 0.023391366 -0.049858332
-0.036527719 0.023338877 -0.056683779
-0.012008354 0.023319805 -0.05916667
0.012472782 0.02331336 -0.059987545
0.036978263 0.02334406 -0.056004524
0.061563727 0.02338412 -0.050809383
-0.061185602 0.047944102 -0.049858332
-0.036527719 0.047839023 -0.056684017
-0.012008354 0.047800824 -0.059166908
0.012472782 0.047788143 -0.059987664
0.036978263 0.047849592 -0.056004524
0.061563727 0.047929458 -0.050809383
-0.061185602 0.072496995 -0.049858332
-0.036527719 0.072339326 -0.056683898
-0.012008354 0.072281942 -0.059166789
0.012472782 0.072262868 -0.059987664
0.036978263 0.072355077 -0.056004524
0.061563727 0.072475046 -0.050809383
-0.061185602 0.097049773 -0.049858212
-0.036527719 0.096839622 -0.05668366
-0.012008354 0.096763119 -0.059166789
0.012472782 0.096737862 -0.059987545
0.036978263 0.096860602 -0.056004524
0.061563727 0.097020432 -0.050809383
-0.061185602 0.12160246 -0.049858332
-0.036527719 0.12133981 -0.056683898
-0.012008354 0.12124425 -0.059166789
0.012472782 0.12121269 -0.059987545
0.036978263 0.12136593 -0.056004524
0.061563727 0.12156588 -0.050809383
-0.061185602 0.1461554 -0.049858332
-0.036527719 0.14584006 -0.056683898
-0.012008354 0.14572547 -0.059166789
0.012472782 0.14568748 -0.059987545
0.036978263 0.14587148 -0.056004524
0.061563727 0.14611137 -0.050809383
-0.061185602 0.17070819 -0.049858212
-0.036527719 0.17034031 -0.056683898
-0.012008354 0.17020659 -0.059166789
0.012472782 0.17016231 -0.059987545
0.036978263 0.170377 -0.056004286
0.061563727 0.17065692 -0.050809383
-0.061186012 0.19526209 -0.049840212
-0.036527719 0.19484057 -0.056683898
-0.012008354 0.19468762 -0.059166789
0.012472782 0.1946371 -0.059987664
0.036978263 0.19488233 -0.056004405
0.061563727 0.19520237 -0.050809622
-0.061186012 0.21981497 -0.049840331
-0.036527719 0.21934095 -0.056683898
-0.012008354 0.21916874 -0.059166789
0.012472782 0.21911182 -0.059987545
0.036978263 0.21938786 -0.056004405
0.061563727 0.21974784 -0.050809383
-0.061186012 0.24436787 -0.049840331
-0.036527719 0.2438411 -0.056683898
-0.012008354 0.24364996 -0.059166789
0.012472782 0.24358666 -0.059987664
0.036978263 0.24389334 -0.056004286
0.061563727 0.24429333 -0.050809503
-0.061186012 0.26892075 -0.049840331
-0.036527719 0.2683413 -0.056683779
-0.012008354 0.26813105 -0.059166789
0.012472782 0.26806149 -0.059987545
0.036978263 0.26839876 -0.056004405
0.061563727 0.26883867 -0.050809503
-0.061186012 0.29347384 -0.049840212
-0.036527719 0.29284155 -0.056683898
-0.012008354 0.29261225 -0.059166789
0.012472782 0.29253641 -0.059987545
0.036978263 0.29290447 -0.056004524
0.061563727 0.29338422 -0.050809622
-0.061186012 0.31802669 -0.049840331
-0.036527719 0.3173418 -0.056683779
-0.012008354 0.31709343 -0.059166551
0.012472782 0.31701124 -0.059987545
0.036978263 0.31740987 -0.056004524
0.061563727 0.31792974 -0.050809383
-0.061186012 0.34257957 -0.049840331
-0.036527719 0.34184223 -0.056683898
-0.012008354 0.34157452 -0.059166908
0.012472782 0.34148598 -0.059987545
0.036978263 0.34191543 -0.056004405
0.061563727 0.3424753 -0.050809503
-0.061186012 0.36713254 -0.049840331
-0.036527719 0.36634234 -0.056683898
-0.012008354 0.36605552 -0.05916667
0.012472782 0.36596081 -0.059987545
0.036978263 0.36642075 -0.056004524
0.061563727 0.36702064 -0.050809383
-0.061186012 0.39168555 -0.049840212
-0.036527719 0.39084268 -0.056683898
-0.012008354 0.39053681 -0.059166789
0.012472782 0.3904357 -0.059987664
0.036978263 0.39092627 -0.056004286
0.061563727 0.39156613 -0.050809383
-0.061186012 0.41623855 -0.049840212
-0.036527719 0.41534284 -0.056683898
-0.012008354 0.41501793 -0.059166551
0.012472782 0.41491053 -0.059987664
0.036978263 0.4154318 -0.056004286
0.061563727 0.41611165 -0.050809383
-0.061186012 0.44079143 -0.049840331
-0.036527719 0.43984303 -0.056683898
-0.012008354 0.43949911 -0.059166789
0.012472782 0.43938527 -0.059987664
0.036978263 0.43993714 -0.056004524
0.061563727 0.44065699 -0.050809503
-0.061186012 0.46534425 -0.049840212
-0.036527719 0.46434349 -0.056683898
-0.012008354 0.46398023 -0.05916667
0.012472782 0.4638603 -0.059987664
0.036978263 0.46444267 -0.056004286
0.061563727 0.46520254 -0.050809383
-0.012008354 0.48846129 -0.059166789
0.012472782 0.48833501 -0.059987664
-0.061186012 0.48989716 -0.049840331
-0.036527719 0.48884353 -0.056683898
0.036978263 0.4889482 -0.056004286
0.061563727 0.48974809 -0.050809383
-0.061186012 0.51445019 -0.049840212
-0.036527719 0.51334387 -0.056683898
-0.012008354 0.51294237 -0.059166789
0.012472782 0.51280981 -0.059987664
0.036978263 0.51345348 -0.056004286
0.061563727 0.51429337 -0.050809383
-0.061186012 0.53900307 -0.049840212
-0.036527719 0.53784406 -0.056683898
-0.012008354 0.53742355 -0.059166789
0.012472782 0.53728461 -0.059987664
0.036978263 0.53795904 -0.056004286
0.061563727 0.53883886 -0.050809383
-0.061186012 0.56355596 -0.049840212
-0.036527719 0.56234437 -0.056683898
-0.012008354 0.56190479 -0.059166789
0.012472782 0.56175947 -0.059987664
0.036978263 0.56246465 -0.056004524
0.061563727 0.56338453 -0.050809503
-0.061186012 0.5881089 -0.049840212
-0.036527719 0.58684468 -0.056683898
-0.012008354 0.58638585 -0.059166789
0.012472782 0.58623415 -0.059987664
0.036978263 0.58697027 -0.056004405
0.061563727 0.58792979 -0.050809503
-0.061195966 0.61274469 -0.049409509
-0.036527719 0.61134475 -0.056683779
-0.012008354 0.61086708 -0.059166789
0.012472782 0.61070901 -0.059987664
0.036978263 0.61147559 -0.056004524
0.061568696 0.61253738 -0.050486565
-0.036825109 -0.34624666 -0.037367702
-0.012155706 -0.34596026 -0.040025353
0.012472782 -0.34588242 -0.040747762
0.037128415 -0.34634036 -0.036498904
-0.061405588 -0.32130092 -0.040332556
0.037045911 -0.32061216 -0.047217011
0.061713077 -0.32122338 -0.041108847
-0.086155891 -0.29704744 -0.036299825
-0.061276097 -0.29615697 -0.045939565
0.061624851 -0.29607388 -0.046839237
0.086465195 -0.29713106 -0.035394311
-0.086028934 -0.27204114 -0.040422797
0.086367428 -0.27210841 -0.039628029
-0.086028934 -0.24741565 -0.040422797
0.086367428 -0.24747695 -0.039628029
-0.086028934 -0.22279029 -0.040422797
0.086367428 -0.22284535 -0.039628148
-0.086028934 -0.19816492 -0.040422797
0.086367428 -0.1982138 -0.039628029
-0.086028934 -0.17353943 -0.040422916
0.086367428 -0.17358226 -0.03962791
-0.086028934 -0.14891401 -0.040422797
0.086367428 -0.14895065 -0.039628029
-0.086028934 -0.12428856 -0.040422797
0.086367428 -0.12431911 -0.039628029
-0.086028934 -0.099663109 -0.040422797
0.086367428 -0.099687666 -0.039628029
-0.086028934 -0.075037688 -0.040422797
0.086367428 -0.075056061 -0.039628029
-0.086028934 -0.050412238 -0.040422797
0.086367428 -0.050424516 -0.039628029
-0.086028382 -0.025786677 -0.040440917
0.086367428 -0.025792968 -0.039628029
-0.086028382 -0.0011613201 -0.040440917
0.086367428 -0.0011613704 -0.039628148
-0.086028382 0.023463937 -0.040440917
0.086367428 0.023470076 -0.039628029
-0.086028382 0.048089243 -0.040440917
0.086367428 0.048101723 -0.03962779
-0.086028382 0.072714508 -0.040440917
0.086367428 0.072733268 -0.039628029
-0.086028382 0.097339854 -0.040440917
0.086367428 0.097364873 -0.039628029
-0.086028382 0.12196511 -0.040440917
0.086367428 0.12199631 -0.039628029
-0.086028382 0.14659032 -0.040440798
0.086367428 0.14662787 -0.039628148
-0.086028382 0.17121556 -0.040440798
0.086367428 0.17125946 -0.039628029
-0.086028382 0.19584094 -0.040440798
0.086367428 0.19589092 -0.039628029
-0.086028382 0.2204662 -0.040440798
0.086367428 0.22052266 -0.039628029
-0.086028382 0.24509145 -0.040440798
0.086367428 0.24515405 -0.039628029
-0.086028382 0.2697168 -0.040440679
0.086367428 0.26978549 -0.039628029
-0.086028382 0.29434213 -0.040440679
0.086367428 0.29441714 -0.03962791
-0.086028382 0.31896731 -0.040440679
0.086367428 0.3190487 -0.039628029
-0.086028382 0.34359264 -0.040440679
0.086367428 0.34368035 -0.03962791
-0.086028382 0.368218 -0.040440798
0.086367428 0.36831173 -0.03962779
-0.086028382 0.3928431 -0.040440917
0.086367428 0.39294338 -0.03962791
-0.086028382 0.4174684 -0.040440917
0.086367428 0.41757485 -0.039628029
-0.086028382 0.44209367 -0.040440917
0.086367428 0.44220629 -0.03962791
-0.086028382 0.46671897 -0.040440917
0.086367428 0.46683803 -0.039628029
-0.086028382 0.49134427 -0.040440917
0.086367428 0.49146947 -0.03962791
-0.086028382 0.51596957 -0.040440917
0.086367428 0.516101 -0.03962779
-0.086028382 0.54059482 -0.040440917
0.086367428 0.54073256 -0.039628029
-0.086028382 0.56522012 -0.040440917
0.086367428 0.565364 -0.039628029
-0.086028382 0.58984542 -0.040440917
0.086367428 0.58999562 -0.03962791
-0.086074546 0.61475939 -0.038941383
0.086404577 0.61493701 -0.038018942
-0.061538044 0.6402657 -0.034596801
-0.036733627 0.63852179 -0.043309808
-0.012108931 0.63796312 -0.04610157
0.012472782 0.63780469 -0.04689312
0.03708265 0.63869518 -0.042444229
0.061803289 0.64013505 -0.035249472
-0.061994601 -0.37349838 -0.014827371
0.062117141 -0.37349409 -0.014864206
-0.037022576 -0.37237665 -0.024541855
-0.012254275 -0.3720673 -0.027220964
0.012472782 -0.37199792 -0.027821898
0.037228189 -0.37249255 -0.02353847
-0.08672449 -0.34835187 -0.017834187
-0.06167518 -0.34718534 -0.028658867
0.061897755 -0.34713629 -0.02911365
0.086887226 -0.34842885 -0.017119527
-0.086329028 -0.32226723 -0.030676961
0.086598903 -0.32237464 -0.029604673
-0.11144631 -0.29856718 -0.019847631
0.11159116 -0.29851651 -0.020396352
-0.11124526 -0.27334109 -0.025070906
0.11142252 -0.2732732 -0.025872827
-0.11124526 -0.24859746 -0.025071025
0.11142252 -0.24853586 -0.025872827
-0.11124526 -0.22385383 -0.025071025
0.11142252 -0.22379832 -0.025872827
-0.11124526 -0.19911025 -0.025070906
0.11142252 -0.19906089 -0.025872946
-0.11124526 -0.17436664 -0.025070906
0.11142252 -0.17432341 -0.025872827
-0.11124526 -0.14962301 -0.025070906
0.11142252 -0.14958602 -0.025873065
-0.11124526 -0.12487939 -0.025070906
0.11142252 -0.12484859 -0.025872946
-0.11124526 -0.10013582 -0.025070906
0.11142252 -0.10011116 -0.025872827
-0.11124526 -0.075392246 -0.025070906
0.11142252 -0.075373724 -0.025872827
-0.11124526 -0.050648618 -0.025070906
0.11142252 -0.050636288 -0.025872827
-0.11124526 -0.025904994 -0.025070906
0.11142252 -0.025898855 -0.025872827
-0.11124526 -0.0011612697 -0.025070906
0.11142252 -0.0011613704 -0.025872946
-0.11124526 0.023582304 -0.025070906
0.11142252 0.023576064 -0.025872827
-0.11124526 0.048325777 -0.025070906
0.11142252 0.048313547 -0.025872946
-0.11124526 0.073069394 -0.025070906
0.11142252 0.073050886 -0.025873065
-0.11124526 0.09781298 -0.025071025
0.11142252 0.097788215 -0.025872827
-0.11124526 0.1225566 -0.025071025
0.11142252 0.12252569 -0.025872827
-0.11124526 0.14730023 -0.025071025
0.11142252 0.14726318 -0.025872827
-0.11124526 0.17204376 -0.025070906
0.11142252 0.17200068 -0.025872827
-0.11124526 0.19678733 -0.025070906
0.11142252 0.19673811 -0.025872946
-0.11124526 0.22153094 -0.025070667
0.11142252 0.22147559 -0.025872827
-0.11124456 0.24627337 -0.025089025
0.11142252 0.24621291 -0.025873065
-0.11124456 0.27101675 -0.025089025
0.11142252 0.27095026 -0.025872827
-0.11124456 0.2957601 -0.025089145
0.11142252 0.29568774 -0.025872827
-0.11124456 0.32050377 -0.025089145
0.11142252 0.32042518 -0.025872827
-0.11124456 0.34524706 -0.025089025
0.11142252 0.34516266 -0.025872827
-0.11124456 0.36999053 -0.025089145
0.11142252 0.3699002 -0.025872827
-0.11124456 0.39473408 -0.025089145
0.11142252 0.39463761 -0.025872946
-0.11124456 0.41947746 -0.025089145
0.11142252 0.41937512 -0.025872827
-0.11124456 0.44422099 -0.025089145
0.11142252 0.44411224 -0.025872827
-0.11124456 0.46896446 -0.025089025
0.11142252 0.46884972 -0.025872827
-0.11124456 0.49370793 -0.025089025
0.11142252 0.49358726 -0.025872827
-0.11124456 0.51845151 -0.025089025
0.11142252 0.51832473 -0.025872827
-0.11124456 0.54319483 -0.025089025
0.11142252 0.54306215 -0.025872827
-0.11124456 0.56793833 -0.025089145
0.11142252 0.56779957 -0.025872827
-0.11124456 0.59268188 -0.025089145
0.11142252 0.59253705 -0.025872827
-0.11139281 0.61816651 -0.021237135
0.11154388 0.61803299 -0.021931648
-0.086533099 0.6423769 -0.024049401
0.086759657 0.642658 -0.022643805
-0.037028193 0.66710162 -0.024177194
-0.012237744 0.66602284 -0.029368162
0.012472782 0.66576213 -0.030622482
0.037236199 0.66745079 -0.022497773
-0.037368983 -0.39989552 -0.0020422935
-0.012416817 -0.39939502 -0.0061061382
0.012472782 -0.39934048 -0.0065486431
0.037394091 -0.39990243 -0.0019865036
-0.087228984 -0.375043 -0.001450181
0.08722049 -0.37489995 -0.0026893616
-0.11228202 -0.35047486 0.0018651485
0.11229548 -0.35054088 0.002477169
-0.11170171 -0.32401505 -0.013211966
0.11180615 -0.32399499 -0.013413787
-0.13719875 -0.30050448 0.0011236668
0.13719906 -0.30050448 0.0011236668
-0.13684863 -0.27491733 -0.0064566135
0.13696481 -0.27504387 -0.004961729
-0.13684863 -0.25003046 -0.0064566135
0.13696481 -0.25014549 -0.004961729
-0.13684863 -0.22514354 -0.0064564943
0.13696481 -0.22524716 -0.004961729
-0.13684863 -0.20025654 -0.0064566135
0.13696481 -0.20034869 -0.004961729
-0.13684863 -0.17536964 -0.0064566135
0.13696481 -0.1754503 -0.004961729
-0.13684863 -0.15048277 -0.0064566135
0.13696481 -0.15055187 -0.004961729
-0.13684863 -0.12559588 -0.0064564943
0.13696481 -0.1256534 -0.004961729
-0.13684863 -0.10070913 -0.0064564943
0.13696481 -0.10075502 -0.004961729
-0.13684863 -0.07582213 -0.0064566135
0.13696481 -0.075856656 -0.004961729
-0.13684863 -0.050935224 -0.0064566135
0.13696553 -0.050958525 -0.00494349
-0.13684863 -0.026048373 -0.0064566135
0.13696553 -0.026059948 -0.0049432516
-0.13684863 -0.0011614711 -0.0064564943
0.13696553 -0.0011614207 -0.0049433708
-0.13684863 0.023725482 -0.0064564943
0.13696553 0.023737106 -0.0049432516
-0.13684863 0.048612382 -0.0064566135
0.13696553 0.048635583 -0.0049433708
-0.13684863 0.073499233 -0.0064566135
0.13696553 0.073534206 -0.00494349
-0.13684863 0.098386183 -0.0064564943
0.13696553 0.098432794 -0.0049432516
-0.13684863 0.12327299 -0.0064564943
0.13696553 0.12333137 -0.0049432516
-0.13684863 0.1481601 -0.0064566135
0.13696553 0.1482299 -0.00494349
-0.13684863 0.17304684 -0.0064566135
0.13696553 0.17312843 -0.0049432516
-0.13684863 0.19793385 -0.0064564943
0.13696553 0.1980271 -0.0049432516
-0.13684863 0.22282059 -0.0064564943
0.13696553 0.22292548 -0.0049433708
-0.13684863 0.24770756 -0.0064564943
0.13696553 0.24782406 -0.0049432516
-0.13684863 0.27259451 -0.0064566135
0.13696553 0.27272275 -0.0049432516
-0.13684863 0.29748151 -0.0064564943
0.13696553 0.29762107 -0.0049432516
-0.13684863 0.32236826 -0.0064564943
0.13696553 0.32251975 -0.0049432516
-0.13684863 0.34725526 -0.0064564943
0.13696553 0.34741831 -0.0049432516
-0.13684863 0.37214202 -0.0064564943
0.13696553 0.37231669 -0.0049432516
-0.13684863 0.39702916 -0.0064564943
0.13696553 0.39721534 -0.0049432516
-0.13684863 0.42191586 -0.0064566135
0.13696553 0.42211401 -0.0049433708
-0.13684863 0.44680274 -0.0064566135
0.13696553 0.44701239 -0.0049432516
-0.13684863 0.47168961 -0.0064564943
0.13696553 0.47191107 -0.0049433708
-0.13684863 0.49657658 -0.0064566135
0.13696553 0.49680957 -0.00494349
-0.13684863 0.52146351 -0.0064566135
0.13696553 0.52170813 -0.0049432516
-0.13684863 0.5463503 -0.0064566135
0.13696553 0.5466066 -0.0049433708
-0.13684863 0.57123727 -0.0064564943
0.13696553 0.57150519 -0.0049432516
-0.13684863 0.59612405 -0.0064564943
0.13696553 0.59640384 -0.0049432516
-0.13725269 0.62269461 0.0022916794
0.13723402 0.62264472 0.0020320415
-0.11208183 0.64652252 -0.0033363104
0.11212727 0.64659268 -0.0029851198
-0.062236089 0.6712184 -0.0043709278
0.062285237 0.67130667 -0.0039459467
-0.012596343 -0.42733651 0.017214894
0.012472782 -0.42730966 0.01700902
-0.062537581 -0.40121663 0.0086836815
0.062490296 -0.40130159 0.0093729496
-0.11293986 -0.37739941 0.018956542
-0.13760988 -0.3263405 0.010025024
0.13747141 -0.32615784 0.0082000494
-0.063176766 -0.42984217 0.036361575
-0.037756402 -0.42810953 0.023121357
0.037582602 -0.4280284 0.022501588
0.062892988 -0.42973322 0.035528421
-0.088121697 -0.40353939 0.027541757
0.08792603 -0.40357876 0.027861953
0.11284447 -0.37755516 0.020305991
-0.13861668 -0.35370347 0.03182292
0.13838503 -0.35371572 0.031936169
-0.16395818 -0.30361447 0.034790635
-0.16348436 -0.2776655 0.025997877
0.16335405 -0.27777708 0.027315736
-0.16348436 -0.25252873 0.025997877
0.16335405 -0.25263023 0.027315736
-0.16348436 -0.22739211 0.025997996
0.16335405 -0.22748324 0.027315617
-0.16348436 -0.20225535 0.025997877
0.16335405 -0.20233646 0.027315617
-0.16348436 -0.17711857 0.025997877
0.16335405 -0.17718957 0.027315617
-0.16348436 -0.15198185 0.025997996
0.16335405 -0.15204273 0.027315617
-0.16348436 -0.12684508 0.025997877
0.16335405 -0.12689584 0.027315617
-0.16348436 -0.10170841 0.025997877
0.16335405 -0.10174902 0.027315736
-0.16348436 -0.076571584 0.025997877
0.16335405 -0.076601982 0.027315617
-0.16348436 -0.051434912 0.025997877
0.16335405 -0.051455144 0.027315617
-0.16348436 -0.026298091 0.025997877
0.16335405 -0.026308358 0.027315617
0.16335405 -0.0011615214 0.027315617
-0.16348436 -0.0011613201 0.025997877
-0.16348436 0.023975249 0.025997877
0.16335405 0.023985365 0.027315617
-0.16348436 0.049112022 0.025997877
0.16335405 0.049132455 0.027315617
-0.16348436 0.074248746 0.025997877
0.16335405 0.074279338 0.027315617
-0.16348436 0.099385515 0.025997996
0.16335405 0.09942618 0.027315617
-0.16348436 0.12452228 0.025997877
0.16335405 0.12457302 0.027315736
-0.16348436 0.14965901 0.025997877
0.16335405 0.14971985 0.027315736
-0.16348436 0.17479567 0.025997996
0.16335405 0.17486674 0.027315736
-0.16348436 0.19993246 0.025997877
0.16335405 0.20001368 0.027315617
-0.16348436 0.22506922 0.025997877
0.16335405 0.22516051 0.027315617
-0.16348436 0.25020593 0.025997996
0.16335405 0.25030741 0.027315617
-0.16348436 0.27534267 0.025997877
0.16335405 0.27545422 0.027315736
-0.16348436 0.30047938 0.025997877
0.16335405 0.30060112 0.027315736
-0.16348436 0.32561606 0.025997877
0.16335405 0.32574806 0.027315617
-0.16348436 0.35075289 0.025997996
0.16335405 0.35089484 0.027315617
-0.16348436 0.37588969 0.025997996
0.16335405 0.37604177 0.027315617
-0.16348436 0.40102643 0.025997877
0.16335405 0.40118858 0.027315617
-0.16348436 0.42616299 0.025997877
0.16335405 0.42633551 0.027315617
-0.16348436 0.4512997 0.025997877
0.16335405 0.4514823 0.027315736
-0.16348436 0.47643664 0.025997877
0.16335405 0.47662923 0.027315617
-0.16348436 0.50157332 0.025997996
0.16335405 0.50177628 0.027315736
-0.16348436 0.52670997 0.025997996
0.16335405 0.52692312 0.027315736
-0.16348436 0.55184674 0.025997877
0.16335405 0.5520699 0.027315736
-0.16348436 0.57698333 0.025997877
0.16335405 0.57721686 0.027315736
-0.16348436 0.60212016 0.025997877
0.16335405 0.60236365 0.027315736
-0.13840242 0.65263098 0.027183771
0.13819124 0.6525746 0.026901484
-0.088311717 0.67913377 0.033712506
0.088103965 0.67951918 0.03556633
-0.012853101 -0.63430852 0.050568938
0.012472782 -0.63432688 0.050664425
-0.012821378 -0.60822135 0.046448112
0.012472782 -0.60823184 0.046505451
-0.038189281 -0.58377522 0.051237822
-0.012804816 -0.58254623 0.044296622
0.012472782 -0.58255285 0.044334531
0.037804991 -0.58380228 0.051390648
-0.038221963 -0.55880362 0.053360343
-0.012820059 -0.55760401 0.046276689
0.012472782 -0.55761355 0.046334028
-0.012835322 -0.53263158 0.048259258
0.012472782 -0.53264397 0.048335671
-0.012844723 -0.50751156 0.049480557
0.012472782 -0.5075233 0.049556851
-0.012844723 -0.48219398 0.049480557
0.012472782 -0.48220515 0.049556971
-0.038150474 -0.45677075 0.048717141
-0.012778915 -0.45569196 0.040931821
0.012472782 -0.45569196 0.040931821
0.037785731 -0.4567945 0.048888922
-0.16484855 -0.33047256 0.051314235
0.16433461 -0.33019531 0.048545361
0.16380161 -0.30381906 0.037005424
-0.1644899 0.63084799 0.044658184
0.16413926 0.63078225 0.044315457
-0.012999073 -0.8417328 0.069531441
0.012472782 -0.84178668 0.069743752
-0.012987923 -0.81590414 0.068082809
0.012472782 -0.81595641 0.06829524
-0.012983019 -0.71392387 0.067445755
0.012472782 -0.71397805 0.067696571
-0.038463198 -0.68879712 0.069028735
-0.012926396 -0.6869393 0.060090065
0.012472782 -0.68697917 0.06028235
0.037943594 -0.68887329 0.0693959
-0.038366131 -0.66206729 0.062724233
-0.012884904 -0.66046143 0.054700255
0.012472782 -0.66048419 0.054814935
0.037895795 -0.66215974 0.063186288
-0.038298078 -0.63579726 0.05830431
0.037861019 -0.63586742 0.058668971
-0.038229916 -0.60959387 0.053876996
0.037826046 -0.60963976 0.054125905
-0.063882589 -0.58655268 0.066924691
0.063386463 -0.58666885 0.067580819
-0.063940108 -0.56152272 0.069415331
0.037821773 -0.55883932 0.053570628
0.063426614 -0.56165355 0.070188403
-0.038254388 -0.53379667 0.055466413
0.037838727 -0.53384626 0.055772901
-0.038275927 -0.50864863 0.056865573
0.037849795 -0.50870168 0.057210684
-0.038275927 -0.48327416 0.056865573
0.037849795 -0.48332459 0.057210684
-0.063886151 -0.45931503 0.067079067
0.063389733 -0.45941398 0.067793012
-0.089218676 -0.43335009 0.063167095
0.088726252 -0.43326443 0.062512636
-0.11453643 -0.4075909 0.06043601
0.11411625 -0.40773523 0.061608553
-0.1400404 -0.38244429 0.062647343
0.13949306 -0.38222227 0.060724378
-0.038728964 -0.97399467 0.086291194
-0.013037954 -0.97056949 0.0745821
0.012472782 -0.97064888 0.07485342
0.038073502 -0.97398895 0.086271524
-0.038728964 -0.9483937 0.086291194
0.038073502 -0.94838828 0.086271763
-0.013037954 -0.94505888 0.074582219
0.012472782 -0.94513601 0.074853539
-0.038719051 -0.92261434 0.085646987
-0.013032436 -0.91934919 0.073865056
0.012472782 -0.9194243 0.074136257
0.03806825 -0.92259824 0.085588813
-0.038691726 -0.89654034 0.083872557
0.038053837 -0.89649832 0.08371675
-0.013021404 -0.89345795 0.072432041
0.012472782 -0.89352065 0.072664499
-0.038664136 -0.870489 0.082080245
-0.013010234 -0.86758411 0.070981145
0.012472782 -0.86764461 0.071213007
0.038039293 -0.87042278 0.081827164
-0.038636275 -0.84446084 0.080270648
0.038024615 -0.84437191 0.07992065
-0.038608741 -0.81846583 0.078482509
0.038010105 -0.8183558 0.078035593
-0.038712442 -0.79453254 0.085218191
-0.013050942 -0.79239702 0.076269269
0.012472782 -0.79245245 0.076501966
0.038065244 -0.79452771 0.085198283
-0.013073064 -0.76753682 0.079142928
0.012472782 -0.76761764 0.079492927
-0.013039894 -0.74102914 0.074834108
0.012472782 -0.74110258 0.075163603
-0.03860575 -0.71626085 0.078288078
0.038008608 -0.71616477 0.07784164
-0.064296052 -0.66649133 0.084828019
0.063647792 -0.66643667 0.08455503
-0.064137399 -0.63957953 0.077957869
0.063535765 -0.6394487 0.077278256
-0.063978955 -0.61277527 0.071097136
0.06345132 -0.61290383 0.071793437
-0.064008445 -0.53653008 0.072374105
0.063466817 -0.5365988 0.072799921
-0.064066142 -0.51142097 0.074872851
0.063497841 -0.51141202 0.074814677
-0.064066142 -0.48590794 0.074872851
0.063497841 -0.48589948 0.074814677
-0.038821992 -0.77058297 0.092333436
0.038122583 -0.77065539 0.092646956
-0.038748804 -0.74387443 0.087579846
0.038084179 -0.74389184 0.087658048
-0.064535931 -0.69423985 0.095215559
0.063822806 -0.69438684 0.095922351
0.16653737 -0.36064547 0.096236467
-0.19333316 -0.28414452 0.102512
0.19197072 -0.28322959 0.091706753
-0.19257732 -0.25747398 0.090238571
0.19177993 -0.25731438 0.088165998
-0.19257732 -0.23184274 0.09023869
0.19177993 -0.23169917 0.088166118
-0.19257732 -0.20621146 0.09023869
0.19177993 -0.20608379 0.088165998
-0.19257732 -0.18058018 0.09023881
0.19177993 -0.18046857 0.088165998
-0.19257732 -0.15494907 0.09023869
0.19177993 -0.15485319 0.088165998
-0.19257732 -0.12931769 0.090238571
0.19177993 -0.12923792 0.088165998
-0.19257732 -0.10368642 0.09023869
0.19177993 -0.1036226 0.088165998
-0.19257732 -0.078055203 0.09023869
0.19177993 -0.07800734 0.088166118
-0.19257732 -0.05242392 0.09023869
0.19177993 -0.052391965 0.088165998
-0.19257732 -0.026792645 0.09023881
0.19177993 -0.026776843 0.088165998
-0.19257732 -0.0011613201 0.09023869
0.19177993 -0.0011613704 0.088165998
-0.19257732 0.024469905 0.09023869
0.19177993 0.0244538 0.088166237
-0.19257732 0.050101031 0.09023869
0.19177993 0.050069273 0.088165998
-0.19257851 0.075732753 0.090258241
0.19177993 0.075684488 0.088165879
-0.19257851 0.10136424 0.09025836
0.19177993 0.10129982 0.088165998
-0.19257851 0.12699561 0.090258241
0.19177993 0.12691514 0.088165998
-0.19257851 0.1526271 0.090258241
0.19177993 0.15253046 0.088166237
-0.19257851 0.17825857 0.09025836
0.19177993 0.17814574 0.088165998
-0.19257851 0.20388994 0.090258241
0.19177993 0.20376106 0.088166118
-0.19257851 0.22952127 0.090258241
0.19177993 0.22937629 0.088165998
-0.19257851 0.25515264 0.090258241
0.19177993 0.25499165 0.088166118
-0.19257851 0.28078422 0.090258241
0.19177993 0.28060699 0.088165998
-0.19257851 0.3064155 0.090258241
0.19177993 0.30622235 0.088166237
-0.19257851 0.33204702 0.090258241
0.19177993 0.33183756 0.088165998
-0.19257851 0.35767829 0.090258241
0.19177993 0.3574529 0.088166237
-0.19257851 0.38330978 0.090258241
0.19177993 0.38306817 0.088165998
-0.19257851 0.408941 0.09025836
0.19177993 0.40868339 0.088165998
-0.19257851 0.43457258 0.090258241
0.19177993 0.43429884 0.088166118
-0.19257851 0.46020415 0.090258241
0.19177993 0.45991409 0.088165879
-0.19257851 0.48583543 0.09025836
0.19177993 0.48552939 0.088165998
-0.19257851 0.5114668 0.090258241
0.19177993 0.51114464 0.088165879
-0.19257851 0.53709811 0.090258241
0.19177993 0.53675997 0.088165998
-0.19257851 0.56272966 0.090258241
0.19177993 0.56237525 0.088165998
-0.19257851 0.58836108 0.090258241
0.19177993 0.58799058 0.088166118
0.19191796 0.61407918 0.090728045
-0.065052852 -0.87978518 0.11759865
0.064177677 -0.8801446 0.11897159
-0.06496568 -0.85298461 0.11382425
0.064109124 -0.85316104 0.11451888
-0.064878255 -0.82623911 0.11003828
0.064040139 -0.82623911 0.11003828
-0.064805627 -0.79970497 0.10689342
0.063988075 -0.7996484 0.10665619
-0.064971641 -0.72397608 0.1140821
0.064114928 -0.72415155 0.11489618
-0.090599179 -0.59382528 0.10800052
0.089811936 -0.59409487 0.10952365
-0.090699136 -0.56860709 0.11124659
0.089887887 -0.56887233 0.11281252
-0.16777751 -0.361662 0.10566854
-0.065478191 -0.98854053 0.13601637
-0.065478191 -0.96255684 0.13601637
-0.065478191 -0.93657309 0.13601613
-0.06526795 -0.90813655 0.12691224
0.064292848 -0.90801257 0.12645221
-0.091118738 -0.54501694 0.12487376
0.090171501 -0.54505241 0.12509322
0 0 0 1 0 0 0 1 0 0 0 1 0 0 0 0 0 806 1 0 0
