ply
format ascii 1.0
comment PCL generated
element vertex 1338
property float x
property float y
property float z
element camera 0
property float view_px
property float view_py
property float view_pz
property float x_axisx
property float x_axisy
property float x_axisz
property float y_axisx
property float y_axisy
property float y_axisz
property float z_axisx
property float z_axisy
property float z_axisz
property float focal
property float scalex
property float scaley
property float centerx
property float centery
property int viewportx
property int viewporty
property float k1
property float k2
end_header
0.010973033 0.24451517 -0.16811228
0.030882195 0.24465607 -0.16607869
0.050822914 0.24479809 -0.16402864
0.07079497 0.24493946 -0.16198862
0.090798542 0.24508098 -0.15994513
0.1108342 0.24522378 -0.15788555
-0.068906248 0.26517189 -0.1581986
-0.048860323 0.26491824 -0.16149437
-0.028865457 0.26466614 -0.1647687
-0.0089304401 0.26450846 -0.16681743
0.010973033 0.26466614 -0.1647687
0.030907974 0.26482308 -0.16272974
0.050874356 0.2649802 -0.16068745
0.07087256 0.26513875 -0.15862894
0.09090215 0.26529646 -0.15658021
-0.089002736 0.26542521 -0.15490758
0.1109634 0.26545435 -0.15452838
-0.069010802 0.28542924 -0.15480304
-0.048938539 0.2851494 -0.15810752
-0.028917469 0.28487143 -0.16139019
-0.008956206 0.28469539 -0.16347027
0.010973033 0.28486824 -0.16142929
0.030933823 0.28504229 -0.15937197
0.050926134 0.28521568 -0.15732455
0.070950046 0.28538936 -0.1552738
-0.049029049 0.30548206 -0.15418828
-0.028976854 0.30517301 -0.15753341
-0.0089854477 0.30497539 -0.15967178
0.010973033 0.30516696 -0.1575985
0.030963458 0.30535865 -0.15552211
-0.0090301773 0.32551533 -0.15386105
-0.049362645 0.0051379614 -0.13974297
-0.029199898 0.0052142181 -0.14304602
-0.0090960758 0.0052662753 -0.14530051
0.010973033 0.0052188002 -0.14324403
0.03107373 0.0051716007 -0.14119744
0.05120619 0.0051238947 -0.13913429
-0.089616992 0.02523762 -0.13894904
-0.069397621 0.025288351 -0.14224088
-0.04922913 0.025338944 -0.1455245
-0.02911111 0.025389489 -0.14881301
-0.0090522626 0.02542308 -0.15099192
0.010973033 0.025391735 -0.14895761
0.031029779 0.02536016 -0.14690661
0.051117945 0.025328722 -0.14486587
0.071237914 0.025297057 -0.14280844
0.091389254 0.025265574 -0.14076114
-0.10962016 0.045374766 -0.14143515
-0.089394316 0.045400199 -0.14473391
-0.069219939 0.045425355 -0.14801133
-0.049096201 0.045450561 -0.15128052
0.030985922 0.04546069 -0.1526041
0.051030092 0.045445152 -0.15057218
0.071105927 0.045429341 -0.14852393
0.091212988 0.045413718 -0.14648557
0.11135206 0.045397818 -0.14443088
-0.089198403 0.065473646 -0.14982426
-0.069063187 0.065473601 -0.1531018
0.091057673 0.065473646 -0.15152955
-0.12962013 0.065473691 -0.14327037
-0.10938384 0.065473691 -0.14655137
0.070989616 0.065473691 -0.15356004
0.11115711 0.065473691 -0.14949596
0.13153511 0.065473691 -0.1421088
-0.14988546 0.085581049 -0.14033818
-0.12943837 0.085532427 -0.14664364
-0.10922783 0.085507132 -0.14992929
-0.089068711 0.085482016 -0.15319347
0.1110289 0.085484862 -0.15282691
0.13136822 0.085539579 -0.14572215
-0.14965615 0.10563089 -0.14406168
-0.12925637 0.10553924 -0.1500212
-0.10907283 0.10548893 -0.15328515
0.13120119 0.10554974 -0.14933848
0.15165797 0.10566939 -0.14156723
-0.14947283 0.12564082 -0.14703822
-0.12911011 0.12550931 -0.15273523
0.13106729 0.12552077 -0.1522373
0.15150154 0.12570018 -0.14447033
-0.17008534 0.14594404 -0.13900197
-0.1493967 0.14565849 -0.14827406
0.13101286 0.14550021 -0.15341616
0.15143694 0.14573869 -0.14566934
-0.17000009 0.16601433 -0.14023232
-0.14932066 0.16565725 -0.14950907
0.1513731 0.16575938 -0.14685416
0.17190973 0.16605905 -0.13906813
-0.16996069 0.18609616 -0.14080083
-0.14928348 0.18566608 -0.15011299
0.15134262 0.18579045 -0.14741969
0.17187713 0.1861518 -0.13959742
-0.17004684 0.20626689 -0.1395576
-0.14935948 0.20576464 -0.14887869
0.15140642 0.20590706 -0.14623559
0.1719505 0.20632894 -0.13840604
-0.14943556 0.22588225 -0.14764321
-0.12908047 0.22553481 -0.15328526
0.13104007 0.22556308 -0.15282691
0.151471 0.22604279 -0.14503717
-0.1495474 0.24605913 -0.14582741
-0.1291659 0.24565233 -0.15170002
0.13111876 0.24569221 -0.15112317
0.15156692 0.24623717 -0.14325714
-0.14977965 0.26641452 -0.14205599
-0.1293505 0.26593584 -0.1482743
-0.10915089 0.26568025 -0.15159523
0.13128738 0.26599759 -0.14747214
0.15176484 0.26660478 -0.13958418
-0.12953487 0.28627184 -0.14485252
-0.10930852 0.28598976 -0.14818227
-0.089134268 0.28570974 -0.15149021
0.091005631 0.28556329 -0.1532197
0.11109347 0.28573865 -0.15114927
0.13145648 0.28636003 -0.14381111
-0.12975535 0.3067224 -0.14076114
-0.10949519 0.30641013 -0.14414072
-0.089287914 0.30609998 -0.14749861
-0.069132596 0.3057906 -0.15084767
0.050985903 0.30555093 -0.15344226
0.071040444 0.30574328 -0.15135932
0.091127165 0.30593604 -0.1492728
0.11124614 0.30612922 -0.14718294
0.13165967 0.30684695 -0.13941216
-0.089515701 0.32674438 -0.14158058
-0.069314353 0.32640761 -0.14494479
-0.049164716 0.32607061 -0.14831376
-0.029067267 0.32573557 -0.15166068
0.010973033 0.32572383 -0.1517787
0.031008229 0.32593125 -0.14970613
0.051075589 0.32614028 -0.14761686
0.071175195 0.32634979 -0.1455245
0.091307119 0.32655936 -0.14342868
0.1114811 0.32679456 -0.14107835
-0.069496945 0.34711856 -0.1390152
-0.0493013 0.34675395 -0.14239931
-0.029158089 0.34639156 -0.14576161
-0.0090750055 0.34614617 -0.14803767
0.010973033 0.34637171 -0.14594591
0.031053305 0.34659743 -0.14385056
0.051165882 0.34682363 -0.14175236
0.071310543 0.34704876 -0.1396637
-0.029266443 0.36726975 -0.13872373
-0.0091282735 0.36699325 -0.14111805
0.010973033 0.36723906 -0.13898861
-0.049747281 -0.035726793 -0.12308776
-0.029455468 -0.03559766 -0.12644649
-0.0092224078 -0.035503484 -0.1288898
0.010973033 -0.035583727 -0.12680721
0.031200562 -0.03566397 -0.12472129
-0.090155341 -0.01542908 -0.12496221
-0.069826797 -0.01532615 -0.12830293
-0.049549896 -0.015223548 -0.13163483
-0.029324207 -0.015120804 -0.13497174
-0.0091575133 -0.015048489 -0.1373198
0.010973033 -0.015112326 -0.13525045
0.031135462 -0.015176028 -0.13317811
0.051329851 -0.015239999 -0.1311022
0.071556278 -0.015304111 -0.12902319
0.091814809 -0.015368126 -0.12694085
0.1121648 -0.015479803 -0.12331557
-0.13052528 0.004831478 -0.12647319
-0.1101571 0.0049086958 -0.12980998
-0.089841157 0.0049851798 -0.13312495
-0.0695761 0.0050617978 -0.13644481
0.071370184 0.0050764643 -0.13708103
0.091566294 0.0050287135 -0.13501155
0.11182819 0.0049605705 -0.13206077
0.13236293 0.0047786869 -0.12418592
-0.15086038 0.025015272 -0.12450719
-0.13020983 0.025135748 -0.13232684
-0.10988804 0.025186662 -0.1356355
0.11158956 0.025226988 -0.13826048
0.13207486 0.025106374 -0.13042295
-0.15046489 0.045293927 -0.13092923
-0.12989652 0.045349471 -0.13814127
0.13178815 0.045337781 -0.13663042
0.15234615 0.045277387 -0.12879634
-0.17089875 0.065473646 -0.1272614
-0.15011542 0.065473601 -0.13660383
0.15204917 0.065473601 -0.13430762
0.1726862 0.065473646 -0.12645972
-0.17063817 0.085652672 -0.13102233
0.15185329 0.085599422 -0.13794267
0.17246102 0.085659638 -0.13011646
-0.19124871 0.10591795 -0.12541699
-0.17037836 0.10577392 -0.13477266
0.17223644 0.10578945 -0.13376296
0.19293925 0.10591057 -0.12589848
-0.19101834 0.12607108 -0.12840962
-0.17017157 0.12585521 -0.13775706
0.17205824 0.12588063 -0.13665688
0.19273755 0.12606178 -0.12880981
-0.19092284 0.14623192 -0.12964988
0.17198314 0.14597878 -0.13787639
0.19265348 0.14622048 -0.130023
-0.19082642 0.16637333 -0.13090253
0.19256949 0.16636059 -0.13123536
0.21335346 0.16666383 -0.12335575
-0.19078647 0.18652935 -0.1314218
0.19253534 0.18651515 -0.13172793
0.21331736 0.18688025 -0.1238246
-0.19088283 0.20677277 -0.13016975
0.1926184 0.20675334 -0.13052952
-0.19097932 0.22703548 -0.12891638
-0.17013304 0.22645679 -0.13831329
0.17202477 0.22652534 -0.13720047
0.19270335 0.22701178 -0.12930334
-0.19113243 0.24736857 -0.12692761
-0.17026433 0.24671102 -0.1364181
0.17213994 0.24678645 -0.1353302
0.1928374 0.24733815 -0.12736821
-0.19142698 0.26787364 -0.12310112
-0.17052752 0.26714104 -0.1326195
0.17236669 0.26721567 -0.13164818
0.193095 0.26783144 -0.12365031
-0.17079242 0.28763136 -0.12879658
-0.1500134 0.28683001 -0.13826036
0.15196332 0.28702986 -0.13590074
0.17259572 0.28770489 -0.12792897
-0.17112201 0.30826709 -0.12403858
-0.15029693 0.30737871 -0.13365662
0.15220611 0.30758744 -0.1313951
0.17287984 0.30833393 -0.12331557
-0.1507031 0.32819742 -0.12706101
-0.13007519 0.32742035 -0.13482571
-0.10976925 0.32708204 -0.13820744
0.13195314 0.32759726 -0.13305843
0.15255132 0.32840478 -0.12498891
-0.1303972 0.34821409 -0.12884974
-0.11004455 0.34784806 -0.13224685
-0.089744523 0.34748292 -0.1356355
0.091487877 0.34727567 -0.13755834
0.11172535 0.34758002 -0.13473272
0.13224803 0.34844869 -0.12667358
-0.11038225 0.36886191 -0.12493539
-0.090023167 0.3684622 -0.12839615
-0.069717638 0.36806369 -0.13184786
-0.049465474 0.36766624 -0.1352905
0.03110715 0.36748534 -0.13685584
0.051274162 0.36773205 -0.13471949
0.071474455 0.36798078 -0.13256621
0.091707587 0.3682282 -0.13042295
0.11202422 0.36862719 -0.12696767
-0.0091951294 0.38816428 -0.1324333
-0.069989853 0.38932532 -0.12300718
-0.049669102 0.38889831 -0.12647331
-0.029401835 0.38847268 -0.1299299
0.010973033 0.38842988 -0.13027632
0.031174328 0.38869441 -0.12812936
0.051408734 0.38895917 -0.12597859
0.071676642 0.3892262 -0.12381101
-0.0092625329 0.40947837 -0.12367713
-0.009381895 -0.07701087 -0.1081717
-0.070375808 -0.056549639 -0.11047328
-0.049959976 -0.056392409 -0.11387765
-0.029596694 -0.056235544 -0.11727333
-0.0092920614 -0.056116901 -0.11984134
0.010973033 -0.05621437 -0.11773098
0.03127075 -0.056312673 -0.11560369
0.051601063 -0.056410506 -0.11348629
0.071964055 -0.056508437 -0.1113658
0.092359804 -0.056606464 -0.10924172
-0.13147205 -0.036272906 -0.10890317
-0.1109335 -0.036115125 -0.11300051
-0.090485997 -0.03598544 -0.11637139
-0.070090652 -0.035855889 -0.11973393
0.051460255 -0.035744436 -0.12263215
0.071752191 -0.035824955 -0.12053955
0.092076451 -0.035905607 -0.11844373
0.11251819 -0.036071457 -0.11413407
-0.15182216 -0.01592391 -0.1088897
-0.13096881 -0.015635937 -0.11824203
-0.11053631 -0.015532598 -0.12159967
0.13277054 -0.015724652 -0.11536109
-0.17219409 0.0044178963 -0.10856462
-0.15125865 0.0046367161 -0.1180402
0.15302077 0.0045961142 -0.11627722
0.17380412 0.0044119842 -0.108307
-0.17174377 0.024869867 -0.1150645
0.15268266 0.024985164 -0.12255168
0.17341538 0.024863131 -0.11461961
-0.19227418 0.04514898 -0.11209559
-0.1712947 0.045221709 -0.12154603
0.1730285 0.045216758 -0.12090194
0.19383472 0.04515567 -0.11297345
-0.21291283 0.065473646 -0.10838842
0.19344734 0.065473646 -0.11856472
0.21433473 0.065473646 -0.11060858
-0.19183001 0.065473691 -0.11786544
-0.21258976 0.085797578 -0.1122036
-0.19153945 0.08572489 -0.12163997
0.19319341 0.08572036 -0.12222993
0.21404983 0.085781261 -0.11430931
-0.21226877 0.10606308 -0.11599433
0.21376573 0.10603224 -0.11800003
0.23474307 0.10615908 -0.10975611
-0.23316351 0.12650771 -0.10949886
-0.21201582 0.1262888 -0.11898148
0.21354236 0.12624454 -0.12090206
0.23447293 0.12642811 -0.11294639
-0.23304726 0.14681378 -0.11075723
-0.21190889 0.14652163 -0.12024426
0.21344836 0.14646381 -0.12212276
0.2343678 0.14670815 -0.11418808
-0.23292989 0.16709989 -0.112028
-0.21180321 0.16673562 -0.12149239
0.2342639 0.16696952 -0.1154151
-0.23288995 0.18740518 -0.11246026
-0.21176231 0.1869657 -0.12197518
0.23422739 0.18724874 -0.11584616
-0.23300728 0.20779552 -0.11118996
-0.21186912 0.20728226 -0.12071407
0.21341226 0.20718104 -0.12259185
0.23433125 0.20761074 -0.11461961
-0.23312473 0.22820546 -0.10991859
-0.21197601 0.22761844 -0.11945188
0.21350619 0.22750017 -0.12137163
0.23443636 0.22799242 -0.11337841
-0.23332493 0.24869716 -0.10775149
-0.21215133 0.24802993 -0.1173811
0.21366122 0.24789305 -0.11935759
0.23461707 0.2484552 -0.11124408
-0.21247771 0.26861063 -0.11352694
0.21394917 0.26844987 -0.11561716
-0.21280505 0.28925169 -0.10966134
-0.19172239 0.28843862 -0.11926365
0.19335331 0.28838286 -0.11992204
0.21423794 0.28906518 -0.11186576
-0.19209962 0.30916089 -0.11436331
0.19368143 0.30908483 -0.11518586
-0.19261485 0.33013797 -0.10767019
-0.17158234 0.32916468 -0.11739445
0.1732768 0.32921726 -0.11686969
0.19412985 0.3300336 -0.10871351
-0.17204405 0.35016704 -0.11073029
-0.15111051 0.34911984 -0.12044561
0.15289749 0.34932256 -0.11856472
0.17367408 0.35020041 -0.11041915
-0.15162475 0.37034452 -0.11209548
-0.13079511 0.36926258 -0.12146556
0.13261512 0.3695789 -0.11872602
0.15333498 0.3705349 -0.1104461
-0.13129856 0.39066601 -0.11212254
-0.11079273 0.3901825 -0.11604822
-0.09036433 0.38975322 -0.11953247
0.091977626 0.38949203 -0.12165332
0.11239062 0.39001006 -0.11744833
0.13305692 0.39103067 -0.10916042
-0.090707809 0.41118848 -0.11060858
-0.070263915 0.41073066 -0.11410713
-0.049874097 0.41027409 -0.11759651
-0.029538143 0.40981859 -0.12107635
0.010973033 0.40976065 -0.12151933
0.031241953 0.41004533 -0.11934423
0.051544208 0.41032869 -0.11717904
0.071880192 0.41061419 -0.11499715
0.092249885 0.41090018 -0.11281145
0.11275916 0.41154647 -0.10787332
-0.029718682 0.4316991 -0.10935009
-0.0093514817 0.43131489 -0.11212254
0.010973033 0.43162405 -0.10989141
0.031331927 0.43193376 -0.1076566
-0.029961709 -0.09826529 -0.093564868
-0.0094725294 -0.098090917 -0.096397877
0.010973033 -0.09822312 -0.094249725
-0.091302693 -0.077712372 -0.095153213
-0.070741072 -0.077525988 -0.098610997
-0.050233219 -0.07734099 -0.10204589
-0.029778387 -0.07715632 -0.10547233
0.010973033 -0.077125564 -0.10604239
0.031360876 -0.077241316 -0.10389614
0.051781602 -0.077356398 -0.10176003
0.072235301 -0.077471599 -0.099620461
0.092722461 -0.077587858 -0.097463846
-0.13203107 -0.057101294 -0.098528981
-0.11136594 -0.056865335 -0.10363793
-0.090844393 -0.056707323 -0.10705996
0.11290282 -0.056842096 -0.10414076
0.13366409 -0.057217367 -0.096015096
-0.15241148 -0.036641575 -0.099320531
0.13319719 -0.036379769 -0.10612392
0.15400216 -0.036690064 -0.098064899
-0.17283551 -0.016219027 -0.099306822
0.15350136 -0.015971109 -0.10735834
0.1743584 -0.016219027 -0.099306822
-0.19328177 0.0041972436 -0.099006772
0.19471353 0.0042268485 -0.10028875
0.21574911 0.0040408857 -0.092235327
-0.21396174 0.024576396 -0.096001387
-0.19277674 0.024723683 -0.10556734
0.19427355 0.024740223 -0.10663939
0.21525726 0.02461677 -0.098624587
-0.23468859 0.045001835 -0.092989326
-0.21340492 0.045075703 -0.10257685
0.21476777 0.045094218 -0.10498345
0.23606309 0.045010999 -0.09416759
-0.2341466 0.065473601 -0.098856568
0.23549169 0.065473646 -0.10091567
-0.25514805 0.085944496 -0.093112707
-0.23379289 0.085870899 -0.10268581
0.23511733 0.085850365 -0.10533643
-0.25476319 0.10635623 -0.096958399
-0.23343892 0.10620894 -0.10651731
0.2565372 0.10640105 -0.094044328
-0.254464 0.12672837 -0.099947929
0.25621879 0.1267851 -0.097491264
-0.25433719 0.14710762 -0.10121536
0.25608131 0.1471764 -0.098979354
-0.25421047 0.16746724 -0.10248148
0.25594398 0.16754492 -0.10046601
-0.25417098 0.18784782 -0.10287619
0.25590244 0.18793842 -0.10091567
-0.25429901 0.20831244 -0.10159683
0.25604099 0.20842998 -0.099416018
-0.25442719 0.2287969 -0.10031593
0.25617841 0.2289439 -0.097928405
-0.25465247 0.24936828 -0.098064899
0.25642338 0.24956144 -0.095276475
-0.25504386 0.27010196 -0.094153881
-0.2336823 0.26935309 -0.10388267
0.23499779 0.26913249 -0.1067481
-0.23404202 0.29007077 -0.099988818
0.23537865 0.28987917 -0.10225022
-0.23452282 0.31096947 -0.094783664
-0.2132322 0.31006122 -0.10461652
0.21461207 0.30984044 -0.10700572
0.2358858 0.31083304 -0.096261263
-0.21380435 0.33111972 -0.097860098
0.2151134 0.33085614 -0.10049307
-0.19313271 0.35122168 -0.10094285
0.19458048 0.35108513 -0.10220945
0.21561722 0.3519755 -0.093948364
-0.17263724 0.37149072 -0.10216856
0.17418636 0.37149864 -0.10210049
0.19516893 0.3724668 -0.093715549
-0.15223441 0.39188856 -0.10219574
0.15385441 0.39205956 -0.10080671
0.17478208 0.39309168 -0.092427135
-0.15284951 0.41359669 -0.092207909
-0.13183275 0.41228759 -0.10220933
-0.11120601 0.4116475 -0.10710061
0.13350198 0.4126389 -0.099525094
-0.11176668 0.43369281 -0.094961643
-0.091171168 0.43319291 -0.098569989
-0.070631102 0.43269235 -0.10218215
-0.050147194 0.43219495 -0.10577095
0.051725078 0.43224204 -0.10543168
0.072152883 0.43255287 -0.10318911
0.092614919 0.43286204 -0.10095644
0.11325929 0.43370408 -0.094879508
-0.050436046 0.4543978 -0.093263388
-0.029910725 0.4538694 -0.096876264
-0.0094463574 0.4534421 -0.099797726
0.010973033 0.45376939 -0.097559571
0.031427018 0.45409936 -0.095303774
0.051915582 0.4544279 -0.09305799
-0.030195281 -0.11978379 -0.078394175
-0.0095876819 -0.1195728 -0.081439376
0.010973033 -0.11972526 -0.07923913
0.031567756 -0.1198789 -0.07702148
-0.11247368 -0.099121973 -0.079654574
-0.091765121 -0.098907366 -0.083138824
-0.071110055 -0.098692536 -0.086627841
-0.05050892 -0.098478243 -0.090107799
0.031451803 -0.09835647 -0.092084408
0.051963754 -0.09848915 -0.089929223
0.072509281 -0.098622978 -0.087756634
0.093087941 -0.098756224 -0.085594535
0.11388849 -0.099191114 -0.078532577
-0.13274217 -0.078241572 -0.085332513
-0.11191732 -0.077898428 -0.091700196
0.11339328 -0.077914685 -0.091398358
0.13425627 -0.078356773 -0.083194137
-0.17424406 -0.058004431 -0.078976035
-0.15306009 -0.057551168 -0.08878839
0.15455391 -0.057595663 -0.087825656
0.17557293 -0.057976246 -0.079585433
-0.19474912 -0.03738749 -0.079945207
-0.17350329 -0.037013136 -0.089668155
0.17493422 -0.037002042 -0.08995676
0.19599457 -0.037316091 -0.081798673
-0.21532369 -0.01681605 -0.07991755
-0.19400172 -0.016516209 -0.089654326
0.19534279 -0.016468368 -0.091206312
0.21645573 -0.016719498 -0.083055973
-0.23591529 0.0037515834 -0.079709888
0.23735887 0.0037321076 -0.07886517
-0.2145213 0.0039752163 -0.089393258
-0.23530042 0.024428148 -0.086366177
0.23670854 0.024430852 -0.086545229
-0.25631487 0.044913068 -0.081453085
0.25799572 0.044888414 -0.078255415
0.25736234 0.065473646 -0.085112095
-0.25558904 0.065473691 -0.088706017
0.25694907 0.085971713 -0.089585543
-0.27703649 0.10661794 -0.079959035
0.27859065 0.10664558 -0.078158498
-0.27664471 0.12710607 -0.083594441
0.27824572 0.12715198 -0.081605196
-0.27647522 0.14760171 -0.08516717
0.27809641 0.14766546 -0.083097339
-0.27630442 0.16807275 -0.086751699
0.27794585 0.16815551 -0.084601641
-0.27626288 0.18857476 -0.087137341
0.27790996 0.18867525 -0.084960222
-0.27643362 0.20917694 -0.085553169
0.27806184 0.20929077 -0.083442569
-0.27660453 0.2298037 -0.083967209
0.27821115 0.22992793 -0.081950903
-0.27692467 0.25055063 -0.080996752
0.27849495 0.2506811 -0.079114437
0.25684375 0.27036601 -0.090725899
-0.25546801 0.29092389 -0.089915514
0.25726429 0.29124063 -0.086173177
-0.25612822 0.31202865 -0.083318353
0.25784346 0.31234407 -0.079903722
-0.23515034 0.33210731 -0.087990642
0.23654887 0.3320632 -0.088430882
-0.23578109 0.35335356 -0.08116281
-0.21437709 0.35228288 -0.09109652
0.23721702 0.35342056 -0.08054018
-0.19380938 0.37264723 -0.092152834
-0.21514098 0.37381089 -0.082075119
0.21628472 0.37344128 -0.085277438
-0.1945841 0.39436507 -0.082088947
-0.17332923 0.39312214 -0.092180371
0.19584337 0.39413208 -0.083980918
-0.17404082 0.41494423 -0.081909299
0.15437618 0.41373843 -0.091123819
0.17539406 0.41486835 -0.082489729
-0.15370789 0.43600571 -0.078269243
-0.13256559 0.43457311 -0.088609576
0.13411421 0.43489718 -0.086269736
0.15510546 0.43609977 -0.077590108
-0.11234785 0.45598978 -0.082379103
-0.091654152 0.45545703 -0.086021662
-0.071016863 0.45492572 -0.089654326
0.072439134 0.45475888 -0.090794444
0.092997223 0.4550885 -0.088540912
0.11377874 0.45613521 -0.081383944
-0.050784882 0.47719312 -0.078158379
-0.03014116 0.47661543 -0.081909299
-0.0095593026 0.47612029 -0.085125685
0.010973033 0.47648162 -0.082779646
0.031541415 0.47684133 -0.080443382
0.052145828 0.47720164 -0.078102946
-0.030444916 -0.14161609 -0.062179804
-0.00971092 -0.14136592 -0.065430045
0.010973033 -0.1415384 -0.063189268
-0.11319017 -0.12077117 -0.064141989
-0.092358492 -0.1205231 -0.067722797
-0.071582645 -0.12027656 -0.071280122
-0.050861474 -0.12002991 -0.074841738
0.052196465 -0.12003176 -0.074814081
0.07285957 -0.12018594 -0.072588921
0.093557045 -0.12034032 -0.070360184
0.11452817 -0.12092562 -0.061913133
-0.15470566 -0.10020497 -0.062067628
-0.13346037 -0.099593192 -0.072004199
0.1348542 -0.099701241 -0.070248604
0.15595022 -0.1002146 -0.061913252
-0.17517188 -0.079305738 -0.065583825
-0.15387878 -0.078771725 -0.075494528
0.15524906 -0.078802347 -0.074925303
0.17637147 -0.079249978 -0.066618681
-0.19558468 -0.058460996 -0.069091082
0.19672236 -0.058359265 -0.071294069
-0.2161507 -0.037764408 -0.07015121
0.21725933 -0.037669502 -0.072616696
-0.23680088 -0.017117634 -0.070123196
0.23829883 -0.017190315 -0.067764521
-0.25795621 0.0034130663 -0.065052032
0.25942761 0.0033599995 -0.062754631
-0.25713232 0.024226744 -0.073284745
0.2587083 0.024184398 -0.070541501
-0.27886042 0.044771329 -0.063035131
0.28019109 0.044764545 -0.062165737
0.27949667 0.065473646 -0.069105029
-0.27806649 0.065473691 -0.070402026
-0.27755058 0.086082526 -0.075189114
0.27904221 0.08609435 -0.073646307
-0.29973611 0.10690156 -0.061534405
0.30091077 0.10689332 -0.062067509
-0.29931536 0.12753125 -0.065177917
0.30053782 0.12752332 -0.065527916
-0.29913124 0.14816812 -0.06677258
0.30037659 0.14816034 -0.067024112
-0.29894736 0.16878048 -0.068365216
0.3002125 0.16877343 -0.068546534
-0.29891351 0.18942823 -0.068658233
0.30018392 0.18942116 -0.068811774
-0.29909736 0.21017316 -0.067066073
0.30034798 0.2101611 -0.067289591
-0.29928467 0.23094444 -0.065443993
0.3005107 0.23092377 -0.065779805
-0.29965347 0.25184959 -0.062249899
0.30083671 0.25181457 -0.062754631
-0.27744731 0.27148819 -0.076147318
0.27895457 0.27161336 -0.074522138
-0.27797186 0.29250172 -0.071280003
0.2794157 0.29261747 -0.069913983
-0.27871999 0.31378192 -0.064338088
0.28007326 0.31387377 -0.063343406
-0.25697234 0.33341902 -0.074883342
0.25857574 0.33370984 -0.071976423
-0.2578218 0.35494494 -0.066395164
0.25931627 0.3552075 -0.063959956
-0.23663484 0.37498349 -0.071920633
0.23812982 0.37523288 -0.069760561
-0.23760335 0.39690882 -0.061436296
-0.21600084 0.39561749 -0.071920753
0.21708806 0.39525777 -0.074841738
-0.19539794 0.41630435 -0.071516752
0.19654879 0.41600555 -0.073799253
0.21805847 0.41751885 -0.062235951
-0.17501596 0.43745166 -0.067834496
0.17623296 0.43730843 -0.068867683
-0.15457705 0.45865512 -0.064156055
-0.13331947 0.45712471 -0.074619412
0.13474225 0.45740956 -0.072672486
0.15584296 0.4586919 -0.063903809
-0.1130661 0.47893739 -0.066828489
-0.092247315 0.47835511 -0.070611
-0.071487091 0.47777432 -0.07438314
0.072786368 0.47756249 -0.075758338
0.093463138 0.47792411 -0.073409796
0.11442351 0.47927564 -0.064632058
-0.03040608 0.4999544 -0.064702153
-0.0096902614 0.49940276 -0.068113804
0.010973033 0.49978459 -0.065751672
0.031672727 0.50016731 -0.063385487
-0.05113608 0.52094048 -0.062951088
-0.030383892 0.52039981 -0.066143394
-0.0096834889 0.51991731 -0.068993211
0.010973033 0.520253 -0.067010045
0.031660222 0.52059168 -0.065010071
0.052378029 0.52092856 -0.063021064
-0.071883596 0.54189932 -0.061506391
-0.051091112 0.54129869 -0.064898252
-0.03035076 0.54069728 -0.068295479
-0.0096655665 0.54016155 -0.071321726
0.010973033 0.54053664 -0.069202542
0.03164418 0.54090989 -0.067094088
0.052348055 0.54128635 -0.064968109
0.073084734 0.54166329 -0.062838912
-0.030672472 -0.18439938 -0.047399402
-0.0098227905 -0.18407625 -0.050897598
0.010973033 -0.18428805 -0.04860425
0.031804197 -0.18450029 -0.046307087
-0.093168035 -0.16363667 -0.046690226
-0.072234221 -0.16334628 -0.050119519
-0.051354069 -0.16305901 -0.053511739
-0.030526057 -0.16277128 -0.05690968
-0.0097523658 -0.1625057 -0.060046196
0.010973033 -0.16268553 -0.057923198
0.031731036 -0.16286431 -0.055810809
0.052521609 -0.16304354 -0.053695202
0.073344834 -0.163223 -0.051576257
0.094249643 -0.16353694 -0.047867298
-0.11399297 -0.142803 -0.046761155
-0.092987582 -0.14244759 -0.051378489
-0.072084151 -0.14216936 -0.054993153
-0.0512366 -0.14189179 -0.05859828
0.031691406 -0.14171013 -0.060958982
0.052444387 -0.14188312 -0.058710814
0.073232077 -0.14205648 -0.05645895
0.094094105 -0.14232901 -0.052918673
-0.13439299 -0.12142552 -0.054697037
0.13563181 -0.12151459 -0.053412795
-0.17610906 -0.10082148 -0.052056909
0.17717865 -0.10073197 -0.053511739
-0.19662327 -0.079843789 -0.055599451
0.19762629 -0.079701126 -0.058246732
-0.21708371 -0.05892086 -0.059132695
0.21823676 -0.058884613 -0.059919715
-0.2377616 -0.038165845 -0.0597229
0.23926453 -0.038295209 -0.056360245
-0.25915062 -0.017641336 -0.053116322
0.26047328 -0.017693117 -0.051434994
-0.28065255 0.002982486 -0.046406269
0.28176537 0.0029830821 -0.04643476
-0.27975446 0.023941156 -0.054739475
0.28097525 0.023934785 -0.05433023
-0.30085495 0.065473601 -0.051844954
0.30189678 0.065473646 -0.052918792
-0.30029288 0.08622472 -0.056712508
0.30140293 0.086218715 -0.057500958
-0.32230109 0.1279626 -0.046505809
0.32310161 0.12789941 -0.049241662
-0.32210198 0.14874238 -0.048122406
0.32292512 0.1486609 -0.050770283
-0.32190308 0.16949743 -0.049737096
0.32274881 0.1693989 -0.052297115
-0.32188216 0.19029433 -0.049907207
0.32272923 0.19017605 -0.052466631
-0.322081 0.21118477 -0.048292518
0.32290551 0.21104211 -0.050939918
-0.32228011 0.23210017 -0.046676159
0.323082 0.23193176 -0.049411535
0.32345197 0.25296101 -0.046207786
-0.30022299 0.27293777 -0.057317853
0.30133772 0.27287698 -0.058106065
-0.30079293 0.29410201 -0.052381873
0.30184045 0.29401243 -0.053441167
0.30258027 0.31542271 -0.046576738
-0.27964205 0.33533049 -0.055782557
0.28087926 0.33537984 -0.055289268
-0.28057149 0.35701823 -0.04715836
0.28169155 0.35701662 -0.047172546
-0.25900656 0.37698847 -0.054555893
0.26035318 0.37719887 -0.052734971
0.23913698 0.39734846 -0.057866693
-0.21692312 0.41767681 -0.061029196
-0.23888953 0.41944557 -0.047512889
-0.21813251 0.44037372 -0.046746969
-0.19648989 0.43890697 -0.0573318
0.19749969 0.43852687 -0.06007421
-0.17600045 0.46019548 -0.05362463
0.17708221 0.45998293 -0.055077672
0.19846137 0.46128237 -0.04619348
-0.1342677 0.48044717 -0.057022333
-0.15568937 0.48212969 -0.046094179
0.13553342 0.48067498 -0.055542946
0.15678735 0.482086 -0.046378016
-0.11391372 0.50257742 -0.048476696
-0.09291742 0.50181365 -0.053201079
-0.072020806 0.50119138 -0.057050467
-0.051184032 0.5005731 -0.060874701
0.052409127 0.50055265 -0.061001062
0.073182017 0.50093651 -0.058626533
0.09402892 0.50151706 -0.055035591
-0.11370725 0.5226348 -0.052946925
-0.092788778 0.52202564 -0.056543469
-0.07193765 0.52148241 -0.059751034
0.073126204 0.52126354 -0.061043143
0.093930043 0.52173716 -0.058246613
0.11495978 0.52301538 -0.050699592
-0.11364141 0.54316241 -0.054372549
-0.092729181 0.54250377 -0.058091998
0.093876794 0.54217029 -0.059975982
0.11491624 0.54361236 -0.051830649
-0.093569867 -0.18542938 -0.036250114
-0.072546542 -0.18508498 -0.039976835
-0.05158082 -0.18474175 -0.043693066
0.052670788 -0.1847129 -0.04400599
0.073572896 -0.18492572 -0.041700959
0.094589315 -0.1853752 -0.036836147
-0.13561468 -0.16487849 -0.032025576
-0.11422077 -0.1640483 -0.041829109
0.11538403 -0.1642306 -0.039677143
0.13664681 -0.16492823 -0.031437516
-0.13537394 -0.14359349 -0.036493063
0.11520319 -0.14298669 -0.04437542
0.13644633 -0.14364849 -0.035778165
-0.17734498 -0.12284441 -0.034218073
-0.15578821 -0.12213269 -0.044489264
0.15686922 -0.12210716 -0.044858694
0.17824081 -0.12270261 -0.0362643
-0.21941917 -0.10208425 -0.031552196
-0.19767123 -0.10144179 -0.04198575
0.19853908 -0.10125175 -0.045071721
-0.21823347 -0.080385089 -0.045554638
0.21944539 -0.080456987 -0.044219255
-0.23902845 -0.059527144 -0.046008945
0.24036486 -0.059649125 -0.043366075
-0.26037285 -0.038890176 -0.040903091
0.26153833 -0.038928531 -0.039905548
-0.28196609 -0.018223234 -0.034218192
0.28291774 -0.018201604 -0.034919739
-0.30269039 0.023651853 -0.035949707
0.30351302 0.023682237 -0.037921906
-0.30172071 0.04462748 -0.044347167
0.30265671 0.044639163 -0.045867085
-0.32396099 0.065473646 -0.033029199
0.32456875 0.065473691 -0.036535978
-0.32335308 0.086368978 -0.037964582
0.3240332 0.086344324 -0.041173935
-0.32274914 0.10718898 -0.042868257
0.32349947 0.10714394 -0.045796037
0.34613669 0.14926445 -0.031164765
-0.34517968 0.17022437 -0.030848861
0.3458735 0.17013006 -0.033301473
-0.34517214 0.1911719 -0.030906439
0.34586293 0.19105738 -0.033387423
0.34612784 0.21210381 -0.031236529
-0.32270357 0.25316679 -0.043238044
-0.3233214 0.27440768 -0.038221717
0.32399535 0.2741552 -0.041501641
-0.32393801 0.29572505 -0.033215523
0.3245407 0.29542333 -0.036778927
-0.30163869 0.3155629 -0.045057535
-0.30263919 0.33727098 -0.036392927
0.30346221 0.33707076 -0.03839314
-0.28190592 0.37927252 -0.034776688
0.28286046 0.37918991 -0.035491943
-0.26028591 0.39933079 -0.041772008
0.26146591 0.39946419 -0.040689349
0.24025653 0.41982096 -0.044645429
0.21934369 0.44054085 -0.045540333
-0.219373 0.46334416 -0.03209722
-0.19759345 0.46175003 -0.042996287
-0.17728646 0.48382801 -0.03506279
0.17818446 0.48350227 -0.037179112
-0.13532004 0.50435281 -0.037493348
0.11514524 0.50299692 -0.045881152
0.13640471 0.50448442 -0.03667891
-0.15640576 0.5257653 -0.034461617
-0.13498135 0.52418751 -0.0437783
0.13611688 0.52433437 -0.042910814
0.15739708 0.5256635 -0.035062671
-0.15640397 0.54668266 -0.034490228
-0.13494383 0.54491478 -0.044474959
0.13608928 0.54508597 -0.043508291
0.15739246 0.54656613 -0.035148621
-0.13630499 -0.18700303 -0.019214988
-0.11477302 -0.18601851 -0.029872417
0.115835 -0.18619509 -0.02796042
0.13722003 -0.18702032 -0.019026875
-0.1571639 -0.16571464 -0.022150874
0.15803915 -0.1656303 -0.023147345
-0.17862546 -0.14519131 -0.015735984
-0.15691693 -0.14438877 -0.026161194
0.15782475 -0.1443145 -0.027125955
0.17934071 -0.14498594 -0.018404126
-0.199067 -0.12356234 -0.023854494
0.19998707 -0.12354037 -0.024171948
0.2206693 -0.10228339 -0.028320193
-0.24058276 -0.081267282 -0.029182792
0.24171202 -0.081360176 -0.027456999
-0.26178184 -0.060413241 -0.02682364
0.26276806 -0.060423777 -0.026593328
-0.28330085 -0.039624169 -0.021833062
0.28408572 -0.039569639 -0.023248434
0.30563834 -0.018716462 -0.018201232
-0.30366769 0.0025454909 -0.027485728
0.30437586 0.0026016235 -0.029915571
-0.325948 0.023358569 -0.016896605
0.32639837 0.023416996 -0.020691037
-0.32489917 0.044481613 -0.025411844
0.32539788 0.044511996 -0.029355288
-0.34673816 0.086515486 -0.018939853
0.34778157 0.086524151 -0.017809868
-0.34608555 0.10748048 -0.023926616
0.34698555 0.10747526 -0.024273038
-0.3456066 0.12839946 -0.02758646
0.34640029 0.12836623 -0.029024601
-0.34539396 0.14932477 -0.02921164
-0.34538645 0.21220985 -0.02926898
-0.34560096 0.23327315 -0.027629733
0.3463932 0.23318365 -0.02908206
-0.34607989 0.2545017 -0.023970008
0.34698021 0.25447771 -0.024316192
-0.34674573 0.27589652 -0.018881917
0.34779584 0.27598795 -0.017693996
-0.32488674 0.31736863 -0.025512934
0.32537299 0.31699371 -0.029570699
-0.32596943 0.33923936 -0.01672256
0.32640505 0.33884805 -0.020633101
-0.30364776 0.35911977 -0.027658343
0.30434799 0.35884857 -0.030174136
0.30565864 0.38120824 -0.018012762
-0.28330398 0.40179026 -0.021804094
0.28408137 0.4016071 -0.023291826
-0.26175737 0.42212111 -0.027068377
0.26274544 0.42215115 -0.026837945
-0.24054694 0.44275361 -0.029570699
0.24168888 0.44300866 -0.027730346
0.22064272 0.46384603 -0.028665304
-0.1990592 0.48553824 -0.023955584
0.19998008 0.48548937 -0.024272919
-0.15690097 0.50614285 -0.026420474
0.15780926 0.50598228 -0.027413726
0.17936035 0.50749034 -0.018085361
-0.19970091 0.52895623 -0.015619755
-0.17797804 0.52735406 -0.025080442
0.17880094 0.52700037 -0.027169108
-0.17802201 0.5484609 -0.024446011
0.1788284 0.54805779 -0.026722789
-0.010201507 -0.20979537 -0.0017011166
-0.15812668 -0.18817599 -0.0065169334
0.15883143 -0.18799789 -0.0084445477
-0.20073962 -0.16741019 -0.0021263361
-0.17886811 -0.16655439 -0.012233377
0.17956135 -0.1663353 -0.014821053
-0.20049953 -0.14599888 -0.0052453279
0.20148093 -0.1462018 -0.0026099682
-0.22133881 -0.12459974 -0.0088822842
0.22231959 -0.12473822 -0.0068824291
-0.24217674 -0.10329293 -0.011927605
0.24309358 -0.10334127 -0.011141539
-0.26348975 -0.082313955 -0.0097572803
0.264256 -0.082274824 -0.010486007
-0.28486019 -0.06131202 -0.0073645115
0.28544897 -0.061207637 -0.0096260309
-0.30655366 -0.040368617 -0.0024926662
0.30691016 -0.040218167 -0.0064001083
-0.30510494 -0.018813886 -0.015039086
-0.32701775 0.002100423 -0.0082111359
0.32770297 0.0021276921 -0.0093928576
-0.34840405 0.044333823 -0.0062102079
0.34983072 0.044295058 -0.0011730194
-0.34739313 0.065473646 -0.013934851
0.34858319 0.065473557 -0.011301637
-0.37018901 0.12900069 -0.0015543699
-0.36985603 0.15010235 -0.00395751
0.37109572 0.15020838 -0.00051271915
-0.36952361 0.17116725 -0.0063562393
0.37081361 0.17130911 -0.0026686192
-0.36954185 0.19231188 -0.0062248707
0.37083277 0.19248299 -0.0025219917
-0.3698763 0.2135818 -0.003811121
0.37111878 0.21376899 -0.00033652782
-0.37021339 0.23488981 -0.0013782978
-0.34741408 0.29737115 -0.01377511
0.34861726 0.29760402 -0.011025071
-0.34848821 0.31921107 -0.0055668354
0.34994277 0.31970102 -0.00026321411
-0.32710227 0.3612895 -0.0075249672
0.32779729 0.36117631 -0.0085761547
-0.30514517 0.38159186 -0.014690399
-0.30666369 0.40428609 -0.0015397072
0.3069905 0.40377933 -0.0056548119
-0.28497353 0.42483723 -0.0063124895
0.28553361 0.42451441 -0.008780241
-0.26358169 0.44562632 -0.0088384151
0.26432601 0.445503 -0.0097281933
-0.24227089 0.4664433 -0.010908484
0.24317499 0.46654981 -0.010179877
-0.22144632 0.48805428 -0.0076127052
0.22242309 0.4883737 -0.0055376291
-0.20059529 0.50976712 -0.0040012598
-0.17865865 0.5079475 -0.015256763
0.20159267 0.51025271 -0.0009970665
-0.22206989 0.53155959 -0.00024843216
0.20064396 0.52911365 -0.014690399
-0.19981158 0.55027831 -0.014181972
0.20076481 0.550497 -0.012946248
-0.074117057 -0.21106912 0.011027217
-0.052746248 -0.21064322 0.0067714453
-0.031441394 -0.21022008 0.0025433302
0.010973033 -0.21002887 0.00063252449
0.032185908 -0.21029381 0.0032790899
0.05343961 -0.21055909 0.0059307814
0.074734941 -0.21082787 0.0086170435
-0.18016948 -0.18938307 0.0065500736
0.18082483 -0.18930404 0.005694747
0.20171472 -0.16765507 0.00076460838
-0.22330202 -0.14750358 0.014301896
0.2240006 -0.147554 0.014955044
-0.24431229 -0.12599029 0.011190057
0.24493696 -0.12595138 0.010627747
-0.26527533 -0.1045254 0.0080852509
0.26580793 -0.1044163 0.0063142776
-0.28672749 -0.083376572 0.0099620819
0.28708255 -0.083200783 0.0066977739
-0.30827039 -0.062223777 0.012374878
0.30885854 -0.062191561 0.011678696
-0.32857081 -0.019412331 0.0043979883
0.32959843 -0.019493118 0.0070223808
-0.35002184 0.023003645 0.0061519146
0.35122588 0.022942007 0.010154486
-0.37194058 0.086746633 0.011086583
0.37287146 0.086761802 0.013056397
-0.37091991 0.10790625 0.0037206411
0.37200457 0.10794795 0.0064321756
0.37138215 0.12907521 0.0016759634
0.37140712 0.23508964 0.0018669367
-0.37101787 0.25646919 0.0044275522
0.37209919 0.25665817 0.0071552992
-0.37206778 0.27827403 0.012004614
0.3729879 0.27842352 0.013946056
-0.3502014 0.34166586 0.0075242519
0.3513954 0.34206676 0.011530519
-0.32873055 0.38394576 0.005694747
0.32981667 0.3843174 0.0089125633
-0.30854607 0.42759526 0.014762044
0.30918926 0.42759335 0.014747262
-0.28696996 0.44854319 0.0122118
0.28726429 0.44803071 0.008513689
-0.26556385 0.46964288 0.010968089
0.26603293 0.46931845 0.0087499619
-0.24459973 0.49142832 0.014301896
0.24517901 0.49130273 0.013486385
-0.22290948 0.5119766 0.0096663237
0.22365269 0.51210093 0.010435462
0.22293991 0.53180093 0.0011761189
-0.22235988 0.55335164 0.0031760931
0.22319475 0.55358356 0.0044865608
-0.11746624 -0.21281154 0.028437614
-0.095601916 -0.21162121 0.016543865
0.096300766 -0.21184148 0.018744826
0.11801616 -0.21283849 0.028707504
-0.20295408 -0.19123884 0.026640296
0.20363508 -0.19140913 0.028482795
-0.22352584 -0.16902518 0.016945243
0.22419731 -0.16907308 0.017510176
0.26784468 -0.12718011 0.028362751
-0.28871539 -0.10577685 0.028407574
0.2890783 -0.10566813 0.026640296
-0.31030178 -0.084454536 0.029967189
-0.33042222 -0.041212454 0.019429684
0.33151844 -0.041374914 0.02365005
-0.35172048 0.0014688969 0.019132018
0.35266933 0.0014056116 0.021873713
-0.37455884 0.044055201 0.029982209
0.37510413 0.044054098 0.030117273
-0.37296671 0.065473691 0.018491864
0.37374449 0.065473691 0.019727588
-0.39598602 0.17256814 0.030042291
0.39632413 0.17251563 0.028677464
-0.39605409 0.1940085 0.030507326
0.39638022 0.19394265 0.029082179
-0.37312138 0.30019808 0.019608378
0.37387902 0.30029523 0.020755529
-0.35211247 0.36448532 0.02212739
0.35301879 0.36476362 0.024710894
-0.33079311 0.40723985 0.022440791
0.33186373 0.40775692 0.026640415
-0.24561238 0.51449811 0.025264144
0.24607888 0.51431191 0.024113178
-0.24495518 0.53467542 0.018149734
0.24550211 0.53453171 0.017301917
-0.24550468 0.55705595 0.024098277
0.24595748 0.55680472 0.022679567
-0.053591099 -0.23582561 0.04335463
-0.032007307 -0.23538868 0.03930068
-0.010486138 -0.23495473 0.035273552
0.010973033 -0.23515286 0.037112117
0.032465763 -0.23542456 0.039633036
0.053997371 -0.23569669 0.042158365
-0.13951761 -0.21400894 0.040403724
0.13988756 -0.2138411 0.038726807
-0.24665394 -0.17068441 0.036539316
0.24696909 -0.17052241 0.034626245
-0.24651057 -0.14909604 0.03498745
0.24684805 -0.14895819 0.033196807
-0.26762441 -0.1274015 0.031558394
0.31133488 -0.084707215 0.034656286
-0.33318067 -0.063584045 0.041825414
0.33385321 -0.063678399 0.043869734
-0.3541643 -0.020440944 0.037806034
0.35473767 -0.020467617 0.038666368
-0.3763341 0.022439525 0.042794108
0.37661657 0.022456754 0.041674018
0.39853424 0.087004773 0.044627666
-0.39747947 0.10846858 0.040252566
0.39759529 0.1084317 0.037851453
-0.39670494 0.12984386 0.034957409
0.39693573 0.12980083 0.033091426
-0.39634627 0.15122509 0.032505155
0.39662758 0.15117463 0.030867696
-0.39641666 0.21556461 0.032986164
0.39668587 0.21547309 0.031288147
-0.39678204 0.23716013 0.035484433
0.39699617 0.23703951 0.033527613
-0.39773384 0.25907165 0.041991711
0.3978045 0.25888932 0.039361119
-0.37491256 0.32273078 0.032535195
0.3754009 0.32271689 0.032384992
-0.37677732 0.34551555 0.045992851
0.37697926 0.3453607 0.044445634
-0.35473385 0.38815612 0.042158365
0.35522929 0.38821387 0.042658091
-0.31091624 0.45174086 0.035288692
0.31188914 0.45236582 0.039799213
-0.2892299 0.47289199 0.033181787
0.28968927 0.47282815 0.0327456
-0.26812887 0.49486119 0.036599517
0.26825371 0.49427485 0.03279078
-0.26868215 0.51722443 0.042128086
0.26885369 0.51676488 0.03928566
-0.26816812 0.53786629 0.036991596
0.26833847 0.53731024 0.033707976
0.2693598 0.56071484 0.044764161
-0.097147644 -0.23726423 0.056703091
-0.075238131 -0.23626541 0.047435403
0.075639136 -0.23630153 0.047769666
0.097493596 -0.23734833 0.057483315
-0.16175956 -0.21521683 0.052473187
0.1622012 -0.21537869 0.054090381
-0.22663762 -0.19373794 0.053693652
0.22682542 -0.19354923 0.051650167
-0.27010858 -0.17236462 0.05638206
0.27051213 -0.17243712 0.05723846
-0.26982582 -0.1505255 0.053556204
0.27016351 -0.15051839 0.05346477
-0.29146847 -0.12895302 0.053953052
0.29220623 -0.1292263 0.057896495
-0.31352857 -0.10759394 0.057911873
0.3140558 -0.10771647 0.059903026
-0.35663927 -0.042647593 0.056718469
0.35683683 -0.042608827 0.055709481
-0.37822327 0.00060759485 0.056427836
0.37821147 0.00066693872 0.05386138
0.39947987 0.065473646 0.051452041
-0.39969549 0.065473691 0.055403709
-0.39858338 0.087029248 0.047800064
0.42242074 0.17374945 0.060731053
0.42251948 0.19543566 0.061406136
-0.39887029 0.28118062 0.049761891
0.39876759 0.28091508 0.046311617
-0.40006679 0.30344415 0.05794251
0.39977145 0.30307269 0.053556204
0.37886176 0.36844075 0.058830619
0.35746476 0.41196537 0.060807705
-0.33398956 0.43199641 0.048392892
0.33454937 0.43219346 0.049898744
-0.29209486 0.54172325 0.05976522
-0.26920414 0.56117177 0.047344208
-0.076114751 -0.2611056 0.075904369
-0.054235574 -0.26056939 0.071261048
-0.032437366 -0.2601043 0.067233801
-0.01070137 -0.25964236 0.063233256
0.010973033 -0.25981992 0.064770579
0.03267847 -0.26010793 0.067264438
0.054422136 -0.26039463 0.069747567
-0.11931299 -0.23852707 0.068420649
0.11950081 -0.23840414 0.067280054
-0.18486391 -0.21740197 0.074308395
0.18506749 -0.2174298 0.074587226
-0.33640698 -0.086505115 0.068019867
0.33656883 -0.086471111 0.067387938
0.35943881 -0.065201014 0.076835036
-0.38087904 -0.02160456 0.075594425
0.38046423 -0.021465428 0.071075559
0.40259117 0.021960549 0.073905826
-0.40143028 0.043768287 0.067264438
0.40095481 0.043808062 0.062096715
-0.42393667 0.13071015 0.07246685
0.42353415 0.13061485 0.068343639
-0.42354649 0.15237762 0.069932818
0.42291486 0.15219826 0.064109445
-0.42315942 0.17400676 0.067418814
-0.42328283 0.1957504 0.068220258
-0.42367724 0.2176013 0.070782065
0.42310607 0.21731223 0.065416813
-0.42407241 0.23949188 0.073348522
0.42373499 0.23926817 0.069716573
-0.40207359 0.32634532 0.071662903
0.40146816 0.3258037 0.065801501
-0.37901941 0.36880112 0.062173605
-0.35739332 0.41217142 0.062480688
0.33751822 0.4573279 0.075609922
-0.31487027 0.47820848 0.069531441
0.31518331 0.47833037 0.070365191
-0.29265586 0.49922931 0.064970613
0.29323319 0.49972004 0.068158627
-0.29254979 0.52075791 0.063986301
0.29305738 0.52114838 0.066401958
0.29270032 0.542243 0.062833786
-0.032781199 -0.2845602 0.08956635
-0.010873399 -0.28406924 0.08558023
0.010973033 -0.28423464 0.08692348
0.032849066 -0.28454286 0.089425445
0.05476417 -0.28485543 0.091963291
-0.098324053 -0.26241761 0.08726716
0.076326489 -0.26129365 0.077533245
0.098405413 -0.26239783 0.087095261
-0.14165984 -0.23979209 0.08015871
0.14181486 -0.23982392 0.080454111
-0.25065747 -0.19615696 0.079878807
0.2510263 -0.19640262 0.082539678
-0.29530489 -0.17517331 0.089550495
0.29541001 -0.17520383 0.089910865
-0.29450569 -0.15272547 0.082134843
0.29472694 -0.15279856 0.08308506
0.31750593 -0.13158312 0.091916203
-0.35972306 -0.065360218 0.080283046
0.38299263 -0.043943927 0.090396166
-0.40336165 0.021859411 0.080469728
-0.425946 0.087319642 0.085517883
0.42676422 0.087357454 0.090427399
-0.42475012 0.10904595 0.077750444
0.42484421 0.10903908 0.07730031
-0.42518792 0.26174617 0.080594063
0.4255513 0.26185283 0.082134843
-0.42641509 0.28416765 0.088564873
-0.40410236 0.34947264 0.0855335
0.40372491 0.34912783 0.082088113
-0.38187379 0.39284605 0.082773447
0.38126868 0.392205 0.077222824
-0.36111829 0.43756491 0.090944529
0.36056402 0.43691403 0.085970759
-0.33756152 0.45757502 0.077393413
-0.033056941 -0.30878109 0.10747623
-0.011011613 -0.30826539 0.10353494
0.010973033 -0.30841434 0.10467339
0.032985337 -0.30873549 0.10712767
-0.076867819 -0.28588974 0.10036099
-0.054749902 -0.28504872 0.093532205
0.076875538 -0.28600633 0.10130775
-0.12071325 -0.26374209 0.098737359
0.12063465 -0.26351124 0.096737981
-0.16468635 -0.24193029 0.099998236
0.16468774 -0.24195577 0.10023487
-0.20848472 -0.21982144 0.098485351
0.20827244 -0.21951427 0.095416903
-0.31765616 -0.13170393 0.093657613
-0.34006432 -0.11004503 0.097713709
0.33963847 -0.10981457 0.09397161
-0.36323822 -0.088613391 0.10714352
0.36261839 -0.088371158 0.10264981
-0.38357347 -0.044122599 0.095039725
-0.40544909 -0.0002771765 0.094741344
0.40591621 -0.00035017729 0.097902656
-0.4272306 0.065473646 0.093861818
0.42870212 0.065473646 0.10367703
0.42756984 0.2847352 0.095935822
-0.4288221 0.30736089 0.10419893
-0.40671444 0.37324333 0.10339248
-0.38490835 0.41736823 0.10467339
0.38519463 0.41768217 0.1072228
0.31910089 0.50565636 0.10671568
-0.31802636 0.52607274 0.096863747
0.31784594 0.525783 0.095071435
-0.31804633 0.54803526 0.097036839
0.31784087 0.54769456 0.095024109
-0.033280395 -0.33280718 0.12199008
-0.011124383 -0.3322798 0.11818409
0.010973033 -0.33241487 0.11915863
0.033096299 -0.33274508 0.12154174
-0.077475183 -0.31043124 0.12008584
-0.055163573 -0.30930042 0.11144459
0.055057008 -0.3092401 0.11098373
0.077315852 -0.31046897 0.12037373
-0.12183017 -0.28866816 0.12291908
-0.099260762 -0.28727454 0.11160362
0.099133164 -0.28716689 0.11072958
-0.1435155 -0.26557314 0.11459529
0.14343815 -0.26568913 0.11559927
0.18788229 -0.24411751 0.12029374
-0.32041261 -0.15545015 0.11752963
0.31986085 -0.15516044 0.11376715
-0.43133456 0.043358233 0.12051761
0.42998937 0.30806211 0.11247814
0.40812555 0.37437016 0.11384678
-0.36502403 0.46358824 0.12078977
-0.3422378 0.48491156 0.11536026
0.34137365 0.48398107 0.10899889
-0.31961641 0.50625962 0.11063409
-0.011265925 -0.37930554 0.13657117
0.010973033 -0.37943006 0.13738
-0.055714715 -0.3568821 0.13530982
-0.03342608 -0.35631788 0.13145244
-0.011196907 -0.35575521 0.12760532
0.010973033 -0.35588926 0.12852204
0.033168498 -0.35624009 0.13092065
0.055449206 -0.35705006 0.13645792
-0.077949941 -0.33467972 0.13550389
0.077663027 -0.33466637 0.13540697
-0.055495236 -0.33333594 0.12580609
0.05529362 -0.33341157 0.12635219
-0.10001916 -0.31189984 0.1313076
0.099721164 -0.31170589 0.12982547
0.12169975 -0.28885186 0.12441015
-0.16696355 -0.26815736 0.13697541
0.16656473 -0.26793712 0.13506746
-0.18824509 -0.24442126 0.12311137
-0.23329853 -0.22321092 0.13235533
0.23310889 -0.22330292 0.13327503
-0.2776809 -0.20097612 0.13204896
0.27713415 -0.20068742 0.12892413
-0.32176366 -0.17853323 0.12922978
0.32092142 -0.17805728 0.12360835
-0.34459746 -0.13453475 0.13451815
-0.38783661 -0.067462891 0.12580609
0.3885681 -0.067795232 0.13300073
-0.41018063 -0.023190282 0.12709105
0.41059187 -0.02333051 0.13164592
0.43175805 0.043327071 0.12457049
0.45595405 0.15446985 0.13788199
-0.45566365 0.17657775 0.1342113
0.45525968 0.17654535 0.13337183
-0.45618635 0.19894777 0.13744485
0.45564017 0.19887382 0.1358434
-0.43386096 0.33237404 0.13692701
0.43363398 0.33241743 0.13739622
0.36561885 0.46445024 0.12701094
-0.3442556 0.53171134 0.13174272
0.34443232 0.53231663 0.13548768
-0.34500378 0.55494177 0.13781714
0.010973033 -0.42662698 0.15336108
-0.011390011 -0.42651331 0.15269029
-0.033695467 -0.40354562 0.1489495
-0.011331742 -0.40292662 0.14512074
0.010973033 -0.40304762 0.14586926
0.033302009 -0.40343481 0.14826441
-0.05593678 -0.38059181 0.14492548
0.055595614 -0.38075215 0.14596701
-0.033564232 -0.37989902 0.14042592
0.033236798 -0.37980163 0.13979363
-0.078272127 -0.35844082 0.14596713
0.077897504 -0.35838139 0.14556015
-0.10059845 -0.33618379 0.14635777
0.10021468 -0.33611375 0.14585316
-0.12291652 -0.31388009 0.14643931
0.12257525 -0.3139739 0.14715612
-0.1451008 -0.29126644 0.1440146
0.14471756 -0.29117846 0.14329958
0.34511682 -0.13501263 0.1414156
-0.43592304 0.020784054 0.15032053
0.43515438 0.020822916 0.14779162
0.45802501 0.1101789 0.15133333
-0.45753509 0.13240339 0.14578795
0.45664555 0.13232452 0.14237344
-0.45659226 0.15453377 0.13995576
-0.45714334 0.22151245 0.14336443
0.45634571 0.22135404 0.14042592
-0.45824409 0.24422312 0.15017354
0.45713618 0.2439388 0.14556026
-0.41408277 0.40104407 0.15377045
0.41345119 0.40087217 0.15228152
0.3457872 0.55653441 0.14722133
-0.011496407 -0.47379303 0.16651154
0.010973033 -0.47389668 0.16707289
-0.033922672 -0.450827 0.16370714
-0.011445298 -0.45014793 0.15987206
0.010973033 -0.45025867 0.16049695
0.033414543 -0.45068109 0.16288328
-0.056343894 -0.42818379 0.16255391
-0.033812061 -0.42716247 0.15652275
0.033359773 -0.42703462 0.15576851
0.055860113 -0.42828429 0.16314685
-0.078860007 -0.4061498 0.16505909
-0.056152005 -0.40440166 0.15424514
0.055735413 -0.40453142 0.15504754
0.078326866 -0.40600324 0.16415226
-0.10143713 -0.38416702 0.16814709
-0.078572415 -0.38225359 0.15571952
0.078116991 -0.38215268 0.15506387
0.10093223 -0.38432229 0.16915596
-0.10100233 -0.36003274 0.15685081
0.10058566 -0.3601864 0.15790105
-0.12372702 -0.33862644 0.16398728
0.12321166 -0.33858544 0.16369069
-0.14638159 -0.31667328 0.1677835
0.1457569 -0.31641394 0.16580164
-0.16880386 -0.29408014 0.16685832
