ply
format ascii 1.0
comment PCL generated
element vertex 1350
property float x
property float y
property float z
element camera 0
property float view_px
property float view_py
property float view_pz
property float x_axisx
property float x_axisy
property float x_axisz
property float y_axisx
property float y_axisy
property float y_axisz
property float z_axisx
property float z_axisy
property float z_axisz
property float focal
property float scalex
property float scaley
property float centerx
property float centery
property int viewportx
property int viewporty
property float k1
property float k2
end_header
-0.17978907 -0.27596462 -0.109128
-0.16570425 -0.27596462 -0.109128
-0.1516194 -0.27596462 -0.109128
-0.13753459 -0.27596462 -0.109128
-0.12345042 -0.27596563 -0.10911971
-0.10936553 -0.27596563 -0.10911971
-0.095280625 -0.27596563 -0.10911971
-0.081196181 -0.27596658 -0.10911137
-0.067111224 -0.27596658 -0.10911137
-0.053026274 -0.27596658 -0.10911137
-0.038941573 -0.27596754 -0.1091032
-0.024856556 -0.27596754 -0.1091032
-0.010771537 -0.27596754 -0.1091032
0.0033134175 -0.27596843 -0.10909486
0.017398499 -0.27596843 -0.10909486
0.031483579 -0.27596843 -0.10909486
0.04556879 -0.27596948 -0.10908657
0.059653934 -0.27596948 -0.10908657
0.073739082 -0.27596948 -0.10908657
0.087824546 -0.2759704 -0.10907817
0.10190976 -0.2759704 -0.10907817
0.11599496 -0.2759704 -0.10907817
0.13008069 -0.27597135 -0.10907
0.14416596 -0.27597135 -0.10907
0.15825123 -0.27597135 -0.10907
0.1723372 -0.27597231 -0.1090616
0.18642253 -0.27597231 -0.1090616
0.17234984 -0.14921118 -0.10891229
-0.19504035 -0.093017459 -0.099026084
0.15861171 -0.078813627 -0.10438704
-0.17971578 -0.050612662 -0.10980809
-0.18084073 -0.036372386 -0.099370003
0.14429024 -0.036494084 -0.10727602
-0.16617954 -0.00820674 -0.10437864
0.13051151 0.0060033947 -0.10207427
-0.15172678 0.019870318 -0.10796583
0.11634131 0.034250557 -0.10265088
-0.13808024 0.048383191 -0.10268438
0.10200413 0.048115209 -0.10703504
-0.12359873 0.062205225 -0.10719311
-0.10931381 0.076099232 -0.10986608
0.088100888 0.076712534 -0.10189873
-0.10997017 0.090980604 -0.10039234
-0.095358334 0.090348437 -0.10785794
0.05963115 0.090160802 -0.11007327
0.073934928 0.09078297 -0.1027261
-0.081372187 0.10462889 -0.10584521
0.045584127 0.1044215 -0.10809046
0.059846789 0.10510093 -0.1007356
-0.067355633 0.11894168 -0.10381979
-0.053123802 0.1186657 -0.10657763
-0.038947191 0.11843126 -0.10892051
0.0033173757 0.11836238 -0.10960913
0.017398499 0.11859415 -0.10729277
0.031515393 0.11882736 -0.10496229
-0.039235082 0.13352531 -0.099571168
-0.025022354 0.13327174 -0.1019237
-0.010870745 0.13319245 -0.10265934
0.0032458454 0.13344488 -0.10031694
0.18737748 -0.24883614 -0.098724186
0.17348945 -0.13564271 -0.095454335
0.15948108 -0.064692251 -0.093093574
-0.18197855 -0.021968618 -0.088812113
0.1449793 -0.022165347 -0.097330153
0.1456759 -0.0076800622 -0.087275743
-0.16723034 0.00631883 -0.093878388
0.13112751 0.020604499 -0.092071533
-0.15263167 0.034492001 -0.098170221
-0.15354627 0.04927098 -0.088269174
0.11685722 0.048974812 -0.093076646
-0.1389145 0.063200191 -0.092831969
0.10244461 0.06287691 -0.097498357
-0.12435407 0.077060282 -0.097380638
0.10288931 0.077792451 -0.087870181
-0.12511691 0.092074662 -0.087471068
0.088469699 0.091664374 -0.092316687
-0.11063395 0.10601766 -0.090811431
-0.09594357 0.10532081 -0.098354876
0.074224517 0.10578579 -0.093321621
-0.096534386 0.12044865 -0.088761091
-0.08188539 0.1196921 -0.096321285
0.045728073 0.11944996 -0.098740876
0.060064454 0.12019348 -0.09131068
-0.067796111 0.13409512 -0.094283223
-0.053484254 0.13377947 -0.097212553
0.017398499 0.13369803 -0.097968698
0.031587292 0.13395077 -0.095622718
0.045873627 0.13463359 -0.089286864
-0.053848751 0.14904949 -0.087742805
-0.039525922 0.14877431 -0.09012568
-0.02523993 0.14849992 -0.092502594
-0.011014899 0.14840825 -0.09329617
0.0031735841 0.14868146 -0.090929985
0.017398499 0.14895543 -0.088557601
-0.18287927 -0.29358116 -0.080454409
-0.16857457 -0.2935822 -0.080445945
-0.15426898 -0.2935822 -0.080445945
-0.13996333 -0.2935822 -0.080445945
-0.12565839 -0.29358321 -0.080437243
-0.11135269 -0.29358321 -0.080437243
-0.097047523 -0.29358435 -0.08042872
-0.082741775 -0.29358435 -0.08042872
-0.068436019 -0.29358435 -0.08042872
-0.054130599 -0.29358536 -0.080420256
-0.039824776 -0.29358536 -0.080420256
-0.025518958 -0.29358536 -0.080420256
-0.011213271 -0.29358643 -0.080411673
0.0030926149 -0.29358643 -0.080411673
0.017398499 -0.29358643 -0.080411673
0.031704448 -0.29358748 -0.08040297
0.046010401 -0.29358748 -0.08040297
0.06031635 -0.29358748 -0.08040297
0.074622571 -0.29358849 -0.080394506
0.08892858 -0.29358849 -0.080394506
0.1032346 -0.29358849 -0.080394506
0.11754108 -0.29358959 -0.080385923
0.13184717 -0.29358959 -0.080385923
0.14615324 -0.29358959 -0.080385923
0.16046 -0.29359069 -0.08037734
0.17476612 -0.29359069 -0.08037734
0.18907228 -0.29359069 -0.08037734
0.1887314 -0.2360252 -0.084067404
0.1747357 -0.12190576 -0.080736816
-0.19650415 -0.078952417 -0.086349308
0.16036123 -0.050395988 -0.081660271
-0.18312955 -0.0073986053 -0.078132272
0.14638016 0.0069641918 -0.077110767
-0.16829324 0.021011598 -0.083257198
0.13175026 0.035365582 -0.081959486
-0.15452391 0.064249516 -0.077686071
0.117379 0.063854069 -0.083393753
-0.13975781 0.078177109 -0.082873285
0.10333869 0.092864752 -0.078140855
-0.12588802 0.10725152 -0.077454209
0.088842377 0.10677309 -0.082634151
-0.11130408 0.12121151 -0.08113879
0.074517339 0.12094396 -0.083811581
-0.097131386 0.13573509 -0.079066992
-0.082403496 0.13491172 -0.08670634
0.060284555 0.13544263 -0.081780016
-0.08292751 0.15029201 -0.076981902
-0.068241194 0.14940691 -0.084646881
0.031659983 0.14923003 -0.086179137
0.046020683 0.14997414 -0.079735339
-0.011160661 0.163781 -0.083828688
-0.068691343 0.16488068 -0.074900866
-0.054216675 0.16447631 -0.078183711
-0.039819509 0.16417974 -0.080591321
-0.025459547 0.16388397 -0.082992673
0.0031005163 0.16407546 -0.081438065
0.017398499 0.16436963 -0.079049766
0.031733364 0.16466558 -0.076646864
0.19010949 -0.22301067 -0.069149375
0.17600128 -0.10794757 -0.06579107
-0.19798827 -0.064692289 -0.073496521
0.16125166 -0.035921633 -0.070093155
-0.18429387 0.0073406994 -0.067328453
0.14709216 0.021770217 -0.066833675
-0.16936758 0.035874084 -0.072521627
0.13237986 0.050289162 -0.071735919
-0.15552238 0.079408452 -0.066877007
0.11790583 0.078889683 -0.07361722
-0.14061025 0.093316436 -0.072806418
0.11843822 0.094084427 -0.063737094
0.10379282 0.10809635 -0.068308771
-0.1266675 0.12259351 -0.067328513
0.089218982 0.12204096 -0.072849572
-0.1119813 0.13656521 -0.071364403
0.074812949 0.13625826 -0.074211895
0.089599922 0.13747168 -0.062952518
-0.097735226 0.15118352 -0.069262028
0.060506742 0.15084894 -0.072159052
0.075111881 0.15173297 -0.064503491
-0.083456576 0.16583367 -0.067163587
0.046169132 0.16547282 -0.070093095
-0.069145858 0.18051676 -0.065060496
-0.054588757 0.18006444 -0.06851685
-0.040116403 0.17974608 -0.070949376
-0.025681645 0.17942858 -0.073375762
-0.011307795 0.17931123 -0.074272096
0.0030267593 0.17962734 -0.071856797
0.017398499 0.17994305 -0.069443762
0.031807505 0.18026084 -0.067016065
-0.025905848 0.19513388 -0.063667357
-0.011456452 0.19500233 -0.064616621
-0.17153636 -0.31176084 -0.050850213
-0.1570029 -0.31176084 -0.050850213
-0.14246944 -0.31176084 -0.050850213
-0.12793666 -0.31176203 -0.050841331
-0.11340316 -0.31176203 -0.050841331
-0.098870181 -0.31176323 -0.05083245
-0.084336601 -0.31176323 -0.05083245
-0.069803014 -0.31176323 -0.05083245
-0.055269763 -0.31176436 -0.050823689
-0.040736113 -0.31176436 -0.050823689
-0.026202664 -0.31176555 -0.050814807
-0.011668945 -0.31176555 -0.050814807
0.0028647771 -0.31176555 -0.050814807
0.017398499 -0.31176668 -0.050806046
0.031932287 -0.31176668 -0.050806046
0.046466075 -0.31176668 -0.050806046
0.061000068 -0.31176782 -0.050797164
0.075533926 -0.31176782 -0.050797164
0.090068124 -0.31176901 -0.050788283
0.10460205 -0.31176901 -0.050788283
0.11913598 -0.31176901 -0.050788283
0.13367045 -0.31177014 -0.050779521
0.14820445 -0.31177014 -0.050779521
0.16273913 -0.31177133 -0.05077076
0.17727318 -0.31177133 -0.05077076
0.19180724 -0.31177133 -0.05077076
0.19180396 -0.21003012 -0.050805986
-0.1994921 -0.050232913 -0.060472846
0.16215393 -0.021265585 -0.0583722
-0.18561295 0.022312649 -0.055089235
0.1478121 0.036740519 -0.05644238
-0.17045531 0.050910078 -0.061652482
0.1330159 0.065377295 -0.061407864
0.13365957 0.080634072 -0.05095607
-0.15653172 0.094743773 -0.055950582
-0.14147195 0.10862094 -0.062629879
0.11897629 0.10944107 -0.053751647
-0.14234313 0.12409335 -0.052341759
0.10425177 0.12348983 -0.058372259
-0.1274555 0.13810332 -0.057091951
-0.11266626 0.15208237 -0.06147778
0.089984581 0.15306596 -0.052958786
-0.11335788 0.16776356 -0.051494718
-0.098344907 0.16679455 -0.059361756
0.060731441 0.16641679 -0.062429249
0.075413682 0.16736847 -0.054702222
-0.083991267 0.18154006 -0.057241142
0.046319269 0.18113425 -0.060341597
0.060958494 0.18214771 -0.052597463
-0.069605187 0.19631879 -0.05511564
-0.054964393 0.19581412 -0.058757544
-0.040416125 0.19547351 -0.061215639
0.0029522376 0.1953405 -0.062176228
0.017398499 0.1956795 -0.059729457
0.031882413 0.19601823 -0.05728507
-0.040719256 0.211367 -0.051371157
-0.026132606 0.21100466 -0.053848565
-0.011606656 0.21085672 -0.054860532
0.0028769393 0.21121739 -0.052394629
0.17728814 -0.093763098 -0.050594032
-0.20101812 -0.035570018 -0.047257185
0.16306761 -0.0064245835 -0.046503246
-0.18704543 0.037529692 -0.0417974
0.14854005 0.05187805 -0.045935094
-0.17155579 0.066122234 -0.050655842
-0.17266923 0.081513688 -0.039529681
0.13431042 0.096061662 -0.040387392
-0.15755376 0.11025998 -0.044886887
0.11952012 0.12496215 -0.043659449
-0.14322394 0.13973624 -0.041940093
0.10471603 0.13904865 -0.048320532
-0.12825218 0.15378375 -0.046742737
0.09037336 0.16882731 -0.042858124
-0.11407671 0.18364985 -0.041119516
-0.0989611 0.1825718 -0.049356222
0.075718924 0.18316957 -0.044789135
-0.09958443 0.19851933 -0.039234698
-0.084531642 0.19741382 -0.047212839
0.04647084 0.19695877 -0.050496817
0.061187737 0.19804312 -0.042670965
-0.055344298 0.21173041 -0.048887253
0.017398499 0.21157898 -0.049922228
-0.070069827 0.21229084 -0.045055807
0.031958174 0.21194156 -0.04744333
0.046624146 0.21295135 -0.040539145
-0.055727877 0.22781323 -0.038921595
-0.041025311 0.22742678 -0.041431725
-0.02636154 0.22704138 -0.043935299
-0.011758432 0.22687708 -0.045002341
0.0028007831 0.22726212 -0.042501628
0.017398499 0.22764529 -0.0400123
0.1935412 -0.19679925 -0.032000065
0.17859605 -0.079346634 -0.035148323
-0.20256576 -0.020699393 -0.033854306
0.16399288 0.0086049587 -0.034483612
-0.18849924 0.052963644 -0.028307736
0.1492762 0.067185417 -0.035309911
-0.17379588 0.097087562 -0.028271556
0.13496807 0.11166207 -0.029708683
-0.15858784 0.12595965 -0.03369242
0.12007029 0.14065135 -0.033449471
-0.14411449 0.15555269 -0.031423151
0.10518488 0.15477374 -0.03816992
-0.12905768 0.16963762 -0.036279142
0.10565877 0.17066838 -0.027909636
0.090766676 0.18475959 -0.032639444
-0.11480597 0.19971667 -0.030593395
0.076027125 0.1991366 -0.034780085
-0.10021392 0.21463729 -0.029012978
-0.085078306 0.21345903 -0.037068188
0.06141961 0.21410806 -0.032630503
-0.085630365 0.2296759 -0.026823163
-0.07053905 0.22843291 -0.03489691
0.032034662 0.22803105 -0.037507236
0.04677894 0.22911213 -0.030485094
-0.056115873 0.24406807 -0.028841257
-0.041334882 0.24365793 -0.031378031
-0.026593108 0.24324898 -0.033908188
-0.011911944 0.24306743 -0.035031617
0.0027238932 0.2434745 -0.03251338
0.017398499 0.24388109 -0.029997706
0.032111958 0.2442904 -0.027466238
-0.15982616 -0.33052915 -0.020287454
-0.14505744 -0.33052915 -0.020287454
-0.13028869 -0.33052915 -0.020287454
-0.11551999 -0.33052915 -0.020287454
-0.10075128 -0.33052915 -0.020287454
-0.085982554 -0.33052915 -0.020287454
-0.071213834 -0.33052915 -0.020287454
-0.056445107 -0.33052915 -0.020287454
-0.041676391 -0.33052915 -0.020287454
-0.026907876 -0.33053052 -0.020278275
-0.012139084 -0.33053052 -0.020278275
0.0026297076 -0.33053052 -0.020278275
0.017398499 -0.33053178 -0.020269215
0.03216736 -0.33053178 -0.020269215
0.046936363 -0.33053309 -0.020260036
0.061705295 -0.33053309 -0.020260036
0.076474234 -0.33053309 -0.020260036
0.091243513 -0.33053428 -0.020250976
0.10601252 -0.33053428 -0.020250976
0.12078152 -0.33053428 -0.020250976
0.13555108 -0.33053559 -0.020241797
0.15032014 -0.33053559 -0.020241797
0.16508994 -0.33053684 -0.020232677
0.17985907 -0.33053684 -0.020232677
0.19462821 -0.33053684 -0.020232677
0.17992553 -0.064692289 -0.019447863
-0.20413548 -0.005616501 -0.020260096
0.1649307 0.023827076 -0.022301078
-0.18997288 0.06861791 -0.014633954
0.15002066 0.082665637 -0.024564683
-0.17493504 0.11284642 -0.01688832
0.13563371 0.12743998 -0.018900037
-0.15963426 0.14184594 -0.022364795
0.12062594 0.15650932 -0.023138046
-0.1450142 0.17154434 -0.020797968
-0.12987211 0.1856678 -0.025699198
0.10613781 0.18673579 -0.017538071
-0.13069567 0.20187725 -0.01500082
0.091163903 0.20086317 -0.022319376
-0.11554401 0.21596412 -0.019940734
0.076338887 0.2152745 -0.02465564
-0.10085022 0.23092957 -0.018680751
0.061653744 0.2303427 -0.022492111
-0.086188406 0.24606843 -0.016467154
-0.071013331 0.2447492 -0.024628341
0.046935521 0.24544649 -0.020314693
-0.026826926 0.25962746 -0.023783505
-0.01206694 0.25942755 -0.024964273
0.0026461901 0.25985855 -0.022419333
-0.056507654 0.26049471 -0.018662453
-0.041647475 0.26006061 -0.021226525
0.017398499 0.26029068 -0.019867837
0.032190077 0.26072246 -0.017318368
-0.012223585 0.2759617 -0.014789939
0.19531423 -0.18330273 -0.012806356
0.1812771 -0.04979419 -0.0034863949
0.16587916 0.039244235 -0.0099801421
0.15077356 0.098321691 -0.013697565
0.15153503 0.11415644 -0.0027063489
-0.17608878 0.128795 -0.0053594112
0.13630694 0.14339751 -0.0079681873
-0.1606932 0.15792228 -0.01090169
0.12118763 0.17253998 -0.012714505
-0.14592478 0.18771647 -0.010044694
0.10662209 0.2029786 -0.007053256
-0.1315285 0.21826901 -0.0041821599
0.091565453 0.21714212 -0.011886775
-0.1162897 0.23239256 -0.0091776848
0.076653689 0.2315837 -0.014432132
-0.10149401 0.24740063 -0.0082268119
0.061890598 0.24675243 -0.012236238
0.076972157 0.24806945 -0.0040894151
-0.086753033 0.26264107 -0.0059891343
-0.071493179 0.26124382 -0.014239311
0.047093637 0.26195425 -0.010044634
-0.071977839 0.27791703 -0.0037462115
-0.056903988 0.27709919 -0.0083654523
-0.041963693 0.27664036 -0.010956883
-0.027063459 0.27618277 -0.01354146
0.0025676582 0.27641702 -0.012217879
0.017398499 0.27687371 -0.0096389055
0.032269098 0.27733153 -0.007053256
-0.027302317 0.29291415 -0.0031985641
-0.012381902 0.29267257 -0.0045067072
0.21208254 -0.3342548 0.0065993667
0.19712332 -0.1695317 0.0067775249
0.16684136 0.05486203 0.0025188923
-0.19146881 0.084498718 -0.00075376034
0.15230528 0.13017304 0.0084111691
-0.17725646 0.14493617 0.0063086748
0.1369873 0.15953676 0.0030794144
-0.16176483 0.17419222 0.0006994009
0.12175546 0.18874608 -0.0021767616
-0.14684561 0.20407088 0.00082999468
0.12235385 0.205193 0.0089280605
0.10711212 0.21940084 0.0035560131
-0.13237074 0.23484619 0.0067587495
0.091971397 0.23359935 -0.0013397932
-0.11704379 0.24900641 0.001706779
0.09238217 0.25023913 0.009332478
-0.10214428 0.26405048 0.0023321509
0.062129781 0.26333719 -0.0018792748
0.077293776 0.26473176 0.0063555241
-0.087323338 0.27939385 0.0045943856
0.047253601 0.27864134 0.00034528971
0.062371768 0.28010273 0.0085990429
-0.072467811 0.29477292 0.0068621039
-0.057304233 0.29388088 0.0020333529
-0.042283028 0.29339683 -0.00058615208
0.0024882145 0.2931546 -0.0018979311
0.017398499 0.29363441 0.00069952011
0.032348897 0.29411733 0.003313005
-0.027543973 0.30982834 0.007265389
-0.012542067 0.30956483 0.0058961511
0.0024079885 0.31007051 0.0085238218
0.032480787 -0.53224325 0.020446241
0.047577143 -0.53246123 0.021359921
-0.16274408 -0.34991801 0.011300087
-0.1477322 -0.34991801 0.011300087
-0.13272032 -0.34991801 0.011300087
-0.11770844 -0.34991801 0.011300087
-0.10269655 -0.34991801 0.011300087
-0.087684676 -0.34991801 0.011300087
-0.072672792 -0.34991801 0.011300087
-0.057660908 -0.34991801 0.011300087
-0.042649027 -0.34991801 0.011300087
-0.027637146 -0.34991801 0.011300087
-0.012625264 -0.34991801 0.011300087
0.0023866175 -0.34991801 0.011300087
0.017398499 -0.34991801 0.011300087
0.032410379 -0.34991801 0.011300087
0.04742226 -0.34991801 0.011300087
0.062434144 -0.34991801 0.011300087
0.077446029 -0.34991801 0.011300087
0.092457905 -0.34991801 0.011300087
0.10746979 -0.34991801 0.011300087
0.12248167 -0.34991801 0.011300087
0.13749355 -0.34991801 0.011300087
0.15250477 -0.34991664 0.011290669
0.16751733 -0.34991801 0.011300087
0.18252921 -0.34991801 0.011300087
0.19754195 -0.34991944 0.011309445
0.21255389 -0.34991944 0.011309445
0.18265057 -0.034646422 0.012733459
0.16781536 0.070682853 0.015171528
-0.19298542 0.10060936 0.013318777
0.15313119 0.14644746 0.020332098
-0.17843831 0.16127329 0.018118501
0.13767606 0.17586285 0.01426363
-0.16284949 0.19065903 0.01244092
-0.1477769 0.22061069 0.011827946
0.12296017 0.22183226 0.020179927
0.10760711 0.23600318 0.014273107
-0.13322258 0.25161189 0.017824352
-0.11780644 0.2658087 0.012714744
0.092797138 0.26706177 0.020113349
-0.1028017 0.28088331 0.013007224
0.07761918 0.28157663 0.016923368
0.047415152 0.29550755 0.01083827
-0.08790043 0.29633266 0.015304029
0.062616169 0.29704905 0.019181967
-0.072963618 0.31181651 0.017596662
-0.057709187 0.31084615 0.012554169
-0.042606108 0.31033653 0.009906292
0.017398499 0.31057757 0.011158705
0.032429557 0.31108415 0.013791084
0.04757861 0.31255913 0.021455109
-0.042932417 0.32745874 0.020503342
-0.027788039 0.32692438 0.017833769
-0.012703819 0.32663792 0.016402304
0.0023268936 0.32716948 0.019058406
-0.028132435 -0.55035555 0.032746673
-0.01283522 -0.54843169 0.024936855
0.0023003016 -0.54783452 0.022512615
0.017398499 -0.54783452 0.022512615
0.032496698 -0.54783452 0.022512615
0.047595039 -0.5478369 0.022522151
0.062692866 -0.54783219 0.022503197
0.077790692 -0.54782987 0.02249366
0.092932805 -0.54811186 0.023638189
0.1084488 -0.55029392 0.032496274
-0.012961093 -0.53526592 0.033112645
0.077919535 -0.53373033 0.026677668
0.093249671 -0.53496945 0.031870484
0.002269418 -0.53369373 0.026524484
0.017398499 -0.53293669 0.023351908
0.062687367 -0.53267717 0.022264779
0.017398499 -0.51971257 0.031495154
0.03254351 -0.51904261 0.028594136
0.047702558 -0.51925319 0.029505968
0.062875882 -0.51946616 0.030427992
0.19896868 -0.15547737 0.02675426
0.18404809 -0.019242398 0.029237151
0.16880211 0.086711347 0.027990043
-0.19452319 0.11695494 0.027587533
0.154024 0.16301693 0.033218741
-0.1796346 0.17781004 0.030072451
0.13837281 0.19237821 0.025577366
-0.16394731 0.20732652 0.02432555
-0.148718 0.23733772 0.022941828
0.12357354 0.23866497 0.031562626
0.1081076 0.25278962 0.025108933
-0.13408485 0.26857114 0.029026031
-0.1185778 0.28280264 0.023848236
0.093216717 0.28407151 0.031014383
-0.10346697 0.29790407 0.023810029
0.077947848 0.29860383 0.027597189
-0.088483408 0.31345731 0.02612257
0.062863462 0.31418252 0.029890001
-0.07346449 0.32904732 0.028440714
-0.058118179 0.32799453 0.023180306
0.017398499 0.32770252 0.021721721
0.032511093 0.32823515 0.024382889
0.047743708 0.32979542 0.032178521
-0.012867326 0.34389645 0.027022481
-0.043262586 0.34477007 0.031225979
-0.028034989 0.34420913 0.028527081
0.0022449167 0.34445447 0.029707611
0.017398499 0.34501415 0.032400012
-0.043693554 -0.55342877 0.045222044
0.12419303 -0.55289578 0.043058753
-0.028322756 -0.53714526 0.040987849
0.10883877 -0.53713363 0.040939093
-0.013088021 -0.52199006 0.041356921
0.093569577 -0.52171868 0.040181935
0.0022065276 -0.52045143 0.034694374
0.078174114 -0.5205093 0.03494525
0.0021430375 -0.50710064 0.042942107
0.017398499 -0.50637841 0.039706528
0.032606758 -0.50573182 0.036810279
0.04782917 -0.50593704 0.037729561
0.06306576 -0.50614244 0.038649678
0.078430533 -0.50717455 0.043272913
0.032670535 -0.49230933 0.045095265
-0.15049568 -0.36995441 0.043935239
-0.13523182 -0.36995292 0.043925524
-0.11996878 -0.36995292 0.043925524
-0.10470577 -0.36995292 0.043925524
-0.08944273 -0.36995292 0.043925524
-0.074179694 -0.36995292 0.043925524
-0.058916286 -0.36995137 0.043915629
-0.043653332 -0.36995137 0.043915629
-0.028390374 -0.36995137 0.043915629
-0.013127416 -0.36995137 0.043915629
0.0021355413 -0.36995137 0.043915629
0.017398499 -0.36995137 0.043915629
0.032661457 -0.36995137 0.043915629
0.047924414 -0.36995137 0.043915629
0.063187376 -0.36995137 0.043915629
0.07845033 -0.36995137 0.043915629
0.093713284 -0.36995137 0.043915629
0.10897624 -0.36995137 0.043915629
0.12423868 -0.36994994 0.043905914
0.13950157 -0.36994994 0.043905914
0.15476444 -0.36994994 0.043905914
0.17002732 -0.36994994 0.043905914
0.18529022 -0.36994994 0.043905914
0.20055309 -0.36994994 0.043905914
0.21581596 -0.36994994 0.043905914
0.21528801 -0.32347083 0.038630247
0.16980195 0.10295157 0.040978134
-0.19608468 0.13354212 0.04207629
-0.18084559 0.19455002 0.042173445
0.13907769 0.2090859 0.037023067
-0.16505864 0.22419827 0.036355734
-0.14967069 0.25425804 0.034192622
0.12419356 0.25569278 0.043068647
0.10861367 0.26976335 0.036065757
-0.13495561 0.28572226 0.040337205
-0.11935801 0.29999179 0.035109401
0.093640983 0.30127162 0.042037368
-0.10413905 0.31511253 0.034723282
0.078280419 0.3158198 0.038397729
-0.089072868 0.33077288 0.037061751
0.063113242 0.3315022 0.040706098
-0.073970936 0.34647012 0.039405763
-0.058532022 0.3453325 0.033932149
0.032593593 0.34557521 0.035099804
0.047910772 0.34722352 0.043029606
-0.058950052 0.36285967 0.044792831
-0.043596089 0.36226988 0.042056739
-0.028284427 0.3616817 0.039328277
-0.013032621 0.36134344 0.037758589
0.002162043 0.36192858 0.040473104
0.017398499 0.36251515 0.043195128
-0.043952666 -0.54016376 0.053636789
0.12465341 -0.53967834 0.051602483
-0.028514672 -0.52382392 0.049297988
0.10923254 -0.52386242 0.049464583
-0.013216015 -0.50860268 0.049670398
0.093892187 -0.50835568 0.048563778
0.0020790882 -0.49363577 0.051249146
0.017398499 -0.49293458 0.047996223
0.047956847 -0.49250913 0.046022177
0.063257448 -0.49270916 0.046950042
0.078689441 -0.49372882 0.051680982
0.094217166 -0.4948768 0.057006896
0.017398499 -0.47937572 0.05634594
0.032734849 -0.47877377 0.053449869
0.048085444 -0.47896606 0.054374993
0.063450754 -0.47916251 0.055320501
0.20085326 -0.14113173 0.047155321
0.18547022 -0.0035753064 0.046032071
0.1708158 0.11940844 0.054148555
-0.1976693 0.15037552 0.056779981
0.15492865 0.17980582 0.046276093
-0.18207058 0.21149568 0.054414332
0.1397908 0.22598945 0.048602819
-0.16618273 0.24127655 0.048524559
-0.15063438 0.27137351 0.045573175
0.12482137 0.27292246 0.054719567
-0.15160927 0.28868765 0.057085872
0.10912587 0.28692931 0.047155321
-0.13583717 0.30307329 0.051788926
-0.12014721 0.31737924 0.046500742
0.094070412 0.31866723 0.053194225
-0.10481866 0.33251351 0.045758605
0.078616366 0.33322382 0.049307883
-0.10550591 0.35011011 0.056918144
-0.089668937 0.3482821 0.048123419
0.063366026 0.34901547 0.051651597
-0.074483521 0.3640905 0.050503552
0.03267692 0.36310351 0.045924544
0.048079684 0.36484426 0.054000795
-0.043933585 0.37996536 0.053017259
-0.028536852 0.37934935 0.050258398
-0.013199881 0.37898427 0.048622489
0.002078183 0.37959689 0.051367044
0.017398499 0.38021123 0.054118931
-0.059373088 0.38058293 0.055783749
0.032761171 0.38082522 0.056868792
-0.059705421 -0.57357812 0.064417839
-0.044284631 -0.57357812 0.064417839
-0.028863851 -0.57357812 0.064417839
-0.013443066 -0.57357812 0.064417839
0.0019777929 -0.57357562 0.064407825
0.017398499 -0.57357562 0.064407825
0.032819204 -0.57357562 0.064407825
0.04823976 -0.57357305 0.064397871
0.063660383 -0.57357305 0.064397871
0.079081014 -0.57357305 0.064397871
0.094501644 -0.57357305 0.064397871
0.10992182 -0.57357055 0.064387918
0.12534237 -0.57357055 0.064387918
0.1407623 -0.57356793 0.064378083
-0.059565961 -0.55726486 0.060794711
0.14056177 -0.55734539 0.061121762
-0.059902661 -0.54395938 0.069542229
-0.04421398 -0.52678579 0.062123239
0.12511724 -0.52634406 0.060210168
-0.028708208 -0.51039046 0.057678342
0.10962926 -0.51047426 0.058053792
0.12558512 -0.51289392 0.068892717
-0.028903384 -0.49684316 0.066129804
-0.013345087 -0.49510241 0.058053732
0.11002942 -0.49696988 0.066717625
-0.013475252 -0.48148787 0.066508234
0.0020146025 -0.48005748 0.059626162
0.078950241 -0.48016649 0.060150862
0.094545312 -0.48128498 0.065532148
0.0019494938 -0.46636641 0.068084002
0.017398499 -0.4657023 0.06476599
0.03279971 -0.46512371 0.061875284
0.048215281 -0.46531045 0.062808156
0.063645467 -0.46549928 0.063751817
0.079213575 -0.46649033 0.068702996
0.20277551 -0.12648454 0.067964256
0.18691856 0.012362316 0.063135803
0.17184246 0.13608488 0.067485392
0.15584534 0.19681843 0.059507489
-0.18331182 0.22865362 0.066817284
0.14051235 0.24309237 0.060319126
-0.16732171 0.25856811 0.060854197
0.12545663 0.29035586 0.066508353
-0.15259552 0.30620372 0.068733096
0.10964341 0.30428737 0.058360219
-0.136729 0.32062638 0.063374221
-0.12094558 0.33496839 0.058024228
0.094504327 0.33625805 0.064467609
0.078956343 0.35082322 0.060348809
-0.10620154 0.36790788 0.06821382
-0.090272248 0.36599076 0.059319496
0.063621379 0.36672127 0.062708914
-0.075001441 0.38190746 0.061716557
0.048250325 0.38265926 0.065084398
-0.059800461 0.39850152 0.06688714
-0.044274528 0.3978554 0.064089715
-0.028791852 0.39721119 0.061300159
-0.013368838 0.3968178 0.059596539
0.0019934699 0.39745855 0.062371373
0.017398499 0.39810127 0.065153897
0.032846428 0.39874566 0.067944467
-0.075723454 -0.57686299 0.077348828
0.15726033 -0.57751888 0.079930842
0.14111359 -0.54408818 0.070082128
-0.060241915 -0.5305348 0.078356683
0.14166975 -0.53070956 0.079113245
-0.044477839 -0.51329577 0.07069242
-0.044743657 -0.49968743 0.07932514
0.1260663 -0.49936342 0.077822387
-0.029100221 -0.4831807 0.07465291
0.11043306 -0.48334783 0.075456858
-0.013606524 -0.46775758 0.075034738
0.09487626 -0.46757662 0.074130535
0.0018839091 -0.45255703 0.076603651
0.017398499 -0.45191497 0.07326746
0.032865118 -0.45135772 0.070372164
0.048346221 -0.45153886 0.071313083
0.063842058 -0.45172197 0.072264671
0.079478875 -0.45269459 0.077318668
0.048478283 -0.43764961 0.07989049
0.064040333 -0.43782693 0.080850244
0.032931007 -0.43747252 0.07893157
-0.15335238 -0.39067125 0.07767117
-0.1378288 -0.39066958 0.077661276
-0.12230607 -0.39066958 0.077661276
-0.10678334 -0.39066958 0.077661276
-0.091260612 -0.39066958 0.077661276
-0.075737417 -0.39066797 0.077651143
-0.060214765 -0.39066797 0.077651143
-0.04469211 -0.39066797 0.077651143
-0.029169459 -0.39066797 0.077651143
-0.013646806 -0.39066797 0.077651143
0.0018759239 -0.39066637 0.07764101
0.017398499 -0.39066637 0.07764101
0.032921076 -0.39066637 0.07764101
0.048443649 -0.39066637 0.07764101
0.063965991 -0.39066464 0.077630877
0.079488486 -0.39066464 0.077630877
0.095010988 -0.39066464 0.077630877
0.11053348 -0.39066464 0.077630877
0.12605599 -0.39066464 0.077630877
0.14157784 -0.39066315 0.077620864
0.15710029 -0.39066315 0.077620864
0.17262271 -0.39066315 0.077620864
0.1881451 -0.39066315 0.077620864
0.20366752 -0.39066315 0.077620864
0.21918997 -0.39066315 0.077620864
0.18839118 0.028576478 0.080526829
-0.19927767 0.16746075 0.071703553
0.15677434 0.21405949 0.072916329
-0.18456855 0.24602626 0.079375625
0.14124244 0.26039815 0.072174549
-0.16847488 0.27607554 0.073337615
0.12609889 0.30799478 0.078427255
-0.1535925 0.32392359 0.080506623
0.11016682 0.32184243 0.069692194
-0.13763124 0.33838511 0.075094938
0.11069619 0.33959764 0.081153631
-0.12175327 0.35276306 0.069682181
0.094943173 0.35404903 0.075869143
-0.12257046 0.37076676 0.081477344
0.079299808 0.36861694 0.071503222
-0.10690445 0.38590592 0.079627931
-0.090881854 0.38389772 0.070632398
0.063879818 0.3846271 0.073899746
-0.075525209 0.39992625 0.073056757
0.048423029 0.40067577 0.076301813
-0.044619594 0.41594797 0.075295985
-0.029049926 0.4152748 0.072475135
-0.01353967 0.41484934 0.07069242
0.0019078152 0.41551894 0.073498249
0.017398499 0.41619033 0.076311946
-0.060232989 0.416623 0.078124762
0.032932561 0.41686368 0.079133332
-0.076134227 -0.56353343 0.086242199
0.15793666 -0.56438351 0.08969301
-0.060584575 -0.51699412 0.087258995
0.14223096 -0.51720989 0.088225842
-0.04501177 -0.48596162 0.088032305
0.12655726 -0.48573315 0.086933434
-0.029298499 -0.46939957 0.083238661
0.11084025 -0.46960646 0.084272623
-0.029498715 -0.45550233 0.091908157
-0.013738917 -0.45390999 0.0836339
0.09521006 -0.45375007 0.08280313
0.11125101 -0.45574445 0.093165934
-0.013872288 -0.4399417 0.0922966
0.0018176883 -0.43863177 0.08520627
0.017398499 -0.43800825 0.081831276
0.079746768 -0.4387818 0.086018682
0.095546365 -0.43980199 0.091540396
0.20512715 -0.11162443 0.093421876
0.17314491 0.15335266 0.084404528
-0.20090917 0.18480217 0.086841941
0.15771589 0.2315333 0.086506486
-0.18593836 0.26377505 0.093063593
0.14198124 0.27791023 0.084171236
-0.16964254 0.29380316 0.085978031
0.1267494 0.32584667 0.090498984
-0.1546168 0.34188938 0.092603385
-0.13854337 0.35635078 0.086943567
0.11123164 0.35755694 0.092746556
0.095387056 0.37204367 0.08740133
-0.12339728 0.38898301 0.093411624
0.079647437 0.38661247 0.082792938
-0.10761543 0.40411001 0.091172695
-0.091498412 0.40200877 0.082074285
0.064140931 0.40273201 0.085206211
-0.076055437 0.41815305 0.084536374
0.048597522 0.41889262 0.087635458
-0.060670018 0.43494624 0.08947897
-0.044968229 0.43424159 0.086618304
-0.02931067 0.43353873 0.083765686
-0.01371241 0.43308228 0.081912279
0.0018212032 0.43378121 0.08474952
0.017398499 0.4344821 0.087594748
0.033019662 0.4351849 0.090447903
-0.013887249 0.45152259 0.093268156
-0.076560944 -0.55014938 0.095480978
0.15861958 -0.5511204 0.099550128
-0.077010699 -0.53673822 0.10521841
-0.060929857 -0.50333107 0.096229851
0.14279661 -0.50358564 0.097410738
-0.061278626 -0.48954868 0.10529107
-0.045281895 -0.4721148 0.096804738
0.12705266 -0.4719792 0.096127212
0.12755261 -0.45809984 0.10540491
0.18997067 0.045126401 0.099179506
0.17451081 0.17097622 0.10214812
-0.2025665 0.20240815 0.1022203
0.15866953 0.24924342 0.10027117
0.14272892 0.29563278 0.096312046
-0.17082497 0.31175464 0.098778307
0.12740771 0.3439135 0.10271597
-0.15570784 0.36020511 0.1054877
-0.13946706 0.37453121 0.098942876
0.11177376 0.37572563 0.10448372
0.095836431 0.3902477 0.099076688
-0.12423394 0.40741587 0.10548776
0.079998992 0.4048115 0.094210088
-0.10833522 0.42252588 0.10286057
-0.092122577 0.42032963 0.093657136
0.064405233 0.42104399 0.096650839
-0.092753373 0.43885922 0.10536337
-0.076591268 0.4365865 0.096137583
0.048774146 0.43731815 0.099107623
-0.029574592 0.45201176 0.095193803
0.0017335378 0.45225149 0.096137524
-0.061112389 0.45347965 0.100972
-0.045321122 0.45274454 0.098078847
0.017398499 0.45298243 0.099014938
0.033107743 0.45371288 0.10189009
-0.014063902 0.47016865 0.10474241
-0.077145748 -0.60044301 0.10814244
-0.061388373 -0.60044301 0.10814244
-0.045630679 -0.60044026 0.10813195
-0.029873386 -0.60044026 0.10813195
-0.01411593 -0.60043758 0.10812169
0.0016412847 -0.60043758 0.10812169
0.017398499 -0.60043484 0.1081112
0.033155635 -0.60043484 0.1081112
0.048912607 -0.60043204 0.10810083
0.064669423 -0.60042942 0.10809046
0.080426402 -0.60042942 0.10809046
0.096182972 -0.60042667 0.10807997
0.11193939 -0.60042399 0.10806972
0.12769622 -0.60042399 0.10806972
0.14345238 -0.60042125 0.10805923
0.1592091 -0.60042125 0.10805923
0.15930989 -0.53773022 0.10951388
-0.077464782 -0.52319819 0.11504966
0.14336804 -0.48983943 0.10668981
-0.0616301 -0.47564095 0.11442262
0.14394471 -0.47596741 0.11605358
-0.045554683 -0.45814967 0.10566384
-0.15630355 -0.41209644 0.11252308
-0.14051327 -0.41209811 0.11253345
-0.12472209 -0.41209811 0.11253345
-0.10893156 -0.41209996 0.11254394
-0.093140304 -0.41209996 0.11254394
-0.077349529 -0.41210169 0.11255437
-0.061558194 -0.41210169 0.11255437
-0.045767173 -0.41210341 0.1125648
-0.029975757 -0.41210341 0.1125648
-0.014184337 -0.41210341 0.1125648
0.0016070008 -0.41210526 0.11257523
0.017398499 -0.41210526 0.11257523
0.033189997 -0.41210526 0.11257523
0.048981495 -0.41210526 0.11257523
0.064772993 -0.41210526 0.11257523
0.080564171 -0.41210341 0.1125648
0.096355595 -0.41210341 0.1125648
0.11214701 -0.41210341 0.1125648
0.12793842 -0.41210341 0.1125648
0.14372984 -0.41210341 0.1125648
0.15952054 -0.41210169 0.11255437
0.17531189 -0.41210169 0.11255437
0.19110322 -0.41210169 0.11255437
0.20689455 -0.41210169 0.11255437
0.22268486 -0.41209996 0.11254394
0.15963694 0.26719755 0.11423469
-0.1874879 0.28203857 0.10854739
0.14348564 0.31356913 0.10859931
-0.17202246 0.32993472 0.11174124
0.12807345 0.36219686 0.11507064
-0.14040178 0.3929286 0.11108506
0.11232169 0.39410317 0.11634684
0.096290626 0.40866047 0.11087674
0.080354229 0.42321455 0.10574663
0.064672306 0.43956161 0.10821509
-0.10906271 0.44115263 0.11467338
0.080713838 0.44183052 0.11742532
-0.093391493 0.45760345 0.11720538
-0.077133283 0.45523256 0.10787237
0.048952624 0.45595074 0.11069983
-0.061559394 0.47222149 0.11258566
-0.045677714 0.47145563 0.10965937
-0.029841274 0.47069186 0.10674167
0.0016449597 0.47092801 0.10764414
0.017398499 0.4716897 0.1105541
0.033196904 0.47245353 0.1134724
-0.014242563 0.48902637 0.11634672
0.16000772 -0.52421081 0.11958599
-0.077923253 -0.50952715 0.12497592
-0.061985143 -0.4616105 0.12364691
0.14452603 -0.4619658 0.12549317
0.017398499 -0.43018949 0.12552488
0.033263065 -0.42957729 0.12206692
0.049141899 -0.42974126 0.12299341
0.065078154 -0.43023622 0.12578893
0.20835942 -0.096519068 0.12841183
0.19182765 0.062165305 0.12110955
0.17590007 0.18891023 0.12019527
-0.20424923 0.22028346 0.11783409
0.16061845 0.28540093 0.12840134
-0.18906015 0.3005808 0.1242584
0.14425153 0.33172345 0.12103593
-0.17323527 0.34834749 0.1248703
-0.15681279 0.37875468 0.11853671
0.12874788 0.3807053 0.12758619
-0.14134768 0.41154629 0.12337273
0.11287602 0.41269535 0.12834829
-0.12508133 0.42607158 0.11771882
0.096750103 0.4272877 0.12281442
-0.10979865 0.45999604 0.12662381
0.064942658 0.4582935 0.11992198
0.081080519 0.46068442 0.12933356
-0.07768207 0.47409761 0.11975402
0.049133301 0.47479945 0.12243527
-0.094037607 0.47656882 0.12919575
-0.062011927 0.49118072 0.12434286
-0.046038702 0.49038321 0.12138301
-0.03011125 0.48958808 0.11843163
0.0015553758 0.48981708 0.11928147
0.017398499 0.49061006 0.12222475
0.033287 0.49140537 0.12517655
-0.014423266 0.5080995 0.12808365
0.16071242 -0.51055777 0.12975764
-0.078385688 -0.4957211 0.13498789
0.16142413 -0.49676919 0.14003032
-0.014605712 -0.43274069 0.139934
0.0014634579 -0.43119818 0.13122201
0.081144877 -0.43123394 0.13142383
0.17731494 0.2071657 0.13857502
-0.19065782 0.3194117 0.14022309
0.14502677 0.35009974 0.13362461
-0.17446369 0.36699778 0.13816863
-0.15793192 0.39754242 0.13175309
0.12943056 0.39944047 0.14025527
-0.14230499 0.43038863 0.13580877
0.11343686 0.43150598 0.14049101
-0.12593821 0.44494933 0.13008642
0.09721496 0.44613308 0.13489193
-0.11054387 0.47906291 0.13872457
0.065215886 0.47723806 0.13175315
0.081454769 0.47978598 0.14148784
-0.094690733 0.49575382 0.14131618
-0.078236774 0.49318016 0.1317637
0.0493159 0.49386227 0.13429528
-0.062469274 0.51035571 0.13622475
-0.046403527 0.5095259 0.13323081
-0.030384075 0.50869864 0.13024557
0.0014647655 0.50892216 0.1310522
0.017398499 0.50974721 0.13402903
0.033378132 0.51057458 0.13701469
-0.014606044 0.52739179 0.13995534
-0.078853123 -0.48178267 0.14510816
0.16214296 -0.48284292 0.15040559
-0.030751433 -0.44989175 0.14615262
0.11385734 -0.45052761 0.14959455
-0.14329055 -0.43427712 0.14861161
-0.12722239 -0.43427896 0.14862233
-0.11115476 -0.43428278 0.14864391
-0.095086172 -0.43428481 0.14865482
-0.079017438 -0.43428671 0.14866555
-0.062948532 -0.43428862 0.1486764
-0.046879455 -0.43429047 0.14868724
-0.030810464 -0.43429434 0.14870876
0.097498156 -0.43315071 0.14224952
0.11381144 -0.43427521 0.14860076
0.12988143 -0.43427896 0.14862233
0.14595109 -0.43428093 0.14863312
0.16202164 -0.43428481 0.14865482
0.1780917 -0.43428671 0.14866555
0.19416288 -0.43429047 0.14868724
0.21023336 -0.43429244 0.14869797
0.2263051 -0.43429625 0.14871955
0.19372594 0.079575643 0.14352751
0.16161284 0.30385548 0.14275408
0.14581159 0.36870193 0.14636797
-0.17570809 0.38588971 0.1516394
-0.15906554 0.41657329 0.14514041
0.13012166 0.41840708 0.15308064
-0.14327312 0.44945693 0.14838487
0.11400434 0.45053875 0.15277708
-0.12680468 0.4640528 0.14259309
0.097685717 0.46520346 0.1471225
-0.11129721 0.49835151 0.15095741
0.065492518 0.49640459 0.14373165
-0.078797981 0.5124867 0.1439144
-0.095351554 0.51516521 0.15357965
0.049500775 0.51314867 0.14630347
-0.06293232 0.52975577 0.14825535
-0.046772897 0.52889317 0.14522654
-0.030660305 0.52803302 0.14220661
0.0013731122 0.52824706 0.1429581
0.017398499 0.52910775 0.14598024
0.033470318 0.52996492 0.14898962
-0.014791101 0.54691011 0.15197504
-0.079252921 -0.62849224 0.15376395
-0.063144766 -0.6284951 0.15377486
-0.047036119 -0.6284951 0.15377486
-0.030927461 -0.6284951 0.15377486
-0.014818974 -0.62849808 0.15378571
0.0012897626 -0.62849808 0.15378571
0.017398499 -0.62849808 0.15378571
0.033507317 -0.62850094 0.15379649
0.049616307 -0.62850392 0.15380746
0.065725207 -0.62850392 0.15380746
0.08183445 -0.62850684 0.15381831
0.097943857 -0.62850976 0.15382922
0.11405293 -0.62850976 0.15382922
0.13016258 -0.62851262 0.15383995
0.14627242 -0.6285156 0.15385085
0.16238165 -0.6285156 0.15385085
0.21170491 -0.080884442 0.16462797
0.17875531 0.22575001 0.15728575
0.16262114 0.32256806 0.15730751
-0.19227931 0.3385343 0.15642607
0.14660609 0.38753432 0.15926921
-0.17696768 0.40502602 0.16527498
-0.16021392 0.43585187 0.15870208
-0.14425388 0.46876055 0.1611253
0.11457906 0.46980083 0.16522014
-0.12768245 0.48339146 0.15526259
0.098161638 0.48449713 0.15948737
0.08183378 0.49911654 0.15379661
-0.11205948 0.51786858 0.16333491
0.065772124 0.5157913 0.15583867
-0.079366326 0.53202426 0.15621924
0.049687639 0.53265679 0.15844053
-0.047146231 0.54848278 0.15735114
-0.030939493 0.54758894 0.15429586
0.0012803171 0.54779869 0.15501267
-0.063400358 0.54937905 0.16041523
0.017398499 0.54868984 0.15805906
0.033563651 0.54958355 0.16111422
-0.014978137 0.56665218 0.16412377
-0.047596276 -0.45466095 0.17196655
0.19566509 0.097368315 0.16642761
0.18022269 0.24467371 0.17634779
0.16364363 0.34154421 0.17206585
-0.19392735 0.35795945 0.17289436
0.14741048 0.40660119 0.17233109
0.13082075 0.43760639 0.16605425
-0.16137734 0.45538288 0.17244148
-0.14524668 0.48830134 0.17402202
-0.12857097 0.50296682 0.16808724
0.098643236 0.50402099 0.17199969
0.082216971 0.51867396 0.16624087
-0.096020803 0.53480977 0.16599941
0.066055246 0.5354076 0.16809845
-0.11283151 0.53762144 0.17587119
-0.079940915 0.55179077 0.16865957
0.049876858 0.55239654 0.17073071
-0.063874297 0.56923556 0.1727286
-0.047524281 0.5683049 0.16962856
-0.031222202 0.56737685 0.16653734
0.0011865236 0.56757468 0.16719669
0.017398499 0.56850004 0.17027861
0.033657994 0.56942803 0.17336977
-0.015167367 0.58662504 0.17641419
-0.14617506 -0.45726883 0.18608212
-0.12981847 -0.45727086 0.18609333
-0.11346171 -0.45727295 0.18610448
-0.097104199 -0.45727295 0.18610448
-0.08074563 -0.45726883 0.18608212
-0.064388275 -0.45726883 0.18608212
0.1316047 -0.45625645 0.18060255
0.14825389 -0.45725852 0.18602616
0.16461471 -0.45726883 0.18608212
0.18097121 -0.45726669 0.18607104
0.1973294 -0.45726883 0.18608212
0.21368882 -0.45727295 0.18610448
0.1646806 0.36078942 0.18703365
-0.19560042 0.37769014 0.18961251
-0.17824486 0.42441618 0.17910081
0.14822495 0.4259069 0.18555641
0.13152918 0.45704806 0.17920089
-0.16255516 0.47516876 0.18635076
0.11516014 0.48929048 0.17780107
-0.14625174 0.50808358 0.18707836
-0.12947047 0.52278358 0.18107015
0.099130616 0.52377892 0.1846621
0.082604736 0.53846538 0.17883414
-0.11361211 0.55760819 0.1885466
-0.09669745 0.55468577 0.17855632
0.066341706 0.55525512 0.1805023
-0.080522366 0.57179344 0.18124837
0.050068311 0.57236898 0.18316585
-0.064353406 0.58932304 0.18517619
-0.047906436 0.58835715 0.18203944
-0.031507976 0.58739418 0.17891198
0.0010916349 0.58758241 0.17952329
0.017398499 0.58854246 0.18264151
0.033753961 0.58952612 0.18583596
-0.015358817 0.60683268 0.18884945
-0.048508108 -0.65785176 0.20157921
-0.032031454 -0.65785176 0.20157921
-0.015554804 -0.65785176 0.20157921
0.0009218473 -0.65785176 0.20157921
0.017398499 -0.65785491 0.20159054
0.033875238 -0.65785491 0.20159054
0.050351977 -0.65785491 0.20159054
0.066828713 -0.65785491 0.20159054
0.083305456 -0.65785491 0.20159054
0.099781752 -0.65785176 0.20157921
0.11625841 -0.65785176 0.20157921
0.19764736 0.11555661 0.18983704
0.18171877 0.26394832 0.19578224
-0.17953894 0.44406271 0.19310963
0.1490497 0.44545627 0.19894862
0.13224651 0.47673404 0.19251281
-0.16374955 0.49521989 0.20045578
0.11574823 0.50901443 0.1905334
-0.14726844 0.52810866 0.20028579
-0.1303803 0.54284281 0.1942026
0.099624313 0.54377872 0.19748873
0.082997173 0.55849522 0.19157892
-0.11440212 0.57783574 0.20137489
-0.097382218 0.57480031 0.19126403
0.066631295 0.57533413 0.19304198
-0.081111327 0.59203982 0.19399977
0.050261855 0.59257483 0.19573718
-0.048293471 0.60865051 0.19460863
-0.031797394 0.60765171 0.19144392
0.00099562667 0.60782558 0.19199514
-0.064838633 0.60965228 0.19778275
0.017398499 0.60882485 0.19516152
0.033850975 0.60985935 0.19843912
-0.015552707 0.62728298 0.20144302
0.19967324 0.13415296 0.21376151
0.16573322 0.38031179 0.2022264
-0.1973013 0.3977381 0.20660895
-0.18085024 0.46397114 0.20730495
0.14988491 0.46525341 0.21251076
0.13297291 0.49666911 0.20599306
0.11634343 0.52897727 0.2034198
-0.14829874 0.54838765 0.21366978
-0.13130227 0.56315541 0.20751041
0.10012356 0.56401831 0.21045965
0.083394721 0.578771 0.20448947
-0.098075874 0.59516126 0.20413667
0.066924594 0.5956558 0.2057423
-0.081706889 0.61252797 0.2068941
0.050457887 0.61302519 0.20846969
-0.065329209 0.63022059 0.21052831
-0.048684761 0.62918198 0.20731634
-0.032089993 0.62814653 0.20411384
0.00089839287 0.62831211 0.20462608
0.017398499 0.62934446 0.20781869
0.033949241 0.63043898 0.21120399
-0.14916319 -0.48109651 0.22489941
-0.13250703 -0.48109651 0.22489941
-0.11585157 -0.48109877 0.22491097
-0.099195316 -0.48109877 0.22491097
-0.082539059 -0.48109877 0.22491097
0.16729999 -0.48108542 0.22484136
0.18395573 -0.48108542 0.22484136
0.20061246 -0.48108757 0.22485298
0.21726826 -0.48108757 0.22485298
0.1832417 0.28357846 0.2155658
0.16680017 0.40011287 0.21762651
-0.19902843 0.41810626 0.22386736
-0.18217912 0.48414618 0.22169054
-0.16495988 0.51553911 0.21474952
0.13370918 0.5168612 0.21965659
0.11694588 0.54918325 0.21646327
-0.13223585 0.58372319 0.22098505
0.10062892 0.58450502 0.22358924
-0.11522792 0.59843975 0.21478403
0.083796754 0.59929025 0.21754593
-0.098777339 0.61576617 0.2171542
0.06722115 0.61621737 0.21858341
-0.082309701 0.6332652 0.21994531
0.050656091 0.63371724 0.22134358
-0.065826125 0.65103942 0.22343862
-0.049081102 0.64996356 0.2201879
-0.032386355 0.64889067 0.2169469
-0.015748728 0.64797318 0.21417499
0.00080008991 0.64903945 0.21739608
0.017398499 0.65010881 0.22062683
0.034048598 0.65126199 0.22411072
0.18479404 0.3035779 0.23573101
0.16788256 0.42020082 0.23324972
0.15073079 0.4853034 0.22624588
-0.18352595 0.50459367 0.23627025
-0.16618654 0.5361315 0.22923529
0.13445425 0.53730887 0.23348361
-0.149342 0.56892163 0.2272222
0.11755624 0.56964004 0.22967809
-0.13318121 0.60455078 0.23463017
0.10114049 0.60524368 0.23688018
-0.11606339 0.61929995 0.22835046
0.084203713 0.62006116 0.23076236
-0.099487372 0.63662302 0.23033082
0.067521542 0.63703042 0.23159087
-0.082920432 0.65425998 0.23316783
0.05085687 0.65466285 0.23438436
-0.066328593 0.67210609 0.23649299
-0.049481861 0.67099178 0.23320305
-0.032686021 0.66988075 0.22992283
-0.015947096 0.66891086 0.2270593
0.00070060603 0.67001504 0.23031914
0.017398499 0.67112243 0.23358893
0.034149244 0.67234051 0.23718518
0.20174515 0.15317202 0.23822987
-0.20078474 0.43880755 0.24141747
0.16898075 0.44058192 0.24910098
0.15158752 0.50561118 0.24015784
-0.1674298 0.55700284 0.24391747
0.13520893 0.55802017 0.24748892
-0.15039849 0.58971596 0.24094635
0.11817359 0.59034586 0.24304408
-0.13413858 0.62564331 0.24844867
-0.11690947 0.64042455 0.24208903
0.084615692 0.64108831 0.24414182
-0.10020678 0.65774018 0.24368137
0.067825302 0.65809196 0.2447443
-0.08353813 0.67550969 0.24654156
0.051059902 0.67585862 0.24757177
-0.049887851 0.69227922 0.24638772
-0.032989591 0.69112921 0.24306774
-0.016147856 0.69010067 0.24009895
0.00059992447 0.69124359 0.24339819
0.017398499 0.69238979 0.24670738
-0.066837616 0.69343281 0.24971807
0.18637478 0.32395321 0.25626558
-0.2025674 0.45984179 0.25923073
-0.18488997 0.52531576 0.25103623
0.15253615 0.52653486 0.25556129
-0.16869 0.57815886 0.25879973
0.13597342 0.57900017 0.26167578
-0.15146756 0.61077183 0.25483358
0.11879861 0.61130846 0.25657594
0.10165884 0.62624258 0.25034726
-0.11776633 0.66181886 0.25600296
0.085033156 0.66238034 0.25769943
-0.10093445 0.67911482 0.2571854
0.068133056 0.67941457 0.25806999
-0.084163502 0.69702268 0.26008117
0.034251027 0.69367141 0.25040662
0.051265601 0.69731748 0.26093215
-0.05029843 0.71382242 0.25972176
-0.033296589 0.71263242 0.25636107
-0.016351227 0.71155143 0.25330836
0.00049792975 0.71273381 0.25664765
0.017398499 0.71392012 0.25999731
-0.15226164 -0.50580859 0.265149
-0.13529563 -0.50580859 0.265149
-0.11832886 -0.50580621 0.26513708
-0.10136165 -0.50580138 0.26511288
0.18705028 -0.5057869 0.26504076
0.20401344 -0.50578213 0.26501667
0.22097731 -0.50577962 0.26500463
0.20413888 0.17297731 0.26649797
0.17009595 0.46126562 0.26519716
-0.18632048 0.54646468 0.26652217
0.15353256 0.54791111 0.27174103
-0.1699675 0.59960526 0.27388644
-0.15255123 0.63210166 0.26891112
0.11943141 0.63253266 0.27027667
-0.13510737 0.64700174 0.26243204
0.10218319 0.64749908 0.26397014
-0.11863347 0.6834836 0.27008331
0.085455462 0.68393427 0.27141416
-0.10167119 0.70075572 0.27085745
0.068444297 0.70099467 0.27154732
-0.067352414 0.71501619 0.26309264
0.034354143 0.71526724 0.26380181
0.18798658 0.34471911 0.27720368
-0.20438063 0.48122561 0.27734971
0.17124376 0.4823131 0.28176439
-0.18800542 0.56863654 0.28476202
0.1367479 0.60025448 0.27604818
-0.15364891 0.65370679 0.28317046
0.12007274 0.65402734 0.28416181
-0.13608947 0.66863912 0.27660763
0.10271409 0.66902179 0.27776361
0.15454379 0.56960469 0.28816116
-0.17126265 0.62134844 0.28918171
0.13753255 0.62178797 0.29060948
-0.15476087 0.67559296 0.29761517
-0.13708434 0.69055712 0.29096675
0.1032517 0.69081587 0.29173088
-0.1554727 -0.53144455 0.30686224
-0.13818473 -0.53144193 0.30684972
-0.1208977 -0.53144193 0.30684972
-0.10361067 -0.53144193 0.30684972
0.19026491 -0.53143162 0.30679977
0.20755047 -0.53142893 0.30678725
0.20763305 0.19471847 0.30776238
0.1898149 0.36634868 0.30095422
0.17272586 0.50484145 0.30315673
-0.18971962 0.5911817 0.30331862
0.15557015 0.59162301 0.30482709
-0.17257586 0.64339411 0.30468988
0.13832758 0.64360672 0.30536366
0.12072447 0.67581046 0.29827225
0.15661195 0.61397332 0.32174432
-0.17390642 0.66574466 0.32040286
0.13913321 0.66571599 0.32031405
0.19185707 0.38890004 0.32748258
0.17423767 0.52781129 0.32497811
-0.19146147 0.61410266 0.32217503
-0.19323409 0.6374163 0.34136391
0.15766963 0.63666338 0.33891857
-0.15880769 -0.55806959 0.3501848
-0.14118704 -0.55806959 0.3501848
-0.12356564 -0.55806673 0.35017192
-0.10594513 -0.55806673 0.35017192
0.19360268 -0.55806392 0.35015881
0.2112231 -0.55806392 0.35015881
0.2112484 0.21727119 0.35045755
0.19394618 0.41198647 0.35462093
0.17578012 0.55123627 0.34724128
-0.19473359 0.66009247 0.35759652
0.15874428 0.6597048 0.3563689
0.17735413 0.57513034 0.36995995
0.19608489 0.43562961 0.38240373
0.17895877 0.5995 0.39312124
-0.16227594 -0.5857482 0.39523876
