ply
format ascii 1.0
comment PCL generated
element vertex 1291
property float x
property float y
property float z
element camera 1
property float view_px
property float view_py
property float view_pz
property float x_axisx
property float x_axisy
property float x_axisz
property float y_axisx
property float y_axisy
property float y_axisz
property float z_axisx
property float z_axisy
property float z_axisz
property float focal
property float scalex
property float scaley
property float centerx
property float centery
property int viewportx
property int viewporty
property float k1
property float k2
end_header
-0.061446931 -0.67246795 -0.080007434
-0.036479812 -0.67194861 -0.082706094
-0.011554143 -0.67142665 -0.085417986
0.013329771 -0.67108488 -0.087194204
0.038233344 -0.67191803 -0.082864761
-0.061337415 -0.64666623 -0.084749341
-0.036409091 -0.64619517 -0.087299585
-0.011519923 -0.6457215 -0.08986342
0.013329771 -0.64540082 -0.091599584
0.038197581 -0.64615613 -0.087510467
0.063128501 -0.64691365 -0.083410859
0.088122785 -0.64767295 -0.07930088
-0.061319131 -0.62163699 -0.085541248
-0.036397457 -0.62119192 -0.088055134
-0.011514521 -0.62074763 -0.090565205
0.013329771 -0.6204403 -0.092300653
0.0381919 -0.62115771 -0.088248372
0.063116297 -0.62187392 -0.084203482
0.088103212 -0.62259179 -0.080148578
-0.061319131 -0.59675413 -0.085541248
-0.036397457 -0.59632826 -0.088055134
-0.011514521 -0.59590334 -0.090565205
0.013329771 -0.59560931 -0.092300773
0.0381919 -0.59629565 -0.088248253
0.063116297 -0.59698063 -0.084203482
0.088103212 -0.59766746 -0.080148458
-0.061319131 -0.57187116 -0.085541129
-0.036397457 -0.57146472 -0.088055134
-0.011514521 -0.57105893 -0.090565324
0.013329771 -0.57077843 -0.092300773
0.0381919 -0.57143348 -0.088248372
0.063116297 -0.57208741 -0.084203482
0.088103212 -0.57274294 -0.080148339
-0.061319131 -0.54698807 -0.085541129
-0.036397457 -0.54660112 -0.088055134
-0.011514521 -0.54621464 -0.090565324
0.013329771 -0.54594749 -0.092300773
0.0381919 -0.54657131 -0.088248491
0.063116297 -0.54719412 -0.084203482
0.088103212 -0.54781848 -0.080148458
-0.061319131 -0.52210522 -0.085541129
-0.036397457 -0.52173746 -0.088055134
-0.011514521 -0.52137029 -0.090565205
0.013329771 -0.52111667 -0.092300653
0.0381919 -0.52170926 -0.088248372
0.063116297 -0.5223009 -0.084203362
0.088103212 -0.52289397 -0.080148458
-0.061319131 -0.49722224 -0.085541248
-0.036397457 -0.49687392 -0.088055134
-0.011514521 -0.49652609 -0.090565205
0.013329771 -0.49628559 -0.092300534
0.0381919 -0.49684706 -0.088248372
0.063116297 -0.49740747 -0.084203601
0.088103212 -0.49796942 -0.080148458
-0.061319131 -0.47233927 -0.085541129
-0.036397457 -0.47201025 -0.088055134
-0.011514521 -0.47168177 -0.090565205
0.013329771 -0.47145462 -0.092300653
0.0381919 -0.47198498 -0.088248372
0.063116297 -0.47251424 -0.084203601
0.088103212 -0.47304502 -0.080148458
-0.061319131 -0.44745627 -0.085541368
-0.036397457 -0.44714668 -0.088055134
-0.011514521 -0.44683746 -0.090565205
0.013329771 -0.44662365 -0.092300653
0.0381919 -0.44712284 -0.088248372
0.063116297 -0.44762102 -0.084203482
0.088103212 -0.44812045 -0.080148578
-0.061319131 -0.4225733 -0.085541129
-0.036397457 -0.42228293 -0.088055134
-0.011514521 -0.4219932 -0.090565205
0.013329771 -0.42179272 -0.092300773
0.0381919 -0.42226073 -0.088248372
0.063116297 -0.42272776 -0.084203482
0.088103212 -0.42319602 -0.080148578
-0.061319131 -0.39769027 -0.085541129
-0.036397457 -0.39741945 -0.088055134
-0.011514521 -0.39714888 -0.090565205
0.013329771 -0.3969619 -0.092300653
0.0381919 -0.39739859 -0.088248372
0.063116297 -0.39783451 -0.084203482
0.088103212 -0.39827144 -0.080148458
-0.061319131 -0.37280741 -0.085541248
-0.036397457 -0.37255582 -0.088055134
-0.011514521 -0.37230468 -0.090565205
0.013329771 -0.37213093 -0.092300653
0.0381919 -0.37253651 -0.088248372
0.063116297 -0.37294129 -0.084203482
0.088103212 -0.37334701 -0.080148578
-0.061319131 -0.34792438 -0.085541248
-0.036397457 -0.34769219 -0.088055134
-0.011514521 -0.34746036 -0.090565085
0.013329771 -0.34729999 -0.092300773
0.0381919 -0.34767428 -0.088248372
0.063116297 -0.34804803 -0.084203362
0.088103212 -0.34842268 -0.080148458
-0.061319131 -0.3230415 -0.085541248
-0.036397457 -0.32282853 -0.088055134
-0.011514521 -0.32261607 -0.090565085
0.013329771 -0.32246903 -0.092300773
0.0381919 -0.32281229 -0.088248372
0.063116297 -0.32315469 -0.084203362
0.088103212 -0.32349813 -0.080148458
-0.061319131 -0.29815844 -0.085541368
-0.036397457 -0.29796493 -0.088055134
-0.011514521 -0.29777166 -0.090565205
0.013329771 -0.29763812 -0.092300773
0.0381919 -0.29795006 -0.088248372
0.063116297 -0.29826146 -0.084203482
0.088103212 -0.2985737 -0.080148458
-0.061319131 -0.27327552 -0.085541129
-0.036397457 -0.27310142 -0.088055134
-0.011514521 -0.2729274 -0.090565324
0.013329771 -0.27280727 -0.092300534
0.0381919 -0.27308807 -0.088248253
0.063116297 -0.27336815 -0.084203482
0.088103212 -0.27364913 -0.080148458
-0.061319131 -0.24839267 -0.085541129
-0.036397457 -0.24823776 -0.088055134
-0.011514521 -0.24808311 -0.090565324
0.013329771 -0.2479763 -0.092300653
0.0381919 -0.2482259 -0.088248372
0.063116297 -0.2484749 -0.084203482
0.088103212 -0.2487247 -0.080148458
-0.061319131 -0.22350959 -0.085541248
-0.036397457 -0.22337414 -0.088055015
-0.011514521 -0.22323886 -0.090565205
0.013329771 -0.22314534 -0.092300653
0.0381919 -0.22336371 -0.088248253
0.063116297 -0.22358176 -0.084203601
0.088103212 -0.22380023 -0.080148458
-0.061319131 -0.19862662 -0.08554101
-0.036397457 -0.19851048 -0.088055134
-0.011514521 -0.19839455 -0.090565205
0.013329771 -0.19831443 -0.092300773
0.0381919 -0.19850162 -0.088248372
0.063116297 -0.19868839 -0.084203482
0.088103212 -0.1988757 -0.080148458
-0.061319131 -0.17374365 -0.085541368
-0.036397457 -0.17364687 -0.088055134
-0.011514521 -0.17355025 -0.090565205
0.013329771 -0.17348346 -0.092300773
0.0381919 -0.17363939 -0.088248372
0.063116297 -0.17379513 -0.084203482
0.088103212 -0.17395121 -0.080148578
-0.061319131 -0.14886074 -0.085541129
-0.036397457 -0.14878337 -0.088055134
-0.011514521 -0.14870603 -0.090565205
0.013329771 -0.14865261 -0.092300653
0.0381919 -0.14877741 -0.088248372
0.063116297 -0.14890194 -0.084203482
0.088103212 -0.14902668 -0.080148458
-0.061319131 -0.12397766 -0.085541129
-0.036397457 -0.12391976 -0.088055015
-0.011514521 -0.12386173 -0.090565205
0.013329771 -0.12382171 -0.092300773
0.0381919 -0.12391517 -0.088248372
0.063116297 -0.12400869 -0.084203482
0.088103212 -0.12410225 -0.080148578
-0.061319131 -0.099094808 -0.085541129
-0.036397457 -0.099055983 -0.088055134
-0.011514521 -0.099017426 -0.090565205
0.013329771 -0.098990686 -0.092300773
0.0381919 -0.099053085 -0.088248372
0.063116297 -0.099115372 -0.084203362
0.088103212 -0.099177778 -0.080148578
-0.061319131 -0.074211732 -0.085541248
-0.036397457 -0.074192427 -0.088055134
-0.011514521 -0.074173175 -0.090565085
0.013329771 -0.074159779 -0.092300773
0.0381919 -0.0741909 -0.088248372
0.063116297 -0.074222013 -0.084203482
0.088103212 -0.07425335 -0.080148458
-0.011514521 -0.04932892 -0.090565085
0.088103212 -0.049328867 -0.080148458
-0.061319131 -0.049328763 -0.085541129
-0.036397457 -0.049328815 -0.088055134
0.013329771 -0.049328711 -0.092300773
0.0381919 -0.049328815 -0.088248372
0.063116297 -0.049328815 -0.084203482
-0.061319131 -0.024445847 -0.085541368
-0.036397457 -0.024465257 -0.088055134
-0.011514521 -0.024484614 -0.090565085
0.013329771 -0.024497906 -0.092300534
0.0381919 -0.024466734 -0.088248372
0.063116297 -0.024435509 -0.084203482
0.088103212 -0.024404336 -0.080148458
-0.061319131 0.00043712184 -0.085541129
-0.036397457 0.00039840862 -0.088055134
-0.011514521 0.00035979599 -0.090565205
0.013329771 0.00033305585 -0.092300534
0.0381919 0.00039539859 -0.088248372
0.063116297 0.00045774505 -0.084203482
0.088103212 0.00052014366 -0.080148458
-0.061319131 0.025320198 -0.085541129
-0.036397457 0.025262069 -0.088055134
-0.011514521 0.025204103 -0.090565205
0.013329771 0.025164019 -0.092300653
0.0381919 0.025257584 -0.088248372
0.063116297 0.025350947 -0.084203482
0.088103212 0.025444571 -0.080148578
-0.061319131 0.050203059 -0.085541129
-0.036397457 0.050125685 -0.088055015
-0.011514521 0.050048303 -0.090565324
0.013329771 0.049994823 -0.092300773
0.0381919 0.050119612 -0.088248372
0.063116297 0.050244097 -0.084203482
0.088103212 0.050368998 -0.080148458
-0.061319131 0.075085863 -0.085541129
-0.036397457 0.074989244 -0.088055015
-0.011514521 0.074892715 -0.090565205
0.013329771 0.074825943 -0.092300773
0.0381919 0.074981749 -0.088248372
0.063116297 0.075137407 -0.084203482
0.088103212 0.075293586 -0.080148458
-0.061319131 0.099968985 -0.085541129
-0.036397457 0.099852905 -0.088055134
-0.011514521 0.099736914 -0.090565205
0.013329771 0.099656641 -0.092300773
0.0381919 0.099843979 -0.088248372
0.063116297 0.10003071 -0.084203482
0.088103212 0.1002181 -0.080148458
-0.061319131 0.12485191 -0.085541129
-0.036397457 0.1247164 -0.088055134
-0.011514521 0.12458111 -0.090565205
0.013329771 0.1244877 -0.092300653
0.0381919 0.12470607 -0.088248372
0.063116297 0.12492406 -0.084203482
0.088103212 0.12514248 -0.080148578
-0.061319131 0.14973487 -0.085541248
-0.036397457 0.14958012 -0.088055134
-0.011514521 0.14942552 -0.090565085
0.013329771 0.14931856 -0.092300773
0.0381919 0.14956804 -0.088248253
0.063116297 0.14981736 -0.084203482
0.088103212 0.15006702 -0.080148697
-0.061319131 0.1746179 -0.085541129
-0.036397457 0.17444363 -0.088055134
-0.011514521 0.17426972 -0.090565205
0.013329771 0.17414963 -0.092300773
0.0381919 0.17443039 -0.088248372
0.063116297 0.17471062 -0.084203482
0.088103212 0.17499144 -0.08014822
-0.061324406 0.19951843 -0.085312366
-0.036400706 0.19932353 -0.087844253
-0.01151587 0.19912758 -0.090389848
0.013329771 0.19899535 -0.092107773
0.038193386 0.19930729 -0.088055134
0.063119829 0.19962144 -0.0839746
0.08810892 0.1999349 -0.079901218
-0.061377283 0.22459702 -0.08302331
-0.036435623 0.22438093 -0.085576296
-0.011533302 0.22416501 -0.088125229
0.013329771 0.22402085 -0.089828372
0.038211115 0.2243659 -0.085752249
0.063155644 0.22471343 -0.081648231
-0.036497187 0.24963291 -0.081577897
-0.0115639 0.2493953 -0.084150553
0.013329771 0.24923916 -0.085840344
0.038242165 0.24961983 -0.081718802
0.013329771 0.27470177 -0.080025077
-0.061707135 -0.69964862 -0.068740129
-0.036651351 -0.69908339 -0.071564317
-0.011639225 -0.69852263 -0.074365735
0.013329771 -0.6981647 -0.076153994
0.038319785 -0.69906914 -0.071635365
0.063379295 -0.69997257 -0.067121625
0.088525899 -0.70102853 -0.061845779
-0.11198954 -0.67592537 -0.062042236
-0.086607888 -0.67393923 -0.072362542
0.063203745 -0.67275363 -0.078523636
0.088241257 -0.67359126 -0.074170947
0.11357808 -0.67588079 -0.062274218
-0.11175296 -0.64972591 -0.068188906
-0.086437225 -0.64793074 -0.077905059
0.11338226 -0.64964372 -0.068633437
-0.11171189 -0.62452042 -0.06925559
-0.086408384 -0.62282324 -0.078841686
0.11334943 -0.62444186 -0.069699883
-0.11171189 -0.59951216 -0.06925559
0.11334943 -0.59943694 -0.069699764
-0.086408384 -0.59788877 -0.078841686
-0.11171189 -0.57450378 -0.06925559
-0.086408384 -0.57295418 -0.078841686
0.11334943 -0.57443196 -0.069699883
-0.11171189 -0.54949552 -0.06925559
-0.086408384 -0.54801959 -0.078841686
0.11334943 -0.54942709 -0.069699883
-0.11171189 -0.5244872 -0.06925559
-0.086408384 -0.52308512 -0.078841686
0.11334943 -0.52442223 -0.069699764
-0.11171189 -0.49947879 -0.06925559
-0.086408384 -0.4981505 -0.078841686
0.11334943 -0.49941719 -0.069699883
-0.11171189 -0.47447053 -0.06925559
0.11334943 -0.47441232 -0.069699883
-0.086408384 -0.473216 -0.078841686
-0.11171189 -0.44946212 -0.06925559
-0.086408384 -0.44828141 -0.078841686
0.11334943 -0.44940746 -0.069699883
-0.11171189 -0.42445379 -0.06925571
-0.086408384 -0.42334691 -0.078841686
0.11334943 -0.42440245 -0.069699883
-0.11171189 -0.39944544 -0.06925571
-0.086408384 -0.39841235 -0.078841686
0.11334943 -0.39939758 -0.069699883
-0.11171189 -0.37443721 -0.069255471
-0.086408384 -0.37347785 -0.078841686
0.11334943 -0.37439272 -0.069699883
-0.11171189 -0.34942883 -0.069255471
-0.086408384 -0.34854326 -0.078841686
0.11334943 -0.34938774 -0.069699883
-0.11171189 -0.32442042 -0.069255471
-0.086408384 -0.32360873 -0.078841686
0.11334943 -0.32438287 -0.069699883
-0.11171189 -0.29941213 -0.06925559
-0.086408384 -0.2986742 -0.078841686
0.11334943 -0.29937795 -0.069699883
-0.11171189 -0.27440375 -0.06925559
-0.086408384 -0.2737397 -0.078841686
0.11334943 -0.27437299 -0.069699883
-0.11171189 -0.24939546 -0.06925571
-0.086408384 -0.24880511 -0.078841686
0.11334943 -0.24936816 -0.069699883
-0.11171189 -0.22438717 -0.069255471
-0.086408384 -0.22387059 -0.078841686
0.11334943 -0.22436328 -0.069699764
-0.11171189 -0.19937888 -0.069255471
-0.086408384 -0.19893603 -0.078841686
0.11334943 -0.19935825 -0.069699883
-0.11171189 -0.17437048 -0.069255471
-0.086408384 -0.17400153 -0.078841686
0.11334943 -0.17435339 -0.069699883
-0.11171189 -0.14936209 -0.069255471
-0.086408384 -0.14906693 -0.078841686
0.11334943 -0.14934853 -0.069699764
-0.11171189 -0.1243538 -0.069255471
-0.086408384 -0.12413253 -0.078841686
0.11334943 -0.12434351 -0.069699883
-0.11171189 -0.099345446 -0.069255471
-0.086408384 -0.099197976 -0.078841567
0.11334943 -0.099338591 -0.069699883
-0.11171189 -0.074337155 -0.06925559
-0.086408384 -0.074263476 -0.078841686
0.11334943 -0.074333727 -0.069699883
-0.11171189 -0.049328867 -0.069255471
-0.086408384 -0.049328867 -0.078841686
0.11334943 -0.049328763 -0.069699883
-0.11171189 -0.024320574 -0.06925559
-0.086408384 -0.024394367 -0.078841686
0.11334943 -0.024323899 -0.069699883
-0.11171189 0.00068781897 -0.06925559
-0.086408384 0.00054018572 -0.078841686
0.11334943 0.00068101659 -0.069699883
-0.11171189 0.02569611 -0.06925559
-0.086408384 0.025474686 -0.078841686
0.11334943 0.025685985 -0.069699883
-0.11171189 0.050704505 -0.06925559
-0.086408384 0.050409291 -0.078841686
0.11334943 0.050690848 -0.069699883
-0.11171189 0.075712904 -0.06925559
-0.086408384 0.075343788 -0.078841686
0.11334943 0.075695708 -0.069699883
-0.11171189 0.1007213 -0.06925559
-0.086408384 0.10027845 -0.078841686
0.11334943 0.10070068 -0.069699883
-0.11171189 0.12572938 -0.069255471
-0.086408384 0.12521295 -0.078841686
0.11334943 0.12570558 -0.069699883
-0.11171189 0.15073778 -0.069255471
-0.086408384 0.15014747 -0.078841686
0.11334943 0.15071046 -0.069699764
-0.11171189 0.17574617 -0.069255471
-0.086408384 0.17508195 -0.078841686
0.11334943 0.17571542 -0.069699883
-0.1117249 0.20078047 -0.06891799
-0.086417086 0.20003845 -0.078559041
0.11335982 0.20074622 -0.069362044
-0.11182417 0.22600992 -0.06633842
-0.086494416 0.22518755 -0.076047778
0.088163599 0.22506182 -0.077533722
0.11344142 0.22597806 -0.066712379
-0.11199504 0.25145069 -0.061899185
-0.086628646 0.25054651 -0.071688414
-0.061470177 0.24987109 -0.079000711
0.063218169 0.25000161 -0.077586889
0.088258035 0.25038433 -0.073444366
0.11358193 0.25142759 -0.062149167
-0.086823545 0.27616936 -0.065358877
-0.061605047 0.27538884 -0.073160648
-0.036586683 0.27512804 -0.075764537
-0.011608575 0.27486977 -0.078346968
0.038287181 0.27511755 -0.075870752
0.063308708 0.2755343 -0.071706295
0.088399947 0.27597535 -0.067299485
-0.061785217 0.30120781 -0.065358877
-0.036706332 0.30092394 -0.067993164
-0.011668031 0.30064043 -0.070623517
0.013329771 0.30046636 -0.072238326
0.03834755 0.30092013 -0.068028808
0.063430302 0.301375 -0.063808322
0.013329771 0.32660028 -0.062292099
-0.062212612 -0.72921032 -0.046852231
-0.036983877 -0.72856307 -0.049966216
-0.011803127 -0.72791702 -0.053074479
0.013329771 -0.72755915 -0.054796457
0.038487978 -0.72860044 -0.049786329
0.063723564 -0.72964495 -0.044760823
-0.11250281 -0.70365816 -0.04870677
-0.086993329 -0.70142907 -0.059844971
0.11399861 -0.70367628 -0.048616886
-0.13753562 -0.67793459 -0.051601768
0.13911735 -0.67826676 -0.049876213
-0.13722096 -0.6515317 -0.058414459
0.13884313 -0.65179294 -0.057000637
0.16449948 -0.65400767 -0.045013189
-0.16304655 -0.62885106 -0.044796944
-0.13716644 -0.62623096 -0.05959475
0.1387956 -0.62647158 -0.058235407
0.16442204 -0.62851578 -0.046689987
-0.16304655 -0.60365438 -0.044796944
-0.13716644 -0.60114825 -0.05959475
0.1387956 -0.6013785 -0.058235407
0.16442204 -0.60333371 -0.046690106
-0.16304655 -0.57845777 -0.044796944
-0.13716644 -0.5760656 -0.05959475
0.1387956 -0.57628524 -0.058235526
0.16442204 -0.5781517 -0.046689868
-0.16304655 -0.5532611 -0.044796824
-0.13716644 -0.55098283 -0.05959475
0.1387956 -0.55119205 -0.058235526
0.16442204 -0.55296975 -0.046690106
-0.16304655 -0.52806461 -0.044796824
0.16442204 -0.52778757 -0.046689987
-0.13716644 -0.52590019 -0.05959475
0.1387956 -0.52609897 -0.058235526
-0.16304655 -0.502868 -0.044796824
-0.13716644 -0.50081748 -0.05959475
0.1387956 -0.50100583 -0.058235407
0.16442204 -0.50260556 -0.046690106
-0.16304655 -0.4776713 -0.044796824
-0.13716644 -0.47573477 -0.05959475
0.1387956 -0.47591257 -0.058235526
0.16442204 -0.47742358 -0.046689987
-0.16304655 -0.45247468 -0.044796824
-0.13716644 -0.45065209 -0.05959475
0.1387956 -0.45081946 -0.058235526
0.16442204 -0.45224148 -0.046689987
-0.16304655 -0.42727807 -0.044796824
-0.13716644 -0.42556944 -0.05959475
0.1387956 -0.42572629 -0.058235526
0.16442204 -0.42705941 -0.046689987
-0.16304655 -0.40208146 -0.044796824
-0.13716644 -0.40048659 -0.05959475
0.1387956 -0.40063316 -0.058235407
0.16442204 -0.40187749 -0.046689868
-0.16304655 -0.37688485 -0.044796824
-0.13716644 -0.37540394 -0.05959475
0.1387956 -0.37553993 -0.058235526
0.16442204 -0.37669533 -0.046689987
-0.16304655 -0.35168827 -0.044796824
-0.13716644 -0.35032126 -0.05959475
0.1387956 -0.35044676 -0.058235526
0.16442204 -0.35151333 -0.046690106
-0.16304655 -0.32649162 -0.044796824
-0.13716644 -0.32523862 -0.05959475
0.1387956 -0.32535365 -0.058235526
0.16442204 -0.32633123 -0.046690106
-0.16304655 -0.30129504 -0.044796824
-0.13716644 -0.30015585 -0.05959475
0.1387956 -0.30026054 -0.058235407
0.16442204 -0.30114925 -0.046689868
-0.16304655 -0.27609846 -0.044796824
-0.13716644 -0.2750732 -0.05959475
0.1387956 -0.27516735 -0.058235407
0.16442204 -0.27596718 -0.046689987
-0.16304655 -0.25090176 -0.044796824
-0.13716644 -0.24999043 -0.05959487
0.1387956 -0.25007412 -0.058235526
0.16442204 -0.25078517 -0.046690106
-0.16304655 -0.22570518 -0.044796705
-0.13716644 -0.22490771 -0.05959475
0.1387956 -0.22498102 -0.058235526
0.16442204 -0.2256031 -0.046689868
-0.16304655 -0.20050852 -0.044796705
-0.13716644 -0.19982505 -0.05959475
0.1387956 -0.19988783 -0.058235407
0.16442204 -0.20042112 -0.046689868
-0.16304655 -0.17531198 -0.044796705
-0.13716644 -0.17474239 -0.05959475
0.1387956 -0.17479472 -0.058235407
0.16442204 -0.17523904 -0.046690106
-0.16304655 -0.15011539 -0.044796705
-0.13716644 -0.14965972 -0.05959475
0.1387956 -0.14970151 -0.058235526
0.16442204 -0.1500569 -0.046690106
-0.16304655 -0.1249187 -0.044796705
-0.13716644 -0.12457685 -0.05959475
0.1387956 -0.12460829 -0.058235526
0.16442204 -0.12487496 -0.046689987
-0.16304655 -0.099722102 -0.044796705
-0.13716644 -0.099494189 -0.05959475
0.1387956 -0.099515185 -0.058235526
0.16442204 -0.099692941 -0.046689987
-0.16304655 -0.074525513 -0.044796705
-0.13716644 -0.074411526 -0.05959475
0.1387956 -0.074422076 -0.058235407
0.16442204 -0.074510798 -0.046690106
-0.13716644 -0.049328867 -0.05959475
0.16442204 -0.049328867 -0.046689868
-0.16304655 -0.049328763 -0.044796944
0.1387956 -0.049328763 -0.058235526
-0.16304655 -0.024132118 -0.044796824
-0.13716644 -0.024246152 -0.05959475
0.1387956 -0.024235656 -0.058235526
0.16442204 -0.024146782 -0.046690106
-0.16304655 0.0010644197 -0.044796944
-0.13716644 0.00083651021 -0.05959475
0.1387956 0.00085750222 -0.058235407
0.16442204 0.0010353066 -0.046689987
-0.16304655 0.026261065 -0.044796944
-0.13716644 0.025919277 -0.05959475
0.1387956 0.025950659 -0.058235407
0.16442204 0.026217286 -0.046690106
-0.16304655 0.051457655 -0.044796944
-0.13716644 0.051002044 -0.05959475
0.1387956 0.051043924 -0.058235526
0.16442204 0.051399376 -0.046689868
-0.16304655 0.0766543 -0.044796944
-0.13716644 0.076084599 -0.05959475
0.1387956 0.076136976 -0.058235526
0.16442204 0.076581404 -0.046690106
-0.16304655 0.10185094 -0.044796944
-0.13716644 0.10116737 -0.05959475
0.1387956 0.10123007 -0.058235526
0.16442204 0.10176349 -0.046690106
-0.16304655 0.12704754 -0.044796944
-0.13716644 0.12625007 -0.05959475
0.1387956 0.12632328 -0.058235407
0.16442204 0.12694536 -0.046689868
-0.16304655 0.15224418 -0.044796824
-0.13716644 0.15133268 -0.05959475
0.1387956 0.15141656 -0.058235526
0.16442204 0.15212746 -0.046689987
-0.16304655 0.17744076 -0.044796824
-0.13716644 0.1764155 -0.05959475
0.1387956 0.17650971 -0.058235407
0.16442204 0.17730948 -0.046690106
-0.16307765 0.20268191 -0.044219494
-0.13718461 0.2015285 -0.059201479
0.13881144 0.20163463 -0.057823896
0.16444451 0.20252909 -0.046203375
-0.13730611 0.2268369 -0.056570649
0.13891624 0.22696133 -0.055101275
-0.13751489 0.25236058 -0.052050829
0.13909659 0.25251144 -0.050415754
-0.13781661 0.27815509 -0.045518279
-0.11224289 0.27716005 -0.055459857
0.1137857 0.27715299 -0.055531383
-0.11257489 0.30320415 -0.046834111
-0.087084778 0.30212221 -0.05687511
0.088600598 0.30193496 -0.058611274
0.11405795 0.30321968 -0.046689987
-0.087418929 0.32847887 -0.046022892
-0.062015068 0.32739526 -0.055405855
-0.036859043 0.32708728 -0.058074355
-0.011744126 0.32677957 -0.060738564
0.038424727 0.32709551 -0.05800271
0.063585617 0.32759005 -0.053720355
0.088858433 0.32831445 -0.047446489
-0.03705541 0.35375261 -0.045319796
-0.011841734 0.35341537 -0.048058867
0.013329771 0.35323587 -0.049516559
0.038523749 0.35377488 -0.045139551
-0.087779909 -0.73181915 -0.03429997
0.089128509 -0.73151737 -0.03575182
-0.13819484 -0.70593548 -0.037329316
0.13968964 -0.70640004 -0.035007954
-0.1636337 -0.68134117 -0.033900499
0.16491301 -0.68092561 -0.036060214
-0.16315451 -0.65441775 -0.042793155
-0.16324995 0.22815354 -0.041022062
0.16457365 0.22795163 -0.043407202
-0.16354373 0.25388297 -0.035570383
0.16484016 0.25369188 -0.037637353
-0.16397001 0.27994221 -0.027659535
0.13935593 0.2783393 -0.043678045
0.16522527 0.27977806 -0.029299498
-0.13822162 0.30429119 -0.036749125
0.13970222 0.30451381 -0.034681201
-0.11300147 0.32966489 -0.0357517
0.1144104 0.32972345 -0.035243869
-0.087849848 0.35538962 -0.032029033
-0.062315535 0.35411286 -0.042395711
0.0637853 0.35431531 -0.04075098
0.089190148 0.35525978 -0.033083081
-0.037297856 0.38100585 -0.029572606
-0.011962614 0.38064182 -0.032356024
0.013329771 0.38046581 -0.033700585
0.038645968 0.38104647 -0.02926302
-0.11356463 -0.73455852 -0.021120548
0.11487911 -0.73478675 -0.020022035
-0.16466823 -0.71046424 -0.014702201
0.1658452 -0.71022904 -0.015877843
-0.19019501 -0.68534368 -0.013103008
0.19145659 -0.68549603 -0.012311935
-0.18959084 -0.65809065 -0.022912979
0.19090207 -0.65814811 -0.022602201
-0.18941087 -0.63220817 -0.025835633
0.1907308 -0.63221788 -0.025780916
-0.18941087 -0.60686558 -0.025835633
0.1907308 -0.60687488 -0.025781035
-0.18941087 -0.58152312 -0.025835514
0.1907308 -0.58153182 -0.025781035
-0.18941087 -0.55618042 -0.025835633
0.1907308 -0.55618888 -0.025780797
-0.18941087 -0.53083783 -0.025835633
0.1907308 -0.53084588 -0.025780916
-0.18941087 -0.50549525 -0.025835633
0.1907308 -0.50550294 -0.025780916
-0.18941087 -0.48015267 -0.025835514
0.1907308 -0.48015979 -0.025780916
-0.18941087 -0.45481008 -0.025835633
0.1907308 -0.45481679 -0.025781035
-0.18941087 -0.42946756 -0.025835633
0.1907308 -0.42947388 -0.025780797
-0.18941087 -0.40412492 -0.025835633
0.1907308 -0.40413085 -0.025780797
-0.18941087 -0.37878242 -0.025835633
0.1907308 -0.37878782 -0.025780916
-0.18941087 -0.35343978 -0.025835633
0.1907308 -0.35344478 -0.025780916
-0.18941087 -0.32809713 -0.025835633
0.1907308 -0.32810178 -0.025780916
-0.18941087 -0.30275455 -0.025835633
0.1907308 -0.30275887 -0.025780797
-0.18941087 -0.27741203 -0.025835514
0.1907308 -0.27741587 -0.025780797
-0.18941087 -0.25206947 -0.025835633
0.1907308 -0.25207284 -0.025780797
-0.18941087 -0.2267269 -0.025835633
0.1907308 -0.22672985 -0.025780916
-0.18941087 -0.20138431 -0.025835633
0.1907308 -0.20138673 -0.025780916
-0.18941087 -0.17604177 -0.025835514
0.1907308 -0.17604388 -0.025780797
-0.18941087 -0.15069917 -0.025835633
0.1907308 -0.15070087 -0.025780797
-0.18941087 -0.12535654 -0.025835633
0.1907308 -0.12535785 -0.025780916
-0.18941087 -0.10001389 -0.025835633
0.1907308 -0.10001473 -0.025780916
-0.18941087 -0.074671403 -0.025835514
0.1907308 -0.074671879 -0.025780797
-0.18941087 -0.049328867 -0.025835633
0.1907308 -0.049328867 -0.025780797
-0.18941087 -0.023986226 -0.025835633
0.1907308 -0.023985803 -0.025780797
-0.18941087 0.0013564713 -0.025835633
0.1907308 0.0013571568 -0.025781035
-0.18941087 0.026698906 -0.025835514
0.1907308 0.026700329 -0.025780916
-0.18941087 0.052041437 -0.025835633
0.1907308 0.052043181 -0.025780797
-0.18941087 0.077384129 -0.025835633
0.1907308 0.077386186 -0.025780797
-0.18941087 0.10272667 -0.025835752
0.1907308 0.1027292 -0.025780797
-0.18941087 0.12806921 -0.025835514
0.1907308 0.12807222 -0.025780916
-0.18941087 0.15341175 -0.025835633
0.1907308 0.15341517 -0.025781035
-0.18941087 0.17875449 -0.025835514
0.1907308 0.17875808 -0.025780797
-0.18945584 0.2041532 -0.025105476
0.1907731 0.20416163 -0.024995923
-0.1896618 0.22978453 -0.021760941
0.19096121 0.22980626 -0.021504641
-0.19000942 0.25567999 -0.016116142
0.19128621 0.25573918 -0.015473723
-0.16453961 0.30641001 -0.01708889
0.16573672 0.30628738 -0.018226027
-0.13883537 0.33108416 -0.023461342
0.14015375 0.3311432 -0.022949815
-0.113547 0.35667697 -0.021577835
0.1148605 0.35679412 -0.020626068
-0.088379972 0.38293755 -0.01481235
-0.062708087 0.3815524 -0.02539742
0.064030953 0.3816312 -0.024795055
0.089598931 0.38286301 -0.015381813
-0.037598185 0.40902278 -0.010065675
-0.012111817 0.40861982 -0.012974024
0.013329771 0.40844917 -0.014205933
0.038797721 0.40909421 -0.0095496178
-0.13987565 -0.73875326 -0.00093853474
0.14089125 -0.73816079 -0.0037891865
-0.1915254 -0.71510804 0.00849998
-0.2164835 -0.66216427 -0.00086450577
0.21768816 -0.66240406 0.00043308735
-0.2161272 -0.63571888 -0.0060070753
0.21742813 -0.63611162 -0.0037890673
-0.21611825 -0.61020184 -0.0061362982
0.21741901 -0.61057419 -0.0039371252
-0.21611825 -0.58470756 -0.0061364174
0.21741901 -0.58506304 -0.0039371252
-0.21611825 -0.55921328 -0.0061365366
0.21741901 -0.55955189 -0.0039372444
-0.21611825 -0.53371906 -0.0061364174
0.21741901 -0.53404093 -0.0039371252
-0.21611825 -0.50822484 -0.0061364174
0.21741901 -0.50852966 -0.0039371252
-0.21611825 -0.48273072 -0.0061364174
0.21741901 -0.48301846 -0.0039371252
-0.21611825 -0.45723644 -0.0061364174
0.21741901 -0.45750731 -0.0039371252
-0.21611825 -0.43174213 -0.0061364174
0.21741901 -0.43199617 -0.0039372444
-0.21611825 -0.40624806 -0.0061364174
0.21741901 -0.40648487 -0.0039371252
-0.21611825 -0.38075373 -0.0061364174
0.21741901 -0.38097382 -0.0039371252
-0.21611825 -0.35525945 -0.0061364174
0.21741901 -0.35546267 -0.0039371252
-0.21611825 -0.32976526 -0.0061364174
0.21741901 -0.32995149 -0.0039371252
-0.21611825 -0.30427101 -0.0061364174
0.21741901 -0.30444035 -0.0039372444
-0.21611825 -0.27877691 -0.0061364174
0.21741901 -0.27892917 -0.0039371252
-0.21611825 -0.25328258 -0.0061364174
0.21741901 -0.25341812 -0.0039371252
-0.21611825 -0.22778839 -0.0061364174
0.21741901 -0.22790697 -0.0039371252
-0.21611825 -0.20229422 -0.0061364174
0.21741901 -0.2023958 -0.0039371252
-0.21611825 -0.17679992 -0.0061364174
0.21741901 -0.17688453 -0.0039371252
-0.21611825 -0.15130569 -0.0061365366
0.21741901 -0.15137337 -0.0039371252
-0.21611825 -0.12581156 -0.0061364174
0.21741901 -0.1258623 -0.0039371252
-0.21611825 -0.10031722 -0.0061364174
0.21741901 -0.10035114 -0.0039371252
-0.21611825 -0.074823096 -0.0061364174
0.21741901 -0.074839979 -0.0039371252
-0.21611825 -0.049328867 -0.0061364174
0.21741901 -0.049328815 -0.0039371252
-0.21611825 -0.02383453 -0.0061364174
0.21741901 -0.023817651 -0.0039371252
-0.21611825 0.0016596504 -0.0061364174
0.21741901 0.0016935132 -0.0039371252
-0.21611825 0.027153935 -0.0061364174
0.21741901 0.027204674 -0.003937006
-0.21611825 0.052647907 -0.0061364174
0.21741901 0.052715842 -0.0039371252
-0.21611825 0.078142241 -0.0061364174
0.21741901 0.078226998 -0.0039371252
-0.21611825 0.10363647 -0.0061365366
0.21741901 0.10373816 -0.0039371252
-0.21611825 0.12913071 -0.0061364174
0.21741901 0.12924922 -0.0039371252
-0.21611825 0.15462503 -0.0061364174
0.21741901 0.15476039 -0.0039371252
-0.21611825 0.18011928 -0.0061365366
0.21741901 0.18027155 -0.0039371252
-0.21619889 0.20570306 -0.0049724579
0.21747825 0.20585676 -0.0029751062
-0.21652074 0.23159958 -0.00032699108
0.21770643 0.23168905 0.00072979927
-0.21706776 0.25786775 0.0075685978
0.21809089 0.25781286 0.006972909
-0.19051148 0.28191319 -0.0079637766
0.19175053 0.28202403 -0.0068565607
-0.19118632 0.3085742 0.0029939413
0.19237445 0.30876043 0.0047219992
-0.16529118 0.33343032 -0.0031417608
0.1664155 0.33338538 -0.0035301447
-0.13962364 0.35854694 -0.0063949823
0.1407263 0.35834008 -0.0080744028
-0.11421818 0.38433418 -0.004140377
0.11541427 0.38453013 -0.0026421547
-0.063198142 0.40983877 -0.0041775703
0.064337566 0.40974128 -0.0048799515
-0.08904735 0.41136822 0.0068609715
0.090114765 0.41138104 0.0069540739
0.19270061 -0.71556342 0.010774732
-0.21760444 -0.69081271 0.015314698
0.21844806 -0.69032347 0.012772202
-0.21785226 0.28460088 0.01889205
0.21864034 0.28430092 0.015894771
-0.19207536 0.3358058 0.017430305
0.19319564 0.33609802 0.01996088
-0.16623533 0.36110568 0.014379501
0.16727382 0.36118859 0.015052676
-0.14059958 0.3868044 0.014734864
0.1415589 0.38665012 0.013556957
-0.11514585 0.41318339 0.019961119
0.11611894 0.41322258 0.020242572
-0.063832358 0.43936467 0.023285031
-0.037985198 0.43816334 0.01507163
-0.012304406 0.43772057 0.012044072
0.013329771 0.43757033 0.011017203
0.038993448 0.43828112 0.015876055
0.064752683 0.43918881 0.022082329
-0.16701454 -0.74494261 0.028839827
0.16801435 -0.74540931 0.03108573
-0.24484766 -0.66895461 0.035889745
0.24572226 -0.66904217 0.036363363
-0.24431655 -0.64191538 0.028990865
0.24519056 -0.64186198 0.028689027
-0.24425268 -0.61601013 0.02816081
0.24512526 -0.61593997 0.027746081
-0.24425268 -0.59025192 0.02816081
0.24512526 -0.59018499 0.02774632
-0.24425268 -0.56449372 0.02816081
0.24512526 -0.56442988 0.027746201
-0.24425268 -0.53873557 0.02816093
0.24512526 -0.53867489 0.02774632
-0.24425414 -0.51297987 0.028179884
0.24512526 -0.51291984 0.027746201
-0.24425414 -0.48722154 0.028179765
0.24512526 -0.48716468 0.027746081
-0.24425414 -0.46146306 0.028179765
0.24512526 -0.46140972 0.02774632
-0.24425414 -0.43570468 0.028179765
0.24512526 -0.43565458 0.027746081
-0.24425414 -0.40994629 0.028179646
0.24512526 -0.40989962 0.02774632
-0.24425414 -0.38418782 0.028179646
0.24512526 -0.38414448 0.027746201
-0.24425414 -0.35842952 0.028179884
0.24512526 -0.3583895 0.02774632
-0.24425414 -0.33267114 0.028179884
0.24512526 -0.33263439 0.027746201
-0.24425414 -0.30691272 0.028179884
0.24512526 -0.30687937 0.02774632
-0.24425414 -0.28115439 0.028179765
0.24512526 -0.28112432 0.02774632
-0.24425414 -0.25539595 0.028179765
0.24512526 -0.25536919 0.027746201
-0.24425414 -0.22963759 0.028179765
0.24512526 -0.22961423 0.02774632
-0.24425414 -0.20387915 0.028179765
0.24512526 -0.20385911 0.027746201
-0.24425414 -0.17812072 0.028179646
0.24512526 -0.1781041 0.02774632
-0.24425414 -0.15236244 0.028179884
0.24512526 -0.152349 0.027746201
-0.24425414 -0.12660401 0.028179884
0.24512526 -0.12659399 0.02774632
-0.24425414 -0.10084558 0.028179884
0.24512526 -0.10083888 0.02774632
-0.24425414 -0.075087301 0.028179884
0.24512526 -0.075083822 0.027746201
-0.24425414 -0.049328815 0.028179765
0.24512526 -0.049328815 0.02774632
-0.24425414 -0.023570329 0.028179765
0.24512526 -0.023573704 0.027746201
-0.24425414 0.002188053 0.028179884
0.24512526 0.0021811947 0.02774632
-0.24425414 0.027946327 0.028179646
0.24512526 0.02793641 0.02774632
-0.24425414 0.053704705 0.028179646
0.24512526 0.053691309 0.02774632
-0.24425414 0.079463035 0.028179884
0.24512526 0.079446524 0.02774632
-0.24425414 0.10522141 0.028179765
0.24512526 0.10520153 0.027746081
-0.24425414 0.13097985 0.028179884
0.24512526 0.13095663 0.02774632
-0.24425414 0.15673827 0.028179884
0.24512526 0.15671161 0.027746081
-0.24425414 0.18249665 0.028179765
0.24512526 0.18246675 0.02774632
-0.24437031 0.20837112 0.029688835
0.24524154 0.20835094 0.029424548
-0.24475583 0.23456533 0.034697056
0.24562912 0.23459251 0.035018563
-0.24540144 0.26114872 0.043083668
0.24626169 0.2612471 0.04414916
-0.21894072 0.31198075 0.034602284
0.21969105 0.31180343 0.032956481
-0.19358961 0.36451006 0.04201889
0.19422764 0.36415201 0.039112806
-0.16741689 0.38962734 0.0363065
0.16834478 0.38988033 0.038239956
-0.14186327 0.41625047 0.042094827
0.14267416 0.41631103 0.042532206
-0.08991088 0.44106433 0.034905195
0.090784319 0.44121662 0.035946488
-0.038351245 0.46748132 0.038847089
-0.012488847 0.46704352 0.03600347
0.013329771 0.46693552 0.035302758
0.039178021 0.46763617 0.039852977
-0.2201931 -0.72395045 0.052679062
0.22091863 -0.72399253 0.052889347
-0.24645561 -0.69879234 0.056777954
0.24733344 -0.69933897 0.059618473
-0.24634051 0.28824258 0.055282712
0.24720308 0.28848815 0.057737231
-0.2203536 0.34014332 0.054995537
0.22107427 0.34019214 0.055416942
-0.11647515 0.44392997 0.05449748
0.11715131 0.44382349 0.053769946
-0.090693153 0.47078574 0.060310125
-0.06441059 0.46894032 0.048322797
0.065150216 0.46887559 0.04790318
0.091358952 0.47086585 0.060829163
-0.06464617 0.49650276 0.058523893
-0.038504776 0.49493372 0.048819065
-0.012566653 0.49449611 0.046110868
0.013329771 0.49439448 0.045482159
0.039254833 0.49509758 0.049831033
0.06531167 0.496481 0.058389664
-0.064710058 0.52296323 0.061290741
-0.038547419 0.52132016 0.051589012
-0.012588383 0.52087069 0.048933625
0.013329771 0.52076715 0.048322916
0.039276168 0.52149183 0.05260253
0.065355442 0.52295363 0.061232805
-0.038583063 0.54766876 0.053903937
-0.012606175 0.54719794 0.051244855
0.013329771 0.54709637 0.050671577
0.039294146 0.54785192 0.054937959
-0.038619041 0.57405698 0.056241035
-0.012623991 0.57356143 0.053559303
0.013329771 0.57345897 0.053004384
0.039312299 0.57425183 0.057295799
-0.038656555 0.60050029 0.058677554
-0.012641831 0.59996134 0.055876732
0.013329771 0.59985805 0.055340409
0.039330326 0.60068512 0.059637666
-0.038694717 0.6269896 0.061156034
-0.012659698 0.62639749 0.058197737
0.013329771 0.62629753 0.057698846
0.039348379 0.62715507 0.061983109
-0.012677736 0.65287393 0.060540915
0.013329771 0.65276998 0.060041189
0.013329771 0.67927945 0.06238699
-0.012686321 0.96529865 0.061655998
0.013329771 0.96517169 0.061232924
-0.27380642 -0.64970452 0.072983503
0.27411997 -0.64914632 0.069830418
-0.27355579 -0.62309998 0.070023656
0.27398017 -0.6227597 0.068014741
-0.27355579 -0.59701943 0.070023537
0.27398017 -0.59669465 0.068014741
-0.27355579 -0.57093894 0.070023656
0.27398017 -0.5706296 0.068014741
-0.27355579 -0.5448584 0.070023656
0.27398017 -0.54456466 0.068014622
-0.27355579 -0.51877797 0.070023656
0.27398017 -0.51849955 0.068014741
-0.27355579 -0.49269733 0.070023656
0.27398017 -0.49243444 0.068014741
-0.27355579 -0.46661696 0.070023775
0.27398017 -0.46636945 0.068014741
-0.27355579 -0.44053644 0.070023656
0.27398017 -0.4403044 0.068014741
-0.27355579 -0.41445583 0.070023537
0.27398017 -0.41423932 0.068014741
-0.27355579 -0.3883754 0.070023656
0.27398017 -0.38817438 0.068014741
-0.27355579 -0.36229485 0.070023537
0.27398017 -0.3621093 0.068014741
-0.27355579 -0.33621436 0.070023656
0.27398017 -0.33604431 0.068014741
-0.27355579 -0.31013381 0.070023656
0.27398017 -0.3099792 0.068014741
-0.27355579 -0.28405342 0.070023656
0.27398017 -0.28391418 0.068014741
-0.27355579 -0.25797278 0.070023656
0.27398017 -0.25784919 0.068014741
-0.27355579 -0.23189239 0.070023775
0.27398017 -0.23178411 0.068014741
-0.27355579 -0.20581184 0.070023656
0.27398017 -0.20571901 0.068014741
-0.27355579 -0.17973135 0.070023775
0.27398017 -0.17965402 0.068014741
-0.27355579 -0.15365085 0.070023656
0.27398017 -0.15358898 0.068014741
-0.27355579 -0.12757036 0.070023537
0.27398017 -0.12752399 0.068014741
-0.27355579 -0.1014898 0.070023656
0.27398017 -0.10145889 0.068014741
-0.27355579 -0.075409308 0.070023656
0.27398017 -0.075393803 0.06801486
-0.27355579 -0.049328867 0.070023656
0.27398017 -0.049328815 0.068014741
-0.27355579 -0.023248266 0.070023656
0.27398017 -0.023263827 0.068014741
-0.27355579 0.00283207 0.070023656
0.27398017 0.0028013214 0.068014741
-0.27355579 0.028912727 0.070023656
0.27398017 0.02886631 0.068014741
-0.27355579 0.054993216 0.070023894
0.27398017 0.054931294 0.068014741
-0.27355579 0.081073657 0.070023656
0.27398017 0.080996439 0.06801486
-0.27355579 0.10715416 0.070023775
0.27398017 0.10706143 0.068014741
-0.27355579 0.13323475 0.070023656
0.27398017 0.13312642 0.068014741
-0.27355579 0.15931503 0.070023656
0.27398017 0.1591915 0.06801486
-0.27355579 0.18539569 0.070023656
0.27398017 0.18525656 0.068014741
-0.27383593 0.21173085 0.073332071
0.27414525 0.21148662 0.070158958
0.27476123 0.23824565 0.078161001
-0.24782389 0.31628624 0.074552536
0.24847825 0.31645766 0.076142311
-0.19554782 0.39453605 0.073816299
0.19612274 0.39459696 0.074281216
-0.16938281 0.42050347 0.072789788
0.16985299 0.42024091 0.070893526
-0.091036901 0.49859625 0.071473718
0.091585129 0.49845868 0.070622921
-0.091129914 0.52519941 0.0744946
0.091646798 0.5249961 0.073293447
-0.091220096 0.55183291 0.077423215
-0.06476783 0.5494194 0.063792229
0.065394841 0.5494194 0.063792229
0.091715291 0.55162668 0.076258779
-0.064825691 0.5759148 0.066297531
0.065434605 0.57592916 0.06637454
0.091786578 0.57832551 0.079346061
-0.06488318 0.60244578 0.068787098
0.065474123 0.60247558 0.068941712
-0.06494122 0.62901962 0.071299911
0.065513708 0.62906241 0.07151258
-0.06499888 0.65562904 0.073796868
-0.038733225 0.65352166 0.063657284
0.039366607 0.65366572 0.064350843
0.065553352 0.65568954 0.074087501
-0.065057077 0.68228191 0.076317072
-0.038771793 0.68009317 0.066162467
-0.012695652 0.67938304 0.062868237
0.039384712 0.68020952 0.066702604
0.065593049 0.68235719 0.076666236
-0.06511537 0.7089743 0.078840852
-0.038810123 0.70669967 0.068652034
-0.01271359 0.70592874 0.065198541
0.013329771 0.70582539 0.064736009
0.039402839 0.70679009 0.069057465
0.065632813 0.70906538 0.079248905
-0.038848806 0.73334986 0.071164608
-0.012731555 0.73251098 0.067532182
0.013329771 0.73241293 0.067107797
0.039421145 0.73341238 0.071435332
-0.038887247 0.76003498 0.073661208
-0.012749544 0.75912994 0.06986928
0.013329771 0.75903308 0.069463253
0.039439324 0.76006728 0.073796868
-0.038926043 0.78676432 0.076181173
-0.012767707 0.78579038 0.07222867
0.013329771 0.78569031 0.071822286
0.03945753 0.78675944 0.076161742
-0.038964897 0.81353331 0.078704953
-0.012785747 0.81248319 0.074571967
0.013329771 0.81238478 0.074184418
0.039475907 0.81349361 0.078549385
-0.012803811 0.83921289 0.076918483
0.013329771 0.83911645 0.076549888
-0.012821901 0.86597961 0.079268456
0.013329771 0.86589056 0.078938007
-0.065008275 0.9690659 0.07420373
-0.038748644 0.96620035 0.064658999
0.039373577 0.96637964 0.065256476
0.065559618 0.96915305 0.0744946
-0.012758921 0.99421883 0.071087241
0.013329771 0.99401045 0.070410252
-0.038947854 0.99622357 0.077597976
0.039467685 0.99618781 0.077481389
-0.27560636 -0.67973489 0.094239593
0.2757532 -0.6791451 0.091046929
-0.27463514 0.23863606 0.08276999
0.27623311 0.26615536 0.097281098
-0.22214438 0.36929178 0.08084321
0.22283797 0.36968768 0.084055781
-0.14367276 0.447846 0.081271291
0.14414126 0.4477548 0.080648661
-0.11750942 0.47402793 0.081368566
0.11802689 0.4741568 0.082205534
-0.11788948 0.50179201 0.091242909
0.11834496 0.50200093 0.0925349
-0.11800106 0.52852678 0.094141722
0.11843732 0.52876264 0.095534205
-0.11812568 0.55536616 0.097379565
-0.091310434 0.57851243 0.080356836
-0.091400921 0.6052379 0.083295822
0.091858007 0.60507309 0.082439065
-0.09149158 0.63201004 0.086239815
0.091929115 0.63186544 0.085518122
-0.091582388 0.65882832 0.089188933
0.092000805 0.6587103 0.088622212
-0.091673352 0.68569303 0.092143297
0.092072621 0.68560439 0.091732144
-0.09176448 0.71260452 0.095102549
0.092144571 0.7125476 0.094847441
-0.065173291 0.7357018 0.081349134
0.065672636 0.73581433 0.081835508
-0.065231748 0.76247364 0.083880424
0.065712526 0.76260388 0.084426284
-0.065290295 0.7892853 0.086415648
0.065752469 0.78943425 0.087020516
-0.065348476 0.81613189 0.088934898
0.065792479 0.81630582 0.08961904
-0.065407202 0.84302348 0.091477513
-0.03900351 0.84033698 0.081212878
0.039494164 0.84026062 0.080921054
0.06583254 0.84321827 0.092221498
-0.065465555 0.86994994 0.094004393
-0.039042477 0.86718565 0.08374393
0.039512444 0.86706477 0.083295822
0.065872669 0.8701719 0.09482801
-0.065524451 0.89692193 0.096554756
-0.039081205 0.89406884 0.086259365
-0.012840013 0.89278352 0.081621528
0.013329771 0.89269722 0.081310034
0.039530754 0.89390647 0.085674167
0.065913163 0.89717233 0.097457886
-0.03912029 0.92099738 0.088798046
-0.012858302 0.91962999 0.083997369
0.013329771 0.91954118 0.083685517
0.039549239 0.92079145 0.088075042
-0.065382801 0.94769698 0.090420961
-0.039056581 0.94601178 0.084660053
-0.012847657 0.94541353 0.082614183
0.013329771 0.94538486 0.082516909
0.039521147 0.9459433 0.084426045
0.065812044 0.94783443 0.090890408
-0.091571555 0.97345912 0.088837028
0.091992237 0.97328329 0.088250875
-0.27599701 0.26630047 0.098853111
-0.25078413 0.34684199 0.11300671
0.25098833 0.34676889 0.11237264
-0.14519352 0.47908211 0.11419642
0.14545237 0.47916144 0.11471188
0.11853286 0.5555889 0.098636866
-0.1182763 0.58238024 0.10129249
0.11862918 0.58246756 0.10176516
-0.1184265 0.60945266 0.10519505
0.11872567 0.60939568 0.10489905
-0.11857779 0.6365906 0.10912597
0.11882236 0.63637304 0.10803866
-0.1187287 0.66378689 0.11304629
0.11893323 0.66349465 0.11163962
-0.091855757 0.73956263 0.098067045
0.092216201 0.73953545 0.097949147
-0.091947198 0.76656777 0.10103667
0.09228842 0.76657724 0.10107601
-0.092038795 0.79361969 0.10401154
0.092360757 0.79366827 0.10420871
-0.092129953 0.82071388 0.10697174
0.092433237 0.8208093 0.10734701
-0.092221871 0.84786016 0.10995674
0.092505388 0.84799486 0.11047125
-0.092313953 0.87505376 0.11294723
0.092578135 0.87523532 0.11362112
-0.065583438 0.92393398 0.099108815
0.065953411 0.92420846 0.10007238
-0.091975085 0.95106745 0.1019423
0.092309333 0.95107889 0.10198176
-0.11876227 0.9809891 0.11391866
0.11895336 0.98050117 0.11229336
-0.27801013 0.29498193 0.12262714
0.27850533 0.29539934 0.12679839
0.19904639 0.42822826 0.12853765
-0.19905338 0.4285332 0.13073909
-0.17260805 0.45535958 0.13264275
0.17251453 0.45475626 0.12851751
-0.14567043 0.50717175 0.12452185
0.14588526 0.50740427 0.12595916
-0.14584574 0.53431469 0.12831759
0.14604457 0.53461635 0.13009834
-0.14605291 0.5616383 0.13280308
-0.11887994 0.69104558 0.11697555
0.11906574 0.6908229 0.11594284
-0.11903228 0.71837121 0.12093377
0.11919796 0.71821553 0.12023687
-0.11918421 0.74575508 0.12488115
0.11933114 0.74568135 0.12456179
-0.11933726 0.77320689 0.12885761
0.11946402 0.7732116 0.12887764
-0.11948991 0.80071712 0.13282311
0.11959725 0.80081099 0.13320422
-0.09240558 0.90228927 0.11592293
0.09265101 0.90252602 0.11677682
-0.092497975 0.92957795 0.11892378
0.092723563 0.92986107 0.11991847
-0.11902386 0.95655882 0.12071478
0.11919674 0.95640731 0.12019706
-0.22640036 0.40349472 0.14227307
0.22669052 0.40406278 0.14661324
0.14621122 0.56192589 0.13442814
-0.14635448 0.58940804 0.13933218
0.14637907 0.5893079 0.13878858
-0.14665718 0.61728352 0.14588559
0.14655587 0.61680162 0.14338207
-0.1196429 0.8282907 0.13679779
0.11973143 0.82848489 0.13756168
-0.11979623 0.85592794 0.14078176
0.11986533 0.8562234 0.14191031
-0.11995071 0.88363457 0.14479518
0.12000018 0.88403714 0.14628983
-0.12013514 0.91161865 0.1495868
0.12013476 0.9119159 0.15066028
-0.14696102 0.64526469 0.15246439
0.14685784 0.64501715 0.15122747
-0.14726603 0.6733523 0.15906763
0.14716117 0.67336076 0.15910864
-0.1475722 0.70154703 0.1656965
0.14746511 0.70182908 0.16700494
-0.12038888 0.94018936 0.15617955
0.1202703 0.93987095 0.1550622
-0.14715986 0.96710527 0.15676892
0.1470594 0.96701622 0.15646422
-0.31024128 -0.61557811 0.18482602
-0.31024128 -0.58861405 0.18482625
-0.31024128 -0.56164968 0.18482625
-0.31024128 -0.53468549 0.18482614
-0.31024128 -0.50772125 0.18482625
-0.31024128 -0.48075688 0.18482625
-0.31024128 -0.45379275 0.18482614
-0.31024128 -0.42682838 0.18482614
-0.31024128 -0.39986414 0.18482625
-0.31024128 -0.37289995 0.18482614
-0.31024128 -0.34593561 0.18482614
-0.31024128 -0.31897137 0.18482614
-0.31024128 -0.29200709 0.18482614
-0.31024128 -0.26504284 0.18482614
-0.31024128 -0.23807861 0.18482614
-0.31024128 -0.21111438 0.18482614
-0.31024128 -0.18415013 0.18482614
-0.31024128 -0.15718584 0.18482614
-0.31024128 -0.13022169 0.18482625
-0.31024128 -0.1032574 0.18482614
-0.31024319 -0.076293267 0.18484676
-0.31024128 -0.049328763 0.18482614
-0.31024128 -0.022364574 0.18482625
-0.31024128 0.0045997724 0.18482625
-0.31024128 0.031563912 0.1848259
-0.31024128 0.058528099 0.18482614
-0.31024128 0.085492387 0.18482614
-0.31024128 0.11245674 0.18482614
-0.31024128 0.13942087 0.18482625
-0.31024128 0.16638526 0.18482625
-0.31024128 0.19334945 0.18482614
-0.14787954 0.72984946 0.17235065
0.14777121 0.73043162 0.17495787
-0.14839758 0.75930792 0.18356633
0.14807874 0.75916487 0.18294704
-0.31110623 -0.64412802 0.19418943
-0.14895445 0.951424 0.19562328
0.14854343 0.95125222 0.19502056
0.31244892 -0.62037444 0.2144953
0.31244892 -0.59318173 0.21449542
0.31244892 -0.56598908 0.2144953
0.31244892 -0.53879654 0.21449554
0.31244892 -0.51160389 0.21449554
0.31244892 -0.48441127 0.21449542
0.31244892 -0.45721853 0.21449542
0.31244892 -0.43002591 0.2144953
0.31244892 -0.40283322 0.2144953
0.31244892 -0.37564072 0.21449554
0.31244892 -0.34844792 0.21449542
0.31244892 -0.3212553 0.21449542
0.31244892 -0.29406267 0.2144953
0.31244892 -0.26686999 0.21449542
0.31244892 -0.23967735 0.2144953
0.31244892 -0.21248475 0.21449554
0.31244892 -0.18529211 0.21449554
0.31244892 -0.15809949 0.21449542
0.31244892 -0.13090675 0.21449554
0.31244892 -0.10371402 0.2144953
0.31244892 -0.076521493 0.2144953
0.31244892 -0.049328867 0.21449554
0.31244892 -0.022136187 0.21449554
0.31244892 0.0050563887 0.2144953
0.31244892 0.032249119 0.2144953
0.31244892 0.059441853 0.21449542
0.31244892 0.086634532 0.21449542
0.31244892 0.11382701 0.21449542
0.31244892 0.14101967 0.21449554
0.31244892 0.16821237 0.21449554
0.31244892 0.19540499 0.21449542
-0.31276286 0.22241496 0.21212268
-0.17663121 0.49341673 0.20730317
-0.14951906 0.79205674 0.20784724
0.14948253 0.79481834 0.219419
0 0 0 1 0 0 0 1 0 0 0 1 0 0 0 0 0 1291 1 0 0
