ply
format ascii 1.0
comment PCL generated
element vertex 857
property float x
property float y
property float z
element camera 1
property float view_px
property float view_py
property float view_pz
property float x_axisx
property float x_axisy
property float x_axisz
property float y_axisx
property float y_axisy
property float y_axisz
property float z_axisx
property float z_axisy
property float z_axisz
property float focal
property float scalex
property float scaley
property float centerx
property float centery
property int viewportx
property int viewporty
property float k1
property float k2
end_header
-0.061957303 -0.71471399 -0.049044847
-0.036905985 -0.71318269 -0.055903912
-0.011993665 -0.71261984 -0.058425665
0.01287983 -0.7124337 -0.059259415
0.037778188 -0.71334088 -0.055195689
0.062756091 -0.71449441 -0.050029039
-0.061957303 -0.68976831 -0.049044728
-0.036905985 -0.68828982 -0.055904031
-0.011993665 -0.68774635 -0.058425665
0.01287983 -0.68756676 -0.059259295
0.037778188 -0.68844259 -0.055195689
0.062756091 -0.68955618 -0.050029039
-0.061957303 -0.66482264 -0.049044847
-0.036905985 -0.66339695 -0.055904031
-0.011993665 -0.66287279 -0.058425665
0.01287983 -0.66269964 -0.059259176
0.037778188 -0.66354418 -0.055195689
0.062756091 -0.66461807 -0.050029039
-0.061957303 -0.6398769 -0.049044847
-0.036905985 -0.63850409 -0.055903912
-0.011993665 -0.6379993 -0.058425665
0.01287983 -0.63783252 -0.059259295
0.037778188 -0.63864583 -0.055195689
0.062756091 -0.63967991 -0.050029039
-0.061957303 -0.61493117 -0.049044847
-0.036905985 -0.61361122 -0.055903912
-0.011993665 -0.61312586 -0.058425665
0.01287983 -0.61296546 -0.059259295
0.037778188 -0.61374736 -0.055195689
0.062756091 -0.61474186 -0.050029039
-0.061957303 -0.58998549 -0.049044847
-0.036905985 -0.58871824 -0.055903912
-0.011993665 -0.58825243 -0.058425546
0.01287983 -0.58810174 -0.059241176
0.037778188 -0.58884907 -0.055195808
0.062756091 -0.5898037 -0.050029039
-0.061957303 -0.56503969 -0.049044847
-0.036905985 -0.56382531 -0.055904031
-0.011993665 -0.56337887 -0.058425546
0.01287983 -0.56323445 -0.059241056
0.037778188 -0.56395072 -0.055195689
0.062756091 -0.56486553 -0.050029039
-0.061957303 -0.54009408 -0.049044728
-0.036905985 -0.53893238 -0.055904031
-0.011993665 -0.53850543 -0.058425546
0.01287983 -0.53836727 -0.059241295
0.037778188 -0.53905243 -0.055195689
0.062756091 -0.53992742 -0.050029039
-0.061957303 -0.5151484 -0.049044847
-0.036905985 -0.51403946 -0.055904031
-0.011993665 -0.513632 -0.058425546
0.01287983 -0.51350003 -0.059241176
0.037778188 -0.51415402 -0.055195689
0.062756091 -0.5149892 -0.050029159
-0.061957303 -0.4902027 -0.049044728
-0.036905985 -0.48914671 -0.055903912
0.037778188 -0.48925561 -0.055195689
0.062756091 -0.49005112 -0.050029159
-0.011993665 -0.48875841 -0.058425546
0.01287983 -0.48863286 -0.059241056
-0.061957303 -0.46525696 -0.049044847
-0.036905985 -0.46425378 -0.055903912
-0.011993665 -0.46388492 -0.058425546
0.01287983 -0.46376562 -0.059241056
0.037778329 -0.46435985 -0.055177689
0.062756091 -0.46511301 -0.050029159
-0.061957303 -0.44031125 -0.049044728
-0.036905985 -0.43936083 -0.055903912
-0.011993665 -0.43901134 -0.058425546
0.01287983 -0.43889838 -0.059241176
0.037778329 -0.43946144 -0.055177689
0.062756091 -0.44017479 -0.050029159
-0.061957303 -0.41536549 -0.049044847
-0.036905985 -0.41446787 -0.055904031
-0.011993665 -0.41413793 -0.058425546
0.01287983 -0.41403115 -0.059241056
0.037778329 -0.41456297 -0.055177689
0.062756091 -0.41523668 -0.050029159
-0.061957303 -0.39041984 -0.049044728
-0.036905985 -0.38957497 -0.055904031
-0.011993665 -0.38926446 -0.058425546
0.01287983 -0.38916388 -0.059241176
0.037778329 -0.38966444 -0.055177569
0.062756091 -0.39029858 -0.050029159
-0.061957303 -0.3654741 -0.049044847
-0.036905985 -0.36468208 -0.055904031
-0.011993665 -0.36439094 -0.058425546
0.01287983 -0.3642967 -0.059241295
0.037778329 -0.36476603 -0.055177569
0.062755808 -0.36535838 -0.050047278
-0.061957303 -0.34052846 -0.049044728
-0.036905985 -0.33978915 -0.055904031
-0.011993665 -0.33951741 -0.058425546
0.01287983 -0.33942956 -0.059241056
0.037778329 -0.33986738 -0.055177689
0.062755808 -0.34042034 -0.050047278
-0.061957303 -0.31558263 -0.049044728
-0.036905985 -0.31489635 -0.055903912
-0.011993665 -0.31464386 -0.058425546
0.01287983 -0.31456235 -0.059241176
0.037778188 -0.3149671 -0.055195689
0.062755808 -0.31548241 -0.050047278
-0.061957303 -0.29063702 -0.049044728
-0.036905985 -0.29000333 -0.055903912
-0.011993665 -0.28977042 -0.058425546
0.01287983 -0.28969511 -0.059241056
0.037778188 -0.29006875 -0.055195689
0.062755808 -0.29054439 -0.050047159
-0.061957303 -0.26569125 -0.049044728
-0.036905985 -0.26511046 -0.055903912
-0.011993665 -0.26489693 -0.058425546
0.01287983 -0.26482788 -0.059241176
0.037778188 -0.26517037 -0.055195808
0.062755808 -0.26560634 -0.050047278
-0.061957303 -0.24074563 -0.049044728
-0.036905985 -0.24021752 -0.055904031
-0.011993805 -0.24002483 -0.058407545
0.01287983 -0.23996197 -0.059223056
0.037778188 -0.240272 -0.055195808
0.062755808 -0.2406684 -0.050047159
-0.061957303 -0.21579988 -0.049044847
-0.036905985 -0.21532461 -0.055904031
-0.011993805 -0.21515125 -0.058407426
0.01287983 -0.21509467 -0.059222937
0.037778188 -0.21537367 -0.055195689
0.062755808 -0.21573046 -0.050047159
-0.061957303 -0.1908541 -0.049044728
-0.036905985 -0.1904317 -0.055904031
-0.011993805 -0.19027752 -0.058407545
0.01287983 -0.19022734 -0.059223056
0.037778188 -0.19047537 -0.055195689
0.062755808 -0.19079243 -0.050047278
-0.061957303 -0.16590841 -0.049044847
-0.036905985 -0.16553888 -0.055903912
-0.011993805 -0.16540389 -0.058407545
0.01287983 -0.16535999 -0.059222937
0.037778188 -0.16557692 -0.055195689
0.062755808 -0.1658545 -0.050047159
-0.061957303 -0.14096276 -0.049044728
-0.036905985 -0.14064586 -0.055903792
-0.011993805 -0.14053035 -0.058407545
0.01287983 -0.1404926 -0.059223056
0.037778188 -0.1406786 -0.055195689
0.062755808 -0.14091647 -0.050047159
-0.061957303 -0.11601701 -0.049044847
-0.036905985 -0.11575295 -0.055903912
-0.011993805 -0.11565663 -0.058407545
0.01287983 -0.11562522 -0.059223056
0.037778188 -0.11578021 -0.055195689
0.062755808 -0.11597843 -0.050047278
-0.061957303 -0.091071352 -0.049044728
-0.036905985 -0.090860136 -0.055903912
-0.011993805 -0.090782993 -0.058407545
0.01287983 -0.090757877 -0.059222937
0.037778188 -0.090881824 -0.055195689
0.062755808 -0.091040403 -0.050047159
-0.061957303 -0.066125542 -0.049044728
-0.036905985 -0.065967217 -0.055904031
-0.011993805 -0.065909415 -0.058407545
0.01287983 -0.065890536 -0.059222937
0.037778188 -0.065983437 -0.055195808
0.062755808 -0.066102415 -0.050047159
-0.061957303 -0.041179832 -0.049044847
-0.036906265 -0.041074507 -0.055885911
-0.011993805 -0.041035678 -0.058407545
0.01287983 -0.041023251 -0.059222937
0.037778188 -0.041085247 -0.055195689
0.062755808 -0.041164435 -0.050047159
-0.06196614 -0.016237192 -0.048661709
-0.036912136 -0.016184401 -0.055504441
-0.011996876 -0.016165167 -0.058008552
0.01287983 -0.016158774 -0.05884254
0.037781127 -0.016189773 -0.054814339
0.062761985 -0.016229518 -0.049646378
-0.012044564 0.0087115336 -0.051813722
0.01287983 0.0087115336 -0.052596211
0.03782919 0.0087115336 -0.048570514
-0.03700766 0.0087115848 -0.049300075
-0.012092434 0.033683892 -0.04559505
0.01287983 0.03367801 -0.046344042
-0.037027594 0.1833875 -0.048005223
-0.012054656 0.18325308 -0.050502777
0.01287983 0.18321267 -0.051249266
0.037839301 0.18342777 -0.047256947
-0.061998162 0.20838615 -0.047275186
-0.036933113 0.20796332 -0.054141998
-0.01200749 0.20781012 -0.056630015
0.01287983 0.20776096 -0.057428241
0.037791759 0.20800696 -0.053432822
0.062784165 0.20832896 -0.048205733
-0.036961392 0.23299697 -0.052305102
-0.012021046 0.23281945 -0.054868817
0.01287983 0.23276415 -0.055667877
0.037806045 0.2330475 -0.051576972
0.062817886 0.23343284 -0.046015263
-0.037039112 0.25830626 -0.047256947
-0.012059847 0.25810829 -0.049828529
0.01287983 0.25804946 -0.050593734
0.037845343 0.25836673 -0.046471715
-0.087197497 -0.69182974 -0.039480925
0.087956041 -0.69199985 -0.038692117
-0.087197497 -0.66681051 -0.039480805
0.087956041 -0.66697437 -0.038692117
-0.087197497 -0.64179111 -0.039480925
0.087956041 -0.64194894 -0.038692117
-0.087197497 -0.6167717 -0.039480925
0.087956041 -0.61692357 -0.038691998
-0.087197497 -0.59175247 -0.039480805
0.087956041 -0.5918982 -0.038691998
-0.087197497 -0.56673312 -0.039480805
0.087956041 -0.56687272 -0.038692117
-0.087197497 -0.54171371 -0.039480925
0.087956041 -0.54184735 -0.038692117
-0.087197497 -0.51669449 -0.039480805
0.087956041 -0.51682204 -0.038691998
-0.087197497 -0.49167508 -0.039480805
0.087956041 -0.49179661 -0.038691998
-0.087197497 -0.46665573 -0.039480925
0.087956041 -0.46677113 -0.038692117
-0.087197497 -0.4416365 -0.039480805
0.087956041 -0.44174573 -0.038692117
-0.087197497 -0.41661713 -0.039480925
0.087956041 -0.41672033 -0.038691998
-0.087197497 -0.39159775 -0.039480805
0.087956041 -0.39169487 -0.038692117
-0.087197497 -0.36657852 -0.039480805
0.087956041 -0.36666957 -0.038692117
-0.087197497 -0.34155914 -0.039480925
0.087956041 -0.34164414 -0.038691998
-0.087197497 -0.31653976 -0.039480925
0.087956041 -0.31661874 -0.038691998
-0.087197497 -0.29152054 -0.039480805
0.087956041 -0.29159328 -0.038692117
-0.087197497 -0.26650119 -0.039480805
0.087956041 -0.26656789 -0.038691998
-0.087197497 -0.24148174 -0.039480925
0.087956041 -0.24154247 -0.038691998
-0.087197497 -0.21646248 -0.039480805
0.087956041 -0.21651706 -0.038692117
-0.087197497 -0.19144306 -0.039480805
0.087956041 -0.19149165 -0.038692117
-0.087197497 -0.16642378 -0.039480925
0.087956041 -0.1664663 -0.038692117
-0.087197497 -0.14140452 -0.039480805
0.087956041 -0.1414409 -0.038691998
-0.087197497 -0.11638511 -0.039480805
0.087956041 -0.11641539 -0.038692117
-0.087197497 -0.091365792 -0.039480805
0.087956041 -0.091390036 -0.038691998
-0.087197497 -0.066346526 -0.039480805
0.087955624 -0.066364221 -0.038710356
-0.087197497 -0.041327104 -0.039480805
0.087956041 -0.041339226 -0.038692117
-0.087208793 -0.016310651 -0.039113879
0.08796452 -0.016316634 -0.038325071
-0.062120188 0.0087114312 -0.041991591
0.062867157 0.0087115336 -0.042815328
0.088123381 0.0087115336 -0.031446218
-0.087414831 0.0087115848 -0.032422781
-0.062274437 0.033762924 -0.035312176
-0.037103552 0.03370323 -0.043071508
0.037877578 0.033709265 -0.042284727
0.062972769 0.033758014 -0.035955787
-0.062429752 0.058917955 -0.028586864
-0.037199814 0.058791194 -0.03681922
-0.01214035 0.058751959 -0.039370894
0.01287983 0.058741167 -0.040067554
0.03792616 0.05880424 -0.035974026
0.063078828 0.058910586 -0.029066801
-0.037296444 0.083975896 -0.03054297
-0.012188589 0.083916709 -0.0331043
0.01287983 0.083901979 -0.033748627
0.037974924 0.083996765 -0.029639006
-0.037313487 0.10909814 -0.029435992
-0.012197381 0.10902043 -0.031962395
0.01287983 0.10900099 -0.03258872
0.037983309 0.10912545 -0.028550029
-0.037217923 0.13395591 -0.03564322
-0.012149531 0.13385837 -0.038178205
0.01287983 0.13383295 -0.038838744
0.03793522 0.1339885 -0.034797311
-0.062303323 0.15907779 -0.034061313
-0.037122719 0.15871921 -0.041826725
-0.012102002 0.15860252 -0.044352293
0.01287983 0.15856948 -0.045065165
0.037887167 0.15875563 -0.041039109
0.062992305 0.15904905 -0.034687042
-0.087451711 0.18429181 -0.031224966
-0.062150221 0.18378168 -0.040690899
0.062888011 0.18374015 -0.041460395
0.088151485 0.18434548 -0.03022933
-0.087247789 0.20896676 -0.037847757
0.087994635 0.20901765 -0.037021279
-0.087323591 0.23416916 -0.035385728
-0.062048357 0.23349607 -0.045101881
0.088052779 0.23423038 -0.034502864
-0.087492034 0.25964123 -0.02991581
-0.062173504 0.25888926 -0.039682746
0.062903531 0.25883013 -0.0404526
0.088182583 0.25972071 -0.028882265
-0.062299076 0.28436753 -0.03424561
-0.037117079 0.28369451 -0.042192936
-0.012098767 0.28347608 -0.044772744
0.01287983 0.28341407 -0.045503616
0.03788463 0.28376427 -0.041368723
0.062989473 0.28431454 -0.034870982
-0.062425066 0.30993107 -0.028789997
-0.037195005 0.30916059 -0.037131667
-0.012137808 0.30892313 -0.039700866
0.01287983 0.30886042 -0.040379167
0.037924036 0.30924213 -0.036249757
0.063075706 0.30988678 -0.029269814
-0.037273459 0.33470792 -0.032036066
-0.012176974 0.33444986 -0.034613371
0.01287983 0.3343856 -0.035257101
0.037963569 0.33480009 -0.031114578
-0.012216259 0.36005679 -0.029509783
0.01287983 0.35999125 -0.030118704
-0.11280835 -0.69514239 -0.024112463
0.11340302 -0.69495082 -0.025001049
-0.11280835 -0.67000467 -0.024112463
0.11340246 -0.66981626 -0.025019526
-0.11280835 -0.644867 -0.024112582
0.11340302 -0.6446892 -0.02500093
-0.11280835 -0.6197294 -0.024112344
0.11340246 -0.61955494 -0.025019407
-0.11280835 -0.59459174 -0.024112463
0.11340246 -0.59442425 -0.025019407
-0.11280835 -0.56945407 -0.024112582
0.11340246 -0.56929356 -0.025019526
-0.11280835 -0.54431641 -0.024112463
0.11340246 -0.54416299 -0.025019407
-0.11280835 -0.51917881 -0.024112463
0.11340246 -0.5190323 -0.025019526
-0.11280835 -0.49404114 -0.024112582
0.11340246 -0.49390155 -0.025019526
-0.11280835 -0.46890363 -0.024112463
0.11340246 -0.46877089 -0.025019526
-0.11280835 -0.44376588 -0.024112582
0.11340246 -0.44364035 -0.025019407
-0.11280835 -0.41862833 -0.024112463
0.11340246 -0.41850963 -0.025019407
-0.11280835 -0.3934907 -0.024112463
0.11340246 -0.39337891 -0.025019526
-0.11280835 -0.36835301 -0.024112463
0.11340246 -0.36824834 -0.025019407
-0.11280835 -0.34321541 -0.024112463
0.11340246 -0.34311765 -0.025019526
-0.11280835 -0.31807774 -0.024112463
0.11340246 -0.31798697 -0.025019526
-0.11280835 -0.29294008 -0.024112463
0.11340246 -0.2928564 -0.025019407
-0.11280835 -0.26780248 -0.024112344
0.11340246 -0.26772571 -0.025019407
-0.11280835 -0.24266483 -0.024112463
0.11340246 -0.242595 -0.025019407
-0.11280835 -0.21752714 -0.024112582
0.11340246 -0.21746427 -0.025019526
-0.11280835 -0.19238956 -0.024112463
0.11340246 -0.1923337 -0.025019407
-0.11280835 -0.16725191 -0.024112463
0.11340246 -0.16720302 -0.025019526
-0.11280835 -0.14211424 -0.024112582
0.11340246 -0.14207233 -0.025019526
-0.11280835 -0.11697666 -0.024112463
0.11340246 -0.11694177 -0.025019407
-0.11280835 -0.091839015 -0.024112582
0.11340246 -0.091811031 -0.025019407
-0.11280835 -0.06670133 -0.024112582
0.11340246 -0.066680454 -0.025019526
-0.11280835 -0.041563742 -0.024112463
0.11340246 -0.041549776 -0.025019526
-0.11282189 -0.016428865 -0.023760676
0.11341442 -0.016422063 -0.024630785
-0.11312556 0.0087115336 -0.015871406
0.11366867 0.0087115336 -0.016373873
-0.087622285 0.033837099 -0.02568543
0.088282481 0.033845793 -0.024556756
-0.087837473 0.059070189 -0.018697262
0.088442698 0.059086762 -0.017619371
-0.062585279 0.084176674 -0.021852255
0.063185334 0.084169716 -0.022148848
-0.062610552 0.10936546 -0.020758033
0.06320218 0.10935615 -0.021054864
-0.087874651 0.13465467 -0.017489552
-0.062456626 0.13427225 -0.027423263
0.063097022 0.13425454 -0.02788496
0.088467166 0.13469039 -0.016559601
-0.087656468 0.15951604 -0.024575114
0.08830899 0.15956984 -0.023408651
-0.11316998 0.18518129 -0.014717221
0.11370707 0.18515928 -0.015126944
-0.1128711 0.209913 -0.022482514
0.11345604 0.20986395 -0.023279071
-0.11300249 0.23529971 -0.019068956
0.1135651 0.23525336 -0.019737244
-0.11324959 0.26097035 -0.012649059
0.11377303 0.26094452 -0.012984633
-0.087660462 0.28519726 -0.024445653
0.088312417 0.2852976 -0.023260713
-0.087836325 0.31085998 -0.018734574
0.088442698 0.310963 -0.01761961
-0.088034034 0.33668169 -0.012313366
-0.062551469 0.3355805 -0.023316145
0.063162237 0.33554715 -0.023649454
0.088573411 0.33671719 -0.011958957
-0.062678739 0.36131817 -0.017805576
-0.037352156 0.36033532 -0.026924372
0.038003366 0.36044103 -0.025944471
0.063249066 0.3612963 -0.018009782
-0.037431102 0.38604358 -0.021796465
-0.012255671 0.38574401 -0.024390101
0.01287983 0.38568002 -0.024945498
0.038043149 0.38616121 -0.020776391
-0.06280601 0.38714072 -0.012294769
0.063336477 0.38713637 -0.012331963
-0.037510298 0.41183254 -0.016652703
-0.012295205 0.41151211 -0.019254565
0.01287983 0.41144806 -0.019774437
0.038083058 0.41196319 -0.015592337
-0.012334865 0.43736124 -0.014102697
0.01287983 0.43729809 -0.014587045
-0.13880947 -0.69917196 -0.0054175854
0.13935032 -0.69952321 -0.0037875175
-0.13880947 -0.67389029 -0.0054177046
0.13935032 -0.67422915 -0.0037876368
-0.13880947 -0.6486088 -0.0054175854
0.13935032 -0.64893508 -0.0037875175
-0.13880947 -0.6233272 -0.0054178238
0.13935032 -0.62364101 -0.0037876368
-0.13880947 -0.59804577 -0.0054177046
0.13935032 -0.59834677 -0.0037876368
-0.13880947 -0.57276416 -0.0054177046
0.13935032 -0.57305276 -0.0037875175
-0.13880947 -0.54748255 -0.0054177046
0.13935032 -0.54775864 -0.0037876368
-0.13880947 -0.52220106 -0.0054175854
0.13935032 -0.52246451 -0.0037876368
-0.13880947 -0.49691951 -0.0054177046
0.13935032 -0.49717045 -0.0037875175
-0.13880947 -0.47163802 -0.0054177046
0.13935032 -0.47187638 -0.0037876368
-0.13880947 -0.44635633 -0.0054178238
0.13935032 -0.44658223 -0.0037876368
-0.13880947 -0.42107484 -0.0054175854
0.13935032 -0.42128819 -0.0037875175
-0.13880947 -0.39579335 -0.0054175854
0.13935032 -0.39599407 -0.0037876368
-0.13880947 -0.37051171 -0.0054177046
0.13935032 -0.37069991 -0.0037876368
-0.13880947 -0.34523025 -0.0054175854
0.13935032 -0.34540585 -0.0037875175
-0.13880947 -0.31994861 -0.0054177046
0.13935032 -0.32011175 -0.0037876368
-0.13880947 -0.29466707 -0.0054175854
0.13935032 -0.29481763 -0.0037876368
-0.13880947 -0.26938561 -0.0054175854
0.13935032 -0.26952356 -0.0037875175
-0.13880947 -0.24410389 -0.0054175854
0.13935032 -0.24422942 -0.0037876368
-0.13880947 -0.21882251 -0.0054175854
0.13935032 -0.21893536 -0.0037875175
-0.13880947 -0.19354083 -0.0054177046
0.13935032 -0.19364125 -0.0037875175
-0.13880947 -0.16825929 -0.0054175854
0.13935032 -0.16834708 -0.0037876368
-0.13880947 -0.14297776 -0.0054178238
0.13935032 -0.14305305 -0.0037875175
-0.13880947 -0.11769619 -0.0054175854
0.13935032 -0.117759 -0.0037875175
-0.13880947 -0.092414699 -0.0054175854
0.13935032 -0.092464887 -0.0037876368
-0.13880947 -0.067133069 -0.0054177046
0.13935032 -0.067170821 -0.0037875175
-0.13880947 -0.041851532 -0.0054175854
0.13935032 -0.0418767 -0.0037875175
-0.13882418 -0.016572405 -0.0050994158
0.13936259 -0.016585037 -0.0034688711
-0.1392954 0.0087115336 0.0051031113
0.13968456 0.0087115336 0.0048956871
-0.11342998 0.033973422 -0.0079625845
0.11392479 0.033972759 -0.0080560446
-0.11373658 0.059358183 3.4570694e-06
0.11418164 0.059362482 0.00028526783
-0.08808057 0.084431775 -0.010802269
0.088603586 0.084435359 -0.010652661
-0.0881145 0.10970584 -0.0097005367
0.088626444 0.10970712 -0.009663105
-0.11377203 0.13536337 0.00092422962
0.11421232 0.13537708 0.0012814999
-0.11347029 0.16033164 -0.0069150925
0.11395878 0.16033 -0.006952405
0.13972011 0.18628798 0.0058194399
-0.13887352 0.21104938 -0.0040310621
0.13940302 0.21114862 -0.0024186373
-0.1391215 0.23671339 0.0013380051
0.13956933 0.23675273 0.0019022226
-0.11349837 0.28674364 -0.0061852932
0.11398239 0.28674364 -0.0061852932
-0.11374742 0.312617 0.00028526783
0.11419205 0.31264821 0.00062346458
-0.088233113 0.36260679 -0.0058482885
0.088704601 0.36256045 -0.0062788725
-0.088432387 0.3886323 0.000623703
0.088836223 0.38849357 -0.00057888031
-0.062933698 0.41305026 -0.0067653656
0.063423917 0.41306412 -0.0066530704
-0.037595201 0.43774927 -0.011138082
-0.063061818 0.43904755 -0.0012174845
0.038123094 0.43784696 -0.010391355
0.063511647 0.43908197 -0.00095450878
-0.063190386 0.46513274 0.0043495893
-0.037680391 0.46375349 -0.0056048632
-0.012374647 0.46329218 -0.0089343786
0.01287983 0.46322998 -0.0093830824
0.038163401 0.46381569 -0.0051554441
0.063599691 0.46519035 0.0047638416
-0.012414558 0.48930502 -0.0037499666
0.01287983 0.48924726 -0.0041435957
-0.037765864 0.48984566 -5.2809715e-05
0.038203694 0.48986495 7.8558922e-05
-0.037851635 0.5160262 0.0055178404
-0.01245445 0.51539725 0.0014321804
0.01287983 0.51534492 0.0010935068
0.038244113 0.51599723 0.0053293705
-0.13978095 0.034155071 0.015615702
0.14003222 0.034141924 0.013928175
-0.11404468 0.084866278 0.0080080032
0.11443979 0.084881365 0.0086690187
-0.1140752 0.11027549 0.0088012218
0.11446713 0.11029887 0.009557128
-0.13982302 0.16141446 0.016526461
0.14007379 0.16134432 0.015008569
-0.13934679 0.18630926 0.0062154531
-0.13951771 0.26270753 0.0099160671
0.13983342 0.26261875 0.0087634325
-0.13991687 0.28883868 0.018558145
0.14015487 0.28871652 0.017114639
-0.11399819 0.33859438 0.0068000555
0.11440258 0.33866054 0.007460475
-0.11424921 0.36467284 0.013322115
0.11461458 0.36478314 0.014345169
-0.11450197 0.39085683 0.019888878
0.11482686 0.39101282 0.0212394
-0.088633046 0.41476306 0.0071399212
0.088992268 0.41464448 0.0061775446
-0.088833913 0.44099477 0.013663054
0.089150697 0.44091311 0.01303792
-0.089036152 0.46733356 0.020231128
0.089310229 0.4672938 0.019945979
-0.063319817 0.49130923 0.0099539757
0.06368804 0.49138948 0.0105021
-0.063449249 0.51757199 0.0155586
0.063776687 0.51768017 0.016260624
-0.063579127 0.54392415 0.021182537
-0.037937693 0.54229546 0.011107326
-0.012494612 0.54157495 0.0066492558
0.01287983 0.5415259 0.0063474178
0.038284659 0.54221302 0.010596633
0.063865662 0.54406261 0.022039056
-0.038024042 0.56865418 0.016716123
-0.012534903 0.56783575 0.01188302
0.01287983 0.56779093 0.011618257
0.03832534 0.5685128 0.0158813
-0.038110983 0.59510589 0.022362828
-0.012575321 0.59418005 0.017133713
0.01287983 0.59414309 0.016924739
0.038369812 0.59498119 0.021658421
-0.012615869 0.62060839 0.022400975
0.01287983 0.62057662 0.022229552
-0.16585007 -0.70620811 0.027226329
0.16612898 -0.70645118 0.02835393
-0.16585007 -0.68067539 0.027226567
0.16612898 -0.68090963 0.028353691
-0.16585007 -0.65514249 0.027226448
0.16612898 -0.65536809 0.028353691
-0.16585007 -0.62960964 0.027226448
0.16612898 -0.62982661 0.02835381
-0.16585007 -0.60407674 0.027226448
0.16612898 -0.60428494 0.028353691
-0.16585007 -0.57854396 0.027226567
0.16612898 -0.57874352 0.02835381
-0.16585007 -0.55301106 0.027226329
0.16612898 -0.55320209 0.02835381
-0.16585007 -0.52747822 0.027226329
0.16612898 -0.52766043 0.02835381
-0.16585007 -0.50194538 0.027226329
0.16612898 -0.502119 0.02835381
-0.16585007 -0.47641256 0.027226329
0.16612898 -0.47657752 0.02835393
-0.16585007 -0.45087966 0.027226329
0.16612898 -0.45103583 0.02835381
-0.16585007 -0.42534685 0.027226329
0.16612898 -0.42549437 0.02835381
-0.16584907 -0.39981166 0.027207494
0.16612898 -0.3999528 0.02835381
-0.16584907 -0.3742789 0.027207494
0.16612898 -0.37441134 0.02835381
-0.16584907 -0.34874627 0.027207375
0.16612898 -0.34886983 0.02835381
-0.16584907 -0.32321352 0.027207375
0.16612898 -0.3233282 0.02835381
-0.16584907 -0.29768091 0.027207494
0.16612898 -0.29778668 0.02835381
-0.16584907 -0.27214816 0.027207494
0.16612898 -0.27224526 0.02835381
-0.16584907 -0.24661539 0.027207375
0.16612898 -0.24670364 0.02835381
-0.16584907 -0.22108279 0.027207375
0.16612898 -0.22116219 0.02835381
-0.16584907 -0.19555005 0.027207375
0.16612898 -0.19562058 0.028353691
-0.16584907 -0.17001732 0.027207375
0.16612898 -0.1700791 0.02835381
-0.16584907 -0.14448455 0.027207375
0.16612898 -0.14453764 0.02835381
-0.16584907 -0.11895195 0.027207494
0.16612898 -0.11899606 0.02835381
-0.16584907 -0.093419313 0.027207375
0.16612898 -0.093454607 0.02835381
-0.16584907 -0.067886561 0.027207375
0.16612898 -0.067913115 0.02835393
-0.16584907 -0.042353917 0.027207375
0.16612987 -0.042371769 0.028372884
-0.16586244 -0.016823106 0.027455568
0.16614223 -0.016832214 0.028640628
-0.16643664 0.0087114824 0.038111567
0.16667919 0.0087115848 0.040266275
-0.14026962 0.059761226 0.026195288
0.14047645 0.059750229 0.025470138
-0.14076141 0.085532248 0.036843061
0.14092308 0.085537471 0.037073731
-0.14078538 0.11115509 0.03736186
0.14094602 0.11116439 0.037669301
-0.14030224 0.13636327 0.026901841
0.14050804 0.13633974 0.026290774
-0.16646461 0.18805596 0.038630605
-0.16590051 0.21303201 0.028162718
0.16617668 0.2131073 0.029386163
-0.16627619 0.23905492 0.035134196
0.16653083 0.23918812 0.03705442
-0.14031813 0.31510735 0.027245641
0.14052054 0.31504923 0.026615262
-0.14072061 0.34151256 0.035959601
0.14088759 0.34153175 0.036151528
-0.11481601 0.41733819 0.028047919
0.11504003 0.41735241 0.028162718
-0.11515231 0.44402084 0.036785364
0.11525825 0.44381979 0.035249233
-0.089238614 0.49377418 0.026806355
0.089469984 0.49378258 0.026863575
-0.089441881 0.52032006 0.033407569
0.08963041 0.52038199 0.033810258
-0.089646563 0.54697508 0.04005456
-0.063716948 0.57042116 0.027150154
0.063954934 0.57053763 0.027837873
-0.063869864 0.59712595 0.033771992
0.06404452 0.59710538 0.033656836
-0.03819792 0.62164444 0.028009892
0.038414441 0.62154216 0.027455807
0.064134434 0.62376672 0.039496303
-0.038285162 0.64827389 0.033676147
-0.012656545 0.64712089 0.027684927
0.01287983 0.64709514 0.027551174
0.038459226 0.6481964 0.033273578
-0.038372695 0.67499429 0.039361715
-0.012697352 0.67371815 0.032985926
0.01287983 0.67369902 0.032889962
0.038504168 0.6749444 0.039111733
-0.012738289 0.70040065 0.038303733
0.01287983 0.7003926 0.038265347
-0.16730489 0.034452222 0.054224253
0.16722083 0.034435038 0.051993251
-0.16732161 0.16317001 0.054535031
0.16723247 0.16306417 0.052245378
0.16670319 0.18817209 0.040786266
-0.16687389 0.26550248 0.046225786
0.16697408 0.26553518 0.046650767
-0.1411261 0.36805868 0.04473865
0.14125676 0.36816698 0.045742631
-0.14153284 0.39474332 0.053544879
0.1416288 0.39495856 0.055408955
-0.11549041 0.47084445 0.045568943
0.11555342 0.4707427 0.04483521
-0.11582951 0.49780709 0.054379582
0.1158503 0.49782121 0.054476619
0.089791954 0.54709631 0.040805459
-0.08985205 0.57373673 0.046728134
0.089953735 0.57392019 0.047810674
-0.090113357 0.60092247 0.055214763
0.090116203 0.60085702 0.054845572
-0.064022958 0.62393385 0.040401101
-0.064177111 0.65085268 0.047076106
0.064242199 0.6507411 0.046496272
-0.064331442 0.67787594 0.053758502
0.064350419 0.67782921 0.053525567
-0.038460534 0.70180649 0.045066833
0.038549267 0.7017864 0.044970393
-0.038548671 0.72871053 0.05079174
-0.012779359 0.7271688 0.043638825
0.01287983 0.7271688 0.043638825
0.038594529 0.72872305 0.050849795
-0.038637113 0.7557072 0.056536078
-0.012820557 0.75402284 0.048990965
0.01287983 0.75403136 0.049029589
0.038639948 0.75575501 0.05674994
-0.012861891 0.78096318 0.054360032
0.01287983 0.78098106 0.054437757
-0.16825557 0.06046449 0.071866393
0.16814147 0.06046531 0.071925402
-0.16824393 0.13808557 0.071650743
0.16812606 0.13808337 0.071591973
-0.16766021 0.29241732 0.060818315
0.16753489 0.29224584 0.058792591
-0.14214203 0.42210317 0.066734314
0.14200301 0.42190573 0.065131307
-0.11617118 0.52491558 0.063256264
0.1161495 0.52505988 0.064193487
-0.11653356 0.55224776 0.072671056
0.11645044 0.55245733 0.07396698
-0.090386838 0.6283114 0.064095855
0.090310887 0.62816018 0.063275933
-0.090661168 0.65584272 0.073004842
0.090536028 0.65584648 0.073024392
-0.064486831 0.70501131 0.060487032
0.0644591 0.70503169 0.060584545
-0.064642847 0.73225653 0.06724298
0.064568542 0.73235351 0.067692757
-0.064799488 0.75961167 0.074026108
-0.038725857 0.7827968 0.062300086
0.038685527 0.78288251 0.062670946
-0.03881491 0.80998009 0.068084478
-0.012903357 0.80799037 0.059746981
0.01287983 0.8080228 0.059883237
0.03873127 0.8101061 0.068613052
-0.038911227 0.83736849 0.074340463
-0.012944806 0.83509994 0.065131187
0.01287983 0.83514792 0.065326571
0.038777173 0.83742648 0.074576259
-0.012986541 0.86230171 0.070552468
0.01287983 0.86236143 0.070787907
-0.013016153 0.91507077 0.074399233
-0.012976283 0.93953156 0.069220066
0.01287983 0.9395858 0.069415808
-0.013006175 0.99237949 0.07310307
0.01287983 0.99245435 0.073358297
-0.19487411 -0.69245797 0.083916187
0.19489801 -0.69335866 0.088249207
-0.19487411 -0.66648877 0.083916187
0.19489801 -0.66735595 0.088249207
-0.19487411 -0.64051962 0.083916187
0.19489801 -0.64135349 0.088249207
-0.19487411 -0.61455035 0.083916306
0.19489801 -0.6153509 0.088249207
-0.19487411 -0.58858114 0.083916306
0.19489801 -0.58934832 0.088249207
-0.19487411 -0.56261176 0.083916187
0.19489801 -0.56334561 0.088249087
-0.19487411 -0.53664255 0.083916187
0.19489801 -0.53734303 0.088249087
-0.19487411 -0.51067328 0.083916306
0.19489801 -0.51134044 0.088249087
-0.19487411 -0.48470411 0.083916187
0.19489801 -0.48533785 0.088249087
-0.19487411 -0.45873484 0.083916187
0.19489801 -0.45933524 0.088249207
-0.19487411 -0.43276566 0.083916187
0.19489801 -0.43333265 0.088249326
-0.19487411 -0.40679631 0.083916187
0.19489801 -0.4073301 0.088249326
-0.19487411 -0.3808271 0.083916187
0.19489801 -0.38132745 0.088249326
-0.19487411 -0.35485786 0.083916306
0.19489801 -0.35532486 0.088249326
-0.19487411 -0.32888862 0.083916187
0.19489801 -0.32932237 0.088249326
-0.19487411 -0.30291939 0.083916306
0.19489801 -0.30331969 0.088249326
-0.19487411 -0.27695024 0.083916306
0.19489801 -0.27731711 0.088249326
-0.19487411 -0.25098082 0.083916187
0.19489801 -0.25131446 0.088249326
-0.19487411 -0.22501168 0.083916187
0.19489801 -0.22531189 0.088249326
-0.19487411 -0.19904242 0.083916306
0.19489801 -0.1993092 0.088249087
-0.19487411 -0.17307313 0.083916187
0.19489801 -0.17330663 0.088249087
-0.19487411 -0.14710389 0.083916187
0.19489801 -0.14730404 0.088249087
-0.19487411 -0.12113475 0.083916306
0.19489801 -0.12130141 0.088249087
-0.19487411 -0.095165402 0.083916187
0.19489801 -0.095298812 0.088249087
-0.19487411 -0.069196202 0.083916306
0.19489801 -0.069296211 0.088249087
-0.19487411 -0.043226857 0.083916187
0.19489801 -0.043293662 0.088249087
-0.19487411 -0.017257713 0.083916187
0.19489801 -0.017291117 0.088249207
-0.16921523 0.086752221 0.089676142
-0.16917571 0.11274321 0.088942528
-0.19490455 0.21649583 0.08441031
0.19494073 0.21678129 0.08904171
-0.16845453 0.31957045 0.075558782
0.16834743 0.31964675 0.076384902
-0.16925479 0.34696159 0.090409994
-0.14282528 0.44987601 0.081527114
0.14263105 0.44986561 0.081448078
-0.11710495 0.58064455 0.087516308
0.11683719 0.58047688 0.086526394
-0.090936944 0.68352067 0.081961274
0.090762928 0.68369848 0.082849741
0.064678147 0.75978708 0.074812055
-0.065002814 0.78753781 0.082829833
0.06478852 0.78734189 0.081980944
0.06493938 0.81563431 0.091779113
-0.039016102 0.86499441 0.081152081
0.038823694 0.86485916 0.080619574
-0.039121401 0.89273238 0.087991595
-0.013028409 0.88959163 0.075991631
0.01287983 0.88966388 0.076266885
0.038878921 0.89268053 0.087793589
-0.039059266 0.91764569 0.083955884
0.01287983 0.91513973 0.074654698
0.038847249 0.91757107 0.083678961
-0.038981803 0.94222105 0.078924537
0.038808674 0.94214994 0.078668237
-0.039072353 0.96982694 0.084805727
-0.013018874 0.96696353 0.074752808
0.01287983 0.96703088 0.074988723
0.038854092 0.9697594 0.084568501
-0.03906535 0.99566996 0.084351182
0.038849834 0.99557179 0.084015131
0.1691135 0.086828232 0.092970729
0.16906396 0.11283426 0.091898322
0.16916858 0.34733704 0.09416306
-0.14351274 0.47788915 0.09641099
0.1433174 0.47828683 0.099279881
-0.11767988 0.60928619 0.10245335
0.11738792 0.60963303 0.1044122
-0.091293082 0.71187866 0.093527079
0.090991616 0.71171767 0.092752218
-0.091754049 0.74114859 0.10849726
-0.065210864 0.81564856 0.091838598
-0.065420032 0.8439101 0.10089576
0.065092646 0.84411657 0.10173452
-0.065577984 0.95020533 0.1077354
0.065177023 0.95006084 0.10721457
0.091379315 0.7413733 0.1095401
-0.065735653 0.87348187 0.11456263
0.065292016 0.87351245 0.11468363
-0.065641895 0.92479843 0.11050332
0.065219 0.92464703 0.10994136
-0.065735191 0.97829682 0.11454272
0.065289527 0.97829086 0.11452258
-0.19807689 0.19329858 0.13592291
0 0 0 1 0 0 0 1 0 0 0 1 0 0 0 0 0 857 1 0 0
