ply
format ascii 1.0
comment PCL generated
element vertex 1028
property float x
property float y
property float z
element camera 1
property float view_px
property float view_py
property float view_pz
property float x_axisx
property float x_axisy
property float x_axisz
property float y_axisx
property float y_axisy
property float y_axisz
property float z_axisx
property float z_axisy
property float z_axisz
property float focal
property float scalex
property float scaley
property float centerx
property float centery
property int viewportx
property int viewporty
property float k1
property float k2
end_header
0.010699444 -0.39175582 -0.2850194
0.030414581 -0.39211994 -0.28286886
0.050162684 -0.39248264 -0.28072762
0.010699444 -0.37196064 -0.28561687
0.030410856 -0.37232658 -0.28335285
0.050157383 -0.3726953 -0.28107214
0.010699444 -0.35256431 -0.28368378
0.030426648 -0.35293099 -0.28130162
0.030501727 -0.43364179 -0.27154815
0.050343215 -0.43411222 -0.26900184
0.030440595 -0.41243342 -0.27948964
0.050213225 -0.41279551 -0.27744496
0.070115201 -0.41390774 -0.27116275
0.070030734 -0.39348307 -0.27482033
0.09001594 -0.39462763 -0.26806176
0.070015341 -0.37359822 -0.27548683
0.090007216 -0.37475273 -0.26834512
-0.0090656215 -0.3536883 -0.27638304
0.050190791 -0.35330039 -0.27890217
0.070060045 -0.35412434 -0.27355099
0.090079062 -0.35528511 -0.2660116
-0.0090421969 -0.33347821 -0.27942574
0.010699444 -0.33347821 -0.27942574
0.030460373 -0.3338446 -0.27692044
0.050259948 -0.33421171 -0.27441025
0.070161238 -0.33497834 -0.26916909
-0.028976265 -0.31546837 -0.26692748
-0.0090926578 -0.31464475 -0.2728709
0.010699444 -0.31464475 -0.2728709
0.030511823 -0.31500977 -0.27023709
0.050365031 -0.31537727 -0.26758492
0.030611128 -0.45617896 -0.25733709
0.050570264 -0.45677215 -0.2542547
0.070284858 -0.43507022 -0.26381624
0.010699444 -0.41555211 -0.26187575
0.090114832 -0.41502547 -0.2648499
0.11015795 -0.39600444 -0.25993264
-0.0092513142 -0.37735295 -0.25226068
0.11011107 -0.37591574 -0.26115072
0.11021587 -0.3564527 -0.25842786
-0.029216938 -0.33759251 -0.25129533
0.090226345 -0.33613974 -0.26122844
0.1104161 -0.33731025 -0.25322545
-0.0491453 -0.31745541 -0.25258684
0.070319206 -0.31610557 -0.26232886
0.090451106 -0.3172695 -0.25392902
-0.069085121 -0.29747137 -0.25286043
-0.049012806 -0.29675636 -0.25832403
-0.029065803 -0.29639152 -0.26111186
0.030582067 -0.29639152 -0.26111186
0.050507613 -0.29675636 -0.25832403
0.070537873 -0.29747137 -0.25286043
-0.0091617638 -0.29602745 -0.26389372
0.010699444 -0.29602745 -0.26389372
-0.029235434 -0.27786592 -0.25009418
-0.0092458939 -0.2775124 -0.25296485
0.010699444 -0.27751082 -0.25297785
0.030666783 -0.27786437 -0.25010705
-0.12977016 -0.43999711 -0.23714924
0.010699444 -0.43994349 -0.23743939
-0.12940283 -0.41872299 -0.24396598
-0.12922694 -0.3981556 -0.24722993
-0.10973234 -0.39997023 -0.23651552
-0.12921143 -0.37811962 -0.24751806
-0.10960688 -0.37945899 -0.23923218
0.13062547 -0.37812811 -0.24746561
-0.12934487 -0.35851359 -0.24504173
-0.10948167 -0.3589907 -0.24194288
-0.029376514 -0.35914654 -0.24093044
0.13073985 -0.3585217 -0.24498928
-0.12963095 -0.33928376 -0.23973274
-0.10935672 -0.33856484 -0.2446481
-0.089657329 -0.33974275 -0.2365948
-0.069531545 -0.33948413 -0.23836255
-0.049364712 -0.33879328 -0.2430861
0.13098569 -0.33929342 -0.23966682
-0.1093234 -0.31845549 -0.24536955
-0.089357965 -0.31859365 -0.24437273
-0.069266163 -0.31823215 -0.24698126
0.1107205 -0.31846276 -0.2453171
-0.10981105 -0.29983336 -0.23481166
-0.089373119 -0.29863366 -0.2439791
0.090757489 -0.29863366 -0.2439791
0.11112486 -0.29983336 -0.23481166
-0.069433846 -0.27892011 -0.24153543
-0.049269013 -0.27821872 -0.24723005
0.050678417 -0.27821872 -0.24723005
0.07079941 -0.27892011 -0.24153543
-0.049535356 -0.259561 -0.23569691
-0.029412605 -0.25922725 -0.23858666
-0.0093343845 -0.25889441 -0.24146962
0.010699444 -0.25889137 -0.24149597
0.030755367 -0.25922582 -0.23859966
0.050855979 -0.259561 -0.23569691
0.030873854 -0.48292157 -0.22320771
-0.13055088 -0.46285245 -0.22266102
-0.11010971 -0.46175846 -0.22834539
-0.15088657 -0.44314504 -0.2201103
-0.10998346 -0.44111857 -0.23107886
-0.15033117 -0.42135 -0.22912884
-0.10985807 -0.42052412 -0.23379362
-0.15003577 -0.4004088 -0.23392582
-0.090288222 -0.40273273 -0.22020376
-0.029682249 -0.40258557 -0.22107244
-0.0094231525 -0.40108407 -0.22993851
-0.15006916 -0.3804045 -0.23338342
-0.090182349 -0.38209051 -0.22295451
-0.070043795 -0.38228893 -0.22172689
-0.049789306 -0.38180822 -0.22470057
-0.029531457 -0.38081139 -0.23086679
-0.15027559 -0.36082467 -0.23003125
-0.089947253 -0.36097375 -0.22906244
-0.069790535 -0.36083683 -0.22995162
-0.04957962 -0.36024743 -0.23378026
-0.15066051 -0.34161684 -0.22378123
0.151893 -0.34162655 -0.22371459
-0.13008083 -0.32039341 -0.2313838
0.13137072 -0.32040071 -0.23133075
-0.13067751 -0.30173105 -0.22031081
0.13188094 -0.30173445 -0.22028399
-0.11035316 -0.28119385 -0.22307456
0.11157662 -0.28119385 -0.22307456
-0.089821197 -0.28005299 -0.23233771
0.091115959 -0.28005299 -0.23233771
-0.09027382 -0.26130679 -0.22057807
-0.069793388 -0.26023507 -0.22985876
0.071069077 -0.26023507 -0.22985876
0.09147764 -0.26130518 -0.22059155
-0.049804077 -0.24073678 -0.22406101
-0.029591352 -0.24042255 -0.22697651
-0.0094235605 -0.24010909 -0.22988534
0.010699444 -0.24010766 -0.22989857
0.030844841 -0.24042255 -0.22697651
0.05103533 -0.24073818 -0.22404766
-0.11087346 -0.48520294 -0.21180975
-0.090713412 -0.48573378 -0.20915711
-0.15169154 -0.46585885 -0.20703912
-0.090607159 -0.46492007 -0.2119174
0.010699444 -0.46477249 -0.2126838
-0.090500623 -0.44414732 -0.21468532
-0.0095855119 -0.44522592 -0.20884705
-0.17187078 -0.42495537 -0.2087661
-0.090394311 -0.42341822 -0.21744752
-0.070529327 -0.42545241 -0.20595872
-0.05019344 -0.42523235 -0.20720124
-0.029829621 -0.4244712 -0.21150041
-0.0095056025 -0.42310306 -0.21922779
-0.17160493 -0.40401989 -0.21260333
-0.070290796 -0.40383327 -0.21370518
-0.049993638 -0.40346959 -0.21585274
-0.17156954 -0.38368127 -0.21311402
-0.17176156 -0.36385587 -0.21034265
-0.15123802 -0.32274628 -0.21440363
0.15239692 -0.32275188 -0.2143631
-0.13132796 -0.28302106 -0.20824027
0.13243909 -0.28302595 -0.20819974
-0.11089957 -0.26238441 -0.2112447
0.11203195 -0.26238441 -0.2112447
-0.090730533 -0.24239096 -0.2087121
-0.070156179 -0.24138162 -0.21807706
0.071341164 -0.24138162 -0.21807706
0.091843009 -0.24238947 -0.20872569
-0.070522256 -0.22235748 -0.20618856
-0.050075512 -0.22174516 -0.21230745
-0.029771701 -0.22144935 -0.21526241
-0.0095135355 -0.22115564 -0.21819746
0.010699444 -0.22115433 -0.21821082
0.03093512 -0.22145075 -0.21524906
0.051216289 -0.22174644 -0.2122941
0.071615718 -0.22235748 -0.20618856
-0.0096043153 -0.20203206 -0.20640445
0.010699444 -0.20203206 -0.20640445
-0.13170473 -0.48731688 -0.20124805
-0.070944168 -0.48907039 -0.19248641
-0.0097394465 -0.48979822 -0.18885052
0.010699444 -0.48811594 -0.19725549
-0.070857674 -0.46811888 -0.19529545
-0.050579 -0.46904078 -0.19050574
-0.030113954 -0.46855441 -0.19303238
-0.0096635493 -0.46746179 -0.19870996
-0.17237848 -0.44659474 -0.20143795
-0.070760898 -0.44714901 -0.19843817
-0.050388597 -0.44709128 -0.19875073
-0.029973481 -0.44646209 -0.20215642
0.15352429 -0.36645791 -0.19344163
-0.17222081 -0.34455195 -0.20371389
0.17396984 -0.34615424 -0.19275939
-0.17297125 -0.3257283 -0.1928823
0.17396984 -0.32574537 -0.19275951
-0.15196055 -0.30403948 -0.20267105
0.15302987 -0.30404657 -0.20261705
-0.15271394 -0.28521377 -0.19043732
0.15368986 -0.28522214 -0.19036901
-0.1319844 -0.2641381 -0.19605803
0.13300177 -0.26414275 -0.19601715
-0.1114509 -0.24340439 -0.19930768
0.11249193 -0.24340597 -0.19929409
-0.091190875 -0.22330174 -0.19675219
0.092211701 -0.22330174 -0.19675219
-0.070891656 -0.20316026 -0.19419158
-0.050349399 -0.2025823 -0.2004478
-0.029953673 -0.20230564 -0.20344305
0.031026106 -0.2023069 -0.20342958
0.051398672 -0.2025823 -0.2004478
0.071892768 -0.20316026 -0.19419158
-0.030137494 -0.18299019 -0.19150329
-0.0096959164 -0.18273595 -0.19450533
0.010699444 -0.18273595 -0.19450533
0.03111802 -0.18299133 -0.19148958
-0.050969481 -0.51340729 -0.17359757
-0.030413173 -0.51340729 -0.17359757
-0.0098568639 -0.51340729 -0.17359757
0.010699444 -0.51342171 -0.17352831
0.031255968 -0.51341313 -0.17356968
-0.050763614 -0.49106684 -0.18251169
-0.030251171 -0.49074486 -0.18411994
0.051775217 -0.49237201 -0.17599058
-0.17361639 -0.47037539 -0.18357027
0.072324596 -0.47192994 -0.17549288
0.092877381 -0.45145467 -0.17513335
-0.1943862 -0.43008396 -0.17979968
0.11342826 -0.43093938 -0.17496753
-0.19377802 -0.4082374 -0.18770027
0.13397914 -0.41041249 -0.17485678
0.15452053 -0.38985032 -0.17495358
-0.19381809 -0.3878738 -0.18717968
-0.19419648 -0.36817878 -0.18226421
0.17505872 -0.3692852 -0.17507803
-0.17386046 -0.30700013 -0.18004763
0.17476033 -0.30701631 -0.17992365
-0.15347438 -0.26621285 -0.17808974
0.154356 -0.26622248 -0.17800689
-0.13264622 -0.24507827 -0.18377638
0.13357033 -0.24508563 -0.18370771
-0.11200728 -0.22425145 -0.18726182
0.11295557 -0.22425288 -0.18724811
-0.11256938 -0.20492461 -0.17509198
-0.091655947 -0.20403996 -0.18466914
0.092583761 -0.20403996 -0.18466914
0.113424 -0.20492586 -0.17507815
-0.071264014 -0.18378651 -0.18209898
-0.050625447 -0.18324488 -0.18849468
0.051582914 -0.18324602 -0.18848097
0.072172672 -0.18378884 -0.18207169
-0.050904326 -0.1637328 -0.1764189
-0.030322991 -0.16349915 -0.17945504
-0.0097884545 -0.16326594 -0.18248415
0.010699444 -0.16326594 -0.18248415
0.031210661 -0.16349915 -0.17945504
0.051768836 -0.16373399 -0.17640519
0.052044004 -0.51653862 -0.15853214
0.072708853 -0.49580178 -0.15885425
0.093366586 -0.47505662 -0.15924621
-0.19527052 -0.45271489 -0.16831195
0.11401291 -0.45429155 -0.15977788
0.19674319 -0.45450363 -0.15863025
0.13465105 -0.4335348 -0.16030943
0.19678491 -0.43393865 -0.15802813
0.1552735 -0.41276258 -0.16098046
0.17588477 -0.39199844 -0.16166496
0.19647488 -0.37122124 -0.162503
-0.19489561 -0.34901756 -0.17318201
0.19574076 -0.34902975 -0.17309904
-0.1958489 -0.330174 -0.16079867
0.19660167 -0.33019143 -0.1606729
-0.17475735 -0.28808793 -0.1671021
0.17555851 -0.28810507 -0.16696298
-0.15424275 -0.24703583 -0.16561258
0.15502764 -0.2470434 -0.16554296
-0.13331492 -0.22584221 -0.17136669
0.13414355 -0.22584918 -0.17129707
-0.13398993 -0.20642585 -0.1588403
0.13472278 -0.20643368 -0.15875626
-0.11313601 -0.18541873 -0.16282392
-0.092124753 -0.18460017 -0.1724894
0.092959225 -0.18460143 -0.17247558
0.11389674 -0.18542099 -0.16279614
-0.092597865 -0.16498157 -0.1601975
-0.071640208 -0.16423607 -0.1698817
0.072454825 -0.16423818 -0.16985404
0.093338154 -0.16498369 -0.1601696
-0.051185429 -0.14404151 -0.16424692
-0.030509964 -0.14382926 -0.16731083
-0.0098817283 -0.14361745 -0.17036772
0.010699444 -0.14361745 -0.17036772
0.031304255 -0.14383027 -0.16729689
0.051956236 -0.14404252 -0.16423297
0.073001504 -0.51910555 -0.14618194
0.093828514 -0.51950824 -0.14424455
0.1144862 -0.51883548 -0.14748132
0.13509375 -0.51816136 -0.15072441
0.15600927 -0.51886773 -0.14732611
0.093741022 -0.49815717 -0.14708591
0.11450902 -0.49819681 -0.14688838
0.13512109 -0.49754742 -0.15013289
0.15568437 -0.49690238 -0.1533556
0.17619765 -0.49625608 -0.15658462
0.1144623 -0.47720119 -0.14810252
0.13514844 -0.47692433 -0.1495409
0.15571618 -0.47630385 -0.15276504
0.17623393 -0.47568217 -0.15599549
0.19756746 -0.47746471 -0.14673305
0.13516861 -0.45626363 -0.14910376
0.15574802 -0.45569634 -0.15217447
0.1762702 -0.4550992 -0.15540624
0.15577987 -0.43507966 -0.15158331
0.17630653 -0.43450734 -0.15481651
0.17634286 -0.41390628 -0.15422678
0.19682568 -0.41336218 -0.15743959
0.19686647 -0.39277673 -0.15685093
-0.19686103 -0.31123972 -0.14765084
0.19751269 -0.31125638 -0.14752364
-0.17566398 -0.26899272 -0.15401602
0.17636362 -0.26900735 -0.15388954
-0.15501751 -0.22767702 -0.15303218
0.15570635 -0.22768545 -0.1529479
-0.13467203 -0.1868279 -0.14618194
0.13530684 -0.18683383 -0.14611113
-0.11370788 -0.16573247 -0.15044272
0.1143733 -0.16573465 -0.15041471
-0.093075365 -0.14518166 -0.14779186
-0.072019443 -0.14450446 -0.15756583
0.072739579 -0.14450735 -0.15752375
0.093720593 -0.14518458 -0.14774966
-0.051623184 -0.1245806 -0.14529133
-0.030793969 -0.12436067 -0.14886415
-0.010018534 -0.12413076 -0.15259635
0.010699444 -0.12413076 -0.15259635
0.031446259 -0.12436154 -0.14884996
0.052248083 -0.12458161 -0.14527714
0.21970427 -0.43909803 -0.12888825
-0.21812139 -0.41602868 -0.14169502
0.21873042 -0.41605505 -0.14153898
-0.21821988 -0.3954148 -0.14053178
0.21882106 -0.3954424 -0.14036143
-0.21885489 -0.37575859 -0.13303256
0.2193995 -0.37578711 -0.13284731
-0.19788311 -0.29211906 -0.13437331
0.19843265 -0.29213491 -0.13424504
-0.17657951 -0.24970981 -0.14080143
0.1771775 -0.24972361 -0.14067364
-0.17750409 -0.23023659 -0.12745619
0.17799942 -0.23024938 -0.12732732
-0.15580045 -0.20813677 -0.14031887
0.15639146 -0.20814469 -0.14023364
-0.15659082 -0.18841112 -0.12748492
0.1570823 -0.18841717 -0.12741339
-0.1353606 -0.16704422 -0.13340354
0.13589707 -0.16704962 -0.13333237
-0.11437442 -0.14599782 -0.1360116
0.11492986 -0.14600176 -0.13595462
-0.09383823 -0.12564719 -0.12797189
-0.072625309 -0.12503645 -0.13788986
0.07319399 -0.12503904 -0.13784719
0.094330907 -0.12564984 -0.12792897
-0.051910244 -0.10447624 -0.1328615
-0.030992504 -0.10430881 -0.13596892
-0.010122553 -0.10414093 -0.1390835
0.010699444 -0.10414093 -0.1390835
0.031545419 -0.10430881 -0.13596892
0.052439455 -0.10447706 -0.13284707
-0.052159734 -0.54507262 -0.12205815
-0.031206895 -0.54507565 -0.12204385
-0.010253946 -0.54508197 -0.12201512
0.010699444 -0.54508805 -0.12198639
0.031653389 -0.54509741 -0.12194312
-0.073007062 -0.52340579 -0.12549198
-0.21999513 -0.35685939 -0.11956728
0.22044286 -0.35689947 -0.11929345
-0.19891532 -0.27280912 -0.12096453
0.19936173 -0.27282408 -0.12083483
-0.17843784 -0.21057001 -0.11397874
0.17882951 -0.21058199 -0.11384845
-0.15738873 -0.16849723 -0.11452842
0.1577805 -0.16850272 -0.11445618
-0.13646349 -0.14759651 -0.11293638
0.13684313 -0.14760244 -0.11284947
-0.11521722 -0.12627584 -0.11776483
0.11563277 -0.12628028 -0.11769247
-0.094326168 -0.10542279 -0.11529493
-0.073012799 -0.10488344 -0.12530529
0.073484622 -0.10488572 -0.12526226
0.094721273 -0.10542526 -0.11525142
-0.073404372 -0.084542654 -0.11258888
-0.05219996 -0.084185772 -0.12031651
-0.031185202 -0.084040903 -0.12345278
-0.010218679 -0.083895765 -0.12659621
0.010699444 -0.083896361 -0.12658191
0.031641766 -0.084040903 -0.12345278
0.052632596 -0.084186412 -0.1203022
0.073777974 -0.08454407 -0.11255991
-0.010315699 -0.06346263 -0.11399329
0.010699444 -0.063463226 -0.11397874
-0.073814474 -0.54998446 -0.099270225
0.17955722 -0.52828193 -0.10203183
0.221991 -0.46548674 -0.099182367
-0.22127126 -0.33797538 -0.10449672
0.22160548 -0.33801779 -0.10419059
-0.19995669 -0.25330555 -0.10743678
0.20030004 -0.2533212 -0.10729158
-0.17938091 -0.19070739 -0.10036683
0.17966788 -0.19071859 -0.10023522
-0.13722751 -0.12744635 -0.098758101
0.13749737 -0.12745094 -0.098684907
-0.11581793 -0.10599055 -0.10475886
0.11613339 -0.10599449 -0.10468602
-0.094818689 -0.085008733 -0.10249901
0.095115297 -0.085010745 -0.10245526
-0.073799171 -0.064010218 -0.099767327
-0.052492693 -0.063707173 -0.1076405
-0.031379692 -0.063584715 -0.11082053
0.031739123 -0.063585311 -0.11080611
0.052827537 -0.063707173 -0.1076405
0.074074417 -0.064011909 -0.099723577
-0.031575993 -0.042937778 -0.098070264
-0.010413735 -0.042839661 -0.10125804
0.010699444 -0.042839661 -0.10125804
0.031837273 -0.042938329 -0.09805572
-0.11687983 -0.55375701 -0.081767917
-0.095279001 -0.55186623 -0.090539575
-0.11686958 -0.53244764 -0.081990123
-0.095221251 -0.53035867 -0.0920403
-0.22256163 -0.31888136 -0.089258313
0.2227788 -0.31892183 -0.088948727
-0.20100957 -0.23360869 -0.093759418
0.20124672 -0.23362193 -0.093627334
-0.1587311 -0.14899626 -0.092731118
0.15895514 -0.14900142 -0.092657447
-0.13793738 -0.10702375 -0.085584641
0.13810652 -0.10702855 -0.085496068
-0.11642372 -0.085510127 -0.091643095
0.11663881 -0.085514195 -0.09155488
-0.095316403 -0.064402878 -0.089567661
0.095513031 -0.064403974 -0.089538217
-0.074197687 -0.043284103 -0.086825013
-0.05278784 -0.043036677 -0.094860435
0.053024523 -0.043037139 -0.094845653
0.07437332 -0.043285429 -0.086780787
-0.053085744 -0.02217219 -0.081960559
-0.031774137 -0.022097357 -0.085200548
-0.010512575 -0.022022977 -0.088418126
0.010699444 -0.022022977 -0.088418126
0.031936347 -0.022097722 -0.085185647
0.053223133 -0.022172511 -0.081945658
-0.096227936 -0.57856584 -0.065885425
0.032065559 -0.57800436 -0.068400621
-0.13861872 -0.55565965 -0.07294035
-0.13860747 -0.53428519 -0.073148847
0.20275024 -0.51320034 -0.071926117
-0.22386642 -0.29957366 -0.07384932
0.22396408 -0.29961035 -0.073551416
-0.20207304 -0.21371397 -0.079944491
0.20220394 -0.21372634 -0.079811215
-0.18097374 -0.17135715 -0.077376008
0.18108752 -0.17137206 -0.07718277
-0.15954596 -0.12863234 -0.079499602
0.15966898 -0.12863791 -0.079410434
-0.1603696 -0.10807245 -0.066125154
0.16038972 -0.10807725 -0.066035151
-0.13865489 -0.086404987 -0.072269201
0.13872159 -0.086409114 -0.072179794
-0.11703602 -0.064833224 -0.078386188
0.11714853 -0.064836018 -0.07831192
-0.095818289 -0.043601148 -0.076528668
0.095914543 -0.043602109 -0.076498866
-0.074600443 -0.022361837 -0.073745131
0.074675053 -0.022362664 -0.07371521
-0.053386465 -0.0011109151 -0.06893909
-0.031974144 -0.0010605529 -0.072209597
-0.010612345 -0.0010105073 -0.075457692
0.010699444 -0.0010102801 -0.075472593
0.032036353 -0.0010607801 -0.072194815
0.053423613 -0.0011112355 -0.06892395
-0.18250142 -0.53798962 -0.055325985
-0.16048317 -0.53612834 -0.064281106
-0.18248676 -0.51648051 -0.055537462
-0.16047116 -0.51469147 -0.064476132
-0.22518589 -0.28004879 -0.058267236
0.22516388 -0.28008357 -0.057965994
-0.20320147 -0.19367799 -0.065285921
0.20322378 -0.19369456 -0.065091014
-0.18212242 -0.15120891 -0.060796261
0.18210502 -0.15121824 -0.060660958
-0.16120124 -0.087312482 -0.052620649
0.16111746 -0.087316699 -0.052529931
-0.13937855 -0.065585561 -0.058839679
0.13934261 -0.065589681 -0.058734298
-0.11765359 -0.043955699 -0.065015912
0.11766375 -0.043958448 -0.064926028
-0.11827781 -0.022875577 -0.051500678
-0.096324928 -0.022601627 -0.063365579
0.096320331 -0.022602677 -0.063320637
0.1181834 -0.022877321 -0.051425099
-0.075006582 -0.0012399554 -0.060555577
0.074979655 -0.0012404136 -0.060525537
-0.053690039 0.020149892 -0.055794001
-0.032176044 0.020175325 -0.059095621
-0.01071306 0.020200484 -0.062374473
0.010699444 0.020200619 -0.062389612
0.032137305 0.020175187 -0.05908072
0.053625997 0.020149754 -0.05577898
0.053845089 -0.58399892 -0.041548371
0.053723589 -0.56072497 -0.049440145
-0.20462808 -0.4967058 -0.046753764
-0.22688989 -0.45516461 -0.038143992
-0.22652027 -0.26030296 -0.042508841
0.2263772 -0.26033583 -0.042203903
-0.18309744 -0.13065091 -0.046723247
0.1829727 -0.13066021 -0.046571374
-0.16204104 -0.066349834 -0.038984179
0.1618515 -0.066352673 -0.038907886
-0.14011009 -0.044563808 -0.045264125
0.13996969 -0.044567056 -0.045157671
-0.11890746 -0.0015892945 -0.037868619
-0.096836992 -0.0014014728 -0.050061703
0.096729524 -0.0014020242 -0.050031304
0.11870873 -0.0015906207 -0.037776947
-0.097353399 0.020002509 -0.036645174
-0.075416595 0.020084022 -0.0472399
0.075287528 0.020083657 -0.047194242
0.097142659 0.020002188 -0.036614537
-0.053996496 0.04161302 -0.042524099
-0.010814729 0.041612972 -0.049167156
0.032239217 0.04161302 -0.045841932
0.053830303 0.04161302 -0.042508841
-0.032379866 0.041613065 -0.045857191
0.010699444 0.041613065 -0.049182415
-0.01091737 0.063229799 -0.035833836
0.010699444 0.063229658 -0.035864592
-0.22800437 -0.24049145 -0.024982691
0.22787289 -0.24071243 -0.022774458
-0.20588437 -0.17497081 -0.030433893
0.20564406 -0.17499211 -0.030157447
-0.1840834 -0.1098847 -0.032492161
0.18384922 -0.10989299 -0.032338738
-0.16290048 -0.045186922 -0.025029063
0.16260687 -0.045191221 -0.024890065
-0.14084795 -0.023335934 -0.031570911
0.14060219 -0.023338318 -0.031463504
-0.11954398 0.019905807 -0.024087429
0.1192392 0.019905075 -0.023994803
-0.09787479 0.04161302 -0.023098826
-0.075831033 0.04161302 -0.033780575
0.075598009 0.041613065 -0.033750057
0.097560264 0.041613065 -0.023052692
-0.076249003 0.063350148 -0.020206928
-0.054305889 0.063281536 -0.029127002
-0.03258587 0.06325569 -0.032476783
0.032342102 0.06325569 -0.032476783
0.054036569 0.063281626 -0.029111743
0.075911492 0.063350283 -0.020175815
-0.011020993 0.085053928 -0.022372723
0.010699444 0.085053429 -0.022403598
0.076118447 -0.59077066 -0.011214614
0.075930446 -0.56720972 -0.019355178
-0.20711471 -0.15441969 -0.014451385
0.20675051 -0.15443805 -0.014187217
-0.18507838 -0.088905491 -0.018130779
0.18473467 -0.088913403 -0.017960191
-0.16379057 -0.023820721 -0.010575533
0.16338578 -0.023824014 -0.010435224
-0.14159392 -0.0018993393 -0.017727613
0.14124164 -0.001901079 -0.017619014
0.11977431 0.04161302 -0.010092258
-0.12018607 0.041613109 -0.010185719
-0.098401837 0.063433304 -0.0094058514
0.097981431 0.063433535 -0.0093747377
-0.076671019 0.085298285 -0.0065014362
-0.054618604 0.085158363 -0.01558578
-0.032793615 0.08510612 -0.018983245
0.032445975 0.08510612 -0.018983245
0.054244809 0.085158363 -0.01558578
0.076228373 0.08529897 -0.006454587
-0.033003364 0.10716724 -0.0053596497
-0.011125616 0.1070883 -0.0087817907
0.010699444 0.10708756 -0.0088130236
0.032550968 0.10716752 -0.0053440332
-0.2083579 -0.13363284 0.0016980171
0.20786959 -0.13364929 0.0019652843
-0.18608466 -0.067711465 -0.0036063194
0.18562928 -0.067718148 -0.003434062
-0.16468889 -0.0022341348 0.004011035
0.16417272 -0.0022364669 0.0041686296
-0.14234641 0.019749274 -0.0037630796
0.14188741 0.019748313 -0.0036377907
-0.14310724 0.04161302 0.010356188
0.14253961 0.041613065 0.010482669
-0.12083525 0.063535497 0.0038694143
0.12031533 0.063536182 0.0039640665
-0.098933421 0.085466161 0.0044050217
0.098406702 0.085466668 0.0044363737
-0.077097647 0.10746083 0.0073537827
-0.054933988 0.10724656 -0.0019292831
0.054455064 0.10724656 -0.0019292831
0.076547988 0.10746147 0.0073852539
-0.033215147 0.12944221 0.0083960295
-0.01123125 0.12933582 0.004940629
0.010699444 0.12933481 0.0049091578
0.03265686 0.12944263 0.0084117651
0.098623089 -0.5738526 0.011463881
-0.20961659 -0.1126082 0.018048882
0.20900153 -0.11262187 0.018303275
-0.18710025 -0.046297975 0.01105237
0.18653309 -0.046303824 0.01124227
-0.18812747 -0.024662577 0.025879145
0.18744631 -0.024666965 0.026070952
-0.16559745 0.019575909 0.018764734
0.16496782 0.019574719 0.018923759
-0.14387566 0.063695192 0.024616241
0.14319831 0.063696146 0.024744153
-0.12149017 0.085676216 0.018048882
0.12086113 0.085677728 0.01814425
-0.099470206 0.10771474 0.018351078
0.098836139 0.10771557 0.018382788
-0.077527963 0.12984051 0.021328807
-0.055252433 0.12954889 0.011859655
0.054667603 0.12954935 0.011875629
0.076870739 0.12984137 0.021360755
-0.055573978 0.15206887 0.025783181
-0.033428993 0.15193412 0.022285581
-0.011337915 0.1517998 0.018796563
0.010699444 0.15179917 0.018780708
0.032763787 0.15193474 0.022301555
0.054881971 0.15206927 0.025799036
-0.21088858 -0.091339789 0.034572482
0.21014652 -0.091351636 0.034829855
-0.18916543 -0.0028013475 0.040860772
0.18836807 -0.0028040446 0.041038275
-0.16651551 0.04161302 0.033671975
0.1657712 0.041613065 0.033832669
-0.14465182 0.085999072 0.039019704
0.14386363 0.086001128 0.039148927
-0.1221524 0.10803888 0.032386184
0.12141301 0.10804121 0.032482743
-0.10001227 0.13018239 0.032434344
0.0992698 0.13018334 0.032466531
-0.077962525 0.15244043 0.035441637
0.077197038 0.15244246 0.035489798
-0.055898681 0.17480922 0.039843082
-0.033644926 0.17464602 0.03631115
-0.011445622 0.17448351 0.0327878
0.010699444 0.17448261 0.032771945
0.03287163 0.17464602 0.03631115
0.05509844 0.17481002 0.039859176
-0.21217659 -0.069824979 0.05130446
0.21130481 -0.069834359 0.0515486
-0.19021314 0.019289328 0.055983186
0.18930049 0.019287955 0.056179047
-0.16744317 0.063880816 0.048735142
0.16658299 0.063882142 0.048897743
-0.14543578 0.10852801 0.053568482
0.14453568 0.10853112 0.053698897
-0.12282053 0.13062628 0.046851754
0.12197046 0.13062984 0.046965241
-0.1005597 0.15287212 0.046656966
0.099708259 0.15287404 0.046705842
-0.078401886 0.17526498 0.049710155
0.077526189 0.17526653 0.049742818
-0.056226574 0.19777361 0.054041505
-0.033862989 0.19758156 0.050474763
-0.011554508 0.19739074 0.046932817
0.010699444 0.1973891 0.046900511
0.032980662 0.19758156 0.050474763
0.055317041 0.19777456 0.054057717
-0.21347842 -0.048058212 0.068215609
0.21247664 -0.048065804 0.06846261
-0.19127303 0.041612972 0.071281552
0.19024174 0.041612927 0.071463108
-0.16837958 0.086382806 0.063940644
0.16740333 0.086385645 0.064121127
-0.14622772 0.13128571 0.068264961
0.14521377 0.13128927 0.068380356
-0.12349617 0.15344262 0.061479926
0.1225329 0.15344642 0.061578274
-0.1011132 0.17578828 0.061037421
0.10015057 0.17578977 0.061070085
-0.078845121 0.19831589 0.064104676
0.077858627 0.1983178 0.064137578
-0.056557715 0.2209655 0.068380117
-0.034083206 0.22074369 0.06477809
-0.011664345 0.22052345 0.061201334
0.010699444 0.22052237 0.061184883
0.03309077 0.22074369 0.06477809
0.055537805 0.22096646 0.068396688
-0.21479681 -0.026035875 0.08534193
0.21366225 -0.02604118 0.085575223
-0.19234304 0.064173296 0.086725593
0.19119297 0.064174846 0.086908937
-0.1693269 0.10912285 0.079323173
0.16823234 0.1091271 0.079505682
-0.14702682 0.15427464 0.083094597
0.14589955 0.15427977 0.083227515
-0.12417791 0.17649034 0.076240182
0.1231017 0.17649564 0.076356292
-0.1016716 0.19893256 0.075545073
0.1005973 0.19893423 0.075578094
-0.079292789 0.22159758 0.078643084
0.078194767 0.22160053 0.078692913
-0.056892157 0.24438784 0.082861781
-0.034305867 0.24413699 0.079240203
-0.011775275 0.24388555 0.075611234
0.010699444 0.2438843 0.075594664
0.03320197 0.2441358 0.079223633
0.055760764 0.24438894 0.082878351
-0.2161295 -0.0037528016 0.10265422
0.21486419 -0.0037569664 0.10292411
-0.1934256 0.086974129 0.10235095
0.1921543 0.086976692 0.10251939
-0.17028429 0.13210487 0.094869494
0.16907017 0.13211051 0.09505403
-0.14783593 0.17750052 0.098109365
0.14659235 0.17750588 0.098227143
-0.12486742 0.19977435 0.091168046
0.12367569 0.19977981 0.09126842
-0.10223561 0.22230902 0.090198398
0.10104851 0.22231117 0.090231776
-0.07974495 0.24511293 0.093327641
0.078533895 0.24511653 0.093377709
-0.057230316 0.26804566 0.097504616
-0.034530491 0.26776269 0.093830109
-0.011887307 0.26748061 0.0901649
0.010699444 0.26747927 0.09014833
0.033314284 0.26776141 0.093813419
0.055985954 0.26804566 0.097504616
-0.19451857 0.11001896 0.11812651
0.19312701 0.1100233 0.11831415
-0.17125195 0.15533268 0.11058187
0.16991696 0.15533978 0.11076856
-0.14865245 0.2009649 0.1132623
0.14729229 0.20097142 0.11338115
-0.12556319 0.22329652 0.10623252
0.1242562 0.22330382 0.1063509
-0.1028053 0.24592146 0.10499942
0.1015048 0.24592507 0.10504997
-0.0802022 0.26886722 0.1081773
0.078876458 0.26886979 0.10821104
-0.057571493 0.29193985 0.11227787
-0.034757372 0.29162538 0.1085664
-0.012000465 0.29131207 0.10486436
0.010699444 0.29131207 0.10486436
0.033427853 0.29162538 0.1085664
0.056213401 0.29193985 0.11227787
-0.21747935 0.018795213 0.12018943
0.21607929 0.018793061 0.12046218
-0.17222893 0.1788092 0.12644637
0.17077285 0.17881879 0.12665188
-0.14947651 0.22467127 0.12855506
0.14799868 0.22467855 0.1286751
-0.12626696 0.24706265 0.12146926
0.12484272 0.24707085 0.12158883
-0.10338143 0.26977471 0.11996758
0.10196519 0.26977745 0.12000167
-0.080663569 0.29286134 0.12316048
0.079222493 0.29286423 0.12319493
-0.057916105 0.31607512 0.12720037
-0.034986541 0.31572893 0.12345123
-0.01211476 0.31538352 0.11971188
0.010699444 0.31538352 0.11971188
0.033542436 0.31572893 0.12345123
0.056443412 0.31607676 0.12721741
-0.21884404 0.04161302 0.13791716
0.21730894 0.04161302 0.13821065
-0.1956245 0.13331263 0.13408947
0.19410913 0.1333178 0.13426173
-0.17321752 0.20254046 0.14249933
0.171638 0.2025516 0.14270711
-0.15031005 0.24862516 0.1440239
0.14871322 0.24863356 0.14414525
-0.12697802 0.27107552 0.13686442
0.12543465 0.2710835 0.13696814
-0.10396277 0.29386994 0.13507128
0.10243028 0.29387268 0.13510573
-0.081129655 0.31710026 0.13829708
0.079572462 0.31710505 0.13834882
-0.058264226 0.34045565 0.14227414
-0.03521803 0.34007654 0.13848698
-0.012230215 0.33969849 0.13470948
0.010699444 0.33969849 0.13470948
0.03365818 0.34007654 0.13848698
0.05667549 0.34045732 0.14229155
-0.2202265 0.064705603 0.15587568
0.21855339 0.064707801 0.15617287
-0.19674122 0.15685776 0.15020788
0.19510189 0.15686461 0.15038192
-0.17421687 0.22652936 0.15872657
0.17251161 0.2265411 0.1589191
-0.15115236 0.27282983 0.15965462
0.14943522 0.27283928 0.15977728
-0.12769651 0.29533899 0.15242016
0.12603344 0.2953479 0.15252471
-0.10455007 0.31821182 0.15032971
0.10290066 0.31821677 0.15038192
-0.08160051 0.34158793 0.15358865
0.079925619 0.34159318 0.15364099
-0.058586821 0.36494893 0.15624273
-0.035444628 0.36462146 0.15320492
-0.01234684 0.364261 0.14985979
0.010699444 0.36426291 0.14987731
0.033771481 0.36462146 0.15320492
0.056890283 0.36494893 0.15624273
-0.035565242 0.38859814 0.16103923
-0.012404456 0.38817155 0.15734422
0.010699444 0.38817155 0.15734422
0.033831786 0.38859814 0.16103923
-0.22162436 0.088077769 0.17403436
0.21981293 0.088082761 0.17435277
-0.19787131 0.18066022 0.1665194
0.19610544 0.18066749 0.16667783
-0.17522714 0.25078037 0.1751312
0.17339475 0.25079277 0.17530811
-0.15200348 0.29728913 0.17544985
0.15016401 0.2972981 0.17555606
-0.12842254 0.319857 0.1681391
0.12663783 0.31986505 0.1682272
-0.10514341 0.34280437 0.16574538
0.10337535 0.34280977 0.16579807
-0.10549037 0.36694446 0.17475975
-0.081957512 0.36591241 0.16518259
0.080192566 0.36591423 0.16520011
0.10365239 0.36694825 0.17479491
-0.082270391 0.39024994 0.17534375
-0.058783129 0.38902599 0.16474319
0.057021156 0.38902599 0.16474319
0.080427639 0.39025402 0.17537892
-0.059102409 0.41388956 0.1785686
-0.035774302 0.41340294 0.17461812
-0.012508185 0.41293517 0.17081928
0.010699444 0.41293517 0.17081928
0.033936456 0.41340518 0.17463589
0.057234284 0.41389167 0.17858624
-0.22322264 0.11178967 0.1947968
-0.19901255 0.20472229 0.18299174
0.19712107 0.20473188 0.18316972
-0.17624742 0.27529666 0.19169819
0.17428759 0.27531031 0.19187725
-0.15286362 0.32200703 0.19141197
0.15090133 0.32201678 0.19151926
-0.1291513 0.344623 0.18391728
0.12724447 0.34463006 0.18398833
-0.12942892 0.36857933 0.18992794
0.12747653 0.36858884 0.19001722
-0.10596768 0.39161441 0.18716037
0.10403424 0.39161852 0.18719602
-0.082719468 0.41528866 0.18992805
0.080764867 0.41529521 0.18998158
-0.059478424 0.43928763 0.19485068
-0.036024604 0.43876737 0.19087529
-0.01263192 0.43824625 0.18689263
0.010699444 0.43824625 0.18689263
0.034061469 0.43876737 0.19087529
0.057484966 0.43928993 0.19486845
0.22139218 0.11184392 0.19714749
-0.20018879 0.2290692 0.19996929
0.19817562 0.2290892 0.20029306
-0.17728005 0.30008477 0.20846605
0.17519028 0.30009869 0.20862889
-0.15341105 0.34638965 0.20157099
0.15136893 0.34639698 0.20164311
-0.13005742 0.39350525 0.20353532
0.12800032 0.39351559 0.20362556
-0.10656187 0.41684917 0.20259798
0.10451017 0.41685596 0.20265222
-0.083247982 0.44088957 0.20709181
0.081161268 0.44089669 0.20714617
-0.036316328 0.46475503 0.20982361
-0.012775592 0.46416369 0.20555627
0.010699444 0.46416369 0.20555627
0.034207191 0.46475247 0.20980549
-0.20148423 0.25379667 0.21866715
0.19932735 0.25381947 0.21899509
-0.17815533 0.32489529 0.22267902
0.17595328 0.32490525 0.22278857
-0.15399148 0.37099496 0.2123425
0.1518673 0.37100461 0.21243322
-0.13084555 0.41906634 0.2205987
0.12865713 0.41907761 0.22069013
-0.10726104 0.44267857 0.22076297
0.10506952 0.4426859 0.22081769
-0.059922621 0.46534538 0.21408463
0.057780817 0.46534538 0.21408463
-0.22661674 0.13653943 0.23888743
0.22442858 0.13660383 0.24097407
-0.20279694 0.27883115 0.23761463
0.20049445 0.27885681 0.23794651
-0.17849554 0.34905496 0.2282033
0.17625098 0.3490659 0.22831321
-0.15482147 0.39630067 0.22774518
0.15257877 0.39631149 0.22783685
-0.08387661 0.46720517 0.22750711
0.081632756 0.46721292 0.22756219
-0.060447291 0.49220902 0.23680377
-0.036660321 0.49153084 0.23216665
-0.012944852 0.49085456 0.22754371
0.010699444 0.49085456 0.22754371
0.034379467 0.49153349 0.23218513
0.058130883 0.49221176 0.23682225
-0.20392703 0.30393425 0.25392592
0.20149001 0.30395001 0.25411212
-0.20395026 0.32781258 0.25426126
0.20150837 0.32782644 0.25441062
-0.17936511 0.37422612 0.2423234
0.1770159 0.37424597 0.24250841
-0.15582958 0.42225075 0.24645329
0.15344375 0.42226446 0.24656451
-0.1317986 0.4453575 0.24123275
0.12945138 0.44536963 0.24132514
-0.10809518 0.46927369 0.2424345
0.10573684 0.46928129 0.24248993
-0.0846425 0.49448729 0.25238013
0.082207188 0.49449545 0.25243592
-0.013147655 0.51855499 0.25388873
0.010699444 0.51855499 0.25388873
-0.2049218 0.35306594 0.26828408
0.20237319 0.35308287 0.26845336
-0.18051209 0.40013459 0.26094794
0.17801963 0.40015632 0.26113534
-0.1570749 0.44906497 0.26956344
0.15451124 0.44907972 0.26967645
-0.13297597 0.47263932 0.26672399
0.13043331 0.47265488 0.26683652
-0.10911113 0.49689323 0.2688297
0.10654964 0.49690151 0.26888609
-0.061104879 0.52030861 0.26527786
-0.037072334 0.5193308 0.25892758
0.03458548 0.51933372 0.25894642
0.05856986 0.5203172 0.26533413
-0.23011224 0.16201892 0.2842952
0.22758675 0.16210589 0.28655827
-0.20621289 0.37903214 0.28691959
0.20352098 0.37905073 0.28709102
-0.18203068 0.4270733 0.28560698
0.17934959 0.42709905 0.28581607
-0.085597739 0.52309895 0.28340268
0.08292409 0.52311069 0.28347862
-0.013396214 0.54762179 0.28617764
0.010699444 0.54762489 0.28619671
-0.15865462 0.47709501 0.2988795
0.15586628 0.47711363 0.29901385
-0.13447891 0.5013445 0.29926312
0.13168657 0.50136411 0.29939735
-0.037586663 0.54861706 0.29233408
0.034842644 0.54862022 0.29235327
-0.11044887 0.52620625 0.30358517
0.10762224 0.526227 0.30371988
-0.061966449 0.55027431 0.30258548
0.05914456 0.55028659 0.30266237
-0.20844698 0.40685713 0.31916606
0.20553337 0.40692666 0.31976843
-0.18416201 0.45569354 0.32021534
0.18121789 0.45572928 0.32048762
-0.086830147 0.55364347 0.32342613
0.083848439 0.55365598 0.32350409
-0.013731484 0.57909346 0.32973051
0.010699444 0.57909346 0.32973051
-0.23467584 0.26245075 0.34357822
0.23157001 0.26248354 0.34405172
-0.23409858 0.28641105 0.33607948
0.23108028 0.28648067 0.33698308
-0.13660595 0.53263104 0.3453151
0.13346079 0.53265846 0.34549296
-0.038274072 0.58032173 0.33698297
0.035186354 0.58032507 0.33700275
-0.2354864 0.31241751 0.35410786
0.2323865 0.31256378 0.35583651
-0.16139984 0.50873959 0.34982431
0.15822867 0.50878876 0.35016096
-0.11258564 0.55941033 0.35910022
0.10933425 0.55944562 0.35931921
-0.063138895 0.58309412 0.3533535
0.059926834 0.58311421 0.35347259
-0.21356805 0.44031081 0.39308238
0.21010724 0.44042861 0.39403892
-0.088701986 0.58832091 0.38421595
0.085256591 0.58836544 0.38447881
-0.039333064 0.61698675 0.40576613
-0.014235939 0.61512679 0.39526081
0.010699444 0.61513042 0.39528108
0.035716012 0.61699414 0.40580738
-0.014903392 0.65608102 0.48196566
0.010699444 0.65608102 0.48196566
-0.040534683 0.68203944 0.48381376
-0.014860147 0.68060273 0.4763478
0.010699444 0.68060273 0.4763478
0.036316507 0.68203944 0.48381376
-0.066385344 0.63259619 0.49392867
0.062090963 0.63261551 0.49403679
-0.040647153 0.65777212 0.49111879
0.036373239 0.65778416 0.49118352
-0.066540025 0.68527514 0.50062656
0.062194422 0.68530023 0.50075686
-0.015031003 0.71060449 0.49854267
0.010699444 0.71060449 0.49854267
-0.09270823 0.66205901 0.51432216
-0.066717491 0.6609484 0.50831127
0.062310729 0.6609484 0.50831127
0.088258229 0.66208339 0.51445365
-0.040885657 0.7122193 0.50661016
0.036492497 0.71223247 0.50667548
-0.067105412 0.71592164 0.52510881
0.062570706 0.71593934 0.52519679
-0.041183695 0.74203545 0.52596855
-0.015178121 0.74030733 0.51765418
0.010699444 0.74030733 0.51765418
0.036641352 0.74204439 0.52601254
-0.093526483 0.64091206 0.54089594
0.088868886 0.64091206 0.54089594
-0.093522377 0.69299924 0.54076242
0.088869914 0.69303358 0.5409404
-0.067565158 0.74599451 0.54501653
0.06287688 0.74600822 0.54508317
-0.041484855 0.77219331 0.54552937
-0.015327104 0.77035636 0.53700745
0.010699444 0.77035636 0.53700745
0.036791936 0.77220267 0.54557383
-0.094163969 0.72322518 0.5615989
0.089350127 0.72325212 0.56173408
-0.015477809 0.80075353 0.55658472
0.010699444 0.80075353 0.55658472
-0.068029851 0.77641964 0.5651381
0.063186683 0.77643448 0.56520605
-0.041789532 0.80270302 0.56531858
0.036944453 0.80271822 0.56538641
-0.094812818 0.75382084 0.58267105
0.089837328 0.75385398 0.58283067
-0.068513811 0.80734098 0.58609414
0.063510746 0.80737674 0.586254
-0.095470458 0.7848022 0.60402834
0.090330064 0.78483224 0.60416698
0 0 0 1 0 0 0 1 0 0 0 1 0 0 0 0 0 1028 1 0 0
