ply
format ascii 1.0
comment PCL generated
element vertex 676
property float x
property float y
property float z
element camera 1
property float view_px
property float view_py
property float view_pz
property float x_axisx
property float x_axisy
property float x_axisz
property float y_axisx
property float y_axisy
property float y_axisz
property float z_axisx
property float z_axisy
property float z_axisz
property float focal
property float scalex
property float scaley
property float centerx
property float centery
property int viewportx
property int viewporty
property float k1
property float k2
end_header
0.49446845 -0.054763682 -0.63085401
0.51621664 -0.054826468 -0.62678134
0.47303218 -0.033809826 -0.63357842
0.49242097 -0.03374882 -0.64149338
0.5162214 -0.033862237 -0.6267575
0.49241638 -0.012897759 -0.6415171
0.47198904 -0.012897732 -0.63922477
0.51621902 -0.012897705 -0.62676936
0.47199118 0.0079708472 -0.63921285
0.49241638 0.007953139 -0.6415171
0.51621902 0.0080666915 -0.62676948
0.473041 0.028927034 -0.63353074
0.49241871 0.028804177 -0.64150518
0.51621902 0.029031085 -0.6267693
0.49447769 0.049902335 -0.63080633
0.51621419 0.049995042 -0.62679344
0.51923704 -0.076139204 -0.61169034
0.47658348 -0.055017717 -0.61435634
0.54027969 -0.055055879 -0.61187232
0.45678288 -0.034012355 -0.6072436
0.54028475 -0.033976968 -0.61184812
0.45526004 -0.012897759 -0.61584461
0.54028225 -0.012897759 -0.61186016
0.4552643 0.0081509762 -0.61582047
0.54028225 0.0081814509 -0.61186033
0.45679149 0.029332427 -0.60719484
0.54028225 0.02926066 -0.6118601
0.47660583 0.050284989 -0.61423522
0.54027718 0.050339296 -0.61188442
0.51925647 0.071427293 -0.61159331
0.50127262 -0.076513156 -0.59549862
0.54226041 -0.0763551 -0.60234284
0.46029648 -0.055432603 -0.58739889
0.5646078 -0.055287972 -0.59679919
0.56461042 -0.034092911 -0.59678692
0.43871555 -0.01289765 -0.58924961
0.5646078 -0.012897677 -0.59679919
0.43872181 0.008355841 -0.58921248
0.5646078 0.0082974993 -0.59679919
0.56461042 0.029492678 -0.5967868
0.46031612 0.050907299 -0.58728766
0.56460506 0.050687335 -0.59681141
0.50135291 0.071935691 -0.59508139
0.5422985 0.071717702 -0.60215956
0.4421441 -0.055715822 -0.56900495
0.4205187 -0.034296427 -0.57034296
0.44021541 -0.034219116 -0.58039325
0.58920789 -0.034210276 -0.5815469
0.41929156 -0.012897732 -0.57793409
0.58920234 -0.01289765 -0.58157158
0.41929355 0.0084426794 -0.57792157
0.58920234 0.0084145926 -0.58157146
0.4205268 0.02990062 -0.57029289
0.44022381 0.029745916 -0.58034348
0.58920789 0.029727275 -0.58154666
0.44215047 0.051330477 -0.5689674
0.46609369 -0.077456407 -0.55465609
0.48541576 -0.077181645 -0.56655055
0.4234125 -0.055970877 -0.55244231
0.40214896 -0.012897677 -0.55066866
0.4021568 0.0086530056 -0.55061799
0.42342684 0.0517141 -0.55235368
0.46610489 0.073182419 -0.55459285
0.48548985 0.072826505 -0.56614935
0.44603437 -0.077655531 -0.5460341
0.40339777 -0.034510434 -0.54255754
0.40340561 0.030328469 -0.54250658
0.44606239 0.073451005 -0.54586864
0.42914328 -0.078326248 -0.51699221
0.40624112 -0.05640737 -0.52408952
0.40625703 0.052369133 -0.52398598
0.42917264 0.074345849 -0.51681048
0.38803661 -0.012897787 -0.49981558
0.38804045 0.0090442039 -0.49978936
0.38952962 -0.034918021 -0.48960781
0.3895393 0.031143891 -0.48954153
0.39318523 -0.057323083 -0.46461415
0.37155563 -0.035142791 -0.46040606
0.37009922 -0.012897677 -0.47091687
0.37010294 0.009266749 -0.47089016
0.37156314 0.031593211 -0.46035206
0.39320886 0.0537441 -0.46445262
0.35150984 -0.012897732 -0.44360054
0.35151342 0.0094769113 -0.44357312
0.37499312 -0.05776988 -0.43559813
0.35266677 -0.035340242 -0.43475986
0.33193588 -0.012897732 -0.42086327
0.33193928 0.0096519608 -0.42083561
0.35267037 0.031987675 -0.43473244
0.37501213 0.054413602 -0.43546081
0.35521507 -0.05808261 -0.41528714
0.33299202 -0.035513259 -0.41228855
0.33299544 0.032333709 -0.41226077
0.35522786 0.054881759 -0.41518974
0.38164458 -0.081314512 -0.38759553
0.40391716 -0.081230283 -0.39123964
0.33531788 -0.058419421 -0.39340484
0.31301159 -0.035688858 -0.38946831
0.31205323 -0.012897677 -0.39776778
0.31205651 0.009829754 -0.39773953
0.3130165 0.032685287 -0.38942575
0.33533183 0.055387519 -0.39329171
0.38171342 0.0783398 -0.38709855
0.40399587 0.078228995 -0.39070129
0.36091784 -0.081681356 -0.37171018
0.31512177 -0.058761448 -0.37119353
0.29261437 -0.035859898 -0.36725533
0.291816 -0.012897732 -0.37466311
0.29181752 0.010007549 -0.37464881
0.29261899 0.033027209 -0.36721206
0.31513172 0.055899762 -0.37110746
0.36094978 0.078821242 -0.37146628
0.34001231 -0.082060479 -0.35529065
0.29433906 -0.059068441 -0.3512522
0.27101806 -0.012897677 -0.35360694
0.27101949 0.010169586 -0.35359251
0.29434687 0.056359902 -0.35117948
0.3400445 0.079327337 -0.35502958
0.31864989 -0.082398877 -0.34063911
0.27321571 -0.059370272 -0.33164656
0.27171588 -0.03601864 -0.34663379
0.24992223 -0.012897732 -0.33226526
0.24992497 0.010334037 -0.33223581
0.27172172 0.033345014 -0.3465755
0.27322161 0.05681251 -0.33158767
0.31866679 0.079775006 -0.34049273
0.29735026 -0.082799055 -0.32331157
0.25181299 -0.059675895 -0.31179786
0.25052643 -0.03617952 -0.3257252
0.22842769 -0.012897787 -0.31175292
0.22842897 0.01049179 -0.31173801
0.25053191 0.033666834 -0.32566583
0.25182125 0.057271495 -0.31170809
0.29736465 0.080308065 -0.32317805
0.27579948 -0.083202794 -0.30582809
0.22979422 -0.05992496 -0.2956152
0.2288761 -0.036327884 -0.30645752
0.20640145 -0.012897732 -0.29404485
0.20640261 0.010628128 -0.29402959
0.22887863 0.033963069 -0.3064276
0.22980063 0.057644926 -0.29553962
0.27581295 0.080846548 -0.30569303
0.30270395 -0.10762911 -0.27363563
0.23142616 -0.083883718 -0.27634287
0.25374353 -0.08354751 -0.29089928
0.2078077 -0.060230471 -0.27577722
0.2067567 -0.036458954 -0.28943014
0.2067602 0.034225479 -0.2893846
0.20781475 0.058103472 -0.27568555
0.2314326 0.081752598 -0.27626646
0.25375471 0.081305698 -0.29077804
0.30273366 0.10552709 -0.27335989
0.25658116 -0.1080435 -0.26018083
0.27967057 -0.10782886 -0.26714587
0.32650882 -0.10766166 -0.27257884
0.18537071 -0.03670077 -0.25803268
0.18489283 -0.012897787 -0.26493025
0.18489388 0.010852212 -0.26491499
0.18537714 0.03470961 -0.25793993
0.25659543 0.10604037 -0.26002657
0.27968901 0.1057733 -0.26696122
0.32655305 0.10557189 -0.2721957
0.2100939 -0.084582657 -0.24607849
0.18681291 -0.060824089 -0.23721623
0.18681943 0.058994032 -0.2371223
0.21010472 0.082686543 -0.24593806
0.23525263 -0.1089372 -0.2311542
0.16393112 -0.012897732 -0.21965659
0.16393502 0.011201154 -0.21959317
0.23526998 0.10715941 -0.23094964
0.16492315 -0.037120111 -0.20354831
0.164933 0.035549492 -0.20338809
0.19169027 -0.086413093 -0.1668179
0.16730331 -0.061937585 -0.16489911
0.16731036 0.060664579 -0.16478407
0.19176182 0.085154578 -0.16578507
0.14351608 -0.037522316 -0.1513021
0.14296044 -0.012897677 -0.16161358
0.14296223 0.011647783 -0.16158068
0.14351965 0.036352366 -0.15123594
0.16961326 -0.087323695 -0.12738991
0.045596063 -0.062532358 -0.12626398
0.070338368 -0.062494852 -0.12870002
0.095070414 -0.062468275 -0.13042784
0.11977517 -0.062441371 -0.13217092
0.14425145 -0.062356979 -0.1376555
0.045473576 -0.037674192 -0.1315676
0.070170663 -0.037654314 -0.13414609
0.0948385 -0.037636526 -0.13645315
0.11949717 -0.037623182 -0.13818967
0.070108891 -0.012897842 -0.13615227
0.02075004 -0.012897677 -0.12812912
0.045427173 -0.012897732 -0.13357735
0.09475112 -0.012897732 -0.13872349
0.11935394 -0.012897677 -0.14129043
0.020750297 0.011905415 -0.12811232
0.045427553 0.011863464 -0.13356066
0.070109405 0.011843642 -0.1361357
0.094752401 0.011823876 -0.13869011
0.11935549 0.011804163 -0.14125717
0.04547397 0.036655411 -0.13155091
0.070171177 0.036615878 -0.13412941
0.094839789 0.03658051 -0.13641977
0.11949872 0.036553718 -0.13815618
0.045596838 0.061555035 -0.12623036
0.070339404 0.061498694 -0.12866628
0.095071062 0.061458506 -0.13041127
0.11977593 0.061418258 -0.13215411
0.14425686 0.061293393 -0.13755536
0.1696205 0.086340442 -0.12727237
0.046013817 -0.11272398 -0.1081748
0.070868924 -0.11262256 -0.11146963
0.095777929 -0.11260471 -0.11204636
0.12079874 -0.11266758 -0.11000967
-0.0039028414 -0.087756872 -0.10863364
0.020969981 -0.08763662 -0.11384296
0.045762993 -0.087516591 -0.11903584
0.07053829 -0.087443344 -0.12220728
0.095387474 -0.087443672 -0.12219048
0.12023693 -0.087444223 -0.12217355
0.14512387 -0.087460525 -0.12146568
-0.02885587 -0.062771648 -0.1107229
-0.0039588436 -0.062691867 -0.1159085
0.020858338 -0.062611975 -0.12109458
-0.053817928 -0.037859838 -0.10746038
-0.02885587 -0.037812725 -0.113572
-0.0039877258 -0.03776589 -0.11966038
0.020787032 -0.03771922 -0.12572587
-0.05379935 -0.012897732 -0.10987389
-0.02885587 -0.012897677 -0.11597633
-0.0040061641 -0.012897732 -0.12205553
-0.05379948 0.012045871 -0.10985696
-0.02885587 0.01199865 -0.11597621
-0.0040061641 0.011951977 -0.12205553
-0.053817928 0.037026376 -0.10746038
-0.02885587 0.036932372 -0.113572
-0.0039877258 0.036838531 -0.1196605
0.020787032 0.036745243 -0.12572598
-0.02885587 0.061913863 -0.11068881
-0.0039587133 0.061793663 -0.1158917
0.020858856 0.061674401 -0.12106085
-0.0039025787 0.086915448 -0.10859966
0.020970503 0.086755 -0.11380911
0.045763776 0.086595051 -0.11900187
0.070539847 0.086497866 -0.12215674
0.095388763 0.086497866 -0.12215674
0.12023848 0.086498469 -0.12213981
0.14512751 0.08652126 -0.12139809
0.046014994 0.11188705 -0.10812378
0.070870489 0.11176016 -0.1114186
0.095779881 0.11173803 -0.11199534
0.12080187 0.1118171 -0.10994184
-0.0037525278 -0.13841434 -0.089107513
0.021299491 -0.13828617 -0.092441082
0.046299942 -0.13815741 -0.095784783
0.071277037 -0.13806391 -0.098215699
0.096305661 -0.13805918 -0.098335505
0.12146526 -0.13816543 -0.095579505
0.14682119 -0.13838129 -0.089967251
-0.02885587 -0.11309708 -0.096059203
-0.0038464554 -0.11293532 -0.10130894
0.021108085 -0.11282561 -0.10487318
0.14589596 -0.11275582 -0.10713744
0.17120157 -0.11292642 -0.10159898
0.19681232 -0.1131947 -0.092887402
-0.053925887 -0.088107795 -0.09343636
-0.02885587 -0.087877452 -0.10340762
-0.053838633 -0.062863238 -0.10477102
-0.079059906 -0.037999801 -0.089279294
-0.078999601 -0.012897732 -0.093196154
-0.078999601 0.012174083 -0.093196154
-0.079060167 0.03730657 -0.089262366
-0.053838767 0.062050916 -0.10475397
-0.053926282 0.087383926 -0.093384862
-0.02885587 0.087076277 -0.10337341
-0.02885587 0.11235207 -0.096041918
-0.0038463231 0.11214995 -0.10129178
0.021108871 0.11201411 -0.10482216
0.14589871 0.11192708 -0.1070863
0.17120682 0.11214145 -0.10151362
0.19681947 0.11247744 -0.092784166
-0.0037522633 0.13772397 -0.089073062
0.02130002 0.13756995 -0.09240675
0.046301134 0.13741632 -0.095733523
0.071279146 0.1373048 -0.098147392
0.096308284 0.13729924 -0.098267078
0.12146763 0.13742575 -0.095528007
0.1468249 0.1376857 -0.089898348
-0.0036558919 -0.16409761 -0.076553941
0.021492368 -0.16394244 -0.079913259
0.046660498 -0.16393042 -0.080172777
0.071828887 -0.16392487 -0.080293775
0.09699475 -0.16391855 -0.080432177
0.12232398 -0.16407757 -0.076987147
0.14784057 -0.16435184 -0.071049809
-0.02885587 -0.13865989 -0.082730412
0.17235719 -0.13865583 -0.082834005
-0.054019339 -0.11355162 -0.081296563
0.22304519 -0.11365814 -0.077836156
-0.079283595 -0.088539317 -0.074750185
-0.079120353 -0.063162215 -0.085353255
-0.10452271 -0.012897677 -0.073656559
-0.10452311 0.012324698 -0.073639154
-0.079120614 0.062499352 -0.08533597
-0.079284668 0.087959863 -0.074680805
-0.054019738 0.11292154 -0.081244826
0.2230532 0.11305682 -0.077732205
-0.02885587 0.1380208 -0.082644105
0.17236252 0.13801607 -0.082747698
-0.0036556236 0.16350394 -0.076519132
0.0214929 0.16332285 -0.079878688
0.04666169 0.16330984 -0.080120921
0.071830489 0.1633033 -0.080241919
0.096996747 0.16329584 -0.080380321
0.12232719 0.16348241 -0.076918006
0.14784431 0.16380237 -0.07098031
0.021768725 -0.19008377 -0.061963201
0.047077797 -0.19007635 -0.062103271
0.072384708 -0.19006872 -0.062243104
0.097864009 -0.19030555 -0.057848454
0.12343588 -0.19057131 -0.052914262
-0.02885587 -0.16481192 -0.061088681
0.1737783 -0.16487342 -0.059758186
-0.054138586 -0.13931137 -0.06580627
0.19841085 -0.13915703 -0.069814563
-0.079472922 -0.11413194 -0.062452793
-0.10493439 -0.088976175 -0.055830836
-0.10470602 -0.063464545 -0.065719128
-0.10461426 -0.038150527 -0.069692612
-0.10461506 0.03760846 -0.069657803
-0.10470683 0.062953286 -0.065684199
-0.1049356 0.088541955 -0.055778146
-0.079473734 0.11364688 -0.062400341
-0.054139122 0.13880177 -0.065736413
0.19841687 0.1386175 -0.069727421
-0.02885587 0.16433915 -0.061018586
0.17378369 0.1644119 -0.059670687
0.021769533 0.18960387 -0.061910868
0.047079407 0.1895964 -0.062033057
0.072386861 0.18958777 -0.062173009
0.097867392 0.18985946 -0.057760596
0.12343995 0.19016327 -0.052826166
0.047508709 -0.2165366 -0.043443918
0.073116831 -0.21684314 -0.038466334
-0.02885587 -0.19140059 -0.037526011
-0.0034605041 -0.1906653 -0.051172376
0.14928336 -0.19103692 -0.044274926
-0.054306649 -0.16560245 -0.043974161
0.20013255 -0.16555659 -0.044964194
-0.079684302 -0.1399688 -0.048723698
0.22513981 -0.1398956 -0.050626516
-0.10522208 -0.11471941 -0.043372869
-0.13090785 -0.063923799 -0.035892129
-0.13068892 -0.038355939 -0.043001652
-0.13047095 -0.012897677 -0.050080538
-0.13047259 0.012506446 -0.05002749
-0.13069057 0.03801956 -0.042948484
-0.13090949 0.063642494 -0.035838842
-0.10522413 0.11438255 -0.043284655
-0.079685658 0.13959163 -0.048635483
0.22514792 0.1395046 -0.050520897
-0.054307327 0.16526255 -0.043885827
0.2001399 0.16521017 -0.044858098
-0.02885587 0.19111429 -0.037383914
-0.0034595542 0.19027276 -0.051048994
0.14929004 0.19069764 -0.044150949
0.047510758 0.21620202 -0.043355346
0.073119566 0.21654686 -0.038377762
-0.0031987298 -0.21815486 -0.017166972
0.022245454 -0.21730295 -0.030998945
0.098802172 -0.21715064 -0.033474088
0.12468881 -0.21762401 -0.025787354
-0.054476958 -0.19224536 -0.021850109
0.17550114 -0.19171011 -0.031782866
-0.080041558 -0.16645485 -0.025519252
0.22726952 -0.16657296 -0.022960663
-0.1057767 -0.1410991 -0.019357562
0.25299737 -0.14101283 -0.021599174
-0.13145401 -0.089846365 -0.01815486
-0.13145733 0.089703821 -0.018047094
-0.10578084 0.14095238 -0.019178152
0.25300646 0.14084531 -0.021491528
-0.080044307 0.16626184 -0.025340438
0.2272778 0.16639581 -0.022853255
-0.054477785 0.19207762 -0.021742582
0.17550881 0.19146685 -0.031658173
-0.0031977594 0.2180251 -0.017040968
0.022247372 0.21706684 -0.030874014
0.098805599 0.21689294 -0.033385158
0.12469377 0.2174266 -0.025680184
0.074306056 -0.24501215 0.00015461445
0.10001763 -0.24486993 -0.0018957853
-0.02885587 -0.21901275 -0.003237009
0.15096126 -0.21840306 -0.013136864
0.20250867 -0.19284792 -0.010667562
-0.15769796 -0.012897732 -0.0027115345
-0.15770006 0.012871094 -0.0026571751
0.20251867 0.19276853 -0.0105232
-0.02885587 0.21899156 -0.0030920506
0.15096806 0.21830449 -0.013010979
0.074312203 0.24502251 0.00035429001
0.10002949 0.24487299 -0.0015875101
0.022946304 -0.24600753 0.014522791
0.048680715 -0.24550736 0.0073050261
0.12614405 -0.24539755 0.0057194233
0.15267305 -0.24629207 0.018629789
0.17769071 -0.21944423 0.0037715435
-0.08073654 -0.19448015 0.019621253
0.23051073 -0.19445434 0.019143701
0.2560809 -0.16831784 0.014815807
-0.13217065 -0.1162126 0.0051186085
-0.1582599 -0.064659357 0.011887908
-0.15797833 -0.038722236 0.0045723915
-0.15797973 0.038751826 0.0046087503
-0.15826131 0.06474556 0.011924386
-0.13217345 0.11624916 0.0052096844
0.25609487 0.16843458 0.014980793
-0.080739655 0.19463746 0.019823551
0.23052485 0.19460681 0.019327402
0.17769969 0.21947734 0.0039169788
0.02294969 0.24612996 0.014742613
0.048685342 0.24557298 0.0075057745
0.12614909 0.24544382 0.0058287382
0.15267898 0.24643767 0.01873982
-0.0028531719 -0.24692209 0.027722359
0.20522594 -0.22097045 0.028553009
-0.10682306 -0.16883212 0.025951624
-0.13300779 -0.14308761 0.032305717
0.28282571 -0.14276509 0.023924589
-0.15899949 -0.090983912 0.031103015
-0.15900305 0.091219962 0.031195641
-0.13301349 0.14333877 0.03249073
0.28284439 0.14295253 0.024127245
-0.10682775 0.16903676 0.026154399
0.20523748 0.22119559 0.028719425
-0.002846634 0.24719453 0.028571606
0.18089969 -0.24887277 0.055878758
-0.054987781 -0.22195312 0.0445081
-0.15992133 -0.11775015 0.055053353
-0.1860643 -0.039099127 0.053534985
-0.18571799 -0.012897842 0.046037197
-0.1857197 0.013246285 0.046074271
-0.18606603 0.039505608 0.053572297
-0.15992567 0.11817206 0.055166006
-0.054990508 0.22231397 0.044862151
0.18093899 0.24934587 0.056517124
0.23419802 -0.22334088 0.067042947
-0.10796706 -0.19749047 0.075487733
0.26013282 -0.19679965 0.062666416
-0.18641213 -0.065416545 0.061066031
-0.186413 0.065880798 0.061084509
-0.10797539 0.19808765 0.075848579
0.26015198 0.19728982 0.062892556
0.23421399 0.22386503 0.067250848
0.10323986 -0.27708921 0.081820488
-0.13444746 -0.17128517 0.079060078
0.28797513 -0.17131317 0.07966888
-0.16109769 -0.1451395 0.085615754
-0.18737075 -0.092155114 0.08182025
-0.18737602 0.092782281 0.08193469
-0.16110504 0.14580126 0.085806727
-0.13445389 0.17189877 0.07926929
0.28799269 0.17193057 0.079859018
0.10325306 0.27774185 0.082163334
-0.02885587 -0.25276998 0.1121304
-0.082044639 -0.22565281 0.10458493
-0.1885114 -0.11933476 0.1065166
-0.21539915 -0.066195808 0.11168444
-0.21498224 -0.039487224 0.103948
-0.21456617 -0.012897732 0.096226573
-0.21456723 0.013632458 0.096245885
-0.21498328 0.040281579 0.10396719
-0.21540123 0.067050353 0.11172307
-0.18851587 0.12015213 0.10661304
-0.082049988 0.22647583 0.10493243
-0.02885587 0.25369704 0.113042
0.31844315 -0.14647423 0.12029326
0.31846657 0.14740498 0.12052715
-0.13622096 -0.20078674 0.13665652
-0.16295408 -0.17381552 0.13384652
-0.19008629 -0.14725639 0.14061368
-0.21660714 -0.093362667 0.13410187
-0.24427982 -0.012897732 0.14792168
-0.24428104 0.014030436 0.14794147
-0.21661241 0.094391815 0.13419986
-0.19009632 0.14834265 0.1408304
-0.16296315 0.17485248 0.1340822
-0.13623247 0.20185553 0.13703024
-0.11007643 -0.22948593 0.16682649
-0.21797782 -0.12096737 0.15953898
-0.24525939 -0.06699869 0.16382802
-0.24476972 -0.039886959 0.15587676
-0.24476972 0.04108078 0.15587676
-0.24526185 0.068254612 0.16386795
-0.2179832 0.1221932 0.15963864
-0.11008522 0.23079029 0.16720665
-0.056191266 -0.25891626 0.20084453
-0.16550301 -0.20420377 0.20006967
-0.19238733 -0.17642923 0.19043243
-0.22001916 -0.14944291 0.19742131
-0.24674682 -0.094606847 0.18798065
-0.27489844 -0.012897732 0.20119143
-0.27489984 0.01444033 0.20121181
-0.2467543 0.096051492 0.18810201
-0.22003123 0.15096685 0.19764543
-0.19239762 0.17790096 0.19065547
-0.16551794 0.20576163 0.2004571
-0.056198645 0.26052994 0.20180357
-0.2483636 -0.12265164 0.21423423
-0.27603436 -0.067826271 0.21758687
-0.2754665 -0.040298887 0.20939064
-0.2754665 0.041904576 0.20939064
-0.27603579 0.069495492 0.21760738
-0.24836993 0.12429862 0.21433687
-0.13913938 -0.23346479 0.23143506
-0.13915089 0.23526606 0.23180854
-0.22279242 -0.17912903 0.2488867
-0.2509411 -0.15170099 0.25608754
-0.27783468 -0.095890716 0.24357283
-0.30646402 -0.012897677 0.25610852
-0.30646563 0.014863292 0.2561295
-0.27784196 0.097762719 0.24367726
-0.25095665 0.15367791 0.25633991
-0.22280484 0.18105122 0.24911737
-0.19586989 -0.20774741 0.26583207
-0.27970994 -0.12438834 0.27063966
-0.30779335 -0.068685263 0.2733773
-0.3071149 -0.040723711 0.26456368
-0.30711329 0.042753793 0.2645427
-0.30780154 0.070785955 0.2734834
-0.2797173 0.1264696 0.27074564
-0.19588748 0.20981115 0.26621306
-0.25421968 -0.18192065 0.30932534
-0.30991346 -0.097215116 0.3009181
-0.33902121 -0.012897732 0.3127507
-0.33902302 0.015299322 0.31277251
-0.30992174 0.099528641 0.30102599
-0.25423303 0.18430714 0.30954182
-0.17026994 -0.2391603 0.32391787
-0.227383 -0.21142492 0.33407724
-0.28290445 -0.15403581 0.31674826
-0.31206605 -0.12618183 0.32888091
-0.34062642 -0.069583297 0.3317076
-0.33975801 -0.041161552 0.32145226
-0.33975616 0.043629639 0.32143044
-0.34063569 0.072133198 0.33181715
-0.31207448 0.12871146 0.32899046
-0.28292254 0.15648007 0.31700945
-0.22740431 0.21401469 0.3344723
-0.17030945 0.24171877 0.32494438
-0.34303451 -0.098582894 0.36014581
-0.37261742 -0.012897622 0.3712008
-0.37261948 0.015749244 0.37122321
-0.34304392 0.10135254 0.36025715
-0.28671893 -0.18480638 0.37180579
-0.31595978 -0.15644971 0.37946248
-0.34547818 -0.12803313 0.38900423
-0.37344503 -0.041613508 0.38015997
-0.37344503 0.044533655 0.38015997
-0.34548774 0.13102587 0.38911736
-0.31598061 0.15937716 0.37973261
-0.28673446 0.1876746 0.37202978
-0.2601127 -0.21524739 0.40501583
-0.37453172 -0.070510484 0.3919239
-0.37454218 0.073523872 0.39203691
-0.26013941 0.21838576 0.40544939
-0.2031699 -0.24531639 0.42388201
-0.37724572 -0.099995255 0.42130351
-0.37725633 0.10323563 0.42141867
-0.20321992 0.24864826 0.42496526
-0.32084084 -0.18808877 0.44286907
-0.35016945 -0.15894932 0.44440556
-0.4082292 -0.042080395 0.440799
-0.40730327 -0.012897732 0.43154669
-0.40730557 0.016213827 0.4315697
-0.40822685 0.045466937 0.44077575
-0.35019115 0.162376 0.44466174
-0.32087311 0.1915143 0.44328785
-0.38011929 -0.12998563 0.45241082
-0.40956685 -0.071468748 0.45416594
-0.40957624 0.074960828 0.45425951
-0.38013873 0.13347013 0.45262146
-0.29412922 -0.21922158 0.47876394
-0.29415882 0.22292708 0.47919095
-0.41260368 -0.101455 0.48451138
-0.44313258 -0.012897732 0.49388194
-0.44313517 0.016693564 0.49390554
-0.41261554 0.1051821 0.48463047
-0.35640174 -0.19155917 0.51800513
-0.38558936 -0.16153678 0.51162648
-0.4457846 -0.072458923 0.51848936
-0.44416034 -0.042562276 0.50341797
-0.44416034 0.046431467 0.50341821
-0.44579762 0.076446988 0.51861024
-0.38561389 0.16548125 0.51189184
-0.35644066 0.19556525 0.51846504
-0.41614452 -0.13206343 0.51989388
-0.41616878 0.13606879 0.52013612
-0.44916964 -0.10296499 0.54989862
-0.4491829 0.10719565 0.55002141
-0.33011192 -0.22377697 0.56330395
-0.48130131 -0.043060847 0.5681653
-0.48016003 -0.012897842 0.55828142
-0.48016575 0.017189501 0.55833101
-0.48130131 0.047428332 0.56816554
-0.33020157 0.22817889 0.56446862
-0.42228937 -0.16421835 0.58129692
-0.45347425 -0.1342174 0.58984065
-0.48325104 -0.073483735 0.58505058
-0.48326263 0.077983558 0.58515072
-0.45350131 0.13876136 0.59009171
-0.42231438 0.16869858 0.58154678
-0.39341158 -0.19517572 0.59630418
-0.39345348 0.19978422 0.59675765
-0.48700133 -0.10452698 0.61752892
-0.51844931 -0.012897952 0.62487602
-0.51845872 0.017702347 0.62495255
-0.48701602 0.10927823 0.61765599
-0.51964527 -0.043572158 0.63458633
-0.51965165 0.04845167 0.63463759
-0.46033511 -0.16699757 0.65350151
-0.49200085 -0.1364032 0.66082644
-0.52177709 -0.074512891 0.65189457
-0.52178669 0.079526819 0.65197229
-0.49202192 0.14149086 0.6610086
-0.46036306 0.17203391 0.65376067
-0.36984947 -0.22989364 0.67681551
-0.4319481 -0.19894023 0.67781234
-0.52558756 -0.10603505 0.68283129
-0.52559727 0.11128756 0.6829102
-0.43199798 0.20417894 0.67831135
-0.3699539 0.23517354 0.67804885
-0.55854058 -0.044055685 0.69740629
-0.55725026 -0.012897952 0.68754625
-0.55726409 0.018184995 0.6876514
-0.55855101 0.049419269 0.69748569
-0.49887735 -0.16957168 0.72037864
-0.56031513 -0.075422399 0.71096635
-0.59274429 -0.012897622 0.71938705
-0.59274429 0.018429337 0.71938682
-0.56032211 0.080890536 0.71101952
-0.49890211 0.1751207 0.72059274
-0.53085005 -0.13839632 0.72555757
-0.5622493 -0.1070261 0.72574568
-0.59447187 -0.075744055 0.73185444
-0.59341693 -0.044262253 0.7242415
-0.59342062 0.049831636 0.7242682
-0.59447932 0.08137285 0.73190856
-0.56225985 0.1126091 0.7258265
-0.53086329 0.14397965 0.72566485
-0.47064924 -0.20223774 0.74920487
-0.53402722 -0.17076381 0.75135326
-0.56459457 -0.13895398 0.74366689
-0.59654468 -0.10751259 0.74681377
-0.59655595 0.1132578 0.74689531
-0.56460881 0.14467657 0.74377537
-0.53404397 0.17654777 0.75148892
-0.47069612 0.20802255 0.74963975
-0.40965694 -0.23503177 0.7721653
-0.50461608 -0.2032019 0.77007723
-0.56800407 -0.1714707 0.76972032
-0.56801844 0.1773949 0.76983023
-0.50463516 0.2091326 0.77024198
-0.40974584 0.24102885 0.77312756
-0.53796887 -0.20381513 0.78335524
-0.53798932 0.20984805 0.78352141
-0.50914222 -0.23703149 0.80927444
-0.47631025 -0.2366249 0.8017323
-0.4438782 -0.23637143 0.79702544
-0.50916159 0.24326527 0.80944228
-0.47633129 0.24280238 0.80192757
-0.44389766 0.2425127 0.79721999
-0.4181504 -0.27242747 0.86410952
-0.4181796 0.27909508 0.86442566
-0.38661149 -0.27308378 0.87476563
-0.3866384 0.27983338 0.87508321
0 0 0 1 0 0 0 1 0 0 0 1 0 0 0 0 0 676 1 0 0
