ply
format ascii 1.0
comment PCL generated
element vertex 1164
property float x
property float y
property float z
element camera 1
property float view_px
property float view_py
property float view_pz
property float x_axisx
property float x_axisy
property float x_axisz
property float y_axisx
property float y_axisy
property float y_axisz
property float z_axisx
property float z_axisy
property float z_axisz
property float focal
property float scalex
property float scaley
property float centerx
property float centery
property int viewportx
property int viewporty
property float k1
property float k2
end_header
0.24013701 -0.026282618 -0.38517904
0.24004433 -0.0093384925 -0.38588709
0.24016622 0.0076073855 -0.3849557
0.25876996 -0.094528362 -0.37299114
0.24145746 -0.077425875 -0.37508887
0.25861642 -0.07745631 -0.37409937
0.2408959 -0.060304873 -0.37937993
0.25857705 -0.060420334 -0.37438357
0.22490323 -0.043440647 -0.37129235
0.24040395 -0.043258205 -0.38313913
0.25853902 -0.043388769 -0.37465787
0.22390351 -0.026327025 -0.37940925
0.25850102 -0.02636148 -0.37493229
0.22365502 -0.0093384702 -0.38142675
0.25846571 -0.0093384255 -0.37518692
0.22434276 0.0076775122 -0.37584269
0.25843316 0.0076807477 -0.37542182
0.22510916 0.024789361 -0.3696205
0.24043322 0.024584724 -0.38291568
0.25839925 0.024696374 -0.37566668
0.2407836 0.041608199 -0.38023823
0.2583667 0.041708298 -0.37590152
0.24120006 0.058688365 -0.3770557
0.25833416 0.058716655 -0.37613648
0.24215892 0.07597705 -0.36972874
0.25858381 0.075799748 -0.37433463
0.27831143 -0.12952673 -0.35587496
0.25974792 -0.11189239 -0.36593348
0.27745378 -0.11208616 -0.36173862
0.24226457 -0.094685093 -0.3689214
0.27740884 -0.094949767 -0.36204576
0.2269311 -0.078049697 -0.35482824
0.27736539 -0.077818319 -0.36234307
0.22591281 -0.060681 -0.3630957
0.27732483 -0.06069193 -0.36262041
0.27728426 -0.04356984 -0.36289763
0.20956454 -0.026503684 -0.35646278
0.2772437 -0.026451981 -0.36317497
0.20921427 -0.0093384925 -0.35949612
0.27720606 -0.0093384702 -0.36343229
0.27717131 0.0077713616 -0.36366981
0.27713659 0.024877334 -0.36390716
0.22587866 0.041997671 -0.36337292
0.27710041 0.041979603 -0.36415458
0.2266525 0.05930312 -0.35709
0.27706715 0.059078619 -0.36438203
0.27703679 0.076174833 -0.36458963
0.25996429 0.093287483 -0.36437201
0.27711925 0.093303576 -0.36402595
0.27808857 0.1107677 -0.35739857
0.29704231 -0.14732093 -0.34573513
0.26293311 -0.13022341 -0.34294623
0.29646271 -0.12987024 -0.34949952
0.24483249 -0.1126607 -0.34929901
0.29641491 -0.11263708 -0.34981006
0.22795698 -0.095548093 -0.34649915
0.29636711 -0.095408686 -0.35012066
0.29631931 -0.078185111 -0.35043103
0.21149245 -0.061219685 -0.33976656
0.29627305 -0.060966492 -0.35073149
0.21052492 -0.043796979 -0.34814578
0.2962299 -0.043752857 -0.35101175
0.29618677 -0.026543459 -0.35129195
0.29614672 -0.0093385139 -0.35155201
0.20994228 0.007851908 -0.35319132
0.29610977 0.0078627057 -0.35179198
0.31525171 0.0079551805 -0.33978677
0.21067446 0.025139993 -0.34685069
0.29607281 0.025060201 -0.35203207
0.31521249 0.025245016 -0.34002936
0.2114096 0.04252623 -0.34048414
0.29603434 0.042253725 -0.35228205
0.31517655 0.042531572 -0.34025168
0.29600203 0.059444681 -0.35249186
0.31514224 0.059815004 -0.34046382
0.22793099 0.076863021 -0.34671009
0.29597124 0.07663282 -0.35269183
0.31510797 0.077095307 -0.34067601
0.2455267 0.094228789 -0.3439942
0.29593894 0.093817391 -0.35290176
0.31507367 0.094372191 -0.34088796
0.26316655 0.11163729 -0.34126163
0.29590663 0.1109987 -0.35311151
0.31504104 0.11164647 -0.34109002
0.29651982 0.12843506 -0.34912866
0.31501001 0.12891825 -0.34128183
0.31704831 -0.16575079 -0.32867306
0.28113979 -0.14788741 -0.33653706
0.31568035 -0.14785063 -0.33713508
0.3350665 -0.14860404 -0.32489967
0.3156296 -0.1305196 -0.33744919
0.33501104 -0.13117827 -0.32522732
0.33495378 -0.11375689 -0.32556522
0.31557882 -0.11319348 -0.33776319
0.31552809 -0.095872253 -0.33807707
0.33489659 -0.096340813 -0.32590312
0.21246728 -0.078773461 -0.33132428
0.31547734 -0.078555904 -0.33839083
0.33484289 -0.078930654 -0.32622015
0.31542665 -0.061244249 -0.33870459
0.33478916 -0.061525263 -0.32653731
0.31537923 -0.043937765 -0.33899796
0.33473545 -0.044124752 -0.32685435
0.19492868 -0.02668431 -0.33299339
0.31533343 -0.026635977 -0.33928114
0.33468699 -0.026729472 -0.32714063
0.19455001 -0.0093385363 -0.33650672
0.31529093 -0.0093385363 -0.33954406
0.33464369 -0.0093384925 -0.32739621
0.19524254 0.0080298297 -0.33008111
0.33460042 0.0080484971 -0.32765168
0.33456066 0.025431918 -0.3278867
0.3345243 0.042812169 -0.32810116
0.21214896 0.060011633 -0.33408099
0.33448797 0.060189113 -0.32831573
0.3344534 0.077563152 -0.32851982
0.33442053 0.09493456 -0.32871383
0.33438772 0.11230283 -0.32890779
0.28084943 0.12908819 -0.33852243
0.33435312 0.12966771 -0.32911193
0.3175706 0.14729771 -0.32544249
0.3006306 -0.16618338 -0.32242835
0.33558416 -0.16622409 -0.32184303
0.35491061 -0.16696535 -0.31114185
0.2673803 -0.14946917 -0.31085157
0.35466293 -0.14936519 -0.31254065
0.2490114 -0.13160178 -0.31736642
0.35460424 -0.13184395 -0.31287205
0.23075113 -0.11383784 -0.32381338
0.35454562 -0.11432792 -0.31320322
0.21344945 -0.096459515 -0.32281834
0.35448515 -0.096816488 -0.31354463
0.35442653 -0.079310641 -0.31387579
0.35436612 -0.061809741 -0.31421709
0.19584399 -0.044161022 -0.32449996
0.35430568 -0.044314027 -0.31455821
0.35425079 -0.026823897 -0.31486821
0.35420507 -0.0093385363 -0.31512654
0.35415936 0.0081429221 -0.31538481
0.19708937 0.025661962 -0.31294447
0.35412097 0.025621099 -0.31560171
0.35408619 0.043096289 -0.31579787
0.35404965 0.060568258 -0.31600446
0.21343288 0.07777708 -0.32296205
0.3540149 0.078037277 -0.31620049
0.23119763 0.095328331 -0.32018816
0.35398018 0.095503442 -0.31639671
0.24900597 0.11292262 -0.31740761
0.35394549 0.11296652 -0.31659269
0.26685664 0.13055961 -0.31463057
0.35390896 0.13042593 -0.31679904
0.33522445 0.14739986 -0.32396716
0.35411364 0.14797661 -0.31564295
0.37453854 -0.16775812 -0.29970032
0.37447664 -0.15013529 -0.3000353
0.37441283 -0.1325171 -0.30038089
0.37435094 -0.11490461 -0.30071574
0.37428907 -0.097297378 -0.30105054
0.37422532 -0.079694971 -0.3013956
0.37416351 -0.062098138 -0.30173022
0.37410173 -0.044506423 -0.30206472
0.37403801 -0.026919743 -0.30240953
0.3739801 -0.0093385587 -0.30272281
0.37393957 0.008238811 -0.30294222
0.37390295 0.025812944 -0.3031407
0.37386435 0.043383844 -0.30334949
0.3738277 0.060951814 -0.30354786
0.37379107 0.078516766 -0.30374616
0.37375444 0.096078575 -0.30394429
0.37371591 0.11363679 -0.30415297
0.37367928 0.13119248 -0.30435115
0.30407822 0.14905791 -0.3000353
0.37364265 0.14874516 -0.30454934
0.39477858 -0.16870776 -0.28599364
0.39451563 -0.15091585 -0.28736001
0.39445043 -0.1332005 -0.28769869
0.39438322 -0.11548979 -0.28804791
0.39431807 -0.097784869 -0.2883864
0.39425293 -0.080085114 -0.28872484
0.39418581 -0.062390462 -0.28907365
0.39412072 -0.044701196 -0.28941196
0.39405364 -0.027017139 -0.28976059
0.39399469 -0.0093384478 -0.29006678
0.39394996 0.0083360318 -0.29029918
0.39390934 0.026007364 -0.2905103
0.39387277 0.043675967 -0.29070044
0.39383215 0.061340868 -0.29091144
0.39379355 0.079003043 -0.29111195
0.39375499 0.096662 -0.29131246
0.39371639 0.11431799 -0.29151279
0.39367783 0.13197091 -0.29171324
0.39393371 0.14972667 -0.29038364
0.2903387 -0.1695634 -0.27364373
0.41478229 -0.15170656 -0.27452201
0.41471162 -0.13389148 -0.2748751
0.41464308 -0.11608235 -0.27521753
0.41457456 -0.098278508 -0.27555984
0.41450179 -0.080479294 -0.27592343
0.20099053 -0.062675096 -0.27674633
0.41443551 -0.062686421 -0.27625489
0.41437128 -0.044898897 -0.27657539
0.41431144 -0.027116332 -0.2768746
0.18414129 -0.0093385139 -0.26745677
0.41425157 -0.0093384925 -0.27717364
0.41419601 0.0084349345 -0.27745128
0.41414902 0.02620486 -0.27768624
0.20115758 0.044033982 -0.27519614
0.41410625 0.043971524 -0.27789968
0.4140614 0.061734669 -0.2781238
0.41402081 0.079495102 -0.27832651
0.43447918 0.079993568 -0.26537621
0.41398025 0.097252458 -0.27852917
0.43443435 0.097850032 -0.2655921
0.41393971 0.11500662 -0.27873188
0.43438953 0.11570319 -0.26580775
0.41389915 0.13275784 -0.27893454
0.43434471 0.13355288 -0.26602346
0.29094931 0.15117568 -0.26946914
0.43536437 -0.152532 -0.2611174
0.43520239 -0.13459082 -0.26189691
0.43512818 -0.11668112 -0.26225394
0.43506074 -0.098778196 -0.26257843
0.2026667 -0.080932975 -0.26119322
0.43499327 -0.080880277 -0.26290286
0.43492362 -0.062987082 -0.26323789
0.18563716 -0.045269392 -0.25250906
0.43485847 -0.045099385 -0.26355147
0.455578 -0.045302093 -0.25037974
0.18474968 -0.0272357 -0.26137722
0.43479562 -0.027216589 -0.26385391
0.45551208 -0.027317954 -0.25068569
0.43473274 -0.0093384925 -0.26415646
0.45544615 -0.0093384925 -0.25099164
0.18437648 0.0085300039 -0.26510644
0.43467438 0.0085352138 -0.26443726
0.45538494 0.008636469 -0.25127566
0.18552695 0.026575493 -0.25361031
0.43462056 0.026404751 -0.2646963
0.45532849 0.026607351 -0.25153768
0.43457115 0.044270925 -0.26493376
0.45527199 0.044574283 -0.25179964
0.20240906 0.062182434 -0.26358396
0.43452632 0.062134102 -0.26514965
0.45522258 0.062538184 -0.25202888
0.45517316 0.080498517 -0.25225806
0.45512614 0.098455742 -0.25247622
0.45507672 0.11640918 -0.25270528
0.45593163 -0.13529977 -0.24873918
0.45585856 -0.11728971 -0.24907833
0.20533934 -0.099786013 -0.23639429
0.45578781 -0.099285193 -0.24940652
0.47675118 -0.099797986 -0.23608458
0.45571467 -0.081285447 -0.24974567
0.47667459 -0.081695475 -0.23642755
0.18637204 -0.063404404 -0.24516577
0.45564398 -0.063291065 -0.25007373
0.47660306 -0.063598797 -0.2367481
0.47653392 -0.04550726 -0.23705781
0.16878396 -0.027396593 -0.24046868
0.47646484 -0.027420405 -0.23736727
0.16861609 -0.0093384925 -0.24228585
0.47639576 -0.0093384478 -0.23767662
0.16870862 0.0087134019 -0.24128389
0.47633162 0.0087389871 -0.23796397
0.47627249 0.026812298 -0.23822898
0.18601225 0.044644505 -0.248761
0.47621325 0.044881597 -0.23849392
0.18706182 0.06296178 -0.23827314
0.47615412 0.062946707 -0.23875892
0.47610244 0.081009112 -0.23899066
0.47638342 0.099136829 -0.23773187
0.2237972 -0.11802288 -0.23320448
0.4773446 -0.11801266 -0.23342627
0.18739048 -0.081739753 -0.23498881
0.49791101 -0.082115106 -0.22280008
0.170223 -0.063872695 -0.22489047
0.49780247 -0.063910015 -0.22326988
0.16931778 -0.045543671 -0.23468977
0.49773017 -0.045714736 -0.22358304
0.15232052 -0.027541548 -0.22163582
0.49765787 -0.027524211 -0.22389609
0.15232433 -0.0093384925 -0.22159106
0.49758562 -0.0093385363 -0.22420895
0.15225321 0.0088584442 -0.22243071
0.49751851 0.0088425688 -0.22449952
0.16928504 0.026861297 -0.23504412
0.49745658 0.027019596 -0.22476768
0.17000757 0.045141906 -0.2272225
0.49739465 0.045192324 -0.22503567
0.49744371 0.06337589 -0.22482347
0.20549202 0.081163637 -0.23497766
0.22388428 0.099380799 -0.23245013
0.24275103 0.11782744 -0.22638625
0.24368557 -0.1369132 -0.21879882
0.20821461 -0.11910779 -0.20971525
0.18951283 -0.10065638 -0.213781
0.17113578 -0.082354948 -0.21500927
0.15361486 -0.06430082 -0.20635039
0.15277202 -0.045826793 -0.21630388
0.13530718 -0.02766056 -0.20618016
0.13525479 -0.0093384925 -0.20686084
0.13516317 0.0089692101 -0.20805091
0.1527206 0.027140515 -0.21691114
0.15339607 0.045564264 -0.20893437
0.17077224 0.063556872 -0.21894473
0.18913096 0.081832647 -0.21759689
0.20751062 0.10012917 -0.21624756
0.22868335 -0.13841715 -0.19088924
0.19171979 -0.1199386 -0.19172782
0.17290409 -0.10134591 -0.19586682
0.15428379 -0.082864925 -0.19845062
0.13606675 -0.064532615 -0.19631308
0.11780356 -0.046164475 -0.19436657
0.13548905 -0.046019033 -0.20381778
0.11766632 -0.027736297 -0.19634742
0.099606082 -0.0093385363 -0.19086605
0.11752456 -0.0093384031 -0.19839352
0.11750478 0.0090413988 -0.19867909
0.11778133 0.027482657 -0.19468737
0.13547154 0.027338637 -0.20404518
0.13590045 0.04580579 -0.19847351
0.13633049 0.064359277 -0.19288725
0.15396132 0.064070657 -0.20225906
0.17250305 0.082501851 -0.20020807
0.19100815 0.10093318 -0.19883883
0.22770473 0.11928345 -0.19936389
0.17441678 -0.12050376 -0.17949134
0.13738759 -0.1019892 -0.17915487
0.15528385 -0.10170103 -0.18664068
0.10048543 -0.0835381 -0.17658722
0.1186647 -0.08337339 -0.18193704
0.13662241 -0.083152972 -0.1890949
0.10019091 -0.064877771 -0.1813696
0.11818874 -0.064706013 -0.18880701
0.081793413 -0.046397671 -0.17922449
0.099886909 -0.046288677 -0.18630606
0.063381858 -0.027887724 -0.1766687
0.081589252 -0.027838947 -0.18301344
0.099701703 -0.027790438 -0.18931347
0.06331154 -0.0093384031 -0.17819124
0.081506386 -0.0093384031 -0.18455112
0.063324414 0.0092012938 -0.17791241
0.081521943 0.0091523863 -0.18426228
0.099624485 0.0091038328 -0.19056731
0.063404962 0.027767731 -0.17616838
0.081649125 0.027679579 -0.18190241
0.099807382 0.027591871 -0.18759757
0.08189857 0.046295412 -0.17727327
0.1000911 0.046163365 -0.18299025
0.11816959 0.046022624 -0.18908328
0.10037594 0.064806424 -0.17836541
0.11851561 0.064630121 -0.18408889
0.11893144 0.083353393 -0.17808676
0.1371146 0.083175719 -0.18270105
0.15496986 0.082881421 -0.19034886
0.15604067 0.1019095 -0.17770332
0.17387256 0.10155472 -0.18538278
0.21125698 0.12024695 -0.18148547
0.17601666 -0.13996464 -0.16217226
0.19435637 -0.13979164 -0.16538143
0.21235773 -0.13947429 -0.17127186
0.13841444 -0.12113541 -0.16581565
0.15650219 -0.12083812 -0.17225283
0.082645729 -0.10259533 -0.1634075
0.10098852 -0.10240247 -0.16841793
0.1192556 -0.1022104 -0.17340773
0.063899405 -0.083880663 -0.16546357
0.082225725 -0.083703935 -0.17120183
0.04532218 -0.065280132 -0.1639483
0.0636997 -0.065145195 -0.16978735
0.081988826 -0.065011106 -0.17559814
0.0452336 -0.046597429 -0.16624981
0.063593365 -0.0465075 -0.17208928
0.026710466 -0.027994588 -0.16279596
0.045090243 -0.027939249 -0.16997451
0.026630498 -0.0093384478 -0.16539305
0.045019627 -0.0093384478 -0.17180902
0.026639536 0.0092998222 -0.16509962
0.045030862 0.0092504695 -0.17151707
0.026688017 0.027962482 -0.16352522
0.045094743 0.027864927 -0.16985744
0.045253471 0.046561904 -0.16573352
0.063619792 0.046428263 -0.17151707
0.082145199 0.064980954 -0.17269623
0.045416832 0.06532602 -0.16148937
0.063823543 0.065153129 -0.16710591
0.064056307 0.083969966 -0.16206628
0.082423076 0.083759345 -0.16753948
0.10070781 0.083550006 -0.1729762
0.1012399 0.10252682 -0.16433614
0.11961998 0.10235074 -0.16814864
0.13794228 0.10217519 -0.17194915
0.15714172 0.12115144 -0.16470033
0.1754213 0.12094036 -0.16861713
0.19364187 0.12072996 -0.17252117
0.12086914 -0.14061412 -0.15011865
0.13930215 -0.14038964 -0.15428412
0.1576952 -0.1401806 -0.15816367
0.06477917 -0.12203149 -0.14641595
0.083331063 -0.12183403 -0.15068924
0.10176852 -0.12160029 -0.15575218
0.1201295 -0.12136736 -0.16079444
0.027182914 -0.10320935 -0.14745289
0.045745715 -0.10299798 -0.15294474
0.064226747 -0.10278887 -0.15837634
0.0084109306 -0.084438145 -0.14735758
0.026999205 -0.084251493 -0.15341902
0.045494862 -0.08406537 -0.15946198
0.0082991607 -0.065551452 -0.1521973
0.026855282 -0.06541533 -0.15809292
0.0082454942 -0.046777986 -0.15452105
0.026784442 -0.046687573 -0.16039371
-0.010370955 -0.028109876 -0.14781028
0.0081922077 -0.028040569 -0.15682852
-0.01042223 -0.0093385363 -0.15114051
0.0081433766 -0.0093385363 -0.15894294
-0.010416012 0.0094104111 -0.15073657
0.0081504658 0.0093495734 -0.15863597
-0.010381587 0.028193766 -0.14850086
0.0081842877 0.028060252 -0.15717149
0.0082526132 0.046827957 -0.15421307
0.026798964 0.046696037 -0.15992206
0.0083457902 0.065674283 -0.15017807
0.026924446 0.065499797 -0.15584695
0.027072288 0.084394187 -0.15104556
0.045606233 0.084181651 -0.15656853
0.045884699 0.10321975 -0.14933378
0.064388946 0.10296434 -0.15486443
0.082825288 0.10272361 -0.16007543
0.083409235 0.12198458 -0.14923865
0.10193194 0.12177657 -0.15309876
0.12039606 0.12156922 -0.15694672
0.13880189 0.12136254 -0.16078258
0.15870111 0.14092688 -0.14628476
0.17711696 0.14068203 -0.15026134
0.19582908 0.14065716 -0.15066546
0.21415022 0.14041238 -0.15463948
0.23330602 0.14064546 -0.15085548
0.25219163 0.14071423 -0.14973819
0.27005437 0.14029354 -0.15656841
0.084345371 -0.16049191 -0.13186598
0.10302731 -0.16027968 -0.1353122
0.12168181 -0.16009009 -0.13838875
0.14040111 -0.15999043 -0.14000791
0.15914738 -0.15992844 -0.14101446
0.17787935 -0.1598673 -0.14200819
0.19664636 -0.15983707 -0.14249861
0.21531051 -0.15975237 -0.14387351
0.23453921 -0.15998006 -0.14017588
0.25430524 -0.16044801 -0.1325779
0.046500877 -0.14151898 -0.13332534
0.065188751 -0.14129148 -0.13754827
0.083813041 -0.14106527 -0.14174479
0.10237288 -0.14083937 -0.14593881
0.027473107 -0.12241886 -0.1380285
0.046157911 -0.1222246 -0.1422354
0.0085557625 -0.10345448 -0.14108622
-0.010213148 -0.084739871 -0.13756025
-0.01027241 -0.06580057 -0.14140958
-0.029028561 -0.047108956 -0.13302398
-0.010321382 -0.046930879 -0.14459026
-0.029063113 -0.02818916 -0.13751227
-0.029088875 -0.0093384031 -0.14085877
-0.029080849 0.0094945263 -0.13981611
-0.029045437 0.02839827 -0.135216
-0.010300778 0.047081105 -0.14325196
-0.010230523 0.066028126 -0.13868874
-0.010184646 0.084984459 -0.13570923
0.0084668435 0.084629327 -0.1449365
0.0086716041 0.10383238 -0.13607007
0.027296074 0.10347641 -0.14377797
0.027522676 0.12267546 -0.13641882
0.046186939 0.12240259 -0.14148158
0.064827658 0.12219319 -0.14536619
0.084236234 0.14169019 -0.13389158
0.10292363 0.14149894 -0.13699561
0.12156299 0.14130756 -0.14010388
0.140156 0.14111738 -0.14319229
0.15985464 0.16065387 -0.13266224
0.085077643 -0.18032752 -0.11827666
0.10396682 -0.18020423 -0.12005669
0.12294514 -0.18019752 -0.12015414
0.14199513 -0.18025652 -0.11930108
0.16115959 -0.18039855 -0.11725146
0.04684633 -0.16095476 -0.12434965
0.065611385 -0.16070546 -0.12839806
0.27446944 -0.16104819 -0.12283134
0.0090692826 -0.14229901 -0.11885005
0.027783439 -0.14180869 -0.12795025
-0.0099633448 -0.1231899 -0.12133521
0.0088024288 -0.12277097 -0.13040519
-0.028935021 -0.1042325 -0.12087268
-0.010114145 -0.1038377 -0.1311298
-0.02896506 -0.085133538 -0.12477446
-0.04791382 -0.066339895 -0.11805707
-0.028993884 -0.066098191 -0.12851906
-0.04791382 -0.047269471 -0.12260032
-0.04791382 -0.028269196 -0.12712669
-0.066903874 -0.0093384478 -0.11941087
-0.04791382 -0.0093384478 -0.13048977
-0.04791382 0.0095922109 -0.12712687
-0.04791382 0.028573068 -0.12386405
-0.04791382 0.047598526 -0.12084836
-0.029015282 0.047357224 -0.13129884
-0.04791382 0.066670552 -0.11782515
-0.028992208 0.066347919 -0.12830126
-0.028969076 0.085385263 -0.12529647
-0.028906956 0.10470272 -0.11722708
-0.010047477 0.10426059 -0.12679976
0.0089022107 0.12323222 -0.12608469
0.027961656 0.14241247 -0.12216246
0.046719402 0.14207457 -0.12764758
0.065501384 0.14188184 -0.13077956
0.047060832 0.16161592 -0.1187768
0.06613525 0.16173512 -0.11705619
0.084973201 0.16151632 -0.12021506
0.10376376 0.16129887 -0.12335384
0.12250571 0.16108108 -0.12649691
0.14120083 0.16086464 -0.12961954
0.17887084 0.16075002 -0.13127464
0.19823317 0.16107091 -0.12664217
0.21783397 0.16149944 -0.1204586
0.047463879 -0.1810184 -0.10830539
0.06620919 -0.18052298 -0.11545515
0.18035705 -0.18054169 -0.11518598
0.19941881 -0.1805687 -0.11479473
0.21878636 -0.18078856 -0.1116218
0.0094246492 -0.16224109 -0.10346222
0.028211139 -0.16158842 -0.11406034
-0.0097532682 -0.14290042 -0.10769022
-0.04791382 -0.1240993 -0.10164583
-0.028868245 -0.12361199 -0.11219805
-0.04791382 -0.10469252 -0.10892016
-0.04791382 -0.085480779 -0.11349702
-0.067032725 -0.066695206 -0.1026718
-0.066981129 -0.047473177 -0.10937494
-0.066929713 -0.028354332 -0.11605424
-0.066934697 0.009682402 -0.11540622
-0.066970259 0.028774379 -0.11078727
-0.067005947 0.047937877 -0.1061511
-0.04791382 0.085789487 -0.11479467
-0.04791382 0.10520804 -0.1062867
-0.028810877 0.12438209 -0.10474575
-0.0098475739 0.12389345 -0.11381549
-0.0096763857 0.14361125 -0.10269654
0.0092325322 0.14305179 -0.11178124
0.028344058 0.16224171 -0.10974365
0.23750389 0.16191213 -0.11450094
0.25795981 0.16271552 -0.10290658
0.06663949 0.18158373 -0.10613889
0.085719094 0.18156569 -0.10637289
0.10461329 0.18132038 -0.1095593
0.12345982 0.18107669 -0.1127252
0.14239763 0.18097301 -0.11407256
0.16180991 0.18131946 -0.10957164
0.18145601 0.181803 -0.10328948
0.048120238 -0.20140666 -0.091252685
0.067073636 -0.20098424 -0.096739411
0.08606784 -0.2007408 -0.09990114
0.10523248 -0.20077138 -0.099504709
0.12440324 -0.20080185 -0.099108398
0.14358009 -0.20083243 -0.098711789
0.16276307 -0.20086293 -0.09831512
0.18208288 -0.20100239 -0.096503615
0.20187961 -0.2014872 -0.090204954
0.0097285137 -0.18226545 -0.090304732
0.028664671 -0.18164006 -0.099331319
0.23909968 -0.18154661 -0.10068101
-0.0095494688 -0.16279587 -0.094453096
-0.028763568 -0.14339018 -0.098600328
-0.067136966 -0.10545422 -0.089131117
-0.0670847 -0.086021967 -0.095919967
-0.086383775 -0.047808357 -0.087593913
-0.086279318 -0.028521189 -0.094378591
-0.086214706 -0.0093384925 -0.098575413
-0.086286597 0.0098479316 -0.093905807
-0.08635895 0.029106675 -0.0892061
-0.067041673 0.0671729 -0.10150987
-0.067077629 0.086480506 -0.096838832
-0.04791382 0.1252424 -0.088781357
-0.028713724 0.14426228 -0.092125297
-0.0095038414 0.16350639 -0.091489434
0.0094894506 0.16287124 -0.10065615
0.0097639821 0.1829209 -0.088768721
0.028810672 0.18247278 -0.094590068
0.047768787 0.1820268 -0.100384
0.20113374 0.18223658 -0.0976578
0.22083649 0.18262608 -0.092598677
0.086490214 0.20186783 -0.09206295
0.10547239 0.20156752 -0.095609307
0.12486805 0.20183937 -0.092399359
0.14445715 0.20226957 -0.087318659
0.087338224 -0.22187744 -0.076325536
0.10631722 -0.22140619 -0.081890702
0.12561612 -0.22143058 -0.081601739
0.14503856 -0.22158611 -0.079765916
0.16471598 -0.22196828 -0.075252533
0.010035902 -0.20250419 -0.0769943
0.029101253 -0.20187619 -0.085152864
0.22243941 -0.20244791 -0.077725649
-0.0093454197 -0.18289633 -0.081199646
0.2605297 -0.18283792 -0.082041621
-0.028632328 -0.16359039 -0.081551552
-0.04791382 -0.14434554 -0.080872774
-0.067205861 -0.1250907 -0.080181122
-0.08659479 -0.086700492 -0.073887825
-0.086488992 -0.067201234 -0.080759645
-0.10597122 -0.028690975 -0.072331667
-0.10586821 -0.0093384925 -0.076792359
-0.10597824 0.010016296 -0.072027922
-0.086431585 0.048438229 -0.08448863
-0.086504489 0.067842819 -0.07975316
-0.086577669 0.087321185 -0.074999928
-0.067165464 0.10617145 -0.085428476
-0.028577419 0.16468903 -0.074418664
0.28018594 0.16436139 -0.079149127
-0.0092930943 0.18376508 -0.077801108
0.24106354 0.1833131 -0.083673358
0.029494874 0.20353539 -0.072369695
0.048640899 0.20308188 -0.07772541
0.067601264 0.20243914 -0.085315824
0.16412514 0.2027005 -0.082229972
0.18387458 0.20313415 -0.077107549
0.20370498 0.20356973 -0.071964622
0.10692382 0.22291794 -0.072040558
0.029895686 -0.22331469 -0.059352875
0.049163319 -0.22290823 -0.064152837
0.068357296 -0.22250222 -0.068947315
0.18467768 -0.22254743 -0.068413973
-0.0090364181 -0.20372553 -0.061129451
-0.028469808 -0.18433458 -0.060439587
0.28258923 -0.18431075 -0.060784578
-0.04791382 -0.16493386 -0.059736609
-0.06736856 -0.14552163 -0.059045911
-0.086833939 -0.12609883 -0.058354735
-0.086700976 -0.10630638 -0.066991091
-0.10629134 -0.067715958 -0.05847013
-0.10613099 -0.048149876 -0.065413594
-0.10608868 0.029444782 -0.067245245
-0.10619985 0.048947535 -0.062431574
-0.10631441 0.068528913 -0.057471275
-0.086743698 0.1071511 -0.064216495
-0.06730251 0.12638229 -0.067626476
-0.04791382 0.14556158 -0.07102716
0.26315576 0.18507999 -0.060720682
0.010363378 0.20434463 -0.062814236
0.22377726 0.20413312 -0.06531179
0.068711892 0.22391301 -0.061269999
0.087858364 0.22341391 -0.06667304
0.12638563 0.22306082 -0.070494771
0.1463268 0.22375032 -0.063031077
0.069522642 -0.24421142 -0.043716788
0.088833526 -0.24376257 -0.048576236
0.10806996 -0.24331418 -0.05343008
0.12767124 -0.243452 -0.051938534
0.14726394 -0.24355179 -0.050857425
0.16735455 -0.24417676 -0.044092298
0.010801423 -0.22462769 -0.043846369
0.20593455 -0.22413333 -0.04968524
0.24434519 -0.20417789 -0.055253506
-0.1064835 -0.087431327 -0.050149083
-0.12618527 -0.028906299 -0.04435122
-0.12599641 -0.0093384478 -0.050483942
-0.12619084 0.01023078 -0.044169903
-0.10645942 0.088237464 -0.051192164
-0.087026045 0.1275543 -0.045877457
-0.067441612 0.14688385 -0.049556255
-0.04791382 0.16617261 -0.053005934
0.30439377 0.16681536 -0.043729782
-0.028439067 0.1854091 -0.056446075
-0.0087643452 0.20598364 -0.043457866
0.030406274 0.22562173 -0.04277122
0.049482651 0.22441307 -0.055856347
0.166328 0.22437981 -0.056215525
0.18628758 0.22486286 -0.050986171
0.20632985 0.22534806 -0.04573524
0.050215766 -0.24484953 -0.036809206
0.18820974 -0.24546194 -0.030178428
0.2273227 -0.22559567 -0.032414436
-0.028304424 -0.20543243 -0.038955688
0.26594701 -0.20550147 -0.038058639
-0.04791382 -0.18587166 -0.038253665
-0.067534029 -0.16630021 -0.037551165
-0.087200359 -0.14684139 -0.034555078
-0.10697313 -0.12745711 -0.028947473
-0.10669132 -0.10730106 -0.041150451
-0.12646362 -0.048613384 -0.035311222
-0.12638623 0.029897777 -0.037824512
-0.12658259 0.049663171 -0.031447291
-0.10678195 0.10839781 -0.037225842
-0.067592591 0.16777056 -0.02994287
-0.04791382 0.18708123 -0.034724593
0.24653658 0.20659183 -0.036275506
0.069734752 0.2455668 -0.039124727
0.089279845 0.24544968 -0.040293813
0.10913281 0.24586226 -0.036171198
0.12904927 0.2462749 -0.032048345
0.14903127 0.24669014 -0.027899146
0.090401366 -0.2662096 -0.019480824
0.1105738 -0.26688081 -0.012772679
0.031225145 -0.24675533 -0.016177416
0.20921502 -0.24668817 -0.01690495
-0.0084538274 -0.22636846 -0.023289204
0.24900404 -0.22707821 -0.014906764
-0.04791382 -0.20720015 -0.015992165
-0.1270259 -0.088450573 -0.017050385
-0.12674356 -0.068460718 -0.026219964
-0.14677238 -0.0093385363 -0.017869949
-0.12677996 0.069527626 -0.025037885
-0.12697789 0.089491628 -0.018609643
-0.10735586 0.12935966 -0.01237464
-0.087406248 0.1486313 -0.021182179
0.28720021 0.18778728 -0.025550246
-0.028187875 0.20764695 -0.023815274
0.011279814 0.22743598 -0.023131251
0.22887877 0.22791234 -0.017975688
0.050768584 0.24723579 -0.022446752
0.16907714 0.24710537 -0.023749709
0.18918937 0.24752338 -0.019573212
0.071127392 -0.26726112 -0.0089728832
0.13085288 -0.26755702 -0.0060157776
0.1512377 -0.26823547 0.00076317787
-0.028010942 -0.22827013 -0.00083112717
0.29028097 -0.20827657 -0.0020087957
-0.067743681 -0.18780725 -0.010316133
-0.087661527 -0.16832933 -0.0046013594
-0.10766794 -0.1487648 0.0011385679
-0.12731028 -0.10858405 -0.0078150034
-0.14739008 -0.049128987 -0.0018217564
-0.14703295 -0.029162329 -0.011100054
-0.14702171 0.010483038 -0.011392236
-0.14727178 0.030404693 -0.0048952103
-0.14752364 0.0504274 0.0016481876
-0.12744337 0.10995585 -0.0034929514
-0.067785002 0.18937334 -0.0049483776
0.26976064 0.2090627 -0.0070954561
-0.0081451349 0.22927354 -0.0032389164
0.031644538 0.24922614 -0.0025573969
0.052098304 -0.26937002 0.012100339
0.17142904 -0.26856178 0.004024744
0.011925276 -0.24869487 0.0048179626
0.2320866 -0.24933884 0.011789322
0.27217162 -0.22939721 0.012478948
0.31113005 -0.18886042 0.0048851967
-0.12776309 -0.12911244 0.0068906546
-0.14811212 -0.089497127 0.016937256
-0.1477498 -0.069240071 0.0075238943
-0.16808911 -0.0093384031 0.015580535
-0.14777677 0.07055188 0.0082248449
-0.1480312 0.090778954 0.014834881
-0.1079414 0.15073512 0.012979627
-0.087793723 0.17012098 0.0039844513
-0.04791382 0.21023558 0.0067560673
0.25130185 0.23003396 0.0049929619
0.21235746 0.25093278 0.014496088
0.13228805 0.27097553 0.014699459
0.15208648 0.27066186 0.011789322
0.19302692 -0.27035755 0.021969199
-0.067978695 -0.20998721 0.02021265
-0.088133439 -0.19032677 0.026049972
-0.10837898 -0.17057891 0.031927228
-0.14847708 -0.10990175 0.026419163
-0.16843393 -0.029425142 0.023046136
-0.16839615 0.010741862 0.022228241
-0.16870478 0.030925175 0.028909922
-0.14865896 0.1115557 0.031144857
-0.12822908 0.13121325 0.022023797
-0.088188857 0.19203673 0.029649854
0.29352057 0.21158977 0.022746205
0.012266658 0.25144356 0.019600391
0.11294107 0.27215764 0.02566731
0.17312637 0.27198541 0.024069309
0.032756306 -0.27151638 0.033548474
-0.0075009279 -0.2518158 0.038603544
-0.04791382 -0.23208247 0.044191003
-0.12871581 -0.15074199 0.037830949
-0.14914405 -0.13081476 0.043747544
-0.16931719 -0.070040219 0.042169094
-0.16887394 -0.049658522 0.032572746
-0.16901498 0.051212117 0.035625935
-0.16932678 0.071603484 0.042376757
-0.10853826 0.17253478 0.03882432
0.31635955 0.19303562 0.042625904
-0.068174168 0.2135253 0.04560554
-0.027754011 0.23257926 0.032545328
0.093433961 0.27335706 0.036797047
-0.088616908 -0.21285383 0.057451963
-0.17021348 -0.11125489 0.06157434
-0.16976368 -0.090571746 0.051836133
-0.19041008 -0.029695051 0.058110237
-0.18996915 -0.0093385363 0.049927711
-0.1903369 0.011007601 0.056752324
-0.16964018 0.092100166 0.049162149
-0.14966831 0.13311772 0.057367921
-0.1290309 0.1528957 0.048063636
-0.0071893893 0.25537029 0.058838606
0.23629889 0.25457329 0.050874472
0.073759876 0.27456686 0.048022032
0.25838277 -0.25437579 0.066315413
-0.10910714 -0.19291839 0.063457489
-0.12969111 -0.17289312 0.069504499
-0.15036924 -0.15277605 0.075579047
-0.19093734 -0.050202414 0.067895055
-0.19070657 0.03145954 0.063612103
-0.19107738 0.052017361 0.070493817
-0.17045134 0.113199 0.0667243
-0.12984845 0.17501441 0.074614525
-0.10914744 0.19477355 0.065202594
-0.04791382 0.23623888 0.072163224
0.013644766 -0.27609238 0.079274297
-0.027349932 -0.25610507 0.085036397
-0.068522252 -0.23603129 0.090823412
-0.17114154 -0.13256621 0.081667423
-0.19200365 -0.091675594 0.08768332
-0.19146852 -0.070861913 0.07775259
-0.21243371 -0.0093385363 0.085179448
-0.19145089 0.072682679 0.077425361
-0.19182715 0.093456715 0.084407687
-0.1506975 0.15511532 0.084107637
-0.089050621 0.21691385 0.085622549
-0.10987402 -0.21587241 0.096664429
-0.13069022 -0.19558537 0.10195184
-0.19254281 -0.11264496 0.097688556
-0.21360403 -0.050761074 0.10418296
-0.21298489 -0.029972408 0.094129324
-0.21286532 0.011280525 0.092187881
-0.21329921 0.032007866 0.09923327
-0.2137354 0.052844606 0.10631597
-0.19284433 0.11488771 0.10328436
-0.17169586 0.1350739 0.093668938
-0.13068309 0.19758469 0.10172033
-0.027240312 0.25941706 0.099276662
-0.15162389 -0.17527458 0.10817611
-0.17265473 -0.15486965 0.11442912
-0.19378261 -0.13436888 0.12069666
-0.21422784 -0.071706273 0.11431229
-0.23550822 -0.0093384478 0.12140131
-0.21417387 0.073791623 0.1134361
-0.2146147 0.094849579 0.12059379
-0.17296523 0.15739675 0.12115157
-0.15174775 0.17756259 0.11139381
-0.068693072 0.2400125 0.11301279
-0.04791382 -0.26054889 0.1331414
-0.21548873 -0.1140728 0.13478661
-0.21485637 -0.092809767 0.12451816
-0.23618215 -0.030257216 0.13112855
-0.23600706 0.011560766 0.12860155
-0.23650858 0.03257145 0.13584006
-0.19433677 0.13708441 0.13098061
-0.11057205 0.22040829 0.12689006
0.056737795 0.28368601 0.13263786
-0.089874558 -0.24012253 0.13913906
-0.13202171 -0.21960825 0.14519298
-0.15291023 -0.19833204 0.1415962
-0.17420487 -0.1777266 0.14799058
-0.23689808 -0.051335037 0.14146209
-0.23701276 0.05369442 0.14311743
-0.23751861 0.074930362 0.15041876
-0.21586403 0.11662423 0.14088106
-0.1742616 0.18018325 0.14921904
-0.15288386 0.20060161 0.14091086
-0.04791382 0.26359099 0.14098525
-0.19560036 -0.15702501 0.15442991
-0.21709597 -0.13622507 0.16088474
-0.23834641 -0.093975246 0.16236699
-0.23761949 -0.072573729 0.15187466
-0.25921708 -0.0093384925 0.15861905
-0.25978553 0.011848677 0.16600382
-0.23802926 0.096281283 0.15778923
-0.19585945 0.15974227 0.15923798
-0.090120628 0.24390234 0.15512228
-0.23907894 -0.11554136 0.17294002
-0.26084793 -0.051925361 0.17980421
-0.26002994 -0.030550137 0.16917861
-0.26035824 0.033150427 0.17344332
-0.26093405 0.054567598 0.18092346
-0.23953539 0.1184093 0.17952836
-0.21761702 0.1391518 0.16934574
-0.13276823 0.22401111 0.16943717
-0.069231793 -0.26515421 0.18299544
-0.11201138 -0.24436289 0.1892153
-0.15498477 -0.22348039 0.19549394
-0.17579472 -0.20115989 0.18241203
-0.19746317 -0.18025199 0.1889993
-0.21923594 -0.15924534 0.19563353
-0.2616722 -0.073465973 0.19051206
-0.26151299 0.076101296 0.18844402
-0.19741496 0.18287727 0.18810463
-0.17586355 0.20391107 0.18390203
-0.24111196 -0.13813727 0.2022841
-0.26250291 -0.095174111 0.20130312
-0.28455508 -0.030851262 0.20830929
-0.28363538 -0.0093385363 0.19744837
-0.28422967 0.012144746 0.20446646
-0.26209629 0.097752854 0.19602108
-0.24156407 0.14127843 0.20880985
-0.21940698 0.16215454 0.19841111
-0.1122277 0.24791701 0.19858193
-0.19937442 -0.20407364 0.22446764
-0.26334006 -0.11705159 0.21217859
-0.28548062 -0.052532442 0.21923947
-0.28487739 0.033745892 0.21211553
-0.28552866 0.055465519 0.21980715
-0.26388729 0.12024558 0.21928668
-0.15567225 0.22773018 0.21335542
-0.069475181 0.27095908 0.21461189
-0.091346234 -0.26993302 0.23472738
-0.22142975 -0.18285441 0.23125672
-0.24359299 -0.16153346 0.23809505
-0.28641343 -0.074383892 0.23025537
-0.30875298 -0.0093384478 0.23737597
-0.28618357 0.077305131 0.22754085
-0.28684342 0.099265844 0.23533332
-0.24363729 0.16463791 0.23873413
-0.22123705 0.1856501 0.22812772
-0.19958019 0.20732772 0.2282865
-0.1349774 -0.24876341 0.24118221
-0.17880943 -0.22749785 0.24768233
-0.26586285 -0.14010796 0.24495029
-0.28830123 -0.11860551 0.25254893
-0.28735358 -0.09640757 0.24135828
-0.30978531 -0.031161122 0.24855137
-0.30936518 0.012449063 0.24400318
-0.310092 0.034357898 0.25187123
-0.26620698 0.14346687 0.24942088
-0.13504699 0.25206107 0.2434417
-0.22368149 -0.20707713 0.2678206
-0.31082585 -0.053157173 0.25981557
-0.31082284 0.056388758 0.25978303
-0.31155929 0.078543417 0.26775551
-0.28894949 0.12213551 0.26020491
-0.24575539 0.18850304 0.26930618
-0.1793174 0.23156814 0.25868011
-0.24613746 -0.18553731 0.27482116
-0.26870513 -0.16389245 0.28187251
-0.31292886 -0.097676806 0.28258121
-0.31187317 -0.075328328 0.27115297
-0.33460325 -0.0093384478 0.27848232
-0.33522478 0.012762295 0.284693
-0.31229839 0.1008217 0.275756
-0.26857835 0.16719322 0.28022575
-0.22406821 0.21085446 0.27409995
-0.15881982 -0.25333172 0.29513204
-0.29138291 -0.14213982 0.28894222
-0.31417122 -0.1202791 0.29603028
-0.33575445 -0.031480074 0.28998601
-0.33603498 0.03498777 0.2927891
-0.29157799 0.14572059 0.29124594
-0.1586141 0.25634217 0.28978705
-0.20354602 -0.23167019 0.30188298
-0.24875015 -0.21017489 0.31253195
-0.33808151 -0.076300211 0.31323886
-0.33691329 -0.05379986 0.30156553
-0.33684978 0.057339132 0.30093098
-0.33766919 0.079817005 0.30911911
-0.31475356 0.12408137 0.30233407
-0.27100313 0.19144185 0.31172419
-0.20374165 0.23553376 0.30551326
-0.27162123 -0.18830441 0.31975377
-0.294608 -0.16632573 0.32702875
-0.33925918 -0.098983251 0.32500696
-0.36121726 -0.0093384925 0.32080293
-0.36183879 0.013084747 0.3265698
-0.33849496 0.10242347 0.31737053
-0.29426301 0.1698246 0.3229543
-0.24936776 0.21449926 0.32144618
-0.31770858 -0.14423582 0.33432293
-0.3409234 -0.12203451 0.3416369
-0.36377937 -0.05446215 0.34457612
-0.36249217 -0.031808291 0.33263266
-0.362737 0.035636179 0.33490407
-0.36364034 0.058317095 0.3432864
-0.317707 0.14804088 0.33430612
-0.18296605 0.26076594 0.33767569
-0.092838347 0.282671 0.33164299
-0.18358903 -0.25807643 0.35116363
-0.22924618 -0.23600398 0.35817993
-0.36507523 -0.077301674 0.3566004
-0.36454889 0.081128724 0.35171688
-0.34133294 0.1260857 0.34572947
-0.29701078 0.19446817 0.35540402
-0.22898242 0.2396308 0.35389686
-0.27512872 -0.21383198 0.36531734
-0.29791969 -0.19116095 0.36613762
-0.32133955 -0.16883686 0.37362957
-0.36638182 -0.10032929 0.36872399
-0.38862738 -0.0093384478 0.36437535
-0.38923863 0.013416514 0.36966872
-0.3654646 0.10407249 0.36021304
-0.32072651 0.17253664 0.36699355
-0.27551758 0.2182653 0.37036896
-0.3448768 -0.14639837 0.38114166
-0.36853573 -0.12384635 0.3887099
-0.3914578 -0.055144392 0.38888729
-0.39003673 -0.032146618 0.3765806
-0.39022973 0.036303699 0.37825191
-0.39122662 0.059324138 0.38688505
-0.34462988 0.15043168 0.37867451
-0.20814267 0.26533952 0.38718617
-0.39288864 -0.078333504 0.40127873
-0.39223135 0.082479507 0.39558661
-0.368725 0.12815198 0.39046609
-0.32381609 0.19758815 0.40043867
-0.25508469 0.24387042 0.40396273
-0.2093416 -0.26301071 0.40943539
-0.25596818 -0.24051003 0.41671526
-0.32506958 -0.19410905 0.41400838
-0.39433143 -0.10171656 0.41377366
-0.4168739 -0.0093384031 0.40929163
-0.41746372 0.0137583 0.41408038
-0.393242 0.10577083 0.40433896
-0.34800178 0.17533103 0.41236818
-0.30283114 -0.21790721 0.4241395
-0.34894016 -0.17142962 0.4217453
-0.3729322 -0.14863212 0.42950404
-0.41842338 -0.032495234 0.42187202
-0.41855294 0.036991395 0.42292368
-0.41964859 0.060361825 0.43181956
-0.37238342 0.15289637 0.42441177
-0.30256397 0.2221617 0.42098415
-0.39704835 -0.12571682 0.43730307
-0.42155954 -0.079397045 0.44733453
-0.41998371 -0.055847302 0.43454051
-0.420753 0.083871305 0.44078636
-0.3969638 0.13028149 0.43657064
-0.35145301 0.20080408 0.44685531
-0.23418659 0.2700707 0.43840218
-0.3531144 -0.19715419 0.46345663
-0.42314643 -0.10314663 0.46021855
-0.44599363 -0.0093384478 0.45559669
-0.44654742 0.014110506 0.45982826
-0.42186177 0.10752024 0.44978809
-0.37613022 0.17821372 0.45917785
-0.28209126 0.2482567 0.45576334
-0.11819831 0.29522774 0.45711708
-0.23613659 -0.2681447 0.47006595
-0.28377563 -0.24520028 0.47764373
-0.37745294 -0.17410807 0.47145116
-0.44768894 -0.032854669 0.46855116
-0.44774035 0.037699938 0.46894395
-0.4489429 0.061431259 0.47813296
-0.40100875 0.15543909 0.47160101
-0.33055079 0.22619224 0.47334385
-0.33166021 -0.22214828 0.48535395
-0.40191725 -0.15093981 0.47946882
-0.42651021 -0.1276499 0.4875288
-0.44940126 -0.056572378 0.48163557
-0.45015019 0.085305318 0.48735845
-0.42609107 0.13247809 0.48412597
-0.45286518 -0.10462109 0.5081048
-0.45112827 -0.080493882 0.49483228
-0.47602513 -0.0093384031 0.50333643
-0.47653443 0.01447371 0.50701189
-0.45138222 0.10932872 0.49677312
-0.40514857 0.18118671 0.50745273
-0.37996456 0.20412271 0.49475634
-0.38209915 -0.20030153 0.51456249
-0.40692389 -0.17687656 0.52282751
-0.47787976 -0.033225499 0.51672113
-0.47783703 0.038430735 0.5164125
-0.43054336 0.15806192 0.5202738
-0.31005001 0.25279763 0.50939035
-0.43187892 -0.1533253 0.53111708
-0.47975048 -0.057320289 0.53022206
-0.47915021 0.062534176 0.52588975
-0.48046875 0.086784914 0.53540564
-0.45614949 0.13474458 0.53320134
-0.35953131 0.23036718 0.52757847
-0.31273481 -0.25008494 0.54109609
-0.36168799 -0.22656667 0.54912913
-0.45696738 -0.12964852 0.53945124
-0.48163489 -0.08162535 0.54382157
-0.5070172 -0.0093384031 0.55261838
-0.48197237 0.11123338 0.54625678
-0.40960658 0.20767719 0.54606032
-0.41207182 -0.20355608 0.56741011
-0.48353583 -0.10614343 0.55754018
-0.50903797 -0.033608168 0.5664345
-0.507465 0.01484853 0.55568027
-0.5088836 0.03918463 0.56537962
-0.43510413 0.18425661 0.55730247
-0.33901224 0.25750166 0.56494212
-0.26604074 0.28149745 0.56210017
-0.4374021 -0.17973971 0.5759598
-0.51107359 -0.058092192 0.58035243
-0.51031101 0.063671447 0.57513869
-0.46103597 0.1607706 0.57054102
-0.46286741 -0.1557928 0.58453584
-0.48847118 -0.13171557 0.59315813
-0.51313031 -0.082793713 0.59441411
-0.51175028 0.088311292 0.58497894
-0.51356041 0.11320016 0.59735525
-0.48718715 0.13708587 0.58389139
-0.38955998 0.23469447 0.58379066
-0.34291694 -0.2551744 0.60721147
-0.51520228 -0.1077149 0.60858059
-0.53901076 -0.0093384478 0.60347772
-0.53938133 0.01523488 0.60588431
-0.46603817 0.1874259 0.60876465
-0.44072112 0.21161553 0.60290718
-0.39298692 -0.23117121 0.61558855
-0.44332278 -0.20704284 0.62402964
-0.54120755 -0.034003034 0.61774588
-0.54092276 0.039962344 0.61589646
-0.54247713 0.064846061 0.62599218
-0.49252874 0.16356723 0.62244117
-0.36903286 0.26237768 0.62252367
-0.46894011 -0.18270232 0.63093948
-0.49493641 -0.158346 0.63981652
-0.54342401 -0.058889635 0.63214254
-0.54404128 0.089886934 0.63615179
-0.51924706 0.13950352 0.636235
-0.42069277 0.23918088 0.6420697
-0.52107656 -0.13385504 0.64874303
-0.5456605 -0.084000602 0.64666891
-0.57206166 -0.0093384478 0.65603328
-0.54619616 0.11523216 0.65014803
-0.54791403 -0.10933839 0.66130602
-0.57444513 -0.034411419 0.67077672
-0.57233751 0.015634045 0.65773964
-0.57400918 0.040765814 0.66808033
-0.49800482 0.19070192 0.6619612
-0.47298869 0.2157011 0.66187644
-0.37440488 -0.26048541 0.67620409
-0.42564136 -0.23597494 0.68492579
-0.57684672 -0.059713103 0.6856333
-0.57569504 0.066058815 0.67850852
-0.52507752 0.16645862 0.67609751
-0.40017104 0.26743507 0.68224883
-0.47715819 -0.21133584 0.69373739
-0.50159419 -0.18576984 0.6878649
-0.52814341 -0.16099013 0.69705963
-0.57927394 -0.085247055 0.70064759
-0.57738805 0.091513745 0.68898201
-0.55238354 0.14200236 0.69033623
-0.55484223 -0.13607046 0.7063055
-0.58172357 -0.11101646 0.71580064
-0.60621989 -0.0093386248 0.7103498
-0.60637844 0.016046247 0.71128631
-0.57993245 0.11733272 0.70472133
-0.45299169 0.2438352 0.70253158
-0.30152521 0.29499522 0.70821786
-0.60879767 -0.03483329 0.72557032
-0.60819185 0.041595802 0.72199321
-0.55872989 0.16944718 0.73155701
-0.53105074 0.19408745 0.71693683
-0.50647199 0.21994057 0.72306776
-0.61140299 -0.060564734 0.74095452
-0.61001694 0.067311823 0.7327702
-0.61185026 0.093195453 0.74359524
-0.58665526 0.14458765 0.74630702
-0.43249035 0.27268425 0.74423969
-0.45974424 -0.24099319 0.75735545
-0.53542459 -0.18894771 0.74684107
-0.56255019 -0.16372953 0.75637054
-0.61403275 -0.086536601 0.75648224
-0.6148299 0.11950608 0.7611891
-0.51249874 -0.2158207 0.76656199
-0.58983123 -0.13836657 0.76595438
-0.565238 0.19759107 0.77382827
-0.48652348 0.24866731 0.76530147
-0.54124439 0.22434442 0.7866317
-0.49538833 -0.24623686 0.83304131
-0.46889907 0.28008887 0.83168364
0 0 0 1 0 0 0 1 0 0 0 1 0 0 0 0 0 1164 1 0 0
