ply
format ascii 1.0
comment PCL generated
element vertex 1324
property float x
property float y
property float z
element camera 0
property float view_px
property float view_py
property float view_pz
property float x_axisx
property float x_axisy
property float x_axisz
property float y_axisx
property float y_axisy
property float y_axisz
property float z_axisx
property float z_axisy
property float z_axisz
property float focal
property float scalex
property float scaley
property float centerx
property float centery
property int viewportx
property int viewporty
property float k1
property float k2
end_header
0.01241331 0.65306175 -0.073384762
-0.011816854 0.67690957 -0.075159311
0.01241331 0.6773057 -0.073384762
-0.011816854 0.70113969 -0.075159192
0.01241331 0.70154941 -0.073384762
-0.011816854 0.72536981 -0.075159311
0.01241331 0.72579324 -0.073384762
-0.011816854 0.74959993 -0.075159311
0.01241331 0.75003707 -0.073384762
-0.011948969 -0.53737307 -0.057996869
0.01241331 -0.53766596 -0.056185961
-0.084944598 -0.51255471 -0.060959339
-0.060504332 -0.51188278 -0.065323591
-0.036131173 -0.51121014 -0.069693089
0.036687925 -0.51125753 -0.069385052
0.061004207 -0.51167417 -0.066678643
0.085456379 -0.51271915 -0.059892058
-0.08487206 -0.48787069 -0.063314795
-0.060459577 -0.48729348 -0.067261577
-0.036107741 -0.48671523 -0.071215272
0.036676072 -0.48675773 -0.07092464
0.060976505 -0.48711559 -0.068477631
0.085395992 -0.48798898 -0.062507033
-0.08487206 -0.46354944 -0.063314676
-0.060459577 -0.46300253 -0.067261457
-0.036107741 -0.46245474 -0.071215272
0.036676072 -0.46249494 -0.070924759
0.060976505 -0.462834 -0.06847775
0.085395992 -0.46366131 -0.062507033
-0.08487206 -0.43922812 -0.063314795
-0.060459577 -0.43871167 -0.067261457
-0.036107741 -0.43819416 -0.071215272
0.036676072 -0.43823227 -0.07092464
0.060976505 -0.43855241 -0.06847775
0.085395992 -0.43933383 -0.062506914
-0.08487206 -0.41490674 -0.063314795
-0.060459577 -0.41442066 -0.067261457
-0.036107741 -0.4139336 -0.071215272
0.036676072 -0.41396946 -0.07092464
0.060976505 -0.41427085 -0.06847775
0.085395992 -0.41500625 -0.062507033
-0.08487206 -0.39058539 -0.063314795
-0.060459577 -0.39012969 -0.067261338
-0.036107741 -0.38967311 -0.071215272
0.036676072 -0.38970661 -0.070924759
0.060976505 -0.38998926 -0.06847775
0.085395992 -0.39067861 -0.062507153
-0.08487206 -0.36626405 -0.063314795
-0.060459577 -0.36583871 -0.067261457
-0.036107741 -0.36541262 -0.071215391
0.036676072 -0.36544392 -0.07092464
0.060976505 -0.36570767 -0.06847775
0.085395992 -0.36635113 -0.062506914
-0.08487206 -0.34194267 -0.063314795
-0.060459577 -0.34154782 -0.067261338
-0.036107741 -0.34115207 -0.071215391
0.036676072 -0.34118116 -0.070924759
0.060976505 -0.34142607 -0.06847775
0.085395992 -0.34202358 -0.062507153
-0.08487206 -0.31762141 -0.063314795
-0.060459577 -0.31725675 -0.067261457
-0.036107741 -0.31689161 -0.071215272
0.036676072 -0.31691846 -0.07092464
0.060976505 -0.31714448 -0.068477631
0.085395992 -0.31769589 -0.062507033
-0.08487206 -0.29330003 -0.063314795
-0.060459577 -0.29296589 -0.067261457
-0.036107741 -0.29263106 -0.071215272
0.036676072 -0.29265568 -0.070924759
0.060976505 -0.29286289 -0.06847775
0.085395992 -0.29336846 -0.062506914
-0.036354549 -0.26960453 -0.055184484
-0.011940213 -0.26930049 -0.059134364
0.01241331 -0.26942655 -0.057496905
0.036798432 -0.26961651 -0.055029154
-0.036354549 -0.24522066 -0.055184484
-0.011940213 -0.24494697 -0.059134364
0.01241331 -0.24506044 -0.057496905
0.036798432 -0.24523145 -0.055029154
-0.08487206 -0.22033601 -0.063314795
-0.060459577 -0.220093 -0.067261457
-0.036107741 -0.21984948 -0.071215272
0.036676072 -0.21986733 -0.070924759
0.060976505 -0.220018 -0.06847775
0.085395992 -0.22038577 -0.062506914
-0.08487206 -0.19601472 -0.063314795
-0.060459577 -0.19580196 -0.067261457
-0.036107741 -0.19558889 -0.071215272
0.036676072 -0.19560468 -0.07092464
0.060976774 -0.19573741 -0.068460464
0.085396387 -0.19605909 -0.062489986
-0.036354817 -0.17206962 -0.055167437
-0.011940213 -0.17188643 -0.059134364
0.01241331 -0.17196193 -0.057496905
0.036798432 -0.17207608 -0.055029273
-0.036354549 -0.14768487 -0.055184484
-0.011940213 -0.14753285 -0.059134364
0.01241331 -0.14759585 -0.057496905
0.036798432 -0.14769092 -0.055029154
-0.084872589 -0.12305109 -0.063297749
-0.060459577 -0.1229291 -0.067261338
-0.036107741 -0.12280737 -0.071215391
0.036676072 -0.1228163 -0.07092464
0.060976774 -0.12289216 -0.068460464
0.085396387 -0.12307601 -0.062489986
-0.084872589 -0.098729663 -0.063297629
-0.060459577 -0.098638169 -0.067261219
-0.036107741 -0.098546781 -0.071215272
0.036676072 -0.098553538 -0.070924759
0.060976774 -0.098610461 -0.068460584
0.085396387 -0.098748237 -0.062489986
-0.036354817 -0.074533418 -0.055167317
-0.011940213 -0.074472263 -0.059134245
0.01241331 -0.074497551 -0.057496905
0.036798432 -0.074535578 -0.055029154
-0.036354817 -0.050149389 -0.055167198
-0.011940213 -0.050118789 -0.059134245
0.01241331 -0.050131328 -0.057496905
0.036798432 -0.050150424 -0.055029154
-0.08487206 -0.025765263 -0.063314795
-0.036107741 -0.025765313 -0.071215272
0.036676072 -0.025765263 -0.07092464
0.085396387 -0.025765313 -0.062489867
-0.060459577 -0.025765158 -0.067261457
0.060976774 -0.02576521 -0.068460703
-0.08487206 -0.0014438815 -0.063314795
-0.060459577 -0.0014743283 -0.067261457
-0.036107741 -0.0015047733 -0.071215272
0.036676072 -0.0015025027 -0.07092464
0.060976774 -0.001483513 -0.068460703
0.085396387 -0.001437638 -0.062489867
-0.036354817 0.023002841 -0.055167317
-0.011940347 0.022942103 -0.059117079
0.01241331 0.022967182 -0.05747962
0.036798567 0.023005318 -0.055011868
-0.036354817 0.047386914 -0.055167317
-0.011940347 0.047295682 -0.059117079
0.01241331 0.047333613 -0.057479739
0.036798567 0.047390528 -0.055011749
-0.084872589 0.071520671 -0.063297749
-0.060459577 0.071398526 -0.067261338
-0.036107741 0.071276896 -0.071215272
0.036676072 0.071285829 -0.07092464
0.060976505 0.071361221 -0.06847775
0.085395992 0.071545027 -0.062506914
-0.084872589 0.095842205 -0.06329751
-0.060459577 0.095689565 -0.067261457
-0.036107741 0.095537387 -0.071215272
0.036676072 0.095548585 -0.07092452
0.060976774 0.095643327 -0.068460584
0.085396387 0.095873222 -0.062489867
-0.060459577 0.1199805 -0.067261457
-0.036107741 0.11979803 -0.071215272
0.036676072 0.1198113 -0.07092464
0.060976774 0.11992508 -0.068460464
-0.036354817 0.14492318 -0.055167437
-0.011940347 0.14471032 -0.05911696
0.01241331 0.14479758 -0.057496905
0.036798432 0.1449306 -0.055029154
-0.084952012 0.16896527 -0.060718298
-0.060606308 0.16895378 -0.060907722
-0.036263786 0.16894314 -0.061079741
-0.011924181 0.16893478 -0.061217427
0.01241331 0.1689304 -0.061286092
0.03674987 0.16892715 -0.061337709
0.061089344 0.16893888 -0.061148524
0.085437693 0.16896652 -0.060701132
-0.08487206 0.1931268 -0.063314795
-0.060459577 0.1928533 -0.067261457
-0.036107741 0.19257949 -0.071215272
0.036676072 0.19259962 -0.07092464
0.060976774 0.19277027 -0.068460703
0.085396387 0.19318402 -0.062489867
-0.08487206 0.21744813 -0.063314795
-0.060459577 0.21714438 -0.067261457
-0.036107741 0.21683994 -0.071215272
0.036676072 0.21686244 -0.07092464
0.060976505 0.21705069 -0.06847775
0.085395992 0.2175104 -0.062506914
-0.036354549 0.24245799 -0.055184603
-0.011940213 0.24212354 -0.059134245
0.01241331 0.2422623 -0.057496905
0.036798432 0.24247116 -0.055029273
-0.085057043 0.26664582 -0.057307243
-0.060687073 0.26663631 -0.057410598
-0.03631895 0.26662824 -0.057496905
-0.011940213 0.26647699 -0.059134364
0.01241331 0.26662824 -0.057496905
0.036781162 0.26664907 -0.057272673
0.061149284 0.26665056 -0.057255507
0.085509703 0.26662034 -0.057583094
-0.084872589 0.29041392 -0.06329751
-0.060459577 0.29001731 -0.067261219
-0.036107741 0.28962156 -0.071215272
0.036676072 0.28965056 -0.07092464
0.060976505 0.2898955 -0.06847775
0.085395992 0.29049319 -0.062507153
-0.084872589 0.31473541 -0.06329751
-0.060459577 0.31430817 -0.067261457
-0.036107741 0.31388214 -0.071215272
0.036676072 0.31391346 -0.07092464
0.060976505 0.3141771 -0.06847775
0.085395992 0.3148205 -0.062507033
-0.036354817 0.33999559 -0.055167198
-0.011940347 0.33953962 -0.05911696
0.01241331 0.33972865 -0.057479739
0.036798567 0.34001359 -0.055011749
-0.085099548 0.36428609 -0.055927038
-0.060723729 0.364299 -0.055823326
-0.036346041 0.36430955 -0.055737138
-0.011940347 0.36389321 -0.05911696
0.01241331 0.36409482 -0.05747962
0.036793251 0.36431387 -0.055702567
0.061173193 0.36431387 -0.055702567
0.085559115 0.36434582 -0.055443645
-0.084872589 0.38769996 -0.063297629
-0.060459577 0.38718107 -0.067261457
-0.036107741 0.38666376 -0.071215272
0.036676072 0.38670179 -0.070924759
0.060976774 0.38702416 -0.068460464
0.085396387 0.38780549 -0.062489867
-0.08487206 0.41201895 -0.063314676
-0.060459577 0.41147211 -0.067261219
-0.036107741 0.41092405 -0.071215272
0.036676072 0.4109644 -0.07092464
0.060976774 0.41130602 -0.068460464
0.085396387 0.41213331 -0.062489867
-0.036354817 0.43753201 -0.055167437
-0.011940213 0.43695167 -0.059134245
0.01241331 0.43718868 -0.057514071
0.036798302 0.43754959 -0.05504632
-0.085136235 0.46198258 -0.054735422
-0.060750052 0.46199045 -0.054683805
-0.036354549 0.46191323 -0.055184484
-0.011940081 0.46130252 -0.059151411
0.01241331 0.46155465 -0.05751431
0.036798302 0.46193445 -0.055046439
0.061185427 0.46195588 -0.054908156
0.085575864 0.46198511 -0.054718018
-0.08487206 0.484983 -0.063314795
-0.060459577 0.48434505 -0.067261457
-0.036107741 0.48370573 -0.071215272
0.036676072 0.48375276 -0.07092464
0.060976774 0.48415104 -0.068460703
0.085396387 0.48511627 -0.062489867
-0.08487206 0.5093044 -0.063314795
-0.060459577 0.50863588 -0.067261457
-0.036107741 0.50796628 -0.071215272
0.036676072 0.50801551 -0.07092464
0.060976774 0.50843287 -0.068460584
0.085396387 0.50944388 -0.062489867
-0.08487206 0.5336256 -0.063314676
-0.060459182 0.53292394 -0.067278385
-0.036107741 0.5322268 -0.071215272
0.036676072 0.5322783 -0.07092464
0.060976774 0.53271449 -0.068460703
0.085396387 0.53377175 -0.062489867
-0.08487206 0.55794692 -0.063314676
-0.060459182 0.55721462 -0.067278504
-0.036107481 0.5564841 -0.071232319
0.036676072 0.55654097 -0.07092464
0.060976774 0.55699623 -0.068460703
0.085396387 0.55809939 -0.062489867
-0.08487206 0.58226836 -0.063314676
-0.060459182 0.58150542 -0.067278504
-0.036107481 0.58074462 -0.071232319
0.036676072 0.58080375 -0.07092464
0.060976774 0.58127809 -0.068460703
0.085396387 0.58242714 -0.062489867
-0.08487206 0.60658979 -0.063314795
-0.060459182 0.60579646 -0.067278504
-0.036107481 0.60500503 -0.0712322
0.036676072 0.60506654 -0.07092464
0.060976774 0.60555983 -0.068460464
0.085396387 0.60675466 -0.062489867
-0.08487206 0.63091111 -0.063314795
-0.060459182 0.63008714 -0.067278504
-0.036107481 0.62926543 -0.071232319
0.036676072 0.62932932 -0.070924759
0.060976774 0.62984145 -0.068460464
0.085396387 0.63108242 -0.062489986
-0.08487206 0.65523243 -0.063314676
-0.060459182 0.65437806 -0.067278504
-0.036107481 0.65352571 -0.071232438
0.036676072 0.65359211 -0.07092464
0.060976774 0.65412319 -0.068460584
0.085396387 0.65541017 -0.062489867
-0.08487206 0.67955363 -0.063314676
-0.060459182 0.67866874 -0.067278504
-0.036107481 0.67778611 -0.071232319
0.036676072 0.67785478 -0.070924759
0.060976774 0.67840481 -0.068460464
0.085396387 0.67973793 -0.062489867
-0.08487206 0.70387495 -0.063314676
-0.060459182 0.70295978 -0.067278504
-0.036107481 0.70204651 -0.071232319
0.036676072 0.70211756 -0.07092452
0.060976774 0.70268667 -0.068460584
0.085396387 0.70406556 -0.062489867
-0.08487206 0.72819638 -0.063314676
-0.060459182 0.72725046 -0.067278504
-0.036107481 0.72630692 -0.071232319
0.036676072 0.72638023 -0.07092464
0.060976505 0.72696424 -0.06847775
0.085396387 0.7283932 -0.062489986
-0.08487206 0.7525177 -0.063314795
-0.060459182 0.75154126 -0.067278504
-0.036107481 0.75056732 -0.071232319
0.036676072 0.75064313 -0.07092464
0.060976505 0.75124586 -0.06847775
0.085395992 0.75271666 -0.062507033
-0.036629677 -0.56523812 -0.037314296
-0.012073951 -0.56448507 -0.041761518
0.01241331 -0.56476831 -0.040088534
0.036934804 -0.56523812 -0.037314296
-0.085443586 -0.53951383 -0.044754267
-0.060877137 -0.53879833 -0.049180627
-0.036379024 -0.53808486 -0.053594947
0.036810674 -0.5381099 -0.053439379
0.061250396 -0.53855467 -0.050688148
0.085856594 -0.53986824 -0.042562485
-0.13469793 -0.51613605 -0.037698507
-0.10969807 -0.5142107 -0.050203323
0.11012536 -0.51432544 -0.049458146
0.13495697 -0.51593989 -0.038972497
-0.13446684 -0.49088573 -0.042701602
-0.10955621 -0.48924944 -0.053888917
0.11001181 -0.48935822 -0.053145409
0.13477458 -0.49073806 -0.043710947
-0.13446684 -0.46640575 -0.042701602
-0.10955621 -0.46485561 -0.053888917
0.11001181 -0.46495855 -0.053145409
0.13477458 -0.46626586 -0.043710947
-0.13446684 -0.44192564 -0.042701721
0.13477391 -0.44179127 -0.043728352
-0.10955621 -0.44046164 -0.053888917
0.11001181 -0.44055888 -0.053145647
-0.13446684 -0.41744566 -0.042701721
-0.10955621 -0.41606772 -0.053888798
0.11001181 -0.41615918 -0.053145528
0.13477391 -0.41731912 -0.043728352
-0.13446684 -0.39296558 -0.042701721
-0.10955621 -0.39167377 -0.053888917
0.11001181 -0.39175963 -0.053145528
0.13477391 -0.392847 -0.043728352
-0.13446602 -0.36848372 -0.042719007
-0.10955621 -0.36727983 -0.053888917
0.11001181 -0.36736009 -0.053145409
0.13477391 -0.36837491 -0.043728232
-0.13446602 -0.34400374 -0.042719126
-0.10955621 -0.34288606 -0.053888798
0.11001181 -0.34296036 -0.053145409
0.13477391 -0.34390286 -0.043728352
-0.13446602 -0.31952384 -0.042719245
-0.10955621 -0.31849211 -0.053888917
0.11001181 -0.31856081 -0.053145409
0.13477391 -0.31943074 -0.043728352
-0.13446602 -0.29504403 -0.042719126
-0.10955621 -0.29409817 -0.053888917
0.11001181 -0.29416111 -0.053145528
0.13477391 -0.29495853 -0.043728232
-0.13446602 -0.27056414 -0.042719245
-0.10996269 -0.27051735 -0.043328047
-0.085367098 -0.27021629 -0.047237992
-0.060830325 -0.26991069 -0.051207662
0.061221883 -0.26980805 -0.052540183
0.085791126 -0.27035797 -0.045397282
0.11032804 -0.27055207 -0.042875767
0.13481209 -0.2705628 -0.042736411
-0.085367098 -0.24577121 -0.047237992
-0.060830325 -0.24549612 -0.051207662
0.061221883 -0.24540375 -0.052540183
0.085791126 -0.24589872 -0.045397282
-0.13446602 -0.22160433 -0.042719126
-0.10955621 -0.22091646 -0.053888798
0.11001181 -0.22096235 -0.053145528
0.13477391 -0.2215423 -0.043728232
-0.13446602 -0.19712444 -0.042719245
-0.10955621 -0.19652253 -0.053888917
0.11001181 -0.19656274 -0.053145409
0.13477391 -0.19707015 -0.043728232
-0.13468824 -0.17286684 -0.037907958
-0.11017804 -0.17287488 -0.037733316
-0.085367627 -0.17243667 -0.047220826
-0.060830727 -0.17225333 -0.051190257
0.061221883 -0.17219093 -0.052540183
0.085791126 -0.17252079 -0.045397401
0.11044769 -0.17281693 -0.038990021
0.13497375 -0.17283778 -0.03853631
-0.085367627 -0.14799145 -0.047220707
-0.060830325 -0.14783794 -0.051207781
0.061221614 -0.14778602 -0.052557588
0.085791126 -0.14806163 -0.045397401
-0.13446684 -0.12368534 -0.042701602
-0.10955688 -0.12334141 -0.053871512
0.11001235 -0.12336437 -0.053128123
0.13477458 -0.12365422 -0.043710947
-0.13446684 -0.09920533 -0.042701483
-0.10955621 -0.098947063 -0.053888798
0.11001235 -0.098964557 -0.053128123
0.13477391 -0.099181496 -0.043728352
-0.085367627 -0.074655712 -0.047220588
-0.060830727 -0.074594669 -0.051190257
0.061221614 -0.074573517 -0.052557349
0.085791126 -0.074683838 -0.045397282
-0.085367627 -0.050210439 -0.047220826
-0.060830727 -0.050179888 -0.051190376
0.061221614 -0.050169412 -0.052557588
0.085791126 -0.050224524 -0.045397282
-0.10955621 -0.025765263 -0.053888798
0.13477391 -0.025765263 -0.043728232
-0.13446602 -0.02576521 -0.042719007
0.11001235 -0.025765158 -0.053128242
-0.13446602 -0.0012853071 -0.042719126
-0.10955554 -0.0013714321 -0.053906083
0.11001235 -0.0013655499 -0.053128123
0.13477391 -0.0012930986 -0.043728352
-0.085367098 0.023124985 -0.047238111
-0.060830325 0.023063783 -0.051207781
0.061221883 0.023043245 -0.052540064
0.085791126 0.023153264 -0.045397162
-0.085367098 0.047570162 -0.047238111
-0.060830325 0.047478355 -0.051207542
0.061221883 0.047447555 -0.052540064
0.085791126 0.047612526 -0.045397401
-0.13446684 0.072154865 -0.042701602
-0.10955621 0.071810365 -0.053888917
0.11001181 0.071833335 -0.053145647
0.13477391 0.072123237 -0.043728113
-0.13446684 0.096634924 -0.042701602
-0.10955621 0.096204199 -0.053888798
0.11001181 0.096232787 -0.053145647
0.13477391 0.096595347 -0.043728352
-0.085367098 0.12090543 -0.047238111
0.085791126 0.12099041 -0.045397401
-0.085367098 0.14535055 -0.047238111
-0.060830325 0.14513655 -0.051207662
0.061221614 0.14506385 -0.052557588
0.085791126 0.14544962 -0.045397282
-0.13446684 0.170075 -0.042701602
-0.10955621 0.1693859 -0.053888917
0.11001235 0.16943285 -0.053128123
0.13477458 0.17001282 -0.043710947
-0.13446684 0.19455506 -0.042701602
-0.10955621 0.19377983 -0.053888917
0.11001235 0.19383256 -0.053128123
0.13477391 0.19448389 -0.043728352
-0.085367098 0.24313089 -0.047238111
-0.060830325 0.24279469 -0.051207781
0.061221883 0.24268183 -0.052540183
0.085791126 0.24328667 -0.045397162
-0.13446602 0.26799348 -0.042719007
-0.10955621 0.26696169 -0.053888917
0.11001181 0.26703027 -0.053145409
0.13477391 0.26790017 -0.043728352
-0.13446602 0.29247332 -0.042719007
-0.10955621 0.29135546 -0.053888679
0.11001181 0.29142988 -0.053145409
0.13477391 0.29237229 -0.043728352
-0.085367627 0.3409133 -0.047220588
-0.060830325 0.34045294 -0.051207662
0.061221883 0.3402991 -0.052540064
0.085791126 0.34112382 -0.045397162
-0.13446684 0.36591509 -0.04270184
-0.10955621 0.36453721 -0.053888798
0.11001181 0.36462885 -0.053145409
0.13477391 0.36578867 -0.043728113
-0.10955621 0.38893119 -0.053888917
0.11001181 0.38902831 -0.053145528
-0.13446684 0.39039505 -0.042701721
0.13477391 0.39026079 -0.043728113
-0.085367627 0.43869418 -0.047220826
-0.060830727 0.4381136 -0.051190257
0.061221614 0.43791372 -0.052557349
0.085791126 0.43896088 -0.045397162
-0.13446602 0.46383244 -0.042719007
-0.10955621 0.46211278 -0.053888917
0.11001235 0.46222982 -0.053128123
0.13477391 0.46367717 -0.043728352
-0.13446602 0.48831233 -0.042719126
-0.10955621 0.48650667 -0.053888917
0.11001235 0.48662969 -0.053128242
0.13477391 0.48814943 -0.043728352
-0.10955621 0.5109005 -0.053888917
-0.13446602 0.51279235 -0.042719126
0.11001235 0.51102948 -0.053128123
0.13477391 0.51262128 -0.043728113
-0.13446602 0.5372721 -0.042719007
-0.10955621 0.53529453 -0.053888917
0.11001235 0.53542924 -0.053128242
0.13477391 0.5370934 -0.043728352
-0.13446602 0.5617522 -0.042719007
-0.10955621 0.55968833 -0.053888917
0.11001235 0.559829 -0.053128123
0.13477391 0.56156564 -0.043728113
-0.13446602 0.58623207 -0.042719245
-0.10955554 0.58407915 -0.053906202
0.11001235 0.58422863 -0.053128242
0.13477458 0.58604097 -0.043710947
-0.13446602 0.61071181 -0.042719126
-0.10955554 0.60847282 -0.053906202
0.11001235 0.60862839 -0.053128123
0.13477458 0.61051333 -0.043710947
-0.13446602 0.6351918 -0.042719126
-0.10955554 0.6328665 -0.053906083
0.11001235 0.63302827 -0.053128123
0.13477458 0.63498557 -0.043710828
-0.13446602 0.65967155 -0.042719007
-0.10955554 0.65726018 -0.053906083
0.11001235 0.65742803 -0.053128123
0.13477458 0.6594578 -0.043710828
-0.10955554 0.68165421 -0.053906202
0.11001235 0.68182778 -0.053128123
0.13477458 0.68393004 -0.043710828
-0.13446602 0.68415165 -0.042719007
-0.13446602 0.7086314 -0.042719245
-0.10955554 0.70604789 -0.053906202
0.11001235 0.70622742 -0.053128123
0.13477458 0.7084024 -0.043710947
-0.13446602 0.73311138 -0.042719007
-0.10955554 0.73044157 -0.053906083
0.11001235 0.73062718 -0.053128242
0.13477458 0.73287463 -0.043710947
-0.03688293 -0.59267199 -0.020865321
-0.01220022 -0.59187651 -0.025358438
0.01241331 -0.59214461 -0.0238446
0.037060071 -0.59264076 -0.021041751
-0.085999109 -0.56703353 -0.026713014
-0.061254174 -0.56599331 -0.032854557
0.061498821 -0.5657059 -0.034552336
0.086261213 -0.56731665 -0.025041699
-0.13553493 -0.54358411 -0.019576669
-0.1103901 -0.54153955 -0.032223821
0.11066251 -0.54157352 -0.032013535
0.13563286 -0.54328728 -0.021412253
-0.15989468 -0.51807368 -0.025112271
0.16018882 -0.51835036 -0.023316145
-0.15955396 -0.49253353 -0.031435251
0.15984541 -0.49263352 -0.030751348
-0.15955396 -0.46796677 -0.031435251
0.15984541 -0.46806151 -0.030751467
-0.15955396 -0.44340003 -0.03143537
0.15984541 -0.44348952 -0.030751467
-0.15955396 -0.41883329 -0.03143537
0.15984541 -0.41891754 -0.030751348
-0.15955396 -0.39426649 -0.03143537
0.15984459 -0.39434344 -0.030768991
-0.15955396 -0.36969984 -0.031435132
0.15984459 -0.36977154 -0.030768991
-0.15955301 -0.34513128 -0.031452775
0.15984459 -0.3451997 -0.030768991
-0.15955301 -0.32056457 -0.031452894
0.15984459 -0.32062778 -0.030768991
-0.15955301 -0.29599807 -0.031452775
0.15984459 -0.29605591 -0.030768991
-0.15955301 -0.27143133 -0.031452894
0.15984459 -0.27148402 -0.030768991
-0.1352817 -0.24730769 -0.025059462
-0.11023317 -0.24652895 -0.036301017
0.11054017 -0.24655072 -0.035986423
0.13543628 -0.24720654 -0.026519537
-0.15955301 -0.19773158 -0.031452656
0.15984459 -0.19776848 -0.030768991
-0.15955301 -0.17316489 -0.031452775
0.15984459 -0.17319652 -0.030768991
-0.1352817 -0.14884444 -0.025059462
-0.11023384 -0.14841242 -0.036283493
0.11054017 -0.14842393 -0.035986423
0.1354356 -0.14878757 -0.026537061
-0.15955396 -0.09946546 -0.031435251
0.15984459 -0.09948089 -0.030768991
-0.16019678 -0.075082362 -0.019505978
-0.1352825 -0.074997172 -0.025041819
-0.11023384 -0.074824147 -0.036283374
0.11054017 -0.07482864 -0.035986304
0.13543628 -0.074974462 -0.026519418
-0.1352825 -0.050381191 -0.025041699
-0.11023384 -0.050294653 -0.036283374
0.11054017 -0.050296925 -0.035986423
0.13543628 -0.050369889 -0.026519537
-0.15955301 -0.02576521 -0.031452775
0.15984459 -0.02576521 -0.030768991
-0.15955301 -0.0011987183 -0.031452656
0.15984459 -0.0011933502 -0.030768991
-0.1352825 0.023466699 -0.025041938
-0.11023317 0.023293313 -0.036301017
0.11054017 0.023298267 -0.035986423
0.13543628 0.023443837 -0.026519418
-0.1352825 0.048082575 -0.025041819
-0.11023317 0.047822699 -0.036300898
0.11054017 0.047829874 -0.035986304
0.13543628 0.048048571 -0.026519537
-0.15955301 0.072501227 -0.031452894
0.15984459 0.072522379 -0.030768991
-0.15955301 0.097067766 -0.031452656
0.15984459 0.097094089 -0.030768991
-0.1352825 0.12193057 -0.025041819
-0.11023317 0.12141061 -0.036300898
0.11054017 0.12142506 -0.035986304
0.13543628 0.12186225 -0.026519418
-0.1352825 0.1465465 -0.025041938
-0.11023317 0.14593986 -0.036300898
0.11054017 0.14595683 -0.035986423
0.13543628 0.14646682 -0.026519537
-0.15955396 0.17076875 -0.031435132
0.15984541 0.17081089 -0.030751467
-0.15955396 0.19533545 -0.031435251
0.15984459 0.19538163 -0.030768991
-0.1352817 0.22039324 -0.025059462
-0.11023317 0.21952766 -0.036300898
0.11054017 0.21955197 -0.035986423
0.13543628 0.22028075 -0.026519299
-0.1352817 0.24500886 -0.025059342
-0.11023317 0.24405706 -0.036300898
0.11054017 0.24408361 -0.035986304
0.13543628 0.24488533 -0.026519537
-0.15955301 0.26903421 -0.031452775
0.15984459 0.26909736 -0.030768991
-0.15955301 0.2936008 -0.031452894
0.15984459 0.2936691 -0.030768991
-0.1352825 0.31885824 -0.025041699
-0.11023317 0.31764486 -0.036300898
0.11054017 0.31767875 -0.035986304
0.13543628 0.31869906 -0.026519299
-0.1352817 0.34347233 -0.025059462
-0.11023317 0.3421742 -0.036301017
0.11054017 0.34221053 -0.035986304
0.13543628 0.34330362 -0.026519537
-0.15955301 0.36730048 -0.031452775
0.15984459 0.36738485 -0.030768991
-0.15955301 0.39186722 -0.031452894
0.15984459 0.39195687 -0.030768991
-0.1352817 0.41731974 -0.025059342
-0.11023384 0.41576448 -0.036283255
0.11053964 0.4158034 -0.036003828
0.1354356 0.41711494 -0.02653718
-0.11023384 0.44029388 -0.036283493
0.11054017 0.44033727 -0.035986304
0.13543628 0.44172218 -0.026519418
-0.1352825 0.44193804 -0.025041699
-0.15955301 0.46556711 -0.031452656
0.15984459 0.46567228 -0.030768991
-0.15955301 0.49013379 -0.031452656
0.15984459 0.4902443 -0.030768871
-0.15955301 0.51470017 -0.031452775
0.15984459 0.51481605 -0.030768991
-0.15955301 0.53926694 -0.031452894
0.15984459 0.53938794 -0.030768991
-0.15955301 0.56383359 -0.031452656
0.15984459 0.56395984 -0.030768991
-0.15955301 0.58840024 -0.031452775
0.15984459 0.58853173 -0.030768991
-0.15955301 0.61296678 -0.031452656
0.15984459 0.61310363 -0.030768991
-0.15955301 0.63753343 -0.031452656
0.15984459 0.63767552 -0.030768991
-0.15955301 0.66210008 -0.031452656
0.15984459 0.66224754 -0.030768991
-0.15955301 0.68666649 -0.031452775
0.15984541 0.68682325 -0.030751228
-0.15955301 0.71123314 -0.031452656
0.15984541 0.71139526 -0.030751467
-0.15955301 0.73579991 -0.031452775
0.15984541 0.73596728 -0.030751467
-0.037138805 -0.62039065 -0.0042455196
-0.012327798 -0.6195519 -0.0087856054
0.01241331 -0.61980498 -0.0074160099
0.03718676 -0.62032807 -0.0045844316
-0.086560979 -0.59486747 -0.0084657669
-0.061635114 -0.59346974 -0.016359329
0.061753325 -0.59317553 -0.018021822
0.086670317 -0.59506905 -0.0073270798
-0.11109002 -0.56917977 -0.014039636
0.11120505 -0.56911981 -0.014393806
-0.16102965 -0.54609418 -0.0040494204
-0.18590942 -0.52157199 -0.0023903847
0.18595146 -0.52158856 -0.0022830963
-0.18526296 -0.49524638 -0.012887478
0.18541254 -0.49533457 -0.012284279
-0.18526296 -0.47053686 -0.012887239
0.18541254 -0.47062045 -0.012284279
-0.18526296 -0.44582725 -0.012887359
0.18541254 -0.44590631 -0.012284279
-0.18526296 -0.42111784 -0.012887359
0.18541254 -0.42119205 -0.012284279
-0.18526186 -0.39640626 -0.012905121
0.18541254 -0.39647791 -0.012284279
-0.18526186 -0.37169683 -0.012905002
0.18541254 -0.37176374 -0.01228416
-0.18526186 -0.34698743 -0.012904882
0.18541254 -0.34704947 -0.012284279
-0.18526186 -0.32227799 -0.01290524
0.18541254 -0.32233536 -0.012284279
-0.18526186 -0.29756856 -0.012905121
0.18541254 -0.29762125 -0.01228416
-0.18526186 -0.27285922 -0.012905002
0.18541254 -0.27290696 -0.012284279
-0.1605649 -0.24816585 -0.012674451
0.16077954 -0.2483146 -0.010526896
-0.1605649 -0.22345455 -0.012674451
0.16077954 -0.22358686 -0.010527015
-0.18526186 -0.19873103 -0.012905002
0.18541159 -0.19876359 -0.012302041
-0.18526186 -0.17402165 -0.012905121
0.18541159 -0.17404951 -0.012301922
-0.1605649 -0.14932109 -0.012674451
0.16077954 -0.14940381 -0.010526896
-0.16056395 -0.12460949 -0.012692213
0.16077954 -0.12467616 -0.010527015
-0.18526296 -0.099893868 -0.012887239
0.18541254 -0.099907801 -0.012284279
-0.18526296 -0.07518433 -0.012887359
0.16040887 -0.075097069 -0.018552065
0.18541254 -0.075193569 -0.012284279
-0.1605649 -0.050476395 -0.01267457
0.16077954 -0.05049286 -0.010527015
-0.18526186 -0.025765263 -0.012905121
0.18541254 -0.025765263 -0.01228416
-0.18526186 -0.0010558814 -0.012905002
0.18541254 -0.0010510311 -0.012284279
-0.1605649 0.023657061 -0.01267457
0.16077954 0.023690138 -0.010526896
-0.1605649 0.048368245 -0.012674689
0.16077954 0.048417836 -0.010527134
-0.18526186 0.073072262 -0.012905002
0.18541254 0.073091455 -0.012284279
-0.18526186 0.097781897 -0.012905002
0.18541254 0.097805582 -0.012284279
-0.1605649 0.12250181 -0.012674451
0.16077954 0.12260088 -0.010526896
-0.1605649 0.14721289 -0.012674689
0.16077954 0.14732869 -0.010526896
-0.18526296 0.17191102 -0.012887239
0.18541254 0.17194812 -0.012284279
-0.18526296 0.19662055 -0.01288712
0.18541254 0.19666241 -0.012284279
-0.16056395 0.22134501 -0.012692213
0.16077954 0.22151178 -0.010527134
-0.1605649 0.24605763 -0.012674451
0.16077954 0.24623948 -0.010526896
-0.18526186 0.27074751 -0.012905002
0.18541254 0.27080494 -0.012284279
-0.18526186 0.29545701 -0.012905002
0.18541159 0.29551727 -0.012302041
-0.1605649 0.3201912 -0.012674332
0.16077954 0.32042259 -0.010526896
-0.1605649 0.34490234 -0.012674451
0.16077954 0.34515044 -0.010527015
-0.18526186 0.36958504 -0.01290524
0.18541254 0.36966166 -0.012284279
-0.18526186 0.39429456 -0.012905002
0.18541254 0.39437574 -0.01228416
-0.16056395 0.41903347 -0.012692213
0.1607787 0.41933087 -0.010544777
-0.1605649 0.44374698 -0.01267457
0.16077954 0.44406119 -0.010526896
-0.18526186 0.46842256 -0.012905002
0.18541254 0.46851832 -0.01228416
-0.18526186 0.4931322 -0.012905002
0.18541254 0.49323234 -0.012284279
-0.18526186 0.51784146 -0.012905002
0.18541254 0.5179466 -0.012284279
-0.18526186 0.5425508 -0.012905002
0.18541254 0.54266083 -0.012284279
-0.18526186 0.56726038 -0.012904882
0.18541254 0.56737494 -0.012284279
-0.18526186 0.59196973 -0.012905002
0.18541254 0.59208906 -0.012284279
-0.18526186 0.61667907 -0.012905002
0.18541254 0.61680341 -0.012284279
-0.18526186 0.64138842 -0.012905121
0.18541254 0.64151752 -0.012284279
-0.18526186 0.666098 -0.012905002
0.18541254 0.66623163 -0.01228416
-0.18526186 0.69080722 -0.012905002
0.18541254 0.69094586 -0.012284279
-0.18526186 0.71551657 -0.012905002
0.18541254 0.71565998 -0.012284279
-0.18526186 0.74022603 -0.012905002
0.18541254 0.74037421 -0.01228416
-0.037397079 -0.64839506 0.012529492
-0.012456568 -0.6475122 0.0079420805
0.01241331 -0.6477474 0.0091640949
0.03731462 -0.64829803 0.012025118
-0.08712931 -0.62302089 0.009991169
-0.062020011 -0.62123179 0.00030720234
0.062026992 -0.62112939 -0.00024700165
0.08708398 -0.62313068 0.010584831
-0.11179795 -0.59713697 0.0043531656
0.11175417 -0.59697521 0.0034393072
-0.13638151 -0.57134616 -0.0012475252
0.13638219 -0.57122838 -0.0019438267
0.16116771 -0.54640555 -0.0021226406
-0.21144672 -0.49835864 0.0083912611
0.21127835 -0.49806976 0.006415844
-0.21144672 -0.47348523 0.0083912611
0.21127835 -0.47321162 0.006415844
-0.21144672 -0.448612 0.0083912611
0.21127835 -0.4483535 0.006415844
-0.21144672 -0.42373857 0.0083912611
0.21127835 -0.42349535 0.0064159632
-0.21144672 -0.39886534 0.0083912611
0.21127835 -0.39863721 0.006415844
-0.21144672 -0.37399194 0.0083912611
0.21127835 -0.37377918 0.006415844
-0.21144672 -0.34911865 0.0083912611
0.21127835 -0.34892097 0.006415844
-0.21144672 -0.32424524 0.0083911419
0.21127835 -0.32406285 0.006415844
-0.21144672 -0.29937202 0.0083912611
0.21127835 -0.29920471 0.0064159632
-0.21144672 -0.27449858 0.0083912611
0.21127835 -0.27434656 0.006415844
-0.18658002 -0.24963281 0.0084991455
0.18650827 -0.24960163 0.0080498457
-0.18658112 -0.22475974 0.0085171461
0.18650827 -0.224731 0.0080498457
-0.21144672 -0.19987862 0.0083912611
0.21127725 -0.19977117 0.0063978434
-0.21144672 -0.17500524 0.0083912611
0.21127725 -0.17491318 0.0063977242
-0.18658112 -0.15013683 0.0085170269
0.18650827 -0.15011877 0.0080499649
-0.18658002 -0.12526184 0.0084989071
0.18650827 -0.12524807 0.0080498457
-0.21144672 -0.10038528 0.0083912611
0.21127835 -0.10033967 0.006415844
-0.21144672 -0.075511903 0.0083912611
0.21127835 -0.075481512 0.0064159632
-0.18658112 -0.050639562 0.0085170269
0.18650827 -0.050636005 0.0080498457
-0.21144672 -0.025765365 0.0083912611
0.21127835 -0.025765365 0.006415844
-0.21144672 -0.00089193881 0.0083912611
0.21127835 -0.0009071622 0.006415844
-0.18658112 0.023983292 0.0085171461
0.18650827 0.02397617 0.0080499649
-0.18658112 0.048857696 0.0085169077
0.18650827 0.048846863 0.0080499649
-0.21144548 0.073727615 0.0083733797
0.21127835 0.073667288 0.006415844
-0.21144672 0.098601505 0.0083912611
0.21127835 0.098525494 0.0064156055
-0.18658112 0.1234806 0.0085171461
0.18650827 0.12345909 0.0080498457
-0.18658112 0.1483549 0.0085171461
0.18650827 0.14832972 0.0080498457
-0.21144672 0.17322136 0.0083912611
0.21127835 0.17309976 0.0064156055
-0.21144672 0.19809474 0.0083912611
0.21127835 0.19795805 0.006415844
-0.18658002 0.22297652 0.0084989071
0.18650827 0.22294185 0.0080498457
-0.18658002 0.24785048 0.0084991455
0.18650827 0.24781254 0.0080498457
-0.21144672 0.27271482 0.0083913803
0.21127835 0.27253225 0.0064156055
-0.21144672 0.2975882 0.0083912611
0.21127725 0.29738852 0.0063978434
-0.18658112 0.32247502 0.0085170269
0.18650827 0.32242462 0.0080498457
-0.18658112 0.34734932 0.0085171461
0.18650827 0.34729525 0.0080498457
-0.21144672 0.372208 0.0083912611
0.21127835 0.3719649 0.0064156055
-0.21144548 0.39707914 0.0083732605
0.21127835 0.39682296 0.0064156055
-0.18658002 0.42196971 0.0084991455
0.18650827 0.42190757 0.0080499649
-0.18658002 0.44684395 0.0084991455
0.18650827 0.44677821 0.0080499649
-0.21144672 0.47170153 0.0083912611
0.21127835 0.4713974 0.0064157248
-0.21144672 0.49657485 0.0083912611
0.21127835 0.49625543 0.0064156055
-0.21144672 0.52144825 0.0083912611
0.21127835 0.52111351 0.0064156055
-0.21144672 0.54632139 0.0083912611
0.21127835 0.54597187 0.006415844
-0.21144672 0.57119477 0.0083912611
0.21127835 0.57082987 0.006415844
-0.21144672 0.59606814 0.0083912611
0.21127835 0.59568799 0.006415844
-0.21144548 0.62093771 0.0083733797
0.21127835 0.6205461 0.0064157248
-0.21144548 0.64581108 0.0083732605
0.21127835 0.64540422 0.0064157248
-0.21144548 0.67068422 0.0083733797
0.21127835 0.67026246 0.006415844
-0.21144548 0.69555748 0.0083732605
0.21127835 0.69512057 0.006415844
-0.21144548 0.72043073 0.0083733797
0.21127835 0.71997869 0.006415844
-0.21144548 0.74530387 0.0083733797
0.21127835 0.74483681 0.0064157248
-0.037658334 -0.67669666 0.029498577
-0.012586826 -0.67576873 0.024863005
0.01241331 -0.67598331 0.025934458
0.037443805 -0.67655826 0.028807044
-0.087704197 -0.65149963 0.02866137
-0.062408514 -0.64928043 0.017129898
0.062303983 -0.6493988 0.017744422
0.087502278 -0.65150666 0.028697729
-0.11251404 -0.62541664 0.02295804
0.11230943 -0.62514198 0.021471858
-0.13723701 -0.59942484 0.017274618
0.13720891 -0.59982502 0.019534826
-0.16225667 -0.57472801 0.018720627
0.1621605 -0.57483828 0.019371867
-0.18731202 -0.5500443 0.020385265
0.18710862 -0.54985118 0.019190907
-0.2123944 -0.52533793 0.022069812
0.21214643 -0.52509803 0.020512104
-0.21294188 -0.25112039 0.029971957
0.21277277 -0.25116968 0.030682325
-0.21294188 -0.22608092 0.029971957
0.21277277 -0.22612467 0.030682325
-0.21294188 -0.15096262 0.029972076
0.21277277 -0.15098998 0.030682325
-0.21294188 -0.12592314 0.029972076
0.21277277 -0.12594503 0.030682325
-0.21294188 -0.050804693 0.029971838
0.21277277 -0.050810214 0.030682564
-0.21294188 0.024313703 0.029972076
0.21277165 0.024324387 0.030664325
-0.21294315 0.049353443 0.029990196
0.21277165 0.049369186 0.030664206
-0.21294188 0.12447159 0.029972076
0.21277165 0.12450342 0.030664206
-0.21294188 0.14951096 0.029971838
0.21277277 0.1495492 0.030682325
-0.21294188 0.22462937 0.029972076
0.21277277 0.22468415 0.030682564
-0.21294188 0.24966881 0.029971957
0.21277277 0.24972907 0.030682445
-0.21294188 0.32478723 0.029972076
0.21277165 0.32486176 0.030664206
-0.21294188 0.34982681 0.029971957
0.21277165 0.34990671 0.030664206
-0.21294188 0.42494506 0.029972076
0.21277277 0.42504358 0.030682325
-0.21294188 0.44998461 0.029972076
0.21277277 0.45008844 0.030682445
-0.037922345 -0.70529664 0.046646714
-0.012718454 -0.70432293 0.041961908
0.01241331 -0.70450974 0.042861104
0.037574481 -0.70511687 0.045782328
-0.088285759 -0.6803093 0.047548413
-0.062806576 -0.67767084 0.034366608
0.062584087 -0.67798543 0.035937786
0.08792486 -0.68019879 0.046996236
-0.11323845 -0.65402412 0.041778564
0.11292568 -0.65396762 0.04148519
-0.13829175 -0.62858546 0.040110111
0.13804671 -0.62880564 0.041301608
-0.16350015 -0.60376656 0.041796923
0.16316576 -0.60364985 0.041136742
-0.18873574 -0.57892525 0.043503761
0.18829809 -0.57854593 0.041265011
-0.2141902 -0.55450678 0.047990084
-0.23836322 -0.50224072 0.034932733
0.23825401 -0.50254011 0.036979795
-0.23836322 -0.47716305 0.034932733
0.23825401 -0.47744665 0.036979914
-0.23836322 -0.45208541 0.034932852
0.23825401 -0.45235318 0.036979675
-0.23836322 -0.4270077 0.034932852
0.23825401 -0.42725989 0.036979795
-0.23836322 -0.40193003 0.034932733
0.23825401 -0.40216649 0.036979914
-0.23836322 -0.37685239 0.034932613
0.23825401 -0.37707293 0.036979795
-0.23836322 -0.35177475 0.034932733
0.23825401 -0.35197961 0.036979675
-0.23836322 -0.32669708 0.034932733
0.23825401 -0.32688621 0.036979795
-0.23836322 -0.30161941 0.034932852
0.23825401 -0.3017928 0.036979914
-0.23836322 -0.27654189 0.034932733
0.23825401 -0.27669933 0.036979675
-0.23836322 -0.20130877 0.034932733
0.23825401 -0.20141917 0.036979914
-0.23836322 -0.17623112 0.034932733
0.23825274 -0.17632489 0.036961555
-0.23836322 -0.10099827 0.034932733
0.23825274 -0.10104507 0.036961555
-0.23836322 -0.075920597 0.034932852
0.23825274 -0.075951815 0.036961555
0.23825274 -0.025765263 0.036961436
-0.23836322 -0.02576521 0.034932733
-0.23836322 -0.00068748929 0.034932733
0.23825401 -0.0006717518 0.036979675
-0.23836182 0.074544847 0.034914613
0.23825274 0.074607752 0.036961675
-0.23836322 0.099622935 0.034932733
0.23825274 0.099701002 0.036961555
-0.23836322 0.17485599 0.034932733
0.23825401 0.17498201 0.036979675
-0.23836322 0.1999336 0.034932733
0.23825401 0.2000754 0.036979795
-0.23836322 0.2751666 0.034932852
0.23825401 0.27535573 0.036979675
-0.23836322 0.30024427 0.034932971
0.23825274 0.30044743 0.036961555
-0.23836322 0.37547719 0.034932733
0.23825274 0.375727 0.036961555
-0.23836322 0.40055487 0.034932733
0.23825274 0.40082034 0.036961794
-0.23836322 0.47578779 0.034932733
0.23825401 0.4761031 0.036979914
-0.23836322 0.50086558 0.034932733
0.23825274 0.50119352 0.036961675
-0.23836322 0.52594328 0.034932733
0.23825274 0.52628672 0.036961555
-0.23836322 0.55102086 0.034932733
0.23825274 0.55137992 0.036961555
-0.23836322 0.57609832 0.034932733
0.23825274 0.57647324 0.036961436
-0.23836322 0.6011759 0.034932733
0.23825274 0.60156655 0.036961555
-0.23836322 0.6262536 0.034932733
0.23825274 0.62665987 0.036961436
-0.23836322 0.65133131 0.034932733
0.23825274 0.65175295 0.036961555
-0.23836322 0.67640901 0.034932971
0.23825274 0.67684639 0.036961675
-0.23836322 0.70148683 0.034932733
0.23825274 0.70193958 0.036961675
-0.23836182 0.72656012 0.034914613
0.23825274 0.72703278 0.036961555
-0.23836182 0.75163758 0.034914494
0.23825274 0.7521261 0.036961555
-0.03818915 -0.73419976 0.063976645
-0.012851477 -0.73317921 0.059241891
0.01241331 -0.73333907 0.05998373
0.037706386 -0.73397148 0.062917113
-0.088874131 -0.70945549 0.066656113
-0.063244715 -0.70668745 0.053338647
0.062867358 -0.70689487 0.054336548
0.08835309 -0.70922339 0.065539002
-0.11400774 -0.68315482 0.061765313
0.11360507 -0.68351173 0.063548803
-0.13937177 -0.65820301 0.063493133
0.13889657 -0.65818155 0.063381672
-0.16476247 -0.63322496 0.065222502
0.16418464 -0.63285053 0.063195586
0.21401799 -0.55497754 0.05090189
-0.24036308 -0.53131807 0.060911536
0.23989148 -0.53127241 0.060614586
-0.24068491 -0.25355363 0.065092444
0.24015659 -0.25350851 0.064441204
-0.24068491 -0.2282439 0.065092444
0.24015659 -0.22820386 0.064441442
-0.24068491 -0.15231431 0.065092325
0.24015531 -0.15228856 0.064422727
-0.24068491 -0.12700453 0.065092444
0.24015531 -0.12698394 0.064422846
-0.24068491 -0.051075146 0.065092564
0.24015659 -0.051070139 0.064441442
-0.24068491 0.024854347 0.065092325
0.24015531 0.024844024 0.064422846
-0.24068491 0.050164178 0.065092564
0.24015531 0.050148852 0.064422727
-0.24068491 0.12609372 0.065092444
0.24015531 0.12606275 0.064422727
-0.24068491 0.15140349 0.065092444
0.24015531 0.15136732 0.064422607
-0.24068491 0.22733292 0.065092444
0.24015531 0.22728139 0.064422846
-0.24068491 0.25264275 0.065092444
0.24015531 0.2525861 0.064422607
-0.24068491 0.32857236 0.065092444
0.24015531 0.32850021 0.064422727
-0.24068491 0.35388219 0.065092444
0.24015531 0.35380468 0.064422846
-0.24068491 0.42981166 0.065092325
0.24015531 0.42971879 0.064422846
-0.24068491 0.45512128 0.065092444
0.24015531 0.45502341 0.064422846
-0.038458519 -0.76340687 0.081472158
-0.01298577 -0.76233864 0.076687217
0.01241331 -0.76246822 0.077268243
0.037840839 -0.76316357 0.080382586
-0.063687563 -0.73604012 0.072514176
0.063153841 -0.73613262 0.072944164
-0.19033261 -0.60865974 0.069433331
0.18995681 -0.60912251 0.072046995
-0.21658283 -0.58553362 0.082524896
0.2159261 -0.5854255 0.081885695
-0.26676252 -0.50797808 0.074159741
0.26597932 -0.5075407 0.071169138
-0.26676252 -0.48259836 0.074159622
0.26597932 -0.48218405 0.071169138
-0.26676252 -0.45721886 0.074159622
0.26597932 -0.4568274 0.071169019
-0.26676252 -0.43183923 0.074159741
0.26597932 -0.43147087 0.071169138
-0.26676252 -0.40645966 0.074159861
0.26597932 -0.40611419 0.071169138
-0.26676252 -0.38107988 0.074159622
0.26597932 -0.38075766 0.071169138
-0.26676252 -0.35570037 0.074159622
0.26597932 -0.35540104 0.071169138
-0.26676252 -0.33032078 0.074159622
0.26597932 -0.33004439 0.071169138
-0.26676252 -0.30494112 0.074159861
0.26597932 -0.30468792 0.071169138
-0.26676252 -0.27956137 0.074159622
0.26597932 -0.27933124 0.071169138
-0.26676252 -0.20342264 0.074159861
0.26597789 -0.20326045 0.071150541
-0.26676252 -0.17804299 0.074159622
0.26597789 -0.17790392 0.071150422
-0.26676252 -0.10190415 0.074159861
0.26597789 -0.1018347 0.071150422
-0.26676252 -0.076524511 0.074159622
0.26597789 -0.076478064 0.071150303
-0.26676252 -0.025765313 0.074159741
0.26597789 -0.02576521 0.071150422
-0.26676252 -0.00038566627 0.074159861
0.26597789 -0.00040878356 0.071150661
-0.26676252 0.075753227 0.074159861
0.26597789 0.075660549 0.071150422
-0.26676252 0.10113287 0.074159622
0.26597789 0.10101697 0.071150541
-0.26676252 0.17727165 0.074159741
0.26597932 0.17708749 0.071169138
-0.26676252 0.20265141 0.074159622
0.26597932 0.20244423 0.071169138
-0.26676252 0.27879021 0.074159861
0.26597932 0.27851403 0.071169138
-0.26676252 0.3041698 0.074159622
0.26597932 0.30387062 0.071169138
-0.26676252 0.38030863 0.074159741
0.26597789 0.37993798 0.071150541
-0.26676252 0.40568843 0.074159622
0.26597789 0.40529445 0.071150661
-0.26676252 0.48182717 0.074159861
0.26597789 0.48136392 0.071150422
-0.26676252 0.5072068 0.074159622
0.26597789 0.50672019 0.071150422
-0.26676252 0.53258646 0.074159622
0.26597789 0.53207672 0.071150303
-0.26676252 0.55796611 0.074159741
0.26597789 0.55743325 0.071150422
-0.26676252 0.58334565 0.074159741
0.26597789 0.58278966 0.071150422
-0.26676252 0.60872543 0.074159741
0.26597789 0.60814607 0.071150541
-0.26676252 0.63410497 0.074159741
0.26597789 0.6335026 0.071150422
-0.26676252 0.65948451 0.074159741
0.26597789 0.65885913 0.071150422
-0.26676252 0.68486416 0.074159861
0.26597789 0.68421555 0.071150541
-0.26676252 0.71024382 0.074159622
0.26597789 0.70957208 0.071150661
-0.26676252 0.73562336 0.074159622
0.26597789 0.73492849 0.071150422
-0.038731061 -0.79293072 0.099174142
-0.013121644 -0.79181385 0.094337821
0.01241331 -0.79191005 0.094754457
0.037986372 -0.79295707 0.099287868
-0.064135611 -0.76573813 0.091915488
0.063443594 -0.76570451 0.091764569
-0.089468829 -0.73894012 0.085969448
0.08882796 -0.73896861 0.086101413
-0.11492051 -0.71336782 0.085479617
0.1142937 -0.71345794 0.085913062
-0.14046822 -0.68825185 0.087232351
0.13975656 -0.68795013 0.085724473
-0.16616009 -0.66352737 0.091159344
0.16558281 -0.66397154 0.093466878
-0.24304415 -0.56222594 0.095739841
0.24213478 -0.561782 0.092993855
-0.039013922 -0.8228873 0.11754668
0.03813358 -0.82309365 0.11841118
-0.013258981 -0.8216064 0.11217844
0.01241331 -0.82166111 0.11240816
-0.064588539 -0.79578376 0.1115278
0.063736975 -0.79562032 0.11081982
-0.090139873 -0.76927578 0.10776246
0.089351572 -0.76950169 0.1087743
-0.11584654 -0.74402058 0.10953903
0.11499119 -0.7438103 0.10856426
-0.14166643 -0.71912408 0.1131742
0.14088981 -0.71953845 0.11516714
-0.19248869 -0.64047134 0.10444379
0.19164814 -0.64028478 0.10343421
-0.21902654 -0.61722255 0.11779654
-0.26997864 -0.25681323 0.11214006
0.26935893 -0.2570163 0.11507142
-0.26997864 -0.23114112 0.11214006
0.26935893 -0.23132169 0.1150713
-0.26997864 -0.1541253 0.1121403
0.26936188 -0.15423951 0.1151098
-0.26997864 -0.12845328 0.1121403
0.26936188 -0.12854466 0.1151098
-0.26997864 -0.051437289 0.11214018
0.26935893 -0.051459841 0.11507154
-0.26997864 0.025578797 0.1121403
0.26936188 0.025624514 0.11510992
-0.26997864 0.051250719 0.11214018
0.26936188 0.051319249 0.1151098
-0.26997864 0.12826681 0.11214006
0.26935893 0.12840211 0.11507154
-0.26997864 0.15393873 0.11214006
0.26935893 0.15409669 0.1150713
-0.26997864 0.23095471 0.1121403
0.26936188 0.23118332 0.11510992
-0.26997864 0.25662664 0.11214018
0.26936188 0.25687817 0.11510968
-0.26997864 0.33364266 0.11214018
0.26935893 0.33395869 0.1150713
-0.26997864 0.35931459 0.11214006
0.26935893 0.35965312 0.1150713
-0.26997864 0.43633068 0.11214006
0.26936337 0.43674469 0.11512899
-0.26997864 0.46200261 0.11214006
0.26936337 0.46243995 0.11512887
-0.013397802 -0.85172081 0.13021171
0.01241331 -0.85173523 0.13026989
-0.0650464 -0.82618225 0.13135397
0.064062357 -0.82632554 0.13195407
-0.090890758 -0.80054581 0.13214803
0.089881964 -0.80045187 0.13174117
-0.11684515 -0.7754643 0.13548326
-0.16807178 -0.69613838 0.12663591
0.16705151 -0.69586408 0.12526548
0.21832231 -0.61775362 0.12079561
-0.27113745 -0.5413121 0.12582505
0.27025959 -0.54145777 0.12677097
-0.039489269 -0.96001172 0.14842165
-0.013483437 -0.95804811 0.14133608
0.01241331 -0.95805359 0.14135551
0.038364451 -0.96000636 0.14840209
-0.039488971 -0.93405521 0.14840209
-0.013483437 -0.93215156 0.14133632
0.01241331 -0.93215656 0.1413554
0.038364451 -0.93405521 0.14840209
-0.039488971 -0.90810406 0.14840209
-0.013483437 -0.90625465 0.1413362
0.01241331 -0.90625966 0.1413554
0.038364451 -0.90810406 0.14840209
-0.013537981 -0.88215792 0.14842176
0.01241331 -0.88213313 0.14832401
-0.039320871 -0.85351229 0.13748384
0.038282499 -0.85357916 0.13775599
0.1158715 -0.77583706 0.13715327
-0.14332607 -0.75254905 0.14910638
0.14212836 -0.75216973 0.14734638
-0.19501168 -0.6739682 0.14541197
0.19410715 -0.67467177 0.14906728
-0.29841962 -0.49201471 0.14211559
0.29700893 -0.49146721 0.13816416
-0.29841962 -0.46611193 0.14211547
0.29700893 -0.46559486 0.13816416
-0.29841962 -0.44020921 0.14211559
0.29700893 -0.43972251 0.13816416
-0.29841962 -0.41430649 0.14211547
0.29700893 -0.41385022 0.13816428
-0.29841962 -0.38840368 0.14211547
0.29700893 -0.3879779 0.13816428
-0.29841962 -0.36250106 0.14211547
0.29700893 -0.36210552 0.13816416
-0.29841962 -0.33659819 0.14211547
0.29700893 -0.33623317 0.13816416
-0.29841962 -0.31069544 0.14211547
0.29700893 -0.31036085 0.13816416
-0.29841962 -0.28479269 0.14211559
0.29700893 -0.28448862 0.13816428
-0.29841962 -0.20708452 0.14211571
0.29700729 -0.20687053 0.13814461
-0.29841962 -0.18118173 0.14211547
0.29700729 -0.18099833 0.13814485
-0.29841962 -0.10347349 0.14211547
0.29700729 -0.1033818 0.13814473
-0.29841962 -0.077570751 0.14211535
0.29700729 -0.077509597 0.13814461
-0.29841962 0.00013753399 0.14211547
0.29700565 0.000106778 0.1381253
-0.29841962 0.077845819 0.14211547
0.29700729 0.077723414 0.13814473
-0.29841962 0.10374846 0.14211559
0.29700729 0.10359551 0.13814473
-0.29841962 0.18145674 0.14211571
0.29700729 0.18121214 0.13814473
-0.29841962 0.20735949 0.14211547
0.29700729 0.20708424 0.13814473
-0.29841962 0.28506783 0.14211559
0.29700893 0.28470257 0.13816416
-0.29841962 0.31097052 0.14211547
0.29700893 0.3105751 0.13816416
-0.29841962 0.38867879 0.14211547
0.29700729 0.38818949 0.13814473
-0.29841962 0.46638694 0.14211547
0.29700729 0.46580619 0.13814473
-0.29841962 0.49228951 0.14211547
0.29700729 0.49167821 0.13814473
-0.29841962 0.51819253 0.14211559
0.29700729 0.51755059 0.13814473
-0.29841962 0.54409516 0.14211547
0.29700729 0.5434227 0.13814473
-0.29841962 0.56999791 0.14211547
0.29700729 0.56929481 0.13814473
-0.29841962 0.59590065 0.14211547
0.29700729 0.59516704 0.13814449
-0.29841962 0.6218034 0.14211571
0.29700729 0.62103915 0.13814485
-0.29841962 0.64770615 0.14211559
0.29700729 0.64691138 0.13814473
-0.29841962 0.67360878 0.14211547
0.29700729 0.67278349 0.13814473
-0.29841962 0.69951153 0.14211559
0.29700893 0.69865978 0.13816416
-0.29841962 0.7254144 0.14211559
0.29700893 0.72453225 0.13816428
-0.29841962 0.75131714 0.14211547
0.29700729 0.75040007 0.13814473
-0.065816864 -0.96452749 0.16471612
0.064561285 -0.9644289 0.16436064
-0.06581641 -0.93844533 0.16469622
0.064561285 -0.93835485 0.1643604
-0.06581641 -0.91236866 0.1646961
