ply
format ascii 1.0
comment PCL generated
element vertex 966
property float x
property float y
property float z
element camera 1
property float view_px
property float view_py
property float view_pz
property float x_axisx
property float x_axisy
property float x_axisz
property float y_axisx
property float y_axisy
property float y_axisz
property float z_axisx
property float z_axisy
property float z_axisz
property float focal
property float scalex
property float scaley
property float centerx
property float centery
property int viewportx
property int viewporty
property float k1
property float k2
end_header
-0.053800873 -0.066526048 -0.31798571
-0.053800873 -0.047869138 -0.31798583
-0.053801395 -0.029212292 -0.31797427
-0.053801395 -0.010555289 -0.31797427
-0.053801395 0.008101807 -0.31797433
-0.053801395 0.026758902 -0.31797427
-0.053800873 0.045415681 -0.31798571
-0.053800873 0.064072654 -0.31798571
-0.073098741 -0.12304635 -0.30609185
-0.073098741 -0.10429776 -0.30609196
-0.073098741 -0.085549325 -0.30609196
-0.054128349 -0.085401431 -0.31089568
-0.073098741 -0.066800818 -0.30609185
-0.073099367 -0.048052475 -0.30608028
-0.035835639 -0.048145864 -0.30001384
-0.073099367 -0.029303815 -0.3060804
-0.035664983 -0.029316336 -0.30444783
-0.073099993 -0.010555243 -0.30606866
-0.035494499 -0.010555289 -0.30887711
-0.073099993 0.008193464 -0.30606872
-0.035495833 0.0081721088 -0.3088426
-0.073099367 0.026942037 -0.3060804
-0.03566587 0.026967444 -0.30442464
-0.073099367 0.045690563 -0.30608028
-0.03583654 0.045831215 -0.29999065
-0.073098741 0.064438902 -0.30609196
-0.073098741 0.083187334 -0.30609185
-0.05413048 0.083004273 -0.31084973
-0.073098741 0.10193595 -0.30609196
-0.073098741 0.12068444 -0.30609196
-0.11226999 -0.18096609 -0.28192699
-0.11226999 -0.16203155 -0.28192699
-0.092717327 -0.16141351 -0.29196388
-0.11226999 -0.14309707 -0.28192687
-0.092587687 -0.14244273 -0.29406905
-0.074020453 -0.14271657 -0.28898734
-0.11226917 -0.12416203 -0.28193873
-0.092587687 -0.12360176 -0.29406905
-0.055451639 -0.12414784 -0.28224558
-0.11226917 -0.1052275 -0.28193873
-0.092587687 -0.10476056 -0.29406905
-0.054786392 -0.10466129 -0.2966488
-0.11226917 -0.086293109 -0.28193873
-0.092586972 -0.085919164 -0.29408073
-0.11226917 -0.067358486 -0.28193891
-0.092587687 -0.067078456 -0.29406905
-0.036007375 -0.067044169 -0.29555213
-0.11226999 -0.048424296 -0.28192699
-0.092587687 -0.048237339 -0.29406917
-0.11226999 -0.029489771 -0.28192699
-0.092588402 -0.029396381 -0.29405743
-0.11227081 -0.010555289 -0.28191513
-0.092588402 -0.010555243 -0.29405743
-0.11227081 0.0083793765 -0.28191519
-0.092588402 0.0082859425 -0.29405743
-0.11226999 0.027313858 -0.28192687
-0.092588402 0.027127083 -0.29405749
-0.11226999 0.046248432 -0.28192705
-0.092587687 0.045967996 -0.29406905
-0.11226917 0.065182589 -0.28193873
-0.092587687 0.064809129 -0.29406905
-0.036008276 0.064764187 -0.29552883
-0.11226917 0.08411698 -0.28193879
-0.092586972 0.083649635 -0.29408073
-0.11226917 0.10305151 -0.28193873
-0.092586972 0.10249072 -0.29408079
-0.054788545 0.10237418 -0.29660195
-0.11226917 0.1219859 -0.28193873
-0.092586972 0.12133165 -0.29408073
-0.055454358 0.12197261 -0.28218657
-0.11226835 0.14091966 -0.28195053
-0.092586972 0.1401726 -0.29408073
-0.074026771 0.1404935 -0.28886992
-0.11226917 0.1598548 -0.28193873
-0.092723809 0.15916756 -0.29185861
-0.11226917 0.17878932 -0.28193873
-0.13214764 -0.20084378 -0.26967567
-0.13214764 -0.18181494 -0.26967579
-0.13214764 -0.16278608 -0.26967561
-0.13214764 -0.14375718 -0.26967567
-0.13214764 -0.12472841 -0.26967561
-0.13214764 -0.10569952 -0.26967567
-0.037111297 -0.10580736 -0.26687157
-0.13214672 -0.086670324 -0.26968759
-0.036549531 -0.086307608 -0.28146654
-0.13214764 -0.067641817 -0.26967567
-0.13214764 -0.048612896 -0.26967579
-0.017941855 -0.048596639 -0.27073604
-0.13214856 -0.029584251 -0.26966375
-0.017801672 -0.029540904 -0.27528864
-0.13214856 -0.010555197 -0.26966375
-0.017662369 -0.010555197 -0.27981269
-0.13214856 0.0084737195 -0.26966375
-0.017663099 0.0083956765 -0.27978903
-0.13214856 0.02750273 -0.26966375
-0.017802767 0.027416628 -0.275253
-0.13214764 0.046531327 -0.26967561
-0.017942593 0.046507377 -0.27071208
-0.13214764 0.065560199 -0.26967567
-0.13214672 0.084588565 -0.26968759
-0.036551349 0.084137015 -0.28141946
-0.13214672 0.1036173 -0.26968759
-0.03711313 0.10374957 -0.26682365
-0.13214672 0.12264609 -0.26968753
-0.13214672 0.14167489 -0.26968771
-0.13214672 0.16070367 -0.26968759
-0.13214672 0.17973238 -0.26968753
-0.13214764 0.19876222 -0.26967567
-0.15222532 -0.22092143 -0.25728959
-0.15222427 -0.20179632 -0.25730175
-0.15222427 -0.18267225 -0.25730163
-0.094436429 -0.18220478 -0.26404899
-0.15222532 -0.16354875 -0.25728977
-0.075528346 -0.16332009 -0.26100409
-0.15222532 -0.14442465 -0.25728959
-0.056574278 -0.14438958 -0.25793964
-0.15222427 -0.12529989 -0.25730175
-0.03767883 -0.1255389 -0.25212646
-0.15222427 -0.10617574 -0.25730181
-0.15222427 -0.08705166 -0.25730175
-0.018539838 -0.087236002 -0.25131613
-0.15222427 -0.067927532 -0.25730193
-0.018084772 -0.067724459 -0.26609486
-0.15222532 -0.04880368 -0.25728971
-0.15222532 -0.029679414 -0.25728971
-0.15222532 -0.010555197 -0.25728971
-0.15222532 0.0085690198 -0.25728977
-0.15222532 0.027693149 -0.25728959
-0.15222532 0.046817411 -0.25728971
-0.01808624 0.065671936 -0.26604706
-0.15222427 0.065941215 -0.25730175
-0.15222427 0.085065387 -0.25730181
-0.018541694 0.085298061 -0.25125569
-0.15222427 0.10418943 -0.25730175
-0.15222427 0.1233136 -0.25730181
-0.037681632 0.12359641 -0.25205398
-0.15222329 0.14243682 -0.25731373
-0.056579843 0.14240572 -0.25781924
-0.15222329 0.16156091 -0.25731367
-0.075534813 0.16131367 -0.26088417
-0.15222329 0.18068498 -0.25731385
-0.094443075 0.18017474 -0.26394135
-0.15222427 0.19981003 -0.25730181
-0.15222532 0.21893519 -0.25728971
-0.17250407 -0.22197975 -0.24479115
-0.17250296 -0.20275843 -0.24480337
-0.11471487 -0.2026172 -0.24663818
-0.17250296 -0.18353806 -0.24480337
-0.17250407 -0.16431853 -0.24479115
-0.17250407 -0.14509806 -0.24479115
-0.17250407 -0.12587777 -0.24479115
-0.17250407 -0.10665726 -0.24479127
-0.019000359 -0.10698186 -0.23636001
-0.17250296 -0.087436505 -0.24480331
-0.17250407 -0.068216488 -0.24479127
-0.17250407 -0.048996054 -0.24479115
0.00038627908 -0.049058344 -0.24074739
-0.1725052 -0.029775765 -0.24477887
0.00049398467 -0.029770892 -0.24541116
-0.17250407 -0.010555243 -0.24479115
0.00060128793 -0.010555197 -0.25005764
-0.17250407 0.0086652776 -0.24479127
0.00060044602 0.0086248899 -0.25002116
-0.1725052 0.027885754 -0.24477905
0.00049341843 0.027876511 -0.24538684
-0.17250407 0.047106046 -0.24479127
0.00038571656 0.047200024 -0.24072319
-0.17250407 0.066326469 -0.24479115
-0.17250296 0.085546397 -0.24480331
-0.17250296 0.10476674 -0.24480331
-0.019002244 0.10515946 -0.23629892
-0.17250296 0.12398694 -0.24480331
-0.17250183 0.14320655 -0.24481541
-0.17250296 0.16242771 -0.24480331
-0.17250296 0.181648 -0.24480331
-0.17250296 0.20086829 -0.24480319
-0.11472917 0.20073047 -0.24643171
-0.17250407 0.22008978 -0.24479115
-0.19298917 -0.24236754 -0.23215395
-0.19298795 -0.22304881 -0.23216623
-0.13533628 -0.22338015 -0.22825384
-0.19298795 -0.20373121 -0.23216623
-0.19298673 -0.18441281 -0.23217845
-0.077174373 -0.18453202 -0.23045754
-0.19298917 -0.16509682 -0.23215383
-0.057899892 -0.16527641 -0.22923928
-0.19298795 -0.14577839 -0.23216623
-0.038680278 -0.14610489 -0.22610819
-0.19298795 -0.12646085 -0.23216623
-0.019466072 -0.12696572 -0.22123557
-0.19298795 -0.10714316 -0.23216623
-0.19298795 -0.087825634 -0.23216623
-0.19298795 -0.068507992 -0.23216623
0.00026657432 -0.068429582 -0.23556411
-0.19298917 -0.049190618 -0.23215395
-0.19298917 -0.029872932 -0.23215383
-0.19298917 -0.010555152 -0.23215401
-0.19298917 0.0087624909 -0.23215395
-0.19298917 0.02808018 -0.23215383
-0.19298917 0.047397822 -0.23215383
-0.19298795 0.066715188 -0.23216623
0.00026544183 0.066612057 -0.23551518
-0.19298795 0.086032741 -0.23216617
-0.19298795 0.10535034 -0.23216617
-0.19298795 0.12466798 -0.23216617
-0.01946836 0.12526101 -0.22116119
-0.19298673 0.14398481 -0.23217845
-0.038685508 0.14436705 -0.22597241
-0.19298673 0.16330241 -0.23217845
-0.057905585 0.16351449 -0.22911614
-0.19298673 0.18261987 -0.23217845
-0.077185653 0.18276843 -0.23024857
-0.19298673 0.20193742 -0.23217851
-0.19298795 0.22125599 -0.23216617
-0.1353524 0.22163674 -0.22804457
-0.19298795 0.24057363 -0.23216605
-0.23458487 -0.24473584 -0.20651674
-0.21368131 -0.24354576 -0.21940053
-0.23458341 -0.2252197 -0.20652938
-0.21367997 -0.22412875 -0.21941298
-0.23458341 -0.20570475 -0.2065295
-0.21367997 -0.20471306 -0.21941292
-0.097651325 -0.20529549 -0.21184587
-0.23458341 -0.18618985 -0.20652926
-0.21367997 -0.18529718 -0.21941298
-0.23458487 -0.16667566 -0.20651674
-0.21368131 -0.16588219 -0.21940053
-0.23458487 -0.14716057 -0.20651674
-0.21368131 -0.14646634 -0.21940058
-0.23458487 -0.12764555 -0.20651674
-0.21368131 -0.1270505 -0.21940041
-0.23458487 -0.10813048 -0.20651674
-0.21368131 -0.10763462 -0.21940053
-0.23458487 -0.088615403 -0.20651674
-0.21367997 -0.088218309 -0.21941292
-8.3222985e-05 -0.088187389 -0.22041762
-0.23458487 -0.069100417 -0.20651674
-0.21368131 -0.068802863 -0.21940041
-0.23458633 -0.04958548 -0.20650434
-0.21368131 -0.049386956 -0.21940041
0.019164771 -0.049531296 -0.21002197
-0.23458633 -0.030070361 -0.20650423
-0.21368265 -0.029971145 -0.21938813
0.019238349 -0.030006524 -0.21480089
-0.23458487 -0.010555243 -0.20651674
0.019311648 -0.010555243 -0.21956182
-0.21368131 -0.010555197 -0.21940058
-0.23458487 0.0089598307 -0.20651674
-0.21368131 0.0088606132 -0.21940041
0.019311074 0.008859749 -0.21952456
-0.23458633 0.028475087 -0.20650434
-0.21368131 0.028276518 -0.21940053
0.019237965 0.028347775 -0.2147761
-0.23458487 0.047989979 -0.20651674
-0.21368131 0.047692467 -0.21940053
0.019164581 0.047909338 -0.21000957
-0.23458487 0.067504957 -0.20651674
-0.21368131 0.067108229 -0.21940041
-0.23458487 0.087020032 -0.20651686
-0.21367997 0.086523674 -0.21941298
-8.4649771e-05 0.086487383 -0.22035569
-0.23458487 0.1065351 -0.20651686
-0.21367997 0.10593944 -0.21941292
-0.23458487 0.12605014 -0.20651686
-0.21367997 0.12535521 -0.2194128
-0.23458341 0.14556439 -0.20652938
-0.21367866 0.14477025 -0.21942538
-0.23458198 0.16507855 -0.2065419
-0.21367866 0.16418599 -0.21942538
-0.23458341 0.18459436 -0.2065295
-0.21367866 0.18360165 -0.21942538
-0.21367866 0.20301723 -0.21942532
-0.23458341 0.20410925 -0.20652938
-0.097665168 0.2036781 -0.21162117
-0.23458341 0.22362423 -0.20652938
-0.21367997 0.22243413 -0.21941298
-0.23458487 0.24314047 -0.20651686
-0.21368131 0.24185117 -0.21940058
-0.25570306 -0.24593821 -0.19350076
-0.17742941 -0.24612553 -0.19147301
-0.25570154 -0.22632189 -0.19351351
-0.25570154 -0.20670679 -0.19351339
-0.25570154 -0.18709165 -0.19351351
-0.059471667 -0.18697402 -0.1952095
-0.25570306 -0.16747718 -0.19350076
-0.039813623 -0.16728242 -0.19666314
-0.25570464 -0.14786269 -0.19348812
-0.020322032 -0.14786536 -0.19343758
-0.25570464 -0.12824735 -0.19348812
-0.25570464 -0.10863198 -0.19348812
-0.00043698028 -0.10818507 -0.20509946
-0.25570464 -0.089016639 -0.19348812
-0.25570464 -0.069401257 -0.19348812
0.019076232 -0.069152191 -0.20427096
-0.25570464 -0.04978596 -0.19348812
-0.25570464 -0.030170534 -0.19348812
-0.25570306 -0.010555197 -0.19350088
-0.25570306 0.0090600485 -0.19350088
-0.25570464 0.028675478 -0.19348812
-0.25570464 0.04829086 -0.19348812
-0.25570464 0.067906104 -0.19348812
0.019075263 0.067576036 -0.20420814
-0.25570306 0.087521031 -0.19350088
-0.25570306 0.10713627 -0.19350076
-0.00043871626 0.10660395 -0.20502412
-0.25570306 0.12675153 -0.19350076
-0.25570154 0.14636596 -0.19351351
-0.020325936 0.14637853 -0.19331098
-0.25570154 0.16598111 -0.19351351
-0.039818481 0.16577171 -0.1965369
-0.25570154 0.18559626 -0.19351351
-0.059482187 0.18548325 -0.19498169
-0.25570154 0.20521146 -0.19351351
-0.25570154 0.22482671 -0.19351351
-0.25570306 0.24444301 -0.19350076
-0.17747632 0.24469672 -0.19096529
-0.27703926 -0.24715298 -0.18035054
-0.27703926 -0.22743651 -0.18035042
-0.11905245 -0.22712487 -0.18403041
-0.27703759 -0.20771907 -0.18036342
-0.080105834 -0.20805058 -0.17605662
-0.27703759 -0.18800271 -0.18036318
-0.27703926 -0.16828713 -0.18035042
-0.27704096 -0.14857125 -0.18033767
-0.27704096 -0.12885468 -0.18033779
-0.0007953532 -0.12842773 -0.18958127
-0.27704096 -0.10913812 -0.18033755
-0.27704096 -0.089421563 -0.18033767
0.018837158 -0.089162707 -0.18874276
-0.27704096 -0.069704957 -0.18033779
-0.27704096 -0.0499884 -0.18033755
0.038410533 -0.050015993 -0.178545
-0.2770426 -0.030271892 -0.18032491
0.03844814 -0.030247986 -0.18343043
-0.27704096 -0.010555243 -0.18033767
0.038485706 -0.010555289 -0.18831038
-0.27704096 0.0091614509 -0.18033767
0.038485412 0.009100209 -0.18827212
-0.2770426 0.028878145 -0.18032479
0.038447946 0.028830744 -0.18340492
-0.27704096 0.048594519 -0.18033767
0.038410336 0.048636544 -0.17851949
-0.27704096 0.068311162 -0.18033767
-0.27704096 0.088027626 -0.18033755
0.018836178 0.087706573 -0.1886791
-0.27704096 0.10774423 -0.18033767
-0.27704096 0.12746088 -0.18033767
-0.00079711154 0.1269668 -0.18950498
-0.27703926 0.14717662 -0.18035042
-0.27703759 0.16689219 -0.18036318
-0.27703759 0.1866086 -0.18036342
-0.27703759 0.20632498 -0.1803633
-0.080118276 0.20670918 -0.1758256
-0.27703759 0.22604144 -0.1803633
-0.11908872 0.22575089 -0.18350708
-0.27703926 0.245759 -0.18035054
-0.29859504 -0.24837923 -0.16707659
-0.2985968 -0.22856161 -0.16706359
-0.29859504 -0.20874189 -0.16707659
-0.29859504 -0.18892315 -0.16707671
-0.2985968 -0.16910538 -0.16706371
-0.021252155 -0.16934137 -0.1632309
-0.29860041 -0.14928795 -0.16703784
-0.0014803484 -0.14967152 -0.1599201
-0.29860041 -0.12946901 -0.16703773
-0.29860041 -0.10964996 -0.16703784
0.018595338 -0.10941915 -0.17303598
-0.29860041 -0.089831084 -0.16703784
-0.29860041 -0.070012122 -0.16703784
0.038361579 -0.069893286 -0.17218626
-0.29860041 -0.050193164 -0.16703773
-0.29860041 -0.030374203 -0.16703773
-0.29859862 -0.010555197 -0.16705084
-0.29859862 0.0092636263 -0.16705084
-0.29860041 0.029082723 -0.16703784
-0.29860041 0.048901595 -0.16703773
-0.29860041 0.068720639 -0.16703784
0.038361087 0.06856405 -0.17212188
-0.29859862 0.088539056 -0.16705084
-0.29859862 0.10835792 -0.16705084
0.018594146 0.108085 -0.17295873
-0.29859862 0.12817685 -0.16705084
-0.2985968 0.14799494 -0.16706371
-0.0014836565 0.14844358 -0.15977705
-0.29859504 0.16781268 -0.16707671
-0.021256551 0.16808902 -0.16308832
-0.29859504 0.18763131 -0.16707659
-0.29859504 0.20745009 -0.16707671
-0.2985968 0.22726983 -0.16706371
-0.2985968 0.24708866 -0.16706371
-0.3203792 -0.22969848 -0.15363836
-0.3203792 -0.20977642 -0.15363836
-0.32037729 -0.18985328 -0.15365148
-0.041264907 -0.18948562 -0.1589576
-0.3203792 -0.16993211 -0.15363836
-0.32038301 -0.15001139 -0.15361214
-0.32038301 -0.13008903 -0.15361214
0.018342495 -0.12995042 -0.15661359
-0.32038301 -0.11016685 -0.15361214
-0.32038301 -0.090244479 -0.15361214
0.038238995 -0.090162933 -0.15626156
-0.32038301 -0.070322208 -0.15361214
-0.32038301 -0.050399881 -0.15361226
0.058140911 -0.050513033 -0.14626229
-0.32038301 -0.030477609 -0.15361214
0.058140911 -0.030495457 -0.15128458
-0.3203811 -0.010555243 -0.15362525
0.058140911 -0.010555243 -0.15627456
-0.3203811 0.0093669398 -0.15362525
0.058140911 0.0093467692 -0.15624857
-0.32038301 0.029289398 -0.15361214
0.058140911 0.029325824 -0.15124536
-0.32038301 0.049211763 -0.15361214
0.058140911 0.049382057 -0.14623582
-0.32038301 0.06913399 -0.15361214
-0.32038301 0.089056358 -0.15361214
0.038238492 0.088956818 -0.15619636
-0.32038301 0.10897863 -0.15361214
-0.32038301 0.12890096 -0.15361226
0.01834029 0.12874693 -0.15647006
-0.3203811 0.14882243 -0.15362525
-0.3203792 0.16874382 -0.15363836
-0.3203792 0.18866587 -0.15363836
-0.041273922 0.18827447 -0.15872347
-0.32037729 0.20858692 -0.15365148
-0.3203792 0.22851023 -0.15363836
-0.34238997 -0.23084716 -0.14007235
-0.10221791 -0.23104854 -0.13769376
-0.34238997 -0.21082063 -0.14007223
-0.062056161 -0.21088369 -0.1392535
-0.34238997 -0.19079408 -0.14007235
-0.34238997 -0.17076758 -0.14007235
-0.34239399 -0.15074244 -0.14004576
-0.34239399 -0.13071565 -0.14004576
-0.34239605 -0.11068943 -0.14003265
0.03811498 -0.11068492 -0.1401515
-0.34239605 -0.090662658 -0.14003265
-0.34239399 -0.07063552 -0.14004576
0.058140911 -0.070653141 -0.13927996
-0.34239605 -0.050608926 -0.14003265
-0.34239399 -0.03058197 -0.14004576
-0.34239197 -0.010555197 -0.14005899
-0.34239197 0.0094713932 -0.14005888
-0.34239399 0.029498212 -0.14004588
-0.34239605 0.049525257 -0.14003265
-0.34239399 0.069551803 -0.14004576
0.058140911 0.069577344 -0.1392138
-0.34239399 0.089578435 -0.14004576
-0.34239399 0.10960525 -0.14004576
0.038114369 0.10960407 -0.14007235
-0.34239399 0.12963204 -0.14004576
-0.34239197 0.14965785 -0.14005899
-0.34238997 0.16968362 -0.14007223
-0.34238997 0.18971017 -0.14007211
-0.34238997 0.20973672 -0.14007235
-0.062067755 0.20982727 -0.13900244
-0.34238997 0.2297633 -0.14007211
-0.10225212 0.23003437 -0.13713813
-0.3646327 -0.21187605 -0.12636304
-0.3646327 -0.19174394 -0.12636304
-0.022532664 -0.19207081 -0.12164533
-0.3646327 -0.17161193 -0.12636304
-0.0021968335 -0.17145586 -0.12889552
-0.36463702 -0.15148115 -0.12633646
0.017863609 -0.15152572 -0.12550914
-0.36463916 -0.13134956 -0.12632322
0.037976019 -0.13154462 -0.12210047
-0.36463916 -0.11121716 -0.1263231
-0.36463916 -0.091084793 -0.1263231
0.058140911 -0.09118893 -0.1229434
-0.36463916 -0.070952378 -0.12632322
-0.36463916 -0.050819971 -0.1263231
-0.36463916 -0.030687608 -0.12632322
0.078335002 -0.030749302 -0.11830711
-0.36463702 -0.010555289 -0.12633646
0.078295499 -0.010555197 -0.12343824
-0.36463702 0.009577076 -0.12633646
0.078295812 0.0095996605 -0.12339807
-0.36463916 0.029709533 -0.12632322
0.078335211 0.02983338 -0.11828029
-0.36463916 0.049841985 -0.12632322
-0.36463916 0.069974303 -0.12632322
-0.36463916 0.090106621 -0.1263231
0.058140911 0.090239301 -0.12287652
-0.36463916 0.11023903 -0.12632298
-0.36463916 0.13037141 -0.1263231
0.037974991 0.13060631 -0.1219666
-0.36463481 0.15050218 -0.12634981
0.017861351 0.150563 -0.12536216
-0.3646327 0.17063336 -0.12636316
-0.0021999069 0.1704673 -0.12876225
-0.3646327 0.19076553 -0.12636304
-0.022540085 0.19114728 -0.12140417
-0.3646327 0.21089758 -0.12636304
-0.043481112 -0.21379925 -0.10137916
-0.38711104 -0.19270375 -0.11250889
-0.40983129 -0.17332822 -0.098493218
-0.38711104 -0.17246498 -0.11250889
-0.4098337 -0.15298232 -0.098479629
-0.38711563 -0.1522278 -0.11248183
-0.40983853 -0.13263683 -0.098452449
-0.38711792 -0.13198948 -0.11246836
-0.40983853 -0.11228987 -0.098452449
-0.38711792 -0.11175039 -0.11246836
0.058140911 -0.11198343 -0.10641396
-0.40983853 -0.091942996 -0.098452449
-0.38712019 -0.091511711 -0.11245489
-0.40983853 -0.071596034 -0.098452449
-0.38711792 -0.071272299 -0.11246848
0.078433439 -0.071432844 -0.10551953
-0.40983853 -0.051249072 -0.098452449
-0.38712019 -0.051033475 -0.11245489
0.078374654 -0.051022682 -0.11315596
-0.40983611 -0.030902069 -0.098466039
-0.38711792 -0.030794334 -0.11246836
-0.4098337 -0.010555243 -0.098479629
-0.38711563 -0.010555243 -0.11248183
-0.4098337 0.0097915353 -0.098479629
-0.38711563 0.0096836677 -0.11248183
-0.40983611 0.030138496 -0.098466039
-0.38711792 0.029922761 -0.11246836
-0.40983853 0.050485596 -0.098452449
-0.38712019 0.050162219 -0.11245489
0.078374863 0.050146557 -0.1131289
-0.40983853 0.070832461 -0.098452449
-0.38711792 0.070400946 -0.11246836
0.078433961 0.070616908 -0.10545194
-0.40983853 0.091179423 -0.098452449
-0.38711792 0.090639949 -0.11246836
-0.40983853 0.1115263 -0.09845233
-0.38711792 0.11087904 -0.11246836
0.058140911 0.11116244 -0.10633278
-0.40983853 0.13187335 -0.098452449
-0.38711792 0.13111804 -0.11246824
-0.4098337 0.15221849 -0.098479629
-0.38711563 0.15135629 -0.11248183
-0.40983129 0.17256431 -0.098493218
-0.38711336 0.17159428 -0.1124953
-0.38711104 0.19183205 -0.11250889
-0.043491043 0.21303517 -0.10112071
-0.084762834 -0.23511821 -0.089633465
-0.0032509044 -0.1947307 -0.083252668
0.017373063 -0.17362657 -0.093647003
-0.43279505 -0.15374486 -0.084327579
0.037730105 -0.15343086 -0.090154648
-0.43280017 -0.13329045 -0.084299922
0.058140911 -0.13318117 -0.086666822
-0.43280017 -0.11283462 -0.084299922
-0.43280017 -0.09237875 -0.084299922
0.078562491 -0.0922416 -0.088755131
-0.43280271 -0.071923099 -0.084286213
-0.43280017 -0.051467039 -0.084299922
-0.43279761 -0.031010982 -0.08431375
0.099049911 -0.031009708 -0.084478855
0.098968863 -0.010555334 -0.089743137
-0.43279505 -0.010555197 -0.084327698
-0.43279505 0.0099004963 -0.084327579
0.098969497 0.0098590618 -0.08970201
-0.43279761 0.030356281 -0.08431375
0.099050336 0.030354142 -0.084451556
-0.43280017 0.050812431 -0.084299922
-0.43280017 0.071268305 -0.084300041
-0.43280017 0.09172409 -0.084299922
0.07856302 0.091555342 -0.088686585
-0.43280017 0.11218001 -0.084299922
-0.43280017 0.13263598 -0.084299922
0.058140911 0.13251659 -0.086515665
-0.43279761 0.15309089 -0.08431375
0.037728943 0.15274049 -0.090003729
0.017370746 0.17291054 -0.093496323
-0.084793888 0.23447584 -0.089057088
-0.456009 -0.11338525 -0.069995165
0.078693092 -0.11331618 -0.07178998
-0.45601168 -0.092819646 -0.069981337
-0.45601168 -0.072253577 -0.069981217
0.099259406 -0.072232999 -0.070872068
-0.45601168 -0.051687464 -0.069981217
0.099131279 -0.051545583 -0.07919395
-0.456009 -0.03112131 -0.069995165
-0.45600632 -0.010555197 -0.070009112
-0.45600632 0.010010687 -0.070009112
-0.456009 0.030576754 -0.069995165
-0.45601168 0.051143136 -0.069981337
0.099131495 0.050930634 -0.079180121
-0.45601168 0.071709245 -0.069981337
0.099260479 0.071683928 -0.07080245
-0.45601168 0.092275217 -0.069981217
-0.456009 0.11284069 -0.069995046
0.078693733 0.11276174 -0.071706533
-0.0032569543 0.19410437 -0.082990766
-0.024357803 -0.216802 -0.062371969
0.037478112 -0.17585765 -0.057420135
0.058140911 -0.15538748 -0.053845644
0.099524364 -0.09332215 -0.053662539
-0.47946623 -0.010555152 -0.055549622
0.12018128 -0.010555197 -0.055169582
-0.47946623 0.010121924 -0.055549622
0.12018193 0.010125111 -0.055141449
0.099525444 0.09290617 -0.053592086
0.058140911 0.15497679 -0.053690553
0.037477031 0.17541961 -0.057279468
-0.024365999 0.21633868 -0.062105775
-0.066651307 -0.23934101 -0.039765716
0.01660436 -0.19746965 -0.043718457
0.078858927 -0.13486335 -0.050247431
0.12043099 -0.052082006 -0.044357061
0.12030604 -0.031276986 -0.049767137
0.1203067 0.03088861 -0.049738884
0.12043164 0.051735476 -0.04432869
0.078860015 0.13447839 -0.050106287
0.016600206 0.19714835 -0.043448567
-0.066678934 0.2390845 -0.039167523
-0.0046606436 -0.21989372 -0.022209287
0.09979254 -0.11468427 -0.036244035
0.12064011 -0.073054366 -0.035301447
0.12064177 0.072779223 -0.035230041
0.099793851 0.11440366 -0.036158323
0.058140911 -0.17815059 -0.020188212
0.07911849 -0.15739834 -0.016528368
0.10015303 -0.13659149 -0.012829781
0.12104825 -0.094431743 -0.017628789
0.14229593 -0.05263273 -0.008581996
0.14212444 -0.031551141 -0.014150739
0.14195368 -0.010555243 -0.019696951
0.14195502 0.010398309 -0.019653559
0.1421258 0.031437233 -0.014107227
0.14229682 0.052561764 -0.0085527897
0.12105025 0.094293602 -0.017542005
0.10015549 0.13649577 -0.012669921
0.079119831 0.15727615 -0.01635468
0.058140911 0.17799956 -0.02004385
-0.0046666414 0.21973903 -0.02194953
0.037059002 -0.20029242 -0.0029757023
0.12146141 -0.11608941 0.00026130676
0.14259805 -0.073898092 0.0012295246
0.1426003 0.073904209 0.0013027191
0.12146378 0.11609038 0.00036394596
0.03705686 0.20028521 -0.0026977062
-0.04784558 -0.2437256 0.012013555
0.015611995 -0.22319983 0.020737767
0.079384997 -0.18050787 0.018090844
0.10068702 -0.15946653 0.021854401
0.14315706 -0.095571339 0.019383788
0.16452855 -0.031832762 0.022435665
0.16430932 -0.010555197 0.016739726
0.16431102 0.010678836 0.01678431
0.1645297 0.032000206 0.022465467
0.14315981 0.095718421 0.019473314
0.10068977 0.15964024 0.022033453
0.079386137 0.18065184 0.018239498
0.015602596 0.2234055 0.021348119
-0.047869496 0.24386971 0.012634754
0.058140911 -0.2032007 0.039001346
0.12204758 -0.13836856 0.025643349
0.14372306 -0.11753295 0.037765265
0.16515687 -0.074764766 0.038760066
0.1647487 -0.053198341 0.028154969
0.16474983 0.053410221 0.028184891
0.16515979 0.075059973 0.038835526
0.1437263 0.11782282 0.037870646
0.12205172 0.13857003 0.02582252
0.1872716 -0.010555197 0.054165125
0.18727371 0.010966833 0.054210901
0.058140911 0.20351855 0.039303064
0.10126114 -0.1830361 0.059144497
0.12287147 -0.1615932 0.061318755
0.14456882 -0.14019711 0.065232038
0.16587438 -0.096742041 0.05740118
0.18781331 -0.053779431 0.065893054
0.1875419 -0.032122079 0.060016751
0.1875433 0.032578882 0.060047388
0.187814 0.054281268 0.065908432
0.1658785 0.097182401 0.05750823
0.14457402 0.14070278 0.065401077
0.12287571 0.16207087 0.061502814
0.10126515 0.18350384 0.059404612
0.036459863 -0.22736569 0.074854255
0.079879284 -0.2062006 0.082300901
0.16660276 -0.11901709 0.076324821
0.18834165 -0.075655669 0.077332139
0.18834522 0.076247655 0.077409625
0.16660634 0.11960334 0.076417923
0.079881676 0.20685242 0.082612038
0.036454741 0.22799271 0.075519681
0.18922678 -0.09794575 0.096495628
0.21118963 -0.032419361 0.098634124
0.21086559 -0.010555197 0.092620134
0.21086812 0.011262934 0.092667222
0.21119133 0.033173364 0.098665476
0.18923184 0.098687261 0.096605659
0.1238355 -0.18574075 0.10306263
0.1456992 -0.1637823 0.10194242
0.16774319 -0.14207791 0.10595405
0.21151423 -0.054376189 0.10465777
0.21151593 0.055176947 0.10468936
0.16775048 0.14289808 0.10614407
0.14570501 0.1645731 0.10213161
0.12384206 0.18654826 0.10334682
0.10230514 -0.2092942 0.1269542
0.1901255 -0.1205424 0.11595368
0.21217874 -0.076571517 0.11698925
0.21218303 0.07746885 0.11706901
0.19012991 0.12143377 0.11604905
0.10231008 0.21029054 0.12727511
0.058140911 -0.23169811 0.13113356
0.16919836 -0.16603567 0.1437608
0.21324074 -0.099183746 0.13669777
0.23587984 -0.054989927 0.14452434
0.23549744 -0.032724798 0.13831472
0.23511767 -0.010555243 0.13214779
0.23511964 0.011567141 0.13218021
0.23550043 0.033784688 0.13836312
0.23588187 0.056097623 0.14455676
0.21324685 0.10023466 0.1368109
0.16920525 0.1671478 0.1439395
0.058140911 0.23276329 0.13185811
0.14712912 -0.1885317 0.14838028
0.19159988 -0.14401424 0.14787531
0.21431926 -0.12211124 0.15671289
0.23669606 -0.077513456 0.15777826
0.23670113 0.078724921 0.15786016
0.21432456 0.12331637 0.15681112
0.19160891 0.14515752 0.14807081
0.14713864 0.18968968 0.14868963
0.12545161 -0.21248734 0.17304218
0.26005465 -0.010555197 0.17277718
0.26005808 0.011879907 0.17282677
0.12545925 0.21383923 0.17337382
0.080706358 -0.23620966 0.18974113
0.19339901 -0.1683564 0.18682754
0.21617043 -0.14600913 0.19106591
0.23794481 -0.10045721 0.17805529
0.26093772 -0.05562124 0.18552363
0.26049522 -0.033038978 0.1791364
0.26049754 0.034412954 0.17916977
0.26094005 0.057044487 0.18555701
0.23795199 0.10182672 0.17817163
0.21618128 0.1474852 0.19126725
0.19340754 0.16980028 0.1870116
0.080712169 0.23772852 0.19049549
0.17117691 -0.19141294 0.19516516
0.23921427 -0.12372611 0.19866836
0.26192325 -0.078482628 0.19974804
0.26192909 0.080017328 0.19983256
0.23921946 0.12525359 0.19875276
0.17118987 0.19293295 0.19550157
0.14935452 -0.21578588 0.2206527
0.26336917 -0.10176774 0.22061837
0.28621185 -0.033362351 0.22113216
0.28570816 -0.010555197 0.21458888
0.28571209 0.012201871 0.21464002
0.2862145 0.035059385 0.22116637
0.26337749 0.103465 0.22073829
0.14936402 0.2175025 0.22096086
0.21833214 -0.17074648 0.23118246
0.2414856 -0.14806376 0.23555005
0.2867178 -0.05627054 0.22770429
0.28671911 0.058018211 0.22772133
0.24149942 0.14988346 0.23577476
0.21834236 0.17253217 0.23137188
0.10421172 -0.24090925 0.25079012
0.19601613 -0.19438893 0.24348962
0.26483941 -0.12538774 0.24183917
0.28789145 -0.079480439 0.24295092
0.28789815 0.081347622 0.2430377
0.2648454 0.12724775 0.24192607
0.1960322 0.19628172 0.24383724
0.10422328 0.24289785 0.25154138
0.28954577 -0.10311725 0.26444113
0.31267729 -0.033694878 0.26433539
0.31210846 -0.010555243 0.25761759
0.31211144 0.012532894 0.25765264
0.31268179 0.035724986 0.26438808
0.28955665 0.10515263 0.26458204
0.17405063 -0.21919274 0.26982665
0.24403325 -0.17321099 0.27691913
0.26758179 -0.1501825 0.28142238
0.31325021 -0.056938693 0.27110076
0.31325319 0.059020888 0.27113628
0.2675966 0.15235482 0.28163612
0.24404529 0.17534912 0.27711475
0.17406289 0.22128876 0.27014506
0.22168648 -0.19746445 0.29343104
0.29122823 -0.12709896 0.28629661
0.31463391 -0.080507934 0.28744173
0.31464148 0.082717799 0.28753102
0.29123649 0.12930205 0.28640378
0.22170681 0.19974378 0.29380846
0.31651005 -0.10450769 0.30959773
0.33992773 -0.034037467 0.30883539
0.33928701 -0.010555289 0.30189943
0.33929202 0.012874073 0.30195367
0.33993107 0.036409847 0.30887151
0.31652081 0.10689013 0.30972505
0.12871696 -0.24580874 0.31443596
0.19979206 -0.223032 0.32524049
0.27053756 -0.17575264 0.32408524
0.29449335 -0.15236671 0.32871199
0.34057134 -0.057626925 0.31580305
0.34057474 0.060053211 0.31583941
0.29451177 0.1549044 0.328951
0.27055153 0.17825425 0.32428694
0.19982594 0.22558656 0.32597458
0.12873378 0.24828531 0.3151648
0.31852469 -0.12891158 0.33338964
0.34218401 -0.081566028 0.33326054
0.34219423 0.084129184 0.33337116
0.3185403 0.13148072 0.33357406
0.24823153 -0.2006458 0.34509051
0.34429505 -0.10593993 0.35611331
0.36799708 -0.034390397 0.35467267
0.36728197 -0.010555334 0.34752715
0.36728758 0.013225361 0.34758282
0.36800084 0.037115563 0.35471022
0.34430718 0.10868071 0.35624433
0.24825442 0.20332244 0.34546232
0.2978833 -0.17837496 0.37274873
0.36871549 -0.058335964 0.36185157
0.36871925 0.061116684 0.361889
0.29789788 0.18125027 0.3729378
0.32226187 -0.1546212 0.37752354
0.34671885 -0.13079602 0.38235128
0.37058231 -0.082657091 0.38050592
0.37059373 0.085584059 0.38062
0.3467364 0.13374257 0.38254166
0.32228115 0.15753405 0.37775123
0.2270028 -0.22766343 0.39208984
0.27569455 -0.20393623 0.39852011
0.37294036 -0.10741656 0.40406895
0.39692289 -0.034753885 0.40190876
0.39612916 -0.010555197 0.39454377
0.39613536 0.013587165 0.39460111
0.39692706 0.037842724 0.40194726
0.37295389 0.11052661 0.40420401
0.27572122 0.2070251 0.39890468
0.2270472 0.23073936 0.39291382
0.3977204 -0.059066493 0.40930843
0.39772248 0.062212344 0.40932775
0.32621875 -0.18115023 0.42425203
0.35092759 -0.1569487 0.42791235
0.37582335 -0.13274083 0.43287766
0.39986688 -0.0837823 0.42922556
0.3998796 0.087084368 0.42934334
0.37584502 0.13607742 0.43309379
0.35094932 0.1602497 0.42814744
0.32624856 0.18443212 0.4246043
0.42674494 -0.035128802 0.45060837
0.42586797 -0.010555197 0.44301367
0.42587483 0.013960444 0.4430728
0.42674956 0.038592651 0.45064807
0.25542504 -0.23249994 0.46189868
0.30412507 -0.20734261 0.45383155
0.40248868 -0.10894042 0.45355284
0.42762381 -0.059819609 0.45821929
0.42762843 0.063342288 0.45825934
0.40250155 0.11243071 0.45367217
0.30415422 0.21085669 0.45421016
0.25548053 0.23611934 0.46279955
0.35578376 -0.1841803 0.48048222
0.38053465 -0.15935235 0.47995567
0.43007994 -0.084943123 0.47949004
0.4300963 0.088632897 0.47963178
0.38055897 0.16305448 0.48019874
0.35581934 0.187897 0.48086703
0.40588704 -0.13475034 0.48508561
0.45653799 -0.010555243 0.49298477
0.4565455 0.014345062 0.49304605
0.40590894 0.13848811 0.48528886
0.33357513 -0.21087086 0.51112676
0.43297911 -0.11051208 0.5045979
0.45847279 -0.060596813 0.50869334
0.45750302 -0.035515334 0.50081992
0.45751062 0.03936594 0.50088155
0.45847782 0.064507842 0.5087347
0.43299338 0.11439555 0.50472105
0.33360833 0.2148273 0.51151907
0.28514388 -0.23755825 0.53490901
0.38641801 -0.18731984 0.53874564
0.41113031 -0.16183627 0.53373659
0.43695369 -0.13682617 0.53901851
0.46126887 -0.086141638 0.53139484
0.46128431 0.090230562 0.53152013
0.43698037 0.14098063 0.53924954
0.41115507 0.16595192 0.53396726
0.38645792 0.19148605 0.53914452
0.28520772 0.24174125 0.53583074
0.4644596 -0.11213483 0.55730009
0.48924699 -0.035914429 0.55265772
0.48818856 -0.010555289 0.54457021
0.48819685 0.0147422 0.54463363
0.48925248 0.040163815 0.55270016
0.46447527 0.11642414 0.55742764
0.36410254 -0.21452968 0.57053566
0.49031058 -0.061398741 0.56078529
0.49031615 0.065710999 0.56082761
0.36413813 0.21894272 0.57092083
0.4934766 -0.087379269 0.58497798
0.49349356 0.091880627 0.58510768
0.41818056 -0.19057509 0.59915519
0.44276476 -0.1644049 0.58934402
0.46907923 -0.13897346 0.59480715
0.52086508 -0.010555289 0.59782779
0.52087414 0.01515218 0.59789312
0.46910596 0.14355665 0.59502399
0.44279227 0.16894872 0.58958232
0.41822749 0.1952085 0.59959078
0.31625229 -0.24285538 0.61136889
0.49698195 -0.11381199 0.61176395
0.52318549 -0.062227029 0.61457407
0.52202243 -0.036326502 0.60617995
0.52202845 0.040987778 0.6062237
0.52318853 0.066952683 0.61459589
0.49699634 0.11851988 0.61187363
0.31632152 0.24762549 0.61226869
0.39576361 -0.21832293 0.63213253
0.3958014 0.22320974 0.63251007
0.475492 -0.16706207 0.64687228
0.52675647 -0.08865793 0.64034498
0.526775 0.093585752 0.64047885
0.47551957 0.17204791 0.64709628
0.45113751 -0.19395363 0.66185391
0.5023163 -0.14119521 0.65252566
0.55588049 -0.036752053 0.66146994
0.55461818 -0.01055538 0.65284002
0.5546248 0.015575455 0.65288496
0.55588704 0.041839063 0.66151512
0.50234568 0.14622289 0.65275025
0.45118445 0.19906801 0.66226077
0.53059316 -0.1155447 0.6680336
0.55714577 -0.063082144 0.67012107
0.55715245 0.068235897 0.67016673
0.53060883 0.12068588 0.66814709
0.42960852 -0.22282246 0.70519364
0.50936651 -0.16981122 0.70639884
0.56116629 -0.089980207 0.69760907
0.58949846 -0.010555197 0.70967209
0.58950919 0.016013209 0.70974147
0.56118309 0.095348328 0.69772446
0.50939989 0.17525727 0.70665419
0.42970845 0.22830948 0.70612085
0.53672034 -0.14349411 0.71225286
0.56535155 -0.11733642 0.72622383
0.59087205 -0.037191812 0.7185936
0.5908792 0.042718578 0.71864021
0.56536865 0.12292566 0.72634113
0.5367558 0.148983 0.7125088
0.48535231 -0.19746017 0.72692764
0.59227079 -0.063968211 0.72767878
0.59228891 0.06956692 0.72779644
0.48540431 0.20307647 0.72735023
0.59675771 -0.091347836 0.75682235
0.59677613 0.097171746 0.75694168
0.54445577 -0.17266035 0.76807892
0.62557048 -0.010555289 0.76846313
0.62558204 0.016465716 0.76853549
0.54449242 0.17858145 0.76834297
0.5723604 -0.14587621 0.77414429
0.60132062 -0.11919135 0.78645957
0.62706226 -0.037646778 0.77769196
0.62707013 0.043628599 0.77774012
0.60133934 0.12524448 0.78658068
0.57239568 0.15184093 0.77438521
0.46591574 -0.22803535 0.78983772
0.52090096 -0.20110354 0.79453838
0.52095526 0.20723964 0.79495323
0.46603096 0.23417859 0.79083526
0 0 0 1 0 0 0 1 0 0 0 1 0 0 0 0 0 966 1 0 0
