ply
format ascii 1.0
comment PCL generated
element vertex 1336
property float x
property float y
property float z
element camera 0
property float view_px
property float view_py
property float view_pz
property float x_axisx
property float x_axisy
property float x_axisz
property float y_axisx
property float y_axisy
property float y_axisz
property float z_axisx
property float z_axisy
property float z_axisz
property float focal
property float scalex
property float scaley
property float centerx
property float centery
property int viewportx
property int viewporty
property float k1
property float k2
end_header
-0.060491078 -0.16989066 -0.079823852
0.061325394 -0.16989635 -0.079080939
0.085783906 -0.1699269 -0.075106621
0.11031385 -0.16996014 -0.070799708
-0.10965134 -0.1455297 -0.068437576
0.061325394 -0.1455297 -0.07908082
0.085783906 -0.1455297 -0.075106502
0.11031385 -0.1455297 -0.07079947
-0.084928036 -0.14552964 -0.077357173
-0.060491078 -0.14552958 -0.079823971
-0.10965134 -0.12108096 -0.068437576
-0.084928036 -0.12114961 -0.077357173
-0.060491078 -0.12116858 -0.079823971
0.061325394 -0.12116289 -0.079080939
0.085783906 -0.12113239 -0.075106502
0.11031385 -0.1210992 -0.070799589
-0.10965134 -0.096632339 -0.068437576
-0.084928036 -0.096769691 -0.077356935
-0.060491078 -0.096807674 -0.079823971
0.061325394 -0.096796244 -0.07908082
0.085783906 -0.096735023 -0.075106502
0.11031385 -0.09666869 -0.070799589
-0.10965069 -0.072184034 -0.068454742
-0.084928036 -0.072389655 -0.077357173
-0.060491078 -0.072446659 -0.079823852
0.061325394 -0.072429433 -0.07908082
0.085783906 -0.072337657 -0.075106502
0.11031385 -0.072238244 -0.070799708
-0.10965069 -0.047735564 -0.068454623
-0.084928036 -0.048009679 -0.077356935
-0.060491078 -0.048085757 -0.079823852
0.061325394 -0.048062839 -0.07908082
0.085783906 -0.047940351 -0.075106502
0.11031385 -0.04780785 -0.070799589
-0.10965134 -0.02328641 -0.068437696
-0.084928036 -0.02362965 -0.077357054
-0.060491078 -0.023724638 -0.079823971
0.061325394 -0.023696035 -0.07908082
0.085783906 -0.023543037 -0.075106621
0.11031385 -0.023377292 -0.070799708
-0.10965134 0.0011623651 -0.068437696
-0.084928036 0.00075033307 -0.077357173
-0.060491078 0.00063636899 -0.079823971
0.061325394 0.00067061186 -0.07908082
0.085783906 0.00085416436 -0.075106502
0.11031385 0.0010532141 -0.070799708
-0.10965134 0.025610939 -0.068437696
-0.084928557 0.025131255 -0.077340126
-0.060491078 0.024997383 -0.079823852
0.061325394 0.025037378 -0.079080939
0.085783906 0.025251582 -0.075106502
0.11031385 0.025483608 -0.070799708
-0.085278146 0.050210565 -0.06598711
-0.060724981 0.049982116 -0.069695592
-0.03621991 0.049717769 -0.073988557
-0.011780893 0.049453124 -0.078286648
0.036986921 0.04963012 -0.075411439
0.061492927 0.05007422 -0.068199635
0.086051583 0.050362825 -0.063515663
0.012591945 0.12381379 -0.063618064
-0.10965134 0.14785416 -0.068437576
-0.084928557 0.14703183 -0.077340245
-0.060491078 0.14680238 -0.079823852
0.061325394 0.14687105 -0.079080701
0.085783906 0.14723836 -0.075106502
0.11031385 0.14763601 -0.070799708
-0.10965134 0.17230292 -0.068437696
-0.084928557 0.17141198 -0.077340245
-0.060491078 0.17116351 -0.079823971
0.061325394 0.17123784 -0.07908082
0.085783906 0.17163543 -0.075106502
0.11031385 0.17206641 -0.070799589
-0.10965134 0.19675164 -0.068437576
-0.084928557 0.19579209 -0.077340245
-0.060491078 0.19552453 -0.079823852
0.061325394 0.1956044 -0.07908082
0.085783906 0.19603275 -0.075106502
0.11031385 0.19649707 -0.07079947
-0.085035414 0.22057293 -0.073869944
-0.060551174 0.22018589 -0.077221632
0.061369643 0.22030304 -0.076206684
0.085883766 0.22092946 -0.070782542
0.11052132 0.22170554 -0.064061522
-0.036388502 0.29529446 -0.063037992
-0.011881871 0.294999 -0.065169454
0.012591945 0.29475361 -0.066940665
0.037078232 0.29522341 -0.063549757
-0.13395485 0.31853521 -0.07158041
0.13467771 0.31839603 -0.072530389
-0.13395485 0.34295964 -0.071580291
0.13467771 0.34281343 -0.072530627
-0.13395485 0.36738414 -0.07158041
0.13467771 0.36723053 -0.072530627
-0.13395485 0.39180851 -0.07158041
0.13467771 0.39164764 -0.072530389
-0.13395955 0.41625106 -0.071478605
0.13468096 0.41607976 -0.072445869
-0.13403405 0.44097441 -0.069865227
-0.10923063 0.4392187 -0.079367995
0.13474499 0.44080496 -0.070782542
-0.13420217 0.46611255 -0.066225648
-0.10936208 0.46424049 -0.075953007
0.11008382 0.46379459 -0.078269958
0.13488828 0.46595192 -0.067059755
-0.10957351 0.48973072 -0.070459962
-0.084854685 0.48787349 -0.079739451
0.085731149 0.48834348 -0.077390909
0.11024436 0.48921108 -0.073056221
-0.10987888 0.51581281 -0.062525988
-0.085079268 0.51375103 -0.072445631
-0.060600802 0.51320505 -0.075072646
-0.036162838 0.51265991 -0.077695131
0.036963485 0.51250196 -0.078455687
0.061399885 0.51337755 -0.074242711
0.085901015 0.51425195 -0.070035338
0.11049508 0.51531655 -0.06491375
-0.060841314 0.53984749 -0.064658165
-0.036321871 0.53926378 -0.067365885
-0.011844153 0.53868109 -0.070069194
0.012591945 0.53817981 -0.072394729
0.037043482 0.53911346 -0.068063617
0.061562151 0.54005325 -0.063703299
-0.012030603 -0.78571576 -0.045848966
0.012591945 -0.78512603 -0.048795581
-0.13519035 -0.76128918 -0.044831038
-0.11013365 -0.7591576 -0.055906892
0.11069912 -0.75869948 -0.058287621
0.13573456 -0.76124275 -0.045072675
-0.15969621 -0.73623192 -0.04714179
-0.13462338 -0.73439091 -0.057106376
0.13524963 -0.73428649 -0.057671309
0.16033119 -0.73648661 -0.045762658
0.16021338 -0.71141189 -0.048313379
-0.15956815 -0.71119851 -0.049518466
-0.13453563 -0.70951873 -0.059006095
0.13517587 -0.70941573 -0.059587598
-0.15956815 -0.68660426 -0.049518466
-0.13453563 -0.68499744 -0.059006095
0.13517587 -0.68489891 -0.059587598
0.16021338 -0.68680823 -0.048313498
-0.15956815 -0.66200995 -0.049518347
-0.13453563 -0.66047615 -0.059005976
0.13517587 -0.66038215 -0.059587598
0.16021338 -0.66220468 -0.048313379
-0.15956815 -0.63741565 -0.049518347
-0.13453563 -0.63595498 -0.059005976
0.13517587 -0.63586539 -0.059587598
0.16021338 -0.63760108 -0.048313498
-0.15956815 -0.61282128 -0.049518466
-0.13453563 -0.61143357 -0.059006214
0.13517587 -0.61134857 -0.059587598
0.16021338 -0.61299747 -0.048313379
-0.15956815 -0.58822697 -0.049518466
0.16021338 -0.58839411 -0.048313379
-0.13453563 -0.58691227 -0.059006095
0.13517587 -0.58683175 -0.059587598
-0.15956815 -0.56363273 -0.049518347
-0.13453563 -0.5623911 -0.059006214
0.13517587 -0.56231499 -0.059587598
0.16021338 -0.56379038 -0.048313498
-0.15956815 -0.53903848 -0.049518347
-0.13453563 -0.53786981 -0.059006214
0.13517587 -0.53779817 -0.059587717
0.16021338 -0.53918689 -0.048313379
-0.15956815 -0.51444411 -0.049518466
-0.13453563 -0.51334852 -0.059006214
0.13517587 -0.51328152 -0.059587598
0.16021338 -0.51458335 -0.04831326
-0.15956815 -0.48984981 -0.049518466
-0.13453563 -0.48882729 -0.059006214
0.13517587 -0.48876464 -0.059587598
0.16021338 -0.48997968 -0.048313379
-0.15956721 -0.46525377 -0.049535632
-0.13453563 -0.46430606 -0.059006095
0.13517587 -0.46424788 -0.059587598
0.16021338 -0.46537614 -0.04831326
-0.15956721 -0.44065958 -0.049535632
-0.13453563 -0.43978477 -0.059006214
0.13517587 -0.43973106 -0.059587598
0.16021338 -0.44077247 -0.048313379
-0.15956721 -0.41606545 -0.049535632
-0.13453563 -0.41526353 -0.059006095
0.13517587 -0.4152143 -0.059587598
0.16021338 -0.41616899 -0.048313498
-0.15956721 -0.39147124 -0.049535632
-0.13453563 -0.39074224 -0.059006214
0.13517587 -0.39069754 -0.059587598
0.16021338 -0.39156544 -0.048313379
-0.15956721 -0.36687705 -0.049535751
-0.13453563 -0.36622095 -0.059006095
0.13517587 -0.3661806 -0.059587598
0.16021338 -0.36696181 -0.048313498
-0.15956721 -0.34228307 -0.049535513
-0.13453563 -0.34169972 -0.059006214
0.13517587 -0.34166396 -0.059587598
0.16021338 -0.34235823 -0.048313379
-0.15956721 -0.31768888 -0.049535513
-0.13453563 -0.31717852 -0.059006095
0.13517587 -0.3171472 -0.059587598
0.16021338 -0.31775463 -0.048313498
-0.15956721 -0.29309469 -0.049535513
-0.13453563 -0.2926572 -0.059005976
0.13517587 -0.29263043 -0.059587598
0.16021338 -0.29315105 -0.048313379
-0.15956721 -0.26850051 -0.049535513
-0.13453484 -0.26813528 -0.059023261
0.13517587 -0.26811364 -0.059587598
0.16021338 -0.26854753 -0.04831326
-0.15956721 -0.24390635 -0.049535513
-0.13453484 -0.24361423 -0.059023142
0.13517587 -0.24359673 -0.059587598
0.16021338 -0.24394396 -0.048313498
-0.15956721 -0.21931216 -0.049535513
-0.13453484 -0.21909299 -0.059023142
0.13517587 -0.21907999 -0.059587598
0.16021338 -0.2193404 -0.048313379
-0.15956721 -0.19471797 -0.049535513
-0.13453484 -0.19457188 -0.059023142
0.13517587 -0.19456318 -0.059587598
0.16021338 -0.19473688 -0.04831326
-0.15956721 -0.17012379 -0.049535632
-0.13453484 -0.17005077 -0.059023261
0.13517587 -0.17004645 -0.059587598
0.16021338 -0.1701332 -0.048313379
-0.13453484 -0.1455297 -0.059023142
0.13517587 -0.14552975 -0.059587598
0.16021338 -0.1455297 -0.04831326
-0.15956721 -0.14552958 -0.049535632
-0.15956721 -0.1209354 -0.049535632
-0.13453484 -0.12100847 -0.059023261
0.13517587 -0.1210129 -0.059587598
0.16021338 -0.12092602 -0.048313379
-0.15956721 -0.096341312 -0.049535751
-0.13453484 -0.096487358 -0.059023261
0.13517587 -0.096496046 -0.059587598
0.16021338 -0.096322447 -0.04831326
-0.15956721 -0.071747124 -0.049535751
-0.13453484 -0.07196629 -0.059023142
0.13517587 -0.071979299 -0.059587598
0.16021338 -0.071719043 -0.048313379
-0.15956721 -0.047153093 -0.049535513
-0.13453484 -0.047445066 -0.059023142
0.13517587 -0.047462501 -0.059587598
0.16021338 -0.047115371 -0.048313498
-0.15956721 -0.022558793 -0.049535513
-0.13453484 -0.022924051 -0.059023261
0.13517587 -0.02294565 -0.059587598
0.16021338 -0.022511743 -0.04831326
-0.15956721 0.0020353943 -0.049535513
-0.13453563 0.0015977472 -0.059006095
0.13517587 0.0015710443 -0.059587598
0.16021338 0.0020919293 -0.048313498
-0.15956721 0.026629373 -0.049535513
-0.13453563 0.026119128 -0.059005976
0.13517587 0.026087895 -0.059587598
0.16021338 0.026695281 -0.048313498
-0.11017258 0.050893649 -0.054895401
0.11073496 0.050756469 -0.057123303
-0.01202715 0.07604219 -0.046297193
0.012591945 0.07590501 -0.048279047
-0.01203764 0.1007663 -0.044934392
0.012591945 0.10062131 -0.046814322
-0.11053539 0.12535037 -0.045469403
-0.085648201 0.12463082 -0.053969026
-0.061012551 0.12435345 -0.057243228
-0.036442943 0.12416224 -0.059502125
-0.011908134 0.12397133 -0.061757803
0.037105568 0.12412022 -0.059998035
0.061675057 0.12442739 -0.056369543
0.086300604 0.12473546 -0.052733064
0.11104762 0.12522347 -0.046969652
-0.15956721 0.14960028 -0.049535751
-0.13453563 0.14872541 -0.059006214
0.13517587 0.14867179 -0.059587598
0.16021338 0.14971323 -0.048313379
-0.15956721 0.17419447 -0.049535751
-0.13453563 0.17324679 -0.059006214
0.13517587 0.17318846 -0.059587598
0.16021338 0.17431681 -0.04831326
-0.15956721 0.1987886 -0.049535632
-0.13453563 0.19776808 -0.059006095
0.13517587 0.19770537 -0.059587598
0.16021338 0.19892041 -0.048313498
-0.13506371 0.22360955 -0.047572732
-0.10994067 0.22206812 -0.060920835
0.13562109 0.22355787 -0.048020601
-0.085931174 0.24856289 -0.044779062
-0.061196521 0.24800877 -0.049277544
-0.03655985 0.24768485 -0.051908374
-0.011963865 0.24736328 -0.054517984
0.012591945 0.24710359 -0.056626558
0.037163876 0.24762131 -0.052423835
0.061800681 0.24814032 -0.048210025
-0.061231114 0.27280104 -0.047779441
-0.036585525 0.27247894 -0.050240874
-0.011977872 0.27215725 -0.052698731
0.012591945 0.27190334 -0.054638028
0.037177108 0.27241808 -0.050705314
0.061822966 0.27293402 -0.046762824
-0.085522078 0.29598349 -0.058064818
-0.060927622 0.29558778 -0.060920715
0.061616562 0.29569191 -0.060169101
0.086207122 0.29616135 -0.056780696
-0.11035504 0.29707938 -0.050154924
0.11090136 0.29686266 -0.051719546
-0.18397081 0.32130682 -0.052629948
-0.15888835 0.3199169 -0.062133312
0.15961371 0.32003921 -0.061296701
0.18472792 0.32169658 -0.04996562
-0.18397081 0.34587717 -0.052629948
-0.15888835 0.34441394 -0.062133312
0.15961371 0.34454292 -0.061296582
0.18472792 0.34628737 -0.049965739
-0.18397081 0.37044764 -0.052629948
-0.15888835 0.36891127 -0.062133312
0.15961371 0.36904651 -0.061296701
0.18472792 0.37087834 -0.049965739
-0.18397081 0.39501804 -0.052629828
-0.15888835 0.39340842 -0.062133312
0.15961371 0.3935501 -0.061296582
0.18472792 0.39546919 -0.04996562
-0.18399091 0.41964614 -0.052303672
-0.15890034 0.41794497 -0.061911464
0.15962476 0.41809613 -0.061057448
0.1847474 0.42012393 -0.049604416
-0.18409783 0.44453967 -0.050567746
-0.15898685 0.44274056 -0.060305715
0.15970135 0.44290805 -0.059399486
0.18483646 0.44502294 -0.047951579
-0.18439904 0.4700672 -0.04567647
-0.15919618 0.46799928 -0.056421041
0.1598864 0.46819741 -0.055392623
-0.15952271 0.49375325 -0.050361276
-0.13446929 0.4917357 -0.060442448
0.13511732 0.4916023 -0.061108828
0.1601776 0.49400818 -0.04908812
-0.13485235 0.51796961 -0.052149057
0.13544565 0.51788026 -0.05257833
-0.11032791 0.54282153 -0.050860047
-0.085424155 0.54058301 -0.061245441
0.086148225 0.5409956 -0.05933094
0.11086433 0.54237711 -0.05292201
-0.085885495 0.56843168 -0.046262741
-0.061157584 0.5673824 -0.050963283
-0.036531039 0.56675351 -0.053780198
-0.011947766 0.56612194 -0.056609511
0.012591945 0.56561369 -0.058886528
0.037149075 0.5666272 -0.054346681
0.061775774 0.56763583 -0.049828053
0.086472727 0.56865126 -0.045279622
-0.086420394 -0.78910989 -0.028891325
-0.061451368 -0.78723836 -0.038241982
-0.036711633 -0.78647625 -0.042050004
0.03723868 -0.78634483 -0.042706847
0.061982185 -0.78760278 -0.036421299
0.086843148 -0.78904003 -0.029240012
-0.16041987 -0.76342899 -0.033712506
0.16097772 -0.76380366 -0.031764984
-0.18510053 -0.73860699 -0.034285903
0.18560468 -0.73871613 -0.033695102
-0.1848729 -0.71324098 -0.037981987
0.18542974 -0.71342528 -0.036941767
-0.1848729 -0.68855798 -0.037981868
0.18542974 -0.68873411 -0.036941767
-0.1848729 -0.66387486 -0.037981868
0.18542974 -0.66404301 -0.036941648
-0.1848729 -0.63919169 -0.037981987
0.18542974 -0.63935196 -0.036941767
-0.1848729 -0.61450863 -0.037981987
0.18542974 -0.6146608 -0.036941648
-0.1848729 -0.58982545 -0.037981987
0.18542974 -0.58996964 -0.036941767
-0.1848729 -0.56514251 -0.037981868
0.18542974 -0.56527853 -0.036941767
-0.1848729 -0.54045939 -0.037981868
0.18542974 -0.54058754 -0.036941767
-0.1848729 -0.51577628 -0.037981987
0.18542974 -0.51589638 -0.036941767
-0.1848729 -0.4910931 -0.037982106
0.18542974 -0.49120516 -0.036941767
-0.1848729 -0.46640998 -0.037981987
0.18542974 -0.46651411 -0.036941767
-0.1848729 -0.44172698 -0.037981868
0.18542974 -0.44182301 -0.036941528
-0.1848729 -0.41704381 -0.037981868
0.18542974 -0.41713196 -0.036941767
-0.1848729 -0.39236069 -0.037981987
0.18542974 -0.3924408 -0.036941767
-0.1848729 -0.36767757 -0.037981987
0.18542974 -0.36774969 -0.036941767
-0.1848729 -0.34299451 -0.037981868
0.18542974 -0.34305865 -0.036941648
-0.18487184 -0.31831038 -0.037999392
0.18542974 -0.31836745 -0.036941767
-0.18487184 -0.29362747 -0.037999272
0.18542974 -0.29367638 -0.036941767
-0.18487184 -0.26894462 -0.037999272
0.18542974 -0.26898518 -0.036941767
-0.18487184 -0.24426155 -0.037999392
0.18542974 -0.24429411 -0.036941767
-0.18487184 -0.21957859 -0.037999272
0.18542974 -0.21960303 -0.036941648
-0.18487184 -0.19489563 -0.037999272
0.18542974 -0.1949119 -0.036941767
-0.18487184 -0.17021266 -0.037999153
0.18542974 -0.17022072 -0.036941767
-0.18487184 -0.14552958 -0.037999272
0.18542974 -0.14552958 -0.036941767
-0.18487184 -0.12084668 -0.037999153
0.18542974 -0.12083857 -0.036941648
-0.18487184 -0.09616372 -0.037999392
0.18542974 -0.096147388 -0.036941648
-0.18487184 -0.071480751 -0.037999272
0.18542974 -0.071456358 -0.036941767
-0.18487184 -0.046797685 -0.037999392
0.18542974 -0.046765283 -0.036941767
-0.18487184 -0.022114821 -0.037999272
0.18542974 -0.022073992 -0.036941767
-0.18487184 0.0025681406 -0.037999392
0.18542974 0.0026169717 -0.036941528
-0.18487184 0.027251214 -0.037999272
0.18542974 0.027308062 -0.036941767
-0.16048731 0.052275196 -0.032460809
-0.13524137 0.051581457 -0.043725967
0.13578439 0.051578283 -0.043777823
0.16104285 0.05240491 -0.030354977
-0.086195476 0.076741889 -0.036195755
-0.061383799 0.076397493 -0.041167974
-0.036685564 0.076219216 -0.043743253
0.037227377 0.076189235 -0.04417491
0.061926417 0.076475471 -0.040043235
0.086689323 0.076762542 -0.035900712
0.11164294 0.077335164 -0.027636051
-0.086222738 0.10150693 -0.035310507
-0.061409377 0.10114136 -0.040060639
-0.036704719 0.10095359 -0.042499423
0.037237216 0.10092299 -0.042896748
0.061942413 0.10122275 -0.039004207
0.086707763 0.10152306 -0.03510201
0.11165369 0.10212471 -0.027287006
-0.16066743 0.1267352 -0.029117942
-0.13554993 0.12606372 -0.037045836
0.13604552 0.12606819 -0.036993504
0.16116683 0.12685768 -0.027670741
-0.18487184 0.15066598 -0.037999153
0.18542974 0.15076376 -0.036941648
-0.18487184 0.17534892 -0.037999392
0.18542974 0.1754549 -0.036941767
-0.18487184 0.20003201 -0.037999153
0.18542974 0.2001458 -0.036941648
-0.16028978 0.22493128 -0.036126375
0.1608637 0.22514971 -0.034233809
-0.11094713 0.24979554 -0.034772277
0.086502627 0.24866073 -0.043985009
0.1113767 0.24960931 -0.036282539
-0.11096852 0.27457601 -0.034216404
-0.085970521 0.27336073 -0.043501377
0.086530149 0.27345347 -0.042793155
0.11139914 0.27440089 -0.035553575
-0.1603955 0.29929537 -0.034164429
-0.13531241 0.29818338 -0.042188168
0.13584225 0.2981714 -0.042274594
0.16093114 0.29948777 -0.032773733
-0.20981449 0.32399505 -0.034251213
0.21013473 0.32363433 -0.036716223
-0.20981449 0.34870678 -0.034251094
0.21013473 0.34832746 -0.036716223
-0.20981449 0.37341863 -0.034250975
0.21013473 0.37302023 -0.036716223
-0.20981449 0.39813048 -0.034251213
0.21013473 0.39771307 -0.036716223
-0.20985782 0.42295319 -0.033625603
0.21017213 0.42251337 -0.03610909
-0.20999035 0.44802314 -0.031712651
0.21029618 0.44758314 -0.03409481
0.18506974 0.47046256 -0.043622494
0.21064667 0.47339141 -0.028403044
-0.1848665 0.49621028 -0.038085818
0.18542786 0.49643224 -0.036976218
-0.18553478 0.52314812 -0.027234554
-0.15998828 0.52013701 -0.041721463
0.16059138 0.52046782 -0.040129781
0.18593401 0.5230754 -0.027583599
-0.16062613 0.54734266 -0.029884577
-0.13539471 0.54507458 -0.040406704
0.13591148 0.54505968 -0.040475965
0.16115636 0.54777092 -0.027897477
-0.11092173 0.5708496 -0.035431981
0.11135212 0.5704816 -0.037080526
-0.061572835 0.59611809 -0.032982349
-0.036805771 0.5954361 -0.035935402
-0.012084223 0.59475547 -0.038882971
0.012591945 0.59424776 -0.041081429
0.037287734 0.59534401 -0.036334515
0.062056556 0.5964396 -0.031590939
-0.18622273 -0.76682544 -0.01606369
0.18644312 -0.76642674 -0.018135548
-0.21120121 -0.74231136 -0.014235377
0.21142285 -0.74202234 -0.015799999
-0.21084957 -0.71654689 -0.019310832
0.21110517 -0.71625519 -0.020958304
-0.21084957 -0.69172001 -0.019310832
0.21110517 -0.69144094 -0.020958304
-0.21084957 -0.66689324 -0.019310832
0.21110517 -0.66662687 -0.020958185
-0.21084957 -0.64206642 -0.019310832
0.21110517 -0.64181268 -0.020958304
-0.21084957 -0.61723948 -0.019310832
0.21110517 -0.61699861 -0.020958424
-0.21084957 -0.59241271 -0.019310832
0.21110517 -0.59218448 -0.020958185
-0.21084957 -0.56758583 -0.019310713
0.21110517 -0.56737036 -0.020958185
-0.21084957 -0.542759 -0.019310832
0.21110517 -0.54255611 -0.020958185
-0.21084957 -0.51793224 -0.019310832
0.21110517 -0.51774198 -0.020958304
-0.21084957 -0.49310541 -0.019310713
0.21110517 -0.49292785 -0.020958185
-0.21084957 -0.46827847 -0.019310832
0.21110517 -0.46811366 -0.020958185
-0.21084957 -0.4434517 -0.019310832
0.21110517 -0.44329947 -0.020958304
-0.21084957 -0.41862482 -0.019310832
0.21110517 -0.41848528 -0.020958304
-0.21084957 -0.39379802 -0.019310832
0.21110517 -0.39367127 -0.020958185
-0.21084957 -0.36897117 -0.019310832
0.21110517 -0.36885709 -0.020958185
-0.21084957 -0.34414428 -0.019310832
0.21110517 -0.34404287 -0.020958304
-0.21084957 -0.31931755 -0.019310832
0.21110517 -0.31922877 -0.020958185
-0.21084957 -0.29449064 -0.019310713
0.21110517 -0.29441458 -0.020958185
-0.21084957 -0.26966381 -0.019310832
0.21110517 -0.26960039 -0.020958185
-0.21084957 -0.24483702 -0.019310832
0.21110517 -0.24478623 -0.020958304
-0.21084957 -0.22001028 -0.019310832
0.21110517 -0.21997207 -0.020958066
-0.21084957 -0.19518328 -0.019310832
0.21110517 -0.19515795 -0.020958185
-0.21084957 -0.17035648 -0.019310832
0.21110517 -0.17034374 -0.020958304
-0.21084957 -0.14552958 -0.019310832
0.21110517 -0.14552964 -0.020958424
-0.21084957 -0.12070274 -0.019310832
0.21110517 -0.12071555 -0.020958185
-0.21084836 -0.095876321 -0.019328356
0.21110517 -0.095901348 -0.020958185
-0.21084836 -0.071049638 -0.019328356
0.21110517 -0.071087152 -0.020958304
-0.21084836 -0.046222955 -0.019328237
0.21110517 -0.046273157 -0.020958185
-0.21084836 -0.02139616 -0.019328117
0.21110517 -0.021458961 -0.020958304
-0.21084836 0.0034304261 -0.019328356
0.21110517 0.0033551902 -0.020958424
-0.21084957 0.028258264 -0.019310713
0.21110517 0.028169438 -0.020958424
-0.186305 0.053367391 -0.014727831
0.18651313 0.053237528 -0.016836524
-0.13649473 0.078100398 -0.016590714
-0.11126882 0.077419773 -0.026414394
0.13685584 0.078145295 -0.015940547
-0.13648255 0.10292771 -0.016854048
-0.11128093 0.10221601 -0.02609992
0.13684233 0.10297103 -0.016291976
-0.18616755 0.12776469 -0.016959429
0.18643367 0.12765019 -0.018310905
-0.21084957 0.15239231 -0.019310832
0.21110517 0.15224011 -0.020958185
-0.21084957 0.17721917 -0.019310832
0.21110517 0.17705436 -0.020958185
-0.21084957 0.20204617 -0.019310832
0.21110517 0.20186852 -0.020958304
-0.1860411 0.22690721 -0.01901269
0.18631084 0.22672509 -0.020590305
-0.16143151 0.25223821 -0.014938593
-0.13611923 0.25103348 -0.024720073
0.13653339 0.25108308 -0.02431798
0.16185892 0.25251567 -0.01268661
-0.16136709 0.27694231 -0.016133785
-0.13609745 0.27575701 -0.025191903
0.13651322 0.27580261 -0.024842262
0.16179389 0.27720928 -0.014094472
-0.18582641 0.30091155 -0.022498846
0.18616934 0.30081218 -0.023216367
-0.23597375 0.32674515 -0.015448451
0.23631203 0.32676822 -0.01529026
-0.23597375 0.35160172 -0.015448451
0.23631203 0.35162604 -0.01529026
-0.23597375 0.37645823 -0.015448451
0.23631203 0.37648392 -0.015290499
-0.23597239 0.40131187 -0.015465975
0.23631203 0.40134162 -0.01529026
-0.23604004 0.42632395 -0.014587164
0.23637658 0.42636442 -0.014358521
-0.23622024 0.45161945 -0.01224637
0.23654486 0.45167828 -0.011929274
-0.21036834 0.47380453 -0.026257038
-0.21094196 0.50023484 -0.017977595
0.21118288 0.4998908 -0.019696474
-0.18645671 0.55114073 -0.012263894
0.18662202 0.55059075 -0.014815688
-0.16150543 0.57573098 -0.013566613
-0.13612811 0.57328397 -0.024527669
0.13654283 0.57338542 -0.024073362
0.16193865 0.57631278 -0.010960221
-0.11170511 0.60025269 -0.01507926
-0.086493984 0.59761471 -0.026501656
0.086898729 0.59753823 -0.026833057
0.11199766 0.60001314 -0.016116381
-0.037175372 0.62586367 -0.011929154
-0.012267599 0.62511629 -0.015061855
0.012591945 0.62461728 -0.017152667
0.037474245 0.62582171 -0.012105465
0.11224877 -0.79329902 -0.0079610348
-0.21273625 -0.77144134 0.0079209805
0.2128672 -0.77138978 0.0076532364
-0.23766981 -0.74615788 0.0065840483
0.23793125 -0.74643451 0.0080813169
-0.23714422 -0.71992284 -0.00024354458
0.23742211 -0.72009575 0.00073266029
-0.23713192 -0.69492215 -0.00040316582
0.23741104 -0.69508749 0.00057280064
-0.23713192 -0.66994977 -0.00040328503
0.23741104 -0.6701076 0.00057280064
-0.23713192 -0.64497739 -0.00040316582
0.23741104 -0.64512777 0.00057291985
-0.23713192 -0.62000495 -0.00040328503
0.23741104 -0.62014776 0.00057268143
-0.23713192 -0.59503263 -0.00040316582
0.23741104 -0.59516788 0.00057268143
-0.23713192 -0.57006013 -0.00040316582
0.23741104 -0.57018799 0.00057280064
-0.23713192 -0.54508787 -0.00040316582
0.23741104 -0.5452081 0.00057291985
-0.23713055 -0.52011347 -0.000420928
0.23741104 -0.52022815 0.00057268143
-0.23713055 -0.49514115 -0.00042116642
0.23741104 -0.49524826 0.00057268143
-0.23713055 -0.47016889 -0.00042104721
0.23741104 -0.47026837 0.00057280064
-0.23713055 -0.44519669 -0.00042104721
0.23741104 -0.44528848 0.00057280064
-0.23713055 -0.42022443 -0.00042104721
0.23741104 -0.42030865 0.00057291985
-0.23713055 -0.39525217 -0.00042104721
0.23741104 -0.39532864 0.00057268143
-0.23713055 -0.37027985 -0.000420928
0.23741104 -0.37034875 0.00057280064
-0.23713055 -0.34530765 -0.000420928
0.23741104 -0.34536886 0.00057280064
-0.23713055 -0.32033545 -0.000420928
0.23741104 -0.32038903 0.00057280064
-0.23713055 -0.29536316 -0.00042116642
0.23741104 -0.29540902 0.00057268143
-0.23713055 -0.2703909 -0.00042104721
0.23741104 -0.27042913 0.00057268143
-0.23713055 -0.24541865 -0.00042104721
0.23741104 -0.24544926 0.00057268143
-0.23713055 -0.22044641 -0.00042104721
0.23741104 -0.22046937 0.00057291985
-0.23713055 -0.19547421 -0.000420928
0.23741104 -0.19548948 0.00057291985
-0.23713055 -0.17050195 -0.00042104721
0.23741104 -0.17050953 0.00057280064
-0.23713055 -0.14552964 -0.000420928
0.23741104 -0.14552964 0.00057280064
-0.23713055 -0.12055734 -0.00042104721
0.23741104 -0.12054975 0.00057280064
-0.23713055 -0.095585138 -0.00042116642
0.23741104 -0.095569909 0.00057280064
-0.23713055 -0.070612885 -0.00042104721
0.23741104 -0.070589915 0.00057268143
-0.23713055 -0.045640685 -0.000420928
0.23741104 -0.045610026 0.00057268143
-0.23713055 -0.020668492 -0.00042104721
0.23741104 -0.020630188 0.00057291985
-0.23713055 0.0043037087 -0.000420928
0.23741104 0.0043497086 0.00057291985
-0.23713055 0.029276118 -0.00042080879
0.23741104 0.029329598 0.00057291985
-0.21271773 0.054745555 0.0076534748
0.21285842 0.054736793 0.0075107813
-0.16190366 0.078821853 -0.0061764717
0.16225274 0.078961521 -0.0041600466
-0.16184843 0.10367088 -0.0072015524
0.16220289 0.10382187 -0.0052392483
-0.21205142 0.12903441 -0.0019636154
0.21223454 0.12897883 -0.0026192665
-0.23713055 0.15413733 -0.000420928
0.23741104 0.15422909 0.00057291985
-0.23713055 0.17910953 -0.00042104721
0.23741104 0.17920904 0.00057268143
-0.23713055 0.20408179 -0.000420928
0.23741104 0.20418899 0.00057291985
-0.21246724 0.22956897 0.0040380955
0.21261825 0.22951971 0.0036110878
-0.18740919 0.25447273 0.0032023191
0.18747899 0.25421202 0.0010877848
-0.18723089 0.27909374 0.00030660629
0.18732412 0.27881992 -0.0017864704
-0.23755051 0.3047269 0.0050346851
-0.21161389 0.3028819 -0.0082788467
0.21184255 0.30278414 -0.0089848042
0.23778185 0.30485028 0.0059249401
-0.26244122 0.32952768 0.0035755634
0.26284137 0.32994437 0.0064237118
-0.2624397 0.35452789 0.0035580397
0.26284137 0.35496908 0.0064235926
-0.2624397 0.37953091 0.0035579205
0.26284137 0.37999415 0.0064235926
-0.2624397 0.40453368 0.0035578012
0.26284137 0.40501904 0.006423831
-0.26253763 0.42974144 0.0047143698
0.26293743 0.43026489 0.0076713562
-0.26278049 0.45528305 0.0075821877
-0.23665483 0.4775874 -0.0066007376
0.23696059 0.47771668 -0.005928874
-0.23734653 0.50431031 0.0023846626
0.23762155 0.50455594 0.0036113262
-0.21175343 0.52750647 -0.0062648058
0.2119415 0.52727503 -0.0073782206
-0.18771954 0.58059955 0.0082418919
0.18774541 0.5801062 0.0060318708
-0.13709748 0.60291749 -0.0035403967
0.13737813 0.60318756 -0.002371192
-0.087321103 0.62879646 0.00035977364
-0.062131926 0.62661684 -0.0087729692
0.062434226 0.62702584 -0.0070601702
0.087472245 0.62823343 -0.0019990206
-0.2639707 -0.72379708 0.021638036
0.26410675 -0.72401363 0.022861242
-0.26392502 -0.69856364 0.021098614
0.26407072 -0.69878292 0.022393584
-0.26392502 -0.67342567 0.021098495
0.26407072 -0.67363501 0.022393465
-0.26392502 -0.64828783 0.021098614
0.26407072 -0.64848715 0.022393465
-0.26392502 -0.62314987 0.021098733
0.26407072 -0.62333935 0.022393465
-0.26392502 -0.59801197 0.021098614
0.26407072 -0.59819156 0.022393584
-0.26392502 -0.57287413 0.021098614
0.26407072 -0.57304353 0.022393465
-0.26392502 -0.54773617 0.021098495
0.26407072 -0.54789573 0.022393465
-0.26392502 -0.52259827 0.021098614
0.26407072 -0.52274776 0.022393465
-0.26392502 -0.49746037 0.021098733
0.26407072 -0.49759984 0.022393465
-0.26392502 -0.4723224 0.021098495
0.26407072 -0.47245198 0.022393465
-0.26392502 -0.44718462 0.021098614
0.26407072 -0.44730413 0.022393465
-0.26392502 -0.42204666 0.021098614
0.26407072 -0.42215627 0.022393465
-0.26392502 -0.3969087 0.021098614
0.26407072 -0.39700836 0.022393465
-0.26392502 -0.37177086 0.021098852
0.26407072 -0.37186053 0.022393465
-0.26392502 -0.3466329 0.021098614
0.26407072 -0.34671268 0.022393465
-0.26392502 -0.321495 0.021098733
0.26407072 -0.32156485 0.022393465
-0.26392353 -0.29635635 0.021080732
0.26407072 -0.29641688 0.022393465
-0.26392353 -0.27121854 0.021080732
0.26407072 -0.27126902 0.022393465
-0.26392353 -0.24608085 0.021080732
0.26407072 -0.24612124 0.022393465
-0.26392353 -0.22094288 0.021080494
0.26407072 -0.22097324 0.022393465
-0.26392353 -0.19580522 0.021080494
0.26407072 -0.19582534 0.022393465
-0.26392353 -0.17066738 0.021080494
0.26407072 -0.17067748 0.022393584
0.26407072 -0.1455297 0.022393584
-0.26392353 -0.14552964 0.021080494
-0.26392353 -0.12039186 0.021080613
0.26407072 -0.12038174 0.022393465
-0.26392353 -0.095254123 0.021080613
0.26407072 -0.095233843 0.022393465
-0.26392353 -0.070116445 0.021080494
0.26407072 -0.070086047 0.022393584
-0.26392353 -0.044978499 0.021080732
0.26407072 -0.044938199 0.022393584
-0.26392353 -0.019840762 0.021080732
0.26407072 -0.019790247 0.022393465
-0.26392502 0.0052978098 0.021098375
0.26407072 0.0053575486 0.022393465
-0.26392502 0.030435696 0.021098614
0.26407072 0.030505449 0.022393584
-0.18801546 0.080153719 0.013046861
0.18803863 0.080044761 0.011473417
-0.18787895 0.10505901 0.010830283
0.18791738 0.10493524 0.0092231035
-0.2643168 0.13137911 0.025725365
-0.23816456 0.13030253 0.013011217
0.23832485 0.13036607 0.013762712
0.26431888 0.1313699 0.025617123
-0.26392502 0.15612526 0.021098614
0.26407072 0.15624489 0.022393465
-0.26392502 0.1812631 0.021098733
0.26407072 0.18139265 0.022393465
-0.26392502 0.20640109 0.021098614
0.26407072 0.20654048 0.022393584
-0.21374641 0.25684953 0.022501469
0.21381816 0.25692272 0.023095369
-0.21343397 0.28140831 0.017991543
0.21352154 0.28144562 0.018278718
-0.26374856 0.30666381 0.019014716
0.26386592 0.30676353 0.019732952
0.26317507 0.45586979 0.010758638
-0.26331291 0.48152691 0.013869882
0.26364484 0.48210269 0.016861677
-0.23831199 0.53191096 0.014926195
0.23854578 0.53233188 0.016951203
-0.21286111 0.55587977 0.0097229481
0.21298474 0.55584532 0.0095624924
-0.16288269 0.6065045 0.011991739
0.1629806 0.6064136 0.011598468
-0.11276978 0.63171309 0.012581825
0.11287691 0.63167876 0.012438893
-0.13844505 0.63482827 0.025635123
-0.037712954 0.65934873 0.022987247
-0.012531856 0.65843189 0.019266129
0.012591945 0.65791929 0.017184377
0.037745502 0.65938407 0.023131371
-0.23976238 -0.77641553 0.033767343
0.23998982 -0.77719039 0.037794352
-0.26503924 -0.75127035 0.034256816
0.26485148 -0.75095248 0.032535911
-0.23937388 0.056043103 0.028720498
0.23956408 0.056223229 0.031649113
-0.21442159 0.081483886 0.032246351
0.21444976 0.081560373 0.033350706
-0.21420106 0.10646267 0.029063821
0.21424249 0.10653351 0.029985428
-0.23920853 0.23217113 0.026572943
0.23941125 0.23250251 0.029443383
-0.23992427 0.28374791 0.035870314
0.24004899 0.28411144 0.038648129
-0.29035711 0.30889392 0.035108566
0.29005137 0.30849499 0.032228351
-0.29035711 0.33413982 0.035108805
0.29005137 0.3337183 0.032228231
-0.29035711 0.35938561 0.035108685
0.29005137 0.35894203 0.03222847
-0.29035711 0.38463122 0.035108805
0.29005137 0.38416553 0.032228112
-0.29035711 0.409877 0.035108566
0.29005137 0.4093892 0.032228231
-0.29055825 0.43550831 0.037286043
0.29024309 0.43501365 0.034492373
-0.29103702 0.46172839 0.042468429
0.29071814 0.46129125 0.040102482
-0.26444969 0.509296 0.027294517
0.26444522 0.50928885 0.027258515
0.26557404 0.53752208 0.041922092
-0.23962717 0.56068391 0.032011032
0.2398138 0.56138283 0.035253763
-0.21438146 0.58582902 0.031667233
0.21442856 0.58612806 0.033006668
-0.18949142 0.61228299 0.037013531
0.18939532 0.61219913 0.036650538
0.13855539 0.63544381 0.028215051
-0.088589117 0.66391879 0.041539907
-0.062956117 0.66031629 0.02691555
0.062991224 0.66085887 0.02911818
0.088445805 0.66357827 0.04015696
-0.29243648 -0.73016757 0.05761838
0.29214379 -0.73004711 0.056938529
-0.29225323 -0.7044124 0.055634379
0.29195723 -0.70426017 0.054735065
-0.29225323 -0.67900878 0.055634499
0.29195723 -0.67886323 0.054734945
-0.29225323 -0.65360492 0.055634379
0.29195723 -0.65346646 0.054735065
-0.29225323 -0.62820113 0.055634379
0.29195723 -0.62806964 0.054735184
-0.29225323 -0.60279751 0.055634379
0.29195723 -0.60267276 0.054734945
-0.29225323 -0.57739371 0.055634499
0.29195723 -0.57727593 0.054735065
-0.29225323 -0.55198985 0.055634379
0.29195723 -0.55187917 0.054735184
-0.29225323 -0.52658617 0.055634499
0.29195723 -0.52648228 0.054735065
-0.29225323 -0.50118232 0.055634379
0.29195723 -0.50108546 0.054735065
-0.29225323 -0.47577852 0.055634379
0.29195723 -0.47568852 0.054734945
-0.29225323 -0.45037484 0.055634499
0.29195723 -0.45029175 0.054735065
-0.29225323 -0.4249711 0.055634379
0.29195723 -0.42489493 0.054735065
-0.29225323 -0.39956731 0.055634379
0.29195723 -0.39949805 0.054734945
-0.29225323 -0.37416357 0.055634379
0.29195723 -0.37410125 0.054735065
-0.29225323 -0.34875971 0.055634379
0.29195723 -0.34870446 0.054735065
-0.29225323 -0.32335597 0.055634379
0.29195723 -0.32330745 0.054734945
-0.29225323 -0.29795226 0.055634499
0.29195723 -0.29791069 0.054735065
-0.29225323 -0.27254847 0.055634379
0.29195723 -0.27251381 0.054734945
-0.29225323 -0.24714473 0.055634499
0.29195723 -0.24711703 0.054734945
-0.29225323 -0.22174096 0.055634499
0.29195723 -0.22172019 0.054735065
-0.29225323 -0.1963371 0.055634379
0.29195723 -0.19632331 0.054735065
-0.29225323 -0.17093349 0.055634499
0.29195723 -0.17092653 0.054735065
-0.29225323 -0.1455297 0.055634379
0.29195723 -0.14552975 0.054735065
-0.29225323 -0.12012586 0.055634379
0.29195723 -0.12013276 0.054735065
-0.29225323 -0.094722174 0.055634499
0.29195723 -0.094735876 0.054735184
-0.29225323 -0.069318332 0.055634499
0.29195723 -0.069338985 0.054735065
-0.29225323 -0.043914549 0.055634379
0.29195723 -0.043942206 0.054735065
-0.29225323 -0.018510863 0.055634499
0.29195723 -0.018545419 0.054735184
-0.29225323 0.0068929195 0.055634379
0.29195723 0.0068515092 0.054735065
-0.29225323 0.032296762 0.055634379
0.29195723 0.032248288 0.054735065
-0.24153902 0.083188206 0.056846738
0.24121821 0.083096638 0.055524111
-0.24109147 0.10815383 0.051032782
0.2409032 0.10814945 0.050977826
-0.29225323 0.13391186 0.055634499
0.29195723 0.13383578 0.054735065
-0.29225323 0.15931563 0.055634499
0.29195723 0.15923251 0.054735065
-0.29225323 0.18471943 0.055634379
0.29195723 0.18462934 0.054735184
-0.29225323 0.21012302 0.055634379
0.29195723 0.21002619 0.054735065
0.26702029 0.23611279 0.060709476
-0.24054722 0.25949287 0.043962717
0.24051447 0.25966597 0.045367002
-0.29188398 0.48879516 0.051637053
0.29157242 0.48851675 0.050190568
-0.26604956 0.5384087 0.046188235
0.24156339 0.59226727 0.060506821
-0.16499531 0.64092815 0.051197529
0.16473775 0.64055699 0.049641848
-0.11445092 0.6675446 0.056258917
0.11428054 0.66797918 0.058022857
-0.29419723 -0.75910795 0.076679111
0.29395086 -0.75940353 0.078278899
-0.26765707 0.058287874 0.065172195
0.26721039 0.058165058 0.063179135
-0.26747739 0.23638307 0.063049793
0.26840287 0.26376784 0.078669786
-0.26773056 0.28769612 0.066040277
0.26732543 0.28751725 0.064673424
-0.31911299 0.31375414 0.070183754
0.31900373 0.31408805 0.072593451
-0.31911299 0.33926994 0.070183754
0.31900373 0.33962244 0.072593331
-0.31911299 0.36478579 0.070183754
0.31900373 0.36515677 0.072593331
-0.31911114 0.39029843 0.070165396
0.31900373 0.39069092 0.07259357
-0.31911856 0.41582662 0.070239425
0.31901404 0.41624403 0.072704792
-0.3194024 0.44184494 0.073075652
0.31929532 0.44231844 0.075749516
-0.29319397 0.51700646 0.065818548
0.29291138 0.51704347 0.066003203
-0.26831064 0.56949514 0.072890282
0.2678552 0.56920731 0.071555018
-0.24209322 0.59305739 0.064046025
-0.2165442 0.6182574 0.062883973
0.21646744 0.61900359 0.066114068
-0.32118887 -0.71038949 0.090927243
0.321105 -0.71113682 0.095340252
-0.32118887 -0.68471408 0.090927243
0.321105 -0.68542749 0.095340252
-0.32118887 -0.6590386 0.090927124
0.321105 -0.65971798 0.095340371
-0.32118887 -0.63336319 0.090927124
0.321105 -0.63400871 0.095340371
-0.32118887 -0.60768771 0.090927362
0.321105 -0.60829931 0.095340371
-0.32118887 -0.58201224 0.090927243
0.321105 -0.58258981 0.095340252
-0.32118887 -0.55633688 0.090927243
0.321105 -0.55688035 0.095340371
-0.32118887 -0.5306614 0.090927124
0.321105 -0.53117096 0.095340371
-0.32118887 -0.50498593 0.090927362
0.321105 -0.50546157 0.095340252
-0.32118887 -0.47931045 0.090927243
0.321105 -0.47975218 0.095340252
-0.32118887 -0.4536351 0.090927243
0.321105 -0.45404273 0.095340371
-0.32118887 -0.42795962 0.090927362
0.321105 -0.42833328 0.095340252
-0.32118887 -0.40228415 0.090927243
0.321105 -0.40262383 0.095340252
-0.32118887 -0.37660867 0.090927362
0.321105 -0.37691447 0.095340252
-0.32118887 -0.35093319 0.090927243
0.321105 -0.35120505 0.095340371
-0.32118887 -0.32525784 0.090927243
0.321105 -0.32549566 0.095340371
-0.32118887 -0.29958224 0.090927124
0.321105 -0.29978615 0.095340252
-0.32118887 -0.27390689 0.090927362
0.321105 -0.27407673 0.095340252
-0.32118887 -0.2482315 0.090927362
0.321105 -0.24836732 0.095340252
-0.32118887 -0.22255602 0.090927243
0.321105 -0.22265798 0.095340252
-0.32118887 -0.19688055 0.090927362
0.321105 -0.19694851 0.095340371
-0.32118887 -0.17120507 0.090927124
0.321105 -0.17123915 0.095340371
-0.32118887 -0.1455297 0.090927362
0.321105 -0.14552958 0.095340252
-0.32118887 -0.11985417 0.090927124
0.321105 -0.11982013 0.095340371
-0.32118887 -0.094178736 0.090927362
0.321105 -0.094110876 0.095340252
-0.32118887 -0.068503417 0.090927362
0.321105 -0.068401419 0.095340371
-0.32118887 -0.04282783 0.090927362
0.321105 -0.042692013 0.095340371
-0.32118887 -0.017152399 0.090927362
0.321105 -0.016982555 0.09534049
-0.32118887 0.0085230172 0.090927124
0.32110673 0.0087277442 0.095359206
-0.32118887 0.034198508 0.090927362
0.32110673 0.034437269 0.095359325
-0.26992378 0.085619628 0.091940403
0.26948658 0.085675418 0.092747569
-0.26923582 0.11067738 0.083815932
0.2688019 0.11068033 0.083853126
-0.32118887 0.1369002 0.090927124
0.32110673 0.13727553 0.095358968
-0.32118887 0.16257574 0.090927362
0.32110673 0.16298519 0.095359206
-0.32118887 0.18825127 0.090927362
0.32110673 0.18869467 0.095359206
-0.32118887 0.21392654 0.090927362
0.321105 0.21440212 0.095340371
-0.26883 0.26381147 0.079023719
-0.29598019 0.29161423 0.095979929
-0.320061 0.46859878 0.079656839
0.31998006 0.46924669 0.083162546
-0.32115138 0.49628437 0.09055233
0.32111716 0.49723119 0.095471859
-0.29514661 0.54688215 0.086956263
0.29489967 0.54740745 0.089483857
-0.19208661 0.64759964 0.079154015
0.19184938 0.64832467 0.082192183
-0.14104696 0.67387772 0.081968188
0.14054973 0.67340022 0.080029368
-0.038742214 0.70148385 0.089839935
-0.013031494 0.7000438 0.084170938
0.012591945 0.69960272 0.082434654
0.038273461 0.70196015 0.091715217
-0.32188475 -0.7372961 0.097880721
0.32161653 -0.73782676 0.10087788
-0.29686719 0.060776398 0.105582
0.2966623 0.061066911 0.11029971
-0.2967222 0.24111305 0.10401237
0.29649052 0.24160476 0.10827076
0.2956697 0.2919541 0.098577619
0.32285011 0.52669621 0.11423171
-0.271525 0.60350597 0.11084998
-0.24595799 0.6301201 0.11425078
-0.06480781 0.70586771 0.10709643
0.064169928 0.70550698 0.10567677
-0.039104864 0.78501278 0.11339498
-0.013236284 0.78428668 0.11077416
0.012591945 0.78410786 0.110129
0.038447525 0.78527111 0.11432672
-0.039104864 0.83670974 0.11339509
-0.013236284 0.83594298 0.11077416
0.012591945 0.83575439 0.11012888
0.038447525 0.83698231 0.11432672
-0.013236284 0.86177135 0.11077416
0.012591945 0.86157763 0.11012888
-0.039104864 0.86255825 0.11339521
0.038447525 0.86283791 0.11432672
-0.039104864 0.88840652 0.11339498
-0.013236284 0.88759959 0.11077404
0.012591945 0.88740087 0.110129
0.038447671 0.88869929 0.11434579
-0.039104864 0.91425502 0.11339498
-0.013236284 0.91342783 0.11077404
0.012591945 0.9132241 0.110129
0.038447671 0.91455507 0.11434579
-0.039104864 0.94010341 0.11339498
-0.013236284 0.93925619 0.11077416
0.012591945 0.93904734 0.11012888
0.038447671 0.94041061 0.11434579
-0.039104864 0.9659518 0.11339498
-0.013236284 0.9650842 0.11077416
0.012591945 0.96487081 0.11012888
0.038447671 0.96626639 0.11434591
-0.29831755 0.11356167 0.1212827
0.2975519 0.11352496 0.12080538
-0.29792288 0.26849025 0.11701047
0.29731286 0.26860982 0.11798203
-0.35076669 0.3216458 0.12713647
0.34962669 0.32113391 0.12344205
-0.35076669 0.34760004 0.12713647
0.34962669 0.34705949 0.12344193
-0.35076669 0.37355405 0.12713647
0.34962669 0.3729853 0.12344193
-0.35076669 0.39950824 0.12713659
0.34962669 0.398911 0.12344205
-0.35098159 0.42580026 0.12913072
0.34985262 0.42521924 0.12569988
-0.3241789 0.52801198 0.12080538
-0.29899469 0.58150595 0.12861276
0.29783836 0.5805521 0.12418795
0.27117702 0.60436696 0.11470711
0.24541475 0.63054639 0.1160965
-0.16893157 0.6842922 0.12424541
0.1681588 0.68416029 0.12370968
-0.06516102 0.78750587 0.12239075
0.064423434 0.78743696 0.12214231
-0.06516102 0.83934134 0.12239063
0.064423434 0.83926874 0.12214231
-0.06516102 0.86525881 0.12239075
0.064423434 0.86518419 0.12214231
-0.06516102 0.89117658 0.12239063
0.064423434 0.89110017 0.12214231
-0.06516102 0.91709423 0.12239063
0.064423434 0.91701579 0.1221422
-0.06516058 0.94300568 0.12237155
0.064423434 0.94293165 0.12214231
-0.06516058 0.96892321 0.12237155
0.064423434 0.96884716 0.12214231
-0.30026132 0.089110374 0.14232469
0.29895884 0.088770568 0.1374203
-0.32634017 0.29768926 0.14240193
0.32530776 0.29748422 0.14083648
-0.35166109 0.45288616 0.13543558
0.35060737 0.45249754 0.13324153
-0.22174698 0.66163778 0.13797951
0.22114889 0.66262847 0.14213133
-0.065759152 0.74244952 0.14829087
-0.039489016 0.73984671 0.13834608
-0.013422571 0.73896396 0.13497341
0.012591945 0.73884803 0.13453066
0.03863569 0.73995775 0.13877058
0.064832889 0.74256647 0.14873719
-0.065759152 0.76856649 0.14829087
-0.039489016 0.7658872 0.1383462
-0.013422571 0.76497841 0.13497341
0.012591945 0.7648592 0.13453066
0.03863569 0.7660014 0.13877058
0.064832889 0.76868683 0.14873719
-0.09143234 0.79068881 0.13387644
0.090611488 0.79070497 0.13393426
-0.065759152 0.82080066 0.14829087
-0.039489016 0.81796813 0.13834608
-0.013422571 0.8170076 0.13497341
0.012591945 0.81688136 0.13453078
0.038635395 0.81807792 0.13873184
0.064832583 0.82092226 0.14871776
-0.09143234 0.8427012 0.13387644
0.090611488 0.84271806 0.13393414
-0.09143234 0.86870718 0.13387644
0.090611488 0.86872458 0.13393414
-0.09143234 0.89471328 0.13387644
0.090611488 0.89473104 0.13393402
-0.09143234 0.92071927 0.13387644
0.090611488 0.92073762 0.13393414
-0.09143234 0.94672525 0.13387632
0.090611488 0.94674408 0.13393426
-0.091431752 0.97272503 0.13385713
0.090611488 0.97275066 0.13393402
-0.35481802 -0.72288811 0.16472816
-0.35471877 -0.69649577 0.16380763
-0.35471877 -0.67025936 0.16380763
-0.35471877 -0.64402276 0.16380763
-0.35471877 -0.61778641 0.16380763
-0.35471877 -0.59154987 0.16380763
-0.35471877 -0.56531346 0.16380763
-0.35471877 -0.53907692 0.16380763
-0.35471877 -0.51284039 0.16380763
-0.35471877 -0.48660392 0.16380763
-0.35471877 -0.46036744 0.16380763
-0.35471877 -0.43413103 0.16380763
-0.35471877 -0.40789449 0.16380775
-0.35471877 -0.38165808 0.16380763
-0.35471877 -0.35542148 0.16380751
-0.35471877 -0.32918501 0.16380763
-0.35471877 -0.3029485 0.16380763
-0.35471877 -0.27671209 0.16380763
-0.35471877 -0.25047559 0.16380763
-0.35471877 -0.22423913 0.16380763
-0.35471877 -0.19800261 0.16380763
-0.35471877 -0.17176621 0.16380763
-0.35471877 -0.14552958 0.16380763
-0.35471877 -0.11929313 0.16380763
-0.35471877 -0.093056723 0.16380763
-0.35471877 -0.066820316 0.16380763
-0.35471877 -0.0405837 0.16380775
-0.35471877 -0.01434724 0.16380775
-0.35471877 0.01188916 0.16380763
-0.35471877 0.038125575 0.16380763
-0.35471877 0.14307182 0.16380763
-0.35471877 0.16930823 0.16380763
-0.35471877 0.19554465 0.16380763
-0.3533102 0.48173112 0.15073776
0.35251391 0.48201859 0.15229297
-0.092364237 0.72035873 0.16414058
0.091302752 0.72028917 0.1638664
-0.092364237 0.74659783 0.1641407
0.091302752 0.746526 0.1638664
-0.092364237 0.77283704 0.16414058
0.091302752 0.77276289 0.1638664
-0.11817947 0.79602456 0.15312946
0.11723424 0.79625112 0.153947
-0.092364237 0.82531506 0.16414058
0.091302752 0.82523704 0.1638664
-0.11817947 0.84833312 0.15312946
0.11723424 0.84857219 0.15394711
-0.11817947 0.8744874 0.15312934
0.11723424 0.87473285 0.153947
-0.11817947 0.9006418 0.15312946
0.11723424 0.90089345 0.153947
-0.11817947 0.92679596 0.15312934
0.11723424 0.92705393 0.153947
-0.11817947 0.95295024 0.15312946
0.11723424 0.95321453 0.153947
-0.32997823 -0.77796686 0.17875576
0.35426301 -0.72374213 0.16977108
0.35412148 -0.69723117 0.1683569
0.35412148 -0.67095971 0.1683569
0.35412148 -0.64468819 0.16835678
0.35412148 -0.61841667 0.1683569
0.35412148 -0.5921452 0.16835701
0.35412148 -0.56587374 0.1683569
0.35412148 -0.53960228 0.16835701
0.35412148 -0.51333064 0.1683569
0.35412148 -0.48705918 0.1683569
0.35412148 -0.46078765 0.16835678
0.35412148 -0.43451613 0.16835701
0.35412148 -0.40824467 0.16835701
0.35412148 -0.38197321 0.1683569
0.35411954 -0.35570043 0.16833711
0.35411954 -0.32942909 0.16833711
0.35411954 -0.30315775 0.16833711
0.35411954 -0.27688637 0.16833711
0.35411954 -0.25061509 0.16833711
0.35411954 -0.2243437 0.16833723
0.35411954 -0.19807237 0.16833711
0.35411954 -0.17180097 0.16833723
0.35411954 -0.14552958 0.16833735
0.35411954 -0.11925825 0.16833723
0.35411954 -0.092986919 0.16833723
0.35411954 -0.066715583 0.16833735
0.35411954 -0.040444247 0.16833723
0.35412148 -0.014172062 0.1683569
0.35412148 0.012099221 0.16835701
0.35412148 0.038370863 0.16835678
-0.33048904 0.11837895 0.18385994
0.35412148 0.14345689 0.16835701
0.35411954 0.16972651 0.16833735
0.35411954 0.19599794 0.16833711
-0.35622764 0.51307684 0.17780769
-0.32937434 0.56470811 0.17272151
0.32887632 0.56611019 0.17946708
-0.14571379 0.77792066 0.18300843
-0.11931425 0.77781379 0.18261218
0.11811019 0.77775502 0.1823945
0.14453016 0.77803791 0.18344426
-0.11873157 0.82626438 0.16747367
0.11765136 0.82626987 0.1674931
-0.14571379 0.83068901 0.18300819
0.14453016 0.83081311 0.18344402
-0.14571379 0.85707343 0.18300819
0.14453016 0.85720086 0.18344402
-0.14571379 0.88345754 0.18300831
0.14453016 0.88358843 0.18344402
-0.14571379 0.9098419 0.18300831
0.14453016 0.90997612 0.18344414
-0.14571379 0.93622613 0.18300831
0.14453016 0.93636382 0.18344414
-0.14571288 0.96260417 0.18298852
0.14453016 0.96275139 0.18344426
-0.33104515 0.065939233 0.18941689
0.33066636 0.06652002 0.19884503
0.32977706 0.11879133 0.18921828
-0.3306815 0.2505551 0.18578303
0.33024043 0.25153095 0.19423425
-0.33065566 0.27692902 0.18552518
0.32998285 0.27765822 0.19144571
-0.35786691 0.30431324 0.19301856
0.35669318 0.30444884 0.19405472
0.35604215 0.51495159 0.18754935
-0.11956087 0.72667897 0.18901944
0.1182885 0.72646683 0.18818498
-0.11956087 0.75310963 0.18901944
0.1182885 0.75289106 0.18818486
-0.14819433 0.7387948 0.23671341
-0.14819433 0.76559258 0.23671353
-0.17505592 0.79270947 0.23789847
-0.14819433 0.81918788 0.23671329
-0.17505592 0.84632331 0.23789859
-0.17505592 0.87313008 0.23789847
-0.17505592 0.89993703 0.23789871
-0.17505698 0.92675006 0.23791897
-0.17505698 0.95355713 0.23791909
0.1466395 0.73918414 0.2382462
0.1466395 0.7659936 0.2382462
0.17360404 0.79370755 0.24160278
0.1466395 0.81961274 0.2382462
0.17360404 0.84737825 0.24160266
0.17360404 0.8742137 0.24160278
0.17360404 0.90104926 0.24160278
0.17360404 0.92788434 0.24160278
0.17360404 0.95471978 0.24160278
-0.17643863 0.82662773 0.26355851
0.17461528 0.82661045 0.2634964
-0.17758468 0.77818531 0.28482676
0.17559367 0.77814698 0.28467965
