ply
format ascii 1.0
comment PCL generated
element vertex 842
property float x
property float y
property float z
element camera 1
property float view_px
property float view_py
property float view_pz
property float x_axisx
property float x_axisy
property float x_axisz
property float y_axisx
property float y_axisy
property float y_axisz
property float z_axisx
property float z_axisy
property float z_axisz
property float focal
property float scalex
property float scaley
property float centerx
property float centery
property int viewportx
property int viewporty
property float k1
property float k2
end_header
-0.05846338 -0.58122176 -0.065224886
-0.034926105 -0.58063555 -0.068535328
-0.011439978 -0.58005381 -0.071821809
0.011995547 -0.58011061 -0.071500301
0.035455719 -0.58062065 -0.068620086
0.05897497 -0.58130008 -0.064782858
-0.05846338 -0.55773538 -0.065225005
-0.034926105 -0.55717468 -0.068535328
-0.011439978 -0.55661821 -0.071821809
0.011995547 -0.55667257 -0.071500182
0.035455719 -0.55716044 -0.068620086
0.05897497 -0.55781031 -0.064782858
-0.05846338 -0.53424913 -0.065225005
-0.034926105 -0.533714 -0.068535447
-0.011439978 -0.53318262 -0.071821809
0.011995547 -0.53323472 -0.071500182
0.035455719 -0.53370023 -0.068620205
0.05897497 -0.53432065 -0.064782858
-0.05846338 -0.51076281 -0.065224767
-0.034926105 -0.51025319 -0.068535328
-0.011439978 -0.50974721 -0.071821809
0.011995547 -0.50979668 -0.071500301
0.035455719 -0.51024008 -0.068620205
0.05897497 -0.51083094 -0.064782977
-0.05846338 -0.48727655 -0.065224767
-0.034926105 -0.48679233 -0.068535447
-0.011439978 -0.48631161 -0.071821809
0.011995547 -0.4863587 -0.071500301
0.035455719 -0.48677999 -0.068620205
0.05897497 -0.4873412 -0.064782977
-0.05846338 -0.46379027 -0.065224886
-0.034926105 -0.46333149 -0.068535447
-0.011439978 -0.46287617 -0.07182169
0.011995547 -0.46292067 -0.071500182
0.035455719 -0.46331987 -0.068620205
0.05897497 -0.46385139 -0.064782977
-0.05846338 -0.44030389 -0.065224886
-0.034926105 -0.43987066 -0.068535447
-0.011439978 -0.43944067 -0.071821809
0.011995547 -0.43948263 -0.071500301
0.035455719 -0.43985951 -0.068620205
0.05897497 -0.44036174 -0.064782977
-0.05846338 -0.41681764 -0.065225005
0.05897497 -0.41687199 -0.064782977
-0.034926105 -0.41640985 -0.068535447
-0.011439978 -0.41600507 -0.071821928
0.011995547 -0.41604471 -0.071500301
0.035455719 -0.41639939 -0.068620205
-0.05846338 -0.39333129 -0.065224886
-0.034926105 -0.39294907 -0.068535447
-0.011439978 -0.39256957 -0.07182169
0.011995547 -0.39260671 -0.071500182
0.035455719 -0.39293927 -0.068620205
0.05897497 -0.39338231 -0.064782977
-0.05846338 -0.36984503 -0.065224767
-0.034926105 -0.36948827 -0.068535447
-0.011439978 -0.36913404 -0.071821809
0.011995547 -0.36916867 -0.071500301
0.035455719 -0.36947912 -0.068620205
0.05897497 -0.36989257 -0.064782977
-0.05846338 -0.34635875 -0.065224886
-0.034926105 -0.34602737 -0.068535447
-0.011439978 -0.34569845 -0.071821809
0.011995547 -0.34573069 -0.071500301
0.035455719 -0.34601888 -0.068620205
0.05897497 -0.34640288 -0.064782977
-0.05846338 -0.32287243 -0.065224886
-0.034926105 -0.32256654 -0.068535328
-0.011439978 -0.322263 -0.07182169
0.011995547 -0.32229277 -0.071500301
0.035455719 -0.32255876 -0.068620205
0.05897497 -0.32291317 -0.064782977
-0.05846338 -0.29938608 -0.065224886
-0.034926105 -0.29910573 -0.068535328
-0.011439978 -0.2988275 -0.071821809
0.011995547 -0.29885462 -0.071500301
0.035455719 -0.29909858 -0.068620205
0.05897497 -0.29942343 -0.064782977
-0.05846338 -0.27589977 -0.065224886
-0.034926105 -0.27564487 -0.068535328
-0.011439978 -0.27539188 -0.071821928
0.011995547 -0.27541664 -0.071500301
0.035455719 -0.27563837 -0.068620205
0.05897497 -0.27593377 -0.064782977
-0.05846338 -0.25241345 -0.065225005
-0.034926105 -0.25218412 -0.068535566
-0.011439978 -0.25195646 -0.071821809
0.011995547 -0.25197875 -0.071500182
0.035455719 -0.25217825 -0.068620086
0.05897497 -0.252444 -0.064782977
-0.05846338 -0.22892711 -0.065224886
-0.034926105 -0.22872329 -0.068535447
-0.011439978 -0.2285209 -0.071821809
0.011995547 -0.22854063 -0.071500301
0.035455719 -0.22871798 -0.068620205
0.05897497 -0.22895434 -0.064782977
-0.05846338 -0.20544091 -0.065224886
-0.034926105 -0.20526242 -0.068535447
-0.011439978 -0.20508537 -0.07182169
0.011995547 -0.20510268 -0.071500182
0.035455719 -0.20525786 -0.068620205
0.05897497 -0.20546463 -0.064782977
-0.05846338 -0.18195453 -0.065224767
-0.034926105 -0.18180159 -0.068535447
-0.011439978 -0.18164986 -0.071821809
0.011995547 -0.18166471 -0.071500182
0.035455719 -0.18179774 -0.068620205
0.05897497 -0.18197489 -0.064782977
-0.05846338 -0.15846819 -0.065224886
-0.034926105 -0.15834078 -0.068535447
-0.011439848 -0.15821372 -0.071838617
0.011995547 -0.15822607 -0.07151711
0.035455719 -0.15833756 -0.068620205
0.05897497 -0.15848526 -0.064782977
-0.05846338 -0.13498193 -0.065224886
-0.034926105 -0.13487993 -0.068535447
-0.011439848 -0.1347782 -0.071838737
0.011995547 -0.13478819 -0.07151711
0.035455719 -0.13487735 -0.068620205
0.05897497 -0.13499546 -0.064782858
-0.05846338 -0.11149555 -0.065224886
-0.034926105 -0.11141913 -0.068535328
-0.011439848 -0.1113429 -0.071838737
0.011995547 -0.1113503 -0.07151711
0.035455719 -0.11141723 -0.068620205
0.05897497 -0.11150581 -0.064782977
-0.05846338 -0.088009208 -0.065224886
-0.034926105 -0.087958328 -0.068535447
-0.011439848 -0.087907493 -0.071838617
0.011995547 -0.087912455 -0.07151711
0.035455719 -0.087956965 -0.068620205
0.05897497 -0.088016167 -0.064782977
-0.05846338 -0.064523064 -0.065224767
-0.034926105 -0.064497478 -0.068535447
-0.011439848 -0.064472087 -0.071838737
0.011995547 -0.064474568 -0.07151711
0.035455719 -0.064496845 -0.068620086
0.05897497 -0.064526372 -0.064782977
-0.05846338 -0.041036725 -0.065224886
-0.011439848 -0.041036677 -0.071838737
0.011995547 -0.041036725 -0.07151711
0.035455719 -0.041036725 -0.068620086
0.05897497 -0.041036725 -0.064782977
-0.034926105 -0.041036628 -0.068535566
-0.05846338 -0.017550338 -0.065224767
-0.034926105 -0.017575828 -0.068535447
-0.011439848 -0.017601317 -0.071838737
0.011995547 -0.017598787 -0.07151711
0.035455719 -0.01757646 -0.068620205
0.05897497 -0.017546933 -0.064782858
-0.05846338 0.0059360005 -0.065224886
-0.034926105 0.005884923 -0.068535566
-0.011439848 0.005834043 -0.071838498
0.011995547 0.0058390051 -0.07151711
0.035455719 0.005883757 -0.068620205
0.05897497 0.0059428141 -0.064782858
-0.034971051 0.02941329 -0.065615654
-0.011462276 0.029336728 -0.068925261
0.011995547 0.029344171 -0.068603277
0.035478193 0.029411152 -0.06570065
-0.011495079 0.052925758 -0.064663887
0.011995547 0.052935824 -0.064340949
-0.058712706 -0.60670274 -0.054428697
-0.035076711 -0.60590374 -0.058753014
-0.011512891 -0.60523915 -0.062350035
0.011995547 -0.60529578 -0.062043548
0.035530627 -0.60587853 -0.058889508
0.059142813 -0.60680389 -0.05388093
-0.082255781 -0.58298182 -0.055284262
0.082686014 -0.58299696 -0.055198789
-0.082255781 -0.55941898 -0.055284381
0.082686014 -0.55943334 -0.055198908
-0.082255781 -0.53585619 -0.055284262
0.082686014 -0.53586996 -0.055198908
-0.082255781 -0.51229328 -0.055284262
0.082686014 -0.51230639 -0.055198908
-0.082255781 -0.48873046 -0.055284381
0.082686014 -0.48874301 -0.055198908
-0.082255781 -0.46516764 -0.055284262
0.082686014 -0.46517947 -0.055198789
-0.082255781 -0.44160479 -0.055284381
0.082686014 -0.44161594 -0.055198908
-0.082255781 -0.41804206 -0.055284381
0.082686014 -0.41805249 -0.055198789
-0.082255781 -0.39447916 -0.055284262
0.082686014 -0.39448908 -0.055198789
-0.082255252 -0.37091449 -0.055301309
0.082686014 -0.37092546 -0.055198789
-0.082255252 -0.34735176 -0.055301547
0.082686014 -0.3473621 -0.055198908
-0.082255252 -0.32378903 -0.055301547
0.082686014 -0.32379848 -0.055198908
-0.082255252 -0.30022636 -0.055301547
0.082686014 -0.30023503 -0.055198789
-0.082255252 -0.27666369 -0.055301428
0.082686014 -0.27667162 -0.055198789
-0.082255252 -0.25310093 -0.055301547
0.082686014 -0.25310805 -0.055198789
-0.082255252 -0.22953829 -0.055301547
0.082686014 -0.22954464 -0.055198908
-0.082255252 -0.2059755 -0.055301547
0.082686014 -0.20598111 -0.055198789
-0.082255252 -0.18241295 -0.055301547
0.082686014 -0.18241763 -0.055198908
-0.082255252 -0.1588501 -0.055301547
0.082686014 -0.15885413 -0.055198789
-0.082255252 -0.13528748 -0.055301547
0.082686014 -0.13529064 -0.055198908
-0.082255252 -0.11172476 -0.055301428
0.082686014 -0.1117271 -0.055198789
-0.082255252 -0.08816205 -0.055301309
0.082686014 -0.088163756 -0.055198789
-0.082255252 -0.064599343 -0.055301547
0.082686014 -0.064600118 -0.055198789
0.082686014 -0.041036725 -0.055198789
-0.082255252 -0.041036628 -0.055301547
-0.082255252 -0.017474012 -0.055301547
0.082686014 -0.017473089 -0.055198908
-0.082255252 0.0060886033 -0.055301547
0.082686014 0.0060903542 -0.055198789
-0.082354911 0.029726177 -0.052065015
-0.058533311 0.02949205 -0.062196612
0.059023436 0.029505186 -0.06163466
0.082759969 0.029727735 -0.051996469
-0.058640443 0.053144611 -0.057557702
-0.035037067 0.053028591 -0.061327934
0.035511069 0.05302538 -0.061430216
0.059094358 0.053160906 -0.057028174
-0.058747903 0.076869071 -0.052904844
-0.035103004 0.076709658 -0.057045221
-0.011528107 0.07658162 -0.060373425
0.011995547 0.076592766 -0.060083508
0.035543904 0.076705135 -0.057165027
0.059165232 0.076887503 -0.052425027
-0.058855683 0.10066577 -0.048237443
-0.035169125 0.10045736 -0.052750587
-0.011561097 0.10030312 -0.05608809
0.011995547 0.10031659 -0.055797458
0.035576962 0.10045186 -0.052870393
0.059236582 0.10068629 -0.047790527
-0.035235699 0.1242727 -0.048426509
-0.011594309 0.12409232 -0.051773429
0.011995547 0.12410716 -0.051499248
0.03561011 0.12426531 -0.048563957
-0.10671624 -0.61085325 -0.031963229
-0.082624353 -0.60875601 -0.043314695
0.082960069 -0.60875285 -0.043331981
0.10698637 -0.61098152 -0.031268477
-0.10624218 -0.58493024 -0.044279814
0.10657193 -0.58485085 -0.044727802
-0.10620968 -0.56113964 -0.045123816
0.10654648 -0.56106669 -0.045554399
-0.10620968 -0.53749865 -0.045123816
0.10654648 -0.53742898 -0.045554399
-0.10620968 -0.51385754 -0.045123935
0.10654648 -0.51379126 -0.045554399
-0.10620968 -0.49021658 -0.045123816
0.10654648 -0.49015352 -0.045554399
-0.10620968 -0.4665755 -0.045123935
0.10654648 -0.46651599 -0.04555428
-0.10620968 -0.44293436 -0.045123935
0.10654648 -0.44287819 -0.045554161
-0.10620968 -0.41929346 -0.045123816
0.10654648 -0.41924044 -0.04555428
-0.10620968 -0.39565238 -0.045123696
0.10654648 -0.39560273 -0.04555428
-0.10620968 -0.37201142 -0.045123816
0.10654648 -0.37196499 -0.045554161
-0.10620968 -0.34837028 -0.045123696
0.10654648 -0.34832722 -0.04555428
-0.10620968 -0.3247292 -0.045123696
0.10654648 -0.32468951 -0.04555428
-0.10620968 -0.30108821 -0.045123816
0.10654648 -0.3010518 -0.045554161
-0.10620968 -0.27744707 -0.045123696
0.10654648 -0.27741396 -0.04555428
-0.10620968 -0.25380611 -0.045123816
0.10654648 -0.25377628 -0.04555428
-0.10620968 -0.23016503 -0.045123935
0.10654648 -0.23013854 -0.045554161
-0.10620902 -0.20652297 -0.045141101
0.10654648 -0.20650083 -0.045554399
-0.10620902 -0.18288219 -0.045141101
0.10654648 -0.18286312 -0.04555428
-0.10620902 -0.1592412 -0.045141101
0.10654648 -0.15922534 -0.045554161
-0.10620902 -0.13560036 -0.045140982
0.10654648 -0.13558762 -0.045554399
-0.10620902 -0.11195943 -0.045141101
0.10654648 -0.1119499 -0.04555428
-0.10620902 -0.088318542 -0.045140982
0.10654648 -0.088312075 -0.045554161
-0.10620902 -0.064677611 -0.045141101
0.10654648 -0.064674452 -0.045554399
0.10654648 -0.041036677 -0.04555428
-0.10620902 -0.041036628 -0.045141101
-0.10620902 -0.017395791 -0.045141101
0.10654648 -0.017398905 -0.045554161
-0.10620902 0.0062451437 -0.04514122
0.10654648 0.0062387697 -0.045554399
-0.10633509 0.029961817 -0.041865706
0.10664624 0.029951259 -0.04231441
-0.10651603 0.053772621 -0.037164927
-0.08249817 0.053456962 -0.047412276
0.082866624 0.053458177 -0.047377944
0.10680321 0.053770967 -0.037216544
-0.1067002 0.077659063 -0.032380104
-0.082642406 0.077260859 -0.042728424
0.082974002 0.077260859 -0.042728424
0.106973 0.07768514 -0.031702638
-0.082787074 0.10113723 -0.038030148
0.083081707 0.10113572 -0.038064599
-0.082932182 0.12508687 -0.033317327
-0.058963798 0.12453509 -0.043555975
0.059307881 0.12455646 -0.043159485
0.083189741 0.12508324 -0.033386827
-0.059072241 0.14847746 -0.038860083
-0.035302196 0.14815423 -0.044107676
-0.011627485 0.14794764 -0.047464132
0.011995547 0.1479634 -0.047206163
0.035643224 0.14814478 -0.044262528
0.059379667 0.1484997 -0.03849709
-0.03541255 0.1722998 -0.03693974
-0.011682409 0.17206484 -0.040329218
0.011995547 0.17208162 -0.040087223
0.035698395 0.17228886 -0.037095666
-0.011739858 0.1963174 -0.03286612
0.011995547 0.19633478 -0.032640457
-0.13076489 -0.58828503 -0.025331855
0.1309666 -0.58830345 -0.025227308
-0.13062966 -0.56399572 -0.028259397
0.13085458 -0.56401646 -0.028137565
-0.13062966 -0.54022491 -0.028259516
0.13085458 -0.54024452 -0.028137684
-0.13062966 -0.51645404 -0.028259397
0.13085458 -0.51647282 -0.028137684
-0.13062966 -0.49268317 -0.028259397
0.13085458 -0.49270102 -0.028137684
-0.13062966 -0.4689123 -0.028259516
0.13085458 -0.46892923 -0.028137684
-0.13062966 -0.44514143 -0.028259397
0.13085458 -0.44515744 -0.028137565
-0.13062966 -0.42137063 -0.028259516
0.13085458 -0.42138553 -0.028137684
-0.13062966 -0.3975997 -0.028259397
0.13085458 -0.39761373 -0.028137684
-0.13062966 -0.37382886 -0.028259397
0.13085458 -0.37384203 -0.028137565
-0.13062966 -0.35005802 -0.028259397
0.13085458 -0.35007024 -0.028137565
-0.13062966 -0.32628706 -0.028259397
0.13085458 -0.3262983 -0.028137684
-0.13062966 -0.30251616 -0.028259516
0.13085458 -0.30252656 -0.028137684
-0.13062966 -0.27874541 -0.028259397
0.13085458 -0.27875477 -0.028137684
-0.13062966 -0.25497445 -0.028259516
0.13085458 -0.25498292 -0.028137565
-0.13062966 -0.23120362 -0.028259516
0.13085458 -0.2312111 -0.028137684
-0.13062966 -0.20743275 -0.028259397
0.13085458 -0.20743927 -0.028137684
-0.13062966 -0.18366191 -0.028259397
0.13085458 -0.18366745 -0.028137565
-0.13062966 -0.15989101 -0.028259397
0.13085458 -0.15989578 -0.028137565
-0.13062885 -0.1361196 -0.028276801
0.13085458 -0.13612399 -0.028137684
-0.13062885 -0.11234888 -0.028276801
0.13085458 -0.11235204 -0.028137684
-0.13062885 -0.08857812 -0.02827692
0.13085458 -0.088580303 -0.028137684
-0.13062885 -0.0648074 -0.028276801
0.13085458 -0.064808466 -0.028137684
-0.13062885 -0.041036725 -0.028276801
0.13085458 -0.041036677 -0.028137565
-0.13062885 -0.017265957 -0.02827692
0.13085458 -0.017264888 -0.028137684
-0.13062885 0.0065047629 -0.02827692
0.13085458 0.0065069981 -0.028137684
-0.13081242 0.030367419 -0.024302483
0.13100557 0.030369319 -0.024215102
-0.13107249 0.054341964 -0.01867187
0.1312196 0.054342546 -0.018654227
-0.10691578 0.10165701 -0.026778936
0.10714339 0.10168507 -0.026168942
-0.10713215 0.12574211 -0.021157384
0.10731386 0.12577033 -0.020632625
-0.10734932 0.1499151 -0.015515447
-0.083077744 0.1491099 -0.028590083
0.083298102 0.14910346 -0.028694749
0.1074855 0.14994311 -0.015058875
-0.083323307 0.1734308 -0.020615101
-0.059253193 0.17270955 -0.031025052
0.059499521 0.17273125 -0.030712128
0.083481051 0.17341986 -0.020772576
-0.059440702 0.19708419 -0.02290535
-0.035527702 0.19657969 -0.029460192
0.035755835 0.19656622 -0.029634118
0.059623748 0.19710433 -0.022643209
-0.035643421 0.22097754 -0.021944165
-0.011797589 0.22068775 -0.025366545
0.011995547 0.22070551 -0.025157332
0.035813551 0.2209613 -0.022136569
-0.011855601 0.24517712 -0.017830729
0.011995547 0.24519491 -0.017637968
-0.13144809 -0.6148113 -0.01053977
0.13152854 -0.61479497 -0.010627747
-0.15573771 -0.59216022 -0.003444314
0.15581189 -0.59233254 -0.0024712086
-0.15544176 -0.56726819 -0.0089366436
0.15549046 -0.56718463 -0.0094300508
-0.15544176 -0.54334867 -0.0089365244
0.15549046 -0.54326886 -0.0094299316
-0.15544176 -0.51942903 -0.0089365244
0.15549046 -0.51935297 -0.0094300508
-0.15544176 -0.49550945 -0.0089364052
0.15549046 -0.49543718 -0.0094300508
-0.15544176 -0.47158977 -0.0089365244
0.15549046 -0.47152144 -0.0094300508
-0.15544176 -0.44767013 -0.0089366436
0.15549046 -0.44760555 -0.0094300508
-0.15544176 -0.42375058 -0.0089365244
0.15549046 -0.42368975 -0.0094299316
-0.15544176 -0.39983091 -0.0089366436
0.15549046 -0.39977401 -0.0094299316
-0.15544176 -0.37591136 -0.0089364052
0.15549046 -0.37585813 -0.0094300508
-0.15544176 -0.35199171 -0.0089365244
0.15549046 -0.3519423 -0.0094300508
-0.15544176 -0.32807201 -0.0089365244
0.15549046 -0.32802656 -0.0094299316
-0.15544176 -0.30415249 -0.0089364052
0.15549046 -0.30411074 -0.0094299316
-0.15544176 -0.28023285 -0.0089366436
0.15549046 -0.28019485 -0.0094300508
-0.15544176 -0.25631326 -0.0089364052
0.15549046 -0.25627908 -0.0094300508
-0.15544176 -0.23239356 -0.0089364052
0.15549046 -0.23236331 -0.0094299316
-0.15544176 -0.20847398 -0.008936286
0.15549046 -0.20844734 -0.0094299316
-0.15544176 -0.1845544 -0.0089364052
0.15549046 -0.18453154 -0.0094298124
-0.15544176 -0.16063474 -0.0089366436
0.15549046 -0.16061582 -0.0094298124
-0.15544176 -0.13671511 -0.0089364052
0.15549046 -0.13669989 -0.0094299316
-0.15544176 -0.11279549 -0.0089365244
0.15549046 -0.11278411 -0.0094299316
-0.15544176 -0.088875972 -0.0089364052
0.15549046 -0.088868283 -0.0094298124
-0.15544176 -0.064956352 -0.0089364052
0.15549046 -0.064952455 -0.0094300508
0.15549046 -0.041036725 -0.0094300508
-0.15544176 -0.04103658 -0.0089365244
-0.15544176 -0.017117152 -0.0089364052
0.15549046 -0.017120946 -0.0094299316
-0.15544176 0.0068026148 -0.0089366436
0.15549046 0.0067948811 -0.0094300508
-0.15566339 0.030817144 -0.0048236847
0.15573914 0.030835047 -0.0040458441
-0.1313335 0.078404114 -0.013020873
0.13143371 0.078401491 -0.013091326
-0.13159546 0.10255442 -0.0073492527
0.1316493 0.1025478 -0.0074902773
-0.13185839 0.12679285 -0.0016566515
0.13186567 0.1267814 -0.0018690825
-0.10772207 0.17445505 -0.005830884
0.10777889 0.17447591 -0.0055303574
-0.083575562 0.19789112 -0.012422919
0.083668195 0.19787219 -0.012669086
-0.083828613 0.22247979 -0.0042049885
-0.059629619 0.22158891 -0.014725327
0.059748631 0.2216053 -0.01453197
0.083856724 0.22245431 -0.0045055151
-0.059819125 0.24622205 -0.006519556
-0.035759699 0.24549472 -0.014391661
0.035871413 0.24547374 -0.014619946
0.059874166 0.24623489 -0.006378293
-0.035876554 0.27013195 -0.0068019629
-0.011913897 0.26978603 -0.010257959
0.011995547 0.2698037 -0.010081887
0.035929695 0.27010715 -0.0070489645
-0.035993971 0.29488999 0.00082492828
-0.011972477 0.29451576 -0.0026481152
0.011995547 0.29453284 -0.0024887323
0.03598826 0.29486129 0.00055885315
-0.15607394 0.055003099 0.0027952194
0.15608712 0.055024311 0.0034880638
-0.15649036 0.079310469 0.010522842
0.15643595 0.07933037 0.011040688
-0.13212803 0.15112811 0.004181385
0.1320869 0.15110952 0.0038790703
-0.13258436 0.17583311 0.014061093
0.13246228 0.17580348 0.013631701
-0.10809992 0.19915423 0.0039857626
0.10807629 0.1991652 0.0041279793
-0.10847946 0.22400838 0.013846278
0.10837554 0.22400838 0.013846278
-0.084083557 0.24720067 0.0040745735
0.084062263 0.24723032 0.0043945312
-0.084378392 0.27217862 0.013649702
-0.060010046 0.27098748 0.0017476082
0.060000367 0.27099457 0.0018186569
0.084286742 0.27222517 0.014114738
-0.06020198 0.29588518 0.01005888
0.060127232 0.29588518 0.01005888
-0.036111973 0.31976977 0.0084892511
-0.012031346 0.31936672 0.0049990416
0.011995547 0.31938308 0.0051413774
0.036046974 0.31973478 0.0081863403
-0.036230557 0.34477207 0.016191363
-0.012090505 0.34434003 0.012684107
0.011995547 0.34435558 0.012809157
0.036110394 0.34480089 0.016424298
-0.18138666 -0.57283771 0.023949623
0.1811914 -0.57279497 0.023697734
-0.18138666 -0.54866493 0.023949623
0.1811914 -0.54862416 0.023697495
-0.18138666 -0.5244922 0.023949742
0.1811914 -0.5244534 0.023697495
-0.18138666 -0.50031948 0.023949504
0.1811914 -0.50028259 0.023697615
-0.18138666 -0.47614658 0.023949504
0.1811914 -0.47611159 0.023697495
-0.18138666 -0.45197386 0.023949623
0.1811914 -0.45194092 0.023697495
-0.18138666 -0.42780101 0.023949623
0.1811914 -0.42777011 0.023697734
-0.18138666 -0.40362835 0.023949623
0.1811914 -0.40359917 0.023697495
-0.18138666 -0.37945554 0.023949623
0.1811914 -0.37942836 0.023697615
-0.18138666 -0.35528266 0.023949504
0.18119043 -0.35525578 0.023679614
-0.18138666 -0.33110994 0.023949742
0.18119043 -0.33108509 0.023679495
-0.18138666 -0.30693719 0.023949504
0.18119043 -0.3069143 0.023679495
-0.18138666 -0.28276443 0.023949742
0.18119043 -0.28274363 0.023679614
-0.18138666 -0.25859162 0.023949623
0.18119043 -0.25857294 0.023679614
-0.18138666 -0.23441896 0.023949623
0.18119043 -0.23440221 0.023679614
-0.18138666 -0.21024612 0.023949623
0.18119043 -0.21023154 0.023679495
-0.18138666 -0.18607327 0.023949623
0.18119043 -0.18606082 0.023679495
-0.18138666 -0.16190054 0.023949742
0.18119043 -0.16189018 0.023679495
-0.18138666 -0.13772777 0.023949623
0.18119043 -0.13771939 0.023679614
-0.18138666 -0.11355504 0.023949742
0.18119043 -0.11354876 0.023679495
-0.18138666 -0.089382216 0.023949623
0.18119043 -0.089378037 0.023679495
-0.18138666 -0.065209404 0.023949504
0.18119043 -0.065207355 0.023679376
-0.18138666 -0.04103658 0.023949742
0.18119043 -0.041036628 0.023679495
-0.18138666 -0.016863856 0.023949623
0.18119043 -0.016865997 0.023679495
-0.18138666 0.00730877 0.023949623
0.18119043 0.0073048286 0.023679614
-0.18174209 0.031614974 0.029721379
0.18149553 0.031606123 0.029341936
-0.15690883 0.10373854 0.018288732
0.15678647 0.10375429 0.01862967
-0.1573294 0.1282883 0.026093483
0.15713954 0.12829792 0.026273727
-0.13314261 0.20086014 0.026147485
0.13296762 0.2009075 0.026760578
-0.10886209 0.24902165 0.023787618
0.10867666 0.24900672 0.023625612
-0.10924716 0.27419442 0.033792257
0.10898023 0.27416357 0.03348434
-0.084684461 0.29734331 0.02358973
0.084512621 0.29737639 0.023895621
-0.084992491 0.32266849 0.033592939
-0.060394526 0.3209137 0.018396616
0.060254768 0.32090753 0.018342614
0.084739916 0.32268515 0.033738017
-0.060588524 0.3460784 0.026796818
0.060382709 0.3460606 0.026652455
-0.036357488 0.36996406 0.024435759
-0.012149955 0.36943689 0.020406961
0.011995547 0.36945096 0.020514727
0.03617442 0.37000415 0.024742007
-0.036487315 0.395309 0.032868505
-0.012209701 0.39465773 0.028168082
0.011995547 0.39466783 0.028240204
0.03623879 0.39534172 0.033103943
-0.18216027 -0.5992347 0.036511898
0.18184574 -0.59911585 0.03584075
-0.18222624 0.056074217 0.037583113
0.18190929 0.056056805 0.037020206
-0.18273081 0.080667332 0.045776367
0.18246973 0.080730624 0.047420144
-0.15778233 0.1529952 0.03449893
0.15751861 0.15299404 0.03448081
-0.15851602 0.1781925 0.048114538
0.15813313 0.17816967 0.04778564
-0.13376816 0.2261968 0.039691091
0.1334772 0.22622296 0.040000319
-0.10967542 0.299642 0.044918537
0.10935143 0.29970881 0.045539021
-0.085301913 0.34815326 0.043641925
0.084968649 0.34815326 0.043641925
-0.060783148 0.37137598 0.03522408
0.060511604 0.37134981 0.035024643
-0.06097924 0.39681193 0.043714881
0.06064849 0.39683992 0.043915391
-0.036617566 0.42078793 0.041328549
-0.012269742 0.42000377 0.035967588
0.011995547 0.42001185 0.036022067
0.036303505 0.42081445 0.041510463
-0.0367488 0.44640687 0.049852252
-0.01233008 0.44547591 0.043806076
0.011995547 0.44548151 0.043842435
0.036368567 0.44642356 0.049962282
-0.012380009 0.47085002 0.050291419
0.011995547 0.47085282 0.050309896
-0.1835867 0.10565004 0.059674025
0.18318065 0.10569339 0.060613632
-0.1593993 0.20381308 0.064506173
0.15896431 0.20391122 0.065781116
-0.13439997 0.25175428 0.053370118
0.13399112 0.25175264 0.05335176
-0.11020367 0.32556096 0.058643103
0.10976343 0.32559288 0.058919191
-0.085613899 0.37380338 0.053773642
0.085199237 0.37378418 0.053626776
-0.085927874 0.39961866 0.063970447
0.08545091 0.39969543 0.064524651
-0.06120687 0.4225786 0.053571939
0.060801961 0.42262423 0.053883791
-0.06144233 0.44854903 0.063767433
0.060956407 0.44857189 0.063915253
-0.036855824 0.4719027 0.056803942
0.036421657 0.47191158 0.056859016
-0.036951102 0.49737653 0.062992334
-0.012423913 0.49619135 0.055995345
0.011995547 0.49619135 0.055995345
0.036469012 0.49737957 0.063010573
-0.012467836 0.52162129 0.061701059
0.011995547 0.52162451 0.061719418
-0.20940687 -0.58224243 0.079482794
0.20876327 -0.58214772 0.078923464
-0.20940687 -0.55764228 0.079482675
0.20876327 -0.55755198 0.078923345
-0.20940687 -0.53304201 0.079482675
0.20876327 -0.532956 0.078923345
-0.20940687 -0.50844175 0.079482675
0.20876327 -0.50835997 0.078923345
-0.20940687 -0.48384157 0.079482794
0.20876327 -0.48376402 0.078923345
-0.20940687 -0.45924124 0.079482794
0.20876327 -0.45916805 0.078923464
-0.20940687 -0.43464097 0.079482555
0.20876327 -0.43457207 0.078923464
-0.20940687 -0.41004077 0.079482794
0.20876327 -0.40997612 0.078923345
-0.20940687 -0.3854405 0.079482675
0.20876327 -0.38538015 0.078923345
-0.20940687 -0.36084008 0.079482675
0.20876327 -0.36078414 0.078923345
-0.20940687 -0.33623993 0.079482675
0.20876327 -0.33618817 0.078923345
-0.20940687 -0.31163955 0.079482675
0.20876327 -0.31159222 0.078923345
-0.20940687 -0.28703937 0.079482794
0.20876327 -0.28699625 0.078923345
-0.20940687 -0.26243907 0.079482794
0.20876327 -0.26240036 0.078923345
-0.20940687 -0.2378388 0.079482675
0.20876327 -0.23780435 0.078923345
-0.20940815 -0.21323958 0.07950139
0.20876327 -0.21320838 0.078923345
-0.20940815 -0.18863919 0.07950139
0.20876327 -0.1886124 0.078923345
-0.20940815 -0.16403878 0.07950139
0.20876327 -0.16401641 0.078923345
-0.20940815 -0.13943833 0.07950139
0.20876327 -0.13942048 0.078923345
-0.20940815 -0.11483786 0.07950139
0.20876327 -0.11482459 0.078923345
-0.20940815 -0.090237498 0.07950139
0.20876327 -0.090228498 0.078923345
-0.20940815 -0.065637089 0.07950139
0.20876327 -0.065632612 0.078923345
-0.20940815 -0.041036677 0.07950139
0.20876327 -0.041036773 0.078923464
-0.20940815 -0.016436215 0.07950139
0.20876327 -0.01644074 0.078923583
-0.20940815 0.0081641972 0.07950139
0.20876327 0.0081551485 0.078923464
-0.18445127 0.13085425 0.073712945
0.18389754 0.13086528 0.07391727
-0.13503727 0.27753446 0.067168236
0.13450938 0.27749932 0.066816807
-0.11073654 0.35170597 0.072487354
0.1101795 0.35169899 0.072431684
-0.086353883 0.42612308 0.0778054
0.085764065 0.426164 0.078084826
-0.061629131 0.47433606 0.07185626
0.061079234 0.47434202 0.071893334
-0.061800092 0.50013143 0.079259038
0.061191492 0.50011867 0.079184413
-0.037047036 0.52295297 0.069223285
0.036516555 0.52294648 0.069186449
-0.037142772 0.54862314 0.075441837
-0.012512061 0.54714596 0.067445755
0.011995547 0.54714596 0.067445755
0.036564279 0.54861277 0.075385928
-0.037239175 0.57439744 0.081703067
-0.012556587 0.57276672 0.073230028
0.011995547 0.57275957 0.073192835
0.03661219 0.57437938 0.081609845
-0.012583925 0.59802961 0.076781273
0.011995547 0.59801853 0.076725602
-0.012596256 0.62294191 0.078382969
0.011995547 0.62293047 0.078327298
-0.012608741 0.64788342 0.08000493
0.011995547 0.64786732 0.079930186
-0.01261549 0.67268348 0.080881834
0.011995547 0.67267096 0.080825806
-0.01261549 0.69729447 0.080881715
0.011995547 0.69728154 0.080825686
-0.01261549 0.72190553 0.080881953
0.011995547 0.72189218 0.080825806
-0.01261549 0.74651659 0.080881953
0.011995547 0.74650735 0.080844522
-0.01261549 0.77112758 0.080881715
0.011995547 0.77111804 0.080844522
-0.01261549 0.79573876 0.080881834
0.011995547 0.79572403 0.080825686
-0.037200682 0.81989741 0.079203129
-0.012541442 0.81775796 0.071262598
0.011995547 0.81775314 0.071244001
0.0365928 0.81986731 0.079091191
-0.037200682 0.84449553 0.07920301
-0.012541442 0.84229481 0.07126236
0.011995547 0.84228987 0.071244121
0.0365928 0.84446448 0.079091191
-0.037200682 0.86909366 0.07920301
-0.012541442 0.86683202 0.071262479
0.011995547 0.86682677 0.071243882
0.036592945 0.86906701 0.079110026
-0.012602714 0.8936972 0.079221725
0.011995547 0.89368623 0.079184532
-0.012628571 0.94392824 0.082581043
0.011995547 0.94391084 0.082524776
-0.012619802 0.96819246 0.08144176
0.011995547 0.96818078 0.081404567
-0.21016386 0.033016443 0.09040916
0.20940009 0.032990031 0.089264274
-0.18546446 0.15642342 0.090165019
0.18473765 0.15638283 0.089508176
-0.16072835 0.2303867 0.089170456
0.16004115 0.23038018 0.089095592
-0.13600761 0.30430418 0.088176489
0.135351 0.30435863 0.08868289
-0.11129931 0.37816578 0.087108493
0.11066663 0.37831551 0.088251591
-0.086785346 0.45286775 0.091817737
0.086079918 0.45285913 0.091761351
-0.061972283 0.52605003 0.086715102
0.061308872 0.52606666 0.086808443
-0.06219615 0.55249703 0.096408844
0.061459579 0.55253172 0.096597433
-0.037293855 0.5997256 0.085254669
0.036642119 0.5997743 0.085497856
-0.037324701 0.62478673 0.087258339
0.036657691 0.62484121 0.087520599
-0.037356742 0.64989531 0.089339256
0.036673136 0.64993584 0.089526892
-0.03737177 0.67478943 0.090315223
0.036680505 0.67482716 0.090484262
-0.03737177 0.69947302 0.090315223
0.036680505 0.699512 0.090484262
-0.03737177 0.72415668 0.090315223
0.036680505 0.72419709 0.090484142
-0.03737177 0.74884039 0.090315342
0.036680505 0.74888188 0.090484262
-0.03737177 0.77352405 0.090315342
0.036680359 0.77356219 0.090465426
-0.037368011 0.79814386 0.090071201
0.036678482 0.79818296 0.090221405
-0.037358187 0.89668423 0.089433193
0.036674291 0.89675552 0.089677095
-0.012651601 0.92020202 0.085572839
0.011995547 0.92017984 0.085498095
-0.037455145 0.92325193 0.095730782
0.036722053 0.92329687 0.095881462
-0.037397213 0.94681853 0.091968179
0.036693376 0.94687635 0.092155933
-0.037405025 0.97167492 0.092475414
0.036697425 0.97174013 0.092682242
-0.012691 0.99579823 0.090690732
0.011995547 0.99577415 0.09061563
-0.137229 0.33202466 0.11462045
-0.11226443 0.4062992 0.11218297
0.11139473 0.40625972 0.11189747
-0.087173358 0.47960004 0.10441864
0.08638797 0.47971025 0.10510063
-0.062429711 0.57917386 0.1065222
0.061611503 0.57916278 0.10646534
-0.062529691 0.60484868 0.11085141
0.061676692 0.60481834 0.1106993
-0.062601328 0.63033521 0.11395371
0.061735891 0.63045806 0.11454427
-0.062536716 0.80366236 0.11115587
0.061682258 0.80363744 0.11106062
-0.062298127 0.82572275 0.10082448
0.061525825 0.82574338 0.10090017
-0.062298127 0.85048747 0.10082448
0.061525825 0.85050845 0.10090005
-0.062298127 0.87525195 0.10082448
0.061525825 0.87527353 0.10090017
0.13655655 0.33264634 0.12000394
-0.087720424 0.50740111 0.12218523
0.086775452 0.50734925 0.12187886
-0.062708393 0.65620011 0.11858952
0.061804347 0.6562866 0.11899066
-0.062731788 0.68132752 0.11960232
0.06181965 0.68141282 0.11998463
-0.062731788 0.70623654 0.11960232
0.06181965 0.70632499 0.11998475
-0.062731788 0.73114574 0.11960232
0.061819356 0.7312324 0.11996555
-0.062731788 0.75605476 0.11960232
0.061819356 0.75614429 0.11996555
-0.062731788 0.7809639 0.11960244
0.061819356 0.78105634 0.11996555
-0.062920772 0.90790337 0.12778604
0.061936207 0.90783596 0.12755537
-0.062927432 0.93296206 0.12807429
0.061943308 0.93294477 0.12801659
-0.062745027 0.95550436 0.12017608
0.061827306 0.95559841 0.12048185
0 0 0 1 0 0 0 1 0 0 0 1 0 0 0 0 0 842 1 0 0
