ply
format ascii 1.0
comment PCL generated
element vertex 994
property float x
property float y
property float z
element camera 1
property float view_px
property float view_py
property float view_pz
property float x_axisx
property float x_axisy
property float x_axisz
property float y_axisx
property float y_axisy
property float y_axisz
property float z_axisx
property float z_axisy
property float z_axisz
property float focal
property float scalex
property float scaley
property float centerx
property float centery
property int viewportx
property int viewporty
property float k1
property float k2
end_header
-0.08601366 -0.053615924 -0.29670769
-0.065188408 -0.053656723 -0.29406101
-0.04447414 -0.053740732 -0.28859895
-0.1281646 -0.032643642 -0.2946468
-0.10691287 -0.032618739 -0.29786408
-0.085906267 -0.032615829 -0.29825765
-0.065075532 -0.032633957 -0.29589391
-0.044357777 -0.032673534 -0.29075825
-0.14970142 -0.011639469 -0.28888029
-0.12808594 -0.011639469 -0.29557574
-0.10681708 -0.011639469 -0.29910797
-0.085800767 -0.011639469 -0.29978049
-0.064962804 -0.011639521 -0.29772425
-0.044242978 -0.011639521 -0.29288876
-0.14970022 0.0094089555 -0.28889316
-0.12808594 0.0093574068 -0.29557586
-0.10681805 0.0093303984 -0.29909551
-0.085800767 0.0093251271 -0.29978049
-0.064962804 0.0093409428 -0.29772425
-0.044242978 0.0093781566 -0.29288888
-0.12816569 0.030368932 -0.2946341
-0.10691287 0.030319251 -0.29786408
-0.085907131 0.030313384 -0.29824495
-0.065076321 0.030349687 -0.29588115
-0.044358462 0.030428816 -0.29074568
-0.08601366 0.051325165 -0.29670757
-0.065188408 0.051386267 -0.29406101
-0.044474825 0.051512793 -0.28858608
-0.024280936 -0.096413709 -0.27003431
-0.066038221 -0.074983977 -0.28026187
-0.044590667 -0.07484138 -0.28643626
-0.02393645 -0.075047866 -0.27749288
-0.1084979 -0.053915169 -0.27727377
-0.023821041 -0.053873383 -0.27999151
-0.15105972 -0.032801196 -0.27417588
-0.02370584 -0.032737158 -0.28248584
-0.0030634478 -0.03282823 -0.27065647
-0.17180178 -0.011639469 -0.27836931
-0.023590252 -0.011639469 -0.28498822
-0.0029523522 -0.011639521 -0.27354252
-0.17180178 0.0094899284 -0.27836943
-0.023590252 0.0094389236 -0.28498822
-0.0029523522 0.0095270639 -0.27354252
-0.15107644 0.030686636 -0.2739948
-0.023705244 0.030555829 -0.28249872
-0.0030634478 0.030738056 -0.27065647
-0.10851279 0.05177851 -0.27708042
-0.023820445 0.051710986 -0.2800045
-0.066050097 0.072825819 -0.28006899
-0.044590667 0.072629772 -0.28643626
-0.02393645 0.072905123 -0.27749288
-0.024282753 0.094329767 -0.26999545
-0.046092406 -0.096766815 -0.25856757
-0.0036143288 -0.096835315 -0.25634408
-0.088869989 -0.075556234 -0.25547981
-0.0032908246 -0.075342245 -0.26474881
-0.13174327 -0.054298341 -0.25238478
-0.0031742603 -0.054061402 -0.2677772
0.017615631 -0.032955635 -0.25410378
-0.19439346 -0.011639469 -0.26480091
0.017724909 -0.011639469 -0.2576524
-0.19439346 0.0095943762 -0.26480079
0.017724507 0.0096494826 -0.25763929
0.017615229 0.030993178 -0.25409055
-0.13175996 0.05235339 -0.25218797
-0.0031747594 0.051993638 -0.26776421
-0.088883623 0.073588923 -0.25528312
-0.003291823 0.073298402 -0.26472294
-0.046102956 0.094777271 -0.25837159
-0.0036153346 0.094856314 -0.25631785
-0.025834695 -0.11890202 -0.23639476
-0.0040184483 -0.1185383 -0.24584484
0.01708506 -0.097434789 -0.23687267
0.017372698 -0.075770274 -0.24621391
0.017494336 -0.054332517 -0.25016439
-0.1975708 -0.033100232 -0.23531854
-0.17471251 -0.032992773 -0.24928308
-0.24034846 -0.011639573 -0.23648775
-0.21777964 -0.011639417 -0.24616122
-0.24035007 0.0098123616 -0.23647439
-0.21780095 0.0097392844 -0.24597657
-0.19757655 0.031282943 -0.23526537
-0.17473227 0.031070255 -0.24908578
0.017493933 0.052400447 -0.25015128
0.017371885 0.073868997 -0.24618757
0.017083019 0.095607266 -0.23680639
-0.025842682 0.11708367 -0.23622203
-0.0040194616 0.1166404 -0.24581826
-0.22086364 -0.22746885 -0.21945286
-0.19849467 -0.22690734 -0.22674656
-0.17645493 -0.22651282 -0.23187208
-0.1554769 -0.22693728 -0.22635865
-0.1345558 -0.22749062 -0.21917057
-0.24210584 -0.20569424 -0.22221935
-0.21944651 -0.20503567 -0.23172557
-0.19796667 -0.2050412 -0.23164558
-0.17719421 -0.20553726 -0.22448468
-0.26423547 -0.18439987 -0.21787918
-0.24115342 -0.18365645 -0.2299521
-0.21966669 -0.18366463 -0.2298187
-0.19893628 -0.18410623 -0.2226485
-0.26380801 -0.1626288 -0.22114551
-0.24139842 -0.16226152 -0.22796285
-0.22071004 -0.16264832 -0.220783
-0.26368505 -0.14101547 -0.22208524
-0.24251115 -0.14116128 -0.21892846
-0.0050513446 -0.14115754 -0.21900928
-0.048099518 -0.11948235 -0.22132003
0.016660281 -0.11941465 -0.22307777
-0.11292827 -0.097962901 -0.21972179
-0.091072187 -0.097840637 -0.22369432
-0.068932965 -0.097546175 -0.23325706
-0.17771524 -0.076392315 -0.2192781
-0.15584812 -0.076321624 -0.22233999
-0.13396525 -0.076233819 -0.22614455
-0.11208116 -0.076127894 -0.23072588
0.038137816 -0.076382056 -0.21972167
-0.26421431 -0.054827128 -0.2180407
-0.24240851 -0.054800689 -0.21976197
-0.22055349 -0.054763969 -0.22213888
-0.19867635 -0.05471899 -0.22506058
-0.17678198 -0.054664508 -0.22860396
-0.15486059 -0.054596312 -0.23303068
0.038248427 -0.054727457 -0.22451138
-0.26368505 -0.033202186 -0.22208512
-0.24142146 -0.033158351 -0.22777581
-0.21950963 -0.033132173 -0.23117912
0.038358979 -0.033146612 -0.22929823
-0.26368505 -0.011639469 -0.22208524
0.038468838 -0.011639573 -0.2340554
-0.26368505 0.0099231461 -0.22208512
0.038468838 0.0098311109 -0.2340554
-0.26368681 0.031485967 -0.22207165
-0.24142641 0.031398866 -0.22773564
-0.21951425 0.031346463 -0.23113906
0.038358666 0.031374976 -0.229285
-0.26421785 0.053142592 -0.21801376
-0.24241179 0.053102806 -0.21973515
-0.22055814 0.053048164 -0.22209847
-0.19868067 0.052980699 -0.22502029
-0.17678598 0.052898847 -0.2285639
-0.15486547 0.05279699 -0.23297751
0.038248427 0.052992493 -0.22451138
-0.1777193 0.074698865 -0.21923769
-0.15585309 0.074604966 -0.22228634
-0.13396864 0.07448753 -0.22610438
-0.11208424 0.074346416 -0.23068571
0.03813751 0.074684434 -0.21970832
-0.11293137 0.096266314 -0.21968126
-0.091075897 0.09611398 -0.22364068
-0.06894362 0.095750511 -0.23308396
-0.048102424 0.11777434 -0.22126639
0.016657807 0.11769451 -0.22299719
-0.26368505 0.13929923 -0.222085
-0.24250785 0.13946792 -0.21895552
-0.0050528944 0.13946716 -0.21896887
-0.26380974 0.16092068 -0.22113228
-0.24139515 0.16049837 -0.22798955
-0.22070694 0.16094036 -0.22080994
-0.26424071 0.18271886 -0.21783888
-0.24115506 0.18188053 -0.22993875
-0.21966362 0.18188691 -0.22984552
-0.19893342 0.18238376 -0.22267532
-0.24210915 0.20397903 -0.22219253
-0.21945113 0.20324825 -0.23168552
-0.1979638 0.20324926 -0.23167217
-0.17719018 0.20379944 -0.22452474
-0.15630993 0.20435253 -0.21734083
-0.22086987 0.22577737 -0.21939909
-0.19849896 0.22515859 -0.22670639
-0.17646027 0.22472568 -0.23181868
-0.15547442 0.2251858 -0.22638547
-0.13455351 0.22579443 -0.21919751
-0.22272292 -0.2504153 -0.20335114
-0.20041785 -0.24994534 -0.20890152
-0.17833146 -0.24958798 -0.21312058
-0.15643185 -0.24934234 -0.21602094
-0.13516647 -0.24968633 -0.211959
-0.11407338 -0.2502887 -0.20484602
-0.24344116 -0.22809055 -0.21137774
-0.11352688 -0.22804679 -0.21194553
-0.0923893 -0.22860582 -0.2046833
-0.26511812 -0.20646223 -0.21113431
-0.15631366 -0.20603503 -0.21730042
-0.13532563 -0.20653535 -0.21007931
-0.11423035 -0.20703922 -0.20280719
-0.17809922 -0.18455002 -0.21544135
-0.15715462 -0.18499614 -0.208197
-0.13610047 -0.18544377 -0.20092893
-0.19991365 -0.16303657 -0.21357977
-0.17901146 -0.1634275 -0.20632577
-0.07094568 -0.1637373 -0.20057476
-0.049112499 -0.16363235 -0.20252156
-0.027281821 -0.16349544 -0.20506334
-0.0054680258 -0.16332734 -0.20818353
-0.2217586 -0.14149509 -0.21170223
-0.20089737 -0.14182994 -0.20445216
-0.1794793 -0.14195947 -0.2016505
-0.15774676 -0.14195305 -0.20178676
-0.13596676 -0.14191982 -0.20250785
-0.11415604 -0.14186138 -0.20377254
-0.092330962 -0.14178032 -0.20552504
-0.070491284 -0.1416683 -0.2079531
-0.048660055 -0.14153129 -0.21091819
-0.026844844 -0.14136475 -0.21452427
0.016190395 -0.14167456 -0.20781755
-0.28726035 -0.12001189 -0.20756006
-0.26434115 -0.11964583 -0.21707153
-0.24363109 -0.11992443 -0.20983565
-0.22249541 -0.12009808 -0.20532131
-0.20080659 -0.12009915 -0.20529425
-0.17905897 -0.12007774 -0.20585084
-0.1572648 -0.12003329 -0.20700407
-0.13544831 -0.11997068 -0.20863056
-0.11361323 -0.1198863 -0.21082342
-0.091766372 -0.11977653 -0.21367443
-0.06992808 -0.11964471 -0.21709859
-0.28725851 -0.09833701 -0.20757353
-0.26540148 -0.098294109 -0.20896924
-0.24375451 -0.098298214 -0.20883369
-0.22204292 -0.09828572 -0.20923996
-0.20027778 -0.098256171 -0.21020103
-0.17846799 -0.098208278 -0.21175623
-0.15663615 -0.098144993 -0.21380925
-0.13478942 -0.098064907 -0.21641159
0.037847877 -0.098349556 -0.20716679
-0.28726226 -0.076663248 -0.20754647
-0.26491827 -0.07654506 -0.21266162
-0.24318162 -0.07652621 -0.21348524
-0.22139382 -0.076494321 -0.21486151
-0.19956782 -0.076449811 -0.21678889
-0.28726035 -0.0549885 -0.20755994
-0.28726226 -0.033314113 -0.20754635
-0.28726226 -0.011639469 -0.20754647
0.059436895 -0.011639573 -0.201419
-0.28726226 0.010035125 -0.20754647
0.059436895 0.010082233 -0.201419
-0.28726226 0.031709667 -0.20754635
-0.28726035 0.053383999 -0.20756006
-0.28726226 0.075058907 -0.20754647
-0.26492003 0.074901842 -0.21264815
-0.24318326 0.074876443 -0.21347189
-0.22139689 0.074834429 -0.21483445
-0.19957072 0.074775063 -0.21676183
-0.28725663 0.096731938 -0.207587
-0.26540324 0.096679226 -0.20895565
-0.24375618 0.096684419 -0.20882022
-0.2220445 0.096668832 -0.20922649
-0.20027924 0.096631803 -0.21018744
-0.1784707 0.096572489 -0.21172929
-0.15663865 0.09649349 -0.21378219
-0.1347917 0.09639325 -0.21638465
0.037846312 0.096750692 -0.20709896
-0.28726035 0.11840747 -0.20755994
-0.26433763 0.11796694 -0.21709847
-0.24362779 0.11830109 -0.20986271
-0.22249699 0.11851145 -0.20530784
-0.20080954 0.11851338 -0.20526719
-0.17906168 0.11848766 -0.20582366
-0.15726855 0.118435 -0.2069633
-0.13545059 0.11835927 -0.2086035
-0.11361535 0.11825794 -0.21079624
-0.091769159 0.11812694 -0.21363389
-0.069929719 0.11796813 -0.21707153
-0.22175547 0.13985722 -0.21172917
-0.20089442 0.1402479 -0.20447934
-0.1794807 0.14040107 -0.20163691
-0.15774804 0.14039379 -0.20177305
-0.13596907 0.14035562 -0.20248067
-0.11415812 0.14028743 -0.20374548
-0.09233284 0.1401931 -0.20549798
-0.070493788 0.140063 -0.20791245
-0.048661515 0.13990241 -0.21089089
-0.026846707 0.13970883 -0.21448398
0.016188726 0.140071 -0.20776343
-0.19991073 0.16138412 -0.21360683
-0.17900872 0.16183072 -0.20635295
-0.070948198 0.16218904 -0.20053375
-0.049113974 0.1620684 -0.20249438
-0.027283087 0.16191182 -0.20503628
-0.0054695904 0.16172053 -0.20814288
-0.17809516 0.18288206 -0.21548188
-0.15715209 0.18338484 -0.20822406
-0.13609816 0.18388851 -0.20095611
-0.26512343 0.2048334 -0.21109378
-0.13532335 0.20490934 -0.21010637
-0.11422825 0.20546921 -0.20283449
-0.2434445 0.22645894 -0.2113508
-0.11352375 0.22640513 -0.21198606
-0.092386469 0.2270201 -0.20472383
-0.22273076 0.24884945 -0.20328319
-0.20042515 0.24833673 -0.20883369
-0.17834091 0.24794942 -0.21302617
-0.15643808 0.24767908 -0.21595371
-0.13517332 0.24805555 -0.21187794
-0.11408071 0.24871385 -0.20475101
-0.20290038 -0.27373737 -0.18586636
-0.18097079 -0.27365592 -0.18674719
-0.15918308 -0.27370301 -0.18623805
-0.1375836 -0.27396393 -0.18341386
-0.26880899 -0.25214443 -0.18293107
-0.24540049 -0.25108263 -0.19546998
-0.093175471 -0.25126347 -0.19333541
-0.26661953 -0.22899237 -0.19966161
-0.071141377 -0.22916676 -0.19739676
-0.049784064 -0.22973172 -0.19005883
-0.093025714 -0.20754558 -0.19549739
-0.071540892 -0.20786348 -0.1909095
-0.049739704 -0.20786537 -0.19088221
-0.027909592 -0.20782453 -0.19147193
-0.0060548186 -0.18593581 -0.19293821
-0.11486253 -0.18583386 -0.19459486
-0.093096763 -0.1858414 -0.1944716
-0.07129541 -0.18581529 -0.19489574
-0.049471855 -0.18575639 -0.19585288
-0.02763404 -0.18565875 -0.19743764
-0.15800104 -0.16382031 -0.19903433
-0.13634524 -0.16387402 -0.19803834
-0.11457433 -0.16385786 -0.19833863
-0.092771187 -0.16381297 -0.19917071
0.015625812 -0.16433507 -0.18948221
0.03745278 -0.12068556 -0.19005883
-0.31108749 -0.077002876 -0.19284236
0.059188541 -0.077177331 -0.18528807
-0.3110835 -0.05521464 -0.1928699
0.059271712 -0.05524819 -0.19069016
-0.3110835 -0.033427082 -0.19286966
0.059354354 -0.033402566 -0.1960578
-0.31108749 -0.011639469 -0.19284248
-0.31108549 0.010148195 -0.19285607
-0.31108549 0.031935859 -0.19285619
0.059354354 0.031886622 -0.19605792
-0.3110835 0.053723313 -0.19286978
0.0592715 0.053773902 -0.19067633
-0.31108549 0.075511292 -0.19285619
0.059188329 0.075744644 -0.18527424
0.03745088 0.11921957 -0.18997645
-0.15799722 0.16227892 -0.1990751
-0.1363464 0.16234371 -0.19802475
-0.11457539 0.16232517 -0.19832492
-0.092773095 0.16227472 -0.19914341
0.015621588 0.16287817 -0.189345
-0.11486253 0.18432908 -0.19459474
-0.093097731 0.18433869 -0.19445789
-0.071297094 0.18431018 -0.19486845
-0.049473315 0.18424387 -0.19582546
-0.027635932 0.18413512 -0.19739676
-0.0060590282 0.18445161 -0.19282877
-0.093022853 0.20603074 -0.1955384
-0.071540892 0.2063871 -0.19090962
-0.049740449 0.20639041 -0.1908685
-0.027911499 0.20634696 -0.19143069
-0.26662487 0.22745217 -0.1996206
-0.071139708 0.22763824 -0.19742417
-0.049782589 0.2282595 -0.19008625
-0.24540889 0.24957752 -0.19540167
-0.26881799 0.25073579 -0.18286204
-0.093184024 0.24977982 -0.19321227
-0.20290929 0.27230808 -0.18578374
-0.18098316 0.2722241 -0.18662333
-0.15919709 0.27227783 -0.18608654
-0.13759646 0.27256051 -0.18326223
-0.24857506 -0.27523112 -0.16969562
-0.22530878 -0.27419078 -0.1809572
-0.11632679 -0.27468815 -0.17557323
-0.072555408 -0.25286385 -0.17443573
0.037052535 -0.14329523 -0.17272782
-0.31407014 -0.099418499 -0.17245007
0.058980826 -0.099438675 -0.17179668
-0.33675 -0.077584118 -0.16767538
-0.33515647 -0.05544322 -0.17802548
-0.33515647 -0.033541292 -0.17802548
-0.33516285 -0.011639469 -0.177984
0.080889553 -0.011639469 -0.16646183
-0.33515859 0.010262459 -0.17801166
0.080889553 0.010351378 -0.16646183
-0.33515647 0.032164179 -0.17802548
-0.33515647 0.054066055 -0.17802548
-0.33676288 0.076289065 -0.16759157
-0.31407827 0.098086439 -0.17239428
0.058979541 0.098112725 -0.17171323
0.037050933 0.14196254 -0.17265832
-0.072568238 0.25153354 -0.1742276
-0.2485888 0.27392921 -0.16958427
-0.2253215 0.2728022 -0.18084657
-0.11633749 0.2733438 -0.17543459
-0.18466818 -0.29918802 -0.1498003
-0.27202833 -0.276281 -0.15833068
-0.095910385 -0.27669385 -0.15386081
-0.029363871 -0.23204662 -0.1599859
-0.007335566 -0.21002822 -0.15966344
0.014593072 -0.18821418 -0.15594292
0.036578432 -0.16634408 -0.15219855
-0.29360008 -0.14379962 -0.16180718
-0.3171497 -0.12217369 -0.15139484
0.058710538 -0.12206418 -0.15424085
-0.33982179 -0.10017989 -0.14772356
-0.36180612 -0.078023255 -0.14865637
0.080762275 -0.077993907 -0.14992738
-0.3840681 -0.0559076 -0.14786482
-0.35948333 -0.055674136 -0.16302454
0.080804795 -0.055790737 -0.15545058
-0.35948107 -0.033656701 -0.16303873
0.080847256 -0.033672698 -0.16096675
-0.35948786 -0.011639521 -0.16299677
-0.35948786 0.010378019 -0.16299665
-0.35948107 0.032394942 -0.16303861
0.080847256 0.032426883 -0.16096687
-0.3840681 0.054762602 -0.14786482
-0.35948333 0.054412432 -0.16302454
0.080804795 0.054587305 -0.1554507
-0.36181751 0.076874465 -0.14858568
0.080762163 0.076833531 -0.14991319
-0.33983269 0.09903878 -0.14765263
-0.31716001 0.12100485 -0.15132427
0.058709238 0.12087402 -0.15415621
-0.29361367 0.14255266 -0.16170907
0.036575824 0.16517285 -0.15208566
0.014589168 0.18701588 -0.15581632
-0.0073404238 0.20880224 -0.1595372
-0.029375523 0.23082967 -0.15973353
-0.27204484 0.27506819 -0.15820432
-0.095924035 0.27552247 -0.15366352
-0.18468937 0.29805112 -0.14958847
-0.23025027 -0.30035284 -0.13816214
-0.20708278 -0.29946238 -0.14705884
-0.16337457 -0.30008239 -0.1408639
-0.052592084 -0.25595346 -0.13794851
-0.29674435 -0.16704911 -0.13911545
-0.32024789 -0.1452589 -0.13021255
0.058437116 -0.1449694 -0.13648176
-0.4089123 -0.10064691 -0.13255751
0.080651306 -0.10055587 -0.13551235
-0.4089123 -0.078395084 -0.13255763
-0.38479462 -0.078140631 -0.14357471
-0.3868444 -0.033899669 -0.1314714
0.10288042 -0.011639417 -0.13061321
0.10288042 0.010627325 -0.13061321
-0.38683957 0.032880511 -0.13150001
-0.4089123 0.077368028 -0.13255775
-0.38480183 0.077030018 -0.14353216
-0.4089123 0.099619761 -0.13255763
0.08065065 0.099509344 -0.13542664
0.058435801 0.14391673 -0.13639617
-0.29675812 0.16597773 -0.13901591
-0.052605122 0.25490716 -0.13770664
-0.23027822 0.29930851 -0.13792002
-0.20710868 0.29834968 -0.14681816
-0.16339952 0.29902041 -0.14059401
-0.25355098 -0.30123994 -0.12929618
-0.14305219 -0.30228719 -0.11883318
-0.076225176 -0.28029785 -0.11484647
-0.0089276731 -0.23525567 -0.11829925
0.013535582 -0.21266532 -0.12159991
-0.29987478 -0.19064184 -0.11652327
0.035783231 -0.19056532 -0.11776519
0.058089986 -0.16840602 -0.11393499
-0.41144955 -0.12345039 -0.11822701
-0.34291694 -0.12308887 -0.12761962
0.080512799 -0.12347756 -0.11751997
-0.43427336 -0.10116511 -0.11572862
-0.38739231 -0.10077993 -0.12823617
-0.36490571 -0.10074155 -0.12948239
0.10288042 -0.078831464 -0.11365986
0.10288042 -0.056346685 -0.11933792
0.10288042 -0.033949737 -0.12497926
-0.38797307 -0.011639469 -0.124807
-0.38797063 0.010671993 -0.12482119
0.10288042 0.032980908 -0.12497926
0.10288042 0.055421799 -0.11932349
0.10288042 0.077950262 -0.11364543
-0.43427068 0.10026702 -0.11574304
-0.38739958 0.099787839 -0.12819326
-0.36491728 0.09974099 -0.12941074
-0.41145724 0.12253563 -0.11818385
-0.34292799 0.12210293 -0.12754798
0.080512136 0.12257017 -0.11743319
-0.32026252 0.14425525 -0.13011229
0.058088206 0.16752934 -0.11381924
-0.29988682 0.1897441 -0.11643672
0.035780564 0.18965995 -0.11764979
0.013531595 0.21173249 -0.12147021
-0.008937113 0.23435912 -0.11805403
-0.076263458 0.27946922 -0.11422431
-0.25357923 0.30026269 -0.12906706
-0.14308883 0.30141225 -0.11840022
-0.032337129 -0.25953829 -0.095613122
-0.32334325 -0.16866919 -0.10904932
-0.43586975 -0.14632709 -0.10708749
-0.41421348 -0.14653361 -0.10261655
-0.39267406 -0.14679064 -0.097048759
-0.34601989 -0.14630961 -0.10746551
0.080372445 -0.14668734 -0.099287152
-0.4348321 -0.12366292 -0.11270416
-0.39001784 -0.12366188 -0.11273324
-0.36800709 -0.12375553 -0.11029768
0.10288042 -0.10170152 -0.098307371
-0.43598807 -0.078998029 -0.10644758
-0.43593156 0.078162536 -0.10675311
0.10288042 0.10094206 -0.098204851
-0.4348321 0.12278862 -0.11270416
-0.39002764 0.12279002 -0.11267531
-0.36801884 0.12290315 -0.11022508
-0.43586713 0.14549518 -0.10710216
-0.41422379 0.14574002 -0.10255802
-0.39268154 0.14603934 -0.097004652
-0.3460311 0.14547954 -0.10739291
0.080371767 0.14592107 -0.099199414
-0.32335389 0.16782758 -0.10897672
-0.032348633 0.2588186 -0.095363855
-0.30300587 -0.21458274 -0.093926668
0.034968726 -0.21537448 -0.082496166
-0.32643896 -0.19240549 -0.087883711
0.057545546 -0.19297899 -0.078572154
-0.43857527 -0.16956407 -0.092443943
-0.4170047 -0.16986538 -0.086851954
-0.39535663 -0.17016944 -0.081209183
-0.34913459 -0.16984472 -0.087235332
-0.37105006 -0.14704813 -0.091474295
-0.46258122 -0.12473181 -0.084933996
0.10288042 -0.12492751 -0.07984674
-0.46096921 -0.10185547 -0.093310356
-0.41598594 -0.056758247 -0.092605472
0.12551925 -0.056917123 -0.08228898
0.12547459 -0.034233578 -0.088090062
0.12543011 -0.011639521 -0.093868017
0.12543011 0.010910233 -0.093868017
0.12547459 0.033548854 -0.088089943
-0.4159314 0.056031711 -0.092913985
0.12551925 0.056277014 -0.08228898
-0.46097201 0.10113101 -0.093295574
-0.46258974 0.12407337 -0.08488977
0.10288042 0.12431099 -0.079743147
-0.37105957 0.14634053 -0.091415524
-0.43858612 0.1688493 -0.092385054
-0.41701245 0.16919288 -0.086807847
-0.39536417 0.16954039 -0.081164598
-0.34914818 0.16917194 -0.087146759
-0.3264519 0.1917285 -0.087795258
0.057543945 0.19237472 -0.078468442
-0.30301806 0.21385974 -0.093838692
0.034966335 0.21474081 -0.082392573
-0.12466128 -0.30744374 -0.067305088
-0.30613026 -0.23886766 -0.07137835
0.012112401 -0.23855953 -0.075380802
-0.32956469 -0.21648191 -0.066512942
-0.44254154 -0.19344674 -0.070976138
-0.41983145 -0.19345237 -0.070886374
-0.39806837 -0.19380264 -0.065196991
-0.35226974 -0.19369955 -0.066871643
-0.37362045 -0.17047307 -0.07557416
0.080182582 -0.17052446 -0.074622869
-0.46575254 -0.14811143 -0.068454981
0.10288042 -0.14844951 -0.061136484
0.12556396 -0.079690009 -0.076480031
-0.42094743 -0.034414686 -0.064583302
-0.42094213 0.033910293 -0.064613223
0.12556419 0.079095654 -0.076450348
-0.46577263 0.14758331 -0.068350554
0.10288042 0.14797783 -0.061031699
-0.37363005 0.16988826 -0.075514436
0.080181889 0.16994877 -0.074533701
-0.44257182 0.19290511 -0.070812106
-0.41984195 0.19290403 -0.070826888
-0.3980785 0.1932983 -0.065137148
-0.35228354 0.19318429 -0.066782236
-0.3295778 0.21597014 -0.066423178
-0.3061406 0.23831776 -0.071303844
0.012104623 0.23799387 -0.075128198
-0.1247119 0.30698973 -0.06664753
-0.056893036 -0.28553683 -0.058133006
-0.30925071 -0.26349744 -0.048858285
-0.011478893 -0.26323 -0.052016616
-0.33269188 -0.24088804 -0.045132279
-0.42268109 -0.21729402 -0.054791689
-0.40080976 -0.21769457 -0.049009562
-0.37884825 -0.21809465 -0.043235183
-0.3553997 -0.21786553 -0.046542048
-0.3762213 -0.19415452 -0.059485316
-0.49299598 -0.10331281 -0.045981169
0.12568982 -0.10287699 -0.060131192
0.14874297 -0.057502106 -0.044297934
0.14865158 -0.034525003 -0.050234437
-0.42220396 -0.011639521 -0.057486296
0.14856032 -0.011639469 -0.056162238
-0.42220134 0.011190181 -0.057501435
0.14856008 0.01120031 -0.056177378
0.14865135 0.034131449 -0.050249457
0.14874297 0.057154305 -0.044297814
-0.49300504 0.1029539 -0.045935869
0.12569062 0.1024115 -0.06002593
-0.37622857 0.19369297 -0.059440255
-0.4226917 0.21687013 -0.054731369
-0.40082008 0.2173153 -0.048949122
-0.37885806 0.21775983 -0.043174624
-0.35541138 0.21750648 -0.046466112
-0.33270299 0.2405403 -0.045056343
-0.3092612 0.26312163 -0.048782706
-0.011488192 0.26284528 -0.051774979
-0.056928694 0.28514883 -0.057471275
-0.28809455 -0.31062037 -0.035562158
-0.31238937 -0.288486 -0.026207209
-0.40357882 -0.2418482 -0.032659292
-0.38150421 -0.24229886 -0.026806116
-0.35855412 -0.24235681 -0.026053548
0.033783525 -0.24196252 -0.031175256
0.056987699 -0.2181568 -0.042338967
0.079902902 -0.19545968 -0.038291812
0.10288042 -0.17269997 -0.034248948
0.12583579 -0.12641639 -0.041168571
-0.47083122 -0.080484822 -0.04206562
0.14883497 -0.080571398 -0.03832233
-0.45056301 -0.057759721 -0.027558208
-0.45050633 0.057533875 -0.027865052
-0.47076982 0.080144659 -0.042384744
0.14883521 0.080270089 -0.03830719
0.12583661 0.12609772 -0.041062236
0.10288042 0.17243522 -0.034157276
0.079902202 0.19516453 -0.038200498
0.05698606 0.2178323 -0.042232871
-0.40358919 0.24159539 -0.032598257
-0.38151413 0.24209088 -0.026744604
-0.35856357 0.2421546 -0.025992155
0.033777863 0.24173659 -0.030930281
-0.31240213 0.28828669 -0.026114941
-0.28810656 0.31034982 -0.035470605
-0.38419208 -0.26677272 -0.010179043
-0.33583313 -0.26563156 -0.023655534
0.12598352 -0.15025809 -0.021977425
0.14910276 -0.10408419 -0.020929694
0.17243388 -0.034823962 -0.011404872
0.17229339 -0.011639521 -0.01748848
0.17229339 0.011498175 -0.017488718
0.17243388 0.034729414 -0.011404872
0.14910442 0.10392047 -0.02082181
0.12598436 0.15008803 -0.02186954
-0.38420209 0.26669347 -0.010116935
-0.3358444 0.26544982 -0.023578405
-0.33899948 -0.2907216 -0.0020068884
-0.036791936 -0.29098424 0.00083649158
-0.36171144 -0.26716506 -0.0055457354
0.010009967 -0.26703331 -0.0071021318
0.079616249 -0.22101696 -0.0010545254
0.10288042 -0.19800812 0.003090024
0.12620848 -0.17493588 0.0072456598
0.14940226 -0.12794405 -0.0014760494
0.17271623 -0.08147528 0.00082087517
0.17257495 -0.058102515 -0.0052965879
-0.45666546 -0.034954015 0.0054723024
-0.45665967 0.034988899 0.0054409504
0.17257495 0.058054969 -0.0052965879
0.17271695 0.081475884 0.00085198879
0.14940418 0.12793192 -0.0013513565
0.12620921 0.17499074 0.0073400736
0.10288042 0.19803163 0.0031839609
0.079615287 0.2210117 -0.00092959404
-0.36172345 0.26712275 -0.0054680109
0.010002777 0.26699352 -0.0068688393
-0.33901092 0.29070723 -0.0019289255
-0.036824435 0.29105449 0.0015403032
0.056114506 -0.24546906 0.014376402
0.14970592 -0.15211609 0.018247008
0.17314315 -0.10532313 0.019307137
-0.50725049 -0.082039177 0.025238752
-0.45806289 -0.011639573 0.013036013
0.19665335 -0.011639365 0.022206664
-0.45805997 0.011732937 0.013020158
0.19665335 0.011803729 0.022206664
-0.50718695 0.082217097 0.02492094
0.17314608 0.10546994 0.019433737
0.14970738 0.15225495 0.01834178
0.056110863 0.24559307 0.014613271
0.032158844 -0.2709519 0.039175034
0.10288042 -0.22395651 0.04137361
0.17360458 -0.1295131 0.039287329
0.19723266 -0.08240363 0.041020274
-0.48670989 -0.058806747 0.040442467
0.19703877 -0.058718763 0.034723401
0.19684616 -0.035130866 0.028467894
0.19684567 0.035343118 0.028452277
-0.48664814 0.059103966 0.040121436
0.19703877 0.058979265 0.034723401
0.19723365 0.082713731 0.041052461
0.17360792 0.12981552 0.039431691
0.10288042 0.22427945 0.041518211
0.032152928 0.27127045 0.039431691
0.079135962 -0.24908403 0.061336517
0.12650412 -0.20062917 0.045651674
0.15019339 -0.17723481 0.049908876
0.17407247 -0.15402357 0.059547901
0.1978372 -0.1065963 0.060653329
0.1978412 0.10706149 0.060783505
0.17407474 0.15448052 0.059645414
0.15019463 0.17761737 0.0499897
0.12650463 0.20097837 0.045716047
-0.015875064 -0.29665264 0.062199116
0.22216076 -0.059351631 0.075835466
-0.49410337 -0.035518896 0.078860283
0.22191286 -0.035445977 0.069394708
0.22166598 -0.011639573 0.062980771
0.22166535 0.012117592 0.06296432
-0.49409705 0.036118764 0.078827262
0.22191222 0.035973232 0.069378257
0.22216076 0.059928648 0.075835466
0.079134084 0.24957019 0.061580658
-0.015903883 0.29719964 0.062948108
0.054998271 -0.2749913 0.086877942
0.12680711 -0.22697979 0.085010052
0.15080155 -0.20332406 0.089410663
0.17486328 -0.17959946 0.093790412
0.19846933 -0.13112563 0.081182122
0.2224116 -0.083358258 0.082352638
-0.49566233 -0.011639573 0.086960793
-0.49565917 0.01230213 0.086944103
0.22241478 0.083987936 0.082435131
0.1984739 0.13175073 0.081330299
0.17486519 0.18031989 0.09387362
0.15080258 0.20401026 0.089476943
0.12680839 0.22764027 0.085175395
0.054993942 0.2756795 0.087159276
0.10288042 -0.25281256 0.10977137
0.19910991 -0.15598373 0.10198605
0.22321102 -0.10790395 0.103122
0.24766183 -0.035769809 0.11145079
0.2473567 -0.011639469 0.10484445
0.2473567 0.012439868 0.10484445
0.24766105 0.036620695 0.1114341
0.2232168 0.10869692 0.10327268
0.19911301 0.15676756 0.10208631
0.10288042 0.25367072 0.11000657
0.0059082955 -0.30255592 0.12610364
0.22402316 -0.13278225 0.12422228
0.24830806 -0.084353343 0.12544215
0.24796747 -0.060001846 0.11806822
0.24796747 0.060903996 0.1180681
0.24831198 0.085314855 0.12552702
0.22402903 0.13373879 0.12437463
0.0058842674 0.30359811 0.12688398
0.078557223 -0.27919465 0.13651729
0.15147194 -0.23030131 0.13295329
0.17580234 -0.20609793 0.13445282
0.20024844 -0.18203351 0.13896072
0.22484699 -0.15799935 0.14562619
0.24929427 -0.10924868 0.1467942
0.27375492 -0.011639521 0.1478771
0.273754 0.012771078 0.14785981
0.2493014 0.11037801 0.14694881
0.22485031 0.1591184 0.14571202
0.20025003 0.18309973 0.13901186
0.1758039 0.20713107 0.13452113
0.1514764 0.23134041 0.13324296
0.078551568 0.28030679 0.13725173
0.12738247 -0.25666007 0.15975177
0.27448636 -0.060669772 0.16145039
0.27411985 -0.036102269 0.15464914
0.2741189 0.03728582 0.15463197
0.27448636 0.061905883 0.16145039
0.12738422 0.25790223 0.15997708
0.20153677 -0.20895228 0.18080044
0.25029555 -0.13448547 0.16847241
0.27493232 -0.085376061 0.16972709
0.27493799 0.086679175 0.16983163
0.25030279 0.13578276 0.16862917
0.20153949 0.21034341 0.18088818
0.028611854 -0.3087137 0.19276428
0.17693922 -0.23381597 0.18368208
0.22637951 -0.18453819 0.18544149
0.25131226 -0.16007133 0.19048452
0.27611655 -0.11063154 0.19170344
0.30131841 -0.036444284 0.19907284
0.30088854 -0.011639521 0.19209242
0.30088747 0.01311138 0.19207478
0.3013162 0.037969429 0.19903719
0.27612513 0.11210667 0.19186258
0.25131631 0.16153567 0.19057274
0.22638153 0.1859622 0.1854943
0.17694572 0.23524489 0.18396354
0.028593883 0.31026882 0.19354272
0.10288042 -0.28487259 0.20357096
0.1526787 -0.26063097 0.21133471
0.27731818 -0.13623782 0.21400249
0.30231732 -0.086428277 0.21529317
0.30174905 -0.061356608 0.20606554
0.30174905 0.062936291 0.20606565
0.30232397 0.088082232 0.21540082
0.2773259 0.13788523 0.21414602
0.15268256 0.26227212 0.21158528
0.10288042 0.28650707 0.20437241
0.22803862 -0.21189263 0.22854698
0.25329024 -0.18711755 0.23330927
0.25329274 0.18891028 0.23336387
0.2280421 0.21365152 0.22863722
0.20323858 -0.23744537 0.23606813
0.27861199 -0.16226661 0.23801291
0.30370867 -0.11205361 0.23788559
0.32978523 -0.062062759 0.25193036
0.3292869 -0.036795802 0.24473763
0.32878953 -0.011639625 0.23755825
0.32878953 0.013461548 0.23755825
0.32928562 0.038672779 0.24471939
0.32978651 0.063995831 0.2519486
0.30371988 0.11388525 0.23806739
0.27862084 0.16410078 0.23817658
0.20324752 0.23927832 0.23635876
0.17880791 -0.26473117 0.26459849
0.30512178 -0.13804033 0.26083207
0.3304953 -0.087511189 0.2621789
0.33050299 0.089526117 0.26228976
0.3051309 0.14004825 0.26097965
0.17881432 0.26678479 0.26487589
0.12825836 -0.29079679 0.27353227
0.25534144 -0.21492086 0.2777195
0.28101605 -0.18977511 0.28262687
0.30676252 -0.16455106 0.28747416
0.33210632 -0.1135177 0.28543246
0.35749233 -0.011639469 0.28434706
0.35749087 0.013821584 0.28432846
0.33211932 0.11571546 0.2856195
0.30677176 0.16676538 0.28762412
0.28101909 0.19194748 0.28268301
0.25534749 0.21706101 0.27784967
0.12826508 0.29297635 0.27440608
0.23041143 -0.24119526 0.29019403
0.35863075 -0.062789589 0.29913545
0.35805956 -0.037157446 0.2917155
0.35805956 0.039396435 0.29171538
0.35863075 0.065085605 0.29913545
0.23042226 0.24344417 0.29047561
0.20581211 -0.26896876 0.31964612
0.33374166 -0.13989578 0.30903637
0.35949966 -0.088625267 0.31042302
0.35950992 0.091012284 0.31055617
0.33375221 0.14227495 0.30918837
0.20582211 0.27145016 0.31997108
0.28348371 -0.21804336 0.32842088
0.30959579 -0.19251543 0.3334806
0.33578011 -0.166906 0.3384589
0.36134437 -0.11502506 0.33438635
0.38767314 -0.03752974 0.340083
0.38702923 -0.011639417 0.33247888
0.38702762 0.014192113 0.33245969
0.3876715 0.040140659 0.34006345
0.36135772 0.11759916 0.33455968
0.33579081 0.16951308 0.33861351
0.30959934 0.1950794 0.33353829
0.28349096 0.22057411 0.32855535
0.15476146 -0.29698518 0.34661412
0.25850204 -0.24507195 0.34614813
0.38831827 -0.06353724 0.34770179
0.38831991 0.066207625 0.34772122
0.25851458 0.24775085 0.34642005
0.15477581 0.2997328 0.34754646
0.36321574 -0.14180721 0.35869658
0.38937023 -0.089773104 0.36012495
0.38938186 0.092542909 0.3602618
0.36322629 0.14456809 0.35883355
0.23373674 -0.27335215 0.37658823
0.3125028 -0.22126181 0.38068438
0.33906716 -0.19534032 0.38590336
0.36570543 -0.16933453 0.39103866
0.3914589 -0.11657718 0.3847909
0.41816184 -0.037912995 0.38986278
0.41743848 -0.011639573 0.38203228
0.41743848 0.014573758 0.38203228
0.41816184 0.040907376 0.38986278
0.39147404 0.11953941 0.38496947
0.36571771 0.17234668 0.39119792
0.33907264 0.19830918 0.38598299
0.31251255 0.22419661 0.38084304
0.23374967 0.27627283 0.37692428
0.28755662 -0.24908029 0.40400434
0.39357993 -0.14377557 0.40983903
0.41888851 -0.064307533 0.39772928
0.41889036 0.067362942 0.39774919
0.39359188 0.14693044 0.40998006
0.28757179 0.25220528 0.40428555
0.18246767 -0.30345947 0.42307043
0.420145 -0.090955585 0.41133106
0.42015803 0.094119705 0.4114722
0.18248878 0.30679405 0.42398453
0.26262826 -0.27788585 0.43548334
0.34244126 -0.22458248 0.43460405
0.3694737 -0.19825478 0.43998945
0.42249328 -0.11817715 0.4367522
0.44956663 -0.038307726 0.44113851
0.44876137 -0.011639521 0.43309188
0.44875932 0.014966563 0.43307126
0.44956872 0.0416972 0.44115901
0.42250842 0.12153888 0.43691599
0.36948314 0.20164259 0.44011259
0.34245539 0.22793543 0.43480825
0.262667 0.28130254 0.43632233
0.3965835 -0.17184113 0.44530964
0.45037773 -0.065100528 0.44924331
0.45037982 0.068552591 0.44926393
0.39659396 0.17526919 0.44543302
0.31762516 -0.25322729 0.46386158
0.4248766 -0.14580454 0.46255207
0.45186564 -0.092174478 0.46411133
0.45188019 0.095745057 0.46425676
0.42489004 0.1493652 0.46269774
0.31764439 0.25681543 0.46417356
0.37352881 -0.22815828 0.49266744
0.40086061 -0.20126326 0.49581969
0.45448869 -0.11982655 0.49032247
0.48193175 -0.038714714 0.49399948
0.48103562 -0.011639469 0.48568439
0.48103562 0.015371581 0.48568439
0.48193175 0.042510606 0.49399948
0.45450348 0.12360016 0.49047017
0.40087315 0.20508243 0.49596775
0.37355649 0.23196907 0.49302661
0.42845714 -0.17442787 0.50131261
0.48283213 -0.065918297 0.50235391
0.48283443 0.069779165 0.50237513
0.42847088 0.17828825 0.50146163
0.29358751 -0.28407821 0.51592398
0.34876275 -0.25752187 0.52584684
0.4571515 -0.1478976 0.5169307
0.48457411 -0.093430966 0.51851726
0.48459029 0.097420536 0.5186677
0.45716435 0.15187617 0.51705933
0.34878811 0.26159123 0.52621293
0.29364061 0.28812653 0.51690924
0.48748812 -0.12152748 0.54555595
0.51529735 -0.039134011 0.54847682
0.51430726 -0.011639417 0.53990257
0.51430726 0.015788957 0.53990257
0.51529986 0.043349721 0.54849863
0.48750454 0.12572631 0.54570854
0.40593401 -0.23204207 0.5557338
0.43327606 -0.20437032 0.55347931
0.46137694 -0.17709942 0.55915403
0.51629221 -0.066761106 0.55709255
0.51629722 0.071043864 0.55713618
0.46139452 0.1814065 0.55932963
0.43329224 0.20863505 0.55365419
0.40596369 0.23633777 0.55608428
0.49044934 -0.15005694 0.57303286
0.51832187 -0.094727866 0.57467008
0.51833725 0.099148996 0.57480311
0.49046126 0.15446658 0.5731436
0.32603082 -0.29057756 0.60035217
0.38102904 -0.26197323 0.5900979
0.54862607 -0.011639469 0.59584498
0.54862607 0.016219474 0.59584498
0.38105825 0.26653835 0.59047771
0.32609171 0.29527599 0.60134041
0.46677381 -0.20758213 0.61308253
0.4953953 -0.17986014 0.61892557
0.52154422 -0.12328304 0.60257638
0.5512315 -0.067683317 0.61699843
0.5498293 -0.039573774 0.60561395
0.54983485 0.044229817 0.60565901
0.55124265 0.072428383 0.61708915
0.52155983 0.12792014 0.60271144
0.49541974 0.18463014 0.61915219
0.46679416 0.21230741 0.61328602
0.43951884 -0.23606506 0.62105894
0.52531588 -0.15245125 0.63523972
0.52532911 0.15733998 0.63535404
0.4395566 0.24086761 0.62146783
0.55439055 -0.096297652 0.64264703
0.55439627 0.10123951 0.64269316
0.41448325 -0.26658723 0.65669525
0.41451854 0.27166799 0.65711224
0.36005828 -0.29739264 0.68888402
0.55910373 -0.12569542 0.68091309
0.58814335 -0.040184464 0.68492937
0.58660656 -0.011639625 0.67318678
0.5866127 0.016815413 0.67323351
0.58816177 0.045452394 0.68507063
0.55909795 0.13092856 0.68086612
0.50324237 -0.2118205 0.69173729
0.58969915 -0.068912283 0.69681787
0.58971149 0.074271783 0.69691265
0.50328302 0.21716207 0.69211471
0.36012849 0.30277479 0.68989742
0.47713912 -0.24195269 0.71665919
0.53363478 -0.18394125 0.70728326
0.5643121 -0.15583695 0.72320008
0.56435347 0.16141292 0.72353601
0.53369522 0.18940747 0.70780694
0.47721332 0.24751395 0.71740067
0.59370816 -0.098256089 0.72745275
0.59372079 0.10385232 0.72754908
0.62675005 -0.011639521 0.75754523
0.62675005 0.017464228 0.75754499
0.59910917 -0.12839928 0.76872396
0.62927532 -0.040883504 0.77576923
0.62927532 0.046848755 0.77576923
0.59915423 0.1343233 0.76906824
0.54440248 -0.21768309 0.80053449
0.54452956 0.22390658 0.80163527
0 0 0 1 0 0 0 1 0 0 0 1 0 0 0 0 0 994 1 0 0
