ply
format ascii 1.0
comment PCL generated
element vertex 969
property float x
property float y
property float z
element camera 1
property float view_px
property float view_py
property float view_pz
property float x_axisx
property float x_axisy
property float x_axisz
property float y_axisx
property float y_axisy
property float y_axisz
property float z_axisx
property float z_axisy
property float z_axisz
property float focal
property float scalex
property float scaley
property float centerx
property float centery
property int viewportx
property int viewporty
property float k1
property float k2
end_header
-0.01126447 0.86423129 -0.415483
0.01427039 0.86423129 -0.415483
-0.036860932 0.89093673 -0.41148138
-0.011255014 0.88940698 -0.41671085
0.01427039 0.88940698 -0.41671085
0.039835926 0.89093179 -0.41149783
-0.037120339 0.84447479 -0.39463234
-0.01136841 0.8424384 -0.4019804
0.01427039 0.8424384 -0.4019804
0.039965246 0.84445632 -0.39469874
-0.062883563 0.87100703 -0.39169419
-0.036911033 0.8662979 -0.40822732
0.039860722 0.86628377 -0.40827668
0.065705337 0.87098813 -0.39176047
-0.062723123 0.89469272 -0.39864147
0.065597869 0.89466369 -0.39874077
-0.011578851 0.798316 -0.37464309
0.01427039 0.798316 -0.37464309
-0.037331622 0.82247686 -0.38090932
-0.0114732 0.82046735 -0.38836765
0.01427039 0.82046735 -0.38836765
0.040070884 0.82245886 -0.38097596
-0.06320221 0.84911269 -0.37789631
0.065918013 0.84909886 -0.3779465
-0.037757087 0.77789497 -0.35327435
-0.011684722 0.77596033 -0.36089003
0.01427039 0.77596033 -0.36089003
0.040283866 0.77788639 -0.3533082
-0.037544392 0.80029279 -0.36708939
0.04017739 0.80027962 -0.36714017
-0.063847855 0.80478168 -0.34993923
0.066348955 0.80477738 -0.34995615
-0.063523889 0.82704139 -0.3639673
0.066132717 0.82703245 -0.36400092
0.092399642 0.88303572 -0.34946203
-0.08946 0.90488023 -0.36381519
0.092062324 0.9048062 -0.36406851
-0.01190081 0.73074883 -0.33281946
0.01427039 0.73074478 -0.33283687
-0.089946046 0.75317299 -0.34803021
-0.063872643 0.7529673 -0.34886575
-0.037824176 0.75295472 -0.34891677
-0.011776631 0.75294632 -0.34895074
0.01427039 0.75294632 -0.34895074
0.040317673 0.75295472 -0.34891677
0.06636548 0.75296313 -0.34888256
0.092431925 0.75316459 -0.3480643
-0.064172149 0.78230953 -0.33589685
0.066564091 0.78228784 -0.33598256
-0.090363577 0.86114734 -0.33447039
0.09273991 0.86107588 -0.33472836
-0.0899093 0.88310373 -0.34922349
-0.064037129 0.9374395 -0.34174323
-0.03793462 0.9374395 -0.34174323
-0.011832115 0.9374395 -0.34174323
0.01427039 0.9374395 -0.34174323
0.040372897 0.9374395 -0.34174323
0.066475399 0.9374395 -0.34174323
-0.038411692 0.70967275 -0.31075644
-0.012010009 0.70785338 -0.31863427
0.01427039 0.70785338 -0.31863427
0.040611029 0.70966077 -0.31080878
-0.038191754 0.73260504 -0.32504177
0.040501066 0.73259252 -0.32509363
-0.090821296 0.83899385 -0.31960547
0.093083143 0.83892363 -0.31986558
-0.012231297 0.66148889 -0.28988802
0.01427039 0.66148508 -0.28990567
-0.038633481 0.68654782 -0.29635108
-0.012120255 0.68477041 -0.30431259
0.01427039 0.68476647 -0.30433011
0.040721919 0.68653607 -0.29640388
-0.065169536 0.71384078 -0.29270864
0.067229249 0.71382457 -0.29277909
-0.064834535 0.73685926 -0.30721438
0.067005657 0.73683828 -0.30730176
-0.091597468 0.81931841 -0.2943989
0.093671277 0.81931841 -0.2943989
-0.012343273 0.63801074 -0.27534151
0.01427039 0.63801074 -0.27534151
-0.03885714 0.66322714 -0.28182364
0.040833749 0.66321564 -0.28187692
-0.065507792 0.69063073 -0.27806151
0.067454748 0.69061494 -0.2781328
-0.11869324 0.7970016 -0.27806163
-0.091800503 0.7945264 -0.28780484
0.093799911 0.79426622 -0.28882921
0.12064129 0.7970016 -0.27806163
-0.039310187 0.61598909 -0.25239742
-0.012456344 0.61433667 -0.26065361
0.01427039 0.61433309 -0.2606715
0.041060265 0.6159783 -0.25245154
-0.039082702 0.6397084 -0.26717305
0.040946525 0.63969743 -0.2672267
-0.065848939 0.66722214 -0.26328933
0.067682169 0.66720659 -0.26336098
-0.092911318 0.7500999 -0.2517302
0.094635427 0.74988019 -0.2526499
-0.012675273 0.32362661 -0.23221385
0.01427039 0.32362661 -0.23221385
-0.039619252 0.35055882 -0.23232317
-0.012649604 0.35016158 -0.2355485
0.01427039 0.35016158 -0.2355485
0.04121507 0.35055637 -0.23234153
-0.039572962 0.37711 -0.23532999
-0.012627198 0.37670046 -0.23845875
0.01427039 0.37670046 -0.23845875
0.041191928 0.3771078 -0.23534822
-0.066627726 0.4048301 -0.22956705
-0.039545503 0.40378457 -0.23711336
-0.012613635 0.40335405 -0.24022079
0.01427039 0.40335405 -0.24022079
0.041178338 0.40378457 -0.23711336
0.068202183 0.40482771 -0.22958541
-0.0666117 0.43169478 -0.23026109
-0.039526191 0.430509 -0.23836792
-0.012604552 0.43006548 -0.2414006
0.01427039 0.4300628 -0.24141884
0.041168541 0.43050626 -0.23838615
0.068191782 0.43169478 -0.23026109
-0.066627309 0.45875946 -0.22958529
-0.03952283 0.45737383 -0.23858607
-0.012602876 0.45690706 -0.24161839
0.01427039 0.45690706 -0.24161839
0.041167002 0.45737383 -0.23858607
0.068201907 0.45875672 -0.22960353
-0.039537381 0.48442325 -0.23764074
-0.012607486 0.48387685 -0.24101961
0.01427039 0.48387399 -0.24103773
0.041174278 0.48442325 -0.23764074
-0.039572962 0.51171845 -0.2353301
-0.012617967 0.51098549 -0.239658
0.01427039 0.51098549 -0.239658
0.041191787 0.51171225 -0.23536646
-0.039622903 0.53921443 -0.23208594
-0.012636718 0.53830504 -0.23722243
0.01427039 0.53830171 -0.23724079
0.041216757 0.53920788 -0.23212266
-0.012659837 0.56576723 -0.23421907
0.01427039 0.56576371 -0.23423719
-0.03953962 0.59206682 -0.23749518
-0.012570237 0.59045738 -0.24585819
0.01427039 0.59045738 -0.24585819
0.041175116 0.59205979 -0.23753154
-0.06654007 0.6197989 -0.23336279
0.06814263 0.61978078 -0.23345351
-0.066193022 0.64361221 -0.24839032
0.067911275 0.64359349 -0.2484808
-0.093475208 0.72753352 -0.23341715
0.095059387 0.72733176 -0.23429179
-0.012851366 0.21778086 -0.20933878
0.01427039 0.21777937 -0.20935714
-0.039921392 0.24459237 -0.2126987
-0.012799119 0.2442756 -0.21612573
0.01427039 0.24427405 -0.2161442
0.041366283 0.24459237 -0.2126987
-0.066972166 0.27149269 -0.21465254
-0.039820772 0.27103412 -0.21923399
-0.012749051 0.27069435 -0.22263014
0.01427039 0.27069435 -0.22263014
0.041315973 0.27103412 -0.21923399
0.068431236 0.27148709 -0.21470785
-0.066868059 0.2980876 -0.21916044
-0.039743934 0.29754189 -0.22422481
-0.012711265 0.29718474 -0.22753823
0.01427039 0.29718474 -0.22753823
0.041277412 0.29754001 -0.22424316
0.068361834 0.29808164 -0.21921575
-0.094101824 0.32583728 -0.21306753
-0.066768877 0.32463801 -0.22345507
-0.039670404 0.32399759 -0.22900069
0.041240789 0.32399759 -0.22900069
0.068296 0.32463366 -0.22349167
0.095548689 0.32583305 -0.21310425
-0.094010487 0.35256514 -0.21603382
-0.066707961 0.35132602 -0.22609282
0.068255395 0.35132155 -0.22612953
0.095480189 0.35256037 -0.21607065
-0.093929484 0.37929109 -0.21866429
-0.066650935 0.37799576 -0.228562
0.068217374 0.37799102 -0.22859859
0.095419437 0.37928632 -0.218701
-0.093894407 0.40618306 -0.21980345
0.095393136 0.40617806 -0.21984029
-0.093899503 0.43324849 -0.21963811
0.095396534 0.43324056 -0.2196933
-0.093981579 0.46070138 -0.21697235
0.09545809 0.46069303 -0.21702754
-0.094066061 0.48820785 -0.21422887
-0.066653043 0.48590562 -0.22847068
0.068218783 0.48589966 -0.2285074
0.095522299 0.48820499 -0.21424711
-0.094205253 0.51605761 -0.20970821
-0.066706695 0.51327354 -0.22614777
0.068254545 0.51326734 -0.22618437
0.09562584 0.51604819 -0.20976388
-0.066823944 0.54116476 -0.22107053
0.068332151 0.54115182 -0.22114408
-0.06697046 0.56936842 -0.21472633
-0.039684758 0.56690329 -0.22806859
0.041247685 0.56689662 -0.22810507
0.068430103 0.56935817 -0.21478152
-0.066890128 0.59577918 -0.2182045
0.06837599 0.59576148 -0.21829653
-0.094047911 0.70474911 -0.21481836
0.095487416 0.70453954 -0.21575749
-0.012982727 0.16471979 -0.19227445
0.01427039 0.16471836 -0.19229305
-0.067448914 0.19183919 -0.19400871
-0.040154383 0.19156551 -0.19756544
-0.012914673 0.19129208 -0.20111501
0.01427039 0.19129208 -0.20111501
0.041482776 0.19156551 -0.19756544
0.068749636 0.19183794 -0.19402754
-0.094780587 0.21933162 -0.19102383
-0.067260794 0.21838924 -0.20215452
-0.040027801 0.21808168 -0.20578718
0.041419342 0.21808001 -0.2058059
0.068623938 0.21838602 -0.20219147
0.096057758 0.21932855 -0.19106114
-0.094569996 0.24596256 -0.1978631
-0.06711068 0.24496579 -0.208655
0.068523861 0.24496245 -0.20869184
0.095899388 0.24595755 -0.19791889
-0.1219636 0.27365002 -0.19309509
-0.094384186 0.27256906 -0.2038976
0.095760033 0.27256334 -0.20395315
0.12325644 0.27364621 -0.19313252
-0.094234847 0.29920998 -0.20874727
0.095648035 0.29920384 -0.20880282
-0.1217987 0.30043504 -0.19737959
0.12312337 0.30042702 -0.19745386
-0.12169065 0.32732469 -0.20018637
0.12303694 0.32731608 -0.20026064
-0.12162278 0.35429963 -0.20195019
0.12298264 0.35429063 -0.20202446
-0.12158636 0.38135463 -0.20289636
0.1229535 0.38134491 -0.20297039
-0.1215935 0.40855154 -0.20271087
0.12295979 0.40854374 -0.20276642
-0.12162634 0.43584922 -0.20185733
0.12298778 0.43584922 -0.20185733
-0.12171354 0.46337727 -0.19959211
0.12305639 0.4633716 -0.19962919
-0.12197366 0.49166641 -0.19283402
0.12326218 0.49164835 -0.19294596
-0.094425865 0.54444492 -0.20254397
0.095790438 0.54442871 -0.2026366
-0.094761617 0.57363373 -0.19163978
0.096043102 0.57362336 -0.19169593
-0.094627298 0.68172526 -0.19600213
0.095920444 0.68150878 -0.1970073
-0.013144986 0.11134917 -0.17119658
0.01427039 0.11134917 -0.17119658
-0.067890793 0.13853797 -0.17487442
-0.040446643 0.13830969 -0.17858255
-0.013059641 0.13808185 -0.18228281
0.01427039 0.13808072 -0.18230152
0.041628763 0.1383085 -0.17860138
0.069044225 0.13853696 -0.17489326
-0.095301069 0.16597736 -0.17412078
-0.067658223 0.16522732 -0.18494534
-0.040292203 0.16497329 -0.18861377
0.041551542 0.16497198 -0.18863249
0.068889469 0.16522732 -0.18494534
0.096448109 0.16597474 -0.17415833
-0.1227796 0.19354147 -0.17189491
-0.095022023 0.19267249 -0.18318319
0.096238822 0.19266969 -0.18322098
0.12390922 0.19353861 -0.17193282
-0.12247518 0.22028184 -0.17980444
0.12366568 0.22027868 -0.17984188
-0.12219729 0.24696407 -0.18702364
0.12344281 0.24695894 -0.18707991
-0.1501077 0.27559412 -0.17366827
0.15124923 0.27558655 -0.17374372
-0.14990155 0.30250943 -0.17813122
0.15107746 0.30250144 -0.17820644
-0.14976962 0.32954162 -0.1809876
0.15096751 0.32953286 -0.18106282
-0.14965956 0.35658795 -0.18337071
0.15087579 0.35657901 -0.18344605
-0.14961453 0.38378224 -0.1843456
0.15083827 0.3837724 -0.1844207
-0.14975315 0.41151217 -0.18134451
0.15095305 0.41149929 -0.18143821
-0.14996848 0.4395313 -0.17668247
0.15113394 0.43952301 -0.17673898
-0.1502018 0.46768227 -0.17163062
0.15132692 0.46766773 -0.17172515
-0.12228451 0.5202831 -0.18475795
0.12351142 0.52026737 -0.18485165
-0.12284792 0.55018592 -0.17012
0.12396038 0.55015916 -0.17027092
-0.095389955 0.60481864 -0.17123425
0.096509099 0.60476416 -0.17151761
0.096358106 0.65823108 -0.178056
-0.068430409 0.084843136 -0.15150869
-0.040803581 0.084663443 -0.15539861
-0.013236861 0.084485166 -0.15926158
0.01427039 0.084485166 -0.15926158
0.041807376 0.084663443 -0.15539861
0.069403961 0.084842242 -0.15152776
-0.095955625 0.11233718 -0.1528635
-0.06815359 0.11176413 -0.1634953
-0.040619433 0.11155602 -0.16735959
0.041715302 0.11155602 -0.16735959
0.069219418 0.11176316 -0.16351414
0.096938573 0.11233414 -0.15292072
-0.095601395 0.13918507 -0.16436732
0.096673355 0.13918275 -0.16440535
-0.12352755 0.13991815 -0.15246284
0.12450756 0.13991594 -0.15250099
-0.12314453 0.1667884 -0.16241407
0.12420115 0.16678569 -0.16245198
-0.15097 0.19484213 -0.15499878
0.15196705 0.19483483 -0.15509415
-0.15064153 0.22178015 -0.16211045
0.15169407 0.22177365 -0.16218638
-0.15032919 0.24864081 -0.16887271
0.15143381 0.24863389 -0.16894829
-0.17859223 0.27761489 -0.15347385
0.17957769 0.27760732 -0.15355003
-0.17846799 0.30491832 -0.15577984
0.17946768 0.3049019 -0.15593219
-0.17845157 0.33241716 -0.1560843
0.17945623 0.33240613 -0.15617955
-0.17846696 0.35998398 -0.15579891
0.17946856 0.35996997 -0.15591323
-0.17857477 0.38777992 -0.15379798
0.1795592 0.38775986 -0.15395045
-0.17871358 0.41568604 -0.15122199
0.17967905 0.41566741 -0.15135598
-0.15075204 0.4970201 -0.1597178
0.15178396 0.4969984 -0.15985072
-0.013453799 0.030338347 -0.13108063
0.01427039 0.030338347 -0.13108063
-0.068753056 0.057813875 -0.13753748
-0.041016437 0.057658635 -0.14157319
-0.013342175 0.057504408 -0.14558089
0.01427039 0.057504408 -0.14558089
0.041913807 0.057658635 -0.14157319
0.06961906 0.05781316 -0.13755667
-0.096329883 0.085342042 -0.14070916
0.097220145 0.085340969 -0.14072835
-0.12398217 0.11299514 -0.14065158
0.12487184 0.11299401 -0.1406709
-0.15183605 0.14091682 -0.13624799
0.15269022 0.14091322 -0.13630569
-0.15138288 0.16792145 -0.14605927
0.15231185 0.16791615 -0.14613616
-0.17968765 0.19652447 -0.13314545
0.18051659 0.19651845 -0.13322258
-0.17925937 0.22355977 -0.14109325
0.18014951 0.22355327 -0.14116991
-0.17888863 0.25057131 -0.14797354
0.17983174 0.2505644 -0.14804995
-0.1793132 0.44488278 -0.14009452
0.18018943 0.44485185 -0.14030588
-0.15146783 0.52714837 -0.14422035
0.15238559 0.52714837 -0.14422035
-0.12393857 0.58284444 -0.14178431
0.12482868 0.58279121 -0.1420722
-0.041493401 0.0030872524 -0.11059391
-0.01357907 0.0029899478 -0.11480737
0.01427039 0.0029899478 -0.11480737
0.042152286 0.0030872524 -0.11059391
-0.097231336 0.030943379 -0.11143351
-0.069095261 0.030595727 -0.12271965
-0.041242272 0.030466914 -0.1269052
0.042026721 0.030466914 -0.1269052
0.069847487 0.030595727 -0.12271965
0.097895786 0.030942068 -0.11147237
-0.12501216 0.058724277 -0.11389124
-0.096759707 0.058229126 -0.12675011
0.097542956 0.058229126 -0.12675011
0.12569523 0.058722608 -0.11393034
-0.15295875 0.086670719 -0.11194074
-0.12446956 0.085929476 -0.12798834
0.12526235 0.085929476 -0.12798834
0.15362576 0.086667977 -0.11199939
-0.15235971 0.11384324 -0.12491035
0.15312807 0.11384229 -0.1249299
-0.18076091 0.1423344 -0.1132282
0.18143737 0.14233083 -0.11328697
-0.18017945 0.16944849 -0.12401879
0.18093811 0.16944319 -0.12409663
-0.20876431 0.22611415 -0.11092591
0.20941734 0.2261011 -0.11108208
-0.20847851 0.25356489 -0.11556697
0.20917043 0.2535558 -0.11566436
-0.20821373 0.28097832 -0.11986578
0.20893669 0.28096476 -0.12000179
-0.20808698 0.30856684 -0.12192416
0.20882474 0.30855033 -0.12207949
-0.20798306 0.33616677 -0.12361193
0.20873486 0.33615121 -0.12374771
-0.20833947 0.36466125 -0.11782479
0.20904145 0.36463255 -0.11805797
-0.20880879 0.39348486 -0.11020315
0.20945208 0.39345413 -0.11043763
-0.18001871 0.47455332 -0.12700164
0.18079498 0.47452345 -0.12719512
-0.069866143 -0.024467394 -0.089339375
-0.041754395 -0.024533737 -0.093641639
-0.013708808 -0.024600144 -0.097953558
0.01427039 -0.024600144 -0.097953558
0.04228263 -0.02453392 -0.093661427
0.070361413 -0.024467394 -0.089339375
-0.09773913 0.0034486279 -0.094942331
-0.069473282 0.0031852201 -0.10635102
0.070099205 0.0031848624 -0.10637081
0.098276161 0.003447257 -0.095001459
-0.12562333 0.031356484 -0.098012805
0.12618417 0.031355411 -0.098051906
-0.15360388 0.059336819 -0.097973228
0.1541626 0.059333839 -0.098052025
-0.18138075 0.11509269 -0.10172546
0.18196866 0.11508953 -0.10178423
-0.209705 0.1714139 -0.09565115
0.21024142 0.17140436 -0.095789194
-0.20921616 0.19879964 -0.10358894
0.20981373 0.19878927 -0.10372615
-0.2094482 0.42280838 -0.099820852
0.21001253 0.42277828 -0.10003686
-0.18176749 0.50755525 -0.094548106
0.18228468 0.50749153 -0.094942212
-0.070266873 -0.052379303 -0.071987867
-0.0420206 -0.052412894 -0.076351047
-0.013841749 -0.052446246 -0.080684185
0.01427039 -0.052446485 -0.080703974
0.042415887 -0.052412894 -0.076351047
0.070628248 -0.052379481 -0.072007895
-0.098274231 -0.02428608 -0.077564597
0.098677479 -0.024287093 -0.077624321
-0.12626737 0.0037642494 -0.081279635
0.12669878 0.0037629306 -0.081339121
-0.15437678 0.031872861 -0.081239939
0.15480588 0.03186994 -0.081339121
-0.18295419 0.060316242 -0.072526217
0.18331543 0.060312487 -0.072625995
-0.18213767 0.087791361 -0.087678909
0.18261559 0.087786771 -0.087777615
-0.21106648 0.11661128 -0.073542953
0.21143265 0.11660381 -0.073682547
-0.21033856 0.14405036 -0.085363388
0.21079576 0.14404213 -0.085502148
-0.23933306 0.22940126 -0.072107553
0.23967852 0.22937769 -0.072386622
-0.23922259 0.25743219 -0.073702335
0.23958276 0.25741008 -0.073941708
-0.23930961 0.28572381 -0.072446465
0.2396601 0.2856997 -0.072685719
-0.23944643 0.31411219 -0.070471168
0.23978172 0.31408641 -0.070710659
-0.070670955 -0.080558442 -0.054490209
-0.042289659 -0.080558442 -0.058875084
-0.013975804 -0.080558442 -0.063269973
0.01427039 -0.080558442 -0.063269973
0.042550262 -0.080558442 -0.05889523
0.070897639 -0.080558442 -0.054510355
-0.098815076 -0.052286945 -0.059999943
0.099083558 -0.052287363 -0.060040116
-0.12694207 -0.024073385 -0.063750863
0.12723912 -0.0240741 -0.063790798
-0.15517624 0.0041648224 -0.063931108
0.15547207 0.00416255 -0.064031363
-0.18387073 0.032665178 -0.055516958
0.18410102 0.0326619 -0.05561769
-0.21190919 0.089076139 -0.059859395
0.21216887 0.089068733 -0.060020089
-0.24049366 0.17420575 -0.055356026
0.24072112 0.1741986 -0.055456519
-0.23980242 0.20174471 -0.065333128
0.24010302 0.20173237 -0.065493226
-0.23977467 0.34285018 -0.065733552
0.24007344 0.34282249 -0.065973639
-0.21153142 0.45572069 -0.065993547
0.2118265 0.45566526 -0.066373825
-0.071079396 -0.10900833 -0.036804438
-0.042560991 -0.10897414 -0.041251779
-0.014111145 -0.10893995 -0.045688629
0.01427039 -0.10893995 -0.045688629
0.042686082 -0.10897414 -0.041251779
0.071169928 -0.10900827 -0.036824465
-0.099361777 -0.080558442 -0.042245507
0.099493109 -0.080558442 -0.042306304
-0.12762405 -0.052179433 -0.046032548
0.12778407 -0.05217997 -0.046093225
-0.15600854 -0.023798756 -0.045911193
0.15616561 -0.023800369 -0.046012282
-0.18483748 0.0047735572 -0.037576675
0.18492959 0.0047710538 -0.037678361
-0.21294525 0.061451264 -0.043035865
0.21307534 0.061445124 -0.043198109
-0.24221498 0.11893018 -0.030510664
0.24224861 0.11892248 -0.030653477
-0.24124897 0.14656991 -0.04445374
0.24139622 0.14656752 -0.04449439
-0.24121252 0.37363341 -0.044980168
0.24133264 0.37356615 -0.045526743
-0.014385913 -0.16652745 -0.0099953413
0.01427039 -0.16652745 -0.0099953413
-0.071491309 -0.13773283 -0.018967986
-0.04283525 -0.13766405 -0.023438096
-0.014247946 -0.13759521 -0.027917624
0.01427039 -0.13759521 -0.027917624
0.042823054 -0.13766375 -0.023458362
0.071444541 -0.13773254 -0.01898849
-0.12900716 -0.10921393 -0.010098457
-0.09991315 -0.10910432 -0.024338722
0.0999071 -0.10910396 -0.024379849
0.12889051 -0.10921345 -0.010160327
-0.15769696 -0.080558442 -0.0093557835
-0.12831184 -0.080558442 -0.028162956
0.12833492 -0.080558501 -0.028203726
0.15757334 -0.080558382 -0.0094382763
-0.15684812 -0.052038752 -0.027733684
0.156866 -0.052039407 -0.02781558
-0.18582253 -0.023388993 -0.019296288
0.18577388 -0.023390666 -0.019398928
-0.21405509 0.033604272 -0.025014281
0.21404529 0.033598542 -0.02519846
-0.24331942 0.091168143 -0.014569283
0.243229 0.091160513 -0.014733911
-0.014525381 -0.19574156 0.0081222057
0.01427039 -0.19574156 0.0081222057
-0.071907692 -0.16673651 -0.00093781948
-0.043111853 -0.1666318 -0.0054719448
0.042961512 -0.1666318 -0.0054719448
0.071722127 -0.1667361 -0.00095868111
-0.12970845 -0.13815007 0.0081223249
-0.10047055 -0.13792889 -0.0062371492
0.10032466 -0.13792787 -0.0062990189
0.1294522 -0.13814935 0.0080804825
-0.15855429 -0.1093626 0.0092058182
0.15828694 -0.10936177 0.0091016293
-0.18681738 -0.051831543 -0.00083422661
0.18662655 -0.051832438 -0.00093770027
-0.21523184 0.0055050179 -0.0059062243
0.21507484 0.005500488 -0.00609231
-0.24456438 0.063238628 0.0033996105
0.24433424 0.063231416 0.0032126904
-0.27360073 0.2073127 0.0069978237
0.27334577 0.20730299 0.0068728924
-0.27321666 0.23567745 0.0020081997
0.27293971 0.23559287 0.0010118484
-0.0436735 -0.22541812 0.031008005
-0.014666052 -0.22524062 0.026395798
0.01427039 -0.22524062 0.026395798
0.043242335 -0.22541812 0.031008005
-0.10160117 -0.19642994 0.030480981
-0.072327659 -0.19602251 0.0172472
-0.043391149 -0.19588141 0.012668729
0.043101162 -0.19588141 0.012668729
0.072002098 -0.19602191 0.017226338
0.10117308 -0.19642869 0.030438781
-0.13041748 -0.16737115 0.02654314
-0.10103276 -0.16703579 0.012021542
0.10074679 -0.16703483 0.011979699
0.1300194 -0.1673702 0.02650106
-0.15941921 -0.138455 0.027931929
0.1590085 -0.13845362 0.027847767
-0.18782105 -0.080558442 0.01779151
0.18748777 -0.080558382 0.017707825
-0.21642078 -0.02288574 0.01339972
0.21611504 -0.022888545 0.013211727
-0.24590716 0.035076022 0.022781253
0.2455277 0.035070114 0.022592664
-0.27526253 0.15106791 0.028584719
0.27483252 0.15105242 0.028331995
-0.27427217 0.17912981 0.015719771
0.27395582 0.17912707 0.015677929
-0.27474955 0.2662656 0.021920919
0.27433312 0.26619184 0.021123886
-0.043958306 -0.25524452 0.049506426
-0.014808268 -0.25503039 0.044870257
0.01427039 -0.25503039 0.044870257
0.043384738 -0.25524452 0.049506426
-0.10217455 -0.2261146 0.049102068
-0.07275223 -0.22559607 0.035631537
0.072285146 -0.22559524 0.035610318
0.10160311 -0.22611299 0.04905951
-0.13113271 -0.19688094 0.045125246
0.13059157 -0.19687957 0.045082569
-0.16029383 -0.16784063 0.046868086
0.1597373 -0.16783848 0.04678297
-0.18883593 -0.10957363 0.036625266
0.18835762 -0.10957298 0.036540747
-0.21762212 -0.051571891 0.032906651
0.21716496 -0.051573381 0.032695651
-0.24726543 0.0066201687 0.042386651
0.24673496 0.0066158175 0.042195678
-0.27657506 0.12303341 0.045635104
0.27600041 0.1230093 0.045188785
-0.27638543 0.29729408 0.043171763
0.2758033 0.29721135 0.042344332
-0.044246253 -0.28536665 0.068209291
-0.014951722 -0.28511328 0.06350565
0.01427039 -0.28511328 0.06350565
0.043528546 -0.28536555 0.068187833
-0.10275429 -0.25609538 0.067929745
-0.073180489 -0.25546026 0.054175496
0.072570644 -0.25545925 0.054154396
0.10203791 -0.25609341 0.06788671
-0.13185586 -0.22668469 0.063913226
0.13117008 -0.22668308 0.063870311
-0.16117629 -0.19752291 0.065974236
0.1604735 -0.19752094 0.065909863
-0.18986104 -0.1388817 0.055649042
0.18923527 -0.13888009 0.055542469
0.21822701 -0.080558442 0.052404761
-0.21883601 -0.080558382 0.052618027
-0.248638 -0.022134352 0.062197447
0.24795485 -0.022137396 0.062004566
-0.27810603 0.09486758 0.065523028
0.27738243 0.094849505 0.065136671
-0.044536728 -0.31578696 0.087076306
-0.015096768 -0.31549573 0.082347512
0.01427039 -0.31549573 0.082347512
0.043673951 -0.31578696 0.087076306
-0.10333984 -0.2863763 0.08694613
-0.073612981 -0.28561962 0.072903156
0.072859302 -0.28561962 0.072903156
0.10247655 -0.28637278 0.086881042
-0.13258541 -0.2567853 0.082867503
0.13175437 -0.25678447 0.082845807
-0.16206874 -0.22750768 0.085296154
0.16121717 -0.22750515 0.085231185
-0.19089657 -0.16848707 0.074866056
0.19012281 -0.16848469 0.074758172
-0.22006269 -0.10985005 0.072536826
0.21930021 -0.10984838 0.072321296
-0.25002202 -0.051192619 0.082174182
0.24918763 -0.051193811 0.082022548
-0.27981204 0.06648279 0.087684751
0.2789205 0.066469364 0.087336779
-0.074491434 -0.34684402 0.11094153
-0.044830441 -0.34651223 0.10615337
-0.01524309 -0.34617978 0.10135531
0.01427039 -0.34617978 0.10135531
0.043820638 -0.34651056 0.10613143
0.07344494 -0.34684402 0.11094153
-0.1039306 -0.31696042 0.10613155
-0.074050277 -0.31608021 0.091838598
0.073150501 -0.31607893 0.091817021
0.10292011 -0.31695774 0.10608768
-0.13332313 -0.28718928 0.10203373
0.13234453 -0.2871882 0.10201204
-0.16297032 -0.25779921 0.10481572
0.16196845 -0.25779617 0.10475016
-0.19194146 -0.19839373 0.094256997
0.19101939 -0.19839111 0.094169855
-0.22130233 -0.13945165 0.092666149
0.22038481 -0.13944814 0.092448354
-0.2514222 -0.080558442 0.10238421
0.25043216 -0.080558561 0.10223079
-0.28154144 0.037766263 0.1101501
0.28047666 0.037755586 0.10979843
-0.074937537 -0.37791815 0.13025844
-0.045126759 -0.37754419 0.12539983
-0.015391049 -0.37717286 0.12057579
0.01427039 -0.37717286 0.12057579
0.043968964 -0.37754419 0.12539983
0.073742002 -0.37791654 0.13023627
-0.10452801 -0.34785482 0.12553275
0.10336816 -0.34785178 0.12548864
-0.13406743 -0.31789905 0.12137163
0.13293996 -0.31789762 0.12134945
-0.16388012 -0.28840071 0.12451375
0.16272748 -0.28839833 0.12446952
-0.19299826 -0.22860742 0.11386847
0.19192517 -0.22860408 0.11378038
-0.22255518 -0.169368 0.11300969
0.22148089 -0.16936304 0.11278975
-0.2528373 -0.11023708 0.12280929
0.25169128 -0.11023606 0.12267673
-0.075387634 -0.40930453 0.14974797
-0.04542641 -0.40889093 0.14486265
-0.015540327 -0.40847629 0.13996756
0.01427039 -0.40847629 0.13996756
0.044118617 -0.40888897 0.14484036
0.074042059 -0.40930259 0.14972556
-0.10513079 -0.3790614 0.14510894
0.10382024 -0.379058 0.14506423
-0.13482015 -0.34892154 0.14092779
0.13354214 -0.34891999 0.14090538
-0.16480038 -0.31931943 0.14443755
0.16349345 -0.3193154 0.14437044
-0.19406594 -0.25913244 0.13368213
0.19283925 -0.25912723 0.13357091
-0.22382142 -0.19960441 0.13357091
0.22258875 -0.19959748 0.13334858
-0.25426754 -0.14023359 0.14345348
0.2529639 -0.1402318 0.14334142
-0.28329301 0.0087105036 0.13290346
0.28205127 0.0087017342 0.13252544
-0.075842813 -0.44101125 0.16945791
0.074345507 -0.4410091 0.16943514
-0.045728751 -0.44055328 0.16450036
-0.015691288 -0.44009861 0.15957797
0.01427039 -0.44009861 0.15957797
0.04426996 -0.44055328 0.16450036
-0.10574043 -0.41058832 0.16490746
0.10427745 -0.41058439 0.16486216
-0.13557968 -0.38025859 0.16066098
0.13415045 -0.38025859 0.16066098
-0.16572914 -0.35055777 0.16454566
0.16426826 -0.35055462 0.16450047
-0.19514467 -0.28997359 0.15370107
0.19376384 -0.28996751 0.15358865
-0.22510128 -0.23016575 0.15435302
0.22370848 -0.23015717 0.15412843
-0.25578374 -0.17057651 0.16533697
0.25430733 -0.17057228 0.16515601
-0.28596395 -0.020511471 0.16760004
0.28429475 -0.020552937 0.16490734
-0.076343909 -0.47322035 0.19115579
-0.046062313 -0.47272098 0.18616593
-0.015857648 -0.47222292 0.18118858
0.01427039 -0.47222292 0.18118858
0.044436567 -0.47271872 0.18614292
0.074679568 -0.47321802 0.1911329
-0.10635561 -0.44243637 0.1848861
0.10473937 -0.44243434 0.18486333
-0.13634785 -0.41191858 0.18061864
0.1347643 -0.41191673 0.18059587
-0.16666861 -0.38212341 0.18488598
0.16505115 -0.38212001 0.18484044
-0.19623463 -0.32113567 0.17392814
0.19469802 -0.32112864 0.17381465
-0.22639354 -0.26105648 0.17533731
0.22484031 -0.26104701 0.17513263
-0.25740111 -0.20130134 0.1886822
0.25574771 -0.20129704 0.18854475
-0.046371143 -0.50504929 0.20622528
-0.01601167 -0.5045073 0.20119703
0.01427039 -0.5045073 0.20119703
0.04459098 -0.50504678 0.20620203
-0.107039 -0.474814 0.20707989
0.10525083 -0.47480702 0.20701051
-0.13720201 -0.44409212 0.20281005
0.13544618 -0.4440859 0.20274091
-0.16761689 -0.41401845 0.20541704
0.16584224 -0.41401649 0.20539391
-0.19733475 -0.35262221 0.19434416
0.19564201 -0.35261589 0.19425225
-0.22769988 -0.2922824 0.19654906
0.22598448 -0.2922726 0.19636524
-0.046683159 -0.53771001 0.22649086
-0.016167454 -0.53712612 0.221434
0.01427039 -0.5371235 0.22141075
0.044746988 -0.53770745 0.22646749
-0.10766762 -0.50734144 0.22749436
-0.076810479 -0.50560242 0.2113589
0.0749899 -0.50559497 0.21128953
0.10572281 -0.5073365 0.22744775
-0.13798605 -0.47642526 0.22318029
0.1360734 -0.47641826 0.22311056
-0.16868621 -0.44647169 0.22856867
0.16673154 -0.44646531 0.2284987
-0.19844769 -0.38444147 0.21499765
0.19659483 -0.38443252 0.21488166
-0.22902045 -0.32384926 0.21799242
0.22714111 -0.32383922 0.2178297
-0.259038 -0.23239648 0.21230841
0.25720546 -0.23239279 0.2122159
-0.29002568 -0.050128773 0.22036362
0.28800315 -0.050143749 0.2184341
-0.046998758 -0.57071161 0.24698973
-0.016324673 -0.57007951 0.24185681
0.01427039 -0.57007658 0.24183333
0.044904605 -0.57070577 0.24694264
-0.10830276 -0.54020774 0.24812174
-0.077283502 -0.53832787 0.23184156
0.075305238 -0.53831983 0.23177135
0.10619917 -0.54020238 0.24807453
-0.13877827 -0.50909466 0.24376261
0.13670787 -0.50908965 0.24371552
-0.16965581 -0.47906539 0.24956119
0.16753952 -0.47905821 0.24949038
-0.19957115 -0.41659522 0.23584628
0.19755882 -0.41658717 0.23575246
-0.23035549 -0.3557626 0.23967135
0.22831047 -0.35575289 0.23953032
-0.26069471 -0.26386863 0.23622131
0.25867948 -0.26386523 0.2361511
-0.047317278 -0.60405356 0.26767814
-0.016483519 -0.60337484 0.26249182
0.01427039 -0.6033718 0.2624681
0.045063861 -0.60404742 0.2676307
-0.10894531 -0.57342112 0.26898861
-0.07776092 -0.57139194 0.252514
0.075623505 -0.57138324 0.25244308
0.1066805 -0.5734123 0.2689172
-0.13957968 -0.54210877 0.26458383
0.13734825 -0.54210043 0.26451254
-0.17063576 -0.5120061 0.27077734
0.16835611 -0.51199847 0.27070582
-0.20082916 -0.44930053 0.25919199
0.19864145 -0.44930053 0.25919199
-0.23170531 -0.38802809 0.26158941
0.22949271 -0.38801885 0.26147044
-0.26237494 -0.29572701 0.26047349
0.26017299 -0.29572314 0.26040208
-0.047639124 -0.63774389 0.28858268
-0.016644027 -0.63701802 0.28334248
0.01427039 -0.63701457 0.2833184
0.045224778 -0.63773733 0.28853452
-0.10959388 -0.60698158 0.29005182
-0.078243338 -0.60480291 0.27340329
0.075945467 -0.60479659 0.2733556
0.10716747 -0.60697526 0.29000366
-0.14038859 -0.57546711 0.2856003
0.13799536 -0.57545835 0.2855283
-0.20197926 -0.48216495 0.2805351
0.19962613 -0.48216245 0.28051126
-0.23326248 -0.4209162 0.28687465
0.23085648 -0.42090797 0.28677857
-0.26407918 -0.32798028 0.28507149
0.26168483 -0.32797295 0.28495133
-0.29415283 -0.080558501 0.27397692
0.29182813 -0.080558561 0.27364242
-0.047964729 -0.67179215 0.3097316
-0.016806215 -0.67101401 0.30441153
0.01427039 -0.67101049 0.30438721
0.045387577 -0.67178488 0.30968273
-0.11024931 -0.64089704 0.31133759
-0.078731395 -0.63856912 0.29453719
0.076270469 -0.63855922 0.29446471
0.10765904 -0.64089042 0.31128895
-0.14120609 -0.60917836 0.30683863
0.13865007 -0.60917217 0.30679047
-0.1716273 -0.54530275 0.29224503
0.16918144 -0.54529166 0.29214871
-0.20314042 -0.51538008 0.30208361
0.20062141 -0.51537746 0.30205953
-0.23464614 -0.45393321 0.30934227
0.2320658 -0.45392197 0.30922067
-0.26580283 -0.36063167 0.30995047
0.26321536 -0.36062157 0.3098048
-0.048293401 -0.70619631 0.33107913
-0.016970117 -0.70536852 0.32570255
0.01427039 -0.70536494 0.32567847
0.045551907 -0.7061888 0.33103001
-0.079224072 -0.67269003 0.31587064
0.076598905 -0.67267936 0.31579769
-0.14203224 -0.64324784 0.32830346
0.13931099 -0.64324117 0.32825434
-0.17262842 -0.57895529 0.31391966
0.17001565 -0.57894319 0.31382239
-0.20431413 -0.54895389 0.32386482
0.20162629 -0.54894817 0.32381594
-0.017135758 -0.74008739 0.34721982
0.01427039 -0.74008358 0.34719551
-0.079722568 -0.70717812 0.33745587
0.076931216 -0.70716667 0.3373822
-0.14286819 -0.67768502 0.35002196
-0.11091248 -0.6751771 0.33287442
0.1081564 -0.67516983 0.33282506
0.13997896 -0.67767417 0.34994757
-0.17364037 -0.61297214 0.33582914
0.1708589 -0.61295933 0.33573043
-0.20550056 -0.58289212 0.34588253
0.2026432 -0.58288604 0.34583294
-0.23604381 -0.48731914 0.33203828
0.23329006 -0.48730919 0.33193982
-0.267941 -0.39412674 0.34081256
0.26509759 -0.3940925 0.34036815
-0.017303161 -0.7751767 0.36896646
0.01427039 -0.77517253 0.36894166
-0.080225833 -0.74203175 0.3592478
0.077266715 -0.74201977 0.35917318
-0.048625562 -0.7409659 0.35265362
0.045717984 -0.74095774 0.35260379
-0.11158199 -0.70982009 0.354617
0.10865851 -0.70981246 0.35456741
-0.17466335 -0.64735967 0.35797703
0.17171134 -0.64734572 0.35787737
-0.20670129 -0.61720401 0.36816537
0.20367123 -0.617194 0.36809027
-0.23745731 -0.52108198 0.35499012
0.23452677 -0.5210712 0.35489094
-0.2697078 -0.42764279 0.36631358
0.26666924 -0.42760688 0.36588871
-0.01747236 -0.81064171 0.39094627
0.01427039 -0.8106373 0.39092076
-0.080734506 -0.77726096 0.38127434
-0.048961263 -0.77610672 0.37445843
0.045886025 -0.7761023 0.37443292
0.077606209 -0.77725244 0.38122404
-0.11225868 -0.74483603 0.37659371
0.10916603 -0.74482799 0.37654364
-0.14371216 -0.71248865 0.3719486
0.14065412 -0.71247697 0.3718735
-0.17569751 -0.68212354 0.38036764
0.1725731 -0.68210864 0.38026679
-0.20791386 -0.65188938 0.39066756
0.20471054 -0.65187895 0.39059174
-0.23888841 -0.55523109 0.37822831
0.23577891 -0.55521953 0.37812746
-0.081249282 -0.81287587 0.40356481
-0.049300577 -0.81162447 0.39649689
0.046055675 -0.81162012 0.39647162
0.077948995 -0.8128624 0.40348852
-0.11294348 -0.78023463 0.39883316
0.10967903 -0.78022176 0.39875686
-0.14456524 -0.74766809 0.39411247
0.14133735 -0.74765986 0.39406168
-0.17674306 -0.71727002 0.40300477
0.17344436 -0.71725428 0.40290272
-0.24033427 -0.58976793 0.40170658
0.23704401 -0.58975524 0.40160453
-0.27149856 -0.46158385 0.39216173
0.2682623 -0.46154627 0.39175618
-0.081769072 -0.84887409 0.426072
-0.049643543 -0.8475256 0.41877377
-0.017643385 -0.84648889 0.41316259
0.01427039 -0.84648889 0.41316259
0.046227161 -0.84752101 0.41874802
0.078295507 -0.84885985 0.42599523
-0.11363494 -0.81601399 0.42128909
0.1101982 -0.81600511 0.42123806
-0.14542857 -0.78323388 0.41654289
0.14202721 -0.78322077 0.41646564
-0.17780019 -0.75280553 0.425892
0.17432527 -0.75278878 0.42578876
-0.20917153 -0.68704355 0.41400707
0.20578496 -0.68702126 0.41385376
-0.24179518 -0.6246978 0.42542875
0.23832503 -0.62469107 0.42537749
-0.2733103 -0.49595273 0.41831172
0.26987398 -0.49591419 0.41792691
-0.11433477 -0.8521893 0.44401634
0.11072244 -0.8521747 0.44393837
-0.14630035 -0.81918377 0.43919194
0.1427246 -0.81917024 0.43911421
-0.1788691 -0.78873658 0.44903457
0.17521594 -0.788719 0.44893038
-0.21045887 -0.72264206 0.43789732
0.2068883 -0.72261798 0.43774164
-0.24327457 -0.6600346 0.44945085
0.23961943 -0.66002738 0.44939864
-0.27514517 -0.53076041 0.44479573
0.27150631 -0.53072125 0.44443214
-0.14718169 -0.85552847 0.46209013
0.14342965 -0.85551399 0.46201146
-0.21176252 -0.75865716 0.4620899
0.20800443 -0.75862753 0.46190655
0.27315953 -0.56597561 0.47127759
-0.17995116 -0.82507449 0.47246182
0.17611663 -0.82505095 0.47233021
-0.21307999 -0.79508829 0.48653877
0.20913236 -0.79505241 0.48632705
-0.24477112 -0.69578218 0.47375214
0.24093032 -0.69577813 0.47372568
-0.2770054 -0.5660181 0.47164595
-0.24628523 -0.73194742 0.49833739
0.24225511 -0.73194343 0.49831069
-0.27888787 -0.60172868 0.49881709
0.27483422 -0.601686 0.49847043
-0.24781707 -0.76853812 0.52321184
0.24359548 -0.76853383 0.52318466
-0.28079486 -0.63790369 0.52634132
0.27653065 -0.63786131 0.52601755
-0.28272867 -0.67455649 0.55425394
0.27824935 -0.67451102 0.55392563
-0.28479946 -0.71192813 0.5841428
0.27999073 -0.71164411 0.58220208
0 0 0 1 0 0 0 1 0 0 0 1 0 0 0 0 0 969 1 0 0
