ply
format ascii 1.0
comment PCL generated
element vertex 1082
property float x
property float y
property float z
element camera 1
property float view_px
property float view_py
property float view_pz
property float x_axisx
property float x_axisy
property float x_axisz
property float y_axisx
property float y_axisy
property float y_axisz
property float z_axisx
property float z_axisy
property float z_axisz
property float focal
property float scalex
property float scaley
property float centerx
property float centery
property int viewportx
property int viewporty
property float k1
property float k2
end_header
-0.061187752 -0.8528893 -0.40538728
-0.035985745 -0.85101539 -0.41214931
-0.010917077 -0.85019374 -0.41511381
0.014105944 -0.85019374 -0.41511381
0.039151911 -0.85101968 -0.41213346
0.064302236 -0.8528983 -0.40535522
-0.061180726 -0.8277095 -0.40569162
-0.035938635 -0.82514495 -0.41520953
-0.010889161 -0.82419366 -0.41874051
0.014105944 -0.82419783 -0.41872478
0.039128475 -0.82515353 -0.41517758
0.064297549 -0.82771814 -0.40565944
-0.036081225 -0.80254686 -0.4059478
-0.010959933 -0.80160481 -0.40954685
0.014105944 -0.80160481 -0.40954685
0.039199896 -0.80255944 -0.40589976
-0.086758949 -0.85714895 -0.39001656
0.089756116 -0.85716695 -0.38995171
-0.086753473 -0.83188486 -0.39019442
0.089752004 -0.83190221 -0.39012969
-0.061418563 -0.80530941 -0.39539254
0.064456366 -0.80532217 -0.39534402
-0.11289302 -0.86375755 -0.36616993
0.11570816 -0.86378473 -0.36607158
-0.11297265 -0.83891505 -0.36410129
0.11577236 -0.83894604 -0.36398637
-0.087119244 -0.80977905 -0.37831545
0.090026714 -0.80980039 -0.37823415
-0.036608405 -0.78615171 -0.37170637
-0.011211265 -0.78483284 -0.37689781
0.014105944 -0.78483707 -0.37688172
0.039463244 -0.78615594 -0.3716898
-0.036581233 -0.76035982 -0.37347126
0.039449781 -0.76036787 -0.3734386
-0.011205494 -0.75933099 -0.37764776
0.014105944 -0.75933099 -0.37764776
-0.087759666 -0.89162183 -0.357517
-0.062175751 -0.89017248 -0.36260593
-0.036748521 -0.89017248 -0.36260593
-0.011321288 -0.89017248 -0.36260593
0.014105944 -0.89017248 -0.36260593
0.039533176 -0.89017248 -0.36260593
0.064960405 -0.89017248 -0.36260593
0.0905063 -0.89163595 -0.35746765
-0.088113859 -0.79267842 -0.34601438
-0.062232748 -0.78909057 -0.36013758
0.064999424 -0.78910726 -0.36007166
0.090771951 -0.79269099 -0.34596455
-0.062173471 -0.76301205 -0.3627044
0.064959392 -0.76302022 -0.36267149
-0.036963336 -0.74093872 -0.34865308
0.039640836 -0.74094677 -0.34861982
-0.011391219 -0.73977703 -0.35352099
0.014105944 -0.73977703 -0.35352099
-0.11386152 -0.89632416 -0.34100759
0.11648299 -0.89635265 -0.34090781
-0.1144632 -0.7979213 -0.32537568
0.11696385 -0.79794264 -0.32529151
-0.088667102 -0.77154934 -0.32804728
0.091188833 -0.77158237 -0.32791293
-0.062746152 -0.74350333 -0.33790624
0.065341964 -0.74352318 -0.33782303
-0.062960275 -0.72002727 -0.32863462
-0.037113123 -0.71765095 -0.33892405
-0.011468584 -0.71660078 -0.34347153
0.014105944 -0.71660465 -0.34345484
0.03971573 -0.71765864 -0.33889091
0.065484203 -0.72003877 -0.32858443
-0.03724958 -0.69402003 -0.3300606
-0.011538945 -0.69306672 -0.33433115
0.014105944 -0.69307053 -0.33431435
0.039783966 -0.6940276 -0.3300271
-0.011609698 -0.6694029 -0.32514024
0.014105944 -0.66940653 -0.32512331
-0.11524262 -0.82893521 -0.30512559
0.11759266 -0.82900202 -0.30487025
-0.088970415 -0.74820685 -0.31819689
0.091416337 -0.74823898 -0.31806183
-0.089225851 -0.72435337 -0.30990136
0.091606751 -0.72437298 -0.3098166
-0.063166238 -0.69632936 -0.31971622
0.06562151 -0.69634074 -0.31966555
-0.063373312 -0.6725046 -0.31074989
-0.037386775 -0.67026299 -0.32114959
0.039852563 -0.67027026 -0.32111597
0.065759569 -0.67251551 -0.31069887
-0.037524708 -0.6463787 -0.31219101
-0.011680838 -0.64560813 -0.31589854
0.014105944 -0.6456117 -0.31588173
0.039921526 -0.64638579 -0.31215715
-0.011752376 -0.62168121 -0.30660582
0.014105944 -0.62168473 -0.30658877
-0.11599642 -0.78201997 -0.28554142
0.11819632 -0.78208792 -0.2852658
-0.08948151 -0.70037395 -0.30159891
0.091798112 -0.70038915 -0.30153048
-0.0897379 -0.67627186 -0.29327226
0.091990411 -0.6762867 -0.29320359
-0.089995563 -0.6520502 -0.28490412
-0.063581489 -0.64855188 -0.30173528
0.065898359 -0.64856255 -0.30168402
0.092183672 -0.65206444 -0.28483534
-0.063790791 -0.62447006 -0.29267204
-0.03766337 -0.62236613 -0.30318427
0.039990865 -0.62237281 -0.30315006
0.066037893 -0.62448031 -0.29262078
-0.03780622 -0.5982669 -0.29390621
-0.011824312 -0.59762132 -0.29726112
0.014105944 -0.59762454 -0.29724407
0.040062025 -0.5982669 -0.29390621
-0.037950911 -0.57404727 -0.28450787
-0.011896648 -0.57342708 -0.28786445
0.014105944 -0.57343018 -0.28784716
0.040134504 -0.57405043 -0.2844907
-0.09021242 -0.94038945 -0.27786171
-0.063999236 -0.93869728 -0.28364635
-0.03796418 -0.93869728 -0.28364635
-0.011929117 -0.93869728 -0.28364635
0.014105944 -0.93869728 -0.28364635
0.040141005 -0.93869728 -0.28364635
0.066176064 -0.93869728 -0.28364635
0.092346326 -0.94040978 -0.27779245
-0.11620884 -0.75731677 -0.28002238
0.11836469 -0.75737029 -0.27979767
-0.11632198 -0.73193246 -0.27708304
0.11845468 -0.7319805 -0.27687526
-0.1165268 -0.70703483 -0.27176201
0.11861641 -0.70706576 -0.27162313
-0.11679192 -0.68239301 -0.26487374
0.11882906 -0.68242669 -0.26471698
-0.090254515 -0.6277079 -0.27649462
0.092377886 -0.62772185 -0.27642548
-0.090514757 -0.6032443 -0.26804292
0.092573486 -0.60326105 -0.26795602
-0.064001232 -0.60025811 -0.28356004
0.066178188 -0.60026807 -0.2835083
-0.064212807 -0.57591492 -0.27439868
0.066319242 -0.57592446 -0.27434659
-0.038110822 -0.54985768 -0.2741214
-0.011976045 -0.54925066 -0.27755034
0.014105944 -0.54925066 -0.27755034
0.040214464 -0.54986089 -0.274104
-0.012058074 -0.52497333 -0.26689446
0.014105944 -0.52497333 -0.26689446
-0.11705744 -0.65764725 -0.25797486
0.11904205 -0.65768373 -0.25779986
-0.11732474 -0.63280463 -0.25103045
0.11925537 -0.63283622 -0.25087225
-0.090783291 -0.57870042 -0.25932181
0.092774898 -0.57871658 -0.25923455
-0.091090038 -0.5542419 -0.2493602
-0.064452507 -0.55164647 -0.26401937
0.066478781 -0.55165255 -0.2639848
0.093004964 -0.55425745 -0.24927223
-0.064694889 -0.52723765 -0.25352395
-0.038275212 -0.52555764 -0.26344395
0.040296659 -0.52556056 -0.26342642
0.066640638 -0.52724665 -0.25347126
-0.038440645 -0.50110412 -0.2526989
-0.012140619 -0.50054276 -0.25617123
0.014105944 -0.50054276 -0.25617123
0.040379375 -0.50110692 -0.25268149
-0.012223689 -0.47595766 -0.2453804
0.014105944 -0.47595766 -0.2453804
-0.11759312 -0.60786033 -0.24405766
0.11946955 -0.60788745 -0.24391651
-0.11789671 -0.58297765 -0.23617029
0.1197119 -0.58300054 -0.2360462
-0.11823735 -0.55814415 -0.22732008
0.11998498 -0.55816936 -0.22717762
-0.091398574 -0.52963978 -0.23934019
0.093236379 -0.5296548 -0.23925161
-0.09170948 -0.50489593 -0.22924316
0.093469158 -0.50490743 -0.22917223
-0.064939179 -0.50268084 -0.24294555
0.066803239 -0.50268656 -0.24291027
-0.065184988 -0.47797135 -0.23230159
-0.038607121 -0.47649559 -0.24188602
0.040462613 -0.47649834 -0.24186826
0.066967115 -0.47797677 -0.23226619
-0.03877493 -0.4517332 -0.23098648
-0.012307284 -0.45121643 -0.23452091
0.014105944 -0.45121643 -0.23452091
0.04054638 -0.4517332 -0.23098648
-0.11858045 -0.53318506 -0.21840632
0.12025947 -0.53320932 -0.21826315
-0.11896068 -0.50824481 -0.2085278
0.12056201 -0.5082593 -0.20843768
-0.092021666 -0.48000303 -0.21910477
0.093703307 -0.480014 -0.21903324
-0.092335701 -0.45496276 -0.20890594
-0.065432332 -0.45310739 -0.22159123
0.067132019 -0.45311269 -0.22155559
0.093939267 -0.45497593 -0.20881605
-0.065680817 -0.42808557 -0.21083176
-0.038943537 -0.42681023 -0.22003543
-0.012391413 -0.42631742 -0.22359216
0.014105944 -0.42631996 -0.2235744
0.040630683 -0.42681023 -0.22003543
0.06729795 -0.42809296 -0.21077788
-0.039113216 -0.4017278 -0.20901406
-0.012476079 -0.40125936 -0.21259379
0.014105944 -0.40126172 -0.21257591
0.040715523 -0.4017278 -0.20901406
-0.14658201 -0.69924206 -0.18670404
0.14804347 -0.69941503 -0.18590128
-0.14583817 -0.6691134 -0.2028085
0.1474261 -0.6692937 -0.20194077
-0.14580311 -0.64230418 -0.20356727
0.14737184 -0.64234757 -0.20335042
-0.14596179 -0.61631382 -0.20013165
0.14750618 -0.61636627 -0.1998601
-0.1462348 -0.59072798 -0.19422102
0.14773372 -0.59077829 -0.19394863
-0.14650874 -0.56505454 -0.18829012
0.14796203 -0.56510299 -0.18801665
-0.11935563 -0.48321125 -0.19826639
0.120878 -0.48322532 -0.19817591
-0.11975364 -0.45803145 -0.1879257
0.12119587 -0.45804206 -0.18785274
-0.092651606 -0.42977396 -0.1986469
0.094176203 -0.42978656 -0.19855618
-0.092969388 -0.40443513 -0.18832672
0.094414547 -0.40444705 -0.1882354
-0.065931268 -0.40290919 -0.19998693
0.067464642 -0.40291402 -0.19995058
-0.066182882 -0.37757206 -0.1890918
-0.039283991 -0.37648436 -0.19792223
-0.012561288 -0.37604061 -0.20152485
0.014105944 -0.37604296 -0.20150673
0.04080091 -0.37648436 -0.19792223
0.067632668 -0.37757874 -0.1890372
-0.039455861 -0.35107851 -0.18675876
-0.012647046 -0.35065982 -0.19038463
0.014105944 -0.3506619 -0.19036651
0.040886849 -0.35107851 -0.18675876
-0.14678361 -0.53929323 -0.18233895
0.14819112 -0.53933978 -0.18206453
-0.1471858 -0.51388597 -0.17363131
0.14852139 -0.51390982 -0.17348421
-0.12015334 -0.43269843 -0.17754126
0.1215162 -0.43271115 -0.1774497
-0.12055543 -0.40721366 -0.16709495
0.12183788 -0.4072257 -0.16700268
-0.093297526 -0.37897885 -0.17766976
0.09465982 -0.37898561 -0.17761481
-0.093637921 -0.35340455 -0.16661525
-0.066436507 -0.35207722 -0.17810965
0.067801468 -0.35208151 -0.17807305
0.094914697 -0.35340869 -0.16657841
-0.066691302 -0.32641885 -0.16707635
-0.039628841 -0.32550851 -0.17552304
-0.012733357 -0.32511514 -0.17917252
0.014105944 -0.32511714 -0.17915428
0.040973477 -0.32551044 -0.17550492
0.067971632 -0.32642478 -0.16702104
-0.012817247 -0.29936641 -0.16827512
0.014105944 -0.29936641 -0.16827512
-0.14761049 -0.48841974 -0.16443658
0.14887461 -0.48843965 -0.16430724
-0.1480374 -0.46281895 -0.15519333
0.14923041 -0.46283796 -0.15506327
-0.14846574 -0.43708006 -0.14591968
0.14958809 -0.4371008 -0.14577031
-0.12095992 -0.38157579 -0.15658569
0.1221615 -0.38158718 -0.15649295
-0.12136759 -0.35578558 -0.14599442
0.12248707 -0.35579413 -0.14591992
-0.093979903 -0.32766539 -0.15550888
0.095171615 -0.32767138 -0.15545332
-0.094270572 -0.30158871 -0.14606905
-0.066922866 -0.30048987 -0.15704942
-0.039793842 -0.29971349 -0.16480613
0.041055981 -0.29971543 -0.16478765
0.068125725 -0.30049354 -0.15701246
0.095389202 -0.30159244 -0.14603186
-0.067043006 -0.27396089 -0.151847
-0.039888993 -0.27333462 -0.15862596
-0.012866151 -0.27303013 -0.16192222
0.014105944 -0.27303189 -0.16190362
0.041103557 -0.27333641 -0.15860736
0.068205819 -0.27396429 -0.15180969
-0.067083858 -0.24706084 -0.15007854
-0.039935842 -0.24659479 -0.15558314
-0.012891669 -0.24633861 -0.15860736
0.014105944 -0.24633861 -0.15860736
0.041126978 -0.24659634 -0.15556479
0.06823305 -0.24706411 -0.15004122
-0.067028835 -0.21981415 -0.15246105
-0.039916977 -0.21947968 -0.15680826
-0.012882967 -0.21925402 -0.15973771
0.014105944 -0.21925545 -0.15971911
0.041117404 -0.21947968 -0.15680826
0.068196371 -0.21981713 -0.15242386
-0.066970877 -0.19259554 -0.15497029
-0.039889283 -0.19234344 -0.15860724
-0.012868999 -0.1921396 -0.16155207
0.014105944 -0.1921396 -0.16155207
0.041103557 -0.19234344 -0.15860724
0.068157732 -0.19259799 -0.15493333
-0.0669889 -0.16561791 -0.15418994
-0.039909266 -0.16542572 -0.15730929
-0.012877833 -0.16523513 -0.16040444
0.014105944 -0.16523513 -0.16040444
0.04111369 -0.16542691 -0.15729082
0.068169177 -0.16561791 -0.15418994
-0.067030981 -0.13868454 -0.15236795
-0.039935261 -0.13850921 -0.15562034
-0.012889812 -0.13833532 -0.15884829
0.014105944 -0.13833532 -0.15884829
0.041126691 -0.13851017 -0.15560174
0.068197519 -0.13868544 -0.15234935
-0.067110531 -0.11179791 -0.14892316
-0.039988205 -0.11164739 -0.15218198
-0.012916233 -0.11149799 -0.15541625
0.014105944 -0.11149799 -0.15541625
0.041153163 -0.11164833 -0.15216339
0.068250261 -0.11179791 -0.14892316
-0.040059619 -0.084778897 -0.14754343
-0.012951015 -0.084649839 -0.15089774
0.014105944 -0.084649839 -0.15089774
0.041188724 -0.084778897 -0.14754343
-0.012989912 -0.057748459 -0.14584506
0.014105944 -0.057748459 -0.14584506
-0.1488972 -0.41120717 -0.13657832
0.14994696 -0.41122442 -0.13644683
-0.14933008 -0.38519442 -0.12720609
0.15030698 -0.3852084 -0.12709284
-0.12177698 -0.32983717 -0.13535798
0.1228146 -0.32984522 -0.13528287
-0.1220392 -0.30334231 -0.1285454
0.12302439 -0.30334985 -0.12846994
-0.12213433 -0.27634174 -0.12607348
-0.094411604 -0.27491766 -0.14148915
0.095494971 -0.27492097 -0.14145184
0.1231005 -0.27634865 -0.1259979
-0.12201887 -0.24883953 -0.12907326
-0.094438121 -0.24786115 -0.14062786
0.095514856 -0.24786434 -0.14059055
0.12300812 -0.24884605 -0.12899768
-0.12182689 -0.22123066 -0.13406134
-0.094352849 -0.22051194 -0.14339745
0.0954509 -0.22051471 -0.14336014
0.12285452 -0.22123638 -0.13398623
-0.12177192 -0.1939452 -0.13548923
-0.094295301 -0.19326782 -0.14526606
0.095407747 -0.19327036 -0.14522898
0.1228094 -0.19394776 -0.13545179
-0.12179072 -0.16679969 -0.13500106
-0.094310835 -0.16619855 -0.1447618
0.095419392 -0.16620082 -0.14472437
0.12282444 -0.16680202 -0.13496351
-0.1218638 -0.13972262 -0.13310254
-0.094355144 -0.13917187 -0.14332259
0.095452629 -0.13917381 -0.14328527
0.1228829 -0.13972467 -0.13306487
-0.12198189 -0.11267037 -0.13003433
-0.094439276 -0.11218274 -0.14059067
0.095515728 -0.11218452 -0.14055312
0.12297737 -0.11267219 -0.12999666
-0.094573796 -0.085214712 -0.13622165
-0.067220017 -0.084908254 -0.14418256
0.068323247 -0.084908254 -0.14418256
0.095616624 -0.085216187 -0.1361841
-0.094733581 -0.058204494 -0.13103247
-0.067344941 -0.057966106 -0.13877308
-0.040140152 -0.057857193 -0.14231265
0.041228995 -0.057857193 -0.14231265
0.068406537 -0.057966106 -0.13877308
0.095736466 -0.058205612 -0.13099492
-0.067521095 -0.030992009 -0.13114536
-0.04025735 -0.03090997 -0.13470042
-0.013048392 -0.030827992 -0.13824809
0.014105944 -0.030827992 -0.13824809
0.041287735 -0.030910388 -0.13468146
0.068524256 -0.030992538 -0.13112664
-0.013119601 -0.0038161203 -0.12899768
0.014105944 -0.0038161203 -0.12899768
-0.14976528 -0.35904306 -0.1177839
0.15066968 -0.35905617 -0.11767006
-0.15014908 -0.3326267 -0.10947466
0.15099026 -0.33264101 -0.10934091
-0.15022218 -0.30540925 -0.10789192
0.15105045 -0.30542064 -0.1077776
-0.15019926 -0.27797544 -0.10838783
0.15102988 -0.27798244 -0.10831153
-0.15000658 -0.25023794 -0.11255944
0.15086932 -0.25024441 -0.11248326
-0.14977403 -0.22249827 -0.11759412
0.15067479 -0.22250268 -0.11753714
-0.14967595 -0.19503778 -0.11971784
0.15059377 -0.19504303 -0.11964202
-0.14960946 -0.16765228 -0.12115741
0.15053764 -0.16765568 -0.12110078
-0.14964707 -0.14041013 -0.12034297
0.15056972 -0.14041421 -0.12026739
-0.14973111 -0.11320201 -0.1185236
0.15063974 -0.11320543 -0.11844778
-0.1498968 -0.086033903 -0.11493611
-0.12215178 -0.08562278 -0.12562025
0.12311387 -0.085624836 -0.12556374
0.15077637 -0.086035319 -0.11489809
-0.15019134 -0.058896556 -0.10855937
-0.12237532 -0.058549963 -0.11981261
0.12329154 -0.058550611 -0.11979365
0.15102181 -0.058897614 -0.10852134
-0.12265156 -0.031419516 -0.11263561
-0.094954349 -0.031160265 -0.12386286
0.095902041 -0.031161033 -0.12382519
0.12351312 -0.031420283 -0.11259747
-0.095286593 -0.0040612258 -0.11307299
-0.067756131 -0.0039396472 -0.12096822
-0.040407032 -0.0038780011 -0.12497807
0.041362435 -0.0038780011 -0.12497807
0.068680659 -0.0039396472 -0.12096822
0.096151672 -0.0040621683 -0.11301589
-0.068088517 0.023236949 -0.10657501
-0.040627837 0.023268184 -0.11063671
-0.01322975 0.023299241 -0.11468899
0.014105944 0.023299418 -0.11470795
0.041472834 0.023268184 -0.11063671
0.068902254 0.023236949 -0.10657501
-0.1783853 -0.47184125 -0.093507528
0.17913665 -0.47196218 -0.092680573
-0.17856786 -0.44481191 -0.0901196
0.17926827 -0.44485193 -0.089830756
-0.17846306 -0.25197342 -0.092064738
0.17916864 -0.25197989 -0.091987729
-0.17801607 -0.22382492 -0.10035992
0.17878549 -0.22383088 -0.10028315
-0.17793661 -0.19627687 -0.1018343
0.17871737 -0.19628212 -0.10175776
-0.17789432 -0.16879389 -0.10261893
0.17868114 -0.16879854 -0.1025424
-0.17795311 -0.14142403 -0.10152793
0.17873153 -0.14142811 -0.10145164
-0.17808938 -0.11410388 -0.098999143
0.17884834 -0.11410729 -0.098922491
-0.17825793 -0.086767741 -0.095871329
0.17899281 -0.086770751 -0.095794678
-0.17858344 -0.059473164 -0.089830875
0.17927183 -0.059475586 -0.089753628
-0.15052496 -0.03168042 -0.10133648
0.15129983 -0.03168118 -0.10129833
-0.15117128 -0.0044574402 -0.087342978
-0.12312776 -0.0042584799 -0.10026395
0.12389467 -0.0042593032 -0.10020649
0.1518392 -0.0044582076 -0.08728528
-0.095731765 0.023175657 -0.098615646
0.096485116 0.023175362 -0.09857738
-0.068472989 0.050635017 -0.089927077
-0.040880896 0.050634958 -0.094199896
-0.013354812 0.050635017 -0.098443151
0.014105944 0.050635017 -0.098443151
0.041599363 0.050634958 -0.094199896
0.069158569 0.050635017 -0.089927077
-0.17898196 -0.50104469 -0.082435012
0.17964832 -0.50117284 -0.081602573
-0.1789038 -0.41810283 -0.083885431
0.17955984 -0.41815099 -0.083518147
-0.17924196 -0.39130312 -0.077610016
0.17985064 -0.3913509 -0.07722199
-0.17958234 -0.36441126 -0.071293235
0.18013707 -0.3644428 -0.071020603
-0.17945966 -0.33649611 -0.073569894
0.1800283 -0.33651716 -0.073375463
-0.17931516 -0.30857557 -0.076251507
0.17990175 -0.30858925 -0.076115608
-0.17897154 -0.28035501 -0.08262825
0.17960539 -0.28036392 -0.082531571
-0.20722811 -0.22603256 -0.071682572
0.2077806 -0.22604305 -0.071546316
-0.20689537 -0.19799149 -0.077086091
0.20748834 -0.19799945 -0.076969624
-0.2067007 -0.17017171 -0.080246925
0.20731802 -0.17017883 -0.080130816
-0.20658146 -0.14246646 -0.082183361
0.2072116 -0.14247072 -0.082105875
-0.20676275 -0.11501659 -0.07923913
0.20737025 -0.11502018 -0.079161525
-0.2070317 -0.087575965 -0.074872255
0.20760661 -0.087579794 -0.0747751
-0.20740929 -0.060122676 -0.068740726
0.20793599 -0.060124919 -0.068662763
-0.1790289 -0.032137036 -0.08156395
0.17965367 -0.032138921 -0.081486225
-0.1798103 -0.0047696121 -0.067062974
0.18032436 -0.0047710277 -0.06696558
-0.1519009 0.022967268 -0.071546316
-0.1237098 0.023071816 -0.085141778
0.12436033 0.023071462 -0.085083842
0.15244724 0.022966854 -0.071488023
-0.096259207 0.050634958 -0.081486344
-0.12437485 0.050635077 -0.067863107
0.096881151 0.050635077 -0.081428409
0.12489179 0.050635077 -0.067824006
-0.06891007 0.078306958 -0.071001053
-0.041167699 0.078271829 -0.075571775
-0.013495781 0.078236647 -0.080130577
0.014105944 0.078236647 -0.080130577
0.041742764 0.078271829 -0.075571775
0.069450252 0.07830707 -0.070981622
-0.20841773 -0.28315043 -0.052365899
0.20882264 -0.28316507 -0.052208304
-0.2076112 -0.25422603 -0.065462112
0.20811373 -0.25423428 -0.065364361
-0.23647335 -0.17210218 -0.048899412
0.23685038 -0.17210945 -0.048781157
-0.23642963 -0.1442261 -0.049530149
0.23681276 -0.14423347 -0.049392223
-0.23641735 -0.11638045 -0.049707532
0.2368018 -0.11638681 -0.049569607
-0.20813091 -0.03270375 -0.057023048
0.20856848 -0.032706045 -0.056925058
-0.18073171 0.022801014 -0.049963593
0.18111511 0.022800189 -0.049845576
-0.15271142 0.050635017 -0.053998113
0.15312268 0.050634958 -0.053939104
-0.12513058 0.078482285 -0.048228979
-0.096858591 0.078376204 -0.062020659
0.097330712 0.078376614 -0.061962008
0.12549637 0.078482695 -0.04818964
-0.069313176 0.10624775 -0.053545833
-0.04143998 0.10618103 -0.057886481
-0.013633685 0.10611426 -0.06221652
0.014105944 0.10611426 -0.06221652
0.041878905 0.10618103 -0.057886481
0.069718696 0.10624775 -0.053545833
-0.20956141 -0.31282449 -0.033794641
0.20982346 -0.31284031 -0.033635616
-0.23720482 -0.22859925 -0.038341284
0.23750553 -0.22861433 -0.038143158
-0.23664695 -0.20011789 -0.046393991
0.23700468 -0.20012602 -0.046275496
-0.23666471 -0.088682048 -0.046137333
0.23702294 -0.088688113 -0.045979381
-0.23702773 -0.060979992 -0.040897489
0.23734565 -0.060984828 -0.040739059
-0.20907156 -0.0051594041 -0.041748643
0.20939161 -0.0051609352 -0.041649818
-0.18181103 0.050634958 -0.029933929
0.1820403 0.050635137 -0.029814482
-0.15361887 0.078589246 -0.03435123
0.15387893 0.078589723 -0.034291625
-0.12580869 0.10660088 -0.030611277
-0.097397551 0.10638677 -0.044517517
0.097734936 0.10638766 -0.044458151
0.12603949 0.1066017 -0.030551314
-0.069715634 0.13445657 -0.036119103
-0.041707635 0.13435538 -0.040501475
-0.013767192 0.13425443 -0.044872999
0.014105944 0.1342549 -0.044853449
0.042012889 0.13435584 -0.040481567
0.069987305 0.13445705 -0.036099195
-0.013902146 0.16266739 -0.027342319
0.014105944 0.16266739 -0.027342319
-0.21097945 -0.34326443 -0.010768771
0.21107303 -0.34329912 -0.010446548
-0.23920023 -0.28710657 -0.009540081
0.2392769 -0.28712142 -0.0093790293
-0.23817298 -0.25770587 -0.024367571
0.23836741 -0.25772455 -0.02414763
-0.2670278 -0.14615861 -0.013665318
0.26714164 -0.14617053 -0.013444185
-0.26702937 -0.11804616 -0.013645291
0.26713887 -0.11805364 -0.013484597
-0.26731279 -0.090074293 -0.0099631548
0.26739258 -0.090079837 -0.0098222494
-0.23802909 -0.033410013 -0.026444316
0.23823579 -0.033413604 -0.026284814
-0.23924768 -0.0056657046 -0.0088551044
0.23931912 -0.0056682974 -0.0086936951
-0.21018507 0.022598753 -0.023667932
0.21036597 0.02259781 -0.023567796
-0.1828199 0.078767285 -0.011211634
0.18290418 0.078767993 -0.011110783
-0.15443887 0.10681657 -0.016597629
0.15456228 0.10681758 -0.016537309
-0.12649421 0.1349951 -0.012800694
-0.097941771 0.13467079 -0.026843429
0.098143116 0.13467227 -0.026783586
0.12658793 0.13499647 -0.012740612
-0.098491333 0.16323246 -0.008996129
-0.070122458 0.16293955 -0.018503189
-0.041978195 0.16280323 -0.022927999
0.042148169 0.16280401 -0.022908092
0.070258521 0.1629402 -0.018483043
0.098554835 0.16323352 -0.0089558363
-0.01403841 0.19135696 -0.0096408129
0.014105944 0.19135696 -0.0096408129
-0.26826957 -0.20350289 0.0024656057
0.26825655 -0.20351556 0.0026481152
-0.26762635 -0.17475069 -0.0058902502
0.26768318 -0.17476684 -0.0056278706
-0.26831639 -0.062333941 0.0030740499
0.26829588 -0.06233824 0.0032160282
-0.21147023 0.050635017 -0.0027991533
0.21149056 0.050635017 -0.0026979446
-0.18380746 0.10718179 0.0071152449
0.18375164 0.1071835 0.0072370768
-0.15526786 0.13532184 0.001350522
0.15525313 0.13532326 0.0014115572
-0.12718648 0.16366893 0.0051847696
0.12714113 0.16367015 0.0052253008
-0.099045679 0.19207448 0.0090068579
-0.070533253 0.19170043 -0.00071525574
-0.042251393 0.19152832 -0.0051835775
0.042284768 0.1915291 -0.005163312
0.070532382 0.19170117 -0.00069510937
0.098971069 0.19207695 0.0090681314
-0.014176009 0.2203269 0.0082335472
0.014105944 0.2203269 0.0082335472
-0.24181747 -0.31903207 0.028236389
0.24161495 -0.31906706 0.02858603
-0.26909462 -0.23256555 0.013183475
0.26900059 -0.23258129 0.013387442
-0.2695885 -0.03447336 0.019599199
0.26944089 -0.034476601 0.01974237
-0.24075055 0.022317637 0.012836695
0.24065886 0.022315869 0.013061166
-0.21260536 0.078973971 0.015632629
0.21248384 0.078974679 0.015734673
-0.18480609 0.13588288 0.025647163
0.1846067 0.13588542 0.025749803
-0.15610506 0.16410905 0.019476533
0.1559508 0.16411081 0.019537568
-0.12788481 0.19262579 0.023327947
0.12770045 0.1926282 0.023389578
-0.099606141 0.22120321 0.027208328
-0.070948064 0.22074309 0.017246962
-0.042527266 0.22053465 0.012734771
0.042422548 0.22053465 0.012734771
0.070808932 0.22074398 0.017267346
0.099391431 0.22120592 0.027270317
-0.042805851 0.24982616 0.03082931
-0.014314961 0.24958122 0.02628386
0.014105944 0.24958122 0.02628386
0.04256184 0.24982616 0.03082931
-0.27136266 -0.26338044 0.04264605
0.27106071 -0.26342076 0.043122768
-0.30055666 -0.1496048 0.050288558
0.3001821 -0.14961836 0.050538182
-0.30031189 -0.12086561 0.04739821
0.29996598 -0.120881 0.047730684
-0.27110761 -0.006407626 0.039332986
0.27081248 -0.006410867 0.039539933
-0.24217272 0.050635017 0.033363938
0.24192064 0.050634958 0.033549666
-0.21375065 0.10759916 0.034230113
0.21348715 0.10760105 0.034354091
-0.18581481 0.16487554 0.044366956
0.1854714 0.16487879 0.044470787
-0.15695056 0.1931822 0.037782192
0.15665463 0.19318378 0.037823677
-0.12859088 0.22187126 0.04167223
0.12826532 0.22187397 0.041734338
-0.10017219 0.25062189 0.045591235
-0.071366973 0.25007191 0.035386086
0.071087889 0.25007191 0.035386086
0.09981551 0.25062394 0.04563272
-0.043087184 0.27940753 0.049102664
-0.014455283 0.27912474 0.044512272
0.014105944 0.27912474 0.044512272
0.042702507 0.27940753 0.049102664
-0.21535771 -0.37960932 0.060325265
0.21496898 -0.37978572 0.06185317
-0.3017489 -0.17907757 0.06436789
0.30128706 -0.1791099 0.064892054
-0.30150405 -0.092824109 0.061476588
0.30105636 -0.092840247 0.06189537
-0.27287993 0.02193645 0.062355995
0.27240631 0.021934919 0.062544584
-0.24352995 0.079261273 0.052954197
0.24312721 0.079262689 0.053141594
-0.21490888 0.13651556 0.053037524
0.21449953 0.13651803 0.053141475
-0.18683384 0.19416338 0.063277721
0.18634489 0.19416761 0.063382626
-0.15780355 0.22254464 0.056249976
0.15736626 0.22254747 0.056312561
-0.12930401 0.25140905 0.060199857
0.12883584 0.25141242 0.06026268
-0.10074325 0.28033334 0.06413722
-0.07178954 0.27968967 0.053683758
0.071369924 0.27969077 0.053704739
0.1002443 0.28033739 0.064200163
-0.043370999 0.30928138 0.067536712
-0.014596999 0.30896142 0.062921643
0.014105944 0.30896142 0.062921643
0.042844575 0.30928272 0.067557693
-0.30307725 -0.064704329 0.080054879
0.30249336 -0.064719886 0.080562472
0.27378657 0.050635017 0.082467079
-0.27441341 0.050635077 0.082276464
-0.24490312 0.10819262 0.072774053
0.2443479 0.10819557 0.072963476
-0.21607895 0.16572744 0.07203722
0.21552339 0.16573067 0.072142243
-0.21726102 0.19523945 0.091231823
0.21655777 0.1952436 0.0913378
-0.18786332 0.22375157 0.082382202
0.18722734 0.22375658 0.082488179
-0.15866606 0.25220224 0.074923635
0.15808505 0.25220585 0.074986935
-0.13002428 0.28124335 0.078913331
0.12941143 0.28124601 0.07895565
-0.1013207 0.31034505 0.082890511
-0.072216794 0.30960333 0.072184443
0.071654759 0.30960467 0.072205544
0.1006774 0.31034938 0.08295393
-0.072648317 0.33981591 0.090870023
-0.043657966 0.33945453 0.086175919
-0.014739962 0.33909413 0.081493378
0.014105944 0.33909568 0.081514478
0.042988062 0.33945611 0.086197019
0.071942449 0.33981743 0.090891242
-0.30441681 -0.2099745 0.095874429
0.30371147 -0.21000996 0.096386313
-0.30535853 -0.036491729 0.10699594
0.30456287 -0.03650216 0.10744643
-0.27596173 0.079641752 0.10238957
0.27518168 0.079643339 0.10260367
-0.24628955 0.1374335 0.092785001
0.2455817 0.13743851 0.092997909
-0.21845531 0.22505587 0.11062419
0.21760283 0.22506091 0.11073184
-0.18890224 0.25364321 0.10166216
0.18811888 0.25365007 0.10179067
-0.15953726 0.28215942 0.093786001
0.15881108 0.28216311 0.093849897
-0.13075103 0.31137758 0.097794771
0.1299935 0.31138197 0.097858667
-0.101904 0.34065971 0.10183346
0.10111488 0.34066474 0.10189736
-0.073084183 0.37033212 0.10974336
-0.043947808 0.3699306 0.10500205
-0.014884524 0.36953014 0.1002723
0.014105944 0.36953014 0.1002723
0.043132819 0.3699306 0.10500205
0.072233029 0.370334 0.10976481
-0.27752841 0.10896178 0.12274146
0.27659035 0.10896479 0.12293613
-0.24769235 0.1669898 0.11303294
0.24682747 0.16699575 0.11322653
-0.219662 0.255182 0.13021851
0.21865875 0.25518781 0.13032711
-0.18995304 0.28384528 0.12116301
0.18901865 0.28385195 0.12127113
-0.16041631 0.31241831 0.11281765
0.15954365 0.31242296 0.11288249
-0.13148597 0.34181896 0.11688864
0.13058147 0.34182373 0.11695361
-0.10249321 0.37128267 0.12096858
0.10155631 0.37128636 0.12101185
-0.073524445 0.40115666 0.12880743
-0.044240579 0.40071413 0.12401819
-0.015030542 0.40027279 0.11924064
0.014105944 0.40027279 0.11924064
0.043279208 0.40071413 0.12401819
0.072526209 0.40115666 0.12880743
-0.30749607 -0.00783813 0.13223886
0.30650491 -0.0078447312 0.13267386
-0.2791121 0.13860045 0.14331436
0.27801582 0.13860494 0.14351118
-0.24910885 0.1968655 0.1334784
0.24808806 0.19687375 0.13369608
-0.22087991 0.28562087 0.14999485
0.21972565 0.28562903 0.15012646
-0.19101481 0.31436172 0.14086688
0.18992878 0.31436932 0.14097607
-0.16130531 0.34298715 0.13206506
0.1602845 0.34299216 0.1321305
-0.13222839 0.37257043 0.13617766
0.13117476 0.37257427 0.13622129
-0.10308777 0.40221611 0.14027739
0.10200274 0.40222207 0.14034295
-0.073968679 0.43229181 0.14804292
-0.044536322 0.43180972 0.14322686
-0.015178038 0.43132675 0.13840103
0.014105944 0.43132675 0.13840103
0.043427076 0.43180972 0.14322686
0.07282269 0.43229392 0.14806485
-0.30946478 0.02121946 0.15548825
0.30829501 0.021216102 0.15592837
-0.28077435 0.16858703 0.16490769
0.27952886 0.16860071 0.16534996
-0.25054231 0.22706714 0.15416837
0.24936236 0.22707722 0.15438831
-0.22211196 0.31638026 0.17000055
0.22080258 0.31638798 0.17011142
-0.19208768 0.34519741 0.16077673
0.19084844 0.34520584 0.160887
-0.16220644 0.37387446 0.15157533
0.16103801 0.3738856 0.15170717
-0.13297759 0.4036355 0.15564215
0.1317748 0.40364149 0.15570831
-0.10368909 0.433469 0.15980625
0.10245375 0.43347555 0.15987217
-0.074417934 0.46374646 0.16749656
-0.044834733 0.46321985 0.16260922
-0.015327035 0.46269661 0.15775621
0.014105944 0.46269661 0.15775621
0.043576449 0.46322197 0.16263127
0.073122203 0.46374884 0.16751873
-0.31145963 0.050635077 0.17904627
0.3101072 0.050635137 0.17946947
-0.2825951 0.19898555 0.18855989
0.28116792 0.19900286 0.18900752
-0.25199145 0.25759977 0.17508483
0.25065061 0.25761169 0.17530727
-0.22335698 0.34746367 0.19021738
0.22189203 0.34747225 0.19032943
-0.19317183 0.37635711 0.18089604
0.19177777 0.37636667 0.18100762
-0.16313125 0.40510944 0.17159772
0.16180788 0.40511951 0.17170858
-0.13373534 0.43502232 0.17532945
0.13238102 0.43502912 0.17539608
-0.10429662 0.46504396 0.17953658
0.10290942 0.4650512 0.17960334
-0.074871808 0.49552369 0.18714976
-0.045136534 0.49495363 0.18221223
-0.015477555 0.49438757 0.17730927
0.014105944 0.49438757 0.17730927
0.043727357 0.49495617 0.18223464
0.073424794 0.49552646 0.18717229
-0.25345498 0.28846693 0.19620931
0.25195172 0.28848085 0.1964339
-0.1942662 0.40784448 0.20120549
0.19271691 0.40785706 0.20134079
-0.16406579 0.43667379 0.19183135
0.1625867 0.43668503 0.19194353
-0.13450095 0.46673438 0.19522059
0.13299353 0.46674156 0.19528806
-0.10491046 0.49694654 0.19947112
0.10336929 0.49695173 0.19951618
-0.075330362 0.52762866 0.20700574
-0.045441456 0.52701408 0.20201707
-0.015629623 0.52640414 0.19706357
0.014105944 0.52640414 0.19706357
0.043879814 0.52701682 0.20203948
0.073730499 0.52763146 0.20702851
-0.31517822 0.08057002 0.22296083
0.313701 0.08059442 0.22615397
-0.28443673 0.22976059 0.21248329
0.28282735 0.22978264 0.21295953
-0.25493628 0.31967726 0.21759009
0.25326857 0.31969288 0.21781719
-0.22461517 0.37887654 0.21064806
0.22299302 0.3788861 0.21076131
-0.19537346 0.43966827 0.22175348
0.19366498 0.43967971 0.2218672
-0.16501024 0.46857288 0.21227944
0.1633738 0.46858507 0.21239269
-0.13527453 0.49877644 0.2153188
0.13361172 0.49878162 0.21536422
-0.10552999 0.52917874 0.21959102
0.10383447 0.52918714 0.21965909
-0.075793661 0.5600661 0.22706723
-0.045749523 0.55940646 0.22202659
-0.015783262 0.55875158 0.21702194
0.014105944 0.55875158 0.21702194
0.044033855 0.55940944 0.22204947
0.07403937 0.56006908 0.22709024
-0.28630137 0.26092008 0.23670566
0.28450751 0.26094741 0.23721063
-0.25643247 0.35123342 0.23918581
0.25460011 0.35125276 0.23943865
-0.22588681 0.41062418 0.23129678
0.22410578 0.41063467 0.2314111
-0.19649251 0.47183192 0.24252081
0.19462425 0.47184435 0.24263573
-0.16596477 0.50081187 0.23294532
0.16416928 0.50082505 0.23306
-0.13605532 0.531151 0.23560429
0.13423708 0.53115952 0.23567307
-0.10615671 0.56175143 0.23994422
0.10430453 0.56176031 0.24001324
-0.076261789 0.59284151 0.2473377
-0.046060793 0.59213579 0.24224448
-0.015938321 0.5914318 0.23716486
0.014105944 0.59143507 0.2371875
0.044189312 0.59213579 0.24224448
0.074351102 0.59284151 0.2473377
-0.28818944 0.29247126 0.26123238
0.28620881 0.29250422 0.26176691
-0.25794703 0.38314432 0.26104653
0.25594512 0.38316387 0.26127875
-0.22717063 0.44270945 0.25214338
0.22523041 0.44272318 0.25228214
-0.19762363 0.50434142 0.26351118
0.19559382 0.5043546 0.26362741
-0.16692951 0.53339636 0.25383282
0.16497329 0.53341049 0.25394857
-0.13684522 0.563869 0.25612628
0.13486901 0.56387818 0.25619578
-0.10679003 0.59466696 0.26051199
0.10477953 0.59467661 0.26058173
-0.076734275 0.62595654 0.26779711
-0.046375327 0.62520719 0.26267362
-0.016095176 0.62445623 0.2575407
0.014105944 0.62445623 0.2575407
0.044346578 0.62520719 0.26267362
0.074666448 0.62595981 0.26782048
-0.2901032 0.32442328 0.28609312
0.28793171 0.32446077 0.28663409
-0.25947863 0.41541433 0.28315318
0.25730669 0.41543615 0.28338838
-0.2284697 0.47514236 0.27323747
0.22636592 0.47515479 0.27335441
-0.19876693 0.5372017 0.28472841
0.19657384 0.53721613 0.28484595
-0.16790357 0.5663287 0.27492177
0.16578595 0.56634694 0.27506232
-0.13764346 0.59693283 0.27686512
0.13550763 0.5969426 0.27693546
-0.10743006 0.627931 0.28129745
0.10525903 0.62793803 0.28134441
-0.077212274 0.65942323 0.28849494
-0.046693161 0.65862596 0.2833178
-0.016253678 0.65782732 0.27813053
0.014105944 0.65782732 0.27813053
0.044505499 0.65862596 0.2833178
0.074985117 0.65942675 0.28851843
-0.3210251 0.11156808 0.29200912
0.3190124 0.11161646 0.295151
-0.26102754 0.44805023 0.30551016
0.25868225 0.44807157 0.30572426
-0.22979884 0.50795639 0.29482031
0.22753409 0.50798118 0.2950331
-0.19992265 0.57041878 0.30617595
0.19756453 0.57043421 0.30629492
-0.16888927 0.59962076 0.29626274
0.16660652 0.59963691 0.29638112
-0.13845019 0.63034832 0.29782474
0.13615231 0.63035524 0.29787183
-0.10807617 0.66154563 0.30228055
0.10574418 0.6615566 0.30235183
-0.047014348 0.69239807 0.30417967
-0.016413851 0.69155073 0.29893792
0.014105944 0.69155073 0.29893792
0.044666089 0.69239807 0.30417967
-0.29203951 0.35678053 0.31124663
0.28967816 0.35682645 0.31184256
-0.26259249 0.48105487 0.32809794
0.26007488 0.48108062 0.32833827
-0.23118383 0.54121459 0.31730998
0.22874612 0.54124099 0.31752527
-0.20108971 0.60399526 0.32783353
0.19856602 0.60401523 0.32797778
-0.16988569 0.63327533 0.31783593
0.16743691 0.63329262 0.31795561
-0.13926463 0.66411734 0.31898439
0.13680461 0.66412842 0.31905615
-0.10872992 0.6955232 0.32351196
-0.077695332 0.69324398 0.30941212
0.075307161 0.69324785 0.30943561
0.10623451 0.69553512 0.32358348
-0.078019843 0.72622412 0.3234638
-0.047243759 0.72548175 0.31908
-0.016535414 0.72474498 0.31472933
0.014105944 0.72474086 0.31470549
0.044780977 0.72548592 0.31910384
0.075523503 0.72622824 0.32348788
-0.29400253 0.38955444 0.3367461
0.29144537 0.38960543 0.33735001
-0.23258318 0.57484949 0.34003246
0.22997066 0.57487804 0.34025013
-0.17089303 0.6672982 0.33964527
0.16827641 0.66731697 0.33976638
-0.14000964 0.69792044 0.33834016
0.1373999 0.69792825 0.33838856
-0.10907502 0.72813034 0.3347193
0.10649278 0.72813845 0.3347677
-0.07842426 0.76003325 0.34097564
-0.047498278 0.75908351 0.33561194
-0.016654989 0.75813651 0.33026254
0.014105944 0.75813651 0.33026254
0.044908054 0.75908351 0.33561194
0.075792752 0.76003325 0.34097564
-0.29599273 0.42275339 0.36259973
0.29323542 0.42280766 0.36318672
-0.26417699 0.51443988 0.350968
0.26148352 0.51446807 0.35121143
-0.23400009 0.60887355 0.36303985
0.2312106 0.60890418 0.36325991
-0.20227085 0.63794345 0.34975278
0.19957739 0.63796115 0.34987438
-0.17159249 0.70057958 0.35478938
0.16885839 0.70059538 0.35488665
-0.14046481 0.73074639 0.3501662
0.1377648 0.73075873 0.35023892
-0.10969301 0.76247913 0.35478914
0.1069563 0.76248765 0.35483801
-0.078921393 0.79485369 0.36250174
-0.047828816 0.79385203 0.35708058
-0.01682 0.79285765 0.35169804
0.014105944 0.79286212 0.35172188
0.045073695 0.79386103 0.35712922
0.076124549 0.79485816 0.36252654
-0.26577976 0.54820967 0.374102
0.26290688 0.54823691 0.37432349
-0.23543184 0.64328712 0.386289
0.23246484 0.64332348 0.38653624
-0.20343591 0.6721831 0.37137377
0.20057493 0.67219841 0.371472
-0.20392008 0.70471299 0.38035905
0.20098996 0.70472908 0.38045752
-0.17228819 0.7340802 0.36985147
0.16943912 0.734101 0.36997402
-0.14130569 0.76552844 0.37201273
0.13843676 0.76553726 0.37206161
-0.11036576 0.79746521 0.37663686
0.10746142 0.79747874 0.37671101
-0.048225217 0.8297745 0.38282764
-0.017010463 0.82854527 0.37644017
0.014105944 0.82854998 0.37646449
0.045271713 0.82977909 0.38285244
-0.2980088 0.45638403 0.38878953
0.29504868 0.45644113 0.38935912
-0.26740107 0.58237034 0.39750373
0.26434818 0.58239985 0.39772785
-0.23621449 0.67643619 0.39899743
0.23314571 0.67646295 0.39917171
-0.20512453 0.739645 0.4027108
0.20202355 0.73966616 0.40283549
-0.17332552 0.76912236 0.39231026
0.17030552 0.769153 0.39248407
-0.14215575 0.80069107 0.39409792
0.1391176 0.80070496 0.39417231
-0.11129779 0.83440846 0.40690577
-0.079538204 0.83100277 0.38921058
0.076535761 0.83100784 0.38923538
0.10816047 0.83442277 0.40698087
-0.30005124 0.49045506 0.41532195
0.2968857 0.49051455 0.41587412
-0.26903954 0.61692613 0.42115343
0.26580635 0.61696088 0.42140496
-0.23714718 0.71017438 0.41414249
0.23396461 0.71021104 0.41436827
-0.20635596 0.77500981 0.42556298
0.20308028 0.77503669 0.42571437
-0.17460309 0.80547118 0.41997039
0.17136928 0.80549908 0.42012131
-0.048834659 0.86886299 0.42241228
-0.017294327 0.86704195 0.41331494
0.014105944 0.86704707 0.41333973
0.045576438 0.86886793 0.42243731
-0.30212063 0.52497476 0.44220364
0.29874685 0.52503651 0.44273794
-0.27004939 0.65051848 0.43572891
0.26670095 0.65054798 0.43593156
-0.23862654 0.74564928 0.43816411
0.23525919 0.74568808 0.43839276
-0.14350192 0.83867431 0.4290725
0.14019534 0.83869374 0.42917335
-0.080515996 0.87069184 0.43155015
0.077188015 0.87070197 0.43160093
-0.27101868 0.68424541 0.44971979
0.26756734 0.68428856 0.45000064
-0.20829216 0.81314284 0.4614948
0.20474237 0.8131808 0.46169984
-0.11311479 0.87756979 0.46591461
0.10952506 0.87760067 0.4660691
-0.30421743 0.55995256 0.46944225
0.30063272 0.56001586 0.46995771
-0.27271757 0.71988994 0.4742409
0.26907289 0.71992326 0.47444737
-0.24073857 0.78331304 0.47245967
0.23711158 0.78336781 0.47276914
-0.17695118 0.84670639 0.47080863
0.17333116 0.84676099 0.4710921
-0.30626187 0.59526032 0.49599993
0.30245689 0.59529781 0.49628723
-0.30623576 0.62725013 0.49566042
0.30243698 0.62729698 0.49599993
-0.30790585 0.66245747 0.5173558
0.30393118 0.66248828 0.51756704
-0.27502841 0.7574079 0.50759518
0.2711353 0.75746572 0.5079366
-0.31007826 0.69900358 0.54557669
0.30591065 0.69908983 0.54613793
0 0 0 1 0 0 0 1 0 0 0 1 0 0 0 0 0 1082 1 0 0
