ply
format ascii 1.0
comment PCL generated
element vertex 750
property float x
property float y
property float z
element camera 1
property float view_px
property float view_py
property float view_pz
property float x_axisx
property float x_axisy
property float x_axisz
property float y_axisx
property float y_axisy
property float y_axisz
property float z_axisx
property float z_axisy
property float z_axisz
property float focal
property float scalex
property float scaley
property float centerx
property float centery
property int viewportx
property int viewporty
property float k1
property float k2
end_header
-0.034924477 -0.86487603 -0.43351662
-0.010468289 -0.86263102 -0.44161713
0.013863184 -0.86263549 -0.44160128
0.038257375 -0.86488903 -0.4334693
-0.035123888 -0.84397185 -0.42056441
-0.010567483 -0.84177148 -0.42873108
0.013863184 -0.84177148 -0.42873108
0.038357086 -0.84398472 -0.42051673
-0.010667369 -0.82073683 -0.41575575
0.013863184 -0.82074112 -0.41573966
-0.010668844 -0.79625499 -0.4155643
0.013863184 -0.79625499 -0.4155643
-0.059971228 -0.89732265 -0.40524399
-0.035359763 -0.89732265 -0.40524399
-0.01074829 -0.89732265 -0.40524399
0.013863184 -0.89732265 -0.40524399
0.038474657 -0.89732265 -0.40524399
0.06308613 -0.89732265 -0.40524399
-0.059859447 -0.87136972 -0.41008449
0.063014068 -0.87141407 -0.40992439
-0.060167484 -0.85038912 -0.39674604
0.063219197 -0.8504284 -0.39660096
-0.059987918 -0.82367724 -0.40452158
-0.035318028 -0.8227787 -0.40795445
0.038453791 -0.8227787 -0.40795445
0.063098237 -0.82369411 -0.40445733
-0.035314329 -0.798127 -0.40819502
0.038452186 -0.79813522 -0.40816283
-0.035415679 -0.7751599 -0.40161216
-0.010722613 -0.77344358 -0.40857947
0.013863184 -0.77344745 -0.40856349
0.038502861 -0.7751677 -0.4015801
-0.010824271 -0.75200915 -0.39537382
0.013863184 -0.7520169 -0.39534128
-0.06029629 -0.80245227 -0.39116895
0.063304827 -0.80248517 -0.39103925
-0.060424782 -0.77910304 -0.38560462
0.063389748 -0.77912313 -0.38552344
-0.03562063 -0.75369734 -0.38829994
0.038605217 -0.75370109 -0.38828373
-0.010926897 -0.7304005 -0.38204205
0.013863184 -0.73040426 -0.38202584
-0.06073644 -0.75756091 -0.37210941
0.063597783 -0.75758439 -0.3720113
-0.035827048 -0.73205161 -0.37489283
0.038708549 -0.732059 -0.37486029
-0.011078514 -0.71000743 -0.36234653
0.013863184 -0.71001101 -0.36233008
-0.086235687 -0.81251371 -0.35156202
0.088937335 -0.81251371 -0.35156202
-0.086413324 -0.78891009 -0.34579313
0.089076333 -0.78897172 -0.34554315
-0.061245091 -0.73778093 -0.35008419
0.063937411 -0.73781163 -0.34995139
-0.036139026 -0.71173006 -0.35462928
0.038864672 -0.71174121 -0.35457957
-0.036349796 -0.6896798 -0.34093928
0.038970061 -0.68969077 -0.3408891
-0.011183014 -0.68799156 -0.34877157
0.013863184 -0.68799883 -0.34873819
-0.011336494 -0.94428593 -0.32883394
0.013863184 -0.94428593 -0.32883394
-0.086854234 -0.76725805 -0.33147395
0.089407071 -0.76731831 -0.33122182
-0.06156639 -0.71585077 -0.33617151
0.06415163 -0.71588063 -0.33603764
-0.061890453 -0.69373208 -0.32213938
0.064367689 -0.69376123 -0.3220042
-0.036562093 -0.66743928 -0.32715034
-0.011288395 -0.66579068 -0.33508229
0.013863184 -0.66579765 -0.33504879
0.039076209 -0.66744995 -0.32709968
-0.011394795 -0.6434055 -0.32126045
0.013863184 -0.64340895 -0.32124352
-0.062217318 -0.67142248 -0.30798602
0.06458535 -0.6714474 -0.30786657
-0.036776453 -0.64501345 -0.31322706
0.039183393 -0.64502358 -0.31317627
-0.011501968 -0.6208269 -0.30733812
0.013863184 -0.62083018 -0.30732131
-0.062546998 -0.6489197 -0.29370999
0.064805165 -0.64894384 -0.29358947
-0.036992382 -0.62239259 -0.2992022
0.039291363 -0.62240267 -0.29915071
-0.037210159 -0.59957826 -0.28505719
-0.011610188 -0.59805906 -0.29328012
0.013863184 -0.59806222 -0.29326284
0.039400253 -0.59958774 -0.28500545
-0.062879562 -0.626221 -0.27930963
0.065027148 -0.62624758 -0.27917111
-0.063215435 -0.60332704 -0.26476598
0.065251082 -0.60335284 -0.26462615
-0.037429806 -0.57656747 -0.2707907
-0.011719199 -0.57509291 -0.2791189
0.013863184 -0.57509595 -0.27910161
0.039509945 -0.57657361 -0.27075565
-0.011829285 -0.55193239 -0.26481855
0.013863184 -0.55193239 -0.26481855
-0.063554257 -0.58023179 -0.25009441
0.065476984 -0.58025688 -0.24995327
-0.037651356 -0.55335802 -0.25640059
0.039620724 -0.55336398 -0.25636554
-0.011940185 -0.52856892 -0.25041211
0.013863184 -0.52857184 -0.25039434
-0.063896075 -0.55693263 -0.23529351
0.065704882 -0.55695683 -0.23515105
-0.037874822 -0.52994716 -0.2418859
0.039732464 -0.52995294 -0.24185038
-0.038099967 -0.50632954 -0.22726262
-0.012052048 -0.5050028 -0.23588085
0.013863184 -0.50500548 -0.23586321
0.039845172 -0.50633782 -0.22720897
-0.064241335 -0.53342974 -0.22034311
0.065935075 -0.53345311 -0.22019935
-0.038327351 -0.48250821 -0.21249318
-0.012165021 -0.48123404 -0.221205
0.013863184 -0.48123667 -0.22118711
0.039958868 -0.48251614 -0.2124393
-0.012278846 -0.45725468 -0.20641875
0.013863184 -0.45725965 -0.20638275
-0.012266582 -0.27412558 -0.20801187
0.013863184 -0.2741271 -0.20799387
-0.038405821 -0.24804324 -0.20739651
-0.012248486 -0.24781492 -0.21036243
0.013863184 -0.24781621 -0.21034443
0.039997824 -0.24804452 -0.20737839
-0.012264771 -0.22184975 -0.20824707
0.013863184 -0.2218523 -0.20821095
-0.064589262 -0.50971442 -0.20527756
0.066166766 -0.50973403 -0.20515049
-0.064939879 -0.48578429 -0.19009531
0.066400528 -0.48580286 -0.18996751
-0.038557019 -0.45847997 -0.19757605
0.040073566 -0.45848498 -0.19753957
-0.01239381 -0.43306696 -0.19148457
0.013863184 -0.43306944 -0.19146621
-0.012427608 -0.32847846 -0.18709409
0.013863184 -0.32847846 -0.18709409
-0.064902738 -0.30176178 -0.1917038
-0.03854581 -0.30115214 -0.19830406
-0.012323115 -0.30093369 -0.2006681
0.013863184 -0.3009353 -0.20064998
0.04006768 -0.30115214 -0.19830406
0.066374078 -0.30176356 -0.19168532
-0.091191798 -0.27559936 -0.19060743
-0.064734764 -0.27489066 -0.19897723
-0.038437609 -0.27435249 -0.20533204
0.040013582 -0.27435249 -0.20533204
0.066262372 -0.27489373 -0.19894087
0.092655264 -0.27560243 -0.19057071
-0.091150165 -0.24923155 -0.1919595
-0.064681441 -0.24851361 -0.20128572
0.066226825 -0.24851632 -0.20124936
0.092624038 -0.24923441 -0.1919229
-0.091250934 -0.22320496 -0.18868673
-0.06473434 -0.22249076 -0.19899535
-0.038443189 -0.22207689 -0.20496929
0.04001651 -0.22207817 -0.20495117
0.066262096 -0.22249331 -0.19895887
0.092699617 -0.22320743 -0.18865025
-0.064899355 -0.19673163 -0.19184983
-0.038551413 -0.19635648 -0.19793999
-0.012317242 -0.19614142 -0.20143116
0.013863184 -0.1961426 -0.20141304
0.040070623 -0.19635756 -0.19792187
0.066372104 -0.19673379 -0.19181347
-0.01240929 -0.17060539 -0.18947363
0.013863184 -0.17060646 -0.18945539
-0.065293215 -0.46163657 -0.17479551
0.066636384 -0.46165705 -0.17464769
-0.038788434 -0.43423691 -0.18254507
0.040189274 -0.43424171 -0.18250859
-0.038979996 -0.40944368 -0.17010283
-0.012496743 -0.40845692 -0.17811322
0.013863184 -0.40845922 -0.17809463
0.040285058 -0.40944812 -0.17006588
-0.012539621 -0.38274023 -0.17254305
0.013863184 -0.38274232 -0.17252469
-0.038975153 -0.35656655 -0.17041731
-0.012520578 -0.35607076 -0.175017
0.013863184 -0.35607269 -0.17499852
0.040282495 -0.35656852 -0.17039871
-0.091869332 -0.33032885 -0.16860366
-0.06520851 -0.32934225 -0.17846298
-0.038756784 -0.3287279 -0.18460119
0.040173449 -0.32873163 -0.18456423
0.066577926 -0.32934397 -0.17844462
0.093163855 -0.33033448 -0.16854799
-0.11829036 -0.30386665 -0.16891825
-0.091429874 -0.30257726 -0.18287587
0.092833824 -0.30258062 -0.18283904
0.11958772 -0.30387178 -0.16886282
-0.11802582 -0.27685392 -0.17579162
0.11937608 -0.27685863 -0.17573619
-0.11794991 -0.25032437 -0.17776334
0.11931536 -0.25032866 -0.17770803
-0.11806556 -0.22416981 -0.17475855
0.11940846 -0.22417507 -0.17468476
-0.091505691 -0.19743587 -0.18041337
0.092891112 -0.19743937 -0.18035805
-0.065192789 -0.17116207 -0.17914391
-0.038740974 -0.17081267 -0.18562794
0.040165402 -0.17081363 -0.1856097
0.066567734 -0.17116411 -0.17910731
-0.038984265 -0.14524052 -0.16982532
-0.012529954 -0.14505699 -0.17379904
0.013863184 -0.14505863 -0.17376184
0.040287051 -0.14524142 -0.16980672
-0.065647587 -0.43725914 -0.15945065
0.066872366 -0.43727618 -0.15932047
-0.065824665 -0.41169995 -0.15178275
0.066990145 -0.41171384 -0.15167069
-0.065807834 -0.38505325 -0.15251207
-0.03904159 -0.38348398 -0.16610205
0.040315859 -0.38348821 -0.16606498
0.066978343 -0.3850618 -0.15243721
-0.065602042 -0.35753584 -0.16142285
0.066840574 -0.35753977 -0.16138566
-0.1188255 -0.3316887 -0.15501475
0.12001644 -0.33169624 -0.15493989
-0.14564216 -0.30570889 -0.14897585
0.14678791 -0.3057175 -0.14888227
-0.14522803 -0.27836531 -0.1579423
0.14644277 -0.27837324 -0.15784907
-0.14514288 -0.25170818 -0.15978587
0.1463711 -0.2517139 -0.15971136
-0.14538392 -0.22556889 -0.15456653
0.14657199 -0.22557409 -0.1544919
-0.11840519 -0.19832754 -0.16593528
0.11968073 -0.19833326 -0.16584253
-0.11898804 -0.17268988 -0.15079153
-0.091931514 -0.17183894 -0.16658437
0.093210503 -0.17184187 -0.16652858
0.12014764 -0.17269588 -0.15067935
-0.092426449 -0.14613257 -0.15051091
-0.065561265 -0.14554705 -0.16318822
0.066813394 -0.14554875 -0.16315138
0.093580835 -0.14613342 -0.15049243
-0.039229542 -0.11942992 -0.15389442
-0.012652449 -0.11927631 -0.15788627
0.013863184 -0.11927767 -0.15784919
0.040409833 -0.11943139 -0.15385711
-0.093040727 -0.38758785 -0.13056159
0.094043307 -0.38759881 -0.13046682
-0.11970482 -0.36068854 -0.13216972
-0.092493325 -0.35894588 -0.14833891
0.093632296 -0.3589541 -0.14826393
0.12071933 -0.36069465 -0.13211286
-0.14628315 -0.33368185 -0.13509846
0.14732209 -0.33369118 -0.13500416
-0.17325744 -0.28074488 -0.12984204
0.17425665 -0.28075284 -0.12974727
-0.17323193 -0.25397679 -0.13031554
0.17423654 -0.25398701 -0.13018298
-0.14591163 -0.19973114 -0.14314139
0.1470125 -0.19973703 -0.14304745
-0.11961897 -0.14687669 -0.13439989
0.12065298 -0.14688285 -0.13426769
-0.092925452 -0.12018393 -0.13430536
-0.065932766 -0.11969149 -0.147102
0.067061059 -0.11969285 -0.14706445
0.093955092 -0.12018466 -0.13428652
-0.066308193 -0.093593419 -0.13084543
-0.039477389 -0.093379289 -0.13779616
-0.012776084 -0.093255267 -0.14182544
0.013863184 -0.093255833 -0.14180672
0.040533617 -0.093379796 -0.13777733
0.067311354 -0.093594551 -0.13080752
-0.093535528 -0.41629291 -0.11449265
0.094416186 -0.4163141 -0.11432064
-0.1737116 -0.30825499 -0.12141371
0.17464948 -0.30827072 -0.12124264
-0.17359272 -0.22771288 -0.12361979
0.17454582 -0.22772215 -0.12348664
-0.14666599 -0.17398214 -0.1268096
0.14764187 -0.17398819 -0.12669587
-0.12025665 -0.12081793 -0.11783266
0.12116256 -0.12082244 -0.11771822
-0.093428567 -0.093989879 -0.11796618
0.094332881 -0.093991056 -0.11792803
-0.066686735 -0.067248076 -0.11445439
-0.039727561 -0.067084298 -0.12154686
-0.012900732 -0.066989899 -0.12563288
0.013863184 -0.066990808 -0.12559509
0.040658705 -0.067084625 -0.12152803
0.067564011 -0.067249268 -0.11439717
-0.12094269 -0.39111567 -0.10000885
0.12171203 -0.39113131 -0.099873781
-0.14749649 -0.36320409 -0.10882843
0.148334 -0.36321649 -0.10871339
-0.17473018 -0.336943 -0.10251129
0.17551997 -0.33695453 -0.10239565
-0.17440012 -0.2018562 -0.10863674
0.17524058 -0.20186801 -0.10844505
-0.14743546 -0.14799684 -0.11015046
0.14828384 -0.14800295 -0.11001635
-0.14821318 -0.12176178 -0.093311548
0.14893204 -0.12176694 -0.093176126
-0.12090117 -0.094509691 -0.10108721
0.12167764 -0.094512686 -0.10099077
-0.093937047 -0.067548394 -0.10145271
0.094714686 -0.067549691 -0.10139513
-0.06706886 -0.040652875 -0.097907662
-0.039980091 -0.040541403 -0.10514462
-0.013026703 -0.040477946 -0.10926914
0.013863184 -0.040478401 -0.109231
0.04078497 -0.040541742 -0.10512543
0.067818768 -0.040653668 -0.097849965
-0.013153864 -0.013715113 -0.092750788
0.013863184 -0.013715396 -0.092731237
-0.20285967 -0.28469205 -0.083227277
0.20350721 -0.2847102 -0.083013296
-0.20293158 -0.25769156 -0.082060099
0.20357221 -0.25771108 -0.081806898
-0.17533436 -0.17589578 -0.091299176
0.17604235 -0.17590715 -0.091086268
-0.17627794 -0.14967617 -0.073788881
0.17685121 -0.14968613 -0.073573709
-0.1489985 -0.095272571 -0.076309443
0.14958501 -0.095275566 -0.076211929
-0.12155194 -0.067947224 -0.084179997
0.12219828 -0.067949489 -0.084082723
-0.094450362 -0.040854897 -0.084782481
0.095099695 -0.040855858 -0.084724069
-0.067455076 -0.01380419 -0.081184149
-0.040234718 -0.013747068 -0.088606358
0.040912285 -0.013747238 -0.088586807
0.06807626 -0.013804698 -0.081125498
-0.013282081 0.013301886 -0.076094508
0.013863184 0.01330183 -0.076055408
-0.14939356 -0.39483991 -0.067756295
0.1499165 -0.394858 -0.067599297
-0.1765734 -0.36757123 -0.068305612
0.17710361 -0.36759245 -0.068109274
-0.20358795 -0.31287485 -0.071401834
0.20415509 -0.31291279 -0.070990682
-0.20374602 -0.23150849 -0.06883502
0.20429024 -0.23153292 -0.068482041
-0.177232 -0.12319465 -0.056083083
0.17766729 -0.12320155 -0.055905461
-0.14979053 -0.068524957 -0.059161544
0.15024507 -0.068527207 -0.059062958
-0.12220902 -0.041126933 -0.06710875
0.12272397 -0.041128572 -0.067010522
-0.094969198 -0.013906216 -0.067932963
0.095488831 -0.013906782 -0.067873955
-0.067844555 0.01330183 -0.064319372
-0.040492062 0.01330183 -0.071891189
0.041040957 0.013301773 -0.071871519
0.068335913 0.013301773 -0.064260364
-0.040751867 0.040609471 -0.055016398
-0.013411675 0.040576726 -0.059260011
0.013863184 0.040576894 -0.059240222
0.041170709 0.040609471 -0.055016398
-0.2056708 -0.34344086 -0.037580371
0.20597371 -0.34347475 -0.037240982
-0.20492488 -0.20548631 -0.049692392
0.20532519 -0.20551193 -0.049276114
-0.17819464 -0.096445486 -0.038218737
0.17849249 -0.096451029 -0.038039327
-0.1505903 -0.041515984 -0.041845918
0.15091079 -0.041517284 -0.041766167
-0.12287249 -0.014045233 -0.049870849
0.12325478 -0.014045967 -0.049771786
-0.095492415 0.01330183 -0.050940752
0.095881261 0.013301886 -0.050881505
-0.068237767 0.040668853 -0.04729259
0.068598375 0.040669534 -0.047213078
-0.041013859 0.068178907 -0.037999272
-0.013542511 0.068113133 -0.042263865
0.013863184 0.068113588 -0.042243958
0.041301861 0.06817919 -0.037979364
-0.12346857 -0.42615968 -0.034384489
0.12373598 -0.42618924 -0.034144521
-0.20611784 -0.17918149 -0.030321479
0.20636925 -0.17920429 -0.029900551
-0.17916703 -0.069425434 -0.02017355
0.1793251 -0.069429114 -0.020012379
-0.15139791 -0.014241708 -0.024360299
0.15158385 -0.014242275 -0.024279833
-0.12354326 0.01330183 -0.032444119
0.12379017 0.01330183 -0.032383919
-0.096020684 0.040772751 -0.033784628
0.096277937 0.040773541 -0.033704638
-0.096554093 0.068510383 -0.01646173
-0.068634793 0.068300456 -0.030100942
0.068863064 0.068301752 -0.030020952
0.096678011 0.068511695 -0.016380906
-0.041278694 0.096014678 -0.020798326
-0.013674453 0.095914736 -0.025124192
0.013863184 0.095915258 -0.025104046
0.041434124 0.096014678 -0.020798326
-0.20732638 -0.15259023 -0.010697484
0.20742369 -0.1526072 -0.010332584
-0.18014821 -0.042130016 -0.0019650459
0.18016714 -0.042132728 -0.0017819405
-0.15221351 0.013301886 -0.0067020655
0.15226355 0.01330183 -0.0066207647
-0.12421984 0.04091844 -0.014865756
0.12433147 0.040919006 -0.014805079
-0.12490314 0.068808436 0.0028866529
0.12487812 0.068809234 0.0029476881
-0.097093329 0.096519321 0.0010503531
-0.069036134 0.096201196 -0.012722015
0.069130331 0.096202552 -0.012661338
0.097082451 0.09652102 0.0011320114
-0.041545775 0.12411965 -0.0034505129
-0.013807829 0.12398595 -0.0077980757
0.013863184 0.12398651 -0.0077779293
0.041567821 0.12412032 -0.0034300089
-0.20854571 -0.12570371 0.0091023445
0.20849085 -0.12571801 0.0094711781
-0.18114054 -0.014555765 0.016450047
0.18101683 -0.014557123 0.016614795
-0.15303719 0.041118592 0.011131406
0.15294999 0.04111921 0.011213303
-0.12559322 0.096975788 0.020815372
0.1254302 0.096977204 0.020877123
-0.097637221 0.12480223 0.018713832
-0.069440939 0.12437409 0.0048063993
0.069400519 0.12437658 0.0048879385
0.097490393 0.12480476 0.018796206
-0.041815776 0.15249926 0.014086723
-0.013942344 0.15232953 0.0096760988
0.013863184 0.1523302 0.0096964836
0.041702822 0.15249993 0.01410687
-0.20977986 -0.098519698 0.029142499
0.20957094 -0.098531172 0.029515505
-0.18214306 0.013301942 0.035054564
0.18187526 0.013301942 0.0352
-0.15386814 0.06921225 0.029121757
0.15364248 0.069213614 0.029204726
-0.1262902 0.12542462 0.038923502
0.12598717 0.12542582 0.038964987
-0.098187111 0.15336479 0.03657198
-0.069849715 0.15282333 0.022506714
0.069673046 0.15282661 0.022588968
0.09790235 0.15336716 0.036634445
-0.070262514 0.18155318 0.04038167
-0.042088103 0.18115559 0.03177464
-0.014078334 0.18095092 0.027341485
0.013863184 0.18095188 0.027362347
0.041838989 0.18115656 0.031795502
0.069948271 0.18155703 0.040464878
-0.21102649 -0.071031868 0.049385428
0.21066198 -0.071040571 0.049762249
-0.18315482 0.041447185 0.053830266
0.18274352 0.041448597 0.05399847
-0.15470836 0.097587675 0.047313213
0.15434271 0.097589493 0.047396779
-0.12699416 0.15415919 0.057213306
0.12655036 0.15416077 0.057255507
-0.098741807 0.1822094 0.054586291
0.09831886 0.18221331 0.054670215
-0.070679896 0.2105691 0.058454633
-0.042363428 0.21009494 0.049657583
-0.014215659 0.20985383 0.045180798
0.013863184 0.20985486 0.04520154
0.041976649 0.21009614 0.049678445
0.070226207 0.21057239 0.058517814
-0.21228841 -0.043235973 0.069876194
0.21176636 -0.043241799 0.070257425
-0.1841782 0.069885105 0.072822332
0.1836198 0.069887422 0.072970867
-0.15555608 0.12624791 0.065666676
0.15504998 0.12625125 0.065772057
-0.12770525 0.18318398 0.075688004
0.12711924 0.18318602 0.075730443
-0.099302679 0.21134219 0.072800994
0.09873905 0.21134546 0.072864652
-0.07110095 0.23987284 0.076686859
-0.042641476 0.23932064 0.067717314
-0.014354181 0.23904073 0.063175201
0.013863184 0.23904207 0.063196182
0.042115513 0.23932064 0.067717314
0.070507243 0.2398781 0.076771736
-0.21356323 -0.015126476 0.090576768
0.2128821 -0.015129471 0.09096241
-0.18521228 0.098619878 0.092012525
0.18450624 0.098623455 0.09216249
-0.15641335 0.15519892 0.084226847
0.1557644 0.1552031 0.084333777
-0.12842357 0.21250321 0.0943501
0.12769391 0.21250567 0.094393015
-0.099868491 0.2407652 0.091176748
0.099163927 0.24077052 0.09126246
-0.071526222 0.26947007 0.095101595
-0.04292196 0.26883498 0.085935235
-0.014494238 0.26851851 0.081369281
0.013863184 0.26852009 0.081390381
0.042255916 0.26883635 0.085956693
0.070790768 0.26947582 0.095187306
-0.21485388 0.013301773 0.111534
0.21401161 0.013301773 0.11192381
-0.18625608 0.12765583 0.11138237
0.18540198 0.12766092 0.1115557
-0.15727934 0.18444434 0.10297585
0.15648609 0.18444943 0.10308385
-0.1291492 0.24212164 0.11320257
0.12827441 0.24212435 0.11324596
-0.10044067 0.27048546 0.10975862
0.099592574 0.27048999 0.10982347
-0.071955763 0.29936492 0.11370134
-0.04320557 0.29864559 0.10435629
-0.014635529 0.298289 0.09972322
0.013863184 0.29829058 0.099744678
0.042397559 0.29864559 0.10435629
0.071077153 0.29937172 0.11378813
-0.21615785 0.042054314 0.13270843
0.21515286 0.042057369 0.13310289
-0.18731201 0.15699849 0.13097847
0.18630716 0.15700515 0.13115358
-0.15815315 0.21398762 0.12189507
0.15721434 0.21399339 0.12200391
-0.12988228 0.27204376 0.13224828
0.12886089 0.27204672 0.13229215
-0.10101797 0.30050471 0.12850654
0.10002606 0.30051145 0.12859416
-0.072390161 0.3295643 0.13251114
-0.043491699 0.32875374 0.12294066
-0.014778398 0.32835919 0.11828268
0.013863184 0.32836121 0.11830437
0.042540792 0.32875553 0.12296259
0.071366757 0.32957149 0.13259888
-0.18837917 0.18665247 0.15078247
0.18722093 0.18665949 0.15093732
-0.15904716 0.24384898 0.14125037
0.15796274 0.24386126 0.14144826
-0.13062289 0.30227414 0.15149057
0.12945341 0.30227742 0.15153444
-0.10160179 0.33083057 0.14746702
0.10046345 0.33083624 0.1475333
-0.072828464 0.36006844 0.15149045
-0.043781046 0.35916716 0.14173448
-0.01492271 0.35873264 0.13702941
0.013863184 0.35873455 0.13705122
0.0426853 0.35916716 0.14173448
0.071658976 0.36007652 0.15157902
-0.21812141 0.071297988 0.16459239
0.21696505 0.071330905 0.16673291
-0.18945649 0.21662149 0.17077529
0.18814546 0.21663116 0.17095399
-0.15996692 0.27404699 0.16116369
0.15872842 0.27405909 0.16134179
-0.1313712 0.33281741 0.1709317
0.13005206 0.33282113 0.1709764
-0.1021909 0.36146402 0.16659904
0.10090581 0.3614724 0.16668832
-0.073271245 0.39088449 0.17066336
-0.044072986 0.38988689 0.16069651
-0.015068313 0.38941136 0.15594363
0.013863184 0.38941354 0.15596592
0.04283144 0.38988915 0.16071868
0.071954176 0.39089331 0.17075288
-0.1905466 0.24691291 0.19100487
0.18907991 0.24692419 0.19118536
-0.16089547 0.30456623 0.1812675
0.15950316 0.30458179 0.18147016
-0.13212729 0.36367893 0.19057548
0.13065694 0.36368316 0.19062066
-0.10278674 0.39241412 0.18594956
0.10135219 0.39242074 0.18601727
-0.07371857 0.42201659 0.1900332
-0.044368241 0.42092198 0.17987406
-0.015215568 0.42040423 0.17507267
0.013863184 0.42040688 0.17509508
0.042979069 0.42092437 0.17989647
0.072252408 0.42202654 0.19012356
-0.22047108 0.10117719 0.20274663
0.21902338 0.10122776 0.20493054
-0.19164845 0.27753103 0.21145236
0.19002444 0.27754375 0.21163499
-0.16183504 0.33541533 0.20161009
0.16028538 0.33543053 0.20179188
-0.1328913 0.39486346 0.21042466
0.13126816 0.39486805 0.21047056
-0.10338803 0.42368108 0.20547712
0.10180371 0.42369089 0.20556808
-0.074171044 0.45347297 0.20962584
-0.044666179 0.45227212 0.19922566
-0.015364155 0.45171198 0.19437492
0.013863184 0.45171723 0.1944201
0.043128036 0.45227459 0.19924819
0.072554074 0.45348355 0.20971727
-0.16278371 0.36659566 0.22214949
0.16107687 0.36661488 0.2223562
-0.13366243 0.42637363 0.23045981
0.1318858 0.42638093 0.23052907
-0.10399627 0.45527467 0.22523022
0.10225937 0.45528284 0.22529924
-0.074627683 0.48525316 0.22939909
-0.044967528 0.48394749 0.21879864
-0.015514445 0.48334402 0.21389794
0.013863184 0.48334664 0.21392071
0.043278717 0.48395026 0.21882176
0.072858512 0.48526463 0.22949111
-0.22286889 0.13166805 0.24168181
0.22112387 0.13173659 0.24391055
-0.19276094 0.30847919 0.23209858
0.19097921 0.30849525 0.23230636
-0.16374376 0.39811704 0.24293506
0.16187614 0.39813557 0.24312103
-0.10461013 0.48719516 0.24516582
0.10271978 0.48720372 0.24523532
-0.075089619 0.51736778 0.24940145
-0.045271996 0.51595098 0.2385745
-0.015666289 0.5153029 0.23362315
0.013863184 0.51530582 0.23364627
0.043430775 0.51595098 0.2385745
0.073166132 0.51737684 0.24947143
-0.19388688 0.33976609 0.25299275
0.19194439 0.33978403 0.25320292
-0.16471431 0.42998272 0.2639482
0.16268408 0.43000031 0.26411247
-0.13444263 0.45821935 0.25072992
0.13250998 0.45822731 0.25080001
-0.10523114 0.51945275 0.26533365
0.10318555 0.51946187 0.26540422
-0.045579273 0.54828399 0.25853288
-0.015819533 0.54759079 0.25352991
0.013863184 0.54759401 0.25355315
0.043584593 0.54828721 0.25855637
-0.19504675 0.37143308 0.27451718
0.19294739 0.37147018 0.27491856
-0.16569442 0.46219587 0.28516841
0.16350183 0.46221772 0.28535819
-0.13523111 0.49040362 0.27121544
0.1331408 0.49041221 0.27128625
-0.10585797 0.55204707 0.28569031
-0.075555861 0.54981613 0.26959026
0.073477328 0.54982913 0.26968455
0.10365569 0.55205709 0.28576148
-0.045890126 0.58095831 0.27872324
-0.015974553 0.58021891 0.27366769
0.013863184 0.58022243 0.2736913
0.04373984 0.58095831 0.27872324
-0.1962904 0.40358698 0.29759681
0.1940147 0.40362996 0.29802668
-0.16668645 0.49476743 0.30664647
0.1643286 0.4947913 0.30683863
-0.13602713 0.52292907 0.29189646
0.13377836 0.52294141 0.29199171
-0.076027572 0.58261001 0.29001594
-0.10649216 0.58498979 0.30628622
0.073791452 0.58262044 0.29008722
0.10413136 0.58500022 0.3063587
-0.046203878 0.6139726 0.29910219
-0.016131019 0.61318594 0.29399335
0.013863184 0.61319321 0.29404116
0.043896899 0.61397612 0.29912603
-0.1975503 0.43612874 0.32097685
0.19509479 0.43617561 0.32141173
-0.13683259 0.55580676 0.31282318
0.13442278 0.55582011 0.3129195
-0.076503724 0.61574793 0.31063378
0.074108899 0.61575896 0.31070602
-0.046521317 0.64733905 0.31971991
-0.016289322 0.64650452 0.31455719
0.013863184 0.64650846 0.31458151
0.044055618 0.64734298 0.31974447
-0.19882402 0.46906006 0.34461439
-0.1676884 0.52769786 0.32833898
0.16516364 0.52772337 0.32853329
-0.13764584 0.58903623 0.33395183
0.13507415 0.58905405 0.33407366
-0.10713237 0.61827976 0.32707775
0.10461153 0.61829084 0.32715046
-0.076985516 0.64924264 0.33149588
0.074429736 0.64925057 0.33154452
-0.046841748 0.68105608 0.3405329
-0.016449114 0.68017244 0.33531535
0.013863184 0.68017662 0.33533943
0.044215836 0.68106031 0.34055722
0.19618681 0.46911106 0.34505475
-0.16870266 0.56099939 0.35029829
0.16600895 0.56102663 0.3504945
-0.13846886 0.62263012 0.35533464
0.13573259 0.62264889 0.35545766
-0.10777941 0.6519255 0.34809124
0.10509683 0.65193748 0.34816515
-0.077471323 0.68308842 0.35253227
0.074754372 0.68310499 0.35263073
-0.047165979 0.71513718 0.36159241
-0.016610801 0.71420348 0.35631859
0.013863184 0.71420348 0.35631859
0.044377767 0.71513718 0.36159241
-0.20011452 0.50239372 0.36856306
0.19729322 0.50244856 0.3690089
-0.16972718 0.59467125 0.37247956
0.16686374 0.59470385 0.37270272
-0.13930085 0.65659088 0.37695086
0.13639748 0.65660697 0.37705028
-0.10843343 0.68593311 0.36933124
0.10558736 0.68594581 0.36940539
-0.077962942 0.7173022 0.37381995
0.075082123 0.71731973 0.37391913
-0.01677403 0.74859488 0.37752283
0.013863184 0.74859959 0.37754786
-0.20141944 0.53613096 0.39277947
0.19841197 0.53619027 0.39323056
-0.17076439 0.62872714 0.3949362
0.16772819 0.62876183 0.39516222
-0.14014298 0.69092888 0.39882958
0.13706966 0.69093752 0.39887965
-0.10909374 0.72030419 0.39077508
0.1060826 0.72031754 0.39085042
-0.078459881 0.75188625 0.3953377
-0.047493696 0.74958438 0.38287795
0.044541623 0.74958438 0.38287795
0.075413436 0.75190479 0.39543808
-0.016939016 0.78335679 0.39895499
0.013863184 0.78336167 0.3989805
-0.20274174 0.57028586 0.41731822
0.19954446 0.57034576 0.41774976
-0.1718134 0.66316986 0.4176482
0.16860148 0.66320264 0.41785133
-0.10976199 0.75505292 0.41247737
0.10658324 0.7550624 0.41252816
-0.078962222 0.78684688 0.41708982
-0.047824558 0.78439856 0.40436828
0.044707052 0.78439856 0.40436828
0.075748347 0.78686643 0.41719139
-0.01710579 0.81849521 0.42061961
0.013863184 0.81850022 0.42064488
-0.14099342 0.72564232 0.42092478
0.13775003 0.72565132 0.42097557
-0.11043677 0.79017663 0.43439114
0.10708992 0.79019123 0.43446815
-0.048159011 0.81959021 0.42609155
0.044874474 0.81959552 0.42611706
-0.20407897 0.60485923 0.4421345
0.20069093 0.60492301 0.44257104
-0.17287442 0.69800639 0.44061935
0.16948575 0.69804132 0.44082487
-0.14185232 0.76073629 0.44323957
0.13843796 0.76075053 0.44331682
-0.20543286 0.63986188 0.46725905
0.20185164 0.63993001 0.46770155
-0.1739476 0.73324323 0.46385491
0.17038018 0.73328 0.46406281
-0.14272079 0.79622185 0.46580303
0.13913438 0.79624671 0.46593344
-0.20680222 0.67529809 0.49267185
0.20302686 0.67537475 0.49314606
-0.17503443 0.76889229 0.48738539
0.17128596 0.76893109 0.48759544
-0.20819026 0.71118402 0.51843035
0.20421934 0.71127433 0.51896346
-0.20960021 0.74753881 0.54459584
0.20542446 0.74762005 0.54505527
0 0 0 1 0 0 0 1 0 0 0 1 0 0 0 0 0 750 1 0 0
