ply
format ascii 1.0
comment PCL generated
element vertex 845
property float x
property float y
property float z
element camera 1
property float view_px
property float view_py
property float view_pz
property float x_axisx
property float x_axisy
property float x_axisz
property float y_axisx
property float y_axisy
property float y_axisz
property float z_axisx
property float z_axisy
property float z_axisz
property float focal
property float scalex
property float scaley
property float centerx
property float centery
property int viewportx
property int viewporty
property float k1
property float k2
end_header
-0.058225971 -0.5808605 -0.064273715
-0.034657545 -0.57992578 -0.069552541
-0.011196558 -0.57959306 -0.071432352
0.01223549 -0.57927859 -0.073208213
0.035687223 -0.58004594 -0.068874478
0.059205871 -0.58081532 -0.064528704
-0.058225971 -0.55737334 -0.064273715
-0.034657545 -0.55647939 -0.069552422
-0.011196558 -0.55616093 -0.071432352
0.01223549 -0.55586016 -0.073208213
0.035687223 -0.55659413 -0.068874478
0.059205871 -0.55733013 -0.064528704
-0.058225971 -0.53388625 -0.064273596
-0.034657545 -0.53303283 -0.069552541
-0.011196558 -0.53272885 -0.071432233
0.01223549 -0.53244179 -0.073208094
0.035687223 -0.53314239 -0.068874598
0.059205871 -0.53384495 -0.064528704
-0.058225971 -0.51039904 -0.064273596
-0.034657545 -0.50958622 -0.06955266
-0.011196558 -0.50929689 -0.071432352
0.01223549 -0.50902343 -0.073208213
0.035687223 -0.50969052 -0.068874717
0.059205871 -0.51035976 -0.064528584
-0.058225971 -0.48691189 -0.064273596
-0.034657545 -0.48613983 -0.069552541
-0.011196558 -0.48586482 -0.071432233
0.01223549 -0.48560512 -0.073208094
0.035687223 -0.4862389 -0.068874598
0.059205607 -0.48687208 -0.064545751
-0.058225971 -0.46342462 -0.064273715
-0.034657545 -0.46269321 -0.069552541
-0.011196558 -0.4624328 -0.071432114
0.01223549 -0.46218663 -0.073208213
0.035687223 -0.46278715 -0.068874598
0.059205607 -0.46338701 -0.064545631
-0.058225971 -0.43993753 -0.064273596
-0.034657545 -0.43924677 -0.069552541
-0.011196558 -0.43900067 -0.071432233
0.01223549 -0.43876833 -0.073208094
0.035687223 -0.43933547 -0.068874717
0.059205607 -0.43990195 -0.064545631
-0.058225971 -0.41645032 -0.064273596
0.059205607 -0.41641688 -0.064545751
-0.034657545 -0.41580021 -0.06955266
-0.011196558 -0.41556871 -0.071432114
0.01223549 -0.41534996 -0.073208213
0.035687223 -0.41588378 -0.068874598
-0.058225971 -0.39296323 -0.064273596
-0.034657545 -0.39235365 -0.06955266
-0.011196558 -0.39213663 -0.071432233
0.01223549 -0.39193153 -0.073208094
0.035687223 -0.39243203 -0.068874598
0.059205607 -0.39293176 -0.064545751
-0.058225971 -0.36947608 -0.064273477
-0.034657285 -0.36890537 -0.069569468
-0.011196558 -0.36870468 -0.071432233
0.01223549 -0.36851317 -0.073208213
0.035687223 -0.36898017 -0.068874598
0.059205607 -0.36944681 -0.064545631
-0.058225971 -0.34598887 -0.064273596
-0.034657285 -0.34545898 -0.069569349
-0.011196558 -0.34527254 -0.071432233
0.01223549 -0.34509486 -0.073208094
0.035687223 -0.34552854 -0.068874478
0.059205607 -0.34596175 -0.064545631
-0.058225971 -0.32250184 -0.064273596
-0.034657285 -0.32201254 -0.069569468
-0.011196558 -0.32184052 -0.071432114
0.01223549 -0.32167637 -0.073208213
0.035687223 -0.32207674 -0.068874598
0.059205607 -0.32247663 -0.064545751
-0.058225971 -0.29901463 -0.064273715
-0.034657285 -0.29856616 -0.069569588
-0.011196558 -0.29840851 -0.071432233
0.01223549 -0.29825807 -0.073208094
0.035687223 -0.29862499 -0.068874598
0.059205607 -0.29899162 -0.064545751
-0.058225971 -0.27552754 -0.064273596
-0.034657285 -0.27511978 -0.069569468
-0.011196558 -0.27497643 -0.071432114
0.01223549 -0.2748397 -0.073208094
0.035687223 -0.27517328 -0.068874717
0.059205607 -0.27550656 -0.064545512
-0.058225971 -0.25204027 -0.064273596
-0.034657285 -0.25167349 -0.069569349
-0.011196558 -0.25154436 -0.071432352
0.01223549 -0.25142136 -0.073208094
0.035687223 -0.25172162 -0.068874598
0.059205607 -0.25202143 -0.064545631
-0.058225971 -0.22855316 -0.064273596
-0.034657285 -0.22822705 -0.069569588
-0.011196558 -0.22811234 -0.071432233
0.01223549 -0.22800292 -0.073208094
0.035687093 -0.22826877 -0.068891644
0.059205607 -0.2285364 -0.064545751
-0.058225971 -0.20506604 -0.064273477
-0.034657285 -0.20478061 -0.069569588
-0.011196558 -0.20468022 -0.071432233
0.01223549 -0.20458464 -0.073208094
0.035687093 -0.20481718 -0.068891525
0.059205607 -0.20505136 -0.064545751
-0.058225576 -0.18157811 -0.064290643
-0.034657285 -0.18133426 -0.069569468
-0.011196558 -0.18124823 -0.071432114
0.01223549 -0.18116616 -0.073208094
0.035687093 -0.18136552 -0.068891644
0.059205607 -0.18156625 -0.064545751
-0.058225576 -0.15809107 -0.064290524
-0.034657285 -0.15788791 -0.069569349
-0.011196558 -0.15781608 -0.071432352
0.01223549 -0.15774786 -0.073208094
0.035687093 -0.15791392 -0.068891525
0.059205607 -0.15808129 -0.064545631
-0.058225576 -0.13460393 -0.064290643
-0.034657285 -0.13444142 -0.069569588
-0.011196558 -0.1343841 -0.071432233
0.01223549 -0.13432948 -0.073208094
0.035687093 -0.13446239 -0.068891525
0.059205607 -0.13459614 -0.064545631
-0.058225576 -0.11111698 -0.064290762
-0.034657285 -0.11099508 -0.069569468
-0.011196426 -0.1109517 -0.07144928
0.01223549 -0.110911 -0.073208213
0.035687093 -0.11101069 -0.068891644
0.059205607 -0.11111115 -0.064545751
-0.058225576 -0.087629989 -0.064290762
-0.034657285 -0.087548733 -0.069569588
-0.011196426 -0.08751975 -0.07144928
0.01223549 -0.087492719 -0.073208094
0.035687093 -0.087559134 -0.068891525
0.059205607 -0.087625995 -0.064545751
-0.058225971 -0.064143084 -0.064273596
-0.034657285 -0.064102292 -0.069569349
-0.011196426 -0.064087853 -0.071449161
0.01223549 -0.06407433 -0.073208213
0.035687093 -0.064107537 -0.068891525
0.059205607 -0.064141095 -0.064545631
-0.058225971 -0.040655944 -0.064273477
-0.011196426 -0.040655944 -0.071449161
0.01223549 -0.040655944 -0.073208094
0.059205607 -0.040655944 -0.064545631
-0.034657285 -0.040655896 -0.069569588
0.035687093 -0.040655896 -0.068891644
-0.058225971 -0.017168803 -0.064273715
-0.034657285 -0.01720955 -0.069569588
-0.011196426 -0.01722409 -0.071449161
0.01223549 -0.017237559 -0.073208213
0.035687093 -0.017204348 -0.068891525
0.059205607 -0.017170796 -0.064545631
-0.058225971 0.0063182898 -0.064273596
-0.034657285 0.0062367953 -0.069569588
-0.011196426 0.0062078126 -0.071449161
0.01223549 0.0061807781 -0.073208094
0.035687093 0.0062472001 -0.068891525
0.059205607 0.0063142553 -0.064545751
-0.034701675 0.029749662 -0.066686273
-0.011218726 0.029706769 -0.068552375
0.01223549 0.029666364 -0.070298076
0.035709824 0.029766969 -0.065939069
-0.011251272 0.053291067 -0.064324737
0.01223549 0.053239912 -0.065989971
-0.058475409 -0.60634309 -0.053472519
-0.034805667 -0.60514987 -0.059931636
-0.011269347 -0.60477209 -0.061976433
0.01223549 -0.60444504 -0.063746452
0.035762895 -0.60531378 -0.059044719
0.059362914 -0.60618496 -0.054328442
-0.081972472 -0.58235174 -0.055850863
0.082887918 -0.58232456 -0.056004763
-0.081972472 -0.55879974 -0.055850863
0.082887918 -0.55877376 -0.056004763
-0.081972472 -0.5352478 -0.055850744
0.082887918 -0.53522295 -0.056004643
-0.081972472 -0.5116958 -0.055850863
0.082887918 -0.51167208 -0.056004763
-0.081972472 -0.48814374 -0.055850863
0.082887918 -0.48812133 -0.056004643
-0.081972472 -0.46459186 -0.055850744
0.082887918 -0.46457046 -0.056004763
-0.081972472 -0.4410398 -0.055850863
0.082887918 -0.44101971 -0.056004643
-0.081972472 -0.4174878 -0.055850863
0.082887918 -0.41746891 -0.056004763
-0.081972472 -0.39393586 -0.055850744
0.082887918 -0.3939181 -0.056004763
-0.081972472 -0.37038386 -0.055850863
0.082887918 -0.37036723 -0.056004763
-0.081972472 -0.34683174 -0.055850863
0.082887918 -0.34681648 -0.056004763
-0.081972472 -0.32327986 -0.055850744
0.082887918 -0.32326561 -0.056004763
-0.081972472 -0.2997278 -0.055850863
0.082887918 -0.29971486 -0.056004643
-0.081972472 -0.2761758 -0.055850863
0.082887918 -0.276164 -0.056004763
-0.081972472 -0.25262386 -0.055850744
0.082887918 -0.25261328 -0.056004643
-0.081972472 -0.22907189 -0.055850863
0.082887918 -0.22906238 -0.056004763
-0.081972472 -0.20551986 -0.055850863
0.082887918 -0.2055116 -0.056004643
-0.081972472 -0.18196785 -0.055850983
0.082887918 -0.18196075 -0.056004763
-0.081972472 -0.15841594 -0.055850863
0.082887918 -0.15841001 -0.056004763
-0.081972472 -0.13486388 -0.055850863
0.082887918 -0.13485911 -0.056004763
-0.081972472 -0.11131188 -0.055850863
0.082887918 -0.11130842 -0.056004763
-0.081972472 -0.087759957 -0.055850863
0.082887918 -0.087757528 -0.056004763
-0.081972472 -0.064207956 -0.055850863
0.082887918 -0.064206734 -0.056004763
-0.081972472 -0.040655944 -0.055850863
0.082887918 -0.040655896 -0.056004763
-0.081973001 -0.017103789 -0.055833697
0.082887918 -0.017105151 -0.056004763
-0.081973001 0.0064483173 -0.055833697
0.082887918 0.0064457878 -0.056004763
-0.082069449 0.030072726 -0.052701712
-0.058297511 0.029877007 -0.061175823
0.059251193 0.029867671 -0.06158483
0.082963802 0.030072294 -0.052718759
-0.082209453 0.053788997 -0.048154712
-0.058401939 0.053527243 -0.056654215
-0.034767106 0.053349227 -0.062436104
0.03574295 0.053373829 -0.061635733
0.059317898 0.053508766 -0.057252169
0.083073966 0.053795271 -0.047948599
-0.058506671 0.077247642 -0.052119136
-0.034832723 0.07701458 -0.058174253
-0.011284039 0.076941736 -0.060068011
0.01223549 0.076879352 -0.061686993
0.035776172 0.077047594 -0.057320476
0.059384529 0.07721667 -0.052924395
-0.034898259 0.10074534 -0.053917646
-0.011316766 0.10065752 -0.05581665
0.01223549 0.10058574 -0.057371616
0.035809483 0.10078803 -0.052993059
0.059451349 0.10099162 -0.048584223
-0.034964241 0.12454306 -0.049631953
-0.011349716 0.12444045 -0.051536202
0.01223549 0.12435929 -0.0530442
0.035842892 0.1245959 -0.048653126
0.01223549 0.14820018 -0.048704505
-0.082330778 -0.60805351 -0.044214845
0.083168946 -0.60812348 -0.043835759
-0.10596173 -0.58436316 -0.044490457
0.10681874 -0.58450967 -0.043663383
-0.1059233 -0.56055456 -0.045489073
0.10678903 -0.56070048 -0.044628143
-0.1059233 -0.53692287 -0.045489073
0.10678903 -0.53706193 -0.044628263
-0.1059233 -0.51329112 -0.045488954
0.10678903 -0.51342362 -0.044628263
-0.1059233 -0.48965931 -0.045489192
0.10678903 -0.48978525 -0.044628143
-0.1059233 -0.46602756 -0.045489073
0.10678903 -0.46614689 -0.044628263
-0.1059233 -0.44239581 -0.045489073
0.10678903 -0.44250858 -0.044628143
-0.1059233 -0.41876411 -0.045488954
0.10678903 -0.41887003 -0.044628263
-0.1059233 -0.3951323 -0.045489073
0.10678903 -0.39523166 -0.044628263
-0.1059233 -0.37150055 -0.045489073
0.10678903 -0.3715933 -0.044628143
-0.1059233 -0.3478688 -0.045488954
0.10678903 -0.34795499 -0.044628263
-0.1059233 -0.32423693 -0.045489192
0.10678903 -0.32431662 -0.044628143
-0.1059233 -0.3006053 -0.045489073
0.10678903 -0.30067813 -0.044628263
-0.1059233 -0.27697355 -0.045489073
0.10678903 -0.27703971 -0.044628263
-0.10592395 -0.25334293 -0.045471907
0.10678903 -0.2534014 -0.044628143
-0.10592395 -0.22971101 -0.045471907
0.10678903 -0.22976305 -0.044628263
-0.10592395 -0.2060792 -0.045471907
0.10678903 -0.20612466 -0.044628143
-0.10592395 -0.1824473 -0.045471907
0.10678903 -0.18248625 -0.044628263
-0.10592395 -0.1588155 -0.045471787
0.10678903 -0.15884784 -0.044628263
-0.10592395 -0.1351835 -0.045471787
0.10678903 -0.13520947 -0.044628143
-0.10592395 -0.1115516 -0.045472026
0.10678903 -0.1115711 -0.044628143
-0.10592395 -0.087919794 -0.045471787
0.10678903 -0.08793278 -0.044628143
-0.10592395 -0.064287841 -0.045471787
0.10678903 -0.064294308 -0.044628263
0.10678903 -0.040655944 -0.044628263
-0.10592395 -0.040655896 -0.045472026
-0.10592395 -0.017024141 -0.045471787
0.10678903 -0.017017577 -0.044628263
-0.10592395 0.0066077597 -0.045472026
0.10678903 0.0066208877 -0.044628143
-0.10606591 0.030324951 -0.041783571
0.10689203 0.030336425 -0.041283131
-0.10627016 0.054148585 -0.036477327
0.10703948 0.054148048 -0.036494732
-0.082349874 0.077575773 -0.043594241
0.083184071 0.077591717 -0.043180704
0.10718792 0.078034699 -0.03167367
-0.08249072 0.10143334 -0.039020538
-0.058611717 0.1010385 -0.047570467
0.083294928 0.10146286 -0.038380742
-0.082631983 0.1253621 -0.034432888
-0.058717068 0.12489997 -0.043008447
0.05951836 0.12483412 -0.044231892
0.083406121 0.12540898 -0.03356576
-0.058822747 0.14883277 -0.038432598
-0.035030145 0.14840655 -0.045351386
-0.011382627 0.148289 -0.047261
0.035876527 0.1484724 -0.044283628
0.059585825 0.14874543 -0.039849997
-0.035139598 0.17253192 -0.038242459
-0.011437151 0.1723979 -0.040178061
0.01223549 0.1723045 -0.041524887
0.03593209 0.1726135 -0.037065983
0.059702344 0.17294493 -0.032281399
-0.011494198 0.19664092 -0.032767653
0.01223549 0.19654475 -0.034016728
-0.10649383 -0.61055672 -0.030665994
0.10720076 -0.61044753 -0.031256914
-0.13045757 -0.58764601 -0.025948882
0.13113564 -0.58759671 -0.026227713
-0.13033046 -0.56339782 -0.028700829
0.13102035 -0.56330937 -0.029222846
-0.13033046 -0.53963679 -0.028700948
0.13102035 -0.53955239 -0.029222846
-0.13033046 -0.51587588 -0.028700709
0.13102035 -0.51579553 -0.029222727
-0.13033046 -0.49211484 -0.028700948
0.13102035 -0.49203843 -0.029222727
-0.13033046 -0.46835375 -0.028700948
0.13102035 -0.46828151 -0.029222846
-0.13033046 -0.44459289 -0.028700829
0.13102035 -0.44452447 -0.029222846
-0.13033046 -0.42083186 -0.028700948
0.13102035 -0.42076761 -0.029222727
-0.13033046 -0.39707083 -0.028700829
0.13102035 -0.39701056 -0.029222727
-0.13033046 -0.37330985 -0.028700829
0.13102035 -0.37325358 -0.029222727
-0.13033046 -0.34954882 -0.028700948
0.13102035 -0.34949654 -0.029222846
-0.13033046 -0.3257879 -0.028700829
0.13102035 -0.32573968 -0.029222727
-0.13033046 -0.30202687 -0.028700829
0.13102035 -0.3019827 -0.029222727
-0.13033046 -0.27826592 -0.028700829
0.13102035 -0.27822572 -0.029222727
-0.13033046 -0.25450486 -0.028700829
0.13102035 -0.25446868 -0.029222965
-0.13033046 -0.23074383 -0.028700948
0.13102035 -0.23071182 -0.029222727
-0.13033046 -0.2069829 -0.028700709
0.13102035 -0.20695476 -0.029222846
-0.13033046 -0.18322191 -0.028700829
0.13102035 -0.1831978 -0.029222846
-0.13033046 -0.15946101 -0.028700829
0.13102035 -0.15944079 -0.029222846
-0.13033046 -0.13569996 -0.028700948
0.13102035 -0.13568391 -0.029222727
-0.13033046 -0.11193886 -0.028700948
0.13102035 -0.11192689 -0.029222727
-0.13033046 -0.088177949 -0.028700709
0.13102035 -0.088169873 -0.029222846
-0.13033046 -0.0644169 -0.028700829
0.13102035 -0.064412959 -0.029222727
-0.13033046 -0.040655993 -0.028700709
0.13102035 -0.040655993 -0.029222727
-0.13033046 -0.016894991 -0.028700948
0.13102035 -0.01689893 -0.029222727
-0.13033046 0.0068661571 -0.028700948
0.13102035 0.0068580844 -0.029222846
-0.1305051 0.030714393 -0.024919987
0.13117993 0.030710846 -0.025076985
-0.13075289 0.054669708 -0.019555092
0.13140528 0.054679967 -0.019222617
-0.1064751 0.078054689 -0.031152487
-0.1066801 0.10204272 -0.025826812
0.10733683 0.10199599 -0.026837587
-0.10688646 0.12611479 -0.020465136
0.10748622 0.1260329 -0.021986485
-0.082773663 0.1493623 -0.029831529
0.083517268 0.14942877 -0.028753042
0.10763984 0.1501528 -0.016997099
-0.083012536 0.17365205 -0.022073865
-0.058999699 0.17304958 -0.030770302
0.083705433 0.17375378 -0.020604968
-0.059182774 0.19740498 -0.022842646
-0.035253834 0.1967907 -0.030822396
0.035990186 0.19689101 -0.029518485
0.059829924 0.1973162 -0.023995161
-0.035368625 0.22116672 -0.02336657
-0.011551521 0.22100125 -0.025321245
0.01223549 0.22090374 -0.026471734
0.036048438 0.22128652 -0.021951437
0.05995819 0.221819 -0.015663981
-0.035487212 0.24568026 -0.015663981
-0.011609121 0.24547939 -0.017838478
0.01223549 0.24538223 -0.018889785
-0.13110629 -0.61402309 -0.011903882
0.13172963 -0.61422789 -0.010795236
-0.15555775 -0.59197664 -0.0014897585
0.15600841 -0.59178543 -0.0025696754
-0.15519685 -0.56687182 -0.0081874132
0.15575381 -0.56688976 -0.0080817938
-0.15519685 -0.54295307 -0.0081874132
0.15575381 -0.54297018 -0.0080816746
-0.15519685 -0.51903403 -0.0081876516
0.15575381 -0.51905036 -0.0080817938
-0.15519685 -0.49511516 -0.0081874132
0.15575381 -0.49513054 -0.0080817938
-0.15519685 -0.47119623 -0.0081876516
0.15575381 -0.47121096 -0.0080816746
-0.15519685 -0.44727731 -0.0081874132
0.15575381 -0.44729114 -0.0080816746
-0.15519685 -0.42335838 -0.0081875324
0.15575381 -0.42337143 -0.0080817938
-0.15519685 -0.39943945 -0.0081874132
0.15575381 -0.39945173 -0.0080816746
-0.15519685 -0.37552065 -0.0081874132
0.15575381 -0.37553203 -0.0080817938
-0.15519685 -0.35160172 -0.0081876516
0.15575381 -0.35161221 -0.0080817938
-0.15519685 -0.32768285 -0.0081875324
0.15575381 -0.32769263 -0.0080817938
-0.15519685 -0.30376387 -0.0081875324
0.15575381 -0.30377281 -0.0080817938
-0.15519685 -0.27984494 -0.0081874132
0.15575381 -0.27985322 -0.0080816746
-0.15519685 -0.25592607 -0.0081875324
0.15575381 -0.2559334 -0.0080817938
-0.15519685 -0.23200722 -0.0081875324
0.15575381 -0.23201369 -0.0080817938
-0.15519685 -0.20808828 -0.0081874132
0.15575381 -0.20809402 -0.0080816746
-0.15519685 -0.18416938 -0.0081876516
0.15575463 -0.18417497 -0.0080641508
-0.15519685 -0.16025046 -0.0081874132
0.15575463 -0.16025521 -0.0080641508
-0.15519685 -0.13633156 -0.0081875324
0.15575463 -0.1363353 -0.0080641508
-0.15519685 -0.11241271 -0.0081875324
0.15575463 -0.11241549 -0.0080641508
-0.15519685 -0.088493675 -0.0081875324
0.15575463 -0.088495575 -0.0080641508
-0.15519685 -0.064574882 -0.0081874132
0.15575463 -0.064575806 -0.0080641508
-0.15519685 -0.040655993 -0.0081874132
0.15575463 -0.040655799 -0.0080641508
-0.15519685 -0.016737055 -0.0081876516
0.15575463 -0.016736032 -0.0080641508
-0.15519685 0.007181786 -0.0081875324
0.15575463 0.0071837828 -0.0080641508
-0.15547095 0.031218305 -0.0031006336
0.15595202 0.031202406 -0.0037903786
-0.13100155 0.078708261 -0.014171481
0.13163079 0.078739382 -0.013363123
-0.13125105 0.10283065 -0.008769393
0.13185853 0.10289173 -0.0074467659
-0.13150145 0.12703717 -0.0033482313
0.13208644 0.12713534 -0.0015251637
-0.10709356 0.15027063 -0.015084743
-0.10744869 0.1747756 -0.0058580637
0.10794914 0.1746998 -0.0069527626
-0.083265059 0.19809543 -0.013872981
0.083898664 0.19822131 -0.012238145
-0.083551019 0.22275697 -0.0045859814
-0.059366811 0.22188576 -0.014874101
0.084092528 0.22282 -0.0038434267
-0.059551779 0.24649303 -0.0068644285
0.036106978 0.24580188 -0.014347315
0.060087148 0.24645393 -0.0072880983
-0.035610467 0.27034277 -0.0076583624
-0.011667001 0.27007651 -0.010319829
0.01223549 0.26998317 -0.011252761
0.036165938 0.27043986 -0.0066878796
-0.035734359 0.29513299 0.00038874149
-0.011725164 0.29479313 -0.0027643442
0.01223549 0.2947036 -0.0035959482
0.036225058 0.29519802 0.00099158287
0.1568644 -0.61917156 0.015963554
-0.15585317 0.055394672 0.0039923191
0.15622616 0.055337921 0.0021451712
-0.15623616 0.079680927 0.011099815
0.15652359 0.079584159 0.0085846186
0.15690827 0.10401678 0.016913176
-0.13176502 0.15134472 0.002358079
0.13232003 0.15147923 0.0045434237
-0.13233142 0.1761945 0.014621019
0.13271479 0.1762069 0.014799953
-0.10780799 0.19943108 0.0034770966
0.10826263 0.19941191 0.003228426
-0.10816947 0.22423504 0.012868285
0.10857818 0.22428639 0.013476372
-0.083838701 0.24756669 0.0047569275
0.084287442 0.24755181 0.0045967102
-0.08412867 0.27252752 0.014173627
-0.059737716 0.27122808 0.0011868477
0.060217079 0.27122432 0.0011512041
0.084483422 0.27241856 0.013082862
-0.059924204 0.29608929 0.0092619658
0.060347442 0.2961278 0.0096187592
-0.035858896 0.32005185 0.0084774494
-0.011783608 0.31963062 0.0048279762
0.01223549 0.31954628 0.0040988922
0.036284465 0.32007873 0.0087091923
-0.03598408 0.34510058 0.016608477
-0.011842339 0.34458935 0.012457371
0.01223549 0.34451461 0.011849761
0.036344171 0.34508294 0.016465306
-0.18096773 -0.57196486 0.021884799
0.18140365 -0.57232738 0.024025798
-0.18096773 -0.54781449 0.021884799
0.18140365 -0.54816049 0.024025559
-0.18096773 -0.52366394 0.021884918
0.18140365 -0.52399361 0.024025559
-0.18096773 -0.49951363 0.021884918
0.18140365 -0.49982661 0.02402544
-0.18096773 -0.47536325 0.021885037
0.18140365 -0.47565985 0.024025679
-0.18096773 -0.4512127 0.021884799
0.18140365 -0.45149297 0.024025559
-0.18096773 -0.42706233 0.021884799
0.18140365 -0.42732602 0.024025559
-0.18096773 -0.40291202 0.021884799
0.18140464 -0.40316123 0.02404356
-0.18096773 -0.37876159 0.021884799
0.18140464 -0.37899429 0.024043679
-0.18096773 -0.35461122 0.021884918
0.18140464 -0.35482723 0.02404356
-0.18096773 -0.33046085 0.021884918
0.18140464 -0.33066016 0.024043679
-0.18096773 -0.3063103 0.02188468
0.18140464 -0.30649322 0.02404356
-0.18096773 -0.28215992 0.021884799
0.18140464 -0.28232616 0.024043679
-0.18096773 -0.25800952 0.021884799
0.18140464 -0.2581591 0.024043679
-0.18096773 -0.23385917 0.021884918
0.18140464 -0.23399217 0.024043679
-0.18096773 -0.20970874 0.021884918
0.18140464 -0.20982504 0.024043441
-0.18096773 -0.18555838 0.021884918
0.18140464 -0.18565802 0.02404356
-0.18096773 -0.16140804 0.021884918
0.18140464 -0.16149104 0.024043441
-0.18096773 -0.13725755 0.02188468
0.18140464 -0.13732401 0.02404356
-0.18096773 -0.11310709 0.021884918
0.18140464 -0.11315698 0.02404356
-0.18096773 -0.088956743 0.021884918
0.18140464 -0.088990003 0.02404356
-0.18096773 -0.064806387 0.021884918
0.18140464 -0.064822927 0.02404356
-0.18096773 -0.040655944 0.021884918
0.18140464 -0.040655896 0.024043679
-0.18096773 -0.016505644 0.021884918
0.18140464 -0.016488966 0.024043679
-0.18096773 0.0076448992 0.021884918
0.18140464 0.0076780133 0.02404356
-0.18129487 0.031917885 0.027197123
0.18173899 0.031988442 0.030248523
-0.15662089 0.10407814 0.018239737
-0.15700741 0.12858692 0.025412321
0.157295 0.12858021 0.025286317
-0.15742302 0.15323947 0.033124804
-0.13290146 0.20123903 0.026962638
0.13311288 0.2010988 0.025142074
-0.10853313 0.24918871 0.022316337
0.10889582 0.24932505 0.023791671
-0.10895333 0.2744351 0.033233404
-0.084419839 0.29763764 0.023629546
0.084700398 0.29751354 0.022478223
-0.084712774 0.32290012 0.033142924
-0.06011207 0.32108194 0.017397165
0.060478516 0.32116675 0.018132091
0.084940001 0.32286656 0.032853365
-0.06030051 0.34620267 0.025556564
0.060610306 0.3463425 0.026692033
-0.036109917 0.37028003 0.024781823
-0.011901359 0.36967057 0.020124078
0.01223549 0.36960465 0.019621491
0.036404174 0.37021172 0.024259686
-0.036236413 0.39559114 0.032998085
-0.011960668 0.39487493 0.027828574
0.01223549 0.3948198 0.027431488
0.036464475 0.39546579 0.032093167
-0.18178377 -0.59846133 0.035135865
0.1821402 -0.59891415 0.037694097
-0.18189661 0.056410074 0.036967993
0.18219404 0.056463219 0.038693309
-0.18261802 0.081127398 0.048682213
0.18264957 0.081068367 0.047146797
0.15770976 0.15330988 0.034265757
-0.15810281 0.17835037 0.045740843
0.15838321 0.17856555 0.048846722
-0.13347684 0.22648327 0.039420366
0.13363165 0.22641553 0.038620591
0.1092161 0.27453113 0.034193397
-0.10943403 0.30001879 0.045722604
0.10953797 0.29990274 0.044646263
-0.085007489 0.34831595 0.042714
0.085181192 0.34838772 0.043297052
-0.060505833 0.3715449 0.034447193
0.060742818 0.37165642 0.035298944
-0.060727049 0.39711934 0.044026136
0.060876336 0.39711171 0.043971419
-0.036363292 0.42103255 0.041239142
-0.012020268 0.42020357 0.035571098
0.01223549 0.42016107 0.035281062
0.036528576 0.42091268 0.040420413
-0.036490839 0.44660729 0.049523473
-0.012080166 0.44565713 0.043351769
0.01223549 0.44562924 0.043169498
0.036595415 0.44654256 0.049102664
-0.012129647 0.47101194 0.049779534
0.01223549 0.47100306 0.049724698
-0.1833448 0.1060293 0.060483694
0.18316993 0.10585926 0.056803465
0.15906294 0.20405641 0.063562989
-0.15920654 0.20426123 0.066223383
-0.13405597 0.25192696 0.051958561
0.13419443 0.25204557 0.05324173
-0.10991928 0.32580835 0.058329582
0.10993835 0.32572979 0.057649136
-0.085304558 0.37388927 0.052361846
0.085423991 0.37407893 0.053810477
-0.08568529 0.39998764 0.064726353
0.085668832 0.39994413 0.064412475
-0.060950037 0.4228524 0.05368185
0.061010312 0.42270482 0.05267334
-0.061173972 0.44874042 0.063378453
0.061170015 0.44868928 0.063046217
-0.036595281 0.47206712 0.056307197
0.03665017 0.47205228 0.056215525
-0.036688242 0.49750507 0.062345266
-0.012173249 0.49633628 0.055443764
0.01223549 0.49633956 0.05546236
0.036698919 0.4975394 0.06254828
-0.012216871 0.52174824 0.061110139
0.01223549 0.52176774 0.061220646
-0.20884392 -0.58107227 0.075662017
0.2090729 -0.58195883 0.080896854
-0.20884392 -0.55650795 0.075662017
0.2090729 -0.55735421 0.080896854
-0.20884392 -0.5319435 0.075662017
0.2090729 -0.53274947 0.080896974
-0.20884521 -0.5073818 0.075680494
0.2090729 -0.50814486 0.080896974
-0.20884521 -0.48281741 0.075680614
0.2090729 -0.48354018 0.080896854
-0.20884521 -0.45825273 0.075680494
0.2090729 -0.4589355 0.080896974
-0.20884521 -0.43368828 0.075680614
0.2090729 -0.43433082 0.080896974
-0.20884521 -0.40912372 0.075680614
0.2090729 -0.40972602 0.080896735
-0.20884521 -0.38455933 0.075680614
0.2090729 -0.38512135 0.080896735
-0.20884521 -0.35999483 0.075680733
0.2090729 -0.36051673 0.080896735
-0.20884521 -0.3354302 0.075680614
0.2090729 -0.33591205 0.080896735
-0.20884521 -0.31086576 0.075680733
0.2090729 -0.31130737 0.080896735
-0.20884521 -0.28630114 0.075680614
0.2090729 -0.28670263 0.080896854
-0.20884521 -0.26173669 0.075680733
0.2090729 -0.26209798 0.080896854
-0.20884521 -0.23717216 0.075680614
0.2090729 -0.23749337 0.080896735
-0.20884521 -0.21260771 0.075680614
0.2090729 -0.21288867 0.080896854
-0.20884521 -0.18804306 0.075680614
0.2090729 -0.18828401 0.080896735
-0.20884521 -0.16347857 0.075680852
0.2090729 -0.1636793 0.080896735
-0.20884521 -0.13891402 0.075680614
0.2090729 -0.13907459 0.080896735
-0.20884521 -0.11434953 0.075680852
0.2090729 -0.11447002 0.080896735
-0.20884521 -0.089785032 0.075680614
0.2090729 -0.089865312 0.080896735
-0.20884521 -0.06522049 0.075680852
0.2090729 -0.065260701 0.080896735
0.2090729 -0.040655944 0.080896854
-0.20884521 -0.040655896 0.075680614
-0.20884521 -0.016091401 0.075680852
0.2090729 -0.016051332 0.080896735
-0.20884521 0.0084730946 0.075680614
0.2090729 0.0085534714 0.080896974
-0.18407473 0.13111551 0.072336555
0.18403795 0.13114662 0.072911859
-0.13475326 0.27781975 0.067055583
0.13476244 0.27791399 0.067999125
-0.11040913 0.35180694 0.071056247
0.11039403 0.35197824 0.072447658
-0.086078756 0.42633671 0.077504396
0.085957415 0.4262495 0.076908708
-0.061352137 0.47445744 0.07109344
0.061299048 0.47451138 0.071427226
-0.061514813 0.50017965 0.078137636
0.061417278 0.50034362 0.079106569
-0.036781561 0.52304 0.068406582
0.036747724 0.52312523 0.068887949
-0.036875524 0.54867619 0.074509263
-0.012260784 0.54725462 0.066815019
0.01223549 0.54729223 0.06701839
0.036796577 0.54881024 0.075234294
-0.036980473 0.57454354 0.081326008
-0.01230486 0.57285285 0.072540522
0.01223549 0.57290643 0.072819114
0.03684577 0.57460099 0.081624866
-0.012332038 0.59809989 0.076071262
0.01223549 0.59815943 0.076368928
-0.012344363 0.62299991 0.077671885
0.01223549 0.62306583 0.077988625
-0.012356552 0.6479212 0.079255819
0.01223549 0.64799756 0.079609752
-0.012363442 0.67271316 0.080150723
0.01223549 0.67279631 0.08052361
-0.012363442 0.697312 0.080150723
0.01223549 0.69739807 0.080523729
-0.012363588 0.72191542 0.080169201
0.01223549 0.72200441 0.080542445
-0.012363588 0.7465145 0.080169201
0.01223549 0.74660635 0.080542445
-0.012363588 0.77111351 0.08016932
0.01223549 0.77120835 0.080542445
-0.012363588 0.79571259 0.08016932
0.01223549 0.79580539 0.080523729
-0.036937695 0.8198747 0.078547597
-0.012290007 0.81773633 0.070611238
0.01223549 0.81779641 0.070833802
0.036826242 0.82002038 0.079087973
-0.036937695 0.84446126 0.078547597
-0.012290149 0.84226704 0.070629716
0.01223549 0.84232348 0.070833564
0.036826242 0.84461111 0.079087853
-0.036937695 0.86904794 0.078547597
-0.012290149 0.86679286 0.070629716
0.01223549 0.86685091 0.070833683
0.036826242 0.86920184 0.079087853
-0.012350527 0.89361262 0.078472853
0.01223549 0.89372718 0.078864217
-0.012376373 0.94381857 0.081830263
0.01223549 0.94393927 0.082222342
-0.012367607 0.96807116 0.080691695
0.01223549 0.96820062 0.081102133
-0.21020654 0.033491321 0.095329881
0.20984702 0.033448428 0.093466997
-0.18492422 0.15650383 0.086130142
0.18506151 0.15685941 0.091906667
-0.16032465 0.23050992 0.086972833
0.16025414 0.23071156 0.089353561
-0.13571215 0.3045553 0.087816
0.13548553 0.30444425 0.086785555
-0.11108596 0.3786369 0.08864069
0.11085629 0.3784824 0.087459922
-0.086475968 0.4529013 0.090404272
0.086305082 0.45314127 0.091963053
-0.06171627 0.5263074 0.086860418
0.061536659 0.5263074 0.086860418
-0.06192882 0.55265856 0.096064329
0.061671693 0.55257851 0.095631242
-0.037042044 0.5999521 0.08532536
0.03687368 0.59993714 0.085250497
-0.037072316 0.62499934 0.08729136
0.036887515 0.62494874 0.087047815
-0.037102617 0.6500774 0.089259505
0.036901221 0.6499846 0.088828325
-0.037117351 0.67496014 0.090216637
0.036907863 0.67484295 0.089691162
-0.037117351 0.69963652 0.090216637
0.036907863 0.69951516 0.089691162
-0.037117351 0.72431308 0.090216756
0.036907863 0.72418761 0.089691281
-0.037117064 0.74898493 0.090197682
0.036907863 0.74885994 0.089691162
-0.037117064 0.77366102 0.090197802
0.036907863 0.77353239 0.089691281
-0.037112441 0.79825896 0.089897513
0.036906421 0.79815555 0.089503527
-0.037105218 0.89681745 0.089428544
0.036902089 0.89667487 0.08894074
-0.012399246 0.92009872 0.084801674
0.01223549 0.92022783 0.085232019
-0.037197232 0.92328215 0.095405221
0.036949966 0.92320859 0.095160246
-0.037141927 0.9468925 0.091812849
0.036919858 0.94671887 0.091249347
-0.037149735 0.97174126 0.092319965
0.036923185 0.9715398 0.091681242
-0.012438186 0.99563831 0.089860082
0.01223549 0.99582654 0.090442061
-0.11189228 0.40620404 0.1095897
0.1116437 0.40668112 0.11303174
-0.086918958 0.47990483 0.10479081
0.086562857 0.4796356 0.10312498
-0.062143911 0.57917231 0.10537815
0.061837804 0.57937294 0.10642052
-0.062258724 0.6049605 0.11034977
0.061908543 0.60509384 0.11101508
-0.062351454 0.63062644 0.11436498
0.061953958 0.63054323 0.11396492
-0.062269699 0.80373615 0.11082494
0.061910886 0.8038258 0.11116707
-0.062024649 0.8257125 0.10021389
0.061744284 0.82574791 0.10034609
-0.062024649 0.85046554 0.10021389
0.061744284 0.85050231 0.10034609
-0.062024649 0.87521911 0.10021389
0.061744284 0.87525678 0.10034609
-0.13724262 0.33303934 0.12095141
0.1365962 0.33242625 0.11564195
-0.087381832 0.50723934 0.11982322
0.08702229 0.50778067 0.12301898
-0.062444407 0.65635645 0.11838996
0.062009446 0.65617943 0.11756885
-0.06246515 0.68145019 0.11928797
0.06202738 0.68132639 0.11873376
-0.06246515 0.70635045 0.11928809
0.06202738 0.70622241 0.11873388
-0.06246515 0.73125052 0.11928809
0.06202738 0.73111826 0.11873388
-0.06246515 0.75615078 0.11928809
0.06202738 0.75601429 0.11873388
-0.06246515 0.78105104 0.11928809
0.06202738 0.78091013 0.11873388
-0.062623918 0.90756333 0.12616348
0.062172513 0.90814734 0.12816048
-0.062637217 0.93268937 0.12673938
0.062174879 0.93316203 0.12831414
-0.062477063 0.95551151 0.11980426
0.062039148 0.95541745 0.11949825
-0.21293335 0.059419088 0.13468778
-0.163029 0.25979751 0.13715923
0 0 0 1 0 0 0 1 0 0 0 1 0 0 0 0 0 845 1 0 0
