ply
format ascii 1.0
comment PCL generated
element vertex 580
property float x
property float y
property float z
element camera 1
property float view_px
property float view_py
property float view_pz
property float x_axisx
property float x_axisy
property float x_axisz
property float y_axisx
property float y_axisy
property float y_axisz
property float z_axisx
property float z_axisy
property float z_axisz
property float focal
property float scalex
property float scaley
property float centerx
property float centery
property int viewportx
property int viewporty
property float k1
property float k2
end_header
-0.088432051 -0.069913894 -0.21752131
-0.10390287 -0.054594282 -0.21621203
-0.088249482 -0.054514185 -0.21967733
-0.073076285 -0.054562312 -0.2175976
-0.10390287 -0.039234281 -0.21621209
-0.088081799 -0.039150529 -0.22165728
-0.072754242 -0.039148603 -0.22178096
-0.057846166 -0.039239421 -0.21587741
-0.10390287 -0.023874283 -0.21621209
-0.087914474 -0.023817264 -0.22363353
-0.07246054 -0.023802102 -0.22559643
-0.057494499 -0.023837898 -0.22095335
-0.07246054 -0.0085143968 -0.22559643
-0.057494499 -0.0085144332 -0.22095335
-0.10390287 -0.0085143223 -0.21621221
-0.08790081 -0.0085143596 -0.22379494
-0.10390287 0.0068455646 -0.21621203
-0.08790081 0.0067872126 -0.22379488
-0.07246054 0.0067733824 -0.22559631
-0.057494499 0.0068091042 -0.22095329
-0.10390287 0.022205526 -0.21621209
-0.087915264 0.022091374 -0.22362405
-0.07246054 0.02206105 -0.22559631
-0.057494499 0.022132494 -0.22095329
-0.10390287 0.037565526 -0.21621209
-0.088082619 0.037439946 -0.2216478
-0.072756447 0.037437543 -0.22175241
-0.057846852 0.037573438 -0.21586782
-0.10390287 0.052925486 -0.21621221
-0.088249482 0.052818764 -0.21967721
-0.073078476 0.0528837 -0.21756911
-0.088434465 0.068236195 -0.21749276
-0.10515147 -0.10129853 -0.20269549
-0.1203791 -0.085743546 -0.20505774
-0.10452951 -0.085575312 -0.20942849
-0.089167885 -0.085598275 -0.20883143
-0.07420405 -0.085824713 -0.2029475
-0.12027272 -0.070264935 -0.20612079
-0.10416736 -0.070042379 -0.21334893
-0.07339967 -0.070040919 -0.21339685
-0.058840059 -0.070406303 -0.20153165
-0.12027272 -0.05482734 -0.20612079
-0.058341675 -0.054767139 -0.20872539
-0.12027272 -0.039389666 -0.20612079
-0.12027272 -0.02395205 -0.20612079
-0.043013133 -0.0239431 -0.20727926
-0.043013133 -0.0085143968 -0.20727926
-0.12027272 -0.0085143596 -0.20612079
-0.12027272 0.0069232574 -0.20612067
-0.043013133 0.0069143083 -0.20727926
-0.12027272 0.022360837 -0.20612073
-0.043013133 0.022343013 -0.20727921
-0.12027272 0.037798565 -0.20612073
-0.12027272 0.053236216 -0.20612073
-0.058339663 0.05315505 -0.20875424
-0.12027367 0.068674244 -0.20611119
-0.10416914 0.068396382 -0.21332973
-0.073401146 0.068394534 -0.21337765
-0.058840744 0.068850853 -0.20152199
-0.12038102 0.084161483 -0.20503831
-0.10453128 0.083959654 -0.20940924
-0.089171149 0.083988093 -0.20879281
-0.074210025 0.084261656 -0.20286995
-0.10515506 0.099735811 -0.20265681
-0.12171658 -0.11735538 -0.19169277
-0.10611809 -0.11732633 -0.19223154
-0.13693842 -0.1016666 -0.19472593
-0.1207883 -0.10137817 -0.2009688
-0.089918397 -0.10142443 -0.19996816
-0.13681003 -0.086095318 -0.19591707
-0.13681003 -0.070579141 -0.19591707
-0.13681003 -0.055062983 -0.19591701
-0.044087775 -0.055203579 -0.18982935
-0.13680899 -0.039546639 -0.19592685
-0.043471165 -0.039486293 -0.19984192
-0.13680899 -0.024030518 -0.19592685
-0.13680899 -0.0085143596 -0.19592685
-0.13680899 0.007001726 -0.19592673
-0.13680899 0.022517847 -0.19592685
-0.13680899 0.03803397 -0.19592685
-0.043473557 0.037944444 -0.19980294
-0.13680899 0.053550128 -0.19592685
-0.044090204 0.05373909 -0.18979001
-0.13681003 0.069066584 -0.19591713
-0.13681003 0.084582821 -0.19591707
-0.13694158 0.1001648 -0.19469661
-0.12079024 0.099827737 -0.20094925
-0.089923345 0.099883832 -0.19990993
-0.12172247 0.11587894 -0.19163406
-0.10612353 0.11584571 -0.19217277
-0.13886097 -0.13381596 -0.17688662
-0.15386078 -0.11784382 -0.18262756
-0.13756138 -0.11750343 -0.18894541
-0.091291405 -0.11778316 -0.18375397
-0.1535165 -0.10208762 -0.18560904
-0.07546746 -0.10204489 -0.18653512
-0.15351537 -0.086491711 -0.18561888
-0.059902258 -0.086469397 -0.18620026
-0.15351537 -0.070896238 -0.18561888
-0.044709943 -0.071077652 -0.17972648
-0.15351537 -0.055300832 -0.18561882
-0.15351537 -0.039705314 -0.18561882
-0.15351421 -0.024109727 -0.18562871
-0.028827086 -0.024120636 -0.18421805
-0.028827086 -0.0085143968 -0.18421805
-0.15351421 -0.0085143223 -0.18562871
-0.15351421 0.0070810448 -0.18562871
-0.028827086 0.0070918435 -0.18421805
-0.15351421 0.022676449 -0.18562871
-0.028827086 0.022698082 -0.18421805
-0.15351421 0.038271781 -0.18562865
-0.15351537 0.053867478 -0.18561882
-0.15351537 0.069462955 -0.18561888
-0.044712402 0.069691263 -0.17968673
-0.15351537 0.085058436 -0.18561888
-0.059908397 0.085035697 -0.18611169
-0.1535165 0.10065443 -0.18560904
-0.075475045 0.10060984 -0.18643677
-0.1538642 0.11643539 -0.18259782
-0.13756454 0.11604635 -0.18891591
-0.091297247 0.11636847 -0.18368483
-0.13886741 0.13245398 -0.17682707
-0.17145786 -0.13445164 -0.16656345
-0.15494579 -0.13404098 -0.17323107
-0.12340645 -0.13394402 -0.17480654
-0.18744209 -0.11880925 -0.16471344
-0.17054325 -0.11830931 -0.17398918
-0.18744606 -0.10305414 -0.1646834
-0.1703935 -0.10256819 -0.17520487
-0.18744344 -0.087296791 -0.16470355
-0.17039227 -0.08689221 -0.17521477
-0.18744344 -0.071540296 -0.16470349
-0.17039227 -0.071216583 -0.17521489
-0.18744344 -0.055783771 -0.16470349
-0.17039227 -0.055541083 -0.17521477
-0.029801704 -0.055750825 -0.16613138
-0.18744344 -0.040027328 -0.16470343
-0.17039227 -0.039865471 -0.17521489
-0.029250011 -0.03984772 -0.17636943
-0.18744209 -0.024270806 -0.16471344
-0.17039105 -0.024189897 -0.17522484
-0.17039105 -0.0085143968 -0.17522484
-0.18744209 -0.0085143596 -0.16471344
-0.18744209 0.00724205 -0.1647135
-0.17039105 0.0071611032 -0.17522478
-0.18744209 0.02299846 -0.1647135
-0.17039105 0.02283664 -0.17522484
-0.18744344 0.038755089 -0.16470349
-0.17039227 0.038512215 -0.17521477
-0.029252157 0.038486514 -0.17632967
-0.18744344 0.054511502 -0.16470355
-0.17039227 0.054187901 -0.17521489
-0.029803872 0.054468788 -0.16609114
-0.18744475 0.070268318 -0.16469336
-0.17039227 0.069863401 -0.17521477
-0.18744475 0.086024985 -0.16469347
-0.17039227 0.085539013 -0.17521489
-0.18744475 0.10178154 -0.16469342
-0.1703935 0.10121506 -0.17520487
-0.18744209 0.11753681 -0.16471362
-0.17054692 0.11696737 -0.17395914
-0.171469 0.13317133 -0.16647297
-0.15495729 0.13270998 -0.17313123
-0.12341843 0.13260223 -0.17468691
-0.18840021 -0.13501646 -0.15739214
-0.10891048 -0.13473247 -0.1620031
-0.20476452 -0.11941817 -0.15341175
-0.077333428 -0.11893953 -0.16229564
-0.20467433 -0.10354469 -0.15406263
-0.06158217 -0.10318026 -0.16195279
-0.2046715 -0.087705553 -0.15408301
-0.045825653 -0.087415829 -0.16160959
-0.2046715 -0.071867332 -0.15408307
-0.030359522 -0.071815081 -0.15577954
-0.2046729 -0.056029312 -0.15407276
-0.2046715 -0.040190883 -0.15408301
-0.014693081 -0.040217582 -0.15234292
-0.2046701 -0.024352603 -0.15409315
-0.014312178 -0.024302533 -0.16058975
-0.014312178 -0.0085143968 -0.16058969
-0.2046701 -0.0085143596 -0.15409321
-0.2046701 0.0073237717 -0.15409315
-0.014312178 0.0072737783 -0.16058975
-0.2046715 0.023162089 -0.15408301
-0.014312178 0.023061842 -0.16058969
-0.2046715 0.039000258 -0.15408301
-0.014694966 0.039041378 -0.15230215
-0.2046715 0.054838501 -0.15408301
-0.2046729 0.070677191 -0.15407288
-0.030361712 0.070612997 -0.15573889
-0.2046729 0.086515509 -0.15407288
-0.045831256 0.086171605 -0.16151881
-0.2046729 0.10235382 -0.15407294
-0.061589174 0.10193463 -0.16185176
-0.20476875 0.11823469 -0.15338111
-0.077341191 0.1176919 -0.16219485
-0.1884042 0.13380256 -0.15736175
-0.10893098 0.1334964 -0.16178119
-0.20608306 -0.13584758 -0.1438961
-0.22250968 -0.12011886 -0.14040941
-0.22208232 -0.10404037 -0.14333117
-0.22207934 -0.08811859 -0.14335179
-0.22208083 -0.072198071 -0.14334142
-0.22208083 -0.056277178 -0.14334142
-0.01517722 -0.056311309 -0.14186102
-0.22207934 -0.040356066 -0.14335179
-0.22207782 -0.024435211 -0.14336199
-0.22207782 -0.0085143968 -0.14336199
-0.22207782 0.0074063465 -0.14336199
-0.22207934 0.023327272 -0.14335179
-0.22207934 0.039248127 -0.14335173
-0.22208083 0.055169277 -0.14334142
-0.01517912 0.055216126 -0.14181983
-0.22208083 0.071090236 -0.14334142
-0.22208083 0.087011166 -0.14334148
-0.22208232 0.10293261 -0.14333117
-0.2225157 0.11903606 -0.1403681
-0.20610014 0.13474399 -0.14377284
-0.17496377 -0.15216593 -0.1380989
-0.15916476 -0.15226319 -0.13669372
-0.09549465 -0.13644992 -0.13411587
-0.063443296 -0.1204055 -0.13508976
-0.23967287 -0.10454123 -0.13248712
-0.04735563 -0.10434363 -0.13676602
-0.23966968 -0.088535964 -0.13250786
-0.031402476 -0.088385276 -0.13642472
-0.23967126 -0.072532021 -0.13249755
-0.01566679 -0.072569996 -0.13126141
-0.23967126 -0.056527596 -0.13249743
-0.23966968 -0.040523026 -0.13250798
0.00021166354 -0.040596392 -0.12774223
-0.23966807 -0.024518674 -0.13251829
0.00054466724 -0.024488833 -0.13639367
0.00054466724 -0.0085143968 -0.13639373
-0.23966807 -0.0085143596 -0.13251841
-0.23966968 0.0074899178 -0.13250798
0.00054466724 0.0074600764 -0.13639373
-0.23966968 0.02349427 -0.13250786
0.00054466724 0.023434363 -0.13639373
-0.23966968 0.039498545 -0.13250798
0.00021006912 0.039609555 -0.12770051
-0.23967126 0.05550319 -0.13249755
-0.23967126 0.071507618 -0.13249761
-0.015668236 0.071556427 -0.13123018
-0.23967126 0.087512009 -0.13249755
-0.031408049 0.08733543 -0.13632137
-0.23967287 0.10351688 -0.13248712
-0.047361992 0.10329197 -0.13666266
-0.063459076 0.1193752 -0.13486189
-0.095513977 0.13542885 -0.13388771
-0.17499813 0.15111983 -0.13782001
-0.15919578 0.1512273 -0.13642478
-0.22482529 -0.13703734 -0.12457746
-0.24088904 -0.12097144 -0.12458789
-0.25843716 -0.10532974 -0.11541545
-0.25744715 -0.088958189 -0.12153929
-0.25744715 -0.072869375 -0.12153935
-0.25744715 -0.056780644 -0.12153941
-0.0002015084 -0.056885254 -0.11700779
-0.25744545 -0.040691722 -0.1215499
-0.25744376 -0.024602985 -0.12156028
-0.25744376 -0.0085143223 -0.12156034
-0.25744545 0.0075742658 -0.12154979
-0.25744545 0.023663003 -0.12154984
-0.25744715 0.03975185 -0.12153929
-0.25744715 0.055840619 -0.12153929
-0.00020312518 0.055981398 -0.11696553
-0.25744715 0.071929358 -0.12153929
-0.25744715 0.088018171 -0.12153935
-0.25844225 0.1044386 -0.11538374
-0.24089548 0.12001045 -0.12454599
-0.22484517 0.13608329 -0.12444144
-0.081707887 -0.1382141 -0.10546976
-0.049221329 -0.12194765 -0.10647064
-0.032775067 -0.10553582 -0.11095268
-0.016620971 -0.08937908 -0.11060286
-0.27566838 -0.073257133 -0.10894763
-0.00061895698 -0.073342964 -0.10616201
-0.2754114 -0.057036385 -0.11046505
-0.2754114 -0.040862303 -0.11046499
0.015476853 -0.040984295 -0.10254675
-0.27540964 -0.024688331 -0.11047554
0.015756562 -0.024679421 -0.11163056
-0.27540964 -0.0085143968 -0.11047566
0.015756562 -0.0085143223 -0.11163062
-0.27540964 0.007659575 -0.11047566
0.015756562 0.0076507013 -0.11163062
-0.27540964 0.023833435 -0.11047554
0.015756562 0.023815688 -0.11163062
-0.2754114 0.040007595 -0.11046499
0.015475862 0.040191267 -0.10251468
-0.2754114 0.056181639 -0.11046493
-0.27567199 0.07241489 -0.10892648
-0.00062059611 0.072522864 -0.10611951
-0.016625866 0.088528179 -0.1104967
-0.032780781 0.10468307 -0.11084652
-0.049237065 0.12113938 -0.10621536
-0.081726752 0.13741474 -0.10522473
-0.27688274 -0.089718841 -0.10177726
-0.2951026 -0.057495181 -0.090600014
0.015138246 -0.057473291 -0.091550291
-0.29436186 -0.041103773 -0.094783843
-0.29361263 -0.024776489 -0.099015534
-0.29356518 -0.0085143596 -0.099283457
-0.29356518 0.0077456608 -0.099283397
-0.29361638 0.024010267 -0.098994076
-0.29436374 0.040369984 -0.094772935
-0.2951026 0.056793265 -0.090599954
0.01513692 0.056765348 -0.091507137
-0.27688637 0.088931836 -0.1017558
-0.017827131 -0.10675815 -0.08448875
-0.0014669597 -0.090398028 -0.084130228
0.014796101 -0.074134976 -0.080438733
0.031335648 -0.024874741 -0.08625859
0.031335648 -0.0085143596 -0.08625865
0.031335648 0.0078459848 -0.08625859
0.031335648 0.024206329 -0.08625865
0.014794759 0.073513046 -0.080395103
-0.0014711469 0.089751028 -0.084021509
-0.017831653 0.10610867 -0.084390998
-0.067536347 -0.14002819 -0.076011717
-0.034602441 -0.12353346 -0.077040911
0.030855477 -0.058075633 -0.065466523
0.0311157 -0.041381668 -0.076734424
0.031114943 0.040787362 -0.076701522
0.030854709 0.057568267 -0.065433204
-0.03461659 0.12295222 -0.076778173
-0.067554556 0.13945681 -0.075748801
-0.0024973154 -0.10801117 -0.057360709
0.014073811 -0.091442965 -0.056981862
0.030592494 -0.074946582 -0.054078996
0.047295984 -0.025074795 -0.060276985
0.047295984 -0.0085143968 -0.060277104
0.047295984 0.0080459658 -0.060277104
0.047295984 0.024606328 -0.060276926
0.030591462 0.074527591 -0.054034173
0.014070377 0.091005117 -0.056870341
-0.0025016069 0.10757128 -0.057249427
-0.052962743 -0.14189376 -0.045717955
-0.019568473 -0.12516373 -0.04678762
0.047142107 -0.041788913 -0.050282478
0.047141589 0.041398287 -0.050248742
-0.019581467 0.12481652 -0.046506226
-0.052979387 0.14155616 -0.045447469
0.013228223 -0.10929707 -0.029520452
0.030016359 -0.092514977 -0.029131591
0.046964288 -0.058692992 -0.038732767
0.063651375 -0.025279693 -0.033652246
0.063651375 -0.0085143596 -0.033652306
0.063651375 0.0082509369 -0.033652306
0.063651375 0.0250162 -0.033652246
0.046963762 0.058391482 -0.038698792
0.030013718 0.092291564 -0.02901721
0.013224706 0.10907158 -0.02940613
-0.0041026473 -0.12684146 -0.015652955
0.046784557 -0.075778633 -0.027059078
0.063570753 -0.042206217 -0.02317822
0.063570395 0.042024445 -0.023132205
0.046783853 0.075567685 -0.027013242
-0.0041142404 0.12673509 -0.015351892
-0.037970319 -0.14381385 -0.014540553
0.063479498 -0.05932603 -0.011324644
0.080416687 -0.025489843 -0.0063487291
0.080416687 -0.0085143968 -0.0063487291
0.080416687 0.0084610507 -0.0063485503
0.080416687 0.025436573 -0.0063486099
0.06347923 0.059235372 -0.011289716
-0.037984699 0.14371601 -0.014273942
0.029365558 -0.11061665 -0.00095099211
0.046376456 -0.093614981 -0.00055199862
0.063387349 -0.076631732 0.00064629316
0.080416687 -0.042634357 0.0046262741
0.080416687 0.042666357 0.0046616793
0.063387074 0.076633669 0.00068157911
0.046374649 0.093611814 -0.00043457747
0.02936285 0.11061119 -0.00083363056
0.0118149 -0.12856749 0.016378343
0.080416687 -0.059975151 0.016783893
0.097607613 -0.025705354 0.021636426
0.097607613 -0.0085143968 0.021636367
0.097607613 0.0086765252 0.021636486
0.097607613 0.025867447 0.021636367
0.080416687 0.060100965 0.016819537
0.01180499 0.12870905 0.016700327
-0.022798039 -0.14613403 0.023134708
0.045931075 -0.11197121 0.0283764
0.063170724 -0.094744235 0.028786123
0.080416687 -0.077511229 0.029208183
0.097696215 -0.043073405 0.033146501
0.097696491 0.043325055 0.03318274
0.080416687 0.077735819 0.029316664
0.0631698 0.09496697 0.028906822
0.04592922 0.11219173 0.028496921
-0.022890642 0.14644656 0.025139391
0.097792141 -0.060640767 0.045607686
0.097792417 0.060988531 0.045644283
0.028203435 -0.13034526 0.049370408
0.06294205 -0.1133622 0.058492422
0.080416687 -0.095903702 0.058913231
0.11524065 -0.025926339 0.05035305
0.11524065 -0.0085143968 0.05035305
0.11524065 0.0088976193 0.05035305
0.11524065 0.026309561 0.05035305
0.080416687 0.09635859 0.05903697
0.062941097 0.11381479 0.058616161
0.028195776 0.13074131 0.049701929
0.097897902 -0.078439213 0.059346676
0.11542629 -0.043524027 0.062410116
0.11542685 0.044000804 0.062447548
0.097898759 0.078895986 0.059458256
0.04508483 -0.13217589 0.083341599
0.11562318 -0.061324134 0.075199127
0.1333328 -0.026153091 0.079805493
0.1333328 -0.0085143596 0.079805255
0.1333328 0.0091243722 0.079805255
0.1333328 0.026763067 0.079805255
0.11562376 0.061899796 0.075237036
0.045079377 0.13283479 0.083696008
0.080416687 -0.11479109 0.089429259
0.098132804 -0.097095005 0.089861751
0.11585578 -0.07939256 0.090307117
0.13362446 -0.043986257 0.092434406
0.13362534 0.044694301 0.092472553
0.11585754 0.080087729 0.090421677
0.098133788 0.097788222 0.089988947
0.080416687 0.11548201 0.089556456
-0.0086394474 -0.15100423 0.10221636
0.13392799 -0.062025692 0.10557711
0.13392887 0.062835202 0.10561597
-0.008725144 0.15194084 0.10444295
0.062481068 -0.13406372 0.11837542
0.15190274 -0.026385836 0.11004758
0.15190274 -0.0085143968 0.1100477
0.15190274 0.0093571171 0.11004758
0.15190274 0.027228665 0.1100477
0.062478259 0.13499297 0.11874044
0.09837421 -0.11625955 0.12122118
0.11633858 -0.098319143 0.12166572
0.1343098 -0.080371901 0.12211025
0.15231003 -0.044461101 0.12327504
0.15231124 0.045406472 0.12331414
0.13431282 0.081312537 0.12224114
0.11634059 0.099257268 0.12179649
0.098375119 0.11719464 0.12133884
0.15272567 -0.062746108 0.13677299
0.17097503 -0.026626086 0.14124525
0.17096889 -0.0085143223 0.14108562
0.17096889 0.0095959976 0.14108574
0.17097709 0.027709831 0.14129829
0.15272689 0.06379576 0.13681281
0.080416687 -0.1360101 0.15449512
0.11683492 -0.11776913 0.15390384
0.13505459 -0.099577524 0.15436077
0.1532813 -0.081379049 0.15481794
0.17150263 -0.044948738 0.15495241
0.17150418 0.046138171 0.15499282
0.15328503 0.082571067 0.15493917
0.1350577 0.10076755 0.15449536
0.11683679 0.1189559 0.15402472
0.080416687 0.13721734 0.15485835
0.17203641 -0.063486233 0.1688205
0.17203799 0.064782649 0.16886127
0.19057259 -0.026873732 0.17341554
0.19055241 -0.0085144332 0.17297852
0.19055241 0.009841647 0.17297852
0.1905745 0.028204978 0.17345655
0.098917276 -0.13801852 0.19176662
0.13588642 -0.11945387 0.1903801
0.15430216 -0.10087123 0.18797135
0.17279217 -0.082414821 0.1884557
0.19122319 -0.045449872 0.18750131
0.19122511 0.046889797 0.18754292
0.17279696 0.083865948 0.18858027
0.15430643 0.10232021 0.18810976
0.13589379 0.1209321 0.19069898
0.098919943 0.13951169 0.19211352
0.19188152 -0.064246848 0.20175469
0.21071276 -0.027128182 0.20646393
0.21067342 -0.0085144704 0.2057339
0.21067342 0.010093767 0.2057339
0.21071577 0.028713875 0.20652008
0.19188346 0.065796822 0.20179653
0.11800984 -0.14009039 0.23021674
0.15555847 -0.12122707 0.22877109
0.17410505 -0.10220279 0.22256517
0.19286573 -0.083480433 0.22306335
0.21149305 -0.045964763 0.22094393
0.21149611 0.047662467 0.22100091
0.19287166 0.085198067 0.22319162
0.17411053 0.1039182 0.22270739
0.1555686 0.12300143 0.22910035
0.11801513 0.14187939 0.23056042
0.21228272 -0.065028392 0.23559868
0.2314198 -0.027389843 0.24045539
0.23135582 -0.0085143968 0.23941612
0.23135582 0.010353025 0.23941612
0.23142338 0.029237196 0.24051321
0.21228504 0.066838957 0.23564172
0.23233688 -0.04649448 0.25534678
0.23234048 0.048456989 0.25540519
0.13772325 -0.14222971 0.26991713
0.1758696 -0.12305789 0.26840949
0.19448727 -0.10357326 0.25817084
0.21352667 -0.084577255 0.25868368
0.21353379 0.086569272 0.25881565
0.19449404 0.1055629 0.25831747
0.17588323 0.12513873 0.26876402
0.23326513 -0.0658326 0.27041996
0.25271735 -0.027658898 0.27541614
0.25262168 -0.0085144332 0.27403545
0.25262168 0.010619456 0.27403545
0.25272149 0.029775571 0.27547562
0.2332679 0.067911185 0.27046442
0.13773145 0.14432494 0.27027214
0.21547467 -0.10498436 0.29483378
0.25377879 -0.047039364 0.29073656
0.25378191 0.049274031 0.29078174
0.23480117 -0.085706621 0.29536188
0.25485337 -0.066659927 0.30624688
0.25485653 0.06901437 0.30629253
0.23480955 0.087981157 0.29549789
0.2154828 0.1072566 0.29498458
0.15812314 -0.14450064 0.31206119
0.19685215 -0.12494986 0.30937195
0.27463102 -0.027935833 0.31138837
0.27449813 -0.0085144332 0.30966198
0.27449813 0.010893764 0.30966198
0.27463454 0.030329213 0.31143415
0.19686837 0.12734593 0.30972314
0.15820187 0.14705603 0.31461835
0.27589491 -0.047609977 0.32780683
0.27590445 0.050131973 0.32793093
0.23709455 -0.10643799 0.33260143
0.256717 -0.086870082 0.33314586
0.25672668 0.089435637 0.33328593
0.23710412 0.1090011 0.33275712
0.21853954 -0.1269054 0.35171044
0.21855909 0.12962793 0.35207343
0.2782734 -0.067871459 0.35870445
0.27828684 0.070633553 0.35887909
0.29989636 -0.028467067 0.38040149
0.29922071 -0.0085144704 0.37242293
0.29922208 0.011376999 0.37243891
0.29991001 0.031393386 0.3805629
0.30419409 -0.049201131 0.43115544
0.30421114 0.052520458 0.43135679
0.33422944 -0.0085143596 0.53607392
0.33422777 0.012636529 0.5360558
0.33658946 -0.029862123 0.56162202
0.33659971 0.034182794 0.56173289
0.34032536 -0.051832531 0.60206401
0.36127076 -0.0085143596 0.59493291
0.36127076 0.013089739 0.59493279
0.34034115 0.056466706 0.6022352
0.36297157 -0.030249363 0.61192858
0.36297923 0.034956757 0.61200488
0.38791376 -0.0085144332 0.64168751
0.38791376 0.013449615 0.64168751
0.36693537 -0.052594144 0.65153682
0.3669531 0.057609349 0.65171409
0.38998857 -0.030626692 0.66093934
0.38999924 0.035711713 0.6610384
0.41624823 -0.0085145077 0.69685698
0.41624823 0.013874426 0.69685662
0.39642012 -0.053657871 0.72061682
0.41920888 -0.03110061 0.72249687
0.41922083 0.036659475 0.72260034
0.39651582 0.059221096 0.72150469
0.44752011 -0.0085144332 0.76897848
0.44753587 0.01443051 0.76910675
0.45185965 -0.031729691 0.80421174
0.47514063 -0.0085144332 0.8047142
0.47514921 0.01470504 0.80477953
0.45186505 0.037916526 0.80425537
0.43084773 -0.055238485 0.8232919
0.43086305 0.061574712 0.82342494
0.48422399 -0.032267731 0.87412369
0.48421803 0.038991496 0.87407804
0.46122983 -0.056116212 0.88028789
0.46121004 0.06288442 0.88012695
0 0 0 1 0 0 0 1 0 0 0 1 0 0 0 0 0 580 1 0 0
