ply
format ascii 1.0
comment PCL generated
element vertex 670
property float x
property float y
property float z
element camera 1
property float view_px
property float view_py
property float view_pz
property float x_axisx
property float x_axisy
property float x_axisz
property float y_axisx
property float y_axisy
property float y_axisz
property float z_axisx
property float z_axisy
property float z_axisz
property float focal
property float scalex
property float scaley
property float centerx
property float centery
property int viewportx
property int viewporty
property float k1
property float k2
end_header
-0.29529896 -0.050064448 -0.47359413
-0.29473412 -0.031897277 -0.47708821
-0.2773824 -0.031935431 -0.47214127
-0.29461801 -0.01378401 -0.47780651
-0.27686948 -0.013783962 -0.47547281
-0.31413561 0.0043879971 -0.46948195
-0.29455912 0.0043210201 -0.47817069
-0.27654061 0.0043253638 -0.47760868
-0.2951943 0.022486582 -0.47424161
-0.27716675 0.022497278 -0.47354186
-0.29538849 0.040649571 -0.4730404
-0.27756765 0.040698133 -0.47093803
-0.29565558 0.058844924 -0.47138798
-0.31622881 -0.086852163 -0.45712227
-0.33482617 -0.068628237 -0.45525658
-0.31489152 -0.068402678 -0.46501875
-0.29688436 -0.068431176 -0.46378696
-0.33445272 -0.050314318 -0.45736575
-0.31458169 -0.050168302 -0.46684808
-0.27882922 -0.050231524 -0.46274382
-0.33446962 -0.032049838 -0.4572705
-0.31435764 -0.031966005 -0.468171
-0.33459154 -0.013783987 -0.45658195
-0.26157182 -0.01378401 -0.45613682
-0.31419775 -0.013783916 -0.46911496
-0.33464593 0.0044896305 -0.45627463
-0.26102534 0.0044618919 -0.45987284
-0.33468911 0.022766933 -0.45603073
-0.3144483 0.022588216 -0.46763563
-0.2616742 0.022776049 -0.455437
-0.31501094 0.040851094 -0.46431357
-0.3153339 0.059121594 -0.46240646
-0.27823618 0.05899246 -0.46659583
-0.31572357 0.077436432 -0.46010542
-0.29625878 0.07714577 -0.46765667
-0.27973878 0.077562295 -0.45683622
-0.31618398 0.09580607 -0.45738709
-0.29808509 0.095853619 -0.45635945
-0.35609919 -0.1058142 -0.43906438
-0.33714736 -0.10569552 -0.44214672
-0.35554951 -0.08731664 -0.44203931
-0.33526242 -0.086985409 -0.45279282
-0.29949003 -0.08714316 -0.44766843
-0.35500714 -0.068865694 -0.4449749
-0.2814447 -0.068847582 -0.4457559
-0.35518911 -0.050520185 -0.44399017
-0.26415071 -0.05060466 -0.43850493
-0.35542667 -0.032161981 -0.44270426
-0.2624189 -0.032103196 -0.45034522
-0.35560897 -0.013783916 -0.44171757
-0.35569623 0.004605338 -0.44124532
-0.35574383 0.022998486 -0.44098759
-0.33546388 0.041143391 -0.45165473
-0.26224294 0.041145872 -0.4515484
-0.33551291 0.059461087 -0.45137811
-0.26334372 0.059687585 -0.44402218
-0.33565614 0.077803522 -0.45056891
-0.33621696 0.096267335 -0.44740146
-0.33681718 0.11479182 -0.44401151
-0.31778467 0.1145804 -0.44793534
-0.3768056 -0.10627429 -0.42711115
-0.3201229 -0.10600421 -0.43412888
-0.37616476 -0.087673739 -0.43044108
-0.28508943 -0.087931141 -0.42208242
-0.37591684 -0.069171548 -0.4317292
-0.37622941 -0.050733987 -0.43010521
-0.37653822 -0.032271355 -0.42850059
-0.37683907 -0.013783892 -0.4269374
-0.37701684 0.0047225785 -0.42601365
-0.2474772 0.0047229566 -0.42597014
-0.37706703 0.023233131 -0.42575264
-0.37777963 0.041827168 -0.42204988
-0.35653669 0.041488878 -0.43669611
-0.37766632 0.060346082 -0.42263865
-0.35651875 0.059910193 -0.43679303
-0.37754676 0.078854606 -0.42325985
-0.35644713 0.078318827 -0.437181
-0.2651718 0.078536525 -0.43152362
-0.35650283 0.096753314 -0.43687928
-0.28280139 0.096750341 -0.43694395
-0.3774063 0.097348608 -0.42398983
-0.35723254 0.11538897 -0.43292964
-0.30137882 0.11522443 -0.43598467
-0.35796267 0.13408563 -0.42897785
-0.33933881 0.13403687 -0.42976922
-0.39789367 -0.10677239 -0.41417086
-0.30587134 -0.10700242 -0.40819448
-0.39719805 -0.088067651 -0.41764611
-0.41818109 -0.0697648 -0.40604109
-0.39700532 -0.069474511 -0.41860914
-0.39734274 -0.050936949 -0.4169234
-0.39767841 -0.032373346 -0.41524625
-0.39799696 -0.013783939 -0.41365474
-0.24879149 -0.013783916 -0.41648513
-0.39893526 0.0048538409 -0.40896666
-0.39910081 0.023504276 -0.40813941
-0.2483381 0.023325324 -0.41975707
-0.39897057 0.042133369 -0.40879023
-0.24952492 0.042077843 -0.41119182
-0.39884701 0.06075342 -0.40940756
-0.39870146 0.0793598 -0.41013491
-0.39855596 0.097955063 -0.41086167
-0.39909863 0.11672428 -0.40815037
-0.37794554 0.1160217 -0.42118776
-0.37879574 0.13483748 -0.41677004
-0.32345086 0.1349785 -0.41447812
-0.41941312 -0.10731351 -0.40011334
-0.4187077 -0.088503011 -0.40350741
-0.4400582 -0.070109412 -0.3911168
-0.27078089 -0.070061937 -0.39317387
-0.43975207 -0.051312421 -0.39253718
-0.41850516 -0.051128581 -0.40448159
-0.43997857 -0.032556336 -0.39148605
-0.41878828 -0.032466646 -0.40311974
-0.25158718 -0.032519199 -0.3963089
-0.41902331 -0.013783987 -0.40198898
-0.4401426 -0.013783916 -0.3907252
-0.44021258 0.0049967449 -0.39040053
-0.41912469 0.0049112812 -0.40150094
-0.4191685 0.023609713 -0.40129018
-0.42005804 0.042405389 -0.39701051
-0.42001173 0.061128326 -0.39723319
-0.41992149 0.079839669 -0.39766741
-0.420468 0.098685794 -0.39503801
-0.42077652 0.11751079 -0.39355367
-0.40004346 0.13565892 -0.40342981
-0.44071743 -0.088978797 -0.38805825
-0.46207485 -0.051557783 -0.37659657
-0.46161768 -0.03265509 -0.37864429
-0.4614487 -0.013783962 -0.37940139
-0.46149412 0.0050828923 -0.37919813
-0.46153954 0.023952935 -0.37899464
-0.44025841 0.023780592 -0.39018774
-0.44123778 0.042667821 -0.38564402
-0.44126442 0.061488993 -0.38552052
-0.25344536 0.061569683 -0.38289845
-0.44123778 0.080302395 -0.38564402
-0.44206765 0.099297591 -0.38179421
-0.44296107 0.11836783 -0.37764925
-0.46261129 -0.070500232 -0.37419379
-0.25522158 -0.05165812 -0.37007993
-0.4848161 -0.032799385 -0.35990685
-0.23746115 -0.032790322 -0.3610884
-0.23632771 -0.013783987 -0.36974978
-0.48456177 -0.013783916 -0.36100829
-0.48443469 0.0052187834 -0.36155856
-0.23584414 0.005127253 -0.37344486
-0.23655733 0.024122372 -0.36799502
-0.46259859 0.042931009 -0.37425035
-0.23711187 0.043173373 -0.36375737
-0.46318933 0.061917536 -0.37160432
-0.4639391 0.080972098 -0.36824566
-0.46473685 0.10008845 -0.36467236
-0.25838798 -0.071123049 -0.34722817
-0.23931444 -0.052014656 -0.34692675
-0.22026628 -0.013783939 -0.3463816
-0.21979108 0.0053058751 -0.35023952
-0.48551938 0.024293818 -0.35686159
-0.22051373 0.024486061 -0.34437251
-0.48590758 0.043371402 -0.35518056
-0.23872358 0.062538348 -0.35144192
-0.25713292 0.081432424 -0.35628611
-0.27717397 0.10079076 -0.34946418
-0.28047282 -0.090861604 -0.3269099
-0.22134626 -0.032970995 -0.33761317
-0.20332846 0.0054809321 -0.32748729
-0.22111759 0.04373417 -0.33946967
-0.22265437 0.063291222 -0.32699245
-0.24136117 0.082394637 -0.33128673
-0.24230766 -0.071658209 -0.32405442
-0.22305846 -0.05237202 -0.32371181
-0.20464441 -0.033136636 -0.31609064
-0.20373303 -0.013783892 -0.32398355
-0.20401159 0.024837073 -0.32157123
-0.20458129 0.044261541 -0.31663746
-0.2616891 0.10199449 -0.32340449
-0.26436931 -0.091565162 -0.30406171
-0.22553638 -0.07213071 -0.30359364
-0.20608193 -0.052681033 -0.30364168
-0.18753955 -0.033297218 -0.29523325
-0.18670326 -0.013783939 -0.302993
-0.18631801 0.0056420378 -0.30656791
-0.18699357 0.025164619 -0.30029947
-0.18755001 0.044758122 -0.29513657
-0.2059184 0.063966617 -0.30505764
-0.22508007 0.083317988 -0.30729824
-0.24570966 0.10316514 -0.29805833
-0.2471059 -0.092078581 -0.28738898
-0.20844528 -0.072602287 -0.28317428
-0.1888313 -0.052995071 -0.28324747
-0.16938579 -0.013783939 -0.2816481
-0.16902202 0.0058058798 -0.28528339
-0.18882471 0.064636253 -0.28330839
-0.20815954 0.084151275 -0.28564882
-0.22966164 -0.092610903 -0.27010053
-0.17014849 -0.033460498 -0.27402681
-0.15143062 0.0059724152 -0.26364923
-0.16967589 0.025496319 -0.27874959
-0.17022601 0.045263395 -0.27325225
-0.19094342 0.084998071 -0.26364934
-0.22883934 0.10414802 -0.27677673
-0.21221399 -0.093213394 -0.2505365
-0.19107434 -0.073081195 -0.2624346
-0.17130116 -0.053314354 -0.26250905
-0.15246285 -0.03362637 -0.25247514
-0.15177563 -0.013783987 -0.25991464
-0.15206409 0.025834441 -0.25679201
-0.15260033 0.045777634 -0.25098699
-0.17143399 0.065317594 -0.26118141
-0.21168303 0.10514774 -0.25513428
-0.17341816 -0.073568001 -0.24135435
-0.15354022 -0.053648368 -0.24081218
-0.13386247 -0.013783939 -0.23780727
-0.13354291 0.0061423015 -0.2415812
-0.13414648 0.026178323 -0.23445332
-0.15373726 0.066010505 -0.23867905
-0.17342699 0.0858595 -0.24126601
-0.19423208 0.10616386 -0.23313451
-0.27361465 0.12592858 -0.23733962
-0.19449756 -0.093824975 -0.23067117
-0.15546969 -0.074063025 -0.21992505
-0.13548201 -0.053989135 -0.21868145
-0.13447753 -0.03379517 -0.23054409
-0.11540413 0.0063210186 -0.21836078
-0.13466603 0.046301227 -0.22831774
-0.15560237 0.08673618 -0.21848893
-0.25516826 0.12655142 -0.22578144
-0.17650872 -0.094447039 -0.21047175
-0.11629802 -0.033978373 -0.20674884
-0.11571674 -0.013783987 -0.21429992
-0.11598262 0.026541706 -0.21084607
-0.1165195 0.046865802 -0.20387197
-0.13572887 0.066716067 -0.21576643
-0.17647901 0.10719692 -0.21076858
-0.23656464 0.12718326 -0.21405542
-0.23925376 -0.11531526 -0.19222224
-0.21967471 -0.11555758 -0.18592477
-0.15836416 -0.09512078 -0.1885916
-0.13734522 -0.074599832 -0.19667792
-0.11729445 -0.054372206 -0.19380498
-0.09733884 -0.013783939 -0.18891978
-0.097051114 0.0065157432 -0.1930728
-0.097598284 0.026937056 -0.1851747
-0.11757156 0.067503177 -0.19020498
-0.13755752 0.087672256 -0.19417107
-0.15848547 0.10828183 -0.18727851
-0.21833214 0.12807259 -0.19755173
-0.20036268 -0.11592998 -0.1762495
-0.11900957 -0.075180747 -0.17152476
-0.097861245 -0.034173712 -0.18137968
-0.098123997 0.047472823 -0.17758679
-0.20034984 0.12921399 -0.17636871
-0.18222275 -0.11681049 -0.15337372
-0.14011416 -0.095878616 -0.16397846
-0.098773643 -0.054766186 -0.16821015
-0.07906355 -0.034372684 -0.15552831
-0.078601643 -0.013783939 -0.16302884
-0.078340024 0.0067143384 -0.16727686
-0.078850046 0.027340006 -0.15899527
-0.099088132 0.068320081 -0.1636709
-0.11933656 0.08870735 -0.16727686
-0.14047591 0.10955532 -0.15970635
-0.12151772 -0.096649528 -0.1389432
-0.10031934 -0.075772472 -0.14590001
-0.07988885 -0.05516772 -0.14212716
-0.059259251 0.0069168061 -0.14097142
-0.079357401 0.048092313 -0.15075648
-0.10074095 0.089764401 -0.13981485
-0.18257254 0.13064146 -0.1498785
-0.16377625 -0.11770997 -0.13000429
-0.059894577 -0.034575529 -0.12918115
-0.059493452 -0.013783987 -0.13662529
-0.059727654 0.027751457 -0.1322788
-0.060205057 0.048723653 -0.1234194
-0.080228522 0.069153368 -0.1366117
-0.12208661 0.11085573 -0.13155305
-0.14500713 -0.11862645 -0.10619509
-0.10256678 -0.09743423 -0.1134609
-0.081266135 -0.076376006 -0.11976266
-0.060723722 -0.055603962 -0.11379421
-0.040080324 0.0071703605 -0.10802221
-0.061085835 0.070062824 -0.10707402
-0.081758589 0.090843976 -0.11176634
-0.16462791 0.13220924 -0.12078488
-0.040839374 -0.034864876 -0.091588616
-0.040348694 -0.013783939 -0.10221171
-0.040576041 0.028290112 -0.09728992
-0.10330445 0.11218315 -0.10281348
-0.14629059 0.13381213 -0.091038465
-0.12590846 -0.11956131 -0.081905723
-0.08399567 -0.098604932 -0.075440764
-0.062455848 -0.077256322 -0.081649899
-0.041200712 0.049639426 -0.083765388
-0.041705966 -0.056234688 -0.072826385
-0.02095332 -0.013783987 -0.060544848
-0.020700686 0.0074854419 -0.067108631
-0.042245239 0.071476974 -0.061150789
-0.063107222 0.092468478 -0.069561958
-0.02146332 -0.03520583 -0.047294497
-0.021172568 0.02894355 -0.054848552
-0.085216552 0.11436302 -0.055616021
-0.04350923 -0.07836172 -0.03378427
-0.00061351061 0.0077809263 -0.028715611
-0.021872483 0.050727174 -0.036664128
-0.065829486 -0.10034143 -0.01904285
-0.022323512 -0.056971934 -0.024946213
-0.00096905231 -0.035437714 -0.01716876
-0.00073139369 -0.013784081 -0.024886966
-0.00089991093 0.029489048 -0.019414425
-0.022810519 0.072981402 -0.012293339
-0.023146115 -0.0790594 -0.0035741329
-0.0013386384 -0.057276346 -0.005166173
0.020232379 -0.035588622 0.0024197102
0.020374268 -0.013783939 -0.0037244558
0.020456761 0.0079458077 -0.0072960854
0.020246662 0.029815745 0.0018010139
-0.00124906 0.051387452 -0.0080752373
-0.044767991 0.094894499 -0.006531477
-0.04556033 -0.10125494 0.010623097
-0.0019577593 -0.079486907 0.014940381
0.019992769 -0.057552941 0.01279521
0.041788585 -0.035712801 0.018553495
0.041873492 -0.013783939 0.013038516
0.041925631 0.0080762692 0.0096517801
0.041785058 0.030077185 0.018782377
0.020021193 0.051840931 0.011564612
-0.0017612949 0.07362356 0.0085602999
-0.023794323 0.095656537 0.013266683
-0.024317764 -0.10175507 0.026866078
0.019606061 -0.079824127 0.029540062
0.041627016 -0.057803098 0.029047728
0.063591883 -0.035838306 0.034856677
0.063629255 -0.013783892 0.030001402
0.063655406 0.0082068238 0.026605129
0.063583203 0.030341979 0.035984278
0.041639555 0.052225888 0.028233171
0.019714944 0.074124344 0.024825454
-0.0023973659 0.096270449 0.029216886
-0.068110809 0.1180078 0.023293138
-0.0026809722 -0.10211118 0.038427591
0.0191302 -0.10247201 0.050145507
0.041392341 -0.080164753 0.044290185
0.063510045 -0.058056276 0.045487285
0.085646182 -0.035965271 0.051362991
0.085646182 -0.013784033 0.047168136
0.085646182 0.0083391275 0.043792844
0.085646182 0.030609842 0.053379178
0.063512921 0.052615859 0.04511404
0.041453991 0.074600384 0.040285945
0.019255728 0.096866712 0.044709682
-0.046820968 0.11868315 0.03791678
-0.025090799 0.11910035 0.046949983
-0.092304379 -0.12500304 0.05947578
-0.069847569 -0.12485104 0.055523515
-0.047655165 -0.12486837 0.055977583
-0.02567517 -0.12510535 0.062132597
-0.0036002547 -0.12534201 0.068282127
0.041102372 -0.10287166 0.063124299
0.063404657 -0.080508538 0.059177399
0.085646182 -0.058312289 0.062116742
0.10795767 -0.036095496 0.068266273
0.10792924 -0.013783892 0.064573526
0.10790319 0.0084730349 0.061188936
0.085646182 0.053009927 0.062179804
0.063424706 0.075101972 0.056573153
0.041144755 0.097469628 0.060371399
-0.0033392534 0.11969417 0.059805751
0.018459335 -0.12576205 0.079194665
0.063258037 -0.10333651 0.078223705
0.085646182 -0.080856293 0.074235797
0.10804401 -0.058579631 0.079481244
0.1304725 0.0086291824 0.081473112
0.10797873 0.030881196 0.071002603
0.10804388 0.053409152 0.07946527
0.085646182 0.075631559 0.073775649
0.063273586 0.098079056 0.076204658
0.018607184 0.12029406 0.07279253
-0.11694875 -0.12633672 0.094124913
0.040669616 -0.12622544 0.091232538
0.085646182 -0.10382918 0.094221354
0.1081425 -0.081272893 0.092276454
0.13059953 -0.036260661 0.089724422
0.13053568 -0.013783987 0.085576892
0.13064179 0.031211577 0.092469335
0.10814621 0.076216251 0.092758417
0.085646182 0.098695099 0.0922122
0.040752258 0.12089782 0.085864902
0.063097559 0.12150791 0.099071264
-0.072275117 0.14413738 0.10057306
-0.049478054 0.14386088 0.095444441
-0.026910894 0.14379591 0.094237566
-0.027566031 -0.14963865 0.11125839
-0.0049441308 -0.14966941 0.11192584
0.06306421 -0.12669393 0.10340297
0.10831835 -0.1044726 0.11512029
0.130983 -0.081789255 0.11463094
0.13078298 -0.058920823 0.10163975
0.15360659 -0.036437396 0.11269116
0.15350893 -0.013783987 0.1084621
0.15341303 0.0088050179 0.10430968
0.15367475 0.0315683 0.11564267
0.13078895 0.053930096 0.10202777
0.13100109 0.076925732 0.11580586
0.10830492 0.099509738 0.11337566
0.085646182 0.12228449 0.1158874
-0.004630886 0.14420083 0.10175288
0.017764673 0.14460611 0.10927439
-0.050470546 -0.14990067 0.11693263
0.017556489 -0.14996332 0.11828923
0.040120497 -0.15036103 0.12689888
0.085646182 -0.12739472 0.12161231
0.15387096 -0.05926716 0.12413824
0.17684516 -0.013783987 0.13169277
0.1767163 0.0089834519 0.12750757
0.15389597 0.054465726 0.12522221
0.040259596 0.14506903 0.11786413
-0.074497163 -0.15104964 0.14180911
0.062779553 -0.15098375 0.14038098
0.10851012 -0.12810373 0.14003253
0.13131692 -0.10512543 0.13632023
0.15417561 -0.082313508 0.13733017
0.17731604 -0.059618879 0.14698505
0.17697899 -0.036617197 0.13603878
0.17707744 0.03193159 0.13923633
0.15421924 0.077646837 0.13921952
0.13130876 0.10037253 0.13579059
0.10849711 0.12332157 0.13834083
0.062814638 0.14603677 0.13582373
0.085646182 -0.1518462 0.15905368
0.13168401 -0.12887856 0.1601634
0.15464935 -0.10578822 0.15784407
0.17772856 -0.082845785 0.16038215
0.20072456 -0.036799647 0.15974295
0.20055395 -0.013783987 0.15531039
0.20039156 0.0091650952 0.15109169
0.2008574 0.032300543 0.16319394
0.177371 0.055009529 0.14876974
0.17780945 0.078379221 0.16300857
0.15466565 0.10124846 0.15854955
0.13169877 0.1243738 0.16112232
0.085646182 0.14714023 0.15629995
0.10880211 -0.15271959 0.17796266
0.17832235 -0.10646011 0.17966568
0.20112658 -0.05997622 0.17018771
0.20122376 0.05556263 0.17271268
0.10879517 0.14825884 0.17706084
-0.029807501 0.17094198 0.16949356
-0.0066834167 0.17087516 0.16841078
0.016394295 0.17088762 0.16861367
0.039304689 0.17158192 0.17988718
-0.0073500872 -0.17652738 0.19006133
0.015932642 -0.17644888 0.18860364
0.039195545 -0.17636114 0.18697619
0.15520766 -0.12971979 0.18201876
0.20165625 -0.083390057 0.18394864
0.22495382 -0.037001923 0.18601775
0.22472106 -0.013783987 0.18097806
0.22480065 0.0094084051 0.18270171
0.22511919 0.032706942 0.18959832
0.20178068 0.079123691 0.18718171
0.17838377 0.10213808 0.18166065
0.15525931 0.12544239 0.18425608
0.062354907 0.17254624 0.1955446
0.062321983 -0.17705339 0.19982111
0.13225287 -0.153604 0.19711244
0.17911771 -0.13062343 0.20549583
0.20247291 -0.10724533 0.20516646
0.22548775 -0.060397774 0.19757783
0.2495161 -0.013783939 0.21096551
0.22562887 0.056207329 0.20063293
0.20257573 0.10314545 0.20783746
0.17919996 0.12654677 0.20816743
0.13226774 0.14939144 0.19807792
0.085646182 0.1735248 0.2114352
0.085646182 -0.17777577 0.2132287
0.10917772 -0.17850485 0.2267555
0.15603155 -0.15455472 0.21769524
0.22622512 -0.084073432 0.21354222
0.25040391 -0.060857575 0.22744107
0.24979404 -0.037233666 0.21612358
0.24970192 0.0096526127 0.21441364
0.25000405 0.033175431 0.22002077
0.22640805 0.080057316 0.21750307
0.15607072 0.15053993 0.21939099
0.10918341 0.17451376 0.227494
-0.032557279 -0.17926887 0.24093521
0.2036023 -0.13174006 0.23450899
0.22717802 -0.10813858 0.2341733
0.27481109 -0.013783939 0.24157393
0.25062495 0.05692111 0.2315439
0.22738881 0.10433485 0.23873699
0.20377731 0.12797344 0.23905575
0.13299431 -0.1795024 0.24526978
0.18033093 -0.15581107 0.24489629
0.25128126 -0.084770501 0.24372303
0.27581644 -0.061326489 0.2578994
0.27513403 -0.037469987 0.24681842
0.27504307 0.0098906811 0.24534106
0.27539653 0.033653598 0.25108063
0.25155368 0.081020214 0.24877858
0.18046585 0.15215048 0.24927783
0.13301267 0.17568192 0.24646223
0.15719986 -0.18074256 0.26828372
0.20506725 -0.15708929 0.2725693
0.22855945 -0.13287842 0.26408195
0.25235891 -0.10904837 0.26372182
0.27684039 -0.085481822 0.27452612
0.30062041 -0.013783939 0.27280462
0.27613735 0.057650194 0.2631098
0.25271088 0.10554805 0.2702533
0.22886036 0.12943015 0.27059686
0.15734066 0.17740136 0.27438104
0.30174041 -0.061804891 0.28897035
0.30098993 -0.037711076 0.2781384
0.30090433 0.010133566 0.27690291
0.30131149 0.034141682 0.28277934
0.27721965 0.082002759 0.28068447
0.20535719 0.15381151 0.28010225
0.18186364 -0.18216452 0.29467213
0.23025283 -0.15839058 0.30074477
0.25400296 -0.13403884 0.29423141
0.27803132 -0.1099766 0.29386413
0.30291569 -0.086207129 0.30593467
0.32695997 -0.013784033 0.30467701
0.30217999 0.058394007 0.29531503
0.27855843 0.10678608 0.3024236
0.2544643 0.13091725 0.30279279
0.18214837 0.17922041 0.30391932
0.061419949 -0.20759386 0.31699896
0.32819134 -0.062292974 0.32067323
0.32737905 -0.037957221 0.31012094
0.32730341 0.01038174 0.30913806
0.32776517 0.034639727 0.31513715
0.30342185 0.08300513 0.31324005
0.23075362 0.15550798 0.31158698
0.085646182 -0.20804232 0.32428145
0.10998465 -0.20849171 0.33157885
0.20701876 -0.1837056 0.32327104
0.25589904 -0.15971503 0.32941806
0.27994603 -0.13522133 0.32495522
0.30420887 -0.11092289 0.32459962
0.32952547 -0.086947873 0.33800375
0.35384467 -0.013783987 0.33719218
0.32877207 0.059153825 0.32821679
0.30494934 0.10805112 0.33528745
0.28060669 0.13243631 0.33568335
0.20750304 0.181187 0.33585298
0.1344389 -0.20895478 0.33909905
0.23263861 -0.18527523 0.3523984
0.35518718 -0.0627914 0.35304618
0.35431525 -0.038208559 0.34274971
0.35425594 0.010635013 0.34204912
0.35477462 0.035148446 0.34817469
0.33017975 0.084029414 0.34650326
0.25666845 0.15723819 0.34369648
0.085646182 0.20606759 0.34320414
0.15921418 -0.20996535 0.35550678
0.28201932 -0.16106379 0.35862124
0.30640572 -0.13642816 0.3563087
0.33090666 -0.11188819 0.35594594
0.38120216 -0.013783987 0.36940634
0.35592836 0.059929363 0.36179948
0.33189839 0.10934218 0.36882877
0.3073025 0.13398677 0.36925244
0.23337972 0.18319407 0.36844385
0.11019135 0.20712253 0.35843015
0.18449742 -0.21148655 0.38020682
0.25873512 -0.1868729 0.38204944
0.35668343 -0.087703206 0.37071633
0.38181713 -0.038464896 0.37606347
0.38177961 0.010893809 0.37565732
0.38235754 0.035667788 0.38191366
0.35750839 0.085075036 0.38045859
0.28311849 0.15900421 0.37646949
0.13497141 0.20817968 0.37368691
0.30864587 -0.16245043 0.38864231
0.33339661 -0.13765916 0.38829148
0.35819805 -0.11289378 0.38860321
0.38298449 -0.063340247 0.3887006
0.38405049 0.060816996 0.4002403
0.25979471 0.18524292 0.40171289
0.15998437 0.20923048 0.38885665
0.21017501 -0.21303013 0.40527284
0.2853213 -0.18849969 0.41223836
0.38517892 -0.088667184 0.41245592
0.41036972 -0.013784033 0.41475165
0.35953292 0.11071002 0.40436745
0.33457053 0.13557068 0.40354121
0.31012046 0.1608071 0.40992641
0.185302 0.2104415 0.40633655
0.23625769 -0.21459934 0.43075347
0.33635625 -0.16421002 0.42673838
0.36185369 -0.13933286 0.43177414
0.41127402 -0.038832247 0.42378807
0.41116646 0.01125606 0.42271304
0.4119671 0.036419202 0.43071353
0.38635457 0.086452171 0.4251827
0.38743007 -0.11437871 0.43682504
0.41267717 -0.064096436 0.43780923
0.28676623 0.18733597 0.43570149
0.21140647 0.21258456 0.43726707
0.26304072 -0.21652061 0.46195078
0.31319505 -0.19076642 0.45430374
0.41512784 -0.089818247 0.46229756
0.44072545 -0.013783987 0.46464407
0.41406205 0.062004365 0.45164764
0.38952902 0.11283379 0.45954704
0.36371163 0.13788813 0.45371544
0.338943 0.16352388 0.46034133
0.36596259 -0.16668376 0.48029768
0.44167426 -0.039214566 0.4734478
0.44161013 0.011642106 0.47285247
0.44249469 0.037194457 0.4810605
0.41664064 0.088060476 0.47741437
0.23801376 0.2147674 0.46877384
0.39176041 -0.14133161 0.48370242
0.41779163 -0.11598263 0.48891592
0.44328994 -0.064875893 0.48843944
0.31587046 0.19085991 0.49291992
0.34281245 -0.19380036 0.51060677
0.44504657 0.06323041 0.50473893
0.39424956 0.1405178 0.51064873
0.44601184 -0.091005191 0.51369548
0.47301432 -0.039608497 0.5246253
0.47202927 -0.013783987 0.51609468
0.47300455 0.012039864 0.52454066
0.42056635 0.11503143 0.51664221
0.36982194 0.16705522 0.52587485
0.29263043 -0.22076833 0.53092444
0.3967362 -0.16932905 0.53756714
0.42263475 -0.14339495 0.5373112
0.44913715 -0.11763853 0.54269493
0.47486621 -0.065679953 0.54066324
0.4739798 0.037993748 0.53298688
0.44791216 0.089720488 0.53132832
0.47704759 0.064496204 0.5595547
0.373463 -0.19694021 0.56887341
0.47787288 -0.092229344 0.56670177
0.50432634 -0.013783939 0.56917775
0.45270008 0.11730658 0.57575464
0.42586511 0.14324015 0.56959081
0.5053407 -0.040014945 0.57741368
0.50539452 0.012450369 0.57785058
0.5066765 0.038844746 0.58825922
0.48022258 0.091436408 0.58705068
0.34821275 0.19626915 0.58075857
0.32348663 -0.22519773 0.60284972
0.42859334 -0.17206731 0.59685302
0.45452684 -0.14552703 0.59270489
0.4815152 -0.11934897 0.59824514
0.50745225 -0.066509701 0.59455693
0.40195179 0.17072755 0.59402752
0.51012099 0.065805063 0.61622465
0.4052017 -0.20019132 0.6292088
0.51135182 -0.093603879 0.62621784
0.4859972 0.11966639 0.63706028
0.4586187 0.14606133 0.63067269
0.53987205 -0.013784033 0.64084065
0.54206526 -0.040632069 0.65759969
0.5419246 0.013055976 0.6565249
0.43541598 0.17455357 0.66502881
0.49055243 -0.14875269 0.67650962
0.51773143 0.094237328 0.6780138
0.38339049 0.20275721 0.68611169
0.46728426 -0.17734331 0.711079
0.55505157 -0.069008149 0.75683331
0.55465913 0.041393995 0.75383484
0.53133059 -0.12520513 0.78842545
0.58968627 -0.013784033 0.80751491
0.56203282 0.070284173 0.81018043
0 0 0 1 0 0 0 1 0 0 0 1 0 0 0 0 0 670 1 0 0
