ply
format ascii 1.0
comment PCL generated
element vertex 882
property float x
property float y
property float z
element camera 1
property float view_px
property float view_py
property float view_pz
property float x_axisx
property float x_axisy
property float x_axisz
property float y_axisx
property float y_axisy
property float y_axisz
property float z_axisx
property float z_axisy
property float z_axisz
property float focal
property float scalex
property float scaley
property float centerx
property float centery
property int viewportx
property int viewporty
property float k1
property float k2
end_header
-0.067586765 -0.41767302 -0.2929275
-0.047814354 -0.41649953 -0.29902506
-0.028193967 -0.41605303 -0.30134499
0.030506445 -0.41605303 -0.30134499
0.050109357 -0.41650435 -0.29899991
0.06983503 -0.41767788 -0.29290235
-0.008612629 -0.41568968 -0.30323315
0.010939641 -0.41569215 -0.30322051
-0.067588322 -0.39805081 -0.29287696
-0.047774449 -0.39659572 -0.30075276
-0.028167417 -0.39616758 -0.30306959
-0.0085960869 -0.39574036 -0.30538213
0.010939641 -0.39574265 -0.30536973
0.030493267 -0.39617002 -0.30305696
0.050082564 -0.3965981 -0.30074012
0.069836788 -0.39806011 -0.29282606
-0.028321611 -0.37838724 -0.29305446
-0.0086700208 -0.37790513 -0.29577768
0.010939641 -0.37790745 -0.29576492
0.030570364 -0.37838957 -0.29304183
-0.087878749 -0.44073862 -0.27577031
-0.067962214 -0.43974513 -0.28073442
-0.04816293 -0.43910527 -0.2839309
-0.028447727 -0.43891871 -0.28486288
-0.0087540429 -0.43891871 -0.28486288
0.010939641 -0.43891871 -0.28486288
0.030633325 -0.43891871 -0.28486288
0.050341554 -0.43910778 -0.28391814
0.070116624 -0.43975019 -0.28070891
0.089995541 -0.44074631 -0.2757318
-0.10764362 -0.42097983 -0.27574468
-0.08746203 -0.41889131 -0.28659713
0.089661762 -0.41889623 -0.28657174
0.10976297 -0.42099968 -0.27564192
-0.08755482 -0.39965633 -0.28418636
0.089737177 -0.39966813 -0.28412259
-0.067928329 -0.38037381 -0.28183496
-0.048015259 -0.37887052 -0.2903254
0.050243102 -0.37887275 -0.29031289
0.070091806 -0.38038287 -0.2817837
-0.048269294 -0.36108187 -0.27932537
-0.028490605 -0.36061567 -0.28207791
-0.0087543372 -0.36015046 -0.28482461
0.010939641 -0.36015269 -0.28481185
0.030654863 -0.36061782 -0.28206503
0.050412461 -0.36108395 -0.27931261
-0.1080343 -0.44243664 -0.26728606
0.11008758 -0.44245219 -0.26720846
-0.12809861 -0.4234482 -0.26291895
0.13011949 -0.42346564 -0.26282811
-0.10787795 -0.4021534 -0.27067101
0.10995927 -0.40217724 -0.27054203
-0.087982729 -0.38192594 -0.27306879
0.090079524 -0.38193727 -0.27300429
-0.088414378 -0.36404061 -0.26185417
-0.068271294 -0.36254308 -0.27069688
0.070349038 -0.3625519 -0.27064526
0.090424858 -0.36405161 -0.2617892
-0.048525527 -0.34313908 -0.2682302
-0.028661059 -0.34269032 -0.27100646
-0.0088393837 -0.34224245 -0.27377689
0.010939641 -0.34224451 -0.27376401
0.030740092 -0.34269243 -0.27099359
0.050583288 -0.34314126 -0.26821721
-0.008925166 -0.32417917 -0.26263332
0.010939641 -0.32418108 -0.26262033
-0.12844923 -0.4446131 -0.25641227
0.13041943 -0.44462878 -0.25633407
-0.12858011 -0.40523636 -0.2539835
0.13053404 -0.40526059 -0.25385273
-0.10840473 -0.38436967 -0.25926626
0.11039829 -0.38439271 -0.25913608
-0.10893556 -0.36642531 -0.24777305
0.11084121 -0.3664498 -0.24762869
-0.08884982 -0.3459987 -0.25054133
-0.068617254 -0.34455663 -0.25946152
0.070608519 -0.34456509 -0.25940943
0.090773225 -0.34600934 -0.25047565
-0.068966247 -0.32641235 -0.24812758
-0.048783988 -0.32504049 -0.25703835
-0.028832996 -0.32460931 -0.25983894
0.03082606 -0.32461134 -0.25982594
0.050755598 -0.32504258 -0.25702536
0.070870265 -0.32642055 -0.24807513
-0.049045622 -0.30678964 -0.24570942
-0.029006435 -0.30637071 -0.2485739
-0.0090116952 -0.30595839 -0.25139284
0.010939641 -0.3059603 -0.25137973
0.030912779 -0.30637255 -0.24856091
0.050930426 -0.30679536 -0.24566996
-0.12964825 -0.46915048 -0.2341615
-0.10945953 -0.46867925 -0.23642874
-0.089393005 -0.46867925 -0.23642874
-0.069326475 -0.46867925 -0.23642874
-0.049259946 -0.46867925 -0.23642874
-0.029193418 -0.46867925 -0.23642874
-0.0091268886 -0.46867925 -0.23642874
0.010939641 -0.46867925 -0.23642874
0.03100617 -0.46867925 -0.23642874
0.051072702 -0.46867925 -0.23642874
0.071139231 -0.46867925 -0.23642874
0.091205761 -0.46867925 -0.23642874
0.11127229 -0.46867925 -0.23642874
0.1314466 -0.46916431 -0.23409498
-0.14945646 -0.44817019 -0.23863959
0.15129192 -0.44819134 -0.23853374
-0.1493482 -0.42778248 -0.24039745
0.1512036 -0.42782563 -0.24017274
-0.12920269 -0.38735065 -0.24242997
0.13106774 -0.38737401 -0.24229801
-0.12983014 -0.36930233 -0.23078597
0.1316056 -0.36932474 -0.23065293
-0.10947178 -0.34832293 -0.23616385
0.11128759 -0.3483443 -0.23603141
-0.089289084 -0.32779792 -0.23912871
0.091124661 -0.32780808 -0.23906267
-0.069318317 -0.30810824 -0.23669386
0.071134329 -0.30811599 -0.23664081
-0.04931017 -0.28838187 -0.23425424
-0.029181385 -0.28797218 -0.23721027
-0.0090989824 -0.28757825 -0.24005389
0.010939641 -0.28757992 -0.24004078
0.031000257 -0.28797403 -0.23719704
0.051106788 -0.2883873 -0.23421454
-0.150491 -0.47171134 -0.2218405
0.15220012 -0.47174478 -0.22167969
-0.15008937 -0.40997002 -0.22836196
0.15185297 -0.41001436 -0.228122
-0.15083829 -0.39199451 -0.21620154
0.15250836 -0.3920373 -0.21595931
-0.13046394 -0.35109368 -0.21902418
0.13214892 -0.35111547 -0.21888983
-0.11001218 -0.33005574 -0.2244637
0.11173849 -0.33007833 -0.2243166
-0.089732237 -0.30943608 -0.22761536
0.091479197 -0.30944592 -0.22754848
-0.090179324 -0.29091126 -0.21599972
-0.069673501 -0.2896421 -0.22515881
0.071400739 -0.28964952 -0.2251054
0.091836885 -0.2909205 -0.21593237
-0.049577057 -0.26981089 -0.22269773
-0.029357882 -0.26941195 -0.22574663
-0.009187039 -0.26903641 -0.2286154
0.010939641 -0.2690382 -0.22860205
0.031088505 -0.26941365 -0.2257334
0.051284723 -0.26981616 -0.22265756
-0.029535932 -0.2506876 -0.21418166
-0.0092758685 -0.2503311 -0.21707582
0.010939641 -0.2503328 -0.21706235
0.031177532 -0.25068921 -0.21416831
-0.1713668 -0.45354599 -0.21178079
0.17300643 -0.45359999 -0.2115109
-0.17199561 -0.43503654 -0.20270443
0.17357807 -0.43512803 -0.20222867
-0.15159333 -0.37384865 -0.20394087
0.15316917 -0.37389004 -0.20369649
-0.13110276 -0.3327184 -0.20716918
0.13269652 -0.33273926 -0.20703375
-0.11055809 -0.31162581 -0.21264458
0.11219294 -0.31164548 -0.21250975
-0.11110831 -0.29302672 -0.20073199
0.11265203 -0.29304758 -0.20058227
-0.090630397 -0.27222103 -0.20428038
-0.070031844 -0.27101174 -0.21352124
0.071669504 -0.2710188 -0.21346736
0.092197768 -0.27223003 -0.20421243
-0.070393384 -0.25221506 -0.20177984
-0.049846321 -0.25107473 -0.21103823
0.051464237 -0.25107971 -0.21099758
0.071940675 -0.25222185 -0.20172536
-0.050117992 -0.23217115 -0.19927442
-0.02971557 -0.23179704 -0.20251417
-0.0093654878 -0.23145989 -0.20543396
0.010939641 -0.23146144 -0.20542037
0.031267352 -0.23179862 -0.20250046
0.051645361 -0.23217583 -0.19923365
-0.15274897 -0.49979311 -0.18517554
-0.13223374 -0.49957645 -0.18618071
-0.11178039 -0.49957645 -0.18618071
-0.091327064 -0.49957645 -0.18618071
-0.070873715 -0.49957645 -0.18618071
-0.050420374 -0.49957645 -0.18618071
-0.029967038 -0.49957645 -0.18618071
-0.0095136985 -0.49957645 -0.18618071
0.010939641 -0.49957645 -0.18618071
0.03139298 -0.49957645 -0.18618071
0.051846318 -0.49957645 -0.18618071
0.072299659 -0.49957645 -0.18618071
0.092753001 -0.49957645 -0.18618071
0.11320635 -0.49957645 -0.18618071
0.13365968 -0.49957645 -0.18618071
0.15417016 -0.49980497 -0.18512046
-0.17236838 -0.476807 -0.19732404
0.17389104 -0.47684395 -0.19714653
-0.17293085 -0.41720432 -0.18920541
0.1744097 -0.41729313 -0.18872464
-0.15235631 -0.35553482 -0.19155157
0.15383691 -0.35557476 -0.19130492
-0.1317481 -0.31417817 -0.19519305
0.13324971 -0.31419823 -0.19505644
-0.11166417 -0.27426034 -0.18869722
0.1131153 -0.27428022 -0.18854606
-0.091085516 -0.2533634 -0.19245613
0.092561878 -0.25337189 -0.1923877
-0.070758604 -0.23325133 -0.18991923
0.072214268 -0.2332561 -0.18987811
-0.050392099 -0.21309784 -0.18740499
-0.029896805 -0.21273807 -0.19074249
-0.0094559044 -0.21242052 -0.19368851
0.010939641 -0.21242201 -0.1936748
0.03135797 -0.2127395 -0.1907289
0.051828109 -0.21310219 -0.18736398
-0.17387572 -0.39918891 -0.17556751
0.17524903 -0.3992725 -0.17509556
-0.15312563 -0.33704612 -0.17905939
0.15451019 -0.33708456 -0.17881012
-0.13239858 -0.29546699 -0.18312156
0.13380735 -0.29548606 -0.18298364
-0.13305578 -0.27658609 -0.17092538
0.13437071 -0.27660441 -0.17078602
-0.11222447 -0.25532061 -0.17656612
0.11358228 -0.25533944 -0.17641354
-0.091544732 -0.23433614 -0.1805253
0.092929274 -0.23434407 -0.18045616
-0.092008635 -0.21513811 -0.16847277
-0.07112667 -0.21411508 -0.17796552
0.072490335 -0.21411955 -0.17792404
0.09330041 -0.21514574 -0.16840291
-0.050668687 -0.19385234 -0.17542863
-0.030079665 -0.19350842 -0.17886555
-0.0095471311 -0.19321096 -0.18183792
0.010939641 -0.19321236 -0.18182397
0.0314494 -0.19350976 -0.1788516
0.052012496 -0.19385651 -0.17538714
-0.0096391756 -0.17382884 -0.16988063
0.010939641 -0.17383009 -0.16986668
-0.17486726 -0.50494891 -0.16125584
0.17612119 -0.50501835 -0.16093338
-0.17482938 -0.38098505 -0.16180277
0.17609787 -0.38106814 -0.16131198
-0.15390313 -0.31838456 -0.16643465
0.1551906 -0.31842127 -0.16618323
-0.15468712 -0.29954323 -0.15370417
0.1558775 -0.29958025 -0.15343606
-0.13371828 -0.25752968 -0.15863097
0.13493864 -0.25754693 -0.15849042
-0.11279057 -0.23620853 -0.1643095
0.11405408 -0.23622623 -0.16415584
-0.092476219 -0.19576424 -0.15632451
-0.071498081 -0.19480553 -0.16590369
0.072768904 -0.19480971 -0.16586185
0.093674496 -0.19577119 -0.15625429
-0.071872875 -0.17532051 -0.1537323
-0.05094777 -0.17443258 -0.16334379
-0.030264167 -0.17410579 -0.16688168
0.031541653 -0.17410704 -0.16686773
0.052198566 -0.17443651 -0.16330171
0.073050007 -0.17532444 -0.15368986
-0.030450338 -0.15452775 -0.15478945
-0.0097320508 -0.15427157 -0.15781569
0.010939641 -0.15427274 -0.15780175
0.031634741 -0.15452904 -0.15477538
-0.1757939 -0.36259457 -0.14788103
0.17695554 -0.36267477 -0.14738524
-0.15547861 -0.28052175 -0.14085162
0.15657021 -0.28055713 -0.14058113
-0.13438767 -0.23829865 -0.14620864
0.13551246 -0.23831505 -0.14606678
-0.11336126 -0.21691838 -0.15195394
0.11453025 -0.21693674 -0.15178466
-0.11393788 -0.19745091 -0.13946998
0.11501028 -0.19746658 -0.13931322
-0.092948072 -0.17621341 -0.1440655
0.094052002 -0.17622009 -0.14399445
-0.072251081 -0.15565741 -0.14144945
-0.051229723 -0.15483734 -0.15113497
0.052386321 -0.15483975 -0.15110648
0.073333666 -0.15566108 -0.14140689
-0.051513933 -0.13506153 -0.13882828
-0.030638201 -0.13477212 -0.14258754
-0.0098257717 -0.13453707 -0.14564133
0.010939641 -0.13453814 -0.14562702
0.03172867 -0.13477325 -0.14257324
0.052575797 -0.13506377 -0.13879967
-0.15608849 -0.53235996 -0.13094854
-0.13505711 -0.5317266 -0.13378537
-0.11420043 -0.5317266 -0.13378537
-0.09334375 -0.5317266 -0.13378537
-0.072487071 -0.5317266 -0.13378537
-0.051630393 -0.5317266 -0.13378537
-0.030773716 -0.5317266 -0.13378537
-0.0099170376 -0.5317266 -0.13378537
0.010939641 -0.5317266 -0.13378537
0.031796321 -0.5317266 -0.13378537
0.052653 -0.5317266 -0.13378537
0.073509678 -0.5317266 -0.13378537
0.094366357 -0.5317266 -0.13378537
0.11522304 -0.5317266 -0.13378537
0.13607971 -0.5317266 -0.13378537
0.15709467 -0.53238231 -0.13084817
-0.17676848 -0.34401223 -0.13381398
0.17782128 -0.34408712 -0.13332748
-0.1562786 -0.26131952 -0.12786138
0.15727033 -0.26135314 -0.12758827
-0.13506252 -0.21888721 -0.13368535
0.13609096 -0.21890268 -0.13354206
-0.11451921 -0.1778006 -0.12688375
0.11549533 -0.17781657 -0.12671101
-0.093424246 -0.15648353 -0.13169432
0.094432957 -0.15648961 -0.13162255
-0.07263276 -0.13581398 -0.12905407
0.073619939 -0.13581732 -0.12901092
-0.05180075 -0.11510418 -0.12640882
-0.030827774 -0.11483637 -0.1302743
-0.0099203438 -0.11462282 -0.13335609
0.010939641 -0.11462387 -0.13334167
0.031823456 -0.11483733 -0.13025987
0.052767016 -0.11510608 -0.12637997
-0.1777533 -0.32523468 -0.11959946
0.17869699 -0.32530668 -0.1191076
-0.15708633 -0.24193165 -0.11474574
0.15797645 -0.24196175 -0.11448455
-0.13574442 -0.19929618 -0.12103057
0.13668086 -0.19932219 -0.12077057
-0.13645475 -0.17955905 -0.10784864
0.13728915 -0.17958191 -0.10760057
-0.11510664 -0.15796784 -0.11416519
0.11598437 -0.15798134 -0.11400533
-0.093904808 -0.13657191 -0.11920893
0.094817422 -0.13657743 -0.11913645
-0.073017955 -0.11578756 -0.11654437
0.073909186 -0.11579167 -0.11648643
-0.052090213 -0.09496253 -0.11387467
-0.031019086 -0.094717883 -0.11784828
-0.010015782 -0.094526373 -0.12095821
0.010939641 -0.094527282 -0.12094378
0.031919114 -0.094718747 -0.11783397
0.052959993 -0.094964422 -0.11384559
-0.010112097 -0.074245073 -0.1084466
0.010939641 -0.074245892 -0.10843194
-0.1787485 -0.30625921 -0.10523498
0.17958194 -0.30632809 -0.104738
-0.15790096 -0.22235408 -0.10151732
0.1586902 -0.22238412 -0.10123897
-0.13717118 -0.15962857 -0.094553113
0.13790403 -0.15965101 -0.094287872
-0.11569962 -0.13794836 -0.10132694
0.11647856 -0.13796085 -0.10116565
-0.094389804 -0.1164759 -0.10660815
0.095205456 -0.11648104 -0.10653496
-0.094879314 -0.096193336 -0.093890071
-0.073406726 -0.095575772 -0.10391867
0.074200764 -0.095579229 -0.10386038
0.095597081 -0.096197881 -0.0938164
-0.052382357 -0.074634276 -0.1012243
-0.031212157 -0.074414261 -0.10530794
0.032015651 -0.074414976 -0.10529339
0.053154759 -0.074635915 -0.10119498
-0.031407014 -0.053922914 -0.092651725
-0.010209301 -0.053776644 -0.095819235
0.010939641 -0.05377727 -0.095804453
0.032113083 -0.053923585 -0.092636943
-0.11671439 -0.56515318 -0.079356551
-0.095438719 -0.56515318 -0.079356551
-0.074163042 -0.56515318 -0.079356551
-0.052887373 -0.56515318 -0.079356551
-0.031611703 -0.56515318 -0.079356551
-0.01033603 -0.56515318 -0.079356551
0.010939641 -0.56515318 -0.079356551
0.032215312 -0.56515318 -0.079356551
0.053490981 -0.56515318 -0.079356551
0.074766658 -0.56515318 -0.079356551
0.096042328 -0.56515318 -0.079356551
0.117318 -0.56515318 -0.079356551
-0.17975324 -0.28708071 -0.090732694
0.18047537 -0.28714636 -0.090230584
-0.15872449 -0.20258719 -0.088145375
0.1594101 -0.20261389 -0.087879062
-0.13789542 -0.13950449 -0.081112862
0.13852423 -0.13952389 -0.080860138
-0.11629751 -0.11773873 -0.088382244
0.11697686 -0.11774998 -0.088219523
-0.095373407 -0.075721301 -0.081053376
-0.073799111 -0.075175799 -0.091175795
0.07449507 -0.075178988 -0.091116786
0.095992371 -0.07572531 -0.08097899
-0.074195154 -0.054585151 -0.078313708
-0.052677229 -0.054116733 -0.088456154
0.053351343 -0.05411806 -0.08842659
0.074792117 -0.054587938 -0.078254104
-0.031603679 -0.033241153 -0.079877853
-0.010307407 -0.033118293 -0.083074808
0.010939641 -0.033118799 -0.083060026
0.032211415 -0.033241883 -0.079862952
-0.18076971 -0.2676996 -0.076061368
0.18137923 -0.26776215 -0.075553656
-0.15955606 -0.18262652 -0.074642301
0.16013788 -0.1826514 -0.074373126
-0.13862596 -0.11918157 -0.067555666
0.13915123 -0.11920037 -0.06728518
-0.11690177 -0.097338177 -0.07529974
0.11748048 -0.097348236 -0.075135469
-0.11751109 -0.07674209 -0.062107563
0.11798831 -0.07675112 -0.061941504
-0.095872127 -0.055057086 -0.068096399
0.096391372 -0.055060543 -0.068021178
-0.07459493 -0.033801176 -0.065330863
-0.05297485 -0.0334071 -0.075568438
0.053549998 -0.03340888 -0.075523734
0.075091965 -0.033803456 -0.065270662
-0.05327528 -0.012502864 -0.062559843
-0.031802177 -0.012366615 -0.066984773
-0.010406429 -0.012267217 -0.070211768
0.010939641 -0.012267672 -0.070196867
0.032310665 -0.012367114 -0.066969633
0.053750284 -0.012504227 -0.062514663
-0.18179604 -0.24810901 -0.061247706
0.18229277 -0.24817008 -0.06071949
-0.18283446 -0.22830936 -0.046259284
-0.16039488 -0.16246787 -0.061021209
0.16087282 -0.16249219 -0.06073451
-0.16124298 -0.14211121 -0.04725039
0.16161421 -0.14213234 -0.046975851
-0.13936372 -0.098658197 -0.053864598
0.13978371 -0.09867499 -0.053591609
-0.11812696 -0.055949546 -0.048773527
0.118501 -0.055956565 -0.048621297
-0.09637963 -0.034202315 -0.054910898
0.096799731 -0.034208052 -0.054759383
-0.074998468 -0.012820959 -0.052225351
0.07539463 -0.012822874 -0.052164674
-0.053578541 0.0085987523 -0.049428105
-0.032002538 0.0087037086 -0.053970695
-0.010506377 0.0087789595 -0.057228088
0.010939641 0.0087786838 -0.057213068
0.032410849 0.008703433 -0.053955793
0.05395247 0.0085977986 -0.049382567
0.18321525 -0.22836521 -0.045740604
-0.18388307 -0.2082935 -0.031123996
-0.16209948 -0.12155195 -0.033342242
0.1623638 -0.12157118 -0.0330652
-0.14010961 -0.077932201 -0.040022612
0.14042318 -0.077947102 -0.039746761
-0.11874804 -0.034956031 -0.035326719
0.11901923 -0.034962505 -0.035157681
-0.096895516 -0.01315099 -0.04150784
0.097212486 -0.013155729 -0.041354775
-0.075405836 0.008357957 -0.038995862
0.075700171 0.0083565041 -0.03893435
-0.053884685 0.0299008 -0.036171913
-0.032204792 0.02997255 -0.040834308
-0.010607265 0.030023295 -0.044122458
0.010939641 0.030023064 -0.04410708
0.032511976 0.029972367 -0.04081893
0.054156564 0.029900208 -0.036125779
-0.010709107 0.051468242 -0.030892611
0.010939641 0.051468197 -0.030877352
0.18414862 -0.20834759 -0.030584097
-0.18494308 -0.18805996 -0.01582396
-0.16296358 -0.10078625 -0.019310713
0.16312006 -0.10080346 -0.019030929
-0.14086212 -0.056998722 -0.026057839
0.14106829 -0.057011656 -0.025779247
-0.11937585 -0.013759896 -0.021734118
0.11954187 -0.013764679 -0.021579027
-0.09741579 0.0081037283 -0.02799058
0.09762875 0.0081002712 -0.027836084
-0.075817086 0.029738635 -0.025640011
0.076008625 0.029737722 -0.025578022
-0.054193743 0.051405881 -0.022789121
-0.03240896 0.051442824 -0.027573466
0.03261406 0.051442642 -0.027557969
0.054362617 0.051405564 -0.022742629
0.18509218 -0.18811169 -0.015262723
-0.18601578 -0.16760626 -0.00034081936
-0.16383736 -0.079812802 -0.0051229
0.16388474 -0.079828076 -0.0048400164
-0.14162299 -0.035856292 -0.011937618
0.14172062 -0.035867132 -0.011656165
-0.12000905 0.0076426938 -0.0080250502
0.12007019 0.007638678 -0.0078526735
-0.097941704 0.02956444 -0.014326811
0.098049536 0.029562116 -0.014170885
-0.098472156 0.051234692 -0.00054550171
-0.076232277 0.051324114 -0.012156606
0.076320022 0.051323518 -0.012093902
0.098473929 0.051233508 -0.00038802624
0.18619764 -0.16786271 0.0026878119
-0.16471992 -0.058627598 0.0092084408
0.16465716 -0.05864086 0.0094941854
-0.14239153 -0.014500767 0.0023247004
0.14237878 -0.014509007 0.0025931597
-0.12064916 0.029254179 0.0058336258
0.12060307 0.029251676 0.0059918165
-0.010999991 0.073116995 0.0068942308
0.010939641 0.07311704 0.0069259405
0.032906495 0.073116995 0.010430574
-0.032993823 0.073117085 0.0104146
-0.054968983 0.095086575 0.010779858
-0.032942794 0.09505824 0.0071002245
-0.010984762 0.095041476 0.0049159527
0.010939641 0.095041476 0.0049159527
0.032880981 0.095058471 0.0071159601
0.054879457 0.095086984 0.010827422
-0.033041045 0.1170977 0.013481975
-0.011021959 0.11704031 0.009747982
0.010939641 0.11704075 0.0097796917
0.032930233 0.11709815 0.013513803
-0.18801621 -0.14794502 0.028532863
-0.16561048 -0.037226841 0.023669243
0.16543654 -0.037237957 0.023957849
-0.143167 0.0070713684 0.016715646
0.14304432 0.007064715 0.017002583
-0.077381335 0.073116951 0.025160432
-0.055103488 0.07311704 0.016603947
0.054969624 0.073116951 0.016683698
0.077181481 0.07311704 0.025208354
-0.099595718 0.095224053 0.028645515
-0.077179775 0.095146887 0.018614411
0.077029943 0.095147066 0.018646479
0.099370405 0.095224686 0.028725863
-0.055174269 0.11719291 0.019668818
0.055016808 0.11719427 0.019748688
0.18799548 -0.14820278 0.031881213
-0.1665111 -0.015608333 0.0382936
0.16622475 -0.015617311 0.038584948
-0.14395124 0.028862517 0.031268835
0.14371663 0.028858051 0.03155899
-0.099828303 0.073116995 0.034688115
-0.12238961 0.073117085 0.043515563
0.099554993 0.073117085 0.03472054
0.12205111 0.07311713 0.043613076
-0.077741392 0.11745766 0.036853552
0.077453405 0.11745948 0.036982894
-0.033476695 0.16194974 0.041778326
-0.011252051 0.16188374 0.039637923
0.010939641 0.16188423 0.039654016
0.033147935 0.16195023 0.041794419
-0.19007587 -0.12789845 0.058261514
-0.16746126 0.0062166601 0.053722262
0.16707131 0.006203495 0.054294944
-0.12275682 0.050834328 0.051465988
0.12236091 0.050832778 0.051662087
-0.12263997 0.095380299 0.048936129
0.12226101 0.095381305 0.049066663
-0.056031808 0.14008839 0.056801558
-0.033625595 0.13996494 0.051449776
-0.011321118 0.1398993 0.048609853
0.010939641 0.1398997 0.048626184
0.033222385 0.13996536 0.051465988
0.055588037 0.14008972 0.05685091
-0.078369774 0.1624265 0.057260871
-0.055785075 0.16208339 0.046117544
0.055424035 0.1620858 0.046198964
0.077923976 0.1624295 0.057359219
-0.056112185 0.18487 0.060281873
-0.033675708 0.18465546 0.054704189
-0.01134084 0.18451953 0.051172018
0.010939641 0.18452007 0.05118835
0.033247568 0.18465668 0.054737091
0.055642128 0.18487319 0.060364127
0.18983062 -0.12813523 0.061679602
-0.14618173 0.050671067 0.072661757
0.14561969 0.050670385 0.072761059
-0.14565557 0.073116995 0.062897682
0.14516868 0.07311704 0.062996507
-0.10139208 0.11804971 0.07531631
0.10080911 0.1180518 0.075449228
-0.10121976 0.14041263 0.070839405
-0.078570731 0.14024983 0.063787103
0.078073181 0.14025059 0.063819885
0.10066921 0.14041424 0.070905566
-0.10120701 0.16283438 0.070508361
0.10066156 0.16283894 0.070657253
-0.078809805 0.18530385 0.071551442
0.078254022 0.18530768 0.071650743
-0.056442901 0.2078822 0.074602485
-0.033894062 0.20761827 0.068886995
-0.011449752 0.20745337 0.065320134
0.010939641 0.20745492 0.065353036
0.033356749 0.20761973 0.068920016
0.05586262 0.20788598 0.074685335
-0.19217865 -0.10743258 0.088612318
-0.12397589 0.14057484 0.077859402
0.12337245 0.14057676 0.07794261
-0.10176984 0.18582644 0.085130692
0.10111237 0.18583295 0.085297942
-0.079254203 0.20840794 0.085983515
0.078587346 0.20841253 0.086083889
-0.056776904 0.23112229 0.089064956
-0.034114569 0.23080674 0.083209276
-0.011559736 0.23061264 0.079607248
0.010939641 0.23061457 0.079640627
0.033467002 0.23080856 0.083242655
0.056085296 0.23112673 0.08914876
0.19169277 -0.10763606 0.091917634
-0.16992941 0.050508443 0.093799949
0.16920823 0.050507214 0.093951225
-0.12466943 0.11832015 0.092875361
0.12395173 0.11832184 0.092992783
-0.14799608 0.14123231 0.10633206
0.14718124 0.14123783 0.10656953
-0.12462521 0.16349351 0.091917515
0.12391617 0.16349822 0.092068672
-0.12531136 0.18665954 0.10677326
-0.10233898 0.2090514 0.09991765
0.10156722 0.2090584 0.10006952
-0.079703026 0.2317417 0.10055947
0.078923978 0.23174715 0.1006608
-0.057114229 0.25459409 0.10367155
-0.034337252 0.2542246 0.097673059
-0.011670804 0.25400066 0.094035506
0.010939641 0.2540026 0.094069004
0.033578478 0.25422779 0.097723722
0.056310192 0.25459912 0.10375619
-0.17104656 0.02762052 0.11194003
0.17018032 0.027619697 0.11199117
-0.14873621 0.095927939 0.120067
0.14781415 0.095929436 0.12027252
-0.14804453 0.11854108 0.10723138
0.14721337 0.11854154 0.10726523
-0.14883035 0.16441411 0.12181425
0.14789644 0.16442153 0.12205422
0.12448802 0.18666542 0.10692596
-0.1260037 0.21006039 0.12176287
0.12506503 0.21006751 0.12191701
-0.1029139 0.23251194 0.11485457
0.10202722 0.23252028 0.11500812
-0.080156334 0.25530887 0.11528111
0.079263985 0.2553153 0.11538327
-0.057454929 0.27830076 0.1184243
-0.034562156 0.27787507 0.11228073
-0.011782972 0.27762052 0.10860658
0.010939641 0.27762288 0.10864055
0.033690803 0.27787736 0.1123147
0.056537338 0.27830669 0.11850989
-0.17258401 0.11899793 0.13690543
0.17154433 0.11900409 0.13730395
-0.1267039 0.23370117 0.13692296
0.1256486 0.23370954 0.13707864
-0.10349403 0.25621095 0.12992656
0.10249136 0.25622052 0.13008153
-0.080614194 0.27911314 0.13015068
0.079607412 0.27912039 0.13025403
-0.057799064 0.30224597 0.1333257
-0.034789294 0.30176175 0.12703407
-0.011896262 0.30147603 0.12332332
0.010939641 0.30147994 0.12337494
0.033804372 0.30176437 0.1270684
0.056766771 0.30225265 0.133412
-0.17302871 0.096113063 0.14412618
0.17191382 0.096113473 0.14416087
-0.14967436 0.18784137 0.13747716
0.14861919 0.18785007 0.13770235
-0.12741132 0.25758499 0.15223861
0.1262375 0.25759366 0.1523788
-0.10408077 0.28015366 0.14517045
0.1029608 0.2801646 0.14532721
-0.081076689 0.30315793 0.14517045
0.079954304 0.30316594 0.145275
-0.05814667 0.32643345 0.14837766
-0.03501872 0.32588798 0.14193547
-0.012010686 0.32557061 0.13818741
0.010939641 0.32557505 0.13823938
0.033919089 0.32589087 0.14197028
0.056998529 0.32644102 0.14846492
-0.1736415 0.14233501 0.15407681
0.17247079 0.14234467 0.15449727
-0.15052639 0.2115165 0.15328884
0.14934961 0.21152705 0.15351629
-0.12812604 0.28171548 0.16771293
0.12683316 0.28172538 0.16785431
-0.10467288 0.30434212 0.16055381
0.10343453 0.30435419 0.16071224
-0.081543878 0.32744661 0.16034281
0.080304712 0.3274557 0.16044843
-0.058497816 0.35086691 0.16358256
-0.035250455 0.35025766 0.15698719
-0.012126261 0.34990796 0.15320122
0.010939641 0.34991279 0.15325379
0.03403496 0.35026085 0.15702224
0.057232633 0.35087502 0.16367078
-0.17493193 0.07311704 0.17503047
0.17359066 0.07311713 0.17527914
-0.17471123 0.16594249 0.17144704
0.17340899 0.16595674 0.17190778
-0.15138751 0.23544422 0.1692692
0.15008783 0.23545656 0.16949916
-0.10527179 0.32878217 0.17611432
0.10391372 0.32879579 0.17627418
-0.082015827 0.35198346 0.17566991
0.080658704 0.35199329 0.17577672
-0.058852546 0.37554982 0.17894304
-0.035484537 0.37487414 0.17219138
-0.012243144 0.37449333 0.16838479
0.010939641 0.3744967 0.16842008
0.034152001 0.37487775 0.17222679
0.057469137 0.37555867 0.17903209
-0.17579342 0.18982515 0.1890198
0.17435813 0.18984452 0.18952179
-0.15225787 0.25962853 0.18542075
0.15083396 0.25964281 0.18565333
-0.12884818 0.30609673 0.18334782
0.12743431 0.30610642 0.18347275
-0.10587627 0.35347521 0.19181883
0.10439735 0.35349005 0.19198036
-0.082492627 0.37677187 0.1911546
0.081016332 0.3767828 0.19126213
-0.059210919 0.40048641 0.19446123
-0.035721004 0.39974156 0.18755054
-0.012361079 0.39932719 0.18370509
0.010939641 0.39933109 0.18374062
0.034270242 0.3997454 0.18758643
0.05770807 0.40049601 0.19455123
-0.17688833 0.21398807 0.20679855
0.17531843 0.21401319 0.20734286
-0.15313661 0.28407222 0.2017287
0.15158731 0.28408846 0.20196366
-0.12957788 0.33073255 0.19914591
0.12804173 0.3307417 0.19925404
-0.10648774 0.37842822 0.20770574
0.10488603 0.37844276 0.20785093
-0.082974337 0.40181592 0.20679855
0.08137764 0.40182775 0.20690739
-0.012480222 0.4244149 0.19918191
0.010939641 0.42441908 0.19921815
-0.059572995 0.42568022 0.21013939
-0.035959899 0.42486364 0.20306706
0.03438969 0.42486784 0.20310307
0.057949468 0.4256908 0.21023035
-0.17799725 0.23843679 0.22480536
0.17628911 0.23846641 0.22535598
-0.15402491 0.30878061 0.21821296
0.15234964 0.30880025 0.21846879
-0.13031521 0.3556267 0.21510959
0.12865622 0.35563678 0.21521926
-0.10710496 0.40364203 0.22374141
0.10538041 0.40365979 0.22390652
-0.17912279 0.26317936 0.24308193
0.1772723 0.26321158 0.24360192
-0.15492284 0.33375818 0.23487699
0.15311943 0.33377996 0.23513532
-0.13105948 0.38078189 0.23122358
0.12927648 0.38079274 0.23133421
-0.084108733 0.42954838 0.24363911
0.08222764 0.429557 0.2437135
-0.084028147 0.45298815 0.24102199
-0.060189955 0.45247483 0.23685467
-0.036418661 0.45198342 0.23286462
-0.012720639 0.45168149 0.23041296
0.010939641 0.45168388 0.23043132
0.034618936 0.45198569 0.23288298
0.058359943 0.45247948 0.23689163
0.082166336 0.45299268 0.24105906
-0.060263507 0.47660148 0.24003935
-0.036423206 0.47570118 0.23315978
-0.012712983 0.47521159 0.22941864
0.010939641 0.47521651 0.22945547
0.034621492 0.47570857 0.23321521
0.058409832 0.47661355 0.24013197
-0.15583061 0.35900903 0.25172293
0.15389766 0.35903311 0.25198436
-0.13181248 0.4062053 0.24752676
0.12990405 0.4062174 0.24763846
-0.10831871 0.45474377 0.25527537
0.10635035 0.4547599 0.2554065
-0.084388718 0.47826257 0.2527318
0.08243721 0.47826982 0.25278795
-0.012831325 0.50099432 0.24479139
0.010939641 0.50099707 0.24480999
-0.060655594 0.50268847 0.25701725
-0.036668211 0.50158763 0.24907362
0.034743711 0.50159037 0.24909198
0.058671527 0.50270408 0.25712967
-0.18026182 0.28821865 0.26157749
0.17826727 0.28825265 0.26206613
-0.15674841 0.38453767 0.26875472
0.15468532 0.38456607 0.26903796
-0.13292477 0.43277809 0.27160835
-0.10854898 0.43158296 0.26125801
0.10653228 0.43158945 0.26131439
0.13082737 0.4327803 0.27162731
-0.10890297 0.48058185 0.27045476
0.10681839 0.4806017 0.27060604
-0.084942013 0.50458455 0.27070057
0.082853504 0.50460023 0.27081406
-0.036986642 0.52841681 0.2697556
-0.012987919 0.52774072 0.26513362
0.010939641 0.52774614 0.26517141
0.034902927 0.52841949 0.26977444
-0.18141457 0.31355989 0.28029621
0.17927523 0.31359649 0.28077161
-0.13322945 0.45756784 0.27820516
0.1310842 0.45757967 0.27830005
-0.061167285 0.52979428 0.27917421
0.0590121 0.52980542 0.27925014
-0.18258135 0.33920833 0.29924166
0.18029436 0.33924589 0.29968452
-0.15858233 0.4121609 0.30278814
0.15624598 0.41216516 0.30282676
-0.15847115 0.43614015 0.30072486
0.156156 0.43615797 0.300879
-0.13407581 0.48399425 0.29652917
0.1317903 0.48400933 0.29664481
-0.10973298 0.50753856 0.29201913
0.10748423 0.50756764 0.29222977
-0.085698284 0.53214729 0.29526126
0.083420306 0.53216124 0.29535723
-0.037416607 0.55667961 0.297683
-0.013196802 0.55584586 0.2922684
0.010939641 0.55585176 0.29230666
0.035118058 0.55668539 0.29772139
-0.18376835 0.36517897 0.3185159
0.18137111 0.36528516 0.31966639
-0.15944663 0.46257135 0.31882787
0.15699583 0.46260029 0.31906188
-0.061889082 0.55864179 0.31042862
0.059494212 0.55866283 0.31056476
-0.13533841 0.51195127 0.32386529
0.13285157 0.51199996 0.32421732
-0.11094142 0.53626513 0.32341564
0.10845292 0.53630525 0.32368934
-0.086776972 0.56170005 0.33029258
0.084230728 0.56172431 0.33044982
-0.013499646 0.58634198 0.33160889
0.010939641 0.58635163 0.33166778
-0.18520355 0.3918497 0.34182107
0.18257134 0.39186159 0.34193993
-0.18579242 0.41739812 0.35138285
-0.16099101 0.49066287 0.34748793
0.15832804 0.4907175 0.3479048
-0.038052954 0.58753932 0.33901513
0.035436094 0.58754259 0.3390348
0.18311021 0.41745815 0.35194027
-0.063065812 0.59115529 0.36138284
0.060279079 0.59118122 0.36154294
-0.11307536 0.56917697 0.37885666
0.11016224 0.56922996 0.3792007
-0.1382899 0.54567736 0.3877672
0.1353164 0.54574871 0.38825572
-0.014182152 0.6257965 0.42026913
0.010939641 0.62581044 0.42035222
-0.03968209 0.62995613 0.4448303
0.03625197 0.62998807 0.44501996
-0.014678834 0.66234189 0.48479009
0.010939641 0.66234952 0.48483312
-0.040588863 0.66569471 0.50372696
0.036705069 0.66572189 0.5038799
-0.066496618 0.64098299 0.50994134
0.062572591 0.64107955 0.51051128
-0.014916904 0.69367427 0.51571667
0.010939641 0.6936782 0.51573849
-0.040712908 0.7187739 0.51178384
-0.014886633 0.7187739 0.51178384
0.010939641 0.7187739 0.51178384
0.036765914 0.7187739 0.51178384
-0.041050263 0.69699591 0.53369606
0.036935791 0.69702464 0.53385139
-0.067284703 0.69891179 0.54406619
0.063089199 0.69891179 0.54406619
-0.041238181 0.75142866 0.54590142
-0.015141685 0.75123161 0.54491639
0.010939641 0.75122702 0.54489374
0.037027344 0.75139731 0.54574478
-0.015176361 0.77824914 0.54942107
0.010939641 0.77820724 0.54921913
-0.04147438 0.78070629 0.5612433
0.037142828 0.78060299 0.56074631
-0.094374947 0.67867589 0.57704425
-0.068026818 0.67852664 0.5762006
0.063585356 0.67854273 0.57629168
0.089926638 0.678684 0.57709002
-0.06805104 0.73137277 0.57724965
0.063600101 0.73137277 0.57724965
-0.068041563 0.75762087 0.57683909
0.06357377 0.7573607 0.57553959
-0.015319312 0.80836779 0.5679909
0.010939641 0.80832392 0.56778669
0.063870139 0.78767878 0.59478903
-0.041805938 0.81155509 0.58277845
0.037307851 0.811427 0.58218372
-0.068486452 0.78795183 0.59610319
0 0 0 1 0 0 0 1 0 0 0 1 0 0 0 0 0 882 1 0 0
