ply
format ascii 1.0
comment PCL generated
element vertex 1343
property float x
property float y
property float z
element camera 0
property float view_px
property float view_py
property float view_pz
property float x_axisx
property float x_axisy
property float x_axisz
property float y_axisx
property float y_axisy
property float y_axisz
property float z_axisx
property float z_axisy
property float z_axisz
property float focal
property float scalex
property float scaley
property float centerx
property float centery
property int viewportx
property int viewporty
property float k1
property float k2
end_header
-0.2513577 -0.17315865 -0.18688744
-0.23273316 -0.17315865 -0.18688744
-0.2141086 -0.17315865 -0.18688744
-0.19548404 -0.17315865 -0.18688744
-0.17678106 -0.17305669 -0.18790644
-0.15816434 -0.17305669 -0.18790644
-0.13954762 -0.17305669 -0.18790644
-0.12093091 -0.17305669 -0.18790644
-0.1023142 -0.17305669 -0.18790644
-0.08369749 -0.17305669 -0.18790644
-0.065080769 -0.17305669 -0.18790644
-0.04646406 -0.17305669 -0.18790644
-0.027847346 -0.17305669 -0.18790644
-0.0092306333 -0.17305669 -0.18790644
0.0093860785 -0.17305669 -0.18790644
0.028002791 -0.17305669 -0.18790644
0.046619501 -0.17305669 -0.18790644
0.065236218 -0.17305669 -0.18790644
0.083852924 -0.17305669 -0.18790644
0.10246965 -0.17305669 -0.18790644
0.12108635 -0.17305669 -0.18790644
0.13970307 -0.17305669 -0.18790644
0.15831977 -0.17305669 -0.18790644
0.17693649 -0.17305669 -0.18790644
0.19563164 -0.17315865 -0.18688744
0.2142562 -0.17315865 -0.18688744
0.23288076 -0.17315865 -0.18688744
0.25150532 -0.17315865 -0.18688744
-0.30713522 -0.15446627 -0.18762219
-0.27026042 -0.15475664 -0.18447852
0.27047914 -0.15483353 -0.18364686
0.30707851 -0.15430874 -0.18932694
-0.28869152 -0.13596782 -0.18619967
0.28892979 -0.13603821 -0.18536907
-0.30935696 -0.41852885 -0.17064488
0.30976924 -0.41916212 -0.16748112
-0.29108164 -0.40052029 -0.1667943
-0.27230242 -0.40052029 -0.1667943
-0.25352317 -0.40052029 -0.1667943
-0.23474395 -0.40052029 -0.1667943
-0.21596473 -0.40052029 -0.1667943
-0.19718549 -0.40052029 -0.1667943
-0.17840625 -0.40052029 -0.1667943
-0.15962702 -0.40052029 -0.1667943
-0.14084779 -0.40052029 -0.1667943
-0.12206855 -0.40052029 -0.1667943
-0.10328933 -0.40052029 -0.1667943
-0.084510088 -0.40052029 -0.1667943
-0.065730855 -0.40052029 -0.1667943
-0.046951625 -0.40052029 -0.1667943
-0.028172389 -0.40052029 -0.1667943
-0.0093931546 -0.40052029 -0.1667943
0.0093860785 -0.40052029 -0.1667943
0.028165311 -0.40052029 -0.1667943
0.046944544 -0.40052029 -0.1667943
0.065723784 -0.40052029 -0.1667943
0.08450301 -0.40052029 -0.1667943
0.10328224 -0.40052029 -0.1667943
0.12206148 -0.40052029 -0.1667943
0.14084071 -0.40052029 -0.1667943
0.15961994 -0.40052029 -0.1667943
0.17839918 -0.40052029 -0.1667943
0.19717841 -0.40052029 -0.1667943
0.21595764 -0.40052029 -0.1667943
0.23473689 -0.40052029 -0.1667943
0.25351611 -0.40052029 -0.1667943
0.27229536 -0.40052029 -0.1667943
0.2910746 -0.40052029 -0.1667943
-0.2525281 -0.15553734 -0.17602754
-0.23381996 -0.15553734 -0.17602754
-0.21511181 -0.15553734 -0.17602754
-0.19640364 -0.15553734 -0.17602754
-0.17761725 -0.15544352 -0.1770438
-0.15891691 -0.15544352 -0.1770438
-0.1402166 -0.15544352 -0.1770438
-0.12151626 -0.15544352 -0.1770438
-0.10281593 -0.15544352 -0.1770438
-0.084115587 -0.15544352 -0.1770438
-0.065415256 -0.15544352 -0.1770438
-0.046714924 -0.15544352 -0.1770438
-0.028014589 -0.15544352 -0.1770438
-0.0093142549 -0.15544352 -0.1770438
0.0093860785 -0.15544352 -0.1770438
0.028086413 -0.15544352 -0.1770438
0.046786744 -0.15544352 -0.1770438
0.065487079 -0.15544352 -0.1770438
0.084187411 -0.15544352 -0.1770438
0.10288774 -0.15544352 -0.1770438
0.12158808 -0.15544352 -0.1770438
0.14028841 -0.15544352 -0.1770438
0.15898876 -0.15544352 -0.1770438
0.17768906 -0.15544352 -0.1770438
0.19646764 -0.15553734 -0.17602754
0.21517579 -0.15553734 -0.17602754
0.23388396 -0.15553734 -0.17602754
0.25259212 -0.15553734 -0.17602754
-0.25370905 -0.13775709 -0.1650697
-0.23491655 -0.13775709 -0.1650697
-0.21612403 -0.13775709 -0.1650697
-0.19733155 -0.13775709 -0.1650697
-0.178461 -0.13767129 -0.16608304
-0.1596763 -0.13767129 -0.16608304
-0.1408916 -0.13767129 -0.16608304
-0.12210688 -0.13767129 -0.16608304
-0.10332217 -0.13767129 -0.16608304
-0.084537461 -0.13767129 -0.16608304
-0.06575276 -0.13767129 -0.16608304
-0.046968047 -0.13767129 -0.16608304
-0.028183341 -0.13767129 -0.16608304
-0.0093986308 -0.13767129 -0.16608304
0.0093860785 -0.13767129 -0.16608304
0.028170787 -0.13767129 -0.16608304
0.046955496 -0.13767129 -0.16608304
0.065740205 -0.13767129 -0.16608304
0.084524915 -0.13767129 -0.16608304
0.10330962 -0.13767129 -0.16608304
0.12209433 -0.13767129 -0.16608304
0.14087903 -0.13767129 -0.16608304
0.15966375 -0.13767129 -0.16608304
0.17844845 -0.13767129 -0.16608304
0.19731118 -0.13775709 -0.1650697
0.2161037 -0.13775709 -0.1650697
0.23489618 -0.13775709 -0.1650697
0.25368872 -0.13775709 -0.1650697
-0.30879819 -0.1369234 -0.1749146
-0.27143115 -0.1369721 -0.17433983
0.27157387 -0.13704422 -0.17348903
0.30864441 -0.13677961 -0.17661339
-0.28994 -0.11811835 -0.17606336
-0.27261308 -0.11903898 -0.16410375
0.29009962 -0.11818182 -0.17523777
0.3102254 -0.11906404 -0.16377753
-0.29119748 -0.10011771 -0.16585392
0.29128072 -0.10017618 -0.16500926
-0.31048036 -0.11919617 -0.1620608
-0.25490201 -0.11981671 -0.15400028
-0.23602429 -0.11981671 -0.15400028
-0.21714658 -0.11981671 -0.15400028
-0.19826886 -0.11981671 -0.15400028
-0.17931242 -0.11973799 -0.15502292
-0.16044256 -0.11973799 -0.15502292
-0.14157273 -0.11973799 -0.15502292
-0.12270287 -0.11973799 -0.15502292
-0.10383301 -0.11973799 -0.15502292
-0.084963173 -0.11973799 -0.15502292
-0.066093326 -0.11973799 -0.15502292
-0.047223467 -0.11973799 -0.15502292
-0.028353624 -0.11973799 -0.15502292
-0.0094837723 -0.11973799 -0.15502292
0.0093860785 -0.11973799 -0.15502292
0.028255928 -0.11973799 -0.15502292
0.047125779 -0.11973799 -0.15502292
0.065995626 -0.11973799 -0.15502292
0.084865481 -0.11973799 -0.15502292
0.10373533 -0.11973799 -0.15502292
0.12260517 -0.11973799 -0.15502292
0.14147502 -0.11973799 -0.15502292
0.16034488 -0.11973799 -0.15502292
0.17921472 -0.11973799 -0.15502292
0.1981633 -0.11981671 -0.15400028
0.21704102 -0.11981671 -0.15400028
0.23591873 -0.11981671 -0.15400028
0.25479645 -0.11981671 -0.15400028
0.27267647 -0.11910405 -0.16325778
-0.31217876 -0.10127971 -0.14908224
-0.27380505 -0.10095414 -0.153781
0.27378842 -0.10101242 -0.15294021
0.31182316 -0.10116033 -0.15080523
-0.29246706 -0.081966065 -0.15554613
0.29247037 -0.082017757 -0.15470654
-0.31354958 -0.4439373 -0.13860744
0.31371948 -0.44460207 -0.13540912
-0.2561045 -0.101712 -0.14284247
-0.23714091 -0.101712 -0.14284247
-0.21817729 -0.101712 -0.14284247
-0.1992137 -0.101712 -0.14284247
-0.18017063 -0.10164054 -0.14387441
-0.16121495 -0.10164054 -0.14387441
-0.1422593 -0.10164054 -0.14387441
-0.12330361 -0.10164054 -0.14387441
-0.10434794 -0.10164054 -0.14387441
-0.085392274 -0.10164054 -0.14387441
-0.066436611 -0.10164054 -0.14387441
-0.047480933 -0.10164054 -0.14387441
-0.028525267 -0.10164054 -0.14387441
-0.0095695937 -0.10164054 -0.14387441
0.0093860785 -0.10164054 -0.14387441
0.028341752 -0.10164054 -0.14387441
0.047297422 -0.10164054 -0.14387441
0.066253088 -0.10164054 -0.14387441
0.085208766 -0.10164054 -0.14387441
0.10416443 -0.10164054 -0.14387441
0.1231201 -0.10164054 -0.14387441
0.14207576 -0.10164054 -0.14387441
0.16103145 -0.10164054 -0.14387441
0.1799871 -0.10164054 -0.14387441
0.19902223 -0.101712 -0.14284247
0.21798585 -0.101712 -0.14284247
0.23694944 -0.101712 -0.14284247
0.25591308 -0.101712 -0.14284247
-0.31389531 -0.083171852 -0.13596547
-0.27500713 -0.082715847 -0.14337075
0.27491114 -0.082768075 -0.14252287
0.313438 -0.083065413 -0.13769442
-0.29374743 -0.06366042 -0.14515084
0.29367012 -0.063705318 -0.14431643
-0.2950387 -0.045198746 -0.13466704
-0.29619506 -0.42760888 -0.12527835
-0.27754173 -0.42838106 -0.12142038
-0.25841323 -0.42838106 -0.12142038
-0.23928469 -0.42838106 -0.12142038
-0.22015618 -0.42838106 -0.12142038
-0.20102766 -0.42838106 -0.12142038
-0.18189913 -0.42838106 -0.12142038
-0.16277061 -0.42838106 -0.12142038
-0.1436421 -0.42838106 -0.12142038
-0.12451358 -0.42838106 -0.12142038
-0.10538505 -0.42838106 -0.12142038
-0.086256526 -0.42838106 -0.12142038
-0.06712801 -0.42838106 -0.12142038
-0.047999486 -0.42838106 -0.12142038
-0.028870966 -0.42838106 -0.12142038
-0.0097424434 -0.42838106 -0.12142038
0.0093860785 -0.42838106 -0.12142038
0.028514601 -0.42838106 -0.12142038
0.047643121 -0.42838106 -0.12142038
0.066771641 -0.42838106 -0.12142038
0.085900165 -0.42838106 -0.12142038
0.10502868 -0.42838106 -0.12142038
0.12415721 -0.42838106 -0.12142038
0.14328574 -0.42838106 -0.12142038
0.16241425 -0.42838106 -0.12142038
0.18154277 -0.42838106 -0.12142038
0.20067129 -0.42838106 -0.12142038
0.21979982 -0.42838106 -0.12142038
0.23892833 -0.42838106 -0.12142038
0.25805685 -0.42838106 -0.12142038
0.27718541 -0.42838106 -0.12142038
0.29624462 -0.42826098 -0.1220206
-0.25731936 -0.083442621 -0.13157022
-0.23826899 -0.083442621 -0.13157022
-0.2192186 -0.083442621 -0.13157022
-0.20016819 -0.083442621 -0.13157022
-0.18103763 -0.083378442 -0.13261163
-0.16199528 -0.083378442 -0.13261163
-0.14295289 -0.083378442 -0.13261163
-0.12391052 -0.083378442 -0.13261163
-0.10486815 -0.083378442 -0.13261163
-0.085825779 -0.083378442 -0.13261163
-0.066783406 -0.083378442 -0.13261163
-0.047741037 -0.083378442 -0.13261163
-0.028698664 -0.083378442 -0.13261163
-0.0096562924 -0.083378442 -0.13261163
0.0093860785 -0.083378442 -0.13261163
0.02842845 -0.083378442 -0.13261163
0.047470819 -0.083378442 -0.13261163
0.066513196 -0.083378442 -0.13261163
0.085555561 -0.083378442 -0.13261163
0.10459793 -0.083378442 -0.13261163
0.12364031 -0.083378442 -0.13261163
0.14268267 -0.083378442 -0.13261163
0.16172504 -0.083378442 -0.13261163
0.18076743 -0.083378442 -0.13261163
0.19988996 -0.083442621 -0.13157022
0.21894035 -0.083442621 -0.13157022
0.23799075 -0.083442621 -0.13157022
0.25704116 -0.083442621 -0.13157022
-0.31563193 -0.064870454 -0.12269521
-0.27621946 -0.064322136 -0.13287187
-0.25851431 -0.064989723 -0.12048221
-0.23940615 -0.065004475 -0.12020695
-0.22026828 -0.065004475 -0.12020695
-0.20113042 -0.065004475 -0.12020695
-0.18191262 -0.064948581 -0.12124527
-0.16278274 -0.064948581 -0.12124527
-0.14365289 -0.064948581 -0.12124527
-0.12452301 -0.064948581 -0.12124527
-0.10539314 -0.064948581 -0.12124527
-0.086263269 -0.064948581 -0.12124527
-0.067133404 -0.064948581 -0.12124527
-0.048003532 -0.064948581 -0.12124527
-0.028873663 -0.064948581 -0.12124527
-0.009743792 -0.064948581 -0.12124527
0.0093860785 -0.064948581 -0.12124527
0.02851595 -0.064948581 -0.12124527
0.047645818 -0.064948581 -0.12124527
0.066775687 -0.064948581 -0.12124527
0.085905559 -0.064948581 -0.12124527
0.10503542 -0.064948581 -0.12124527
0.1241653 -0.064948581 -0.12124527
0.14329517 -0.064948581 -0.12124527
0.16242504 -0.064948581 -0.12124527
0.1815549 -0.064948581 -0.12124527
0.20076472 -0.065004475 -0.12020695
0.21990258 -0.065004475 -0.12020695
0.23904043 -0.065004475 -0.12020695
0.25817832 -0.065004475 -0.12020695
0.27604207 -0.064367525 -0.13202894
0.31507015 -0.064776294 -0.12444293
-0.2774407 -0.045770139 -0.1222955
0.27718404 -0.045810051 -0.1214329
0.29488149 -0.045237601 -0.13382554
-0.29667026 -0.026682086 -0.1214205
0.2961148 -0.026615642 -0.12314487
-0.31785399 -0.4700231 -0.10571587
-0.31738564 -0.046370655 -0.10929441
-0.25966701 -0.046348028 -0.10978663
-0.24055381 -0.046396352 -0.10873866
-0.22132768 -0.046396352 -0.10873866
-0.20210151 -0.046396352 -0.10873866
-0.18279567 -0.046348549 -0.10977423
-0.1635775 -0.046348549 -0.10977423
-0.14435932 -0.046348549 -0.10977423
-0.12514114 -0.046348549 -0.10977423
-0.10592297 -0.046348549 -0.10977423
-0.086704798 -0.046348549 -0.10977423
-0.067486621 -0.046348549 -0.10977423
-0.048268449 -0.046348549 -0.10977423
-0.029050272 -0.046348549 -0.10977423
-0.0098320963 -0.046348549 -0.10977423
0.0093860785 -0.046348549 -0.10977423
0.028604254 -0.046348549 -0.10977423
0.047822427 -0.046348549 -0.10977423
0.067040607 -0.046348549 -0.10977423
0.086258776 -0.046348549 -0.10977423
0.10547695 -0.046348549 -0.10977423
0.12469513 -0.046348549 -0.10977423
0.1439133 -0.046348549 -0.10977423
0.16313148 -0.046348549 -0.10977423
0.18234965 -0.046348549 -0.10977423
0.20164753 -0.046396352 -0.10873866
0.22087367 -0.046396352 -0.10873866
0.24009983 -0.046396352 -0.10873866
0.25930828 -0.046388194 -0.10891557
0.31671995 -0.046289608 -0.11104834
-0.27867389 -0.027059548 -0.11161554
0.2783345 -0.027092487 -0.11075819
-0.2983225 -0.007966578 -0.10800576
0.29766309 -0.0079133362 -0.10973632
0.31777656 -0.47072279 -0.10246968
-0.30029202 -0.45362133 -0.092015266
-0.26082963 -0.027545117 -0.098998666
-0.24171339 -0.027616121 -0.097151399
-0.22239806 -0.027616121 -0.097151399
-0.20308273 -0.027616121 -0.097151399
-0.18368693 -0.027575947 -0.098196507
-0.16437961 -0.027575947 -0.098196507
-0.14507233 -0.027575947 -0.098196507
-0.12576503 -0.027575947 -0.098196507
-0.10645772 -0.027575947 -0.098196507
-0.087150425 -0.027575947 -0.098196507
-0.067843124 -0.027575947 -0.098196507
-0.04853582 -0.027575947 -0.098196507
-0.029228523 -0.027575947 -0.098196507
-0.009921222 -0.027575947 -0.098196507
0.0093860785 -0.027575947 -0.098196507
0.028693378 -0.027575947 -0.098196507
0.048000678 -0.027575947 -0.098196507
0.067307979 -0.027575947 -0.098196507
0.086615279 -0.027575947 -0.098196507
0.10592258 -0.027575947 -0.098196507
0.12522988 -0.027575947 -0.098196507
0.14453718 -0.027575947 -0.098196507
0.16384448 -0.027575947 -0.098196507
0.18315177 -0.027575947 -0.098196507
0.20253952 -0.027616121 -0.097151399
0.22185488 -0.027616121 -0.097151399
0.24117021 -0.027616121 -0.097151399
0.26038861 -0.027578883 -0.098120093
0.31838763 -0.027602479 -0.097508311
-0.27991775 -0.008187212 -0.10084343
0.27949485 -0.0082134008 -0.09999156
-0.29999429 0.010951672 -0.094432592
-0.28117239 0.010848872 -0.089978099
0.29922819 0.010992151 -0.096181989
0.30008826 -0.45430344 -0.088733673
-0.26200098 -0.008578673 -0.088130116
-0.24288251 -0.0086605921 -0.085469007
-0.22347723 -0.0086605921 -0.085469007
-0.20407195 -0.0086605921 -0.085469007
-0.18458548 -0.0086281374 -0.086523771
-0.16518831 -0.0086281374 -0.086523771
-0.14579117 -0.0086281374 -0.086523771
-0.126394 -0.0086281374 -0.086523771
-0.10699686 -0.0086281374 -0.086523771
-0.087599702 -0.0086281374 -0.086523771
-0.068202548 -0.0086281374 -0.086523771
-0.04880539 -0.0086281374 -0.086523771
-0.029408235 -0.0086281374 -0.086523771
-0.010011078 -0.0086281374 -0.086523771
0.0093860785 -0.0086281374 -0.086523771
0.028783236 -0.0086281374 -0.086523771
0.04818039 -0.0086281374 -0.086523771
0.067577548 -0.0086281374 -0.086523771
0.086974703 -0.0086281374 -0.086523771
0.10637186 -0.0086281374 -0.086523771
0.12576902 -0.0086281374 -0.086523771
0.14516616 -0.0086281374 -0.086523771
0.16456333 -0.0086281374 -0.086523771
0.18396047 -0.0086281374 -0.086523771
0.20343883 -0.0086605921 -0.085469007
0.22284411 -0.0086605921 -0.085469007
0.24224938 -0.0086605921 -0.085469007
0.26147708 -0.0086058602 -0.087243795
-0.26318392 0.010552585 -0.077153802
0.262575 0.010532279 -0.076272607
0.28066665 0.010829005 -0.089118719
-0.30168271 0.030076962 -0.080724239
-0.28243646 0.030050866 -0.079030871
0.28184724 0.030037448 -0.078163862
0.3008104 0.030103933 -0.082479954
-0.28297815 -0.45729512 -0.074339628
-0.26348719 -0.45729512 -0.074339628
-0.24399625 -0.45729512 -0.074339628
-0.22450532 -0.45729512 -0.074339628
-0.20501436 -0.45729512 -0.074339628
-0.18552342 -0.45729512 -0.074339628
-0.16603246 -0.45729512 -0.074339628
-0.14654152 -0.45729512 -0.074339628
-0.12705056 -0.45729512 -0.074339628
-0.10755962 -0.45729512 -0.074339628
-0.088068672 -0.45729512 -0.074339628
-0.068577722 -0.45729512 -0.074339628
-0.049086772 -0.45729512 -0.074339628
-0.029595822 -0.45729512 -0.074339628
-0.010104871 -0.45729512 -0.074339628
0.0093860785 -0.45729512 -0.074339628
0.028877027 -0.45729512 -0.074339628
0.048367977 -0.45729512 -0.074339628
0.067858927 -0.45729512 -0.074339628
0.087349877 -0.45729512 -0.074339628
0.10684083 -0.45729512 -0.074339628
0.12633178 -0.45729512 -0.074339628
0.14582272 -0.45729512 -0.074339628
0.16531368 -0.45729512 -0.074339628
0.18480462 -0.45729512 -0.074339628
0.20429558 -0.45729512 -0.074339628
0.22378652 -0.45729512 -0.074339628
0.24327748 -0.45729512 -0.074339628
0.26276842 -0.45729512 -0.074339628
0.28225937 -0.45729512 -0.074339628
-0.24406384 0.010472111 -0.073664427
-0.2245677 0.010472111 -0.073664427
-0.20507155 0.010472111 -0.073664427
-0.18549345 0.010496713 -0.074729204
-0.16600548 0.010496713 -0.074729204
-0.14651753 0.010496713 -0.074729204
-0.12702958 0.010496713 -0.074729204
-0.10754163 0.010496713 -0.074729204
-0.088053688 0.010496713 -0.074729204
-0.068565734 0.010496713 -0.074729204
-0.049077775 0.010496713 -0.074729204
-0.029589828 0.010496713 -0.074729204
-0.010101874 0.010496713 -0.074729204
0.0093860785 0.010496713 -0.074729204
0.028874032 0.010496713 -0.074729204
0.048361983 0.010496713 -0.074729204
0.067849934 0.010496713 -0.074729204
0.087337889 0.010496713 -0.074729204
0.10682584 0.010496713 -0.074729204
0.12631379 0.010496713 -0.074729204
0.14580174 0.010496713 -0.074729204
0.16528969 0.010496713 -0.074729204
0.18477763 0.010496713 -0.074729204
0.20434755 0.010472111 -0.073664427
0.22384371 0.010472111 -0.073664427
0.24333985 0.010472111 -0.073664427
-0.26437721 0.029851455 -0.066081524
-0.24525501 0.029785015 -0.061761856
-0.22566721 0.029785015 -0.061761856
-0.20607944 0.029785015 -0.061761856
-0.18640994 0.029801328 -0.062823415
-0.16683035 0.029801328 -0.062823415
-0.14725073 0.029801328 -0.062823415
-0.12767114 0.029801328 -0.062823415
-0.10809153 0.029801328 -0.062823415
-0.088511929 0.029801328 -0.062823415
-0.068932332 0.029801328 -0.062823415
-0.049352728 0.029801328 -0.062823415
-0.029773127 0.029801328 -0.062823415
-0.010193524 0.029801328 -0.062823415
0.0093860785 0.029801328 -0.062823415
0.028965682 0.029801328 -0.062823415
0.048545282 0.029801328 -0.062823415
0.068124883 0.029801328 -0.062823415
0.087704487 0.029801328 -0.062823415
0.10728408 0.029801328 -0.062823415
0.12686369 0.029801328 -0.062823415
0.14644329 0.029801328 -0.062823415
0.16602288 0.029801328 -0.062823415
0.1856025 0.029801328 -0.062823415
0.20526382 0.029785015 -0.061761856
0.22485159 0.029785015 -0.061761856
0.24443936 0.029785015 -0.061761856
0.26368383 0.029837862 -0.06519258
-0.3033897 0.049412012 -0.066865325
-0.2837131 0.049420521 -0.067974925
0.28303817 0.049413942 -0.0671134
0.30240995 0.04942552 -0.068627119
-0.3044987 -0.48033786 -0.057861328
0.30403632 -0.48105317 -0.054542542
-0.26558101 0.04931996 -0.054911613
-0.24645869 0.049280182 -0.0497334
-0.22677833 0.049280182 -0.0497334
-0.20709798 0.049280182 -0.0497334
-0.1873351 0.04928834 -0.050805092
-0.16766298 0.04928834 -0.050805092
-0.14799087 0.04928834 -0.050805092
-0.12831876 0.04928834 -0.050805092
-0.10864664 0.04928834 -0.050805092
-0.088974513 0.04928834 -0.050805092
-0.069302395 0.04928834 -0.050805092
-0.049630281 0.04928834 -0.050805092
-0.029958159 0.04928834 -0.050805092
-0.01028604 0.04928834 -0.050805092
0.0093860785 0.04928834 -0.050805092
0.029058196 0.04928834 -0.050805092
0.048730314 0.04928834 -0.050805092
0.068402439 0.04928834 -0.050805092
0.08807455 0.04928834 -0.050805092
0.10774667 0.04928834 -0.050805092
0.1274188 0.04928834 -0.050805092
0.14709091 0.04928834 -0.050805092
0.16676302 0.04928834 -0.050805092
0.18643513 0.04928834 -0.050805092
0.20618874 0.049280271 -0.049746633
0.22586901 0.049280271 -0.049746633
0.24554928 0.049280271 -0.049746633
0.26480108 0.049313206 -0.054028034
-0.30511713 0.068960465 -0.052840233
-0.28500092 0.068960465 -0.056821823
0.28424099 0.068960465 -0.055952787
0.30402717 0.06896051 -0.054621577
-0.26679397 0.068960465 -0.043656588
-0.24767254 0.068960465 -0.037604213
-0.22789881 0.068960465 -0.037604213
-0.20812505 0.068960465 -0.037604213
0.20712347 0.068960465 -0.037604213
0.22689721 0.068960465 -0.037604213
0.24667096 0.068960465 -0.037604213
0.26592955 0.06896051 -0.042751908
-0.18826802 0.0689606 -0.038686275
-0.16850263 0.0689606 -0.038686275
-0.14873721 0.0689606 -0.038686275
-0.1289718 0.0689606 -0.038686275
-0.10920639 0.0689606 -0.038686275
-0.089440972 0.0689606 -0.038686275
-0.069675565 0.0689606 -0.038686275
-0.049910154 0.0689606 -0.038686275
-0.030144744 0.0689606 -0.038686275
-0.010379332 0.0689606 -0.038686275
0.0093860785 0.0689606 -0.038686275
0.029151488 0.0689606 -0.038686275
0.048916899 0.0689606 -0.038686275
0.068682313 0.0689606 -0.038686275
0.08844772 0.0689606 -0.038686275
0.10821313 0.0689606 -0.038686275
0.12797855 0.0689606 -0.038686275
0.14774396 0.0689606 -0.038686275
0.16750936 0.0689606 -0.038686275
0.18727478 0.0689606 -0.038686275
-0.30686212 0.088726051 -0.038672805
-0.28630015 0.088672943 -0.045570374
-0.26801917 0.088775165 -0.032288313
0.26706669 0.088782139 -0.031389117
0.28545296 0.088679604 -0.044706941
0.30566236 0.088712238 -0.040460587
-0.28760934 0.10855991 -0.034232378
0.28667715 0.10857347 -0.033347726
-0.30882126 -0.50779033 -0.022766709
0.30809462 -0.50854278 -0.019396305
-0.28862613 -0.48732901 -0.025426865
-0.26875865 -0.48732901 -0.025426865
-0.24889119 -0.48732901 -0.025426865
-0.22902369 -0.48732901 -0.025426865
-0.20915622 -0.48732901 -0.025426865
-0.18928874 -0.48732901 -0.025426865
-0.16942124 -0.48732901 -0.025426865
-0.14955376 -0.48732901 -0.025426865
-0.1296863 -0.48732901 -0.025426865
-0.10981881 -0.48732901 -0.025426865
-0.089951329 -0.48732901 -0.025426865
-0.070083849 -0.48732901 -0.025426865
-0.050216366 -0.48732901 -0.025426865
-0.030348886 -0.48732901 -0.025426865
-0.010481403 -0.48732901 -0.025426865
0.0093860785 -0.48732901 -0.025426865
0.029253561 -0.48732901 -0.025426865
0.049121041 -0.48732901 -0.025426865
0.068988524 -0.48732901 -0.025426865
0.088856004 -0.48732901 -0.025426865
0.10872348 -0.48732901 -0.025426865
0.12859097 -0.48732901 -0.025426865
0.14845845 -0.48732901 -0.025426865
0.16832592 -0.48732901 -0.025426865
0.1881934 -0.48732901 -0.025426865
0.20806089 -0.48732901 -0.025426865
0.22792837 -0.48732901 -0.025426865
0.24779585 -0.48732901 -0.025426865
0.26766336 -0.48732901 -0.025426865
0.28753084 -0.48732901 -0.025426865
-0.2488979 0.088828497 -0.025359392
-0.22902992 0.088828497 -0.025359392
-0.20916192 0.088828497 -0.025359392
-0.18921086 0.088820249 -0.026438236
-0.16935118 0.088820249 -0.026438236
-0.14949149 0.088820249 -0.026438236
-0.12963179 0.088820249 -0.026438236
-0.10977209 0.088820249 -0.026438236
-0.089912392 0.088820249 -0.026438236
-0.070052706 0.088820249 -0.026438236
-0.050193008 0.088820249 -0.026438236
-0.030333314 0.088820249 -0.026438236
-0.010473617 0.088820249 -0.026438236
0.0093860785 0.088820249 -0.026438236
0.029245775 0.088820249 -0.026438236
0.049105469 0.088820249 -0.026438236
0.068965167 0.088820249 -0.026438236
0.088824861 0.088820249 -0.026438236
0.10868455 0.088820249 -0.026438236
0.12854426 0.088820249 -0.026438236
0.14840394 0.088820249 -0.026438236
0.16826364 0.088820249 -0.026438236
0.18812333 0.088820249 -0.026438236
0.20806606 0.088828497 -0.025359392
0.22793408 0.088828497 -0.025359392
0.24780208 0.088828497 -0.025359392
-0.30862656 0.10871209 -0.024347186
-0.26925525 0.10876639 -0.02081871
0.26821396 0.10878021 -0.019924998
0.30731577 0.10868455 -0.026141644
-0.28893173 0.12862402 -0.02278018
0.28791076 0.12864433 -0.02190125
-0.25013641 0.10888708 -0.01298368
-0.23017316 0.10888708 -0.01298368
-0.21020986 0.10888708 -0.01298368
-0.19016275 0.10887033 -0.014072776
-0.17020787 0.10887033 -0.014072776
-0.15025298 0.10887033 -0.014072776
-0.13029811 0.10887033 -0.014072776
-0.11034323 0.10887033 -0.014072776
-0.090388335 0.10887033 -0.014072776
-0.07043346 0.10887033 -0.014072776
-0.050478574 0.10887033 -0.014072776
-0.030523691 0.10887033 -0.014072776
-0.010568806 0.10887033 -0.014072776
0.0093860785 0.10887033 -0.014072776
0.029340964 0.10887033 -0.014072776
0.049295846 0.10887033 -0.014072776
0.069250733 0.10887033 -0.014072776
0.089205615 0.10887033 -0.014072776
0.10916049 0.10887033 -0.014072776
0.12911539 0.10887033 -0.014072776
0.14907026 0.10887033 -0.014072776
0.16902514 0.10887033 -0.014072776
0.18898003 0.10887033 -0.014072776
0.20901877 0.10888708 -0.01298368
0.22898202 0.10888708 -0.01298368
0.24894531 0.10888708 -0.01298368
-0.3104125 0.12892273 -0.0098472834
-0.27050242 0.12893662 -0.0092464685
0.26937145 0.12895715 -0.0083581209
0.30898774 0.12888084 -0.011661768
-0.29026595 0.14886773 -0.011225581
0.28915542 0.14889455 -0.010352254
-0.25138545 0.12913853 -0.00050234795
-0.23132612 0.12913853 -0.00050234795
-0.21126677 0.12913853 -0.00050234795
-0.19112383 0.12911341 -0.0015882254
-0.17107283 0.12911341 -0.0015882254
-0.15102184 0.12911341 -0.0015882254
-0.13097085 0.12911341 -0.0015882254
-0.11091986 0.12911341 -0.0015882254
-0.090868875 0.12911341 -0.0015882254
-0.07081788 0.12911341 -0.0015882254
-0.050766889 0.12911341 -0.0015882254
-0.030715901 0.12911341 -0.0015882254
-0.010664911 0.12911341 -0.0015882254
0.0093860785 0.12911341 -0.0015882254
0.029437069 0.12911341 -0.0015882254
0.049488056 0.12911341 -0.0015882254
0.069539048 0.12911341 -0.0015882254
0.089590035 0.12911341 -0.0015882254
0.10964103 0.12911341 -0.0015882254
0.12969202 0.12911341 -0.0015882254
0.14974301 0.12911341 -0.0015882254
0.16979399 0.12911341 -0.0015882254
0.18984498 0.12911341 -0.0015882254
0.20997956 0.12913853 -0.00050234795
0.23003893 0.12913853 -0.00050234795
0.25009829 0.12913853 -0.00050234795
-0.31221691 0.14936131 0.0048025846
-0.27175933 0.14928767 0.0024161339
-0.2526466 0.14958593 0.012099504
-0.23249024 0.14958593 0.012099504
-0.21233387 0.14958593 0.012099504
-0.1920931 0.14955217 0.011003137
-0.17194518 0.14955217 0.011003137
-0.15179726 0.14955217 0.011003137
-0.13164936 0.14955217 0.011003137
-0.11150144 0.14955217 0.011003137
-0.091353513 0.14955217 0.011003137
-0.071205594 0.14955217 0.011003137
-0.051057681 0.14955217 0.011003137
-0.030909758 0.14955217 0.011003137
-0.010761839 0.14955217 0.011003137
0.0093860785 0.14955217 0.011003137
0.029533997 0.14955217 0.011003137
0.049681913 0.14955217 0.011003137
0.069829836 0.14955217 0.011003137
0.089977749 0.14955217 0.011003137
0.11012567 0.14955217 0.011003137
0.1302736 0.14955217 0.011003137
0.15042152 0.14955217 0.011003137
0.17056942 0.14955217 0.011003137
0.19071734 0.14955217 0.011003137
0.21094966 0.14958593 0.012099504
0.23110603 0.14958593 0.012099504
0.2512624 0.14958593 0.012099504
0.27054074 0.14931579 0.0033260584
0.3106786 0.14930522 0.0029813051
-0.29161057 0.16929275 0.00041937828
0.29041272 0.16932723 0.001314044
-0.2929689 0.18990248 0.012182951
-0.31326449 -0.53600931 0.013308048
0.31226471 -0.53679669 0.016717434
-0.2944966 -0.51854604 0.025413036
-0.27423775 -0.51854604 0.025413036
-0.25397888 -0.51854604 0.025413036
-0.23372008 -0.51854604 0.025413036
-0.21346124 -0.51854604 0.025413036
-0.19320238 -0.51854604 0.025413036
-0.17294355 -0.51854604 0.025413036
-0.15268469 -0.51854604 0.025413036
-0.13242584 -0.51854604 0.025413036
-0.112167 -0.51854604 0.025413036
-0.091908149 -0.51854604 0.025413036
-0.071649306 -0.51854604 0.025413036
-0.051390462 -0.51854604 0.025413036
-0.031131614 -0.51854604 0.025413036
-0.010872767 -0.51854604 0.025413036
0.0093860785 -0.51854604 0.025413036
0.029644925 -0.51854604 0.025413036
0.049903769 -0.51854604 0.025413036
0.070162617 -0.51854604 0.025413036
0.090421461 -0.51854604 0.025413036
0.1106803 -0.51854604 0.025413036
0.13093916 -0.51854604 0.025413036
0.151198 -0.51854604 0.025413036
0.17145684 -0.51854604 0.025413036
0.1917157 -0.51854604 0.025413036
0.21197453 -0.51854604 0.025413036
0.23223339 -0.51854604 0.025413036
0.25249225 -0.51854604 0.025413036
0.27275106 -0.51854604 0.025413036
0.29300994 -0.51854604 0.025413036
-0.31404179 0.17003173 0.019618869
-0.27302906 0.16982302 0.014197826
-0.25392136 0.17023262 0.024837852
-0.23366696 0.17023262 0.024837852
-0.21341252 0.17023262 0.024837852
-0.1930729 0.17019004 0.023730755
-0.17282701 0.17019004 0.023730755
-0.1525811 0.17019004 0.023730755
-0.1323352 0.17019004 0.023730755
-0.1120893 0.17019004 0.023730755
-0.091843411 0.17019004 0.023730755
-0.071597509 0.17019004 0.023730755
-0.051351611 0.17019004 0.023730755
-0.031105716 0.17019004 0.023730755
-0.010859818 0.17019004 0.023730755
0.0093860785 0.17019004 0.023730755
0.029631976 0.17019004 0.023730755
0.049877871 0.17019004 0.023730755
0.070123769 0.17019004 0.023730755
0.090369664 0.17019004 0.023730755
0.11061557 0.17019004 0.023730755
0.13086146 0.17019004 0.023730755
0.15110736 0.17019004 0.023730755
0.17135325 0.17019004 0.023730755
0.19159916 0.17019004 0.023730755
0.21193026 0.17023262 0.024837852
0.23218468 0.17023262 0.024837852
0.25243911 0.17023262 0.024837852
0.27171925 0.16985792 0.015102148
0.31238863 0.16996133 0.017790675
-0.27431032 0.19054478 0.026086569
0.27290979 0.19058692 0.026998878
0.29167989 0.18994361 0.013072014
-0.29433957 0.21069914 0.024053097
0.29295856 0.21074668 0.024936318
-0.31588924 0.19093877 0.034618258
-0.25520721 0.19108053 0.037686944
-0.23485388 0.19108053 0.037686944
-0.21450056 0.19108053 0.037686944
-0.19406226 0.19102943 0.036583066
-0.17371741 0.19102943 0.036583066
-0.15337259 0.19102943 0.036583066
-0.13302776 0.19102943 0.036583066
-0.11268292 0.19102943 0.036583066
-0.092338093 0.19102943 0.036583066
-0.071993254 0.19102943 0.036583066
-0.051648419 0.19102943 0.036583066
-0.031303588 0.19102943 0.036583066
-0.010958754 0.19102943 0.036583066
0.0093860785 0.19102943 0.036583066
0.029730912 0.19102943 0.036583066
0.050075743 0.19102943 0.036583066
0.070420578 0.19102943 0.036583066
0.090765409 0.19102943 0.036583066
0.11111025 0.19102943 0.036583066
0.13145508 0.19102943 0.036583066
0.15179992 0.19102943 0.036583066
0.17214474 0.19102943 0.036583066
0.19248956 0.19102943 0.036583066
0.21291938 0.19108053 0.037686944
0.23327272 0.19108053 0.037686944
0.25362605 0.19108053 0.037686944
0.31411985 0.1908541 0.03278327
-0.27560323 0.21145523 0.038083315
0.27410978 0.21150407 0.038990021
-0.29572597 0.23168689 0.036059618
0.29425037 0.23174006 0.036922693
-0.31783184 -0.5650242 0.050390124
0.31655449 -0.56585419 0.053868294
-0.31775615 0.21208534 0.04977572
-0.25650707 0.21213371 0.050676227
-0.23605379 0.21213371 0.050676227
-0.21560046 0.21213371 0.050676227
-0.19514714 0.21213371 0.050676227
-0.17461658 0.21207374 0.04956162
-0.15417185 0.21207374 0.04956162
-0.1337271 0.21207374 0.04956162
-0.11328237 0.21207374 0.04956162
-0.092837632 0.21207374 0.04956162
-0.072392888 0.21207374 0.04956162
-0.051948145 0.21207374 0.04956162
-0.031503405 0.21207374 0.04956162
-0.011058665 0.21207374 0.04956162
0.0093860785 0.21207374 0.04956162
0.029830821 0.21207374 0.04956162
0.05027556 0.21207374 0.04956162
0.0707203 0.21207374 0.04956162
0.091165043 0.21207374 0.04956162
0.11160979 0.21207374 0.04956162
0.13205452 0.21207374 0.04956162
0.15249926 0.21207374 0.04956162
0.17294401 0.21207374 0.04956162
0.19338873 0.21207374 0.04956162
0.2139193 0.21213371 0.050676227
0.23437262 0.21213371 0.050676227
0.25482595 0.21213371 0.050676227
0.31586927 0.21198601 0.047934055
-0.27690649 0.23255628 0.050175905
0.27532077 0.23261255 0.051090837
-0.29747978 0.2530801 0.051248074
0.29559553 0.25295225 0.049404383
-0.29916868 -0.54814911 0.065874577
0.29774818 -0.5489583 0.069378614
-0.25781837 0.23339406 0.063779235
-0.2372642 0.23339406 0.063779235
-0.21671002 0.23339406 0.063779235
-0.19615582 0.23339406 0.063779235
-0.17552362 0.23332468 0.062653542
-0.15497811 0.23332468 0.062653542
-0.13443258 0.23332468 0.062653542
-0.11388706 0.23332468 0.062653542
-0.093341537 0.23332468 0.062653542
-0.072796017 0.23332468 0.062653542
-0.052250493 0.23332468 0.062653542
-0.03170497 0.23332468 0.062653542
-0.011159445 0.23332468 0.062653542
0.0093860785 0.23332468 0.062653542
0.029931601 0.23332468 0.062653542
0.050477125 0.23332468 0.062653542
0.071022652 0.23332468 0.062653542
0.091568172 0.23332468 0.062653542
0.11211369 0.23332468 0.062653542
0.13265923 0.23332468 0.062653542
0.15320474 0.23332468 0.062653542
0.17375027 0.23332468 0.062653542
0.19437377 0.23339406 0.063779235
0.21492797 0.23339406 0.063779235
0.23548217 0.23339406 0.063779235
0.25603637 0.23339406 0.063779235
0.3176389 0.23336196 0.063259363
-0.27822325 0.25385225 0.062393904
0.27654433 0.25391623 0.063317299
-0.29925221 0.27471936 0.066597819
0.29724902 0.27457699 0.064746976
-0.27993548 -0.55101436 0.078281403
-0.25926965 -0.55101436 0.078281403
-0.23860385 -0.55101436 0.078281403
-0.21793801 -0.55101436 0.078281403
-0.19727221 -0.55101436 0.078281403
-0.17660637 -0.55101436 0.078281403
-0.15594053 -0.55101436 0.078281403
-0.13527471 -0.55101436 0.078281403
-0.11460888 -0.55101436 0.078281403
-0.093943067 -0.55101436 0.078281403
-0.073277228 -0.55101436 0.078281403
-0.052611403 -0.55101436 0.078281403
-0.031945575 -0.55101436 0.078281403
-0.011279748 -0.55101436 0.078281403
0.0093860785 -0.55101436 0.078281403
0.030051906 -0.55101436 0.078281403
0.05071773 -0.55101436 0.078281403
0.071383558 -0.55101436 0.078281403
0.092049383 -0.55101436 0.078281403
0.11271522 -0.55101436 0.078281403
0.13338104 -0.55101436 0.078281403
0.15404686 -0.55101436 0.078281403
0.17471269 -0.55101436 0.078281403
0.19537853 -0.55101436 0.078281403
0.21604437 -0.55101436 0.078281403
0.23671016 -0.55101436 0.078281403
0.25737602 -0.55101436 0.078281403
0.27804184 -0.55101436 0.078281403
-0.25912511 0.25485304 0.076837063
-0.23848794 0.25486603 0.077026725
-0.21783179 0.25486603 0.077026725
-0.19717561 0.25486603 0.077026725
-0.17644067 0.25478727 0.075889826
-0.15579325 0.25478727 0.075889826
-0.13514584 0.25478727 0.075889826
-0.11449843 0.25478727 0.075889826
-0.093851008 0.25478727 0.075889826
-0.073203593 0.25478727 0.075889826
-0.052556176 0.25478727 0.075889826
-0.031908758 0.25478727 0.075889826
-0.011261339 0.25478727 0.075889826
0.0093860785 0.25478727 0.075889826
0.030033495 0.25478727 0.075889826
0.050680913 0.25478727 0.075889826
0.071328335 0.25478727 0.075889826
0.091975749 0.25478727 0.075889826
0.11262316 0.25478727 0.075889826
0.13327059 0.25478727 0.075889826
0.153918 0.25478727 0.075889826
0.1745654 0.25478727 0.075889826
0.19529161 0.25486603 0.077026725
0.21594776 0.25486603 0.077026725
0.23660395 0.25486603 0.077026725
0.25726011 0.25486603 0.077026725
-0.27955219 0.275345 0.074724674
0.27777773 0.27541566 0.075642228
-0.30104518 0.29661018 0.082125545
0.29892331 0.2964541 0.080282569
-0.26037258 0.27646717 0.089302301
-0.23972255 0.27655104 0.090391636
-0.2189635 0.27655104 0.090391636
-0.19820444 0.27655104 0.090391636
-0.17736685 0.27646375 0.089258194
-0.15661654 0.27646375 0.089258194
-0.13586621 0.27646375 0.089258194
-0.11511588 0.27646375 0.089258194
-0.09436556 0.27646375 0.089258194
-0.073615231 0.27646375 0.089258194
-0.052864902 0.27646375 0.089258194
-0.032114577 0.27646375 0.089258194
-0.011364249 0.27646375 0.089258194
0.0093860785 0.27646375 0.089258194
0.030136406 0.27646375 0.089258194
0.050886732 0.27646375 0.089258194
0.071637057 0.27646375 0.089258194
0.092387386 0.27646375 0.089258194
0.11313771 0.27646375 0.089258194
0.13388804 0.27646375 0.089258194
0.15463836 0.27646375 0.089258194
0.17538869 0.27646375 0.089258194
0.19621755 0.27655104 0.090391636
0.2169766 0.27655104 0.090391636
0.23773566 0.27655104 0.090391636
0.25848249 0.27654091 0.090259194
-0.28089347 0.29703724 0.087170362
0.27902257 0.29711449 0.088081479
-0.30285916 0.3187567 0.097834826
-0.28224564 0.31893063 0.09971714
0.2802805 0.31901687 0.10065162
0.30061564 0.3185859 0.095985174
0.30191398 -0.57877982 0.10803223
-0.30362713 -0.57793349 0.10448575
-0.26163015 0.29828197 0.10186899
-0.24096952 0.29845312 0.10389042
-0.22010654 0.29845312 0.10389042
-0.19924358 0.29845312 0.10389042
-0.17830232 0.29835743 0.10276031
-0.15744805 0.29835743 0.10276031
-0.13659379 0.29835743 0.10276031
-0.11573952 0.29835743 0.10276031
-0.09488526 0.29835743 0.10276031
-0.074030988 0.29835743 0.10276031
-0.053176723 0.29835743 0.10276031
-0.032322455 0.29835743 0.10276031
-0.01146819 0.29835743 0.10276031
0.0093860785 0.29835743 0.10276031
0.030240346 0.29835743 0.10276031
0.05109461 0.29835743 0.10276031
0.071948878 0.29835743 0.10276031
0.092803143 0.29835743 0.10276031
0.11365741 0.29835743 0.10276031
0.13451168 0.29835743 0.10276031
0.15536594 0.29835743 0.10276031
0.17622021 0.29835743 0.10276031
0.19715278 0.29845312 0.10389042
0.21801573 0.29845312 0.10389042
0.2388787 0.29845312 0.10389042
0.25964415 0.2983638 0.10283482
-0.26290104 0.32030255 0.11456823
0.26081672 0.32039112 0.11552811
-0.30469617 0.34116518 0.1137439
-0.2836121 0.34103024 0.11239612
0.28154874 0.34112319 0.1133244
0.30232781 0.34097788 0.11187232
-0.2422304 0.32057694 0.11754
-0.22126238 0.32057694 0.11754
-0.20029432 0.32057694 0.11754
-0.1792472 0.32047155 0.11639857
-0.15828796 0.32047155 0.11639857
-0.1373287 0.32047155 0.11639857
-0.11636944 0.32047155 0.11639857
-0.095410183 0.32047155 0.11639857
-0.07445094 0.32047155 0.11639857
-0.053491682 0.32047155 0.11639857
-0.032532431 0.32047155 0.11639857
-0.011573176 0.32047155 0.11639857
0.0093860785 0.32047155 0.11639857
0.030345332 0.32047155 0.11639857
0.051304586 0.32047155 0.11639857
0.072263837 0.32047155 0.11639857
0.093223095 0.32047155 0.11639857
0.11418234 0.32047155 0.11639857
0.1351416 0.32047155 0.11639857
0.15610085 0.32047155 0.11639857
0.17706011 0.32047155 0.11639857
0.19809844 0.32057694 0.11754
0.21906647 0.32057694 0.11754
0.24003454 0.32057694 0.11754
-0.26418388 0.34253058 0.12738717
-0.18020058 0.34280792 0.13015974
-0.1591354 0.34280792 0.13015974
-0.13807021 0.34280792 0.13015974
-0.11700504 0.34280792 0.13015974
-0.095939852 0.34280792 0.13015974
-0.074874662 0.34280792 0.13015974
-0.053809479 0.34280792 0.13015974
-0.032744292 0.34280792 0.13015974
-0.011679106 0.34280792 0.13015974
0.0093860785 0.34280792 0.13015974
0.030451264 0.34280792 0.13015974
0.051516447 0.34280792 0.13015974
0.072581634 0.34280792 0.13015974
0.093646817 0.34280792 0.13015974
0.11471201 0.34280792 0.13015974
0.13577719 0.34280792 0.13015974
0.15684237 0.34280792 0.13015974
0.17790756 0.34280792 0.13015974
0.26200172 0.3426275 0.12835622
-0.30655316 0.36383715 0.12982607
-0.28499138 0.36333799 0.12519455
0.2828289 0.36343727 0.12611651
0.30406025 0.36363477 0.12794733
-0.30821452 -0.60858744 0.14421356
-0.2858685 -0.58481747 0.13333273
-0.26477888 -0.58481747 0.13333273
-0.24368925 -0.58481747 0.13333273
-0.22259966 -0.58481747 0.13333273
-0.20151006 -0.58481747 0.13333273
-0.18042043 -0.58481747 0.13333273
-0.15933083 -0.58481747 0.13333273
-0.13824122 -0.58481747 0.13333273
-0.11715159 -0.58481747 0.13333273
-0.09606199 -0.58481747 0.13333273
-0.074972376 -0.58481747 0.13333273
-0.053882755 -0.58481747 0.13333273
-0.032793149 -0.58481747 0.13333273
-0.011703535 -0.58481747 0.13333273
0.0093860785 -0.58481747 0.13333273
0.030475691 -0.58481747 0.13333273
0.051565304 -0.58481747 0.13333273
0.07265491 -0.58481747 0.13333273
0.093744531 -0.58481747 0.13333273
0.11483414 -0.58481747 0.13333273
0.13592374 -0.58481747 0.13333273
0.15701337 -0.58481747 0.13333273
0.17810299 -0.58481747 0.13333273
0.19919258 -0.58481747 0.13333273
0.22028221 -0.58481747 0.13333273
0.24137181 -0.58481747 0.13333273
0.26246142 -0.58481747 0.13333273
0.28355107 -0.58481747 0.13333273
-0.24350266 0.34292334 0.13131261
-0.2224286 0.34292334 0.13131261
-0.20135455 0.34292334 0.13131261
0.19905265 0.34292334 0.13131261
0.2201267 0.34292334 0.13131261
0.24120076 0.34292334 0.13131261
-0.26547885 0.36496899 0.14032757
-0.24478929 0.36549845 0.14524055
-0.22360799 0.36549845 0.14524055
-0.2024267 0.36549845 0.14524055
-0.18116473 0.36537299 0.14407575
-0.15999243 0.36537299 0.14407575
-0.1388201 0.36537299 0.14407575
-0.1176478 0.36537299 0.14407575
-0.096475482 0.36537299 0.14407575
-0.075303175 0.36537299 0.14407575
-0.05413086 0.36537299 0.14407575
-0.032958549 0.36537299 0.14407575
-0.011786235 0.36537299 0.14407575
0.0093860785 0.36537299 0.14407575
0.030558392 0.36537299 0.14407575
0.051730704 0.36537299 0.14407575
0.072903015 0.36537299 0.14407575
0.09407533 0.36537299 0.14407575
0.11524764 0.36537299 0.14407575
0.13641995 0.36537299 0.14407575
0.15759225 0.36537299 0.14407575
0.17876458 0.36537299 0.14407575
0.20001757 0.36549845 0.14524055
0.22119886 0.36549845 0.14524055
0.24238014 0.36549845 0.14524055
0.26319656 0.36507261 0.14129031
-0.28638378 0.38585669 0.13811398
0.28412268 0.38596421 0.13904464
0.30581331 0.38656116 0.14421368
0.30620351 -0.60947931 0.14783418
-0.30843228 0.38677892 0.14609945
-0.26678464 0.38761908 0.15337551
-0.2460876 0.38830256 0.15929544
-0.22479813 0.38830256 0.15929544
-0.20350865 0.38830256 0.15929544
-0.18213874 0.38816854 0.15813434
-0.1608582 0.38816854 0.15813434
-0.13957767 0.38816854 0.15813434
-0.11829713 0.38816854 0.15813434
-0.097016595 0.38816854 0.15813434
-0.075736061 0.38816854 0.15813434
-0.054455526 0.38816854 0.15813434
-0.033174992 0.38816854 0.15813434
-0.011894458 0.38816854 0.15813434
0.0093860785 0.38816854 0.15813434
0.030666616 0.38816854 0.15813434
0.051947147 0.38816854 0.15813434
0.073227681 0.38816854 0.15813434
0.094508216 0.38816854 0.15813434
0.11578875 0.38816854 0.15813434
0.13706928 0.38816854 0.15813434
0.15834983 0.38816854 0.15813434
0.17963035 0.38816854 0.15813434
0.20099135 0.38830256 0.15929544
0.2222808 0.38830256 0.15929544
0.24357028 0.38830256 0.15929544
0.26440272 0.38773125 0.15434754
-0.28778771 0.40858775 0.15114093
0.28542724 0.40870336 0.15208054
-0.31033564 0.40999702 0.16258323
-0.26810443 0.41048738 0.16656375
-0.24739929 0.41134101 0.1734947
-0.22600049 0.41134101 0.1734947
-0.20460171 0.41134101 0.1734947
-0.18320294 0.41134101 0.1734947
-0.16180415 0.41134101 0.1734947
-0.14040537 0.41134101 0.1734947
-0.1190066 0.41134101 0.1734947
-0.097607814 0.41134101 0.1734947
-0.076209038 0.41134101 0.1734947
-0.054810263 0.41134101 0.1734947
-0.03341148 0.41134101 0.1734947
-0.012012701 0.41134101 0.1734947
0.0093860785 0.41134101 0.1734947
0.030784857 0.41134101 0.1734947
0.052183636 0.41134101 0.1734947
0.073582418 0.41134101 0.1734947
0.094981194 0.41134101 0.1734947
0.11637997 0.41134101 0.1734947
0.13777876 0.41134101 0.1734947
0.15917753 0.41134101 0.1734947
0.18057631 0.41134101 0.1734947
0.20197509 0.41134101 0.1734947
0.22337386 0.41134101 0.1734947
0.24477264 0.41134101 0.1734947
0.26562181 0.41060817 0.16754508
0.30758736 0.40976185 0.16067469
-0.28920671 0.43153751 0.16430759
0.28674421 0.43165961 0.16524076
-0.31294018 -0.64015722 0.18513906
0.31062075 -0.64109272 0.18882108
-0.31226015 0.43349287 0.17924988
-0.2694369 0.43357509 0.17987847
-0.24872594 0.43461916 0.18785608
-0.2272166 0.43461916 0.18785608
-0.20570725 0.43461916 0.18785608
-0.18419793 0.43461916 0.18785608
-0.1626886 0.43461916 0.18785608
-0.14117926 0.43461916 0.18785608
-0.11966993 0.43461916 0.18785608
-0.098160587 0.43461916 0.18785608
-0.07665126 0.43461916 0.18785608
-0.055141926 0.43461916 0.18785608
-0.033632591 0.43461916 0.18785608
-0.012123256 0.43461916 0.18785608
0.0093860785 0.43461916 0.18785608
0.030895412 0.43461916 0.18785608
0.052404746 0.43461916 0.18785608
0.073914081 0.43461916 0.18785608
0.095423415 0.43461916 0.18785608
0.11693274 0.43461916 0.18785608
0.13844208 0.43461916 0.18785608
0.15995142 0.43461916 0.18785608
0.18146075 0.43461916 0.18785608
0.20297009 0.43461916 0.18785608
0.22447941 0.43461916 0.18785608
0.24598876 0.43461916 0.18785608
0.26685122 0.43370274 0.18085361
0.30938277 0.43324223 0.17733395
-0.29063934 0.4547075 0.17760086
0.28807542 0.45483804 0.17854273
-0.29204819 -0.62003207 0.19067323
-0.2705172 -0.62003207 0.19067323
-0.24898617 -0.62003207 0.19067323
-0.22745515 -0.62003207 0.19067323
-0.20592412 -0.62003207 0.19067323
-0.18439311 -0.62003207 0.19067323
-0.16286209 -0.62003207 0.19067323
-0.14133106 -0.62003207 0.19067323
-0.11980005 -0.62003207 0.19067323
-0.098269023 -0.62003207 0.19067323
-0.076738007 -0.62003207 0.19067323
-0.055206984 -0.62003207 0.19067323
-0.033675965 -0.62003207 0.19067323
-0.012144943 -0.62003207 0.19067323
0.0093860785 -0.62003207 0.19067323
0.030917101 -0.62003207 0.19067323
0.05244812 -0.62003207 0.19067323
0.073979139 -0.62003207 0.19067323
0.095510162 -0.62003207 0.19067323
0.11704118 -0.62003207 0.19067323
0.1385722 -0.62003207 0.19067323
0.16010322 -0.62003207 0.19067323
0.18163425 -0.62003207 0.19067323
0.20316526 -0.62003207 0.19067323
0.22469628 -0.62003207 0.19067323
0.24622731 -0.62003207 0.19067323
0.26775834 -0.62003207 0.19067323
0.28928939 -0.62003207 0.19067323
-0.31420794 0.45727336 0.19611824
-0.2707822 0.45688578 0.19332182
-0.25006488 0.45813698 0.20235097
-0.228444 0.45813698 0.20235097
-0.20682308 0.45813698 0.20235097
-0.18520217 0.45813698 0.20235097
-0.16358124 0.45813698 0.20235097
-0.14196032 0.45813698 0.20235097
-0.12033941 0.45813698 0.20235097
-0.098718502 0.45813698 0.20235097
-0.07709758 0.45813698 0.20235097
-0.055476665 0.45813698 0.20235097
-0.033855751 0.45813698 0.20235097
-0.012234836 0.45813698 0.20235097
0.0093860785 0.45813698 0.20235097
0.031006992 0.45813698 0.20235097
0.052627906 0.45813698 0.20235097
0.074248821 0.45813698 0.20235097
0.095869735 0.45813698 0.20235097
0.11749066 0.45813698 0.20235097
0.13911156 0.45813698 0.20235097
0.16073248 0.45813698 0.20235097
0.18235339 0.45813698 0.20235097
0.20397432 0.45813698 0.20235097
0.22559524 0.45813698 0.20235097
0.24721615 0.45813698 0.20235097
0.26809248 0.45702016 0.1942904
0.31119993 0.45700681 0.19419515
-0.29208407 0.47809851 0.19100618
0.28941783 0.47823763 0.19195724
-0.29390189 -0.64593256 0.20787334
0.29108608 -0.64612412 0.20862722
-0.27213895 0.48042023 0.20687926
0.26934719 0.48056552 0.20787334
-0.31618133 0.48134598 0.21320832
-0.25141931 0.48190227 0.217013
-0.22968554 0.48190227 0.217013
-0.20795174 0.48190227 0.217013
-0.18621796 0.48190227 0.217013
-0.1644842 0.48190227 0.217013
-0.1427504 0.48190227 0.217013
-0.12101662 0.48190227 0.217013
-0.099282831 0.48190227 0.217013
-0.077549055 0.48190227 0.217013
-0.055815272 0.48190227 0.217013
-0.034081489 0.48190227 0.217013
-0.012347705 0.48190227 0.217013
0.0093860785 0.48190227 0.217013
0.031119861 0.48190227 0.217013
0.052853644 0.48190227 0.217013
0.074587427 0.48190227 0.217013
0.09632121 0.48190227 0.217013
0.11805499 0.48190227 0.217013
0.13978878 0.48190227 0.217013
0.16152255 0.48190227 0.217013
0.18325636 0.48190227 0.217013
0.20499012 0.48190227 0.217013
0.22672389 0.48190227 0.217013
0.2484577 0.48190227 0.217013
0.31303921 0.48106116 0.21126163
-0.2935445 0.50171846 0.20455742
0.2907733 0.50186384 0.20550156
-0.29501915 0.52556837 0.21824038
-0.29568228 -0.6719197 0.22439325
-0.27391928 -0.67199206 0.22466934
-0.25212657 -0.67199206 0.22466934
-0.23033386 -0.67199206 0.22466934
-0.20854114 -0.67199206 0.22466934
-0.18674842 -0.67199206 0.22466934
-0.16495571 -0.67199206 0.22466934
-0.14316297 -0.67199206 0.22466934
-0.12137026 -0.67199206 0.22466934
-0.099577531 -0.67199206 0.22466934
-0.077784814 -0.67199206 0.22466934
-0.055992089 -0.67199206 0.22466934
-0.034199368 -0.67199206 0.22466934
-0.012406644 -0.67199206 0.22466934
0.0093860785 -0.67199206 0.22466934
0.031178802 -0.67199206 0.22466934
0.052971523 -0.67199206 0.22466934
0.074764244 -0.67199206 0.22466934
0.096556969 -0.67199206 0.22466934
0.11834969 -0.67199206 0.22466934
0.14014241 -0.67199206 0.22466934
0.16193512 -0.67199206 0.22466934
0.18372786 -0.67199206 0.22466934
0.20552057 -0.67199206 0.22466934
0.2273133 -0.67199206 0.22466934
0.24910602 -0.67199206 0.22466934
0.27089876 -0.67199206 0.22466934
0.29269147 -0.67199206 0.22466934
-0.27347332 -0.64906722 0.2202127
-0.25182855 -0.64937967 0.22144294
-0.23006067 -0.64937967 0.22144294
-0.20829278 -0.64937967 0.22144294
-0.18652488 -0.64937967 0.22144294
-0.16475703 -0.64937967 0.22144294
