ply
format ascii 1.0
comment PCL generated
element vertex 1332
property float x
property float y
property float z
element camera 0
property float view_px
property float view_py
property float view_pz
property float x_axisx
property float x_axisy
property float x_axisz
property float y_axisx
property float y_axisy
property float y_axisz
property float z_axisx
property float z_axisy
property float z_axisz
property float focal
property float scalex
property float scaley
property float centerx
property float centery
property int viewportx
property int viewporty
property float k1
property float k2
end_header
-0.0079448493 0.83759683 -0.3548069
0.010864557 0.83788818 -0.35401809
0.029732082 0.84038639 -0.34725726
-0.04563177 0.85751861 -0.35185772
0.04862693 0.85992342 -0.34548235
0.067483574 0.89726835 -0.34654534
-0.0081215603 0.73216194 -0.3318516
0.010864557 0.7321583 -0.3318634
-0.027157772 0.73321408 -0.3285979
0.029875722 0.73321408 -0.3285979
-0.046120826 0.75153553 -0.33068126
-0.027006619 0.74897534 -0.3384155
-0.0080463635 0.74791473 -0.34161991
0.010864557 0.74791473 -0.34161991
0.029800143 0.74897534 -0.3384155
0.048854262 0.75152379 -0.33071685
-0.083698623 0.78581369 -0.34139717
0.086515456 0.78581762 -0.34138554
-0.064805485 0.88062066 -0.34076387
-0.065014116 0.94013751 -0.33398837
-0.046044175 0.94013274 -0.33400017
-0.027111679 0.9411155 -0.33159161
0.029833861 0.94011831 -0.33403569
0.048804253 0.94014716 -0.33396482
0.067773558 0.94013751 -0.33398837
-0.0081972657 0.7162798 -0.32201719
0.010864557 0.7162798 -0.32201719
-0.027310137 0.71732634 -0.31870157
0.029951904 0.71732634 -0.31870157
-0.046348982 0.73573458 -0.32080179
0.049006548 0.73572695 -0.32082552
-0.065540396 0.75609839 -0.31689709
0.068167992 0.7560944 -0.31690907
-0.084521182 0.77413964 -0.32002658
0.087173142 0.77413964 -0.32002658
-0.10377713 0.79455787 -0.31615537
0.10639837 0.79454941 -0.31617928
-0.084729172 0.81420743 -0.3146227
0.087339535 0.81420743 -0.3146227
-0.0082353922 0.94704247 -0.31706446
0.010864557 0.94630146 -0.31888062
-0.027618557 0.68516588 -0.29866922
-0.0083506899 0.68413967 -0.30208695
0.010864557 0.68413615 -0.30209899
0.030106205 0.68516952 -0.29865706
-0.027463723 0.70131081 -0.30872577
-0.0082736695 0.70027429 -0.31209201
0.010864557 0.70027429 -0.31209201
0.03002879 0.70131451 -0.30871373
-0.046810824 0.70375013 -0.30080336
0.049314439 0.70374274 -0.30082756
-0.046578974 0.71980661 -0.31084269
0.049159873 0.7197991 -0.31086677
-0.06585025 0.74025053 -0.30683428
0.068400383 0.74024659 -0.30684632
-0.10455564 0.81963331 -0.29930013
0.10704198 0.81957746 -0.29945779
-0.06582167 0.87415147 -0.30776227
-0.027774639 0.66888988 -0.28853101
-0.0084283324 0.66787481 -0.29200101
0.010864557 0.66787142 -0.29201317
0.03018425 0.66889346 -0.28851897
-0.047044553 0.68756354 -0.29068261
0.049470253 0.68755633 -0.29070705
-0.06647756 0.70816624 -0.28646171
0.068870857 0.70816243 -0.28647399
-0.066162623 0.7242738 -0.29668945
0.068634667 0.72426993 -0.29670155
-0.085595191 0.7642988 -0.2921229
0.08803235 0.7642988 -0.2921229
-0.028090835 0.63594216 -0.26799381
-0.0085854186 0.63494414 -0.27159494
0.010864557 0.63494068 -0.27160746
0.030342251 0.63594216 -0.26799381
-0.04751803 0.6547969 -0.27018052
-0.027931999 0.65248132 -0.27831042
-0.0085065076 0.65147454 -0.28184545
0.010864557 0.65147102 -0.28185785
0.030262928 0.65248489 -0.27829814
0.049785897 0.65478987 -0.27020538
-0.047280185 0.6712451 -0.28047937
0.049627528 0.67124158 -0.28049171
-0.066795081 0.69192648 -0.27614999
0.069108993 0.69192272 -0.27616239
-0.086434022 0.73259348 -0.27032948
0.088703036 0.73258954 -0.27034193
-0.086013027 0.74851674 -0.28126723
0.08836624 0.7485128 -0.28127956
-0.028250784 0.61926353 -0.25760472
-0.0086649703 0.61827856 -0.26126063
0.010864557 0.61827517 -0.26127303
0.030422226 0.61926353 -0.25760472
-0.047757532 0.6382103 -0.25980949
0.049945563 0.63820326 -0.25983465
-0.067437999 0.65904385 -0.25527048
0.069591187 0.65904015 -0.25528312
-0.06711521 0.67555296 -0.26575339
0.069349095 0.67554939 -0.26576579
-0.086858682 0.71653122 -0.2592963
0.08904276 0.71652728 -0.25930882
-0.028574653 0.58549225 -0.23656869
-0.0088260463 0.58453506 -0.24033606
0.010864557 0.58452863 -0.24036157
0.03058416 0.58549225 -0.23656869
-0.048242494 0.60462505 -0.23881018
-0.028412051 0.60244745 -0.24713016
-0.0087451776 0.60147613 -0.25084138
0.010864557 0.60146952 -0.25086653
0.03050286 0.60244745 -0.24713016
0.05026906 0.60462171 -0.23882294
-0.047999021 0.62148684 -0.24935305
0.050106551 0.62148011 -0.2493782
-0.06776347 0.64239728 -0.24470055
0.069835283 0.64239377 -0.24471331
-0.087719738 0.68398577 -0.2369256
0.089731202 0.68397826 -0.23695111
-0.08728756 0.70033169 -0.24815381
0.08938548 0.700324 -0.24817896
-0.067956999 0.84119296 -0.2384156
0.069980718 0.84119296 -0.2384156
-0.087664343 0.86091679 -0.23836482
-0.067872427 0.85990465 -0.24116182
0.069917299 0.85990465 -0.24116182
0.089685716 0.86089361 -0.23842824
-0.02873861 0.56839573 -0.2259196
-0.0089074867 0.56745046 -0.22975671
0.010864557 0.56744736 -0.22976959
0.030666139 0.56839573 -0.2259196
-0.048487999 0.58762324 -0.22817945
0.050432727 0.58762002 -0.22819233
-0.068422593 0.60868585 -0.22329485
0.070329919 0.60868585 -0.22329485
-0.068091653 0.62561196 -0.23404241
0.070081718 0.62561196 -0.23404241
-0.088155724 0.66749525 -0.2255981
0.090079993 0.66748792 -0.22562385
-0.048517346 0.86506164 -0.22690868
0.050452489 0.86506164 -0.22690868
-0.0090726065 0.53285992 -0.20830727
0.010864557 0.53285408 -0.20833325
-0.048988186 0.55322337 -0.20652092
-0.028903931 0.55115676 -0.21518135
-0.008989702 0.55022722 -0.21907663
0.010864557 0.55022097 -0.21910238
0.030748799 0.55115676 -0.21518135
0.050765779 0.55321401 -0.20656013
-0.048736744 0.57049239 -0.21740854
0.050598156 0.57048285 -0.2174474
-0.068756312 0.59161741 -0.21245706
0.070580214 0.59161741 -0.21245706
-0.088596091 0.65086186 -0.21415722
0.090431876 0.65085107 -0.21419621
-0.048746601 0.84878296 -0.21698153
-0.029050533 0.8527922 -0.20565963
0.030822102 0.8527922 -0.20565963
0.050605327 0.84878296 -0.21698153
-0.028895754 0.86911237 -0.21571267
0.030744713 0.86911237 -0.21571267
-0.0090545686 0.8709439 -0.21065032
0.010864557 0.8709439 -0.21065032
-0.029238757 0.51624316 -0.19343412
-0.0091562038 0.51534718 -0.19744754
0.010864557 0.51534122 -0.19747376
0.030916214 0.51624316 -0.19343412
-0.049241751 0.53580821 -0.19554102
-0.029070642 0.53377318 -0.20435321
0.030832157 0.53377318 -0.20435321
0.050934821 0.53579909 -0.19558048
-0.0694343 0.55706131 -0.19043887
0.071088694 0.55706131 -0.19043887
-0.069092862 0.57440448 -0.20152736
0.070832618 0.57440448 -0.20152736
-0.089487657 0.61714023 -0.19099343
0.091145515 0.61713326 -0.19101989
-0.089039892 0.63407624 -0.20262706
0.090787299 0.6340692 -0.20265329
-0.0091324626 0.854608 -0.2005316
0.010864557 0.854608 -0.2005316
-0.0093254177 0.47987449 -0.17546594
0.010864557 0.47986901 -0.17549276
-0.029408291 0.49856508 -0.1824224
-0.0092405053 0.49768692 -0.18649638
0.010864557 0.49768114 -0.18652284
0.031000979 0.49856508 -0.1824224
-0.049497481 0.51824498 -0.18446767
0.051105302 0.51823592 -0.18450737
-0.069781944 0.53959388 -0.17914867
0.071349435 0.53959388 -0.17914867
-0.089939982 0.60005498 -0.17924201
0.091506951 0.60004491 -0.17928207
-0.029751904 0.46275902 -0.16010404
-0.0094111534 0.46191359 -0.16432858
0.010864557 0.46190828 -0.16435552
0.031172685 0.46275651 -0.16011739
-0.050015524 0.48266596 -0.1620357
-0.029579267 0.48073679 -0.17131722
0.031086467 0.48073679 -0.17131722
0.051450863 0.48266023 -0.16206276
-0.049755398 0.5005312 -0.17329967
0.051277444 0.50052565 -0.17332637
-0.070132613 0.52197444 -0.16776025
0.071612433 0.52197444 -0.16776025
-0.090395875 0.58281189 -0.1673975
0.091871656 0.58280194 -0.16743791
-0.029925816 0.44462478 -0.14880812
-0.0094976211 0.4437995 -0.15309608
0.010864557 0.44379437 -0.15312326
0.031259637 0.44462222 -0.14882183
-0.050277893 0.4646464 -0.1506747
0.05162577 0.46464086 -0.150702
-0.070843183 0.48627245 -0.14468408
0.072145365 0.48627245 -0.14468408
-0.070486344 0.50420147 -0.15627265
0.071877733 0.50420147 -0.15627265
-0.090855911 0.5654121 -0.15544522
0.092239678 0.56540239 -0.15548599
-0.0096726799 0.40710163 -0.13035536
0.010864557 0.40709913 -0.13036907
-0.0095848283 0.42553043 -0.14176762
0.010864557 0.42552513 -0.14179492
-0.030101221 0.4263345 -0.13741505
0.031347342 0.42633194 -0.137429
-0.050542537 0.44647086 -0.13921547
0.051802196 0.44646573 -0.13924301
-0.071203165 0.46818519 -0.13299322
0.072415665 0.46818805 -0.13297951
-0.091789171 0.53013688 -0.13119829
0.092986271 0.53012741 -0.13123977
-0.091320671 0.54785651 -0.14337039
0.092611477 0.54784709 -0.1434114
-0.030456603 0.38927788 -0.11433268
-0.0097613977 0.38851607 -0.11883068
0.010864557 0.38851136 -0.11885846
0.031525027 0.38927549 -0.11434662
-0.051078752 0.40964377 -0.11599672
-0.030278146 0.40788609 -0.12592375
0.031435799 0.40788376 -0.12593758
0.052159663 0.40963894 -0.11602461
-0.050809477 0.42813736 -0.12765646
0.051980153 0.42813212 -0.12768424
-0.071566328 0.44993824 -0.12119913
0.072688036 0.44994086 -0.1211853
-0.092261992 0.51225376 -0.11891425
0.093364939 0.5122478 -0.11894214
-0.030636612 0.37050742 -0.10264063
-0.0098508829 0.36976939 -0.10720575
0.010864557 0.3697648 -0.10723388
0.03161503 0.37050509 -0.10265481
-0.051350385 0.39098805 -0.10423446
0.05234075 0.39098328 -0.10426283
-0.071932726 0.43152875 -0.10930014
0.072962843 0.43153137 -0.10928607
-0.092739731 0.49420822 -0.10650241
0.093747117 0.49420244 -0.10653055
-0.010032098 0.33178157 -0.08366549
0.010864557 0.33177954 -0.083679795
-0.030818198 0.35157263 -0.0908463
-0.0099410405 0.35085708 -0.095494151
0.010864557 0.35085481 -0.095508337
0.031705823 0.35157043 -0.090860486
-0.051624414 0.37216794 -0.092368841
0.05252365 0.37216562 -0.092382908
-0.07267537 0.39421475 -0.085181952
0.073519833 0.39421713 -0.085167646
-0.072302386 0.41295511 -0.097295046
0.073240094 0.41295755 -0.097280741
-0.093221352 0.47599185 -0.093989253
0.094132416 0.47598618 -0.094017625
-0.010123842 0.3125363 -0.071747541
0.010864557 0.3125363 -0.071747541
-0.031001382 0.33247155 -0.07894814
0.031797417 0.33246952 -0.078962564
-0.052179776 0.33402604 -0.06832099
0.052893888 0.33402371 -0.068335533
-0.051900864 0.3531813 -0.080398083
0.052707952 0.35317898 -0.080412626
-0.073051713 0.37530553 -0.0729599
0.073802091 0.37530774 -0.072945476
-0.094198741 0.43904901 -0.068595886
0.094914749 0.43904632 -0.06861043
-0.093707494 0.45760536 -0.081359267
0.094521746 0.4576025 -0.081373453
-0.031372845 0.29376292 -0.054821014
-0.010216511 0.29312325 -0.059709787
0.010864557 0.29312122 -0.059724331
0.031983033 0.29375923 -0.054850101
-0.05246117 0.31469953 -0.056136012
-0.031186402 0.31320369 -0.066930532
0.031889815 0.31319976 -0.06695962
0.053081483 0.31469733 -0.056150675
-0.073431462 0.35622513 -0.060627222
0.074086569 0.35622513 -0.060627222
-0.094694071 0.42031485 -0.055727124
0.095311001 0.42031229 -0.055741668
-0.031560946 0.27414912 -0.042603612
-0.010309999 0.27353787 -0.047565222
0.010864557 0.27353621 -0.047580004
0.032077082 0.27414548 -0.042633057
-0.052745096 0.29519987 -0.043841958
0.053270761 0.29519796 -0.043856621
-0.07381466 0.3369714 -0.048182487
0.074373968 0.3369714 -0.048182487
-0.095194086 0.40140307 -0.042736173
0.09571147 0.40140307 -0.042736173
-0.010493959 0.23376425 -0.02366817
0.010864557 0.23376425 -0.02366817
-0.031750727 0.25435984 -0.030276775
-0.010404206 0.25377655 -0.035327315
0.010864557 0.25377655 -0.035327315
0.032171972 0.25435627 -0.030306339
-0.053031571 0.27552456 -0.031437039
0.053461749 0.27552259 -0.031451941
-0.074591607 0.29793388 -0.022950053
0.074956678 0.29793388 -0.022950053
-0.07420136 0.31754166 -0.035623908
0.074663997 0.31754166 -0.035623908
-0.095735557 0.38246548 -0.028668404
0.096144184 0.3824631 -0.028683305
-0.032077659 0.21386944 -0.0090419054
-0.010570782 0.21340446 -0.013688564
0.010864557 0.21340446 -0.013688564
0.032335665 0.21386944 -0.0090419054
-0.053573206 0.23545475 -0.0079836845
-0.031927656 0.23429061 -0.018784761
0.032260664 0.23429061 -0.018784761
0.053823061 0.23545475 -0.0079836845
-0.053317875 0.2556572 -0.019039989
0.053652842 0.2556572 -0.019039989
-0.074985452 0.27814519 -0.010159612
0.075252064 0.27814519 -0.010159612
-0.096381739 0.36373031 -0.011879921
0.096660204 0.36372328 -0.011925101
-0.032345008 -0.49735057 0.0083227158
-0.010716106 -0.49686807 0.0051896572
0.010864557 -0.49686807 0.0051896572
0.03246934 -0.49735057 0.0083227158
-0.075534783 -0.47565174 0.0076802969
-0.053868972 -0.47523391 0.0048232079
-0.032247234 -0.47481686 0.0019721985
-0.010670138 -0.47441399 -0.00078177452
0.010864557 -0.47441399 -0.00078177452
0.032420453 -0.47481686 0.0019721985
0.054020006 -0.47523165 0.0048081875
0.075663708 -0.47564954 0.0076650381
-0.097103424 -0.45393956 0.0068699121
-0.075430371 -0.45358211 0.0042893887
-0.053797156 -0.45322508 0.0017133951
-0.032203898 -0.45287102 -0.00084269047
-0.010650263 -0.45252156 -0.0033636093
0.010864557 -0.45252156 -0.0033636093
0.032398783 -0.45287102 -0.00084269047
0.05397236 -0.45322508 0.0017133951
0.075585753 -0.45358211 0.0042893887
0.097238943 -0.45393956 0.0068699121
-0.097077549 -0.43225801 0.006197691
-0.075415805 -0.4319464 0.0038163662
-0.053791173 -0.43163735 0.001454711
-0.032203194 -0.43133074 -0.00088822842
-0.010651196 -0.43102264 -0.0032422543
0.010864557 -0.43102264 -0.0032422543
0.032398432 -0.43133074 -0.00088822842
0.053968374 -0.43163735 0.001454711
0.07557483 -0.4319464 0.0038163662
0.097218245 -0.43225801 0.006197691
-0.097108141 -0.41076761 0.0069923401
-0.075440705 -0.41047591 0.0046249628
-0.053810164 -0.41018677 0.0022768974
-0.032215599 -0.40989614 -8.2373619e-05
-0.010657507 -0.40960789 -0.0024225712
0.010864557 -0.40960789 -0.0024225712
0.032404635 -0.40989614 -8.2373619e-05
0.053981036 -0.41018677 0.0022768974
0.075593501 -0.41047591 0.0046249628
0.097242713 -0.41076761 0.0069923401
-0.097139336 -0.38926661 0.0078027248
-0.075466089 -0.38899475 0.005449295
-0.053828813 -0.38872176 0.0030846596
-0.032228246 -0.38845098 0.0007392168
-0.010663819 -0.38818055 -0.0016024113
0.010864557 -0.38818055 -0.0016024113
0.032410957 -0.38845098 0.0007392168
0.053993471 -0.38872176 0.0030846596
0.075612538 -0.38899475 0.005449295
0.097267665 -0.38926661 0.0078027248
-0.09717112 -0.36775482 0.008628726
-0.075491011 -0.36749935 0.0062588453
-0.053847834 -0.36724603 0.0039079189
-0.032240905 -0.36699313 0.0015611649
-0.01067002 -0.36673903 -0.00079703331
0.010864557 -0.36673903 -0.00079703331
0.032417286 -0.36699313 0.0015611649
0.054006148 -0.36724603 0.0039079189
0.075631231 -0.36749935 0.0062588453
0.097293101 -0.36775482 0.008628726
-0.075516425 -0.34599304 0.0070838928
-0.053866856 -0.34575772 0.0047318935
-0.032253332 -0.34552121 0.0023684502
-0.01067634 -0.34528655 2.4080276e-05
0.010864557 -0.34528655 2.4080276e-05
0.0324235 -0.34552121 0.0023684502
0.054018833 -0.34575772 0.0047318935
0.07565029 -0.34599304 0.0070838928
-0.075541846 -0.32447404 0.0079096556
-0.053885542 -0.32425529 0.005540967
-0.032266002 -0.32403827 0.0031912327
-0.010682548 -0.32382017 0.00083041191
0.010864557 -0.32382017 0.00083041191
0.032429837 -0.32403827 0.0031912327
0.054031286 -0.32425529 0.005540967
0.075669356 -0.32447404 0.0079096556
-0.075566821 -0.3029412 0.0087207556
-0.053904593 -0.30274177 0.0063657761
-0.032278679 -0.30254263 0.0040146112
-0.010688876 -0.30234259 0.0016524792
0.010864557 -0.30234259 0.0016524792
0.032436173 -0.30254263 0.0040146112
0.054043986 -0.30274177 0.0063657761
0.075688086 -0.3029412 0.0087207556
-0.053923652 -0.28121561 0.007191062
-0.032291129 -0.28103334 0.0048234463
-0.010695209 -0.28085253 0.0024750233
0.010864557 -0.28085253 0.0024750233
0.032442398 -0.28103334 0.0048234463
0.054056693 -0.28121561 0.007191062
-0.053942367 -0.25967568 0.0080015659
-0.032303821 -0.2595126 0.0056477785
-0.010701544 -0.25934988 0.0032980442
0.010864557 -0.25934988 0.0032980442
0.032448746 -0.2595126 0.0056477785
0.054069173 -0.25967568 0.0080015659
-0.053961448 -0.23812419 0.0088276863
-0.032316521 -0.23797928 0.0064727068
-0.010707765 -0.23783351 0.0041064024
0.010864557 -0.23783351 0.0041064024
0.032454979 -0.23797828 0.006457448
0.054081891 -0.23812419 0.0088276863
-0.032328997 -0.21643229 0.0072827339
-0.010714109 -0.21630549 0.0049302578
0.010864557 -0.21630549 0.0049302578
0.032461334 -0.21643229 0.0072827339
-0.032341707 -0.19487369 0.0081084967
-0.010720455 -0.194765 0.0057547092
0.010864557 -0.194765 0.0057547092
0.032467689 -0.19487369 0.0081084967
-0.032354195 -0.17330173 0.0089195967
-0.010726687 -0.17321105 0.0065642595
0.010864557 -0.17321105 0.0065642595
0.032473933 -0.17330173 0.0089195967
-0.010733041 -0.15164527 0.0073897839
0.010864557 -0.15164527 0.0073897839
-0.0107394 -0.13006677 0.0082155466
0.010864557 -0.13006677 0.0082155466
-0.010745644 -0.10847528 0.0090266466
0.010864557 -0.10847528 0.0090266466
-0.010730452 0.15069517 0.0070533752
0.010864557 0.15069517 0.0070533752
-0.032300059 0.17215045 0.0054035187
-0.010688758 0.17183158 0.0016373396
0.010864557 0.17183158 0.0016373396
0.032446865 0.17215045 0.0054035187
-0.053945899 0.19398694 0.0081545115
-0.032202724 0.19314896 -0.00091862679
-0.010636139 0.19275342 -0.0051982403
0.010864557 0.19275342 -0.0051982403
0.032398198 0.19314896 -0.00091862679
0.054071527 0.19398694 0.0081545115
-0.053784139 0.21488948 0.0011501312
0.053963687 0.21488948 0.0011501312
-0.075365126 0.25810647 0.0021703243
0.075536817 0.25810647 0.0021703243
-0.097035229 0.34476429 0.0050982237
0.097183451 0.34475976 0.0050677061
-0.054291852 -0.52134973 0.023134589
-0.032516465 -0.52075559 0.019459367
-0.010797854 -0.52016544 0.015809178
0.010864557 -0.52016544 0.015809178
0.032554947 -0.5207532 0.019443989
0.054301921 -0.52134722 0.023119211
-0.11936475 -0.49935257 0.021326661
-0.097530447 -0.49883485 0.017964125
-0.075752415 -0.49833971 0.014748216
-0.054024078 -0.49784577 0.01153934
0.05412364 -0.49784577 0.01153934
0.075827286 -0.49833971 0.014748216
0.09758056 -0.49883485 0.017964125
0.11938898 -0.49935257 0.021326661
-0.14116623 -0.47790986 0.023119092
-0.11901335 -0.47653496 0.013718724
-0.097244807 -0.47607046 0.010542989
0.097352043 -0.47607046 0.010542989
0.11909674 -0.47653723 0.013734221
0.14117666 -0.47790986 0.023119092
-0.14092332 -0.45556653 0.018611312
-0.11885464 -0.45441246 0.010282516
0.11896389 -0.45441246 0.010282516
0.14096844 -0.45556653 0.018611312
-0.14086272 -0.43373537 0.017486691
0.14091651 -0.43373537 0.017486691
-0.11883909 -0.4327485 0.0099455118
0.11895092 -0.4327485 0.0099455118
-0.1409308 -0.41221565 0.018750191
-0.11890633 -0.41131055 0.011401415
0.11900695 -0.41131055 0.011401415
0.14097486 -0.41221565 0.018750191
-0.14101474 -0.39071053 0.020307779
-0.1189779 -0.38986111 0.012951136
0.1190666 -0.38986111 0.012951136
0.14104681 -0.39071053 0.020307779
-0.14109877 -0.36918151 0.021867275
-0.11904955 -0.36838782 0.014502287
0.1191263 -0.36838782 0.014502287
0.14111884 -0.36918151 0.021867275
-0.14118288 -0.34762877 0.023428321
-0.11912128 -0.34689093 0.016055346
-0.097202949 -0.34623033 0.0094554424
0.09731856 -0.34623033 0.0094554424
0.11918609 -0.34689093 0.016055346
0.14119095 -0.34762877 0.023428321
-0.11919309 -0.32537019 0.017609954
-0.09723419 -0.32469189 0.010267258
0.097343549 -0.32469189 0.010267258
0.11924592 -0.32537019 0.017609954
-0.11926498 -0.30382568 0.01916635
-0.097293787 -0.30320317 0.011815429
0.097391233 -0.30320317 0.011815429
0.11930583 -0.30382568 0.01916635
-0.11933695 -0.28225738 0.020724535
-0.097353444 -0.28169093 0.013365626
-0.075592272 -0.28139696 0.0095472336
0.075707175 -0.28139696 0.0095472336
0.097438954 -0.28169093 0.013365626
0.1193658 -0.28225738 0.020724535
-0.11940898 -0.26066512 0.022284389
-0.097413175 -0.26015481 0.014917254
-0.075617746 -0.25984007 0.010374546
0.075726278 -0.25984007 0.010374546
0.097486734 -0.26015481 0.014917254
0.11942584 -0.26066512 0.022284389
-0.11948112 -0.23904914 0.023845911
-0.097472958 -0.23859492 0.016470551
-0.075642757 -0.2382696 0.011186957
0.075745046 -0.2382696 0.011186957
0.097534567 -0.23859492 0.016470551
0.11948594 -0.23904914 0.023845911
-0.097532824 -0.21701126 0.018025994
-0.07566826 -0.2166874 0.012014985
-0.053980544 -0.21656018 0.0096545219
0.05409462 -0.21656018 0.0096545219
0.075764164 -0.2166874 0.012014985
0.097582459 -0.21701126 0.018025994
-0.097592741 -0.19540362 0.019582629
-0.075693771 -0.19509234 0.01284349
-0.05399929 -0.19498265 0.010466456
0.054107118 -0.19498265 0.010466456
0.075783305 -0.19509234 0.01284349
0.097630396 -0.19540362 0.019582629
-0.097652733 -0.17377222 0.021141291
-0.075722612 -0.17348889 0.013780236
-0.054018408 -0.17339318 0.011294246
0.054119866 -0.17339318 0.011294246
0.075804926 -0.17348889 0.013780236
0.097678386 -0.17377222 0.021141291
-0.097712792 -0.15211682 0.02270174
-0.075770408 -0.15188989 0.015332222
-0.054037184 -0.15179044 0.012106895
-0.032366924 -0.15171784 0.0097463131
0.032480296 -0.15171784 0.0097463131
0.05413238 -0.15179044 0.012106895
0.075840779 -0.15188989 0.015332222
0.097726434 -0.15211682 0.02270174
-0.097772919 -0.13043736 0.02426374
-0.075817779 -0.13026658 0.016870856
-0.054056317 -0.13017568 0.012935638
-0.032379661 -0.13012123 0.010573626
0.032486666 -0.13012123 0.010573626
0.054145135 -0.13017568 0.012935638
0.07587631 -0.13026658 0.016870856
0.097774535 -0.13043736 0.02426374
-0.075866155 -0.10862027 0.018441916
-0.054075465 -0.10854826 0.013764858
-0.03239217 -0.10851163 0.011386037
0.032492921 -0.10851163 0.011386037
0.054157905 -0.10854826 0.013764858
0.075912587 -0.10862027 0.018441916
-0.075914107 -0.08694955 0.019999266
-0.05409427 -0.086907849 0.014579058
-0.032404922 -0.086889699 0.012214422
-0.010752008 -0.086871408 0.0098536015
0.010864557 -0.086871408 0.0098536015
0.032499295 -0.086889699 0.012214422
0.054170441 -0.086907849 0.014579058
0.075948201 -0.086949416 0.019983768
-0.075961642 -0.065254956 0.021542907
-0.032417681 -0.065254867 0.013043165
-0.010758375 -0.065254867 0.010680914
0.010864557 -0.065254867 0.010680914
0.032505672 -0.065254867 0.013043165
0.075984202 -0.065254956 0.021542907
-0.05411344 -0.065254822 0.015409231
0.054183222 -0.065254822 0.015409231
-0.076009698 -0.043536317 0.023103476
-0.054132625 -0.04358913 0.016240001
-0.032430209 -0.043607511 0.013857007
-0.010764633 -0.04362566 0.011493325
0.010864557 -0.04362566 0.011493325
0.032511938 -0.043607511 0.013857007
0.054196011 -0.04358913 0.016240001
0.076020248 -0.043536317 0.023103476
-0.076057814 -0.021793716 0.024666071
-0.054156795 -0.021907292 0.017286658
-0.032442983 -0.021947347 0.014686584
-0.010771009 -0.021983743 0.012321711
0.010864557 -0.021983743 0.012321711
0.032518327 -0.021947347 0.014686584
0.054212127 -0.021907292 0.017286658
0.076056331 -0.021793716 0.024666071
-0.054192737 -0.00019752234 0.018842578
-0.032455768 -0.00027438253 0.015516877
-0.010777389 -0.00032906979 0.013150454
0.010864557 -0.00032906979 0.013150454
0.03252472 -0.00027438253 0.015516877
0.05423608 -0.00019752234 0.018842578
-0.054228708 0.021536119 0.020400405
-0.032468319 0.021410927 0.016332269
-0.010783655 0.021337949 0.013964534
0.010864557 0.021337949 0.013964534
0.032530997 0.021410927 0.016332269
0.054260064 0.021536119 0.020400405
-0.054264724 0.043293811 0.021959901
-0.032481115 0.043109268 0.017163277
-0.010790044 0.043018006 0.01479435
0.010864557 0.043018006 0.01479435
0.032537393 0.043109268 0.017163277
0.054284073 0.043293811 0.021959901
-0.054299355 0.065072998 0.023459196
-0.032491788 0.06481424 0.017856359
-0.01079513 0.064703181 0.015455365
0.010864557 0.064703181 0.015455365
0.032542728 0.06481424 0.017856359
0.054307159 0.065072998 0.023459196
-0.054316856 0.086835027 0.024217248
-0.032489888 0.086485654 0.017733216
-0.010793592 0.086352184 0.015255451
0.010864557 0.086352184 0.015255451
0.032541778 0.086485654 0.017733216
0.054318592 0.086834207 0.02420187
-0.054305419 0.10853182 0.023722291
-0.032469504 0.10808143 0.016409039
-0.010783064 0.10792606 0.013887882
0.010864557 0.10792606 0.013887882
0.032531586 0.10808143 0.016409039
0.054311205 0.10853182 0.023722291
-0.054264724 0.1301329 0.021959901
-0.032429501 0.12956829 0.013810992
-0.010762035 0.12938453 0.011156082
0.010864557 0.12938453 0.011156082
0.032511584 0.12956829 0.013810992
0.054284073 0.1301329 0.021959901
-0.054191664 0.1515992 0.018796325
-0.032375179 0.15094379 0.010282516
0.032484423 0.15094379 0.010282516
0.054235369 0.1515992 0.018796325
-0.054083273 0.17288707 0.014102817
0.054163106 0.17288707 0.014102817
-0.076053999 0.19550075 0.024542212
0.076053478 0.19550075 0.024542212
-0.075889885 0.21669699 0.019212604
0.075930394 0.21669699 0.019212604
-0.075670145 0.23761661 0.012076378
0.075765938 0.23761822 0.012091756
-0.097697325 0.32556784 0.022299886
0.097713582 0.32556581 0.022284389
-0.054639347 -0.54561681 0.038181543
-0.032746326 -0.54497451 0.034389138
-0.010911769 -0.54433405 0.030606985
0.010864557 -0.54433143 0.030591369
0.032669879 -0.54497188 0.034373641
0.054533586 -0.54561424 0.038166046
-0.11997241 -0.5231843 0.034482718
-0.098018266 -0.52256268 0.03063798
-0.07612554 -0.52195293 0.02686584
0.076107129 -0.52195293 0.02686584
0.097970814 -0.52256268 0.03063798
0.11989536 -0.5231843 0.034482718
-0.14165269 -0.5010184 0.032146573
0.14159362 -0.5010184 0.032146573
-0.16348977 -0.47934633 0.032940388
0.16342458 -0.47934633 0.032940388
-0.18551733 -0.45801866 0.036307573
-0.16314238 -0.45677042 0.027299881
0.16312063 -0.45677042 0.027299881
0.18542622 -0.45801866 0.036307573
-0.18531534 -0.43581688 0.033391953
-0.16301832 -0.43475604 0.025285244
0.16301207 -0.43475604 0.025285244
0.18524668 -0.43581688 0.033391953
-0.18532613 -0.41403836 0.033547878
-0.16306983 -0.41312367 0.026121736
0.16305715 -0.41312367 0.026121736
0.18525626 -0.41403836 0.033547878
-0.18543518 -0.39242119 0.035122037
-0.16316624 -0.39156264 0.027687669
0.16314152 -0.39156264 0.027687669
0.18535319 -0.39242119 0.035122037
-0.18554434 -0.37077981 0.036697626
-0.1632628 -0.36997777 0.029255271
0.16322599 -0.36997777 0.029255271
0.18545026 -0.37077981 0.036697626
-0.18565364 -0.34911454 0.038275361
-0.16335945 -0.34836882 0.030824423
0.16331056 -0.34836882 0.030824423
0.18554741 -0.34911454 0.038275361
-0.18576306 -0.32742512 0.039854765
-0.1634562 -0.32673597 0.032395601
0.16339523 -0.32673597 0.032395601
0.18564467 -0.32742512 0.039854765
-0.14126711 -0.32605195 0.024991274
0.14126313 -0.32605195 0.024991274
-0.16355306 -0.3050791 0.033968449
-0.14135058 -0.30445009 0.02654016
0.14133467 -0.30445009 0.02654016
0.16347997 -0.3050791 0.033968449
-0.16365004 -0.28339812 0.035542965
-0.14143498 -0.28282559 0.02810657
0.14140703 -0.28282559 0.02810657
0.16356482 -0.28339812 0.035542965
-0.1637471 -0.26169294 0.037119269
-0.14151949 -0.26117724 0.029674649
0.14147943 -0.26117724 0.029674649
0.16364975 -0.26169294 0.037119269
-0.1638443 -0.2399638 0.038697481
-0.14160407 -0.23950469 0.031244397
0.14155194 -0.23950469 0.031244397
0.16373479 -0.2399638 0.038697481
-0.14168875 -0.21780817 0.032815933
-0.11955333 -0.2174091 0.025409341
0.11954612 -0.2174091 0.025409341
0.14162453 -0.21780817 0.032815933
-0.14177352 -0.19608757 0.034389257
-0.1196249 -0.19574437 0.026958942
0.11960576 -0.19574437 0.026958942
0.1416972 -0.19608757 0.034389257
-0.1418584 -0.17434263 0.035964131
-0.11969726 -0.17405644 0.028525472
0.11966606 -0.17405644 0.028525472
0.14176995 -0.17434263 0.035964131
-0.14194337 -0.1525737 0.037541032
-0.11976971 -0.15234444 0.030094147
0.11972644 -0.15234444 0.030094147
0.14184277 -0.1525737 0.037541032
-0.11984223 -0.13060828 0.031664371
0.11978688 -0.13060828 0.031664371
-0.11991484 -0.10884803 0.033236384
-0.097833104 -0.10873394 0.025827527
0.097822689 -0.10873394 0.025827527
0.11984739 -0.10884803 0.033236384
-0.11998753 -0.087063543 0.034810066
-0.097892761 -0.08700639 0.027377486
0.097870894 -0.08700648 0.027392983
0.11990796 -0.087063543 0.034810066
-0.12007977 -0.065254912 0.03680706
-0.097953081 -0.065254867 0.028944731
0.097918674 -0.065254867 0.028944731
0.11998482 -0.065254912 0.03680706
-0.12023064 -0.043405727 0.040073752
-0.098013476 -0.04347939 0.030513763
0.097966984 -0.04347939 0.030513763
0.12011056 -0.043405727 0.040073752
-0.09807393 -0.021679495 0.032084346
0.098015353 -0.021679495 0.032084346
-0.098134458 0.00014445186 0.033656955
-0.076105982 -2.6971102e-05 0.026230335
0.076092452 -2.6971102e-05 0.026230335
0.098063767 0.00014445186 0.033656955
-0.098246701 0.022034146 0.036572933
-0.076154195 0.021763913 0.027796268
0.076128624 0.021763913 0.027796268
0.098153561 0.022034146 0.036572933
-0.098372407 0.043982007 0.039839029
-0.076202467 0.043578945 0.02936399
0.076164827 0.043578945 0.02936399
0.098254129 0.043982007 0.039839029
-0.076250799 0.065418214 0.030933499
0.076201074 0.065418214 0.030933499
-0.076297261 0.087278321 0.032442331
0.07623592 0.087278321 0.032442331
-0.076338015 0.10915032 0.033765793
0.076266482 0.10915032 0.033765793
-0.076337054 0.13094875 0.033734679
0.076265402 0.1309476 0.033719182
-0.076291993 0.15263648 0.032271147
0.076231964 0.15263648 0.032271147
-0.076201037 0.17417538 0.029317379
0.076163746 0.17417538 0.029317379
-0.098366991 0.30613238 0.039698362
0.098249793 0.30613238 0.039698362
-0.054991297 -0.57014978 0.053421617
-0.03298033 -0.56947118 0.049588442
-0.011028458 -0.56879425 0.045765519
0.010864557 -0.56879425 0.045765519
0.032786999 -0.56947118 0.049588442
0.05476822 -0.57014692 0.053405762
-0.12068467 -0.547602 0.049903512
-0.098601721 -0.54690653 0.045796871
-0.076591067 -0.54626089 0.0419842
0.076455913 -0.54625809 0.041968584
0.098437585 -0.54690653 0.045796871
0.1204889 -0.547602 0.049903512
-0.14243312 -0.52514791 0.046629667
0.14226329 -0.52515054 0.046645641
-0.16414325 -0.50277448 0.043551922
0.16399553 -0.50277191 0.043536305
-0.20869267 -0.48241359 0.053911448
-0.18599205 -0.4808411 0.043159842
0.18584821 -0.4808411 0.043159842
0.20846605 -0.48241359 0.053911448
-0.20805472 -0.45930958 0.045624137
0.2078919 -0.45930958 0.045624137
-0.23047991 -0.4382419 0.051921964
-0.207754 -0.43690646 0.041717768
0.20762126 -0.43690646 0.041717768
0.23026863 -0.4382419 0.051921964
-0.23046656 -0.416282 0.051764131
-0.20770939 -0.4149732 0.041138172
0.2075811 -0.4149732 0.041138172
0.23025648 -0.416282 0.051764131
-0.23068988 -0.3946473 0.054401278
-0.20782155 -0.39328408 0.042595387
0.20768207 -0.39328408 0.042595387
0.2304595 -0.3946473 0.054401278
-0.20795317 -0.37159973 0.044304967
0.20780052 -0.37159973 0.044304967
-0.20820598 -0.35004658 0.047589183
0.20802803 -0.35004658 0.047589183
-0.20845817 -0.3284421 0.050864935
0.20825499 -0.3284421 0.050864935
-0.20871215 -0.30678916 0.054164171
-0.18587261 -0.30571139 0.041435719
0.18574204 -0.30571139 0.041435719
0.20848356 -0.30678916 0.054164171
-0.18605511 -0.28405452 0.044069648
0.18590425 -0.28405452 0.044069648
-0.18628149 -0.26240098 0.047337413
0.1861055 -0.26240098 0.047337413
-0.1865095 -0.24069846 0.050628424
0.18630815 -0.24069846 0.050628424
-0.18673804 -0.21894583 0.053927183
0.18651131 -0.21894583 0.053927183
-0.16395795 -0.21822459 0.040543318
0.16383426 -0.21822459 0.040543318
-0.16415967 -0.19652304 0.043818593
0.16401076 -0.19652304 0.043818593
-0.16436186 -0.17477134 0.047101498
0.16418767 -0.17477134 0.047101498
-0.16456449 -0.15296939 0.050392032
0.16436496 -0.15296939 0.050392032
-0.16476761 -0.13111691 0.053690195
-0.1420925 -0.13080791 0.040308595
0.1419706 -0.13080791 0.040308595
0.1645427 -0.13111691 0.053690195
-0.14226897 -0.10900737 0.043583512
0.14212187 -0.10900737 0.043583512
-0.14244583 -0.087156363 0.046865702
0.14227346 -0.087156363 0.046865702
-0.14262313 -0.065254912 0.05015564
0.14242542 -0.065254912 0.05015564
-0.14280081 -0.043302715 0.053453207
0.14257772 -0.043302715 0.053453207
-0.12038188 -0.021506112 0.043348074
0.12023659 -0.021506112 0.043348074
-0.12053347 0.00044412166 0.046629786
0.1203629 0.00044412166 0.046629786
-0.1206854 0.022445023 0.049919248
0.12048951 0.022445023 0.049919248
-0.12083767 0.044496991 0.053216338
0.12061641 0.044496991 0.053216338
-0.098498419 0.065980569 0.043112755
0.098354936 0.065980569 0.043112755
-0.098613225 0.088013977 0.04609561
0.098446772 0.088013977 0.04609561
-0.098687068 0.11002778 0.048013926
0.098505847 0.11002778 0.048013926
-0.098785877 0.13211586 0.050581217
0.098584905 0.13211586 0.050581217
-0.098859347 0.15419284 0.052489996
0.098641731 0.15418799 0.052426815
-0.098866642 0.17615378 0.05267942
0.098649509 0.17615378 0.05267942
-0.098866031 0.19809859 0.052663803
0.098649509 0.19809999 0.05267942
-0.098903723 0.22014244 0.05364275
0.098677717 0.22013788 0.053595424
-0.098838687 0.24191423 0.051953435
0.0986223 0.24189718 0.051795483
-0.098879397 0.26397693 0.05301106
0.098659232 0.26397508 0.052995205
-0.098877579 0.28591996 0.052963734
0.098656319 0.28591216 0.052900553
-0.12144078 -0.57242537 0.066273928
0.12111901 -0.57242537 0.066273928
-0.099200033 -0.5715521 0.061341405
-0.077061117 -0.57082748 0.057249427
0.07680881 -0.57082748 0.057249427
0.098916233 -0.5715521 0.061341405
-0.14327125 -0.54968178 0.062183619
0.14298169 -0.54968441 0.062199354
-0.16508731 -0.52712852 0.05888176
0.16482329 -0.52713114 0.058897495
-0.20976956 -0.50652313 0.067900538
-0.18685196 -0.5046249 0.055571556
0.18661258 -0.5046249 0.055571556
0.20943524 -0.50652313 0.067900538
-0.23161024 -0.48407495 0.065270185
0.23129618 -0.48407495 0.065270185
-0.23081711 -0.46073401 0.055903792
0.23057516 -0.46073401 0.055903792
-0.25396273 -0.44042683 0.068618774
0.25362289 -0.44042683 0.068618774
-0.25377411 -0.41810644 0.066576719
0.25344998 -0.41810644 0.066576719
-0.2539067 -0.39621896 0.068012118
0.25357154 -0.39621896 0.068012118
-0.23096994 -0.37304425 0.057708621
0.23071408 -0.37304425 0.057708621
-0.23125066 -0.35139102 0.061023712
0.23096929 -0.35139102 0.061023712
-0.23153202 -0.32968748 0.064346552
0.23122507 -0.32968748 0.064346552
-0.23181406 -0.30793351 0.06767714
0.23148148 -0.30793351 0.06767714
-0.20896669 -0.2850861 0.057471037
0.20871268 -0.2850861 0.057471037
-0.20922185 -0.26333261 0.060785651
0.20894231 -0.26333261 0.060785651
-0.20947759 -0.24152866 0.064107895
0.20917249 -0.24152866 0.064107895
-0.20973393 -0.2196738 0.067437887
0.20940319 -0.2196738 0.067437887
-0.20999089 -0.19776815 0.070775628
-0.18696712 -0.19714269 0.057233572
0.18671493 -0.19714269 0.057233572
0.20963444 -0.19776815 0.070775628
-0.18719672 -0.17528889 0.060547471
0.18691902 -0.17528889 0.060547471
-0.18742685 -0.15338442 0.063869119
0.18712358 -0.15338442 0.063869119
-0.18765751 -0.13142899 0.067198634
0.18732861 -0.13142899 0.067198634
-0.18788871 -0.10942227 0.07053566
-0.16497117 -0.10921372 0.056995869
0.16472082 -0.10921372 0.056995869
0.18753414 -0.10942227 0.07053566
-0.16517523 -0.087259881 0.06030941
0.16489938 -0.087259881 0.06030941
-0.16537978 -0.065254912 0.063630581
0.16507834 -0.065254912 0.063630581
-0.16558477 -0.04319869 0.066959381
0.16525772 -0.04319869 0.066959381
-0.14297891 -0.021299668 0.056758404
0.14273039 -0.021299668 0.056758404
-0.14315744 0.00075449795 0.060071349
0.14288341 0.00075449795 0.060071349
-0.14342986 0.022913419 0.065126896
0.14311691 0.022913419 0.065126896
-0.12101664 0.066626236 0.057091117
0.12076554 0.066626236 0.057091117
-0.12132016 0.088960499 0.06366241
0.12101725 0.088958859 0.063630581
-0.12158892 0.1113497 0.069481254
0.12124245 0.1113497 0.069481254
-0.16605446 -0.55178213 0.074585915
0.16566868 -0.55178213 0.074585915
-0.21098737 -0.53114396 0.083720565
-0.18793747 -0.52912629 0.071239352
0.18757844 -0.52912885 0.071255445
0.21053241 -0.53114659 0.083736777
-0.23293918 -0.50853449 0.080964446
0.23250432 -0.50853449 0.080964446
-0.25457025 -0.46340704 0.075195312
0.25417978 -0.46340704 0.075195312
-0.27742836 -0.42007697 0.082575679
0.27698109 -0.42007697 0.082575679
-0.27739775 -0.39786524 0.082269192
0.2769528 -0.39786524 0.082269192
-0.2776641 -0.37597811 0.084931135
-0.25420627 -0.37450415 0.071255326
0.25384617 -0.37450415 0.071255326
0.2771987 -0.37597811 0.084931135
-0.25451541 -0.35274988 0.074602008
0.25412956 -0.35274988 0.074602008
-0.25482529 -0.33094478 0.077956557
0.2544136 -0.33094478 0.077956557
-0.25513589 -0.30908868 0.081318855
0.25469831 -0.30908868 0.081318855
-0.25544572 -0.28718019 0.084672809
-0.23209675 -0.28612882 0.071015358
0.23173845 -0.28612882 0.071015358
0.25498232 -0.28718019 0.084672809
-0.23238006 -0.26427323 0.074361682
0.23199603 -0.26427323 0.074361682
-0.23266406 -0.24236669 0.077715516
0.23225421 -0.24236669 0.077715516
-0.23294874 -0.22040883 0.081077218
0.23251176 -0.2204079 0.081060886
-0.23323271 -0.19839892 0.084430695
0.23277114 -0.19839892 0.084430695
-0.21024843 -0.17581142 0.074121118
0.20986624 -0.17581142 0.074121118
-0.21050532 -0.15380281 0.077458382
0.21009745 -0.15380281 0.077458382
-0.21091537 -0.13178897 0.08278513
0.21046647 -0.13178897 0.08278513
-0.18817377 -0.087370306 0.074650049
0.1877875 -0.087370306 0.074650049
-0.1886358 -0.065254867 0.081318855
0.18819819 -0.065254867 0.081318855
-0.16596958 -0.021046355 0.073207974
0.16559443 -0.021046355 0.073207974
-0.16637987 0.0012117401 0.079869866
0.16595343 0.0012117401 0.079869866
-0.14378768 0.045210972 0.071767211
0.14342289 0.045210332 0.071751118
-0.14414892 0.06761387 0.078470707
0.14373101 0.067611635 0.078422427
-0.14454663 0.090156317 0.085851908
0.14406818 0.090149462 0.085722446
-0.1218321 0.13379005 0.07474649
0.1214451 0.13379005 0.07474649
-0.12226449 0.15662695 0.084107757
0.12180481 0.15662558 0.084091663
-0.14476112 -0.57659638 0.089831948
0.14425798 -0.57659638 0.089831948
-0.18904054 -0.55391169 0.087161064
0.18855797 -0.55391169 0.087161064
-0.23434623 -0.53338456 0.097580791
0.23378345 -0.53338456 0.097580791
-0.25580561 -0.48748267 0.088568687
0.25531223 -0.48748267 0.088568687
-0.27884036 -0.46638483 0.09668529
0.27828452 -0.46638483 0.09668529
-0.27785328 -0.44280899 0.086821437
0.27737334 -0.44280899 0.086821437
-0.30144852 -0.42218405 0.099683642
0.30086955 -0.42218405 0.099683642
-0.30121136 -0.39962196 0.097483039
0.30064934 -0.39962196 0.097483039
-0.30135712 -0.37747657 0.098835468
0.30078468 -0.37747657 0.098835468
-0.27800059 -0.35412002 0.088293433
0.2775093 -0.35412002 0.088293433
-0.27833951 -0.33221251 0.09168005
0.27782214 -0.33221251 0.09168005
-0.27867919 -0.31025344 0.095074415
0.27813572 -0.31025344 0.095074415
-0.27923679 -0.28840977 0.1006465
0.27865192 -0.28841096 0.10066259
-0.25575778 -0.26522166 0.088050723
0.25526837 -0.26522166 0.088050723
-0.25616199 -0.24327262 0.092426419
0.2556389 -0.24327262 0.092426419
-0.25678566 -0.22138421 0.099178076
0.2562106 -0.22138421 0.099178076
-0.23378475 -0.1764591 0.090950251
0.23327303 -0.1764591 0.090950251
-0.2343559 -0.15442602 0.097694993
0.23379348 -0.15442649 0.097711205
-0.21143165 -0.10971414 0.089491725
0.21093112 -0.10971414 0.089491725
-0.21195032 -0.087536372 0.096229434
0.21139906 -0.087536424 0.096245766
-0.18909995 -0.04303655 0.088018537
0.18861178 -0.043036461 0.088034749
-0.18956853 -0.020714216 0.094781995
0.18902731 -0.020714216 0.094781995
-0.16679403 0.023574449 0.086595178
0.16631494 0.023573905 0.086579084
-0.16721113 0.046042331 0.093368173
0.16667728 0.046039902 0.093303204
-0.14524981 0.11316146 0.098900914
0.14467536 0.11315946 0.098868251
-0.12279958 0.17979592 0.095692635
0.12225132 0.17979592 0.095692635
-0.21245129 -0.55654973 0.10273719
0.21184881 -0.55654973 0.10273719
-0.2573472 -0.51227456 0.10525703
0.25672534 -0.51227456 0.10525703
-0.28047043 -0.49105221 0.11297369
0.27978918 -0.49105221 0.11297369
-0.30221337 -0.44542098 0.10678053
0.30157977 -0.44542098 0.10678053
-0.32571185 -0.40183127 0.11661637
0.32500252 -0.40183127 0.11661637
-0.30171245 -0.35550505 0.10213256
0.30111462 -0.35550505 0.10213256
-0.30244496 -0.33380592 0.10892951
0.30179486 -0.33380592 0.10892951
-0.30318096 -0.31200495 0.11575854
0.30247989 -0.31200635 0.11577499
-0.27991632 -0.26656473 0.10743642
0.27927917 -0.26656592 0.10745299
-0.28060064 -0.24461806 0.11427474
0.27991089 -0.2446191 0.11429131
-0.25741225 -0.19939332 0.1059612
0.25678638 -0.19939406 0.10597754
-0.25804183 -0.17729914 0.11277616
0.25736484 -0.17730048 0.11280906
-0.23492968 -0.13228965 0.10447097
0.23431639 -0.13229047 0.10450387
-0.23550758 -0.11004984 0.11129558
0.23484048 -0.11005007 0.11131191
-0.21247266 -0.065254867 0.10301518
0.21186806 -0.065254867 0.10301518
-0.21299878 -0.042868655 0.1098491
0.21234041 -0.042868655 0.10983288
-0.19004045 0.001713559 0.10159349
0.18944377 0.0017122328 0.10154438
-0.19085856 0.024399906 0.11340177
0.19016688 0.024396203 0.11328661
-0.16800483 0.068897218 0.10625601
0.16736908 0.068891913 0.10614145
-0.14609601 0.13655154 0.11460447
0.14540218 0.13655154 0.11460447
-0.25899702 -0.53751272 0.12311685
0.25823769 -0.53751272 0.12311685
-0.28217059 -0.51607823 0.12996256
0.28135854 -0.51607823 0.12996256
-0.3037169 -0.46971673 0.12073171
0.30297756 -0.46971911 0.12074816
-0.32712796 -0.44831318 0.12888062
0.32632422 -0.44831318 0.12888062
-0.32599029 -0.42456681 0.11902797
0.3252624 -0.42456681 0.11902797
-0.32595786 -0.37962252 0.118747
0.32523215 -0.37962252 0.118747
-0.32657924 -0.35770619 0.12412846
0.32581389 -0.35770786 0.12414503
-0.32737604 -0.33584744 0.13102913
0.32655939 -0.33585048 0.13106251
-0.30392039 -0.29010126 0.12261951
0.30316818 -0.29010385 0.12265277
-0.3046633 -0.26809424 0.12951303
0.30385971 -0.26809776 0.12956309
-0.28128657 -0.22256695 0.12112892
0.28054559 -0.22256891 0.12116206
-0.28197572 -0.20041196 0.12801528
0.28118172 -0.20041347 0.12804854
-0.25867432 -0.15510118 0.11962306
0.25794464 -0.15510219 0.11965621
-0.25931132 -0.13279891 0.1265192
0.25852859 -0.13279969 0.12655246
-0.23608957 -0.087705322 0.11816859
0.2353683 -0.087705322 0.11816859
-0.23689802 -0.065254956 0.12771595
0.23609942 -0.065254912 0.12766623
-0.21382248 -0.020317424 0.12054968
0.21307603 -0.020319067 0.12045038
-0.19179614 0.047334306 0.12693453
0.19100228 0.047331199 0.12685168
-0.16883108 0.091978803 0.11967289
0.16809645 0.091976911 0.11963964
-0.30555767 -0.49468499 0.13781154
0.30468518 -0.49468499 0.13781154
-0.32919684 -0.47332859 0.1467973
0.32825518 -0.47332859 0.1467973
-0.35194439 -0.4053883 0.14742076
0.35100183 -0.40539223 0.1474545
-0.35168508 -0.38248581 0.14531565
0.35075679 -0.38248765 0.14533234
-0.32817665 -0.31388512 0.13796234
0.32730663 -0.31388786 0.13799572
-0.32898104 -0.29181865 0.14492857
0.32805923 -0.29182255 0.144979
-0.30540976 -0.24598309 0.13643932
0.30455285 -0.24598621 0.13648939
-0.30616155 -0.22376797 0.14341497
0.30525097 -0.22377063 0.1434654
-0.28266814 -0.17815213 0.13493443
0.28182241 -0.17815405 0.13498461
-0.2833924 -0.1557955 0.14217162
0.28248945 -0.15579656 0.14220524
-0.26008871 -0.11041376 0.13493431
0.25923696 -0.11041348 0.13491762
-0.2380638 -0.042625085 0.14148319
0.23715402 -0.042625997 0.14136565
-0.21487451 0.0024667755 0.13421595
0.21402161 0.0024642125 0.13409913
-0.19304863 0.070687175 0.14501262
0.19212279 0.07068868 0.14504635
-0.17041026 0.11601999 0.14531553
0.16948093 0.11602092 0.14533246
-0.30775273 -0.5204224 0.1581794
0.30672348 -0.5204224 0.1581794
-0.35307929 -0.42919874 0.15663517
0.3520619 -0.42919874 0.15663517
-0.35198382 -0.36006922 0.14774108
0.35103491 -0.36006922 0.14774108
-0.35268909 -0.33792007 0.15346706
0.35170195 -0.33792478 0.15351784
-0.35355619 -0.31579411 0.1605072
0.35251686 -0.31579995 0.16057515
-0.32978925 -0.26964721 0.15192783
0.3288154 -0.26965177 0.15199542
-0.33060327 -0.24737109 0.15897739
0.32957518 -0.24737526 0.15904546
-0.30691692 -0.20144698 0.15042412
0.30595243 -0.2014493 0.15047455
-0.28478381 -0.13348144 0.15607572
0.28376761 -0.13348067 0.15604162
-0.26136521 -0.087940708 0.14875293
0.26040277 -0.087940209 0.14868546
0.26158249 -0.065254867 0.16261721
-0.26265535 -0.065254822 0.16271925
-0.23923343 -0.019782588 0.15529597
0.23822115 -0.019783504 0.15522802
-0.21592866 0.025462307 0.14790976
0.2149761 0.025461257 0.14787602
-0.14829692 0.1621186 0.15544856
0.14728869 0.1621186 0.15544856
-0.3313956 -0.49878436 0.16583896
0.33030733 -0.49878436 0.16583896
-0.35534939 -0.45435721 0.17506611
0.35419214 -0.45435941 0.1750834
-0.37841314 -0.38583654 0.17640626
0.37724566 -0.38583827 0.17642331
-0.37817484 -0.3627556 0.17458534
0.3770214 -0.36275733 0.17460263
-0.37853688 -0.34012651 0.17735171
0.37736005 -0.34012651 0.17735171
-0.35442746 -0.29356238 0.16758072
0.35333371 -0.29356766 0.16764915
-0.33196998 -0.22524437 0.17081356
0.33084899 -0.22524711 0.17086494
-0.30831727 -0.17924841 0.16341758
0.30724937 -0.17924905 0.16343474
-0.30983752 -0.15688404 0.17752385
0.30865762 -0.15688351 0.17750657
-0.28618845 -0.1109554 0.17011166
0.285061 -0.11095425 0.17004311
-0.26394668 -0.042354077 0.17669845
0.26277339 -0.042354122 0.17668116
-0.24089301 0.0034062192 0.17489457
0.2397377 0.003406994 0.17492867
-0.21802446 0.049189739 0.1751349
0.21687061 0.049192943 0.17522061
-0.19515936 0.094985962 0.17547834
0.19399691 0.094985962 0.17547834
-0.37958178 -0.40976638 0.18533611
0.37834343 -0.40976638 0.18533611
-0.37962928 -0.31792742 0.18569934
0.37840307 -0.31793761 0.18582022
-0.355739 -0.27146944 0.17822921
0.35456729 -0.27147657 0.17833257
-0.35749385 -0.24943411 0.19247711
0.3562066 -0.24943727 0.1925292
-0.33360696 -0.20304352 0.18499029
0.33237132 -0.20304352 0.18499029
-0.31137231 -0.13430563 0.19176483
0.31007755 -0.13430397 0.19169533
-0.28760132 -0.088213868 0.18422985
0.28636673 -0.088213459 0.18417811
-0.35774013 -0.47993517 0.19447625
0.35643142 -0.47993517 0.19447625
-0.38200888 -0.43501818 0.20388281
0.38062996 -0.43502027 0.20390034
-0.38150322 -0.29605949 0.20001876
0.38016266 -0.29606619 0.20010614
-0.35926563 -0.22718686 0.20686197
0.35786363 -0.22718778 0.2068795
-0.33525968 -0.18062964 0.19930315
0.33391008 -0.18062831 0.19926834
-0.31291053 -0.11150843 0.20603776
0.31151286 -0.11150843 0.20603776
0.28832939 -0.065254912 0.20542431
-0.28971708 -0.065254822 0.20537162
-0.26661807 -0.019007701 0.20561707
0.26523104 -0.019006379 0.20570469
-0.24351975 0.027248517 0.20591486
0.24212573 0.027249567 0.20595014
-0.3845987 -0.46071815 0.22367251
0.38306525 -0.46071815 0.22367251
-0.40684125 -0.36693132 0.21631122
0.40536678 -0.36693311 0.21632886
-0.40716434 -0.34394079 0.21864319
0.4056696 -0.34394079 0.21864319
-0.38339525 -0.27398068 0.21447659
0.38193914 -0.27398437 0.21452951
-0.36105451 -0.20472452 0.22138584
0.35953665 -0.20472375 0.22136819
-0.33692628 -0.15799917 0.21373641
0.33546361 -0.15799749 0.21368337
-0.40810964 -0.39112371 0.22546506
0.40656471 -0.39112562 0.22548282
-0.40823269 -0.32136995 0.22635329
0.406674 -0.32136685 0.22631776
-0.40979713 -0.2989558 0.23764348
0.40815845 -0.29895714 0.23766136
-0.38530332 -0.25168687 0.2290566
0.3837328 -0.25168905 0.22909224
-0.36288503 -0.18205166 0.23624778
0.36125478 -0.18205166 0.23624778
-0.33955252 -0.13533838 0.23648024
0.33792627 -0.13533953 0.236534
-0.31621835 -0.08861798 0.23673081
0.31459159 -0.08861848 0.23680222
-0.29288039 -0.041889977 0.23698103
0.29125112 -0.04188934 0.23705292
-0.22221237 0.074591368 0.22953737
0.22063994 0.074595347 0.22962642
-0.4117009 -0.41739279 0.25138295
0.40994471 -0.41738451 0.25131071
-0.41173095 -0.27655262 0.25159967
0.40998492 -0.27655396 0.25161779
-0.38723221 -0.22917709 0.24379647
0.38554168 -0.22917613 0.24377847
-0.27002376 0.0049671456 0.24248493
0.26834705 0.004967697 0.24250281
-0.41400379 -0.2540853 0.26800263
0.4121291 -0.2540853 0.26800263
-0.39043346 -0.20688955 0.26825821
0.38855904 -0.20689029 0.26827657
-0.36685917 -0.15968585 0.26851392
0.36498478 -0.15968694 0.2685504
-0.34328097 -0.11247435 0.26876962
0.34140432 -0.11247486 0.26880634
-0.31970277 -0.065254867 0.26906216
0.31782177 -0.065254912 0.2690804
-0.43990037 -0.32622409 0.28367841
0.43790245 -0.32622254 0.2836597
-0.44149542 -0.35095584 0.29458356
0.43941867 -0.35095769 0.29460227
-0.44022173 -0.30266869 0.28587556
0.43820944 -0.30266869 0.28587556
