ply
format ascii 1.0
comment PCL generated
element vertex 852
property float x
property float y
property float z
element camera 1
property float view_px
property float view_py
property float view_pz
property float x_axisx
property float x_axisy
property float x_axisz
property float y_axisx
property float y_axisy
property float y_axisz
property float z_axisx
property float z_axisy
property float z_axisz
property float focal
property float scalex
property float scaley
property float centerx
property float centery
property int viewportx
property int viewporty
property float k1
property float k2
end_header
-0.060781009 -0.67116725 -0.048375487
-0.036318794 -0.6700663 -0.05348289
-0.011944057 -0.66921335 -0.057439923
0.012369752 -0.669393 -0.05660665
0.036708966 -0.66992474 -0.054140091
0.061153125 -0.67139399 -0.047323585
-0.060781009 -0.64678353 -0.048375487
-0.036318794 -0.64572197 -0.053482771
-0.011944057 -0.64489961 -0.057439923
0.012369752 -0.64507288 -0.05660677
0.036708966 -0.64558548 -0.054140091
0.061153125 -0.64700222 -0.047323585
-0.060781009 -0.62240005 -0.048375487
-0.036318794 -0.62137789 -0.053482771
-0.011944057 -0.6205858 -0.057440042
0.012369752 -0.62075263 -0.05660677
0.036708966 -0.62124616 -0.054140091
0.061153125 -0.62261057 -0.047323465
-0.060781009 -0.59801644 -0.048375487
-0.036318518 -0.5970301 -0.053500652
-0.011944057 -0.59627193 -0.057439923
0.012369752 -0.59643233 -0.05660665
0.036708966 -0.59690696 -0.054140091
0.061153125 -0.59821892 -0.047323585
-0.060781009 -0.57363278 -0.048375607
-0.036318518 -0.57268596 -0.053500652
-0.011944057 -0.57195818 -0.057439923
0.012369752 -0.57211214 -0.05660677
0.036708966 -0.57256776 -0.054140091
0.061153125 -0.57382709 -0.047323585
-0.060781009 -0.54924929 -0.048375487
-0.036318518 -0.54834181 -0.053500652
-0.011943923 -0.54764116 -0.057457805
0.012369752 -0.5477919 -0.05660677
0.036708966 -0.54822862 -0.05414021
0.061153125 -0.54943544 -0.047323585
-0.060781009 -0.52486569 -0.048375607
-0.036318518 -0.5239976 -0.053500652
-0.011943923 -0.52332747 -0.057457805
0.012369752 -0.52347165 -0.05660677
0.036708966 -0.52388942 -0.054140091
0.061153125 -0.52504385 -0.047323585
-0.060781009 -0.50048208 -0.048375368
-0.036318518 -0.49965361 -0.053500652
-0.011943923 -0.49901399 -0.057457685
0.012369752 -0.49915144 -0.05660677
0.036708966 -0.49955025 -0.054140091
0.061153125 -0.50065219 -0.047323585
-0.060781009 -0.47609848 -0.048375607
-0.036318518 -0.47530943 -0.053500652
0.036708966 -0.47521099 -0.054140091
0.061153125 -0.47626048 -0.047323585
-0.011943923 -0.47470024 -0.057457685
0.012369752 -0.47483125 -0.05660677
-0.060781009 -0.45171493 -0.048375368
-0.036318518 -0.45096532 -0.053500652
-0.011943923 -0.45038658 -0.057457805
0.012369752 -0.45051098 -0.05660677
0.036708966 -0.4508718 -0.054140091
0.061153125 -0.45186877 -0.047323585
-0.060781009 -0.42733133 -0.048375487
-0.036318518 -0.42662117 -0.053500652
-0.011943923 -0.42607293 -0.057457685
0.012369752 -0.42619076 -0.05660677
0.036708966 -0.42653257 -0.054140091
0.061153125 -0.42747706 -0.047323585
-0.060781009 -0.40294781 -0.048375487
-0.036318518 -0.40227696 -0.053500652
-0.011943923 -0.40175918 -0.057457685
0.012369752 -0.40187058 -0.05660677
0.036708966 -0.40219328 -0.054140091
0.061153125 -0.4030855 -0.047323585
-0.060781009 -0.37856412 -0.048375487
-0.036318518 -0.37793288 -0.053500652
-0.011943923 -0.37744552 -0.057457685
0.012369752 -0.37755027 -0.056606889
0.036708966 -0.37785411 -0.05414021
0.061153125 -0.37869376 -0.047323585
-0.060781009 -0.3541806 -0.048375487
-0.036318518 -0.35358879 -0.053500652
-0.011943923 -0.35313177 -0.057457685
0.012369752 -0.35323006 -0.056606889
0.036708966 -0.353515 -0.054140091
0.061153125 -0.35430208 -0.047323585
-0.060781009 -0.32979691 -0.048375487
-0.036318518 -0.32924464 -0.053500652
-0.011943923 -0.32881823 -0.057457685
0.012369752 -0.32890987 -0.056606889
0.036708966 -0.32917571 -0.054140091
0.061153125 -0.3299104 -0.047323585
-0.060781009 -0.30541345 -0.048375368
-0.036318518 -0.30490047 -0.053500652
-0.011943923 -0.30450451 -0.057457685
0.012369752 -0.30458969 -0.056606889
0.036708966 -0.30483651 -0.054140091
0.061153125 -0.30551863 -0.047323585
-0.060781009 -0.28102985 -0.048375487
-0.036318518 -0.28055629 -0.053500652
-0.011943923 -0.28019074 -0.057457685
0.012369752 -0.28026938 -0.056606889
0.036708966 -0.28049731 -0.054140091
0.061153125 -0.28112692 -0.047323585
-0.060781009 -0.25664622 -0.048375368
-0.036318518 -0.25621232 -0.053500652
-0.011943923 -0.25587708 -0.057457805
0.012369752 -0.25594917 -0.056606889
0.036708966 -0.25615802 -0.054140091
0.061153125 -0.25673538 -0.047323465
-0.060781009 -0.23226263 -0.048375487
-0.036318518 -0.23186807 -0.053500652
-0.011943923 -0.23156351 -0.057457685
0.012369752 -0.231629 -0.056606889
0.036708966 -0.23181887 -0.05414021
0.061153125 -0.23234366 -0.047323585
-0.060781009 -0.20787902 -0.048375607
-0.036318518 -0.20752391 -0.053500652
-0.011943923 -0.20724984 -0.057457685
0.012369752 -0.20730878 -0.05660677
0.036708966 -0.20747961 -0.05414021
0.061153125 -0.2079519 -0.047323585
-0.060781009 -0.18349542 -0.048375487
-0.036318518 -0.18317984 -0.053500652
-0.011943923 -0.18293607 -0.057457685
0.012369752 -0.18298861 -0.05660677
0.036708966 -0.1831404 -0.05414021
0.061153125 -0.18356025 -0.047323585
-0.060781009 -0.15911186 -0.048375487
-0.036318518 -0.15883568 -0.053500652
-0.011943923 -0.15862256 -0.057457685
0.012369752 -0.1586684 -0.05660677
0.036708966 -0.15880129 -0.054140091
0.061153125 -0.15916848 -0.047323585
-0.060781009 -0.13472825 -0.048375487
-0.036318518 -0.13449158 -0.053500533
-0.011943923 -0.1343088 -0.057457685
0.012369752 -0.13434809 -0.05660677
0.036708966 -0.13446203 -0.054140091
0.061153125 -0.13477699 -0.047323465
-0.060781009 -0.11034464 -0.048375487
-0.036318518 -0.11014741 -0.053500652
-0.011944057 -0.10999578 -0.057439923
0.012369752 -0.11002788 -0.05660677
0.036708966 -0.11012276 -0.054140091
0.061153125 -0.11038513 -0.047323465
-0.060781009 -0.085961133 -0.048375487
-0.036318518 -0.085803352 -0.053500652
-0.011944057 -0.085681915 -0.057439923
0.012369752 -0.085707709 -0.05660677
0.036708966 -0.085783556 -0.054140091
0.061153125 -0.085993476 -0.047323585
-0.060781009 -0.061577424 -0.048375487
-0.036318518 -0.061459139 -0.053500652
-0.011944057 -0.061368197 -0.057440042
0.012369752 -0.061387397 -0.05660665
0.036708966 -0.061444394 -0.054140091
0.061153125 -0.061601773 -0.047323585
-0.060781009 -0.037193917 -0.048375487
-0.036318518 -0.037114926 -0.053500652
-0.011944057 -0.037054382 -0.057439923
0.012369752 -0.037067182 -0.05660677
0.036708966 -0.03710518 -0.054140091
0.061153125 -0.037210017 -0.047323585
-0.060781009 -0.012810363 -0.048375607
-0.036318518 -0.012770765 -0.053500652
-0.011944057 -0.012740519 -0.057439923
0.012369752 -0.012747018 -0.05660677
0.036708966 -0.012765916 -0.054140091
0.061153125 -0.012818359 -0.047323585
-0.060781009 0.011573247 -0.048375368
-0.036318518 0.011573196 -0.053500533
-0.011944057 0.011573296 -0.057439804
0.012369752 0.011573247 -0.056606889
0.036708966 0.011573196 -0.054140091
0.061153125 0.011573247 -0.047323465
-0.060781009 0.035956953 -0.048375487
-0.036318518 0.035917357 -0.053500652
-0.011944057 0.035887111 -0.057439804
0.012369752 0.035893463 -0.056606889
0.036708966 0.035912458 -0.054140091
0.061153125 0.035965003 -0.047323465
-0.060781009 0.06034036 -0.048375487
-0.036318518 0.06026157 -0.053500652
-0.011944057 0.06020093 -0.057439804
0.012369752 0.060213774 -0.05660677
0.036708966 0.06025172 -0.054140091
0.061153125 0.060356662 -0.047323465
-0.060781009 0.084724069 -0.048375487
-0.036318518 0.084605776 -0.053500652
-0.011944057 0.084514588 -0.057439923
0.012369752 0.084533989 -0.05660677
0.036708966 0.084590979 -0.054140091
0.061153125 0.084748365 -0.047323585
-0.060781009 0.10910762 -0.048375368
-0.036318518 0.10894994 -0.053500652
-0.011944057 0.10882851 -0.057440042
0.012369752 0.1088542 -0.05660677
0.036708966 0.10893014 -0.054140091
0.061153125 0.10914002 -0.047323585
-0.060781009 0.13349113 -0.048375487
-0.036318518 0.13329385 -0.053500652
-0.011944057 0.13314237 -0.057440042
0.012369752 0.13317437 -0.05660677
0.036708966 0.13326941 -0.054140091
0.061153125 0.13353163 -0.047323465
-0.060781009 0.15787473 -0.048375487
-0.036318518 0.15763801 -0.053500652
-0.011944057 0.15745613 -0.057440042
0.012369752 0.15749463 -0.05660677
0.036708966 0.15760867 -0.054140091
0.061153125 0.15792328 -0.047323465
-0.060781009 0.18225844 -0.048375487
-0.036318518 0.18198217 -0.053500652
-0.011944057 0.18176995 -0.057439923
0.012369752 0.18181485 -0.056606889
0.036708966 0.18194772 -0.05414021
0.061153125 0.18231513 -0.047323465
-0.060781009 0.20664196 -0.048375607
-0.036318518 0.20632632 -0.053500652
-0.011944057 0.20608376 -0.057439804
0.012369752 0.20613506 -0.056606889
0.036708966 0.20628689 -0.054140091
0.061153125 0.20670684 -0.047323465
-0.060781009 0.23102556 -0.048375487
-0.036318518 0.23067054 -0.053500652
-0.011944057 0.23039763 -0.057439923
0.012369752 0.23045537 -0.05660677
0.036708966 0.23062605 -0.054140091
0.061153125 0.2310985 -0.047323585
-0.060781009 0.25540921 -0.048375487
-0.036318794 0.25501591 -0.05348289
-0.011944057 0.25471145 -0.057439804
0.012369752 0.25477558 -0.056606889
0.036708966 0.25496534 -0.054140091
0.061153125 0.25549015 -0.047323585
-0.060781009 0.27979261 -0.048375487
-0.036318794 0.27936032 -0.05348289
-0.011944057 0.27902505 -0.057439923
0.012369752 0.27909565 -0.05660665
0.036708966 0.27930456 -0.054140091
0.061153125 0.27988181 -0.047323465
-0.060781009 0.30417627 -0.048375607
-0.036318794 0.30370459 -0.05348289
-0.011944057 0.30333889 -0.057439804
0.012369752 0.30341586 -0.05660665
0.036708966 0.30364385 -0.054140091
0.061153125 0.30427346 -0.047323465
-0.060781009 0.32855994 -0.048375368
-0.036318794 0.32804888 -0.053482771
-0.011944057 0.32765278 -0.057439804
0.012369752 0.32773608 -0.05660677
0.0367091 0.32798481 -0.054122448
0.061153125 0.32866511 -0.047323585
-0.060788013 0.35297617 -0.048072577
-0.036322348 0.35241792 -0.053251863
-0.011945697 0.35198954 -0.057227254
0.012369752 0.35208124 -0.056376219
0.036710881 0.35234907 -0.05389142
0.061157793 0.35308966 -0.047020316
-0.03637521 0.37716058 -0.049818516
-0.011971375 0.37669021 -0.05389142
0.012369752 0.37678462 -0.053074121
0.036736749 0.37707818 -0.05053091
-0.085506633 -0.67356151 -0.037267566
0.085760467 -0.67340666 -0.037985682
-0.085506633 -0.64909232 -0.037267804
0.085760467 -0.64894319 -0.037985563
-0.085506633 -0.62462324 -0.037267804
0.085760467 -0.62447953 -0.037985563
-0.085506633 -0.6001541 -0.037267566
0.085760467 -0.60001594 -0.037985563
-0.085506633 -0.57568496 -0.037267804
0.085760467 -0.57555234 -0.037985563
-0.085506633 -0.55121595 -0.037267685
0.085760467 -0.55108881 -0.037985563
-0.085506633 -0.52674687 -0.037267685
0.085760467 -0.52662534 -0.037985563
-0.085506633 -0.50227773 -0.037267804
0.085760467 -0.50216174 -0.037985563
-0.085506633 -0.47780865 -0.037267685
0.085760467 -0.47769812 -0.037985563
-0.085506633 -0.45333955 -0.037267566
0.085760467 -0.45323455 -0.037985563
-0.085506633 -0.42887041 -0.037267685
0.085760467 -0.4287709 -0.037985563
-0.085506633 -0.40440139 -0.037267804
0.085760467 -0.40430754 -0.037985563
-0.085506633 -0.37993234 -0.037267685
0.085760467 -0.37984389 -0.037985563
-0.085506633 -0.35546315 -0.037267804
0.085760467 -0.35538033 -0.037985563
-0.085506633 -0.33099407 -0.037267685
0.085760467 -0.33091667 -0.037985563
-0.085506633 -0.30652502 -0.037267685
0.085760467 -0.30645311 -0.037985563
-0.085506633 -0.28205585 -0.037267804
0.085760467 -0.28198957 -0.037985563
-0.085506633 -0.25758678 -0.037267685
0.085760877 -0.25752747 -0.037967563
-0.085506633 -0.23311777 -0.037267566
0.085760877 -0.23306383 -0.037967563
-0.085506633 -0.20864858 -0.037267804
0.085760877 -0.20860013 -0.037967563
-0.085506633 -0.18417953 -0.037267804
0.085760877 -0.18413644 -0.037967563
-0.085506633 -0.15971044 -0.037267566
0.085760877 -0.15967263 -0.037967682
-0.085506633 -0.13524124 -0.037267804
0.085760877 -0.13520893 -0.037967682
-0.085506633 -0.11077219 -0.037267566
0.085760877 -0.11074524 -0.037967563
-0.085506633 -0.086303189 -0.037267685
0.085760877 -0.086281598 -0.037967563
-0.085506082 -0.061833642 -0.037285686
0.085760877 -0.061817847 -0.037967563
-0.085506633 -0.037364945 -0.037267685
0.085760877 -0.037354201 -0.037967563
-0.085506633 -0.012895849 -0.037267685
0.085760877 -0.012890352 -0.037967682
-0.085506633 0.011573346 -0.037267804
0.085760877 0.011573346 -0.037967563
-0.085506633 0.036042344 -0.037267804
0.085760877 0.036036946 -0.037967682
-0.085506633 0.060511492 -0.037267566
0.085760877 0.060500689 -0.037967563
-0.085506633 0.084980585 -0.037267804
0.085760877 0.08496429 -0.037967563
-0.085506633 0.10944973 -0.037267804
0.085760877 0.10942803 -0.037967563
-0.085506633 0.13391873 -0.037267685
0.085760877 0.13389179 -0.037967682
-0.085506633 0.15838782 -0.037267804
0.085760877 0.15835558 -0.037967563
-0.085506633 0.18285702 -0.037267685
0.085760877 0.18281917 -0.037967682
-0.085506633 0.20732602 -0.037267804
0.085760877 0.20728298 -0.037967563
-0.085506633 0.23179527 -0.037267804
0.085760877 0.23174657 -0.037967682
-0.085506633 0.25626421 -0.037267804
0.085760877 0.25621033 -0.037967563
-0.085506633 0.2807332 -0.037267685
0.085760877 0.28067392 -0.037967563
-0.085506633 0.30520239 -0.037267566
0.085760467 0.3051362 -0.037985563
-0.085506633 0.3296715 -0.037267804
0.085760467 0.32959971 -0.037985444
-0.085518241 0.35418126 -0.036890626
0.085768752 0.35410181 -0.037626505
-0.085646667 0.37913489 -0.03271997
-0.060877874 0.3778114 -0.044181228
0.06121609 0.37792072 -0.043233752
0.085862122 0.37903515 -0.033583641
-0.061104335 0.40343499 -0.034375191
-0.036510475 0.40261504 -0.041032791
-0.012038009 0.40209752 -0.045235276
0.012369752 0.40219221 -0.044466972
0.036803529 0.40251371 -0.04185605
0.061363 0.40351918 -0.033691645
-0.012159739 0.42857447 -0.029422402
0.012369752 0.42865971 -0.028772831
-0.11050097 -0.67650282 -0.023621559
0.11069477 -0.67670184 -0.022698045
-0.11050097 -0.65192854 -0.023621559
0.11069477 -0.65212059 -0.022697926
-0.11050097 -0.62735444 -0.02362144
0.11069477 -0.6275394 -0.022697926
-0.11050097 -0.60278034 -0.023621559
0.11069477 -0.60295808 -0.022698045
-0.11050097 -0.57820618 -0.02362144
0.11069477 -0.57837677 -0.022698045
-0.11050097 -0.55363202 -0.023621559
0.11069477 -0.55379558 -0.022697926
-0.11050097 -0.52905786 -0.02362144
0.11069477 -0.52921438 -0.022698045
-0.11050097 -0.50448376 -0.023621559
0.11069477 -0.50463307 -0.022697926
-0.11050097 -0.4799096 -0.02362144
0.11069477 -0.48005179 -0.022698045
-0.11050097 -0.45533556 -0.02362144
0.11069477 -0.45547059 -0.022698045
-0.11050097 -0.43076137 -0.02362144
0.11069477 -0.43088931 -0.022697926
-0.11050097 -0.40618727 -0.02362144
0.11069477 -0.40630808 -0.022697926
-0.11050097 -0.38161305 -0.023621559
0.11069477 -0.38172686 -0.022697926
-0.11050097 -0.35703897 -0.02362144
0.11069477 -0.35714567 -0.022697926
-0.11050097 -0.33246478 -0.02362144
0.11069477 -0.33256426 -0.022698045
-0.11050097 -0.30789065 -0.02362144
0.11069477 -0.30798304 -0.022698045
-0.11050097 -0.28331646 -0.023621559
0.11069477 -0.28340185 -0.022697926
-0.11050097 -0.25874233 -0.02362144
0.11069477 -0.25882056 -0.022697926
-0.11050097 -0.2341682 -0.02362144
0.11069477 -0.23423934 -0.022697806
-0.11050097 -0.20959407 -0.02362144
0.11069477 -0.20965806 -0.022698045
-0.11050097 -0.18501993 -0.02362144
0.11069477 -0.18507677 -0.022698045
-0.11050097 -0.16044573 -0.02362144
0.11069477 -0.16049553 -0.022698045
-0.11050027 -0.13587081 -0.02363956
0.11069477 -0.13591436 -0.022697926
-0.11050027 -0.11129673 -0.023639441
0.11069477 -0.11133298 -0.022697806
-0.11050027 -0.086722791 -0.023639441
0.11069477 -0.08675164 -0.022697926
-0.11050027 -0.062148757 -0.023639679
0.11069477 -0.062170453 -0.022697926
-0.11050027 -0.037574671 -0.023639679
0.11069477 -0.03758917 -0.022697926
-0.11050027 -0.013000738 -0.02363956
0.11069477 -0.013007937 -0.022697926
-0.11050027 0.011573296 -0.02363956
0.11069477 0.011573196 -0.022697926
-0.11050027 0.036147229 -0.02363956
0.11069477 0.036154479 -0.022697806
-0.11050027 0.060721263 -0.02363956
0.11069477 0.060735762 -0.022698045
-0.11050027 0.085295297 -0.023639441
0.11069477 0.085317045 -0.022697926
-0.11050027 0.10986918 -0.02363956
0.11069477 0.10989818 -0.022698045
-0.11050027 0.13444333 -0.023639679
0.11069477 0.13447957 -0.022697926
-0.11050027 0.1590174 -0.02363956
0.11069477 0.1590607 -0.022697926
-0.11050027 0.18359123 -0.02363956
0.11069533 0.18364307 -0.022679687
-0.11050027 0.20816527 -0.02363956
0.11069533 0.20822446 -0.022679806
-0.11050027 0.23273936 -0.02363956
0.11069533 0.2328058 -0.022679687
-0.11050027 0.25731325 -0.02363956
0.11069533 0.25738725 -0.022679806
-0.11050027 0.28188723 -0.02363956
0.11069477 0.28196701 -0.022697926
-0.11050097 0.30646297 -0.023621559
0.11069477 0.3065483 -0.022698045
-0.11050097 0.33103719 -0.02362144
0.11069477 0.33112958 -0.022697926
-0.11052188 0.35566977 -0.023078203
0.11071151 0.35576946 -0.022154331
-0.11073206 0.38087875 -0.017617822
0.11087134 0.38095424 -0.016963482
-0.085960843 0.40489563 -0.022516608
0.086090513 0.40475056 -0.0236938
-0.061520718 0.43028587 -0.016345143
-0.036757085 0.42915136 -0.025014877
0.036925375 0.42901883 -0.02602756
0.061633147 0.43031216 -0.01614511
-0.13603458 -0.68098027 -0.0028486252
0.13599063 -0.68070358 -0.0041319132
-0.13603458 -0.65624619 -0.0028486252
0.13599063 -0.65597939 -0.0041319132
-0.13603458 -0.63151211 -0.0028486252
0.13599063 -0.63125527 -0.0041319132
-0.13603458 -0.60677814 -0.0028483868
0.13599063 -0.60653102 -0.0041319132
-0.13603458 -0.58204412 -0.0028483868
0.13599063 -0.58180696 -0.0041319132
-0.13603458 -0.55730999 -0.002848506
0.13599063 -0.55708283 -0.0041319132
-0.13603458 -0.53257596 -0.002848506
0.13599063 -0.53235865 -0.0041319132
-0.13603458 -0.50784189 -0.002848506
0.13599063 -0.50763446 -0.004131794
-0.13603458 -0.48310778 -0.002848506
0.13599063 -0.48291031 -0.004131794
-0.13603458 -0.45837376 -0.002848506
0.13599063 -0.45818609 -0.004131794
-0.13603458 -0.43363971 -0.002848506
0.13599063 -0.4334619 -0.004131794
-0.13603458 -0.40890563 -0.002848506
0.13599063 -0.40873775 -0.0041319132
-0.13603458 -0.38417158 -0.0028486252
0.13599063 -0.38401353 -0.0041319132
-0.13603458 -0.35943756 -0.0028483868
0.13599063 -0.35928935 -0.0041319132
-0.13603458 -0.33470348 -0.0028483868
0.13599063 -0.33456513 -0.0041319132
-0.13603458 -0.30996946 -0.0028483868
0.13599063 -0.30984098 -0.0041319132
-0.13603458 -0.2852354 -0.0028483868
0.13599063 -0.28511676 -0.0041319132
-0.13603458 -0.2605013 -0.0028483868
0.13599063 -0.2603927 -0.0041319132
-0.13603458 -0.23576726 -0.002848506
0.13599063 -0.23566848 -0.0041319132
-0.13603458 -0.21103315 -0.002848506
0.13599063 -0.21094441 -0.0041319132
-0.13603458 -0.18629919 -0.0028486252
0.13599063 -0.1862202 -0.004131794
-0.13603458 -0.16156511 -0.0028486252
0.13599063 -0.16149603 -0.004131794
-0.13603458 -0.13683115 -0.0028483868
0.13599063 -0.13677181 -0.004131794
-0.13603458 -0.11209714 -0.002848506
0.13599063 -0.11204764 -0.004131794
-0.13603458 -0.08736302 -0.002848506
0.13599063 -0.087323427 -0.0041319132
-0.13603458 -0.062628955 -0.002848506
0.13599063 -0.062599257 -0.0041319132
-0.13603458 -0.037894882 -0.002848506
0.13599063 -0.037875041 -0.0041319132
-0.13603458 -0.013160819 -0.002848506
0.13599063 -0.013150871 -0.0041319132
-0.13603458 0.011573346 -0.0028483868
0.13599063 0.011573346 -0.0041319132
-0.13603458 0.036307313 -0.002848506
0.13599063 0.036297411 -0.0041319132
-0.13603458 0.061041482 -0.0028486252
0.13599063 0.06102173 -0.0041319132
-0.13603458 0.085775495 -0.0028486252
0.13599063 0.085745797 -0.0041319132
-0.13603458 0.11050951 -0.0028483868
0.13599063 0.11047001 -0.004131794
-0.13603458 0.13524348 -0.0028483868
0.13599063 0.13519408 -0.0041316748
-0.13603458 0.15997764 -0.0028483868
0.13599063 0.1599184 -0.0041316748
-0.13603458 0.18471161 -0.002848506
0.13599063 0.18464246 -0.004131794
-0.13603458 0.20944577 -0.0028483868
0.13599063 0.20936674 -0.0041316748
-0.13603458 0.23417974 -0.0028486252
0.13599063 0.23409085 -0.0041319132
-0.13603458 0.25891387 -0.002848506
0.13598993 0.25881353 -0.0041501522
-0.13603458 0.28364792 -0.0028486252
0.13598993 0.28353763 -0.0041502714
-0.13603458 0.30838209 -0.002848506
0.13598993 0.30826166 -0.004150033
-0.13603458 0.33311591 -0.0028483868
0.13598993 0.33298576 -0.0041501522
-0.13606848 0.35792917 -0.0021146536
0.13602732 0.35781443 -0.0031785965
-0.13635123 0.38337556 0.0040072203
0.13631879 0.38342029 0.0043939352
-0.11122997 0.40709236 -0.0046815872
0.11124954 0.40709236 -0.0046815872
-0.08654163 0.43194667 -0.003655076
0.086579546 0.43209547 -0.0025182962
-0.012393139 0.45730531 0.00089728832
0.012369752 0.45736891 0.0013568401
-0.13714235 0.41027215 0.021134973
-0.1121814 0.43504712 0.020037174
0.1119683 0.43486708 0.018661261
-0.062349774 0.45989043 0.019553542
-0.037235118 0.45801714 0.0060344934
0.037175596 0.45807844 0.0064771175
0.062167596 0.45975393 0.018568277
-0.16249141 -0.66289121 0.029122114
0.16220239 -0.66267341 0.028074861
-0.16249141 -0.63791108 0.029122114
0.16220239 -0.63770139 0.028074861
-0.16249141 -0.61293083 0.029122114
0.16220239 -0.61272925 0.028074741
-0.16249141 -0.58795065 0.029122114
0.16220324 -0.58776057 0.028093457
-0.16249141 -0.56297052 0.029122114
0.16220324 -0.56278843 0.028093576
-0.16249141 -0.53799033 0.029122114
0.16220324 -0.53781605 0.028093576
-0.16249141 -0.51301008 0.029122114
0.16220324 -0.51284397 0.028093576
-0.16249141 -0.48803017 0.029122114
0.16220324 -0.48787162 0.028093576
-0.16249141 -0.46304992 0.029122114
0.16220324 -0.46289942 0.028093576
-0.16249141 -0.43806973 0.029122114
0.16220324 -0.43792725 0.028093576
-0.16249141 -0.41308954 0.029122114
0.16220324 -0.41295496 0.028093696
-0.16249141 -0.38810939 0.029122233
0.16220324 -0.38798276 0.028093696
-0.16249141 -0.36312923 0.029122114
0.16220324 -0.36301038 0.028093576
-0.16249141 -0.33814904 0.029122114
0.16220324 -0.33803818 0.028093576
-0.16249141 -0.31316888 0.029122114
0.16220324 -0.31306601 0.028093576
-0.16249141 -0.28818867 0.029122114
0.16220324 -0.28809366 0.028093576
-0.16249141 -0.26320851 0.029122114
0.16220324 -0.26312143 0.028093576
-0.16249141 -0.23822838 0.029122114
0.16220324 -0.23814914 0.028093576
-0.16249141 -0.2132483 0.029122233
0.16220324 -0.21317695 0.028093576
-0.16249141 -0.1882681 0.029122233
0.16220324 -0.18820475 0.028093576
-0.16249141 -0.16328798 0.029122114
0.16220324 -0.16323249 0.028093696
-0.16249141 -0.13830778 0.029122114
0.16220239 -0.13825938 0.028074861
-0.16249141 -0.11332759 0.029122233
0.16220239 -0.11328725 0.028074861
-0.16249141 -0.088347353 0.029122233
0.16220239 -0.088315055 0.028074861
-0.16249141 -0.06336727 0.029122114
0.16220239 -0.063343018 0.02807498
-0.16249141 -0.038387075 0.029122114
0.16220239 -0.03837093 0.028074861
-0.16249141 -0.013406891 0.029122114
0.16220239 -0.013398793 0.028074741
-0.16249141 0.011573247 0.029122114
0.16220239 0.011573196 0.02807498
-0.16249141 0.036553532 0.029122114
0.16220239 0.036545336 0.028074741
-0.16249141 0.061533518 0.029122233
0.16220239 0.061517425 0.028074741
-0.16249141 0.086513609 0.029122114
0.16220239 0.086489558 0.028074741
-0.16249141 0.11149395 0.029122233
0.16220239 0.11146155 0.02807498
-0.16249141 0.13647403 0.029122233
0.16220239 0.13643384 0.02807498
-0.16249141 0.16145432 0.029122233
0.16220239 0.16140603 0.028074741
-0.16249141 0.1864344 0.029122233
0.16220239 0.18637802 0.02807498
-0.16249141 0.21141456 0.029122114
0.16220239 0.2113501 0.02807498
-0.16249141 0.23639478 0.029122114
0.16220239 0.23632224 0.02807498
-0.16249141 0.26137492 0.029122114
0.16220239 0.26129439 0.028074861
-0.16249141 0.28635517 0.029122114
0.16220239 0.28626642 0.02807498
-0.16249141 0.31133536 0.029122114
0.16220239 0.31123847 0.028074861
-0.16249141 0.33631539 0.029122233
0.16220239 0.33621058 0.028074861
-0.16257411 0.36146104 0.030656934
0.16226371 0.36132577 0.029402852
0.13701117 0.41042584 0.022382975
-0.16311966 0.387622 0.04078114
0.16269793 0.38739383 0.038803935
-0.088001087 0.46324208 0.043741941
0.087619558 0.46307209 0.042515516
-0.03797017 0.48980254 0.053777218
-0.012737643 0.48861367 0.045649767
0.012369752 0.48861367 0.045649767
0.037539132 0.48979142 0.053701162
-0.13895151 0.4403168 0.060304761
0.1385244 0.44049904 0.061697245
-0.03820755 0.51734626 0.069195628
-0.012851486 0.51599813 0.060438156
0.012369752 0.51597738 0.060304761
0.037654713 0.51727253 0.068716288
-0.012876466 0.54174376 0.063683271
0.012369752 0.54171908 0.063530326
-0.012876466 0.56699002 0.063683271
0.012369752 0.56696409 0.063530445
-0.012876466 0.5922364 0.063683391
0.012369752 0.59220928 0.063530445
-0.012876466 0.6174826 0.063683271
0.012369752 0.61745435 0.063530445
-0.012876466 0.64272881 0.063683391
0.012369752 0.64269936 0.063530445
-0.012876466 0.66797495 0.063683391
0.012369752 0.66794437 0.063530445
-0.012876466 0.69322121 0.063683271
0.012369752 0.69318938 0.063530564
-0.012876466 0.71846741 0.063683391
0.012369752 0.71843451 0.063530445
-0.012876466 0.7437135 0.063683391
0.012369752 0.74367952 0.063530445
-0.012876466 0.76895982 0.063683271
0.012369752 0.76892453 0.063530445
-0.012876466 0.79420596 0.063683271
0.012369752 0.79416955 0.063530445
-0.012876466 0.81945217 0.063683271
0.012369752 0.81941462 0.063530326
-0.012876466 0.84469861 0.063683391
0.012369752 0.84465963 0.063530445
-0.03816567 0.8706755 0.066475511
-0.012835054 0.86853683 0.058303833
0.012369752 0.86851174 0.058208585
0.037634075 0.87056023 0.066035271
-0.03816567 0.89594328 0.066475511
-0.012835054 0.89374131 0.058303714
0.012369752 0.89371592 0.058208466
0.037634075 0.89582449 0.066035151
-0.012876466 0.92043722 0.063683271
0.012369752 0.92039478 0.063530445
-0.16500382 0.41699854 0.075746179
0.16437401 0.41691783 0.075092077
-0.06358353 0.49261081 0.072976947
0.062994331 0.49250677 0.072266102
-0.038255122 0.54313451 0.072285175
0.037682042 0.54313129 0.072266102
-0.038255412 0.56845015 0.072304368
0.037682042 0.5684436 0.072266102
-0.038255412 0.59376264 0.072304368
0.037682042 0.59375578 0.072266102
-0.038255412 0.61907542 0.072304368
0.037682042 0.61906809 0.072265983
-0.038255412 0.6443879 0.072304487
0.037682042 0.64438051 0.072266221
-0.038255412 0.66970038 0.072304487
0.037682042 0.66969281 0.072266221
-0.038255412 0.69501311 0.072304606
0.037682042 0.69500512 0.072265983
-0.038255412 0.72032559 0.072304368
0.037682042 0.72031742 0.072265983
-0.038255412 0.74563831 0.072304368
0.037682042 0.74562961 0.072265983
-0.038255412 0.77095085 0.072304368
0.037682042 0.77094191 0.072265983
-0.038255412 0.79626322 0.072304487
0.037682042 0.79625416 0.072265983
-0.038255412 0.82157594 0.072304606
0.037682042 0.82156664 0.072265983
-0.038255412 0.84688854 0.072304368
0.037682042 0.84687889 0.072265983
-0.063916042 0.87614554 0.087375045
0.063232914 0.87624693 0.087762713
-0.063916042 0.90157408 0.087375045
0.063232914 0.90167856 0.087762833
-0.038255412 0.92282635 0.072304368
0.037682042 0.92281574 0.072265983
-0.012963254 0.9488945 0.074957371
0.012369752 0.94882327 0.07470715
-0.038463578 0.95198995 0.085825086
0.037788205 0.95205611 0.086057544
-0.038463578 0.97740656 0.085825086
-0.012963254 0.97422761 0.074957371
0.012369752 0.97415435 0.074707389
0.037788205 0.97747457 0.086057425
0.19070902 -0.67630684 0.093667865
-0.19118206 -0.67541414 0.089372993
-0.19118206 -0.64997011 0.089372873
0.19070902 -0.65082979 0.093667865
-0.19118325 -0.62452996 0.089392424
0.19071007 -0.62535644 0.093687177
-0.19118325 -0.59908575 0.089392185
0.19071007 -0.59987915 0.093687177
-0.19118325 -0.5736416 0.089392185
0.19071007 -0.57440197 0.093687177
-0.19118325 -0.54819757 0.089392304
0.19071007 -0.54892474 0.093687177
-0.19118325 -0.5227533 0.089392304
0.19071007 -0.52344763 0.093687177
-0.19118325 -0.49730924 0.089392185
0.19071007 -0.49797043 0.093687177
-0.19118206 -0.47186229 0.089372873
0.19071007 -0.47249341 0.093687177
-0.19118325 -0.44642106 0.089392185
0.19071007 -0.44701609 0.093687177
-0.19118206 -0.42097431 0.089372873
0.19071007 -0.42153886 0.093687177
-0.19118206 -0.39553043 0.089372873
0.19071007 -0.39606178 0.093687177
-0.19118206 -0.37008646 0.089372873
0.19071007 -0.37058455 0.093687177
-0.19118206 -0.34464246 0.089372993
0.19071007 -0.34510741 0.093687177
-0.19118206 -0.31919843 0.089372873
0.19071007 -0.31963015 0.093687177
-0.19118206 -0.29375446 0.089372873
0.19071007 -0.294153 0.093687296
-0.19118206 -0.26831046 0.089372993
0.19071007 -0.26867577 0.093687177
-0.19118206 -0.24286658 0.089372993
0.19071007 -0.24319866 0.093687177
-0.19118206 -0.2174225 0.089372873
0.19071007 -0.21772146 0.093687177
-0.19118206 -0.19197851 0.089372873
0.19071007 -0.19224425 0.093687177
-0.19118206 -0.16653459 0.089372873
0.19071007 -0.16676702 0.093687296
-0.19118206 -0.14109066 0.089372993
0.19071007 -0.14128979 0.093687177
-0.19118206 -0.11564662 0.089372873
0.19071007 -0.1158127 0.093687177
-0.19118206 -0.090202637 0.089372873
0.19071007 -0.090335473 0.093687177
-0.19118206 -0.064758658 0.089372873
0.19071007 -0.06485834 0.093687177
-0.19118206 -0.039314672 0.089372993
0.19071007 -0.039381161 0.093687177
-0.19118206 -0.013870686 0.089372873
0.19071007 -0.013903935 0.093687296
-0.19118206 0.011573247 0.089372873
0.19071007 0.011573196 0.093687177
-0.19118206 0.037017331 0.089372873
0.19071007 0.037050523 0.093687177
-0.19118206 0.06246116 0.089372993
0.19071007 0.062527657 0.093687296
-0.19118206 0.087905191 0.089372873
0.19070902 0.088004336 0.093667746
-0.19118206 0.11334927 0.089372873
0.19070902 0.11348146 0.093667626
-0.19118206 0.13879316 0.089372993
0.19070902 0.13895848 0.093667746
-0.19118206 0.16423704 0.089372993
0.19070902 0.16443557 0.093667746
-0.19118206 0.18968108 0.089372873
0.19070902 0.18991254 0.093667746
-0.19118206 0.21512516 0.089372993
0.19070902 0.21538958 0.093667746
-0.19118206 0.24056904 0.089372993
0.19070902 0.2408666 0.093667984
-0.19118206 0.26601288 0.089372873
0.19070902 0.26634374 0.093667746
-0.19118206 0.29145706 0.089372873
0.19070902 0.2918207 0.093667746
-0.19118206 0.31690094 0.089372873
0.19070902 0.31729785 0.093667865
-0.19118206 0.34234494 0.089372873
0.19070902 0.34277487 0.093667865
-0.064052373 0.52105409 0.093278527
0.06331484 0.52102429 0.093084097
-0.064131983 0.54708546 0.096725583
0.063364305 0.54701614 0.096296787
-0.064131983 0.572586 0.096725583
0.063364305 0.5725134 0.096296787
-0.064131983 0.59808654 0.096725583
0.06336461 0.59801412 0.096316338
-0.064131983 0.62358719 0.096725583
0.06336461 0.62351143 0.096316218
0.06336461 0.64900887 0.096316218
-0.064131983 0.64908767 0.096725583
-0.064131983 0.67458826 0.096725583
0.06336461 0.67450655 0.096316338
-0.064131983 0.70008892 0.096725583
0.06336461 0.70000368 0.096316457
-0.064131983 0.72558963 0.096725702
0.06336461 0.72550118 0.096316338
-0.064131983 0.75109017 0.096725702
0.06336461 0.75099868 0.096316218
-0.064131983 0.77659065 0.096725821
0.06336461 0.77649605 0.096316218
-0.064131983 0.80209118 0.096725702
0.06336461 0.80199349 0.096316457
-0.064131983 0.82759184 0.096725702
0.06336461 0.82749093 0.096316457
-0.064131983 0.85309237 0.096725702
0.06336461 0.85298824 0.096316218
-0.064131983 0.92959404 0.096725702
0.06336461 0.92948055 0.096316338
-0.1924509 0.37000945 0.10997641
0.19178288 0.37039959 0.1135962
-0.064789496 0.96320403 0.12519681
0.063851416 0.96398413 0.12793589
-0.064789496 0.98892361 0.12519681
0.063851416 0.98972493 0.12793589
0 0 0 1 0 0 0 1 0 0 0 1 0 0 0 0 0 852 1 0 0
