ply
format ascii 1.0
comment PCL generated
element vertex 630
property float x
property float y
property float z
element camera 1
property float view_px
property float view_py
property float view_pz
property float x_axisx
property float x_axisy
property float x_axisz
property float y_axisx
property float y_axisy
property float y_axisz
property float z_axisx
property float z_axisy
property float z_axisz
property float focal
property float scalex
property float scaley
property float centerx
property float centery
property int viewportx
property int viewporty
property float k1
property float k2
end_header
0.41169253 -0.03259616 -0.58026731
0.41164744 -0.01235624 -0.5805223
0.41164744 0.0078815566 -0.58052224
0.4116987 0.028123889 -0.58023274
0.41527379 -0.07354293 -0.56004065
0.43500096 -0.073459335 -0.56365818
0.39391226 -0.053059511 -0.56574428
0.41310361 -0.052958738 -0.57229781
0.43442094 -0.053043343 -0.56679791
0.37438384 -0.032747157 -0.56065208
0.39274913 -0.032655053 -0.57261246
0.43430638 -0.032695126 -0.56741786
0.39219734 -0.012356319 -0.57587028
0.37366098 -0.012356293 -0.56512344
0.43424585 -0.012356267 -0.56774545
0.37366477 0.0080003245 -0.56510007
0.39219344 0.0079172058 -0.57589352
0.43424585 0.0079799695 -0.56774539
0.37439141 0.028426148 -0.56060499
0.39275303 0.028241593 -0.57258904
0.4343085 0.028321426 -0.56740612
0.39391819 0.048699435 -0.56570917
0.41311187 0.048548438 -0.57225126
0.43442306 0.048674598 -0.56678617
0.41528624 0.06922809 -0.55997002
0.43501401 0.069116794 -0.56358784
0.43891978 -0.094480239 -0.54244715
0.39630494 -0.073737495 -0.55161637
0.45753357 -0.073719107 -0.55240917
0.37622949 -0.053313769 -0.54923505
0.45734015 -0.053249415 -0.55341411
0.45717868 -0.032796375 -0.55425322
0.4801679 -0.012356346 -0.54151708
0.45707187 -0.012356293 -0.5548082
0.45707187 0.0080796266 -0.55480826
0.4801679 0.0081818542 -0.54151714
0.45718095 0.028524134 -0.5542413
0.37623906 0.049081314 -0.54917574
0.45734242 0.048983619 -0.5534023
0.39631698 0.069487542 -0.55154526
0.45753583 0.069461361 -0.55239725
0.43894178 0.09030325 -0.54232794
0.41865265 -0.09452612 -0.54095656
0.45985934 -0.094545625 -0.54032403
0.4825584 -0.09487664 -0.52957332
0.4808251 -0.074046567 -0.53823346
0.48060504 -0.053466275 -0.53933275
0.50426102 -0.053695913 -0.52441317
0.48038515 -0.032902844 -0.54043144
0.50406027 -0.033018641 -0.52537912
0.5039072 -0.012356293 -0.52611524
0.50390971 0.0083005698 -0.52610326
0.48038515 0.028736755 -0.54043144
0.50406027 0.028968487 -0.52537924
0.48060504 0.049308617 -0.53933287
0.50426102 0.049653098 -0.52441311
0.4808251 0.069897413 -0.53823358
0.41867805 0.090361536 -0.54081333
0.45988694 0.090385914 -0.5401808
0.48259935 0.090802044 -0.5293687
0.50448203 -0.074390255 -0.52334958
0.52831984 -0.053937953 -0.50869042
0.3610543 -0.033100143 -0.51478732
0.52816176 -0.033141464 -0.50942332
0.5280776 -0.012356319 -0.50981408
0.36032319 -0.012356267 -0.51953614
0.36032319 0.0083511146 -0.51953614
0.5280776 0.0084258048 -0.5098142
0.36106178 0.029132206 -0.51473868
0.52816439 0.029214341 -0.50941122
0.52831984 0.050016318 -0.50869042
0.50448203 0.070355706 -0.52334958
0.36514211 -0.075201191 -0.48823631
0.38424087 -0.074936971 -0.49967736
0.34383118 -0.05421469 -0.49071556
0.36258847 -0.053997561 -0.50482273
0.34246102 -0.033213425 -0.50008315
0.55261791 -0.033268079 -0.49298
0.55255437 -0.012356346 -0.4932645
0.34184316 -0.012356293 -0.50430781
0.34184316 0.0084683178 -0.50430781
0.55255437 0.0085533438 -0.4932645
0.34246823 0.029358741 -0.50003409
0.55261791 0.029467303 -0.49298012
0.34383661 0.050432254 -0.49067837
0.36259788 0.050107043 -0.50476134
0.36514977 0.071438417 -0.4881866
0.38426077 0.071088374 -0.49955434
0.40904361 -0.096513994 -0.47639787
0.51232231 -0.096229814 -0.48562825
0.32371545 -0.012356346 -0.48484468
0.32371545 0.008618095 -0.48484492
0.40907118 0.092847116 -0.47623515
0.51240242 0.092500515 -0.4852429
0.38906693 -0.096716546 -0.46982384
0.34788629 -0.075784191 -0.46299064
0.32633078 -0.033476006 -0.4659701
0.32633603 0.029883664 -0.46593231
0.34801018 0.072240345 -0.46214366
0.3890954 0.093100682 -0.46964788
0.3284111 -0.054826867 -0.45095658
0.30891106 -0.033693664 -0.43769711
0.30799529 -0.012356373 -0.444695
0.3080003 0.0089275101 -0.44465661
0.30891612 0.030319057 -0.43765855
0.32842526 0.051351916 -0.45085448
0.37571591 -0.098264255 -0.41955745
0.33243692 -0.076733083 -0.42190313
0.31073788 -0.055245906 -0.42373765
0.28967306 -0.012356346 -0.42065251
0.28967145 0.0091122212 -0.42066562
0.3107481 0.051979918 -0.42365944
0.33246216 0.073485136 -0.42172074
0.37577012 0.095042259 -0.41920531
0.31369352 -0.077212423 -0.40115225
0.29187316 -0.055568442 -0.40279007
0.29037428 -0.033868674 -0.41495919
0.29038236 0.030669503 -0.41489363
0.29188454 0.052464049 -0.40269768
0.31371084 0.074122518 -0.40102017
0.35821632 -0.099101514 -0.39236391
0.27139118 -0.034037322 -0.39305508
0.27076468 -0.012356346 -0.39848053
0.27076164 0.0092827519 -0.39850688
0.27139729 0.031006455 -0.39300191
0.35824937 0.096083969 -0.39213777
0.33875546 -0.099596195 -0.37630284
0.29456165 -0.077678561 -0.38096213
0.27277359 -0.055902611 -0.38108277
0.25210664 -0.034208436 -0.3708185
0.2515547 -0.01235624 -0.37593961
0.25155038 0.0094561456 -0.37598002
0.25211394 0.03134916 -0.3707509
0.27277827 0.05296414 -0.3810426
0.29457155 0.074742652 -0.38088167
0.33878899 0.096702881 -0.37606072
0.31907141 -0.10009639 -0.36005783
0.27528149 -0.078177378 -0.35936379
0.25341889 -0.056248233 -0.35864222
0.23251656 -0.034382466 -0.34821403
0.23203143 -0.01235624 -0.35306191
0.23203006 0.0096324561 -0.3530755
0.23252344 0.031697169 -0.34814548
0.25342476 0.053482782 -0.35858774
0.27529252 0.075408131 -0.35926855
0.31910348 0.097328283 -0.35981274
0.29915866 -0.10060197 -0.3436389
0.25570613 -0.078684121 -0.33741927
0.23375601 -0.056599367 -0.3358289
0.21218905 -0.01235624 -0.32982552
0.21219033 0.0098116277 -0.32981145
0.23376155 0.054009538 -0.33577359
0.25571659 0.076083943 -0.33732259
0.29918915 0.097960211 -0.34339118
0.27926767 -0.10118078 -0.32484257
0.2358256 -0.079198413 -0.31514823
0.21376806 -0.056955006 -0.31273198
0.21261069 -0.034559201 -0.32526076
0.21261585 0.032050315 -0.32520509
0.21377456 0.054543342 -0.31266153
0.23583543 0.076769672 -0.31505001
0.27928376 0.098679602 -0.32470334
0.25929528 -0.1018189 -0.30411601
0.21562245 -0.079717956 -0.29265738
0.1923721 -0.034737684 -0.30206382
0.19201043 -0.01235624 -0.30633485
0.19201162 0.0099923881 -0.30632067
0.1923769 0.032407492 -0.30200708
0.21562773 0.077460915 -0.29260039
0.25931054 0.09947744 -0.30397451
0.23902237 -0.10246278 -0.28320444
0.19345261 -0.057315681 -0.28930354
0.17181638 -0.034920301 -0.27834678
0.17149988 -0.012356346 -0.28245795
0.171501 0.010176278 -0.28244376
0.17181748 0.032771986 -0.27833223
0.19345865 0.055084411 -0.28923213
0.23903814 0.10028303 -0.28304636
0.21844876 -0.1031139 -0.26206207
0.19510168 -0.080245137 -0.2698288
0.17284274 -0.057689715 -0.26501381
0.15074024 -0.01235624 -0.2568711
0.17284723 0.055645037 -0.26495564
0.19510904 0.078164883 -0.26974189
0.21846354 0.10109688 -0.26190186
0.26610583 -0.12661695 -0.24092197
0.28845745 -0.12645014 -0.24525666
0.19768327 -0.10381351 -0.23934138
0.17436703 -0.080813557 -0.24521267
0.15195981 -0.05808612 -0.23926735
0.15104122 -0.035119083 -0.2525264
0.15074123 0.010373102 -0.25685644
0.15104325 0.033169765 -0.2524972
0.15196392 0.05623975 -0.23920846
0.17437837 0.078924611 -0.24506533
0.19769832 0.10197201 -0.23916411
0.2661663 0.1247824 -0.24036098
0.28852034 0.12458144 -0.244712
0.2445806 -0.12712727 -0.22766316
0.12989867 -0.035321634 -0.22621727
0.12962537 -0.012356293 -0.23065448
0.1296263 0.010574962 -0.23063958
0.12989956 0.033574652 -0.22620237
0.2446104 0.12538274 -0.22736526
0.22352612 -0.12791881 -0.20709789
0.17666456 -0.10455167 -0.21536696
0.15330605 -0.081399627 -0.21983624
0.13072054 -0.058492437 -0.21287143
0.13072424 0.056849357 -0.21281123
0.15331437 0.079705223 -0.21971655
0.17667727 0.10289432 -0.21520162
0.22355264 0.12633203 -0.20681083
0.20217535 -0.12871957 -0.18629289
0.15542333 -0.10535508 -0.1892761
0.13207391 -0.082067966 -0.1908952
0.10856974 -0.035555404 -0.19584894
0.10829714 -0.012356293 -0.20090759
0.10829714 0.010803855 -0.20090759
0.10857056 0.034042086 -0.1958338
0.1320805 0.08059594 -0.19078851
0.15543815 0.10390038 -0.18906212
0.20220131 0.12729388 -0.18598652
0.1093823 -0.058986641 -0.18077004
0.086631626 -0.012356346 -0.16854787
0.086630195 0.011052788 -0.16857886
0.10938561 0.057590585 -0.18070841
0.18101893 -0.1297778 -0.15880203
0.13419449 -0.10636554 -0.15646136
0.11059546 -0.082821816 -0.15825629
0.086869612 -0.035805237 -0.16339529
0.086870328 0.034541808 -0.16337979
0.1106005 0.081600577 -0.15816271
0.134207 0.10516307 -0.15625823
0.18105134 0.12856892 -0.15838122
0.087581933 -0.059491608 -0.14797318
0.064494357 -0.0123564 -0.13550031
0.064493135 0.011307129 -0.13553202
0.087585568 0.058348458 -0.14789462
0.15987766 -0.13107944 -0.12498343
0.11249758 -0.10739721 -0.12295747
0.088647455 -0.08359199 -0.1249038
0.064696409 -0.036060318 -0.13025081
0.06469702 0.035052076 -0.13023508
0.08865115 0.082627155 -0.12482393
0.11250876 0.10645284 -0.12275004
0.15990639 0.13013057 -0.12456882
0.065304875 -0.060007814 -0.11444223
0.041871145 -0.01235624 -0.10171056
0.041870154 0.011567245 -0.10174274
0.065307356 0.059122499 -0.11437809
0.13826241 -0.13241035 -0.090406418
0.090319157 -0.10845178 -0.088710189
0.066214971 -0.084379651 -0.090797424
0.042533949 -0.060535204 -0.080185175
0.04203587 -0.036321178 -0.096361041
0.04203587 0.035573687 -0.096361041
0.042536482 0.059914034 -0.080103159
0.066217475 0.083676793 -0.090732336
0.090328962 0.10777117 -0.088498116
0.13828853 0.13172811 -0.089982629
0.0188706 -0.036587816 -0.061733484
0.018744677 -0.01235624 -0.067185998
0.018744297 0.011833138 -0.06720233
0.01887098 0.036107015 -0.061716914
0.11615708 -0.13377136 -0.055045485
0.067643069 -0.10952988 -0.053694487
0.043279834 -0.085184179 -0.055962324
0.019253314 -0.061074521 -0.045161366
0.019255251 0.060722958 -0.045077562
0.043282904 0.084750652 -0.055862308
0.067651413 0.10911915 -0.053477645
0.11617954 0.13336106 -0.05462873
-0.0048158132 -0.036860388 -0.026327133
-0.0049013905 -0.012356346 -0.031885624
-0.004901655 0.012104915 -0.031902671
-0.0048155487 0.036652055 -0.026309967
0.093543991 -0.1351629 -0.018890738
0.04445181 -0.1106321 -0.017901063
0.019826539 -0.086006828 -0.020339727
-0.0045540854 -0.061626136 -0.0093274117
-0.0045530275 0.061550062 -0.0092587471
0.019829296 0.085848004 -0.020220399
0.044459164 0.11049766 -0.017661929
0.093564481 0.13503213 -0.018447161
-0.029106332 -0.037073962 0.0014157295
-0.029134754 -0.012356293 -0.0022767782
-0.029134622 0.012333068 -0.0022596121
-0.029106196 0.037079204 0.0014330149
0.070407212 -0.13658753 0.01812017
0.020707481 -0.11173157 0.017805815
-0.028919829 -0.087068766 0.025642872
-0.0042556152 -0.086708829 0.010058761
-0.029025348 -0.061953627 0.011935592
-0.053823978 -0.037215073 0.019744277
-0.053823978 -0.012356346 0.015957236
-0.053823978 0.012473437 0.015974522
-0.053823978 0.037361428 0.019761682
-0.029025214 0.062040027 0.011952877
-0.028919155 0.087262981 0.02573061
-0.0042542778 0.086783089 0.010145664
0.020710297 0.11186737 0.017928123
0.070424676 0.13674216 0.01857388
0.046292424 -0.13750179 0.041874766
-0.0039421357 -0.11212002 0.030419827
-0.053823978 -0.087374575 0.038884044
-0.078826651 -0.062361639 0.038442016
-0.053823978 -0.062224027 0.029505491
-0.10386992 -0.037379242 0.041077852
-0.07878007 -0.0373124 0.032390833
-0.10382824 -0.012356293 0.038371444
-0.078759216 -0.012356293 0.029681325
-0.10382824 0.012645825 0.038371325
-0.078759216 0.012578874 0.029681325
-0.10387018 0.037689872 0.041095614
-0.07878007 0.037555866 0.032390952
-0.078826927 0.062652491 0.03847754
-0.053823978 0.062445763 0.029523015
-0.053823978 0.087669082 0.038919449
-0.0039407834 0.11235166 0.030507565
0.046298422 0.13782726 0.042069554
-0.0034653805 -0.13825288 0.061386228
0.021427713 -0.13777579 0.048992991
-0.078982733 -0.11299133 0.05871737
-0.053823978 -0.11281259 0.05291152
-0.028761426 -0.11260654 0.046219945
-0.10407655 -0.087735094 0.054499269
-0.078890085 -0.087554596 0.046681881
-0.12924489 -0.062636919 0.056321144
-0.10394908 -0.062481441 0.046220064
-0.12912953 -0.037458226 0.051325083
-0.15452406 -0.012356293 0.060830593
-0.12905678 -0.01235624 0.048174739
-0.15452462 0.012818794 0.060848594
-0.12905718 0.012721413 0.04819262
-0.12913035 0.037847947 0.051360846
-0.12924615 0.063065864 0.056374788
-0.1039499 0.062832512 0.04627347
-0.1040771 0.088150039 0.054535031
-0.078890353 0.087909319 0.046717405
-0.078983143 0.11343962 0.058771133
-0.053823978 0.11321603 0.052964926
-0.028760744 0.11295989 0.046308875
-0.0034634471 0.13872534 0.061511755
0.021430999 0.13815358 0.049135327
-0.079094544 -0.13870908 0.073241949
-0.053823978 -0.13848501 0.067420244
-0.028616909 -0.13839166 0.064993143
-0.12969661 -0.11351979 0.07588017
-0.10425582 -0.11322002 0.066143394
-0.15504932 -0.088275366 0.077888966
-0.12946925 -0.088001676 0.066035509
-0.15474749 -0.062818162 0.068086147
-0.15462238 -0.03755587 0.064023376
-0.18030202 -0.01235624 0.076495171
-0.18030202 0.012939231 0.07649529
-0.15462294 0.038043126 0.064041257
-0.15474916 0.06333743 0.068140149
-0.15505101 0.088870645 0.077943087
-0.12947091 0.088506207 0.066107392
-0.12969869 0.11410144 0.075970769
-0.10425664 0.11372535 0.066197395
-0.079095095 0.13927034 0.073314071
-0.053823978 0.13900231 0.067510128
-0.02861622 0.13889031 0.065083027
-0.07925836 -0.16496259 0.094522476
-0.053823978 -0.16467841 0.088370085
-0.028457701 -0.16455398 0.085675001
-0.0030886233 -0.16456237 0.085857034
0.022348449 -0.16470115 0.088861942
0.047845453 -0.16486049 0.092310905
-0.1300887 -0.13946414 0.092858672
-0.10451567 -0.13908555 0.083021164
-0.1554254 -0.11395775 0.090101957
-0.1807072 -0.063109495 0.087021947
-0.1804994 -0.037691414 0.081623197
-0.1804994 0.038313899 0.081623077
-0.1807093 0.063774966 0.087076664
-0.15542763 0.11464818 0.090174913
-0.13009082 0.14017737 0.092950225
-0.10451679 0.13972208 0.083093762
-0.053823978 0.16535871 0.08847928
-0.028457001 0.16521262 0.085766196
-0.0030869432 0.16522333 0.085966229
0.022350982 0.16538532 0.088971376
-0.079259068 0.16568939 0.09461391
0.047853887 0.16557999 0.092584848
-0.053823978 -0.19142687 0.11363626
-0.028247012 -0.19139501 0.11304426
-0.0026549473 -0.19144785 0.114025
-0.10478811 -0.16524863 0.10071623
0.07353054 -0.16518168 0.09926641
-0.15622988 -0.14036366 0.11622882
-0.18137152 -0.088884808 0.10428178
-0.20740461 -0.012356346 0.11561728
-0.20740461 0.013240482 0.11561751
-0.18137366 0.089683436 0.10433686
-0.15623274 0.14125691 0.11632144
-0.10478979 0.16602403 0.10082638
0.07354112 0.16595486 0.099541664
-0.053823978 0.19230156 0.11372888
-0.028245874 0.19226854 0.11319232
-0.0026532412 0.19232662 0.11413598
-0.079453446 -0.19176261 0.11986506
0.023053713 -0.19173761 0.11940062
0.049040489 -0.19236916 0.13112056
-0.13065881 -0.16602591 0.11754501
0.10017276 -0.16635308 0.12462628
-0.18231177 -0.11514653 0.12871027
-0.20814572 -0.06379687 0.13166296
-0.20775622 -0.038011696 0.12322998
-0.20775793 0.038954992 0.12326717
-0.20815004 0.064806633 0.13175654
-0.18231465 0.11613436 0.12878501
-0.13066182 0.16693197 0.11767483
0.10019599 0.16733363 0.12512922
-0.079454161 0.19268519 0.11995792
0.02305714 0.19266 0.11954916
0.049045093 0.19338189 0.13127017
-0.053823978 -0.21931434 0.15107787
-0.027973153 -0.21916296 0.14861977
-0.10533088 -0.19263038 0.13597047
0.0754527 -0.19334358 0.14920557
-0.10533406 0.19368409 0.13617671
0.075459972 0.19449805 0.14939451
-0.053823978 0.22049229 0.15138066
-0.027972136 0.22031021 0.14875197
-0.0020567924 -0.21942513 0.1528765
0.024070352 -0.22007461 0.16342258
-0.15769775 -0.16816695 0.16389906
0.12797672 -0.16818544 0.16429949
-0.18385655 -0.14238884 0.16884446
-0.20918505 -0.090036914 0.15416503
-0.23592113 -0.0383702 0.16980112
-0.23553428 -0.01235624 0.16262197
-0.23553531 0.013602587 0.16264105
-0.23592216 0.039671734 0.16982007
-0.20918855 0.091220073 0.15424097
-0.18386392 0.14369157 0.16903579
-0.15770304 0.1694321 0.16407073
0.12799007 0.16945778 0.16454744
-0.0020538755 0.22060913 0.1530658
0.024074748 0.22133981 0.1636132
0.050542362 -0.22108904 0.17989528
-0.13227382 -0.19540596 0.18747675
0.1025355 -0.19477573 0.17578113
-0.21023759 -0.11663196 0.17695284
-0.23638628 -0.064516999 0.17843306
-0.23639145 0.065886915 0.17852938
-0.21024112 0.11799133 0.17702985
-0.13228051 0.19686116 0.18776691
0.10254616 0.19613706 0.17601168
0.050550058 0.22248518 0.1801455
-0.079982705 -0.22162622 0.18861794
-0.23763312 -0.091131769 0.20157194
-0.23763733 0.092679843 0.20164967
-0.079990007 0.22313789 0.18956614
0.077812836 -0.22297515 0.21052396
-0.18555893 -0.17043824 0.21307349
-0.21213925 -0.14428581 0.2181251
-0.26484555 -0.038734056 0.21706247
-0.2643922 -0.012356346 0.20970094
-0.2643922 0.013964749 0.20970118
-0.26484677 0.040399443 0.21708214
-0.21215107 0.14597066 0.21838093
-0.18556648 0.17208312 0.21326983
0.077822655 0.22460751 0.21077883
-0.16006672 -0.19828109 0.24083328
-0.23889498 -0.11811119 0.22498906
-0.26542866 -0.06525749 0.22653127
-0.2654348 0.066997722 0.22663021
-0.23890033 0.11984114 0.22508788
-0.16007654 0.20014894 0.24115229
0.13222557 -0.19840586 0.24314857
0.159458 -0.17231779 0.25376689
-0.26689333 -0.092257269 0.250314
-0.2941218 -0.012356346 0.25889921
-0.2941218 0.014343553 0.25889909
-0.26689824 0.094180852 0.25039411
0.15950505 0.17430659 0.25453103
0.13224711 0.20029633 0.24354827
-0.10723218 -0.2259891 0.25946367
-0.21439482 -0.17292719 0.26696002
-0.24126254 -0.14624101 0.26892531
-0.26843849 -0.11966362 0.27540433
-0.29473078 -0.039123677 0.26768911
-0.29473218 0.041178945 0.26770937
-0.26844475 0.12178165 0.27550614
-0.24127346 0.14831457 0.26912808
-0.21441074 0.17499486 0.2673043
-0.10724367 0.22803219 0.26020992
-0.29558432 -0.066080831 0.28000915
-0.29559422 0.068233795 0.28015184
-0.18874188 -0.20124133 0.2957691
-0.2975896 -0.093611494 0.30895281
-0.29759964 0.095988527 0.30909789
-0.18875456 0.2035327 0.29609847
-0.13550146 -0.23016296 0.32723796
-0.3255541 -0.039529406 0.32037711
-0.32503921 -0.012356293 0.3136884
-0.32504079 0.014765349 0.31370914
-0.32555571 0.041990042 0.32039785
-0.13551937 0.23272987 0.32801354
-0.24485984 -0.17610128 0.33568311
-0.27192658 -0.14867038 0.33204377
-0.29929429 -0.12145417 0.33355749
-0.32631153 -0.066853866 0.33021641
-0.326318 0.069391996 0.33030045
-0.29930449 0.12402177 0.33370471
-0.27193564 0.15122738 0.33219075
-0.24488483 0.1787046 0.33614659
-0.32795689 -0.094596252 0.3515898
-0.35637566 -0.039861139 0.36346436
-0.3557052 -0.012356293 0.35554647
-0.3557052 0.015087486 0.35554647
-0.35637748 0.042653508 0.36348569
-0.32796016 0.097298123 0.3516326
-0.21904406 -0.20511302 0.3676188
-0.27492708 -0.1781837 0.38076639
-0.30204535 -0.15025705 0.37326622
-0.32983097 -0.12275921 0.37593508
-0.35736966 -0.067546435 0.37520266
-0.35737693 0.070430815 0.37528884
-0.32984421 0.12565388 0.37610722
-0.30205578 0.15313157 0.3734169
-0.27494437 0.181124 0.38104713
-0.21906683 0.20796762 0.36811197
-0.35954556 -0.095734835 0.40089905
-0.35955298 0.098817743 0.40098643
-0.24876796 -0.20730029 0.40820849
-0.38870582 -0.040263109 0.41570163
-0.38795289 -0.012356293 0.40755093
-0.38795289 0.015487866 0.40755069
-0.38870788 0.043457605 0.41572368
-0.24878213 0.21045296 0.40847182
-0.30617175 -0.1805881 0.43282509
-0.33362469 -0.15225673 0.42521703
-0.36206654 -0.12444459 0.43067038
-0.38987544 -0.068364896 0.42836285
-0.38988569 0.071659259 0.42847371
-0.36208159 0.12776074 0.43084812
-0.33364004 0.15553327 0.42541611
-0.30619639 0.18393333 0.43318093
-0.28043288 -0.21063909 0.47016931
-0.39232036 -0.096980453 0.45482993
-0.42199537 -0.040677112 0.4694891
-0.42115533 -0.012356293 0.46109462
-0.42115533 0.015900012 0.46109474
-0.42199767 0.044285718 0.46951187
-0.39233074 0.10047922 0.45494235
-0.28048182 0.21430154 0.4709636
-0.36636892 -0.15442237 0.48147917
-0.39529946 -0.12618148 0.48707998
-0.42336211 -0.069208436 0.48314619
-0.42337355 0.072924376 0.48326027
-0.39531854 0.12993316 0.48728609
-0.36638632 0.15813221 0.48168468
-0.33884057 -0.18336627 0.49297333
-0.33886886 0.1871751 0.49334097
-0.42609143 -0.09826418 0.51041937
-0.45628512 -0.041103519 0.52487302
-0.45535555 -0.012356346 0.51624787
-0.45535555 0.016324617 0.51624787
-0.45629016 0.045138799 0.52491999
-0.42610306 0.1021911 0.51053512
-0.40014282 -0.15665592 0.53951061
-0.45787024 -0.070077255 0.5395813
-0.45788544 0.074228249 0.53972244
-0.4001624 0.16081284 0.53972244
-0.31386366 -0.21460944 0.54384875
-0.37260851 -0.18623874 0.55516517
-0.42957863 -0.12797309 0.54526532
-0.42959991 0.13217291 0.54547799
-0.3726407 0.19052704 0.55554509
-0.31392089 0.218841 0.54467487
-0.46090296 -0.0995875 0.56772137
-0.49067673 -0.012356293 0.57375479
-0.4906795 0.016767405 0.57377887
-0.46091583 0.10395557 0.5678407
-0.49176216 -0.04155219 0.58315492
-0.49177051 0.046036404 0.5832274
-0.43503216 -0.15897487 0.59976053
-0.46518552 -0.12988827 0.60745859
-0.49372169 -0.071009375 0.60012507
-0.49373856 0.075626634 0.60027122
-0.46520656 0.13456602 0.60765386
-0.43505406 0.16359615 0.59997916
-0.34865299 -0.21873665 0.62044024
-0.40760744 -0.18924807 0.62031746
-0.49728832 -0.10104924 0.63101292
-0.49730545 0.10590541 0.63116121
-0.4076483 0.19404112 0.62075996
-0.34872112 0.22356138 0.62132525
-0.52875346 -0.042039398 0.64644599
-0.5275507 -0.0123564 0.63668036
-0.52755368 0.017251857 0.6367054
-0.5287596 0.047010664 0.64649606
-0.47166839 -0.16158637 0.66761184
-0.53105664 -0.072010346 0.66514564
-0.53107214 0.077127703 0.66527128
-0.47169283 0.16673023 0.66783881
-0.50244409 -0.13198829 0.67566299
-0.50246739 0.13719152 0.67586541
-0.44466341 -0.19274379 0.69600153
-0.53465259 -0.10251171 0.69434142
-0.56565857 -0.042464323 0.70163202
-0.56465101 -0.012356293 0.69393253
-0.56465435 0.017692473 0.69395852
-0.56566525 0.04786019 0.70168328
-0.53466201 0.10785308 0.69441795
-0.44470692 0.19811906 0.69643641
-0.38623527 -0.22389077 0.71608973
-0.56756401 -0.072796479 0.71619296
-0.56757414 0.078305461 0.71627021
-0.38632712 0.22946401 0.71717429
-0.5084607 -0.16390187 0.7277689
-0.5388658 -0.13361683 0.72854805
-0.5388819 0.13922422 0.72867823
-0.50848168 0.16950674 0.72795081
-0.48103184 -0.19544555 0.75449419
-0.57159626 -0.10372795 0.74700499
-0.57161689 0.10947728 0.74716234
-0.48106307 0.20126316 0.75478363
-0.60433435 -0.0123564 0.76346564
-0.60432339 0.018227123 0.76338649
-0.42290452 -0.22765326 0.78591299
-0.60651612 -0.043061525 0.77921104
-0.60651243 0.049053535 0.77918434
-0.42295146 0.23372872 0.7864213
-0.54960871 -0.167289 0.81576967
-0.54976928 0.17362313 0.81707335
0 0 0 1 0 0 0 1 0 0 0 1 0 0 0 0 0 630 1 0 0
