ply
format ascii 1.0
comment PCL generated
element vertex 1333
property float x
property float y
property float z
element camera 0
property float view_px
property float view_py
property float view_pz
property float x_axisx
property float x_axisy
property float x_axisz
property float y_axisx
property float y_axisy
property float y_axisz
property float z_axisx
property float z_axisy
property float z_axisz
property float focal
property float scalex
property float scaley
property float centerx
property float centery
property int viewportx
property int viewporty
property float k1
property float k2
end_header
0.098917499 -0.37475151 -0.095816374
0.31483671 -0.37556106 -0.088806152
0.098919272 -0.34784144 -0.095701814
0.31484705 -0.34859908 -0.088671803
0.09892074 -0.32092768 -0.095606208
0.31485885 -0.32163703 -0.088518262
0.098921917 -0.29401064 -0.095529556
0.3148692 -0.29467085 -0.088383794
0.098923683 -0.26709571 -0.095414996
0.31488842 -0.26771232 -0.088134289
0.098925158 -0.24017753 -0.09531939
0.31490764 -0.24074985 -0.087884426
0.098926924 -0.21325924 -0.095204592
0.31492537 -0.2137823 -0.087654114
0.09892869 -0.18633913 -0.095090032
0.3149446 -0.18681248 -0.087404609
0.098930158 -0.15941618 -0.094994426
0.31496975 -0.1598428 -0.087077856
0.098931633 -0.13249193 -0.094898462
0.31499341 -0.13286741 -0.086770535
0.098933399 -0.10556687 -0.094783783
0.31501856 -0.10588785 -0.086443901
0.098934874 -0.078639328 -0.094688296
0.31504223 -0.078902796 -0.086136222
0.098936349 -0.051710527 -0.094592571
0.31506589 -0.0519129 -0.085828662
0.098937817 -0.024779961 -0.094496965
0.31508955 -0.024918228 -0.085521102
0.098939285 0.0021518525 -0.09440136
0.31511328 0.0020810962 -0.085213661
0.09894076 0.029085143 -0.094305634
0.31513548 0.029085143 -0.084925056
0.098942235 0.056019969 -0.094210148
0.31515619 0.056093566 -0.084655643
0.09894371 0.082956269 -0.094114423
0.098945178 0.10989399 -0.094018579
0.098946363 0.13683262 -0.093942046
0.098948129 0.16377382 -0.093827248
0.098949894 0.19071689 -0.093712449
0.09895137 0.21766081 -0.093616843
0.098953135 0.24460723 -0.093501806
0.098954611 0.27155414 -0.09340632
0.098955788 0.29850101 -0.093329549
0.098957263 0.32545072 -0.093233824
0.098958738 0.35240188 -0.093138099
0.098960206 0.37935466 -0.093042374
0.098961391 0.40630659 -0.092965841
0.098962866 0.43326199 -0.092870116
0.28687504 0.43208918 -0.10302722
0.099087253 0.46120235 -0.084790349
0.12571345 0.4591696 -0.10129392
0.15288201 0.46032268 -0.091931701
0.31513399 0.46118334 -0.084944248
0.12574206 0.48621196 -0.10005474
0.31377861 0.48588529 -0.10255122
0.28746471 0.5408017 -0.09451592
0.31498009 0.73084456 -0.086943507
0.12603199 0.7577197 -0.087500453
0.15257964 0.75475764 -0.10175133
0.12606129 0.78497928 -0.086232543
0.15288319 0.78375912 -0.091893315
0.2611146 0.78523219 -0.085059524
0.28731635 0.78273231 -0.096657276
0.15269768 0.80936706 -0.097917795
0.28777391 0.81112272 -0.090053082
0.15290974 0.8378638 -0.091031075
0.17947106 0.86235565 -0.10137033
0.23318528 0.88902879 -0.10220838
0.045072615 -0.92052913 -0.068615198
0.099275976 -0.91947377 -0.072532654
0.12623432 -0.91780138 -0.078739643
0.15321456 -0.91715682 -0.081131458
0.045072615 -0.89354974 -0.068032742
0.045072615 -0.8665517 -0.06748879
0.072085269 -0.8623324 -0.084097743
0.26132447 -0.86295378 -0.081651926
0.045072615 -0.83953553 -0.066983819
0.07208927 -0.83544779 -0.08357811
0.28843874 -0.83621669 -0.080456734
0.045072615 -0.81251186 -0.066478372
0.072092973 -0.80854601 -0.083096623
0.045072615 -0.78549814 -0.065895319
0.072097719 -0.78166789 -0.08248055
0.15332806 -0.78283066 -0.077445984
0.18028271 -0.78217536 -0.080283165
0.31568891 -0.78276366 -0.077735543
0.072175488 -0.75689822 -0.072377682
0.31591657 -0.75636238 -0.074778199
0.072175339 -0.72979122 -0.072396874
0.26174778 -0.72927791 -0.074778199
0.072175339 -0.70268852 -0.072396874
0.072175339 -0.67558575 -0.072396994
0.072175339 -0.64848304 -0.072396874
0.072175339 -0.62138033 -0.072396874
0.072175339 -0.59427756 -0.072396874
0.072175339 -0.56717485 -0.072396994
0.07217519 -0.54006892 -0.072416306
0.31595084 -0.53975916 -0.074333072
0.34377787 -0.54117036 -0.065603614
0.07217519 -0.51296633 -0.072416306
0.07217519 -0.48586383 -0.072416186
0.07217519 -0.4587613 -0.072416306
0.31655848 -0.45958942 -0.066439509
0.07217519 -0.43165863 -0.072416425
0.072121464 -0.40369639 -0.079395771
0.072122209 -0.37665877 -0.07929945
0.072123095 -0.34962156 -0.079183698
0.07212384 -0.32258081 -0.079087019
0.072124436 -0.29553673 -0.079009891
0.072125182 -0.26849312 -0.07891345
0.072126068 -0.2414494 -0.07879746
0.072126962 -0.21440397 -0.078681707
0.072127849 -0.18735668 -0.078566074
0.072128594 -0.16030666 -0.078469515
0.072129339 -0.13325521 -0.078372955
0.072130084 -0.10620207 -0.078276396
0.072130978 -0.079148293 -0.078160405
0.072131716 -0.052092198 -0.078063965
0.072132461 -0.025034446 -0.077967525
0.072133198 0.002024496 -0.077870727
0.072133794 0.0290852 -0.077793598
0.072134688 0.05614721 -0.077677727
0.072135434 0.083210759 -0.077581048
0.31517693 0.083105966 -0.084386349
0.072136179 0.11027595 -0.077484488
0.31519768 0.11012274 -0.084116817
0.072136775 0.13734183 -0.077407122
0.31523028 0.13714822 -0.083693504
0.072137669 0.16441044 -0.077291489
0.31526881 0.16418329 -0.083192945
0.072138406 0.19147995 -0.077194929
0.31530735 0.19122604 -0.082692146
0.0721393 0.2185519 -0.077078938
0.31534591 0.21827634 -0.082191348
0.072140194 0.24562569 -0.076962948
0.31538892 0.24533823 -0.081632853
0.07214094 0.27270001 -0.076866388
0.31547794 0.27244991 -0.080476046
0.072141528 0.29977441 -0.076789021
0.31556705 0.29957944 -0.079318523
0.072142273 0.32685137 -0.076692343
0.31565619 0.32672715 -0.078160405
0.072142869 0.35392827 -0.076615214
0.31566659 0.35379809 -0.078025222
0.072143763 0.38101012 -0.076499224
0.31557447 0.38073769 -0.079222083
0.072144359 0.40808958 -0.076421738
0.3154349 0.40759239 -0.081035256
0.072145104 0.43517244 -0.076325178
0.31524214 0.43433943 -0.083539367
0.072208188 0.46325439 -0.068129778
0.07221806 0.4905577 -0.066847682
0.09910652 0.48837331 -0.083539367
0.072227791 0.51787817 -0.065583944
0.099126086 0.51556653 -0.082268476
0.099145666 0.54277921 -0.080996633
0.31607306 0.57108599 -0.072745681
0.31630436 0.59867185 -0.069740772
0.31610882 0.65246838 -0.072280645
0.31635067 0.6801523 -0.069139242
0.2888965 0.70637375 -0.07384944
0.099282242 0.73381037 -0.072125554
0.099301636 0.761177 -0.07086575
0.31649119 0.76191527 -0.06731391
0.09932135 0.78856736 -0.069585681
0.20783496 0.78864282 -0.069236398
0.23458523 0.78713554 -0.076228499
0.31662583 0.78943413 -0.065564632
0.12619022 0.81322199 -0.080649734
0.12635127 0.84187186 -0.073675036
0.28855506 0.84069312 -0.078778148
0.15312263 0.86647284 -0.084116936
0.12651254 0.87063098 -0.066692114
0.017812241 -0.92502803 -0.05191803
0.017807866 -0.89791626 -0.051349759
0.017803337 -0.87080109 -0.050761342
0.017799109 -0.84366697 -0.050212383
0.017795185 -0.81651527 -0.049702168
0.31760997 -0.81578076 -0.052780032
0.017790953 -0.78936464 -0.049152493
0.045072615 -0.76062644 -0.055677056
0.15411773 -0.76149195 -0.051800609
0.29001337 -0.76016837 -0.057729363
0.045072615 -0.73339516 -0.055676937
0.28959587 -0.73165381 -0.063755155
0.045072615 -0.70616364 -0.055677056
0.045072615 -0.67893213 -0.055677056
0.045072615 -0.65170085 -0.055676937
0.3175346 -0.65206975 -0.053759336
0.045072615 -0.62446576 -0.055696487
0.045072615 -0.59723437 -0.055696607
0.045072615 -0.57000315 -0.055696487
0.045072615 -0.54277194 -0.055696487
0.045072615 -0.51554054 -0.055696487
0.045072615 -0.48830929 -0.055696487
0.045072615 -0.46107805 -0.055696368
0.15411714 -0.4616152 -0.05182004
0.34500811 -0.46171841 -0.05107522
0.045072615 -0.43384415 -0.055716157
0.34529728 -0.43489841 -0.047660232
0.045072615 -0.40575001 -0.062723041
0.045072615 -0.378584 -0.062625647
0.045072615 -0.35141659 -0.062528253
0.045072615 -0.32424769 -0.06243062
0.045072615 -0.29707715 -0.062333345
0.045072615 -0.26990524 -0.062235951
0.045072615 -0.24273334 -0.062119126
0.045072615 -0.21555956 -0.062002063
0.045072615 -0.18838406 -0.061884999
0.045072615 -0.1612056 -0.061787724
0.045072615 -0.13402566 -0.06169045
0.045072615 -0.10684437 -0.061592937
0.045072615 -0.079661533 -0.061495304
0.045072615 -0.052477453 -0.061378479
0.045072615 -0.025291435 -0.061280966
0.045072615 0.0018961728 -0.061202765
0.045072615 0.0290852 -0.06110549
0.045072615 0.056275651 -0.060988426
0.045072615 0.083467804 -0.060890913
0.045072615 0.11066133 -0.0607934
0.045072615 0.13785563 -0.060715437
0.045072615 0.16505206 -0.060617924
0.045072615 0.19225097 -0.06050086
0.045072615 0.21945147 -0.060384035
0.045072615 0.24665403 -0.060266972
0.045072615 0.27385545 -0.06018889
0.045072615 0.30105981 -0.060091257
0.045072615 0.32826549 -0.059993625
0.045072615 0.35547078 -0.059915662
0.045072615 0.38268128 -0.059798717
0.045072615 0.4098894 -0.059720516
0.045072615 0.43710104 -0.059623122
0.045072615 0.46532592 -0.05131042
0.29065788 0.46568111 -0.048426032
0.045072615 0.49276033 -0.050016046
0.045072615 0.52021223 -0.048740387
0.34472939 0.51943266 -0.054366112
0.045072615 0.54768658 -0.047443867
0.07223767 0.54522127 -0.064299941
0.072247565 0.57258421 -0.063015223
0.29034132 0.57412678 -0.052995563
0.07225731 0.59996384 -0.061748624
0.072267219 0.62736624 -0.060461998
0.29034269 0.62863421 -0.052976012
0.07227698 0.65478557 -0.05919373
0.072286904 0.68222803 -0.057905078
0.072296828 0.70969057 -0.056615353
0.31666628 0.70806932 -0.065039396
0.34472612 0.71011579 -0.054405212
0.072306611 0.73716909 -0.055344224
0.072316557 0.7646715 -0.054052949
0.18088742 0.78964794 -0.064572334
0.072327405 0.79221934 -0.052642941
0.099419817 0.81711936 -0.063190341
0.31766579 0.81960529 -0.05205524
0.099527963 0.84591538 -0.056165814
0.099636853 0.87483078 -0.049093604
0.2902084 0.87344164 -0.054913998
-0.0097079538 -0.92957455 -0.035042286
-0.0097167902 -0.90233469 -0.034468293
-0.0097253211 -0.87508088 -0.033913851
-0.0097344667 -0.84782809 -0.033319831
-0.009743005 -0.82055694 -0.032765269
-0.0097509399 -0.79326814 -0.032250047
0.017711243 -0.7643947 -0.038797259
0.017711243 -0.73703337 -0.038797617
0.31908211 -0.73814142 -0.033656597
0.34585226 -0.73653579 -0.041105986
0.017711392 -0.70966792 -0.038817048
0.31872588 -0.70977867 -0.038284063
0.3468709 -0.71169245 -0.029076576
0.017711392 -0.68230659 -0.038817167
0.29197234 -0.68418074 -0.029453754
0.31890389 -0.68287617 -0.035971642
0.017711392 -0.65494537 -0.038817167
0.017711392 -0.62758416 -0.038817167
0.29106128 -0.62688458 -0.04260397
0.017711392 -0.60022289 -0.038817286
0.31836757 -0.59949321 -0.042938828
0.017711392 -0.57286185 -0.038817167
0.34666929 -0.57410812 -0.031457305
0.017711392 -0.54550058 -0.038817167
0.017711544 -0.51813626 -0.038836956
0.017711544 -0.49077526 -0.038836837
0.3457154 -0.49020699 -0.042722106
0.017711544 -0.46341416 -0.038836956
0.29182118 -0.464412 -0.031635761
0.017711544 -0.43605313 -0.038836837
-0.0098022409 -0.40991366 -0.028917909
0.017765997 -0.4078207 -0.045910835
-0.009803772 -0.38248774 -0.028818607
0.01776509 -0.38052776 -0.045792818
0.34541544 -0.38047329 -0.046264529
-0.0098056048 -0.35506237 -0.028699398
0.017764332 -0.35323089 -0.04569447
0.3454271 -0.35318419 -0.046127081
-0.0098071322 -0.32763332 -0.028600097
0.017763576 -0.32593235 -0.045596123
0.34543875 -0.32589301 -0.045989513
-0.0098086633 -0.30020255 -0.028500795
0.017762819 -0.29863238 -0.045497775
0.34545207 -0.29860151 -0.045832157
-0.0098101906 -0.27277035 -0.028401494
0.017762061 -0.27133089 -0.045399427
0.3454704 -0.27131265 -0.045615792
-0.0098120272 -0.24533801 -0.028282285
0.017761152 -0.24402942 -0.04528141
0.34548873 -0.24402045 -0.045399308
-0.0098138601 -0.21790399 -0.028163195
0.017760241 -0.21672617 -0.045163393
0.34550869 -0.21672617 -0.045163393
-0.0098156966 -0.19046815 -0.028044105
0.017759336 -0.18942104 -0.045045257
0.34553033 -0.18942963 -0.044907451
-0.009817224 -0.16302922 -0.027944684
0.017758578 -0.16211307 -0.044947028
0.34555537 -0.16213119 -0.044612408
-0.0098184496 -0.13558805 -0.027865171
0.017757973 -0.13480276 -0.044868112
0.34558368 -0.13482998 -0.044277787
-0.009819977 -0.1081464 -0.02776587
0.017757062 -0.10749269 -0.044750214
0.34561369 -0.10752445 -0.043923378
-0.0098218136 -0.08070375 -0.027646661
0.017756306 -0.080180109 -0.044651628
0.34564203 -0.080212846 -0.043588877
-0.0098233446 -0.05325881 -0.027547359
0.017755548 -0.05286606 -0.044553399
0.34567204 -0.052896578 -0.043234229
-0.009824872 -0.025812343 -0.027448058
0.017754791 -0.025550526 -0.044455051
0.34569874 -0.025574166 -0.042919159
-0.0098264031 0.0016356613 -0.027348757
0.017754033 0.0017665997 -0.044356465
0.34572709 0.0017529596 -0.0425843
-0.0098279342 0.029085087 -0.027249336
0.017753277 0.029085143 -0.044258118
0.34575379 0.0290852 -0.042268991
0.017752368 0.056405336 -0.044139981
0.34578049 0.056422271 -0.041953683
0.01775161 0.083727121 -0.044041514
0.34580553 0.08376389 -0.041658044
0.017751003 0.1110501 -0.043962717
0.34583223 0.11111051 -0.041342616
0.017750245 0.13837472 -0.043864369
0.34587565 0.1384681 -0.040830016
0.017749485 0.16570088 -0.043765903
0.34592074 0.16583432 -0.040297389
0.017748578 0.19302931 -0.043647766
0.3459675 0.19320965 -0.039744854
0.017747669 0.22035973 -0.043529749
0.34601262 0.22059242 -0.039212108
0.01774691 0.24769074 -0.043431163
0.34607449 0.24799557 -0.038481474
0.017746152 0.27502331 -0.043332577
0.34618324 0.2754485 -0.037197351
0.017745394 0.30235735 -0.043234229
0.34629372 0.30292249 -0.035892606
0.017744787 0.3296912 -0.04315567
0.34640262 0.33041516 -0.034606695
0.017744031 0.3570281 -0.043057084
0.34651998 0.3579368 -0.033220887
0.017743271 0.38436648 -0.042958379
0.34653002 0.38535309 -0.033102036
0.017742513 0.41170657 -0.042860031
0.34628868 0.41245109 -0.035951972
0.017741757 0.43904799 -0.042761564
0.34599257 0.43943053 -0.039448857
0.017676849 0.46741739 -0.034329772
0.18163674 0.46609041 -0.045104146
0.34564537 0.46628192 -0.04354918
0.017666787 0.49498412 -0.033022881
0.34546205 0.49332336 -0.045714021
0.01765687 0.52256846 -0.031734824
0.31889933 0.52197307 -0.036031127
0.017646795 0.55017579 -0.030425906
0.31884149 0.54924595 -0.036782503
0.3462753 0.54934442 -0.036110163
0.017636713 0.57780319 -0.029116511
0.045072615 0.57518113 -0.046146631
0.017626625 0.60545087 -0.027805567
0.045072615 0.60269272 -0.044868112
0.045072615 0.63022727 -0.043569088
0.3186408 0.63093519 -0.03938961
0.045072615 0.65778208 -0.042268872
0.34682384 0.66001946 -0.02963233
0.045072615 0.68535364 -0.04098773
0.29176214 0.68692398 -0.032487988
0.34590402 0.68544453 -0.040494561
0.045072615 0.71294874 -0.039685607
0.045072615 0.74055994 -0.038402557
0.34645119 0.74143457 -0.034032822
0.045072615 0.76819539 -0.037098765
0.34700713 0.77019703 -0.027467847
0.045072615 0.79603857 -0.034923315
0.045072615 0.82502329 -0.027785659
0.072381809 0.82105172 -0.045576453
0.072436422 0.84999955 -0.038481355
0.31901354 0.85090804 -0.034547448
0.072491564 0.87907261 -0.031318545
-0.037492163 -0.93417054 -0.017984629
-0.037505083 -0.90679544 -0.017425179
-0.03751801 -0.87941164 -0.016865492
-0.037531398 -0.85202426 -0.016285777
-0.037544787 -0.824628 -0.015705943
-0.037557721 -0.79721826 -0.015145779
-0.0099121965 -0.76819474 -0.02177608
0.18267211 -0.76899195 -0.018204451
0.34707442 -0.76710135 -0.02667284
-0.0099121965 -0.74070227 -0.021775961
-0.0099121965 -0.71320993 -0.021775961
0.29219118 -0.7122705 -0.026295185
-0.0099121965 -0.68571734 -0.02177608
0.34850696 -0.68812329 -0.0097557306
-0.0099121965 -0.658225 -0.02177608
0.34769687 -0.65869713 -0.019322515
-0.0099121965 -0.6307326 -0.021775961
0.31998441 -0.63070315 -0.021935463
0.34763601 -0.63105315 -0.02004087
-0.0099121965 -0.60324019 -0.021775961
0.34741652 -0.60308844 -0.022632957
-0.0099118911 -0.57574451 -0.021795869
-0.0099118911 -0.54825217 -0.021795869
-0.0099118911 -0.52075982 -0.021795869
-0.0099118911 -0.49326763 -0.021795869
0.26574099 -0.46741873 -0.0099360943
-0.0099118911 -0.46577543 -0.021795869
-0.0099118911 -0.43828326 -0.021795869
-0.037635885 -0.41202688 -0.011761427
0.34757519 -0.41091856 -0.020759106
-0.037638202 -0.384469 -0.011661053
-0.037640519 -0.35690939 -0.011560798
-0.037643299 -0.32935041 -0.011440516
-0.037645608 -0.30178782 -0.011340261
-0.037647918 -0.27422345 -0.011240125
-0.037650704 -0.24665914 -0.011119723
-0.037653022 -0.21909174 -0.011019349
-0.037655801 -0.19152388 -0.010899186
-0.03765858 -0.16395433 -0.010778666
-0.037660427 -0.13638088 -0.010698676
-0.037662745 -0.10880712 -0.010598302
-0.037665062 -0.081231698 -0.010498047
-0.037667841 -0.053655263 -0.010377526
-0.037670158 -0.02607666 -0.010277271
-0.037672468 0.001503475 -0.010177016
-0.037674785 0.029085087 -0.010076523
-0.037677109 0.056668404 -0.009976387
-0.009829767 0.056536332 -0.027130008
-0.037679888 0.08425343 -0.0098559856
-0.0098312981 0.083988935 -0.027030706
-0.037681744 0.11183953 -0.0097756386
-0.00983252 0.11144285 -0.026951313
-0.037684061 0.13942739 -0.0096753836
-0.0098340511 0.13889836 -0.026851773
-0.03768637 0.16701674 -0.0095750093
-0.0098355785 0.16635574 -0.026752472
-0.037689157 0.19460869 -0.009454608
-0.0098374151 0.19381529 -0.026633143
-0.037691474 0.22220139 -0.0093541145
-0.0098392516 0.22127666 -0.026513815
-0.03769426 0.24979675 -0.0092337132
-0.0098407827 0.2487388 -0.026414394
-0.0098423138 0.27620238 -0.026315093
-0.037696578 0.2773928 -0.0091333389
-0.037698887 0.30499014 -0.0090332031
-0.0098438449 0.30366746 -0.026215672
-0.037700742 0.33258754 -0.0089527369
-0.0098450705 0.33113235 -0.02613616
-0.037703067 0.3601878 -0.0088522434
-0.0098466016 0.35860041 -0.026036739
-0.037705384 0.3877897 -0.0087519884
-0.0098481327 0.38607001 -0.025937319
-0.037707701 0.41539326 -0.0086516142
-0.0098496638 0.41354111 -0.025837898
-0.037710018 0.44299817 -0.0085510015
-0.0098511949 0.44101375 -0.025738239
-0.0099828765 0.46952903 -0.01718533
0.26469803 0.46833602 -0.0268718
-0.01000319 0.49722955 -0.015865803
-0.010023523 0.5249505 -0.014545441
-0.010043558 0.55268884 -0.013243914
-0.010063916 0.58045042 -0.011921525
0.34711823 0.57825887 -0.026155949
-0.01008429 0.60823268 -0.010598421
0.34754312 0.60652882 -0.021138072
-0.010104682 0.63603556 -0.0092738867
0.017616682 0.63311571 -0.026513696
0.34739795 0.63373584 -0.022852063
0.017606577 0.66080409 -0.025201201
0.017596465 0.6885128 -0.023887634
0.017586499 0.7162379 -0.022593141
0.01757637 0.74398756 -0.021277547
0.017566392 0.77175319 -0.019981027
0.017543638 0.79989636 -0.017025352
0.34804377 0.80028433 -0.015225887
0.017488139 0.82903486 -0.0098155737
0.045072615 0.85412902 -0.020599365
0.045072615 0.88335729 -0.013364077
-0.065562688 -0.91131479 -0.00015771389
-0.065579467 -0.88379449 0.00038719177
-0.065596871 -0.85627061 0.00095236301
-0.065613657 -0.82873338 0.0014976263
-0.065632313 -0.80120182 0.0021035671
-0.037801944 -0.77203554 -0.004570365
-0.037801944 -0.74441075 -0.0045706034
-0.037801944 -0.71678591 -0.0045704842
-0.037801944 -0.689161 -0.0045704842
-0.037801944 -0.66153622 -0.0045704842
0.37681833 -0.6620518 -0.0018918514
-0.037801482 -0.63390756 -0.0045906305
0.37661362 -0.63399684 -0.0041077137
-0.037801482 -0.60628289 -0.0045907497
0.37647605 -0.60610473 -0.0055967569
-0.037801482 -0.57865816 -0.0045906305
0.37639248 -0.57833451 -0.0065016747
-0.037801482 -0.55103362 -0.0045906305
0.37641662 -0.55076683 -0.0062401295
-0.037801482 -0.52340871 -0.0045907497
0.37670851 -0.52364135 -0.0030806065
-0.037801482 -0.49578413 -0.0045907497
0.37708852 -0.4966068 0.0010333061
-0.037801482 -0.46815941 -0.0045907497
0.37722659 -0.46914575 0.0025277138
-0.037801012 -0.44053203 -0.0046108961
0.37728071 -0.44154307 0.0031138659
-0.065738782 -0.41416043 0.0055613518
0.37723407 -0.41379687 0.0026086569
-0.065741897 -0.38646922 0.005662322
0.37721166 -0.38608861 0.0023661852
-0.065745011 -0.35877666 0.0057636499
0.37721723 -0.35841694 0.0024267435
-0.065748751 -0.33108437 0.005885005
0.37722099 -0.3307423 0.0024672747
-0.065751866 -0.3033883 0.0059862137
0.37722659 -0.30306891 0.002527833
-0.065754987 -0.27569085 0.0060875416
0.37725085 -0.27541155 0.002790451
-0.065758102 -0.24799164 0.0061887503
0.37727326 -0.24774875 0.0030329227
-0.065761842 -0.22029239 0.0063102245
0.37729752 -0.22008359 0.0032958984
-0.065765582 -0.19259128 0.0064316988
0.37732181 -0.1924143 0.0035586357
-0.065768704 -0.16488719 0.0065330267
0.37734795 -0.16474211 0.0038416386
-0.065771826 -0.13718146 0.0066341162
0.37737596 -0.13706654 0.004144907
-0.06577494 -0.10947424 0.0067354441
0.37740397 -0.10938628 0.0044484138
-0.065778062 -0.081765622 0.006836772
0.3774339 -0.08170186 0.0047720671
-0.065781176 -0.05405518 0.0069379807
0.37746754 -0.054013636 0.0051362514
-0.065784916 -0.026343592 0.0070595741
0.37749931 -0.026319269 0.0054802895
-0.065787412 0.0013701506 0.0071407557
0.37752923 0.0013804939 0.0058041811
0.3775517 0.029085143 0.0060471296
-0.065790534 0.0290852 0.0072419643
-0.065794274 0.056801956 0.0073635578
0.37757227 0.056793544 0.0062699318
-0.065798022 0.084520355 0.0074851513
0.37759843 0.084506206 0.0065534115
-0.065800518 0.11224008 0.0075660944
0.37762088 0.11222222 0.00679636
-0.065803632 0.13996132 0.0076674223
0.37767327 0.13995199 0.0073635578
-0.065806754 0.1676845 0.007768631
0.37772384 0.16768979 0.0079107285
-0.065810494 0.19540983 0.0078902245
0.37777251 0.19543496 0.0084376335
-0.065813623 0.22313619 0.0079917908
0.37782308 0.2231895 0.0089850426
-0.065817364 0.25086522 0.0081133842
0.37790364 0.25097257 0.0098572969
-0.065820485 0.27859446 0.0082145929
-0.065822974 0.30632406 0.0082956553
-0.065826103 0.3340565 0.0083969831
-0.065828599 0.36178872 0.0084780455
-0.065832339 0.38952622 0.0085997581
-0.065835468 0.41726333 0.008701086
-0.065837957 0.44499978 0.0087822676
-0.037910387 0.47166127 0.00012505054
0.21116827 0.47200686 0.0029319525
0.23841947 0.47102097 -0.0050736666
-0.03794115 0.49949646 0.0014572144
-0.037971944 0.52735251 0.002790451
-0.03800229 0.55522633 0.0041046143
-0.03803312 0.58312351 0.0054397583
0.37778935 0.58361298 0.0086201429
-0.038063981 0.61104143 0.0067759752
0.37774068 0.61125433 0.0080929995
-0.038094871 0.63897991 0.008113265
-0.038125306 0.66693592 0.0094313622
-0.010124777 0.66385525 -0.0079686642
-0.038156234 0.69491589 0.01077044
-0.010145195 0.69169891 -0.0066422224
-0.010165319 0.71955919 -0.0053350925
-0.010185771 0.74744415 -0.0040068626
-0.010206234 0.77534968 -0.0026775599
-0.010263681 0.80379331 0.0010535717
-0.010376118 0.83309191 0.0083565712
0.017432103 0.85830051 -0.0025367737
0.017375842 0.88768506 0.0047720671
-0.093893379 -0.91588348 0.017297864
-0.093914554 -0.88822997 0.017848015
-0.093935743 -0.86056823 0.018398523
-0.093956918 -0.83289796 0.018949151
-0.093978897 -0.80522382 0.019520044
-0.094000101 -0.77753651 0.020070672
-0.065961093 -0.77590925 0.012781024
-0.065961093 -0.74815089 0.012781143
-0.065961093 -0.72039229 0.012780905
-0.065961093 -0.69263393 0.012781024
-0.065961093 -0.66487545 0.012781024
-0.065961093 -0.63711715 0.012781024
-0.065961093 -0.60935861 0.012780905
-0.065961093 -0.58160031 0.012781024
-0.065960474 -0.55383861 0.012760758
-0.065960474 -0.52608031 0.012760878
-0.065960474 -0.49832204 0.012760878
-0.065960474 -0.47056374 0.012760878
-0.065960474 -0.4428055 0.012760878
-0.094114855 -0.41631484 0.023052096
-0.094118789 -0.38848907 0.023154259
-0.094122723 -0.3606618 0.02325654
-0.094127446 -0.33283502 0.023378968
-0.09413138 -0.30500442 0.023481369
-0.094135314 -0.2771723 0.023583651
-0.094139248 -0.24933858 0.023685813
-0.094143972 -0.2215047 0.023808479
-0.094148681 -0.19366895 0.023931146
-0.094152614 -0.16583018 0.024033427
-0.094156548 -0.13798992 0.024135709
-0.094159707 -0.11014718 0.024217486
-0.094164431 -0.082304597 0.024340272
-0.094168365 -0.054459352 0.024442315
-0.094172299 -0.026612911 0.024544716
-0.094176233 0.001235405 0.024646759
-0.094180167 0.029085143 0.024749041
-0.094184905 0.056936644 0.024871945
-0.094189614 0.084790081 0.024994612
-0.094192773 0.11264448 0.025076509
-0.094196707 0.14050063 0.02517879
-0.094200656 0.16835839 0.025281072
-0.09420459 0.19621773 0.025383472
-0.094209313 0.22407997 0.025506258
-0.094214037 0.2519438 0.025629044
-0.094217196 0.2798067 0.025710821
0.37803489 0.27880678 0.011278033
-0.09422113 0.30767277 0.025813222
0.37816623 0.30666322 0.012699962
-0.094225064 0.33554 0.025915623
0.37829769 0.3345415 0.014122963
-0.094228223 0.36340725 0.025997519
0.37844804 0.36246052 0.015750527
-0.094232947 0.39127955 0.026120305
0.3786644 0.3904762 0.018092632
-0.094236881 0.41915172 0.026222587
0.37888294 0.41853046 0.020458341
0.37911499 0.44663805 0.022970557
-0.06610959 0.47381401 0.017603636
0.37891313 0.47420579 0.020785093
-0.066151015 0.50178558 0.018949151
0.37868136 0.50169748 0.018276095
-0.06619247 0.52977818 0.020295143
0.37833148 0.5289734 0.014488697
-0.066233329 0.55778849 0.021622062
0.3780199 0.55625165 0.011115432
-0.066274844 0.5858224 0.022970557
-0.066316396 0.61387753 0.02431953
-0.06635797 0.64195341 0.025670171
0.37849882 0.64036667 0.016300201
-0.066398948 0.67004663 0.027000904
-0.06644059 0.69816434 0.028353214
-0.066482261 0.72630298 0.029706359
-0.038187183 0.72291672 0.012110591
-0.038217686 0.75093454 0.013431549
-0.038248681 0.7789768 0.014773607
-0.038353585 0.8077296 0.019316077
-0.038524434 0.83719003 0.026714087
0.35068229 0.83478332 0.015933633
-0.01048933 0.86251432 0.015709639
-0.010602687 0.89205229 0.023072481
-0.066856802 -0.95029718 0.041870117
-0.12249404 -0.92045927 0.034780145
-0.1225197 -0.89267254 0.035335541
-0.12254536 -0.86487734 0.035891056
-0.12257104 -0.83707362 0.036446929
-0.1225986 -0.80927098 0.037044168
-0.12262525 -0.7814545 0.037620902
-0.12310527 -0.75574493 0.048013449
-0.094394654 -0.75193161 0.030321717
-0.12310527 -0.72771543 0.048013568
-0.094394654 -0.72403818 0.030321836
-0.12310527 -0.69968575 0.048013449
-0.094394654 -0.6961447 0.030321836
-0.12310527 -0.67165583 0.048013449
-0.094394654 -0.66825122 0.030321836
-0.12310527 -0.64362633 0.048013568
-0.094394654 -0.64035773 0.030321836
-0.12310527 -0.61559671 0.048013568
-0.094393879 -0.61246079 0.030301452
-0.12310527 -0.58756703 0.048013449
-0.094393879 -0.58456737 0.030301452
-0.12310527 -0.55953735 0.04801333
-0.094393879 -0.55667412 0.030301332
-0.12310527 -0.53150785 0.048013568
-0.094393879 -0.52878076 0.030301332
-0.1231043 -0.50347507 0.047992468
-0.094393879 -0.50088751 0.030301332
-0.1231043 -0.47544566 0.047992587
-0.094393879 -0.47299424 0.030301452
-0.1231043 -0.44741622 0.047992706
-0.094393879 -0.44510096 0.030301332
-0.12276715 -0.41848752 0.040693164
-0.12277193 -0.39052618 0.040796399
-0.12277764 -0.36256534 0.040920258
-0.12278241 -0.33460081 0.041023493
-0.12278813 -0.30663636 0.041147351
-0.1227929 -0.27866837 0.041250587
-0.12279765 -0.25069866 0.041353703
-0.12280339 -0.22272883 0.041477561
-0.12280911 -0.19475707 0.041601419
-0.12281387 -0.16678248 0.041704774
-0.1228177 -0.13880515 0.041787148
-0.12282246 -0.11082743 0.041890621
-0.12282722 -0.082848072 0.041993856
-0.12283295 -0.054867681 0.042117834
-0.12283772 -0.026884958 0.042221069
-0.12284249 0.00109924 0.042324305
-0.12284726 0.029085087 0.04242754
-0.12285298 0.057072695 0.042551517
-0.12285775 0.085061841 0.042654753
-0.12286253 0.11305268 0.042757988
-0.1228673 0.14104506 0.042861223
-0.12287207 0.169039 0.042964816
-0.12287685 0.19703449 0.043068171
-0.12288257 0.22503291 0.04319191
-0.1228883 0.25303295 0.043316007
-0.12289211 0.2810322 0.043398619
-0.12289688 0.30903414 0.043502092
-0.12290071 0.3370364 0.043584704
-0.12290548 0.36504129 0.04368794
-0.1229112 0.39305022 0.043812156
-0.12291598 0.42105857 0.04391551
-0.094533011 0.44790211 0.033916235
-0.09458448 0.47598788 0.035253167
-0.094636753 0.50409698 0.036611676
-0.094689086 0.53222728 0.037971139
-0.094741449 0.56037873 0.039331675
-0.094793066 0.58854789 0.040672541
-0.094845504 0.61674112 0.042035222
-0.094898 0.64495564 0.043398738
-0.094950512 0.67319149 0.044763446
0.38013944 0.6712966 0.03406024
-0.095002279 0.70144457 0.046108246
-0.095054895 0.72972274 0.047474861
-0.095107526 0.75802195 0.04884243
-0.066523962 0.7544629 0.031060696
-0.066565059 0.7826395 0.03239572
-0.066731036 0.81171083 0.037785769
-0.066960536 0.84132558 0.045238972
-0.038695514 0.86676639 0.03412199
-0.038867772 0.89646924 0.041580796
-0.038928367 0.92509574 0.04420507
-0.15137301 -0.92507941 0.05243206
-0.15140323 -0.89715827 0.052993178
-0.1514346 -0.86923337 0.0535748
-0.15146707 -0.84130496 0.05417788
-0.15149957 -0.81336713 0.054780841
-0.15152872 -0.78540617 0.055321693
-0.15209872 -0.75960016 0.065899372
-0.15209872 -0.73143274 0.065899491
-0.15209872 -0.70326555 0.065899491
-0.15209872 -0.67509824 0.065899491
-0.15209872 -0.64693081 0.065899611
-0.15209872 -0.61876363 0.065899611
-0.1520976 -0.59059256 0.06587863
-0.1520976 -0.56242543 0.06587851
-0.1520976 -0.53425831 0.06587851
-0.1520976 -0.50609112 0.06587863
-0.1520976 -0.47792408 0.06587863
-0.1520976 -0.44975674 0.06587863
-0.1517015 -0.42068428 0.058528304
0.32549676 -0.41959348 0.049671769
-0.15170711 -0.39258572 0.058632493
-0.15171275 -0.36448562 0.058736682
0.41120815 -0.36521471 0.065502048
-0.15171947 -0.33638591 0.058861613
0.41117468 -0.337017 0.065167427
-0.15172619 -0.30828434 0.058986664
0.41113701 -0.30882049 0.064791083
-0.15173073 -0.28017718 0.05907011
0.41112652 -0.28065276 0.064686179
-0.15173745 -0.25207216 0.059195161
0.41111818 -0.25248837 0.064602733
-0.15174419 -0.223965 0.059320211
0.41111189 -0.22432669 0.064539909
-0.15175092 -0.19585606 0.059445262
0.4111056 -0.19616601 0.064477444
-0.15175654 -0.167744 0.059549689
0.41111189 -0.16801286 0.064539909
-0.15176104 -0.13962936 0.059632897
0.41111401 -0.13985704 0.06456089
-0.15176667 -0.11151429 0.059737444
0.41111606 -0.11170086 0.064581871
-0.15177228 -0.083397686 0.059841394
0.41112027 -0.083544925 0.064623475
-0.15177789 -0.055279415 0.059945941
0.41113281 -0.055390295 0.064749002
-0.15178464 -0.027159791 0.060070872
0.41113701 -0.02723242 0.064790726
-0.15179026 0.00096193701 0.06017518
-0.15179588 0.029085143 0.060279489
-0.15180263 0.057210226 0.060404658
0.41116002 0.057245746 0.065020919
-0.15180823 0.085336953 0.060509086
0.41116002 0.085406117 0.065021038
-0.15181385 0.11346516 0.060613394
0.41111818 0.11355734 0.064602613
-0.15181948 0.14159484 0.060717702
0.41116419 0.14172874 0.065062761
-0.1518251 0.16972636 0.06082201
0.41120815 0.16990656 0.065501928
-0.15183073 0.19785939 0.060926437
0.41125214 0.19809097 0.065941453
-0.15183748 0.22599511 0.061051488
0.41129822 0.22628357 0.06640172
-0.1518431 0.25413164 0.061155915
0.41139039 0.25451151 0.067322969
-0.15184872 0.28226981 0.061260343
-0.15185435 0.31040943 0.061364412
-0.15185885 0.3385489 0.061448097
-0.15186447 0.36669165 0.061552405
-0.15187009 0.39483583 0.061656952
-0.15187685 0.42298403 0.061782002
-0.12327674 0.44995835 0.051726103
-0.12334006 0.47818562 0.05309701
-0.12340343 0.50643396 0.05446887
-0.12346587 0.53470051 0.055820942
-0.12352933 0.56299132 0.057194948
-0.12359284 0.59130335 0.058569789
-0.12365639 0.61963683 0.059945941
-0.12371904 0.6479879 0.061302185
-0.12378268 0.67636377 0.062680125
-0.12384638 0.70476121 0.064059138
0.38157773 0.70209539 0.049630404
-0.12391013 0.73317999 0.065439224
0.38271764 0.7325123 0.061969995
-0.12397295 0.76161587 0.066799521
-0.095160216 0.78634226 0.050211191
-0.095400155 0.81573272 0.056445479
-0.095689997 0.84550834 0.063975573
-0.067190982 0.8710621 0.05272305
-0.067423023 0.90092641 0.060258746
0.18583442 0.92996079 0.06395483
-0.18053569 -0.92975003 0.07027781
-0.18057187 -0.90169829 0.070865273
-0.18060933 -0.87364262 0.071473837
-0.18064682 -0.8455776 0.07208252
-0.18068303 -0.81749862 0.072670817
-0.18071668 -0.78940111 0.073216915
-0.18137713 -0.76348877 0.083940744
-0.18137713 -0.73518276 0.083940864
-0.18137713 -0.70687658 0.083941102
-0.18137713 -0.67857021 0.083940864
-0.18137713 -0.65026397 0.083940983
-0.18137713 -0.62195778 0.083941102
-0.18137713 -0.59365153 0.083940983
-0.18137713 -0.56534535 0.083941102
-0.18137713 -0.53703922 0.083941102
-0.18137713 -0.50873291 0.083940983
-0.18137713 -0.48042676 0.083941102
-0.18137582 -0.45211771 0.083920002
-0.18092129 -0.42290267 0.07653904
-0.18092775 -0.39466548 0.076644063
0.4123843 -0.39473605 0.077254653
-0.18093424 -0.36642691 0.076749444
-0.18094201 -0.33818856 0.076875806
-0.18094979 -0.3099485 0.077002048
-0.18095498 -0.28170282 0.07708621
-0.18096276 -0.25345904 0.077212691
-0.18097053 -0.22521327 0.077338934
-0.180977 -0.19696453 0.077444315
-0.1809848 -0.16871507 0.077570438
-0.18098998 -0.14046182 0.077654839
-0.18099648 -0.11220807 0.077759981
-0.18100296 -0.083952636 0.077865481
-0.18100946 -0.05569553 0.077970505
-0.18101722 -0.027437352 0.078097105
-0.1810237 0.00082315691 0.078202248
0.41277239 0.00080059655 0.08113277
-0.1810289 0.029085087 0.078286767
0.41293716 0.029085087 0.08277905
-0.18103668 0.05734878 0.078413129
-0.18104447 0.085614458 0.078539371
-0.18105096 0.11388133 0.078644753
-0.18105744 0.14215019 0.078750014
-0.18106394 0.17042054 0.078855395
-0.18107043 0.19869241 0.078961015
-0.1810782 0.22696713 0.079087257
-0.18108469 0.25524247 0.079192877
-0.18109119 0.28351957 0.079298139
0.41152877 0.28278559 0.068705678
-0.18109637 0.31179643 0.07938242
0.41166723 0.31108099 0.07008934
-0.18110287 0.34007645 0.07948792
0.41180789 0.3393997 0.071494818
-0.18110937 0.36835796 0.079593182
0.41199702 0.36778456 0.073384762
-0.18111585 0.39664137 0.079698801
0.41226003 0.39627254 0.076013088
-0.18112364 0.42492855 0.079825282
0.4125213 0.42479908 0.078623891
-0.15230414 0.45203528 0.069711804
0.41279987 0.45338586 0.08140707
-0.15237875 0.48040259 0.071096301
0.41310421 0.4820472 0.084448338
-0.15245339 0.50879121 0.072481513
-0.15252811 0.53720129 0.073868036
-0.15260288 0.565633 0.075255632
-0.15267657 0.59408289 0.076623321
-0.15275146 0.6225574 0.078012824
-0.15282638 0.65105331 0.07940352
-0.15290138 0.67957115 0.080795288
-0.15297529 0.70810658 0.082167029
-0.15305041 0.73666739 0.083560705
-0.15312557 0.76524979 0.084955692
0.38351414 0.76237512 0.070592642
-0.12403679 0.79007751 0.068181634
-0.15321791 0.79392004 0.086668968
0.38449949 0.7927956 0.08125937
-0.12436546 0.8197962 0.075297713
-0.12471786 0.84973896 0.082927108
-0.095981836 0.87541187 0.071557999
-0.096274078 0.90543467 0.079150677
0.2142711 0.90327746 0.070110202
-0.067698605 0.9312551 0.069208622
0.15810132 0.93331498 0.077570558
-0.2100293 -0.90628868 0.088934898
-0.21007335 -0.87810057 0.089570642
-0.21011451 -0.84989274 0.090164185
-0.21015418 -0.82167071 0.090736508
-0.21019235 -0.79343534 0.091288328
-0.21094716 -0.76742083 0.10218275
-0.21094716 -0.73897415 0.10218263
-0.21094716 -0.7105276 0.10218275
-0.21094716 -0.68208092 0.10218275
-0.35352337 -0.65422219 0.10536528
-0.21094716 -0.65363431 0.10218275
-0.35262454 -0.62427461 0.097025394
-0.21094716 -0.62518775 0.10218275
-0.3523289 -0.5954029 0.094282031
-0.21094716 -0.59674108 0.10218275
-0.35280353 -0.56772906 0.09868598
-0.21094567 -0.56829089 0.10216153
-0.21094567 -0.53984439 0.10216141
-0.21094567 -0.51139796 0.10216129
-0.21094567 -0.48295137 0.10216129
-0.21094567 -0.45450494 0.10216141
-0.21043071 -0.42514303 0.09472847
-0.21043807 -0.39676598 0.094834447
-0.21044543 -0.36838731 0.094940901
-0.2104528 -0.34000719 0.095047355
-0.21046162 -0.31162712 0.09517467
0.44360182 -0.31251127 0.10474563
0.47076672 -0.31147015 0.093474627
0.49968064 -0.31187096 0.09781301
-0.21046901 -0.28324345 0.095281005
0.49882218 -0.28286767 0.090842843
-0.21047786 -0.25485978 0.095408559
-0.21048668 -0.22647418 0.095536351
-0.21049404 -0.19808525 0.095642686
-0.21050289 -0.16969582 0.09577024
-0.21050879 -0.14130245 0.095855117
-0.21051466 -0.11290783 0.095940471
-0.21052203 -0.084512413 0.096046686
-0.21053088 -0.05611613 0.096174479
-0.21053827 -0.02771724 0.096280575
-0.21054709 0.00068295747 0.096408248
-0.21055299 0.029085087 0.096493363
-0.21056184 0.057488866 0.096620917
-0.21057069 0.085894801 0.09674871
-0.21057802 0.11430216 0.096855044
-0.21058542 0.14271078 0.096961498
-0.21059278 0.17112143 0.097067833
-0.21060017 0.19953373 0.097174406
-0.21060753 0.22794746 0.09728086
-0.21061641 0.25636429 0.097408533
-0.21062377 0.28478155 0.097514987
-0.21062967 0.31319883 0.097599983
-0.21063703 0.34161925 0.097706556
-0.21064442 0.37004122 0.097813249
-0.21065179 0.39846489 0.097919345
-0.21066064 0.42689243 0.098047137
-0.2112284 0.45625335 0.10624206
-0.18162072 0.45413512 0.087896705
-0.18170685 0.48264408 0.08929503
-0.18179302 0.51117468 0.090694427
0.4134599 0.51082236 0.08800292
-0.18187794 0.53972381 0.092073321
0.41386303 0.53971797 0.092030883
-0.35294133 0.56924689 0.099964619
-0.18196426 0.56829768 0.093474746
0.41427341 0.56868625 0.096131682
-0.35250989 0.5970602 0.095961452
-0.18205062 0.59689319 0.094877362
0.41471031 0.59775859 0.1004976
-0.35242054 0.62532496 0.095132351
-0.18213706 0.62551045 0.096280694
0.41522312 0.62702066 0.10562193
-0.35278058 0.65428299 0.098473072
-0.18222223 0.65414596 0.097663999
-0.18230879 0.68280673 0.099069595
-0.18239543 0.71148926 0.10047626
-0.18248214 0.74019367 0.10188413
-0.18256755 0.76891577 0.10327148
-0.18272549 0.79790378 0.1058358
-0.15363155 0.82390189 0.094345927
0.38641655 0.82555425 0.10201216
-0.15404697 0.85400921 0.10205472
-0.12507074 0.87980187 0.090566874
-0.011627145 0.93628126 0.08961308
0.130234 0.93747324 0.094452143
-0.23978204 -0.91093528 0.10722637
-0.23982489 -0.88258696 0.10778272
-0.23987269 -0.85424519 0.10840333
-0.23991883 -0.82588929 0.10900331
-0.23996007 -0.79750967 0.10953879
-0.24081203 -0.77139199 0.1206063
-0.24081039 -0.74279898 0.12058485
-0.24081203 -0.71421504 0.12060642
-0.35467637 -0.68475223 0.11606371
-0.24081039 -0.68562239 0.12058473
-0.38317522 -0.65611142 0.11559093
-0.24081039 -0.65703416 0.12058473
-0.38234037 -0.62628138 0.10836077
-0.24081039 -0.62844568 0.12058473
-0.41290903 -0.60063964 0.12520313
-0.38229835 -0.59772569 0.1079967
-0.24081039 -0.59985751 0.12058485
-0.38296685 -0.5701701 0.1137861
-0.32652569 -0.57118905 0.12008917
-0.24081039 -0.57126915 0.12058485
-0.35431984 -0.54147542 0.11275554
-0.32562217 -0.54121453 0.11106062
-0.24081039 -0.54268092 0.12058473
-0.32675442 -0.51435435 0.12237477
-0.24081039 -0.5140925 0.12058473
-0.24081039 -0.4855043 0.12058485
-0.24081039 -0.45691592 0.12058485
-0.24023414 -0.42740569 0.11309898
-0.24024239 -0.39888728 0.11320627
-0.24025068 -0.37036753 0.11331367
-0.24025893 -0.34184593 0.11342096
0.44485402 -0.34214056 0.11636496
-0.24026886 -0.31332457 0.11354983
-0.24027708 -0.28479964 0.11365736
-0.24028704 -0.25627446 0.1137861
-0.24029529 -0.22774605 0.11389351
-0.24030522 -0.19921713 0.11402237
-0.24031514 -0.17068627 0.11415112
-0.24032173 -0.14215156 0.11423719
-0.24032834 -0.11361536 0.11432302
-0.24033663 -0.085078493 0.11443043
-0.24034655 -0.056540657 0.11455941
-0.24035481 -0.02800037 0.11466682
-0.24036309 0.00054161996 0.11477411
-0.24037138 0.029085087 0.11488152
-0.2403813 0.057630546 0.1150105
-0.24039119 0.086177871 0.11513972
-0.24039948 0.11472674 0.11524689
-0.24040774 0.1432772 0.11535442
-0.24041605 0.17182948 0.11546206
-0.24042431 0.20038339 0.11556947
-0.24043259 0.22893862 0.11567688
-0.24044248 0.25749716 0.11580598
-0.2404508 0.28605619 0.11591339
-0.24045742 0.3146151 0.11599922
-0.2404657 0.34317723 0.11610687
-0.24047396 0.37174097 0.11621451
-0.24048221 0.40030643 0.11632192
-0.24049053 0.42887342 0.11642945
-0.24113432 0.45839545 0.12479258
-0.21132624 0.48490518 0.10765421
-0.21142417 0.51357895 0.10906744
-0.35412329 0.54233718 0.11093211
-0.21152213 0.54227477 0.11048174
-0.383138 0.5714854 0.11526847
-0.21162018 0.57099223 0.11189711
-0.38236758 0.5990054 0.10859621
-0.21171683 0.59972835 0.11329222
-0.3822588 0.62734908 0.10765421
-0.21181506 0.62848979 0.11470973
-0.38300404 0.65693092 0.11410832
-0.21191335 0.65727317 0.11612844
0.41581675 0.65649837 0.11155391
-0.35410249 0.68487298 0.11073899
-0.21201169 0.68607837 0.11754799
0.41654158 0.68629944 0.11879659
-0.21211013 0.71490586 0.11896884
-0.21220717 0.74375123 0.12036932
-0.21230572 0.77262264 0.1217922
-0.21254206 0.8019293 0.12520313
-0.18320319 0.82805049 0.11359298
-0.18368158 0.8583191 0.12136078
-0.15446296 0.88423771 0.10977459
0.016539957 0.94213033 0.11335671
0.045072615 0.94352335 0.119012
0.073654115 0.94369298 0.11970139
0.10210787 0.9416492 0.1114037
-0.26982638 -0.91561174 0.12563515
-0.26987761 -0.88713372 0.12624061
-0.26992705 -0.85864127 0.1268245
-0.26997653 -0.83013982 0.12740862
-0.27002415 -0.80162442 0.12797093
-0.27097437 -0.77539808 0.1391927
-0.27097437 -0.74666649 0.1391927
-0.35713148 -0.71786529 0.13884437
-0.27097437 -0.71793503 0.1391927
-0.38539085 -0.68835396 0.13477862
-0.27097437 -0.68920332 0.1391927
-0.41474208 -0.66063696 0.1400857
-0.27097437 -0.66047192 0.1391927
-0.41332459 -0.62986088 0.12857711
-0.27097437 -0.63174039 0.1391927
-0.27097437 -0.60300887 0.1391927
-0.41360202 -0.57292533 0.13082957
-0.27097437 -0.57427728 0.13919282
-0.41487893 -0.54585439 0.14119685
-0.38448238 -0.54365486 0.12691104
-0.27097437 -0.5455457 0.13919282
-0.35656926 -0.51600027 0.13362777
-0.30017111 -0.51755071 0.1442287
-0.27097252 -0.51681101 0.139171
-0.27097252 -0.4880797 0.139171
-0.27097252 -0.45934829 0.139171
-0.27097252 -0.43061689 0.139171
-0.2703433 -0.40102747 0.13174033
-0.27035251 -0.372365 0.13184845
-0.27036351 -0.34370303 0.13197875
-0.27037454 -0.31503898 0.13210881
-0.27038372 -0.28637123 0.13221741
-0.27039474 -0.25770342 0.13234746
-0.27040392 -0.22903205 0.13245595
-0.27041495 -0.20036043 0.13258624
-0.27042598 -0.1716866 0.13271618
-0.27043334 -0.14300907 0.13280308
-0.27044067 -0.11432995 0.13288987
-0.27044985 -0.085650325 0.13299835
-0.27045903 -0.056968931 0.13310683
-0.27047005 -0.028286226 0.133237
-0.27047923 0.00039852038 0.13334537
-0.27048844 0.029085143 0.13345408
-0.27049947 0.05777353 0.13358438
-0.27051049 0.086463898 0.13371456
-0.27051967 0.11515582 0.13382304
-0.27052888 0.14384937 0.13393164
-0.27053806 0.17254457 0.13404012
-0.27054727 0.20124148 0.13414896
-0.27055645 0.22993998 0.13425732
-0.27056751 0.25864163 0.13438761
-0.27057484 0.28734207 0.13447464
-0.27058405 0.31604558 0.13458312
-0.27059326 0.34475091 0.1346916
-0.27060059 0.373456 0.13477838
-0.27061161 0.40216649 0.13490891
-0.27062079 0.43087691 0.13501751
-0.27133983 0.46055672 0.14350843
-0.24124411 0.48719195 0.12621903
-0.35657626 0.51680171 0.13369274
-0.32774809 0.51661986 0.13230419
-0.24135232 0.5160076 0.12762487
-0.38458729 0.54467702 0.12781954
-0.32774159 0.54528952 0.1322391
-0.24146229 0.54484797 0.12905335
-0.41388252 0.57409436 0.13310695
-0.24157235 0.5737105 0.13048315
-0.41316733 0.60188508 0.12730038
-0.24168247 0.60259545 0.13191378
-0.41317266 0.63053203 0.12734377
-0.24179271 0.63150251 0.13334548
-0.41404828 0.66037643 0.13445294
-0.24190301 0.66043156 0.13477838
-0.38504755 0.68860263 0.13180518
-0.32775027 0.68869489 0.13232589
-0.24201176 0.68937922 0.13619077
-0.35749307 0.71919769 0.14219964
-0.32778502 0.71743768 0.13267303
-0.24212053 0.71834874 0.13760424
-0.24212053 0.74706799 0.13760412
-0.24212053 0.77578747 0.13760412
-0.24212053 0.80450666 0.13760424
-0.21308362 0.83223784 0.13302004
-0.21362901 0.86267924 0.14089167
-0.18416332 0.88871998 0.12918341
-0.30022761 -0.89171541 0.14483988
-0.30028206 -0.86308122 0.14542973
-0.30033654 -0.83443761 0.14601922
-0.30038905 -0.80578041 0.14658761
-0.30045772 -0.7771523 0.14733112
-0.30144218 -0.75057298 0.15798795
-0.30144218 -0.72169691 0.15798807
-0.30144012 -0.69281656 0.15796626
-0.30144012 -0.66394049 0.15796626
-0.44470638 -0.63355714 0.1494534
-0.30144012 -0.63506442 0.15796638
-0.44420269 -0.60409462 0.14560449
-0.30144012 -0.60618818 0.15796614
-0.44452026 -0.57570606 0.14803088
-0.30144012 -0.57731211 0.15796626
-0.44550696 -0.54806727 0.15557075
-0.30144012 -0.54843599 0.15796614
-0.41674134 -0.51931882 0.15631759
-0.38656527 -0.51765609 0.1449492
-0.35958368 -0.49118724 0.16159809
-0.32990512 -0.49011484 0.15385842
-0.3003507 -0.48904976 0.14617252
-0.30144012 -0.46180791 0.15796614
-0.30144012 -0.43293187 0.15796614
-0.30074883 -0.40319169 0.1504823
-0.30075893 -0.37438497 0.15059185
-0.30077106 -0.34557891 0.15072346
-0.30078119 -0.31676874 0.15083289
-0.30079335 -0.28795862 0.15096426
-0.30080345 -0.2591449 0.15107381
-0.30081558 -0.23033099 0.15120518
-0.30082774 -0.20151511 0.15133679
-0.30083787 -0.17269596 0.15144634
-0.30084798 -0.14387517 0.1515559
-0.30085608 -0.11505176 0.15164363
-0.30086622 -0.086227715 0.15175307
-0.30087632 -0.057402145 0.15186274
-0.30088645 -0.028574698 0.15197241
-0.30089858 0.00025422871 0.1521039
-0.30090874 0.029085087 0.15221357
-0.30092087 0.057918049 0.15234494
-0.30093101 0.086752258 0.15245473
-0.30094314 0.11558898 0.15258622
-0.3009533 0.14442705 0.15269589
-0.3009634 0.17326683 0.15280545
-0.30097356 0.20210826 0.15291524
-0.30098367 0.23095128 0.15302503
-0.3009938 0.25979599 0.15313447
-0.30100393 0.28864253 0.15324426
-0.30101407 0.31749067 0.15335381
-0.30102217 0.34633881 0.15344155
-0.3010323 0.37518996 0.15355134
-0.30104446 0.40404537 0.15368295
-0.3010546 0.43290019 0.1537925
-0.301853 0.46274212 0.16243553
-0.32973832 0.49039099 0.15219152
-0.27146181 0.48949879 0.1449492
-0.38723704 0.51903617 0.15076733
-0.27158391 0.51846337 0.14639115
-0.41543257 0.54715353 0.14569187
-0.2717061 0.5474503 0.14783418
-0.44492707 0.57673192 0.1511395
-0.27182651 0.57645637 0.14925635
-0.44427705 0.60479063 0.14617252
-0.2719489 0.60548782 0.1507014
-0.44441724 0.63374913 0.1472435
-0.27207136 0.63454181 0.15214789
-0.44553283 0.66398627 0.15576839
-0.27219397 0.66361833 0.15359509
-0.41634926 0.69237906 0.15313458
-0.27165613 0.69133598 0.14724362
-0.27165613 0.72012967 0.14724338
-0.27165613 0.74892312 0.14724362
-0.27165613 0.77771658 0.14724362
-0.27165613 0.80651015 0.14724338
-0.24328062 0.8364743 0.15267408
-0.243893 0.86708534 0.16062903
-0.2727299 0.89581919 0.15992439
-0.21417665 0.89324945 0.1487968
-0.21497506 0.92480493 0.16032076
-0.33094224 -0.86756557 0.16422176
-0.33099964 -0.83877391 0.16479552
-0.33105928 -0.80997825 0.16539145
-0.33113 -0.78119731 0.16609812
-0.33113223 -0.72332454 0.16612041
-0.41800585 -0.69447494 0.16658413
-0.44673154 -0.66522658 0.16492808
-0.47697657 -0.63797784 0.17442095
-0.47583556 -0.60758036 0.16618669
-0.47572845 -0.57851624 0.16541374
-0.4474026 -0.52132833 0.17005575
-0.41966066 -0.49373981 0.18001962
-0.38938257 -0.49226102 0.16934764
0.42120233 -0.43384379 0.16536951
-0.33146185 -0.40537766 0.16941392
-0.3314729 -0.37642547 0.16952479
-0.33148399 -0.34747148 0.16963542
-0.33149728 -0.31851786 0.16976821
-0.33151054 -0.28956214 0.16990077
-0.33152163 -0.26060271 0.17001152
-0.33153492 -0.23164313 0.17014444
-0.33154818 -0.20268156 0.17027724
-0.33155927 -0.17371659 0.17038786
-0.33157036 -0.14475007 0.17049849
-0.33157924 -0.11578095 0.17058706
-0.33158809 -0.086810455 0.17067575
-0.33160138 -0.057839628 0.17080843
-0.33161247 -0.028866466 0.17091918
-0.33162352 0.0001084581 0.17102981
-0.33163461 0.029085029 0.17114067
-0.3316479 0.058063589 0.17127359
-0.33166119 0.087044135 0.17140627
-0.33167452 0.11602673 0.17153931
-0.33168557 0.14501075 0.17165005
-0.33169669 0.17399636 0.17176068
-0.33170778 0.2029838 0.17187166
-0.33171886 0.23197281 0.17198229
-0.33172995 0.26096365 0.17209303
-0.33174103 0.28995612 0.1722039
-0.33174989 0.31894866 0.17229259
-0.33176097 0.34794444 0.17240334
-0.33177209 0.37694174 0.17251432
-0.33178538 0.4059431 0.172647
-0.33179647 0.43494406 0.1727581
-0.36030921 0.49237874 0.16833043
-0.30198541 0.49182913 0.16386878
-0.41818279 0.52129406 0.16802096
-0.30211997 0.52094126 0.16532552
-0.44659004 0.54966915 0.16384697
-0.30225459 0.55007595 0.16678321
-0.4762736 0.57939506 0.16934764
-0.30238938 0.57923323 0.16824186
-0.47570401 0.60772586 0.16523731
-0.30252424 0.60841316 0.1697017
-0.47600091 0.6370042 0.16737974
-0.30265713 0.6376124 0.17114067
