ply
format ascii 1.0
comment PCL generated
element vertex 1335
property float x
property float y
property float z
element camera 0
property float view_px
property float view_py
property float view_pz
property float x_axisx
property float x_axisy
property float x_axisz
property float y_axisx
property float y_axisy
property float y_axisz
property float z_axisx
property float z_axisy
property float z_axisz
property float focal
property float scalex
property float scaley
property float centerx
property float centery
property int viewportx
property int viewporty
property float k1
property float k2
end_header
0.16487272 -0.53232574 -0.21491468
0.19269699 -0.53329206 -0.20863807
0.16516736 0.43226036 -0.20725954
0.19289531 0.43259698 -0.20434415
0.13752387 0.45965275 -0.20889032
0.16467427 0.45827565 -0.2200706
0.19269699 0.45968395 -0.20863807
0.13730265 0.48629335 -0.21607471
0.19265933 0.48715985 -0.20945299
0.1372848 0.51373857 -0.2166543
0.19265755 0.51473075 -0.20949173
0.1374952 0.54225868 -0.20982146
0.1645986 0.54047203 -0.22203648
0.19269159 0.54241478 -0.20875466
0.16512178 0.5700444 -0.208444
0.19285758 0.57054991 -0.20516109
0.16555569 -0.67341238 -0.19717109
0.1933223 -0.67381096 -0.19509959
0.137713 -0.64471096 -0.2027483
0.11041182 -0.59185177 -0.18859613
0.13770941 -0.534181 -0.202865
0.16550383 -0.50718963 -0.19851816
0.19325458 -0.5074752 -0.19656551
0.16606724 0.40718669 -0.18388009
0.19376874 0.40701935 -0.18543375
0.1379696 0.43374354 -0.19441521
0.11048803 0.49032119 -0.1852963
0.11051982 0.51827431 -0.18391943
0.13802986 0.57250547 -0.19245803
0.13863187 -0.67808181 -0.17290735
0.11066685 -0.62154382 -0.17755318
0.11056346 -0.56517613 -0.18202984
0.13830671 -0.50939107 -0.18346691
0.16667193 -0.48373419 -0.16816986
0.19431898 -0.48299277 -0.1735208
0.16638833 0.60294801 -0.17553818
0.19393052 0.60191447 -0.18193114
0.22292235 -0.68064374 -0.15959561
0.22320321 -0.59764582 -0.1543833
0.22346112 -0.57041925 -0.14959741
0.22288905 -0.51279217 -0.16021359
0.222946 -0.48498309 -0.1591568
0.19551291 -0.43047056 -0.14767158
0.19545174 -0.40226576 -0.14899576
0.19546008 -0.37424332 -0.14881516
0.19547212 -0.3462263 -0.14855444
0.1954851 -0.31820706 -0.14827359
0.19549714 -0.29018179 -0.14801264
0.19550921 -0.26215252 -0.14775169
0.19552125 -0.23411919 -0.14749086
0.19553423 -0.20608307 -0.14720976
0.1955463 -0.1780417 -0.14694881
0.19555834 -0.14999615 -0.14668775
0.19557039 -0.12194678 -0.14642644
0.1955834 -0.093893781 -0.14614522
0.19559546 -0.065836072 -0.14588416
0.19560753 -0.037774429 -0.14562273
0.1956196 -0.0097085536 -0.14536154
0.19563259 0.018361198 -0.14508033
0.19564466 0.046435121 -0.1448189
0.19565488 0.074512511 -0.14459765
0.19566324 0.10259225 -0.14441681
0.19542672 0.38285041 -0.14953721
0.13893808 0.40944102 -0.16296232
0.22292881 0.4098168 -0.1594758
0.22320214 0.4943639 -0.15440333
0.22352163 0.52318567 -0.1484741
0.22288798 0.57746685 -0.16023374
0.22293203 0.60555422 -0.15941596
0.16824873 -0.88434434 -0.12720358
0.16802251 -0.85473233 -0.13308072
0.19627377 -0.85518157 -0.13119805
0.14007732 -0.82821143 -0.12596476
0.16786848 -0.82564372 -0.1370827
0.19615038 -0.82638586 -0.13386953
0.14005855 -0.79985625 -0.12657428
0.16778073 -0.7970013 -0.13936269
0.19608596 -0.79791617 -0.13526475
0.14007482 -0.7717557 -0.1260463
0.16778383 -0.76890272 -0.13928211
0.19602157 -0.76946825 -0.13665867
0.22457489 -0.65834939 -0.12892807
0.22439805 -0.62957191 -0.13221037
0.2247466 -0.54605484 -0.12574148
0.22456944 -0.43276671 -0.12902963
0.13995986 -0.40448457 -0.1297797
0.1676009 -0.40283859 -0.14403462
0.22449407 -0.40440974 -0.13042843
0.13997734 -0.37635607 -0.12921214
0.22449626 -0.37622938 -0.13038754
0.16762103 -0.37481499 -0.14351177
0.13999481 -0.34821874 -0.12864423
0.16764195 -0.34678534 -0.1429683
0.22451046 -0.34807071 -0.13012433
0.14001229 -0.32007274 -0.12807631
0.16766284 -0.3187474 -0.14242494
0.22452463 -0.31990796 -0.12986064
0.14002918 -0.29191631 -0.12752843
0.16768378 -0.29070091 -0.14188159
0.22453883 -0.29174116 -0.12959731
0.14004667 -0.26375315 -0.12695992
0.16770472 -0.26264632 -0.14133775
0.22455414 -0.26357186 -0.12931335
0.14006418 -0.23558103 -0.12639141
0.16772565 -0.23458327 -0.14079356
0.22456834 -0.23539685 -0.1290499
0.14008169 -0.20740028 -0.12582266
0.16774657 -0.20651175 -0.14024949
0.22458254 -0.20721786 -0.12878621
0.14009921 -0.1792108 -0.1252538
0.22459677 -0.17903456 -0.12852263
0.16776754 -0.17843202 -0.13970542
0.14011674 -0.15101248 -0.12468481
0.16778849 -0.15034376 -0.13916111
0.22461097 -0.15084738 -0.12825871
0.16780946 -0.12224728 -0.13861656
0.22462519 -0.12265617 -0.12799501
0.16783041 -0.094142385 -0.13807166
0.22463939 -0.094460793 -0.12773144
0.16785139 -0.066029094 -0.13752663
0.2246536 -0.066261359 -0.12746751
0.16787237 -0.03790734 -0.13698173
0.22466891 -0.038058169 -0.12718332
0.16789335 -0.0097773001 -0.13643634
0.22468315 -0.0098506287 -0.12691939
0.16791435 0.018361198 -0.13589096
0.22469735 0.018361198 -0.12665558
0.16793534 0.04650804 -0.13534546
0.2247116 0.046576962 -0.12639153
0.16795401 0.074662402 -0.13486052
0.22472365 0.074796192 -0.12616825
0.16797036 0.1028227 -0.13443601
0.2247324 0.1030176 -0.12600541
0.16798747 0.1309904 -0.13399112
0.19567066 0.13067435 -0.14425588
0.22474115 0.13124131 -0.12584305
0.16800383 0.15916392 -0.13356638
0.19567902 0.15875949 -0.14407492
0.22474989 0.15946752 -0.12568057
0.16802019 0.18734419 -0.13314152
0.19568646 0.18684663 -0.1439141
0.22475865 0.18769626 -0.1255182
0.19569482 0.2149373 -0.14373291
0.16803654 0.21553101 -0.1327163
0.22476743 0.21592766 -0.1253556
0.1680529 0.24372427 -0.13229132
0.19570225 0.24302945 -0.14357185
0.22477618 0.24416131 -0.12519288
0.16806926 0.27192417 -0.13186634
0.19571061 0.27112564 -0.14339089
0.22478493 0.27239776 -0.1250304
0.16808641 0.30013219 -0.13142097
0.19572642 0.29923701 -0.14304888
0.22479369 0.3006365 -0.12486768
0.16810279 0.32834512 -0.13099551
0.19574594 0.32736021 -0.14262617
0.22480246 0.32887793 -0.12470531
0.16790035 0.3841795 -0.13625467
0.22434677 0.38448909 -0.13316166
0.22452682 0.44120231 -0.12982035
0.22429228 0.46885559 -0.13417304
0.22474004 0.55453867 -0.12586331
0.19617 0.69423711 -0.13344491
0.19622701 0.7226364 -0.13221049
0.19634397 0.75131422 -0.12967837
0.19652674 0.78032708 -0.1257211
0.16869076 -0.91547126 -0.11571932
0.19696985 -0.91536766 -0.11612773
0.22585292 -0.88976204 -0.10521078
0.14041921 -0.88738477 -0.11486125
0.19660653 -0.88513517 -0.12399375
0.11231334 -0.8611331 -0.10625827
0.14018938 -0.85729891 -0.12232542
0.22575115 -0.86093235 -0.10709977
0.11222666 -0.83189553 -0.11001158
0.22565056 -0.83213699 -0.10896623
0.1122134 -0.80342567 -0.11058521
0.22554895 -0.80336624 -0.11085153
0.11222523 -0.77519846 -0.11007309
0.22540231 -0.77444404 -0.11357319
0.25401062 -0.69041884 -0.10880232
0.25403458 -0.66213965 -0.10841262
0.25400937 -0.49195772 -0.1088227
0.19735177 -0.46373272 -0.1078589
0.25325426 -0.43374544 -0.12108338
0.11213968 -0.40633228 -0.11377788
0.25313771 -0.40527022 -0.12297666
0.1121529 -0.37808117 -0.11320508
0.25314397 -0.37703905 -0.12287486
0.11216614 -0.34982112 -0.11263239
0.25318405 -0.34886128 -0.12222385
0.11217936 -0.32155243 -0.11205935
0.25322542 -0.32067558 -0.12155187
0.11219259 -0.29327473 -0.1114862
0.25326556 -0.29247755 -0.12090015
0.11220584 -0.26498833 -0.1109128
0.25330698 -0.26427138 -0.12022781
0.11221908 -0.23669316 -0.11033928
0.25334713 -0.23605321 -0.11957574
0.11223186 -0.2083879 -0.10978615
0.25338855 -0.20782647 -0.11890292
0.11224511 -0.18007511 -0.10921228
0.25342873 -0.1795882 -0.11825025
0.11225837 -0.15175359 -0.10863817
0.25347018 -0.15134081 -0.11757708
0.11227164 -0.12342319 -0.10806406
0.14013363 -0.12280464 -0.12413597
0.25351042 -0.12308216 -0.11692405
0.1122849 -0.095084153 -0.10748959
0.14015117 -0.094589062 -0.12356639
0.25355193 -0.094814397 -0.11625016
0.11229769 -0.066735536 -0.10693574
0.14016871 -0.066364601 -0.12299705
0.25359219 -0.066535525 -0.11559677
0.11231096 -0.038378812 -0.10636079
0.14018625 -0.038131498 -0.12242711
0.25363368 -0.038246959 -0.1149224
0.11232425 -0.010013329 -0.10578573
0.1402038 -0.0098894686 -0.12185729
0.25367397 -0.0099479314 -0.11426854
0.11233752 0.01836114 -0.10521066
0.14022136 0.018361198 -0.12128711
0.25371552 0.018361198 -0.1135937
0.14023829 0.046620503 -0.1207372
0.25375584 0.046680555 -0.11293936
0.1402546 0.074887857 -0.12020743
0.25379363 0.075009428 -0.11232543
0.1402684 0.10316179 -0.11975932
0.25382766 0.10334617 -0.11177278
0.14028284 0.1314429 -0.11929035
0.25386044 0.13169098 -0.11124051
0.14029665 0.15973075 -0.11884165
0.25389451 0.16004464 -0.11068749
0.14031109 0.18802637 -0.1183728
0.25392854 0.18840688 -0.11013448
0.14032492 0.21632802 -0.11792409
0.25396264 0.21677759 -0.10958123
0.14033936 0.244638 -0.11745453
0.2539967 0.24515702 -0.10902774
0.14035319 0.27295354 -0.11700559
0.25403079 0.27354464 -0.10847402
0.14036764 0.30127791 -0.11653602
0.25406492 0.30194104 -0.10792053
0.14038147 0.3296077 -0.11608696
0.25409901 0.33034611 -0.10736656
0.25396264 0.41519406 -0.10958123
0.25395757 0.58525252 -0.10966313
0.19716248 0.66988027 -0.11195719
0.22526576 0.66914546 -0.11610734
0.14059253 0.69871062 -0.10923266
0.16836992 0.69597208 -0.12405455
0.2253329 0.6976707 -0.11486125
0.14061084 0.72717273 -0.10863829
0.16839576 0.72433513 -0.1233834
0.22540011 0.7262153 -0.1136142
0.14065757 0.75582916 -0.10712028
0.16845451 0.7528795 -0.12185717
0.22546734 0.7547791 -0.11236632
0.16856273 0.7817145 -0.11904573
0.22553353 0.78335822 -0.11113822
0.16871355 0.81083161 -0.11512685
0.1967259 0.80947757 -0.12140942
0.22560085 0.81196064 -0.10988867
0.1689136 0.84029436 -0.10992956
0.19695759 0.83885145 -0.11639321
0.22567597 0.84061468 -0.10849464
0.19720882 0.86840045 -0.11095369
0.22575445 0.86930454 -0.10703826
0.19748168 0.89814472 -0.10504627
0.16929318 -0.94786578 -0.10006773
0.11278439 -0.92305636 -0.085860968
0.14080943 -0.91890854 -0.10218859
0.22668107 -0.92204487 -0.089842439
0.11248819 -0.8913691 -0.098687053
0.084192097 -0.86500126 -0.090049505
0.084133804 -0.83563125 -0.09383595
0.084124573 -0.80703104 -0.094435334
0.084132209 -0.77867615 -0.093939304
0.11264893 -0.75067037 -0.091726542
0.1411182 -0.75058013 -0.092160821
0.2554017 -0.75181627 -0.086213827
0.084141441 -0.7503351 -0.093339801
0.16957921 -0.75048119 -0.092636943
0.19802143 -0.75033075 -0.093360662
0.22611785 -0.74888968 -0.10029447
0.25456247 -0.52162224 -0.099841356
0.28347459 -0.43723643 -0.092740059
0.084075622 -0.40819865 -0.097614646
0.28333998 -0.40853718 -0.09468329
0.084084198 -0.37982139 -0.0970577
0.28331995 -0.38004622 -0.094972372
0.084093094 -0.35143763 -0.096479893
0.28333426 -0.3516092 -0.094765782
0.084101997 -0.32304499 -0.095901728
0.28334716 -0.32316703 -0.094579935
0.084110893 -0.29464337 -0.095323682
0.28336 -0.29472211 -0.094393849
0.084119804 -0.26623288 -0.094745398
0.28337434 -0.26627582 -0.094187379
0.084128715 -0.23781361 -0.094166756
0.28338721 -0.23782505 -0.094001412
0.084137619 -0.2093855 -0.093587875
0.28340155 -0.20937267 -0.093794703
0.084146537 -0.18094826 -0.093009114
0.28341442 -0.18091589 -0.093608499
0.084155127 -0.1525014 -0.0924505
0.28342876 -0.15245727 -0.093401909
0.084164053 -0.12404649 -0.091871142
0.28344166 -0.12399478 -0.093215823
0.084172972 -0.095582828 -0.091291785
0.28345597 -0.095530003 -0.093008995
0.084181897 -0.067110233 -0.09071219
0.28346887 -0.067061462 -0.092822909
0.084190823 -0.038628645 -0.090132475
0.28348321 -0.038590454 -0.092616081
0.084199756 -0.010138189 -0.089552402
0.28349611 -0.010116039 -0.092429876
0.084208362 0.01836114 -0.088992834
0.28351045 0.018361198 -0.092223048
0.084217303 0.046869226 -0.088412523
0.11235081 0.046744421 -0.10463548
0.28352332 0.046841376 -0.092036724
0.084225602 0.075385772 -0.087873459
0.11236314 0.075135931 -0.10410106
0.28353339 0.075323895 -0.091892004
0.084232621 0.10390878 -0.087417126
0.11237359 0.10353373 -0.10364866
0.28353912 0.10380719 -0.091809273
0.084239975 0.13243926 -0.08694005
0.11238404 0.13193864 -0.10319638
0.28354484 0.13229176 -0.091726422
0.084247001 0.16097619 -0.086483717
0.11239497 0.16035105 -0.10272324
0.28355202 0.16077822 -0.091622949
0.084254347 0.18952134 -0.086006165
0.11240542 0.18876989 -0.10227084
0.28355774 0.18926568 -0.091540217
0.08426138 0.21807261 -0.085549355
0.11241636 0.21719696 -0.10179734
0.28356346 0.21775422 -0.091457367
0.11242681 0.24562998 -0.10134459
0.28357065 0.24624537 -0.091353893
0.11243775 0.27407157 -0.10087109
0.2835764 0.27473661 -0.091271043
0.11244821 0.30251852 -0.10041809
0.28358355 0.30323058 -0.091167569
0.11245868 0.33097264 -0.099964976
0.28358927 0.33172464 -0.091084719
0.28359646 0.36022189 -0.090981364
0.255265 0.44598123 -0.088433146
0.25523692 0.5599466 -0.08888936
0.14124703 0.67412591 -0.087977171
0.16929635 0.67199981 -0.09998548
0.25481015 0.67273742 -0.095819235
0.11261836 0.70170021 -0.093050361
0.25489664 0.7014482 -0.094414711
0.11263221 0.73028803 -0.0924505
0.25498322 0.73018068 -0.093008995
0.11266758 0.75907165 -0.090919256
0.25506985 0.75893509 -0.091602206
0.14073978 0.78474814 -0.10445035
0.11272977 0.78812039 -0.08822608
0.25515783 0.78771555 -0.090173841
0.14086016 0.81397533 -0.10054171
0.25524455 0.81651372 -0.088764787
0.14103419 0.84365195 -0.094889879
0.25533143 0.84533393 -0.087354898
0.14126492 0.87384069 -0.087396383
0.16918068 0.8702395 -0.10299075
0.25541958 0.87418091 -0.085923314
0.16950282 0.90063262 -0.094621062
0.22595373 0.8985517 -0.10334051
0.1978602 0.92854363 -0.096851349
0.22661969 0.9299897 -0.090981364
0.11321611 -0.95647711 -0.067166686
0.14137872 -0.95214963 -0.083700657
0.19844167 -0.95200264 -0.084261894
0.0845102 -0.92724103 -0.06938827
0.055882215 -0.8994385 -0.065929174
0.08431033 -0.89538854 -0.082370043
0.25606185 -0.89708227 -0.075493932
0.055822413 -0.86890334 -0.073697925
0.2558974 -0.86783761 -0.07816422
0.055792846 -0.83939493 -0.07753861
0.25575244 -0.83870691 -0.080518126
0.055788193 -0.81066811 -0.07814312
0.25563583 -0.80971515 -0.082411766
0.055791885 -0.78218424 -0.07766366
0.25551805 -0.78074872 -0.084324121
0.055796377 -0.75371468 -0.077079773
0.25567809 -0.63851053 -0.08172524
0.25666767 -0.61267227 -0.065656304
0.25609145 -0.5538649 -0.075013757
0.055763662 -0.41007906 -0.081329942
0.055768147 -0.38157922 -0.080747128
0.055772632 -0.35307038 -0.080164075
0.055776965 -0.32455072 -0.079601765
0.055781454 -0.29602411 -0.079018474
0.055785947 -0.26748854 -0.078434944
0.055790439 -0.23894398 -0.077851415
0.055794932 -0.21039052 -0.077267528
0.055799432 -0.18182804 -0.076683402
0.055803925 -0.15325655 -0.076099157
0.055808425 -0.12467614 -0.075514674
0.055812765 -0.096085973 -0.074951053
0.055817269 -0.067487694 -0.074366331
0.055821769 -0.038880423 -0.073781371
0.055826277 -0.010264166 -0.073196173
0.05583078 0.018361198 -0.072610736
0.055835288 0.046995554 -0.07202518
0.055839472 0.07563819 -0.071481466
0.055843018 0.1042873 -0.07102108
0.055846561 0.13294345 -0.070560932
0.055850267 0.16160765 -0.070079327
0.055853814 0.19027808 -0.069618583
0.055857524 0.21895686 -0.069136858
0.055861071 0.24764194 -0.068675876
0.084268734 0.24663223 -0.085071921
0.055864617 0.27633411 -0.068214893
0.084275775 0.2751978 -0.084614992
0.055868331 0.30503476 -0.067733049
0.084282808 0.30377015 -0.084157705
0.055871882 0.33374101 -0.067271709
0.084290169 0.33235162 -0.083679914
0.25643271 0.36220878 -0.069471836
0.25661212 0.47718355 -0.066558599
0.25587431 0.53287607 -0.078539133
0.28514618 0.64889389 -0.068613052
0.084458657 0.67682463 -0.072736382
0.11291883 0.67553145 -0.080039263
0.28526092 0.67784768 -0.066957235
0.084397241 0.70471638 -0.076725125
0.084406562 0.73343086 -0.076120019
0.084430344 0.76234287 -0.074575305
0.084471852 0.79151797 -0.071879029
0.084533431 0.82101554 -0.067879677
0.11282084 0.81747973 -0.084282517
0.11295299 0.84729737 -0.078559995
0.1131271 0.87762243 -0.071021199
0.14154406 0.90452009 -0.078330874
0.25559229 0.90337747 -0.083118796
0.14187878 0.93578368 -0.067460179
0.16991755 0.93174732 -0.083846092
0.25667801 0.93626928 -0.065488458
0.084801234 -0.96084327 -0.050484776
0.055983528 -0.931463 -0.052768469
0.027200976 -0.90352958 -0.049320936
0.027200976 -0.87284529 -0.057179689
0.027200976 -0.84319198 -0.061096907
0.027200976 -0.81433266 -0.061727881
0.027200976 -0.78572786 -0.061223149
0.027200976 -0.75712866 -0.060654998
0.28671765 -0.76018894 -0.045930505
0.22894907 -0.73098886 -0.047753692
0.25713 -0.72890818 -0.058149219
0.28652972 -0.7308107 -0.048643231
0.027200976 -0.67368728 -0.045909286
0.027200976 -0.64458174 -0.04743576
0.28597334 -0.642946 -0.056673765
0.027200976 -0.61585873 -0.046842098
0.28591785 -0.6140579 -0.057474852
0.027200976 -0.58712631 -0.046248674
0.25695756 -0.58474988 -0.060949564
0.28590617 -0.58528435 -0.057643533
0.28594562 -0.5566268 -0.057074428
0.28603473 -0.47054699 -0.055787921
-0.0016229525 -0.41399774 -0.047393322
0.027200976 -0.41197619 -0.064900637
-0.0016276855 -0.38524008 -0.04677856
0.027200976 -0.38335037 -0.064312696
-0.0016322564 -0.35647085 -0.046184897
0.027200976 -0.35471547 -0.063724875
0.027200976 -0.32607171 -0.063136339
0.027200976 -0.2974188 -0.062548041
0.027200976 -0.26875511 -0.061980247
0.027200976 -0.24008437 -0.061391354
0.027200976 -0.21140452 -0.060802341
0.027200976 -0.18271546 -0.060213089
0.027200976 -0.15401746 -0.059623718
0.027200976 -0.1253105 -0.05903399
0.027200976 -0.09659417 -0.058444262
0.027200976 -0.06786903 -0.057854295
0.027200976 -0.039134786 -0.05726409
0.027200976 -0.0103912 -0.056694865
0.027200976 0.018361198 -0.056104302
0.027200976 0.047122531 -0.055513501
0.027200976 0.075892501 -0.054964781
0.027200976 0.10466881 -0.054500461
0.027200976 0.13345288 -0.054014802
0.027200976 0.16224389 -0.053550124
0.027200976 0.19104175 -0.053085446
0.027200976 0.21984816 -0.052599311
0.027200976 0.24866189 -0.052113175
0.027200976 0.27748317 -0.051626801
0.027200976 0.30631196 -0.051140547
0.027200976 0.33514827 -0.050654054
0.22868566 0.36376363 -0.052641749
0.2859675 0.44963869 -0.056758046
0.28591639 0.47829977 -0.057495952
0.25696534 0.50661033 -0.060823321
0.28591055 0.50703496 -0.057580113
0.28594851 0.53585637 -0.057032228
0.22881901 0.65201795 -0.050167441
0.25672457 0.64955103 -0.064732909
0.055921681 0.67893749 -0.060802221
0.055926055 0.7077632 -0.060234189
0.28537863 0.70683497 -0.065257549
0.055930592 0.73660171 -0.059644699
0.28549504 0.73584467 -0.063577414
0.055942591 0.76564324 -0.058086038
0.285613 0.76488489 -0.061874986
0.055963531 0.79495019 -0.055365682
0.28572959 0.79394716 -0.060192108
0.055994593 0.82458252 -0.051330924
0.28584778 0.82304007 -0.058486223
0.084622316 0.85097045 -0.062106371
0.28596607 0.8521598 -0.056779146
0.084739089 0.88143283 -0.054521561
0.28608444 0.88130623 -0.0550704
0.11333784 0.90844196 -0.061896086
0.11359062 0.93985063 -0.050950408
0.056130514 -0.96524322 -0.033674121
0.027200976 -0.93586361 -0.035445213
-0.0017565284 -0.908279 -0.030041456
-0.0016852431 -0.87711167 -0.039301515
0.28780812 -0.87928569 -0.030191183
0.28751802 -0.84936237 -0.034378409
-0.0016515292 -0.84721404 -0.043680906
-0.030766768 -0.82217109 -0.026616096
-0.0016453192 -0.81818146 -0.044487715
0.28723004 -0.81951022 -0.038535357
-0.030775676 -0.79331207 -0.026037455
-0.0016497318 -0.78945863 -0.043914437
0.28694564 -0.78973335 -0.042640209
-0.0016541462 -0.76072705 -0.04334116
-0.0017456654 -0.73425144 -0.031452537
0.027200976 -0.73253149 -0.040046215
0.17199838 -0.73458534 -0.029784679
0.20061272 -0.73308957 -0.037257314
-0.0017502718 -0.70542002 -0.030854106
0.027200976 -0.70308638 -0.042980075
0.28730971 -0.70416319 -0.037384987
-0.00175488 -0.67657948 -0.030255198
-0.0017594919 -0.64772964 -0.029656529
-0.0017641038 -0.61887056 -0.029057264
-0.0017687157 -0.5900023 -0.028457999
-0.0017733332 -0.56112492 -0.027858615
0.027200976 -0.55838507 -0.045654774
-0.0017781146 -0.53224152 -0.027237296
0.027200976 -0.52963471 -0.045060635
-0.0017827321 -0.50334555 -0.026637554
0.027200976 -0.5008781 -0.044445276
-0.0017873496 -0.47444034 -0.026037455
0.027200976 -0.47210917 -0.04385078
0.25890845 -0.47401711 -0.029271245
0.027200976 -0.44333124 -0.043256164
0.17213932 -0.44544157 -0.026123047
-0.030722266 -0.41606316 -0.029506803
0.31702155 -0.41636962 -0.026851773
-0.030731821 -0.38716844 -0.02888608
0.31686988 -0.38717532 -0.028821826
-0.030741045 -0.35826203 -0.028286576
0.31685835 -0.3581934 -0.028971553
-0.030750608 -0.3293483 -0.027665854
-0.0016368255 -0.32769254 -0.045590997
0.31684846 -0.32921597 -0.02910006
-0.030760171 -0.30042526 -0.027044415
-0.0016415622 -0.29890671 -0.044975758
0.31683859 -0.30024022 -0.02922833
-0.030769406 -0.27149075 -0.026444554
-0.0016461369 -0.27010995 -0.044381499
0.31682706 -0.27126497 -0.029378176
-0.0016508754 -0.24130546 -0.043765903
0.31681716 -0.24229334 -0.029506564
-0.0016554538 -0.21249025 -0.043171287
0.3168073 -0.21332397 -0.029634953
-0.0016600322 -0.18366593 -0.042576432
0.31679577 -0.1843552 -0.02978456
-0.0016647782 -0.15483332 -0.04196012
0.3167859 -0.15538982 -0.029913068
-0.0016693585 -0.12599055 -0.041364908
0.31677601 -0.12642635 -0.030041456
-0.0016739424 -0.097138561 -0.040769577
0.31676447 -0.097464137 -0.030191064
-0.0016786903 -0.068277806 -0.040152788
0.31675461 -0.068504967 -0.030319452
-0.001683278 -0.039407305 -0.03955698
0.31674308 -0.039547324 -0.03046906
-0.0016880296 -0.010527872 -0.038939595
0.31673321 -0.010592094 -0.030597329
0.31672332 0.01836114 -0.030725718
-0.0016926173 0.018361317 -0.03834331
-0.0016972087 0.047259375 -0.037747264
0.31671673 0.047312729 -0.030811191
-0.0017016344 0.076166369 -0.03717196
0.31670523 0.076262087 -0.030960798
-0.0017052479 0.10507987 -0.03670311
0.31668878 0.1052075 -0.03117466
-0.0017090198 0.13400121 -0.036212802
0.31667066 0.1341491 -0.03140986
-0.0017127953 0.16293006 -0.035722256
0.31665421 0.1630877 -0.031623602
-0.0017165709 0.19186649 -0.035231829
0.31663612 0.19202213 -0.031858563
-0.0017203484 0.22081041 -0.034741044
0.31661966 0.22095427 -0.032072425
-0.0017239638 0.24976067 -0.034271717
0.31660157 0.24988177 -0.032307267
-0.0017277412 0.27871951 -0.033780694
0.31658515 0.27880681 -0.032521009
-0.0017315205 0.30768624 -0.033289671
0.3165687 0.30772886 -0.032734513
-0.0017353017 0.33666024 -0.032798529
0.31655058 0.33664572 -0.032969475
0.027200976 0.36600935 -0.028329372
0.20068657 0.36533231 -0.03565836
0.31653416 0.3655611 -0.033182979
0.027200976 0.39503998 -0.027730107
0.28747958 0.39431921 -0.03493309
0.31651607 0.39447084 -0.03341794
0.027200976 0.42408234 -0.027108908
0.31649801 0.42337698 -0.033652782
0.027200976 0.45313412 -0.026487589
0.31696549 0.45300803 -0.027580023
0.056176931 0.53992832 -0.027644277
0.056154858 0.56848496 -0.030511856
0.31691933 0.56882626 -0.028179526
0.056132652 0.5969947 -0.033396602
0.056110643 0.62546414 -0.03625536
0.28708994 0.62476891 -0.040556908
0.056088671 0.65389055 -0.039109826
0.20069444 0.654504 -0.03548789
0.027200976 0.68196499 -0.043702245
0.027200976 0.71092337 -0.043128848
0.027200976 0.73980874 -0.042980075
0.027200976 0.76897722 -0.041428566
0.027200976 0.79843062 -0.038620234
0.027200976 0.82823187 -0.034399748
0.027200976 0.85852522 -0.028265238
0.05603943 0.85467631 -0.04550612
0.056098342 0.88528222 -0.037853718
0.056169681 0.91639102 -0.028586507
0.084880829 0.91239887 -0.045315266
0.28695741 0.91307783 -0.042469978
0.085050859 0.9439593 -0.034271717
-0.0018754005 -0.94115925 -0.014599442
-0.031023914 -0.91323709 -0.0099140406
-0.030862933 -0.88162941 -0.020370126
-0.060204312 -0.85569173 -0.0069714785
-0.03078525 -0.85143226 -0.025415659
-0.060167328 -0.82619911 -0.0085729361
-0.060180821 -0.79720223 -0.0079889297
-0.060194314 -0.76819634 -0.0074044466
-0.03078459 -0.76444381 -0.025458574
-0.030968713 -0.73784471 -0.01349926
0.08545351 -0.73892176 -0.0081186295
0.11441218 -0.7374692 -0.015375614
0.14326064 -0.73602676 -0.022583127
-0.030977687 -0.70887196 -0.012916684
-0.030986993 -0.67989439 -0.012312055
0.28831291 -0.67793733 -0.02290535
-0.030996302 -0.65090758 -0.011707425
-0.031005615 -0.62191135 -0.011102557
-0.03101526 -0.59290928 -0.010475993
0.056340739 -0.59357381 -0.00636518
-0.031024581 -0.56389439 -0.0098706484
0.056317747 -0.5639742 -0.0093518496
-0.031033901 -0.53487021 -0.0092651844
0.056294795 -0.53442132 -0.012333751
0.28899896 -0.53432351 -0.013002992
0.31831545 -0.5347563 -0.010043502
-0.031043226 -0.50583673 -0.0086596012
0.056271873 -0.504915 -0.015310884
0.28815237 -0.50354159 -0.025222659
0.31798798 -0.50505543 -0.014297605
-0.031052554 -0.4767938 -0.0080537796
0.056249157 -0.47545794 -0.018261909
0.31766289 -0.47542411 -0.018520117
-0.031061882 -0.44774175 -0.0074477196
-0.0017919708 -0.44552588 -0.025437117
0.056226313 -0.44604421 -0.021229863
0.3173402 -0.44586164 -0.022712111
-0.060101427 -0.41815081 -0.011426687
-0.060115397 -0.38911518 -0.0108217
-0.060129873 -0.3600724 -0.010194898
-0.060143851 -0.33101818 -0.0095894337
-0.060158335 -0.30195624 -0.0089623928
-0.060172327 -0.27288309 -0.0083566904
-0.060186818 -0.24380217 -0.0077291727
-0.030778648 -0.24254717 -0.025844574
-0.060200818 -0.21471028 -0.0071228743
-0.030788222 -0.21359566 -0.025222778
-0.060215317 -0.18561016 -0.0064949989
-0.030797468 -0.18463337 -0.024622083
-0.030806715 -0.15566193 -0.024021387
-0.030816296 -0.12668201 -0.023398995
-0.03082555 -0.097691938 -0.022797823
-0.030835139 -0.06869299 -0.022175074
-0.0308444 -0.039684229 -0.021573663
-0.030853665 -0.010666069 -0.020972013
-0.030863261 0.018361257 -0.020348549
-0.030872529 0.047398046 -0.019746542
-0.030881142 0.076443352 -0.019187093
-0.030888764 0.10549583 -0.018692255
-0.030896051 0.13455518 -0.018218875
-0.030903673 0.16362269 -0.01772368
-0.030911298 0.19269791 -0.017228603
-0.030918924 0.2217807 -0.01673317
-0.030926554 0.25087127 -0.016237617
-0.030933851 0.27996781 -0.015763521
-0.030941488 0.30907363 -0.01526773
-0.030949121 0.33818674 -0.0147717
-0.0019081421 0.36767069 -0.010346174
0.056310594 0.3676765 -0.010281563
0.17243195 0.36691558 -0.018520117
-0.0019128006 0.39684039 -0.0097410679
0.056288145 0.39649442 -0.013197184
0.2596209 0.39604351 -0.017702222
-0.0019176286 0.42602155 -0.0091136694
0.056265738 0.4252679 -0.016108513
0.28854069 0.42488962 -0.0196172
-0.0019222926 0.45521015 -0.0085083246
0.056243524 0.45399946 -0.018993616
-0.0019271225 0.4844107 -0.0078805685
0.027200976 0.48219299 -0.025887132
0.056221187 0.48268452 -0.021896005
0.31737658 0.4826422 -0.022239447
-0.0019319523 0.51362097 -0.0072529316
0.027200976 0.51126373 -0.025265574
0.056199044 0.51132834 -0.024772167
0.3175056 0.51187903 -0.020563364
-0.0019371193 0.5428468 -0.0065815449
0.027200976 0.5403502 -0.024600625
0.31734848 0.54062682 -0.022604465
0.027200976 0.5694499 -0.023914099
0.28902736 0.57110584 -0.012592912
0.027200976 0.59856045 -0.023227096
0.28831291 0.5986101 -0.02290535
0.3170892 0.59813756 -0.025972962
0.027200976 0.62768137 -0.022540092
0.25918153 0.62731022 -0.024836421
0.31726092 0.62748706 -0.023742557
0.027200976 0.65681303 -0.021852851
0.17234915 0.65701318 -0.02067101
0.31743449 0.65687484 -0.021487474
-0.031058552 0.68834585 -0.0076642036
-0.0017893333 0.68513817 -0.025779963
0.3176066 0.68629414 -0.019251585
-0.031066885 0.71757549 -0.0071229935
-0.0017939527 0.71423936 -0.025179863
0.31778055 0.71575212 -0.016991615
-0.031072216 0.74677622 -0.0067765713
-0.0017951075 0.74326348 -0.025029659
0.31795311 0.74524152 -0.014750242
-0.0018079914 0.77259427 -0.02335608
0.31812751 0.77477008 -0.012484789
-0.0018319711 0.80225074 -0.020241022
0.31830046 0.80432987 -0.010238051
-0.0018671025 0.83226734 -0.015677214
0.31847695 0.83393401 -0.0079454184
-0.0019147974 0.8627187 -0.0094815493
0.027200976 0.88938946 -0.020069003
0.027200976 0.92083663 -0.0099570751
0.056255456 0.94810462 -0.017443657
-0.031276301 -0.94651395 0.0064789057
-0.060605682 -0.91824311 0.010408282
-0.060347058 -0.88630193 -0.00079035759
-0.089926399 -0.86009425 0.012091637
-0.089851029 -0.83026576 0.0096436739
-0.089869186 -0.80112982 0.010233402
-0.089887351 -0.77198511 0.010823488
-0.060471654 -0.74146831 0.004604578
0.056383152 -0.7403754 -0.00085568428
-0.060485743 -0.7123614 0.0052146912
0.056432735 -0.7124328 0.0055851936
-0.060499832 -0.68324524 0.0058248043
0.056409597 -0.6826458 0.0025795698
-0.060513936 -0.65411973 0.0064355135
0.056386665 -0.65290976 -0.00039935112
-0.06052804 -0.62498498 0.0070461035
0.056363598 -0.62321663 -0.0033954382
0.31928551 -0.62422478 0.0025578737
-0.060542144 -0.59584075 0.0076570511
0.31895751 -0.59432757 -0.0017026663
-0.060556255 -0.56668705 0.0082679987
0.31864196 -0.56452078 -0.0058019161
-0.060570374 -0.53752404 0.0088793039
-0.060584493 -0.5083515 0.0094907284
-0.060598619 -0.47916991 0.010102391
0.23138964 -0.47752562 -0.0024623871
-0.060612746 -0.44997877 0.010714412
0.14419986 -0.44963431 0.0079189539
-0.089763656 -0.42025617 0.0068062544
-0.089782454 -0.39108077 0.0074169636
-0.089801945 -0.36189836 0.0080498457
-0.089821436 -0.33270606 0.008682847
-0.089840263 -0.30350223 0.0092943907
-0.089859769 -0.27429062 0.0099275112
0.40754128 -0.27420831 0.0088574886
-0.089878604 -0.24506788 0.010539293
0.40760466 -0.24499519 0.0094906092
0.43716565 -0.24518751 0.012266636
-0.089898124 -0.21583703 0.011173248
-0.089916974 -0.18659523 0.011785507
-0.089936502 -0.15734504 0.012419701
-0.060229324 -0.1564994 -0.0058884621
-0.089955367 -0.12808433 0.013032317
-0.060243838 -0.12738024 -0.0052601099
-0.060257852 -0.098250605 -0.0046532154
-0.060271867 -0.069111578 -0.0040462017
-0.060286395 -0.039963797 -0.0034171343
-0.060300425 -0.010805912 -0.0028096437
-0.060314961 0.018361257 -0.0021803379
-0.060329005 0.047537886 -0.0015724897
-0.060342044 0.076723158 -0.0010075569
-0.060353577 0.10591588 -0.00050806999
-0.060364619 0.13511525 -3.0040741e-05
-0.060376167 0.16432314 0.00047004223
-0.060387209 0.19353761 0.00094819069
-0.060398765 0.2227606 0.0014485121
-0.060410321 0.25199124 0.0019487143
-0.060421869 0.28122959 0.0024491549
-0.060433432 0.31047583 0.0029497147
-0.060444489 0.33972803 0.0034285784
-0.03129679 0.36934769 0.007809639
0.14391831 0.36851326 -0.001224637
-0.0313062 0.39865771 0.0084207058
-0.031315945 0.42797953 0.0090539455
-0.031325355 0.45730856 0.0096654892
-0.031335115 0.48664996 0.010299087
-0.031344868 0.51600093 0.010933042
-0.031355307 0.54536766 0.011610508
-0.03136608 0.57474822 0.012310386
-0.0019424558 0.57208633 -0.0058883429
-0.031376861 0.60413945 0.013010502
-0.0019477941 0.60133642 -0.0051951408
-0.0019531343 0.63059741 -0.004501462
0.085751534 0.63314205 0.011238933
-0.0019584764 0.65986907 -0.0038074255
0.085706808 0.66192532 0.0083335638
0.11498392 0.66210276 0.0093815327
0.14378071 0.65954971 -0.0056935549
-0.060610734 0.69158423 0.010626793
-0.060621835 0.72094357 0.011107922
-0.060634457 0.75032312 0.011654377
-0.060673863 0.77994317 0.0133605
-0.031098234 0.77625084 -0.0050868988
-0.031151006 0.80611295 -0.0016590357
-0.031226652 0.83634812 0.0032544136
0.31865364 0.86357403 -0.0056500435
-0.03132771 0.86702716 0.0098184347
-0.0019811988 0.8938266 -0.00085568428
0.31883222 0.893255 -0.0033303499
-0.002062697 0.92553514 0.0097310543
0.027200976 0.95299941 0.0024274588
-0.061018899 -0.95205736 0.028301358
-0.090507098 -0.92330343 0.030950189
-0.090138927 -0.89102304 0.018993616
-0.11995196 -0.86455649 0.031413794
-0.11983215 -0.83443093 0.028301239
-0.11984489 -0.80509567 0.028632283
-0.11986782 -0.77581036 0.029228091
-0.11989162 -0.74652034 0.029846072
-0.09025868 -0.74512661 0.0228827
-0.090277649 -0.71588033 0.023498654
-0.090296626 -0.68662441 0.024114966
-0.090315603 -0.65735912 0.024731159
0.32054228 -0.65632385 0.018883824
-0.090334587 -0.62808442 0.02534771
-0.090353586 -0.59880024 0.025964499
-0.090372577 -0.56950653 0.026581526
-0.090391584 -0.54020339 0.027198672
-0.09041059 -0.51089078 0.027815938
-0.090429604 -0.48156875 0.028433681
0.086052634 -0.48187786 0.030795574
-0.090448633 -0.45223728 0.029051542
0.086006083 -0.45207956 0.02777195
-0.11973798 -0.3930679 0.025854468
-0.11976171 -0.3637419 0.026471376
-0.11978633 -0.33440825 0.027110457
-0.1198101 -0.30506319 0.027727962
-0.11983471 -0.27571023 0.0283674
0.38015589 -0.27576792 0.029117465
0.43759042 -0.27477419 0.016207933
-0.11985933 -0.24634735 0.029007196
-0.11988311 -0.21697333 0.029625177
-0.11990776 -0.18759112 0.03026545
-0.11993156 -0.15819779 0.030883908
-0.11995622 -0.128796 0.031524539
-0.11998003 -0.09938363 0.032143116
-0.08997491 -0.098814681 0.013666868
-0.12000471 -0.069962218 0.032784462
-0.08999379 -0.069534928 0.014279962
-0.090013348 -0.04024601 0.014915109
-0.090032227 -0.010947049 0.01552844
-0.090051129 0.01836108 0.016142249
-0.090070702 0.047679141 0.016777754
-0.090088256 0.077005841 0.017347932
-0.090103112 0.10633923 0.017830491
-0.090118654 0.13568079 0.018335104
-0.090133518 0.16502923 0.018817782
-0.090149067 0.1943863 0.019322753
-0.090163939 0.22374968 0.019805908
-0.090179496 0.25312215 0.020310998
-0.090195052 0.2825022 0.020816445
-0.090210617 0.31189024 0.021321774
-0.090226181 0.34128597 0.021827459
-0.06096901 0.37104115 0.026140928
0.11514258 0.37012765 0.016251564
-0.060983256 0.40049282 0.026757836
-0.060997516 0.4299542 0.027375221
0.086068958 0.430437 0.031855822
-0.061012283 0.45942742 0.028014541
0.086023398 0.45952937 0.028897166
-0.061027057 0.4889107 0.028654099
0.085977912 0.48857674 0.025942683
-0.061041325 0.51840079 0.02927196
0.085932501 0.51757908 0.02299273
-0.061057635 0.54791284 0.029978275
0.085887156 0.5465368 0.020047545
-0.061073959 0.57743591 0.030685186
0.085841879 0.57544982 0.017106652
-0.061090276 0.60696954 0.031391978
0.085796669 0.6043182 0.014170647
-0.061106615 0.63651419 0.032099247
-0.031387642 0.63354158 0.013710737
-0.061122946 0.66606998 0.032806516
-0.03139843 0.66295457 0.01441133
-0.090449303 0.69485033 0.029073596
-0.090462901 0.72434449 0.029514909
-0.090486012 0.75390482 0.03026545
-0.090541109 0.78368467 0.032054782
-0.060759865 0.81000865 0.017084956
-0.060881577 0.84046507 0.02235508
-0.061042346 0.87137991 0.029316425
-0.03146188 0.89830399 0.018532753
-0.031632662 0.93028253 0.029625297
-0.0021624137 0.95798963 0.022684932
-0.091119684 -0.95778418 0.050844312
-0.12074109 -0.92846799 0.051916122
-0.12024251 -0.89578849 0.03896296
-0.15028515 -0.86906946 0.050956011
-0.15011522 -0.83866715 0.047276735
-0.15011214 -0.80910003 0.04720974
-0.15013991 -0.77967286 0.047811508
-0.15016873 -0.75024098 0.04843545
-0.12035788 -0.71943307 0.041959643
0.08627107 -0.72001499 0.044983625
0.11555299 -0.71790552 0.034022808
0.08638227 -0.69181436 0.052206397
-0.12038182 -0.69003618 0.042581797
-0.12040577 -0.66062987 0.043204308
0.086334854 -0.66167843 0.049126506
-0.12042973 -0.63121396 0.043826938
0.086287864 -0.63159448 0.046074152
-0.12045371 -0.6017884 0.044449449
0.086240597 -0.60155475 0.043004155
-0.12047768 -0.57235348 0.045072436
0.086193405 -0.57156312 0.039939284
-0.12050167 -0.54290897 0.045695782
0.086146288 -0.54161924 0.036879063
-0.12052565 -0.51345462 0.046319008
0.086099595 -0.51172632 0.033845782
-0.12054966 -0.48399097 0.046942592
0.17458047 -0.48272914 0.037299991
-0.12057366 -0.45451769 0.047566295
0.11558416 -0.45301589 0.035372972
-0.12059768 -0.42503482 0.048190236
-0.14998463 -0.39507189 0.044449449
-0.15001443 -0.36560562 0.045094728
-0.1500432 -0.33612722 0.045717835
-0.15007304 -0.30664119 0.046363592
-0.15010183 -0.27714354 0.046987295
0.35229388 -0.27717787 0.047432661
-0.15013169 -0.24763782 0.047633052
-0.15016051 -0.21812083 0.048257232
-0.15019035 -0.18859529 0.048903584
-0.15022023 -0.15906018 0.049550533
-0.15024908 -0.12951396 0.050175071
-0.15027897 -0.099958755 0.05082202
-0.15030783 -0.070393324 0.051447272
-0.15033774 -0.04081849 0.052094817
-0.12002853 -0.040530697 0.033403635
-0.15036663 -0.011233434 0.052720189
-0.12005322 -0.011089595 0.034044981
-0.12007708 0.01836114 0.034664512
-0.12010094 0.047821511 0.035284519
-0.1201231 0.077290758 0.035860181
-0.12014271 0.10676734 0.036369681
-0.12016147 0.13625111 0.03685689
-0.12018108 0.1657432 0.037366748
-0.12019985 0.19524218 0.037854433
-0.12021948 0.22474979 0.038364172
-0.12023825 0.25426394 0.038852096
-0.12025789 0.28378719 0.039362192
-0.12027753 0.31331828 0.039872646
-0.12029717 0.34285706 0.040383101
-0.090928935 0.37275094 0.04464972
0.086099252 0.37175077 0.033823609
-0.090948112 0.40234587 0.045272708
0.086114585 0.40129957 0.034819603
-0.09096799 0.4319526 0.045918226
-0.090987191 0.46156687 0.04654181
-0.091006391 0.49119064 0.047165513
-0.091026284 0.520827 0.047811508
-0.091048248 0.55048275 0.048524857
-0.09107022 0.58014941 0.049238205
-0.091092199 0.60982704 0.049951911
-0.091114178 0.63951576 0.050665975
0.14517149 0.63770646 0.039473295
-0.091135487 0.66921175 0.051357865
-0.12057967 0.69815212 0.047722459
-0.1205951 0.72778231 0.04812336
-0.12063115 0.75752181 0.049059749
-0.12071101 0.78750336 0.051134586
-0.090663053 0.81394333 0.036015034
-0.090836525 0.84462374 0.041648984
-0.091064036 0.87578255 0.049037695
-0.061246693 0.90283775 0.038164616
-0.061513752 0.93507993 0.04972887
-0.031840697 0.96302795 0.043137431
-0.15066327 -0.90060419 0.059142828
-0.18095799 -0.87374884 0.071217656
-0.1807164 -0.84301084 0.066734076
-0.18068488 -0.81318218 0.066148996
-0.18071516 -0.78360116 0.066711664
-0.18075034 -0.75402945 0.067364216
-0.15073059 -0.72302037 0.060600162
-0.15075961 -0.69348121 0.061228514
0.11633233 -0.69468963 0.067769527
-0.15078864 -0.66393238 0.061856985
-0.15081768 -0.63437396 0.062485576
-0.15084672 -0.60480571 0.063114405
-0.15087578 -0.57522821 0.063743472
-0.15090483 -0.54564059 0.06437242
-0.15093392 -0.51604348 0.065002084
0.14618996 -0.51708919 0.072548866
-0.15096299 -0.48643678 0.065631747
0.14572679 -0.48537356 0.057507277
-0.15099208 -0.45682028 0.066261411
-0.15102118 -0.42719415 0.066891551
-0.1805274 -0.39709556 0.063226581
-0.1805625 -0.36748528 0.063878059
-0.18059762 -0.33786511 0.064529896
-0.18063153 -0.30823281 0.065159321
0.38289222 -0.30768913 0.058739185
-0.18066669 -0.27859265 0.065811634
-0.18070063 -0.2489409 0.066441417
-0.18073578 -0.21928091 0.067094088
-0.18076977 -0.18960962 0.067724466
-0.18080495 -0.15992962 0.068377376
-0.18083896 -0.13023886 0.06900835
-0.18087417 -0.10053892 0.069661856
-0.18090938 -0.070828952 0.070315599
-0.18094341 -0.041108578 0.070947051
-0.18097864 -0.0113788 0.071601033
-0.1810127 0.01836108 0.072232842
-0.15039656 0.018361317 0.053368211
-0.15042546 0.047965467 0.05399406
-0.15045232 0.077578783 0.054575443
-0.15047607 0.10719968 0.055089831
-0.15049881 0.13682769 0.055581927
-0.15052257 0.16646421 0.056096673
-0.15054533 0.19610757 0.056589007
-0.15056911 0.22575966 0.057103872
-0.15059187 0.25541821 0.057596564
-0.15061566 0.28508624 0.058111906
-0.15063843 0.31476009 0.058604836
-0.15066224 0.3444438 0.059120297
-0.12118163 0.37447929 0.063361406
-0.12120584 0.40421888 0.063990593
0.11640519 0.40491292 0.070924282
0.1455842 0.4031066 0.052876472
-0.12123006 0.43396816 0.064620018
-0.12125429 0.46372679 0.065249324
-0.12127853 0.49349552 0.065879226
-0.12130364 0.52327675 0.06653142
-0.12133136 0.55307752 0.067251563
-0.12135909 0.58288938 0.067972183
0.11629075 0.58259648 0.06596899
-0.12138682 0.61271232 0.068693042
0.1162212 0.6118294 0.062957168
-0.12141372 0.64254284 0.06939137
0.11605759 0.64035749 0.055872917
-0.12144148 0.6723879 0.070112467
-0.1510056 0.70148647 0.066554308
-0.15102118 0.73124987 0.066891789
-0.15107317 0.76117021 0.068017364
-0.15118349 0.79136062 0.070405722
-0.12086497 0.81791729 0.055134416
-0.12109607 0.84882474 0.061138749
-0.12139637 0.88022578 0.068940759
-0.091351047 0.9075014 0.058358312
-0.09171021 0.93992287 0.070022345
-0.061839484 0.968126 0.063833356
-0.12157697 -0.96357316 0.073632598
-0.1513388 -0.933851 0.07376802
-0.18147951 -0.90579522 0.080895782
-0.21171898 -0.84772372 0.087845206
-0.21163076 -0.81754982 0.08641243
-0.21166575 -0.78781402 0.08698082
-0.21170639 -0.75808769 0.087640405
-0.33149871 -0.60936338 0.091306567
-0.36135158 -0.5794121 0.090919018
-0.33138925 -0.5792892 0.090121508
0.11685906 -0.57935935 0.090577245
0.1167865 -0.54901385 0.087435722
0.1167146 -0.51872057 0.084321976
0.11656642 -0.48804289 0.077905774
-0.1817082 -0.45914564 0.085139871
-0.18174249 -0.42937472 0.085775852
-0.2114405 -0.39926136 0.083323002
-0.21148103 -0.36949703 0.083981395
-0.21152158 -0.33972272 0.084640026
-0.21156356 -0.30994013 0.085321546
-0.21160415 -0.28014526 0.085980415
-0.21164475 -0.25034031 0.086639762
-0.21168536 -0.22052525 0.087299228
-0.21172598 -0.19069993 0.087958932
-0.21176662 -0.1608645 0.088618875
-0.2118087 -0.13101998 0.089301825
-0.21184933 -0.10116399 0.089962125
-0.21189004 -0.071297899 0.090622783
-0.21193074 -0.041421697 0.09128356
-0.21197143 -0.011535332 0.091944695
-0.18104796 0.04811101 0.072887659
-0.18107963 0.07786981 0.073474526
-0.18110763 0.10763625 0.073993921
-0.18113561 0.13741063 0.074513435
-0.18116361 0.16719304 0.075033426
-0.18119162 0.1969834 0.075553179
-0.18121964 0.22678173 0.076073289
-0.18124767 0.25658828 0.076593637
-0.18127449 0.28640106 0.077091217
-0.18130255 0.31622332 0.077611566
-0.18133061 0.34605366 0.078132153
-0.15172982 0.37622282 0.082233787
-0.15175915 0.40610817 0.082869172
-0.1517885 0.4360033 0.083504558
0.11664071 0.43574664 0.081122518
-0.15181787 0.46590829 0.08414042
0.1165706 0.46520931 0.078086972
-0.36129913 0.49651515 0.090394855
-0.3313556 0.49643648 0.089757204
-0.15184724 0.49582303 0.084776282
0.1165006 0.4946259 0.075055838
-0.33150712 0.52653104 0.091397643
-0.15187767 0.52575064 0.085435033
-0.15191126 0.55569804 0.086162329
-0.15194488 0.58565629 0.086889982
-0.15197848 0.6156261 0.087617755
-0.15201107 0.64560318 0.088323116
-0.1520447 0.67559528 0.089051485
-0.18173146 0.70485342 0.085571289
-0.18176329 0.73481017 0.086162448
-0.18184786 0.76496416 0.087731242
-0.18200366 0.795407 0.090622902
-0.15137115 0.82193571 0.074468493
-0.15166488 0.85306847 0.080827832
-0.15204576 0.88472039 0.089074016
-0.12177455 0.9122144 0.078766108
-0.12224144 0.94490415 0.090896487
-0.092163809 0.97327954 0.084753633
-0.15239869 -0.969437 0.096715569
-0.18239233 -0.93977964 0.097835779
-0.21283384 -0.91177386 0.10594809
-0.21209788 -0.87900954 0.093997836
-0.24311368 -0.85265285 0.10992491
-0.24290343 -0.82196373 0.10688984
-0.24294482 -0.79207611 0.10748732
-0.24299102 -0.76219344 0.1081537
-0.36274302 -0.64154404 0.10482323
-0.33224344 -0.64062041 0.099368572
-0.36150444 -0.60954756 0.092446446
-0.36197513 -0.55043477 0.09714973
-0.33184433 -0.55012721 0.095047832
-0.33284488 -0.52170771 0.10587919
-0.24269189 -0.40147218 0.10383654
-0.24273799 -0.37155062 0.10450196
-0.2427841 -0.34161896 0.10516751
-0.2428302 -0.31167689 0.10583317
-0.24287795 -0.28172654 0.10652208
-0.24292411 -0.25176403 0.10718858
-0.2429703 -0.22179112 0.10785496
-0.24301647 -0.19180804 0.1085217
-0.24306269 -0.16181462 0.10918868
-0.24310891 -0.1318111 0.10985589
-0.24315514 -0.10179699 0.11052322
-0.24320142 -0.071773015 0.11119092
-0.24324767 -0.041738518 0.11185861
-0.21201217 0.018361198 0.092606068
-0.2120529 0.048268072 0.093267441
-0.21209085 0.078184165 0.093883634
-0.21212317 0.10810766 0.094408631
-0.21215552 0.1380394 0.094933748
-0.21218787 0.16797911 0.095459104
-0.21222022 0.19792706 0.095984221
-0.21225259 0.2278831 0.096509933
-0.21228497 0.25784716 0.097035408
-0.21231735 0.28781933 0.097561598
-0.21234834 0.31779787 0.098064661
-0.21238072 0.34778583 0.098590612
-0.36335954 0.43896464 0.11098361
-0.33274946 0.43830338 0.10484624
-0.36182877 0.46724173 0.095687509
-0.33177474 0.46708086 0.094294548
-0.36152041 0.52668905 0.092606187
-0.36281422 0.55838215 0.10553479
-0.33228365 0.55758804 0.099803686
-0.21279706 0.67835575 0.10535109
-0.18315169 0.67946965 0.11192799
-0.21283807 0.70847344 0.10601687
-0.21288331 0.7386142 0.10675204
-0.21299657 0.7689786 0.10859072
-0.18224949 0.82624167 0.095185041
-0.18260945 0.85760272 0.10186481
-0.18309958 0.8896063 0.11096072
-0.15252228 0.91697752 0.099391341
-0.12281813 0.97848332 0.10587907
-0.21405336 -0.94665623 0.1257509
-0.244619 -0.91790766 0.13165224
-0.24365844 -0.88450354 0.11778724
-0.27456892 -0.82659447 0.1283741
-0.27455458 -0.79637885 0.12818837
-0.27460644 -0.76633817 0.12886214
-0.33393851 -0.67382276 0.11771786
-0.30486003 -0.67594814 0.12972176
-0.30485609 -0.64575285 0.12967527
-0.39414337 -0.61365527 0.11785662
-0.30485609 -0.61556584 0.12967527
-0.39366084 -0.58286989 0.11337936
-0.30485412 -0.58537531 0.12965214
-0.39453214 -0.55399102 0.12146413
-0.30485609 -0.55519187 0.12967527
-0.36353934 -0.52266389 0.11278045
-0.30486199 -0.52501458 0.12974513
-0.33478132 -0.49444705 0.12684143
-0.27427593 -0.40370652 0.12456834
-0.2743277 -0.37362617 0.1252408
-0.27437949 -0.34353539 0.1259135
-0.27443129 -0.31343427 0.1265862
-0.27448308 -0.28332287 0.12725949
-0.27453494 -0.25320119 0.12793291
-0.2745868 -0.22306898 0.12860632
-0.27464044 -0.19292784 0.12930357
-0.27469236 -0.16277479 0.12997735
-0.27474424 -0.1326115 0.13065195
-0.27479619 -0.10243774 0.13132644
-0.24329557 -0.011694038 0.11254954
-0.24334188 0.01836108 0.11321807
-0.24338819 0.048426539 0.11388671
-0.24342971 0.078501284 0.11448622
-0.24346648 0.1085836 0.1150167
-0.24350326 0.13867404 0.11554742
-0.24354161 0.16877364 0.11610138
-0.24357842 0.19888081 0.11663258
-0.24361522 0.22899593 0.11716366
-0.24365203 0.25911942 0.11769497
-0.24368884 0.28925094 0.11822629
-0.24372567 0.31939068 0.11875772
-0.2437609 0.34953675 0.11926651
-0.33466986 0.41038796 0.12563503
-0.30485609 0.44097927 0.12967539
-0.39437753 0.47005254 0.12002945
-0.30485609 0.47116616 0.12967539
-0.39356893 0.49924108 0.11252677
-0.30485412 0.50135034 0.12965214
-0.39411846 0.52996337 0.11762559
-0.30486003 0.53154635 0.129722
-0.30485412 0.56172395 0.12965214
-0.33406448 0.59036475 0.11908138
-0.30485412 0.5919109 0.12965214
-0.24423428 0.68186957 0.12609911
-0.24428253 0.7121523 0.12679529
-0.24435489 0.74251008 0.12783992
-0.24448206 0.77303642 0.12967539
-0.21321487 0.79971278 0.11213505
-0.21354017 0.8308624 0.11741781
-0.21398339 0.86250645 0.12461472
-0.18371174 0.92227274 0.12232077
-0.15310876 0.94996148 0.11208892
-0.27561861 -0.89009756 0.14201021
-0.2748965 -0.85772145 0.13262951
-0.30658332 -0.80092752 0.15007317
-0.30663902 -0.77071524 0.15073085
-0.3657355 -0.67683423 0.13472581
-0.36629134 -0.49620575 0.14028013
-0.30513778 -0.49525315 0.13300204
-0.30620191 -0.40596974 0.14556885
-0.30626342 -0.37573305 0.14629531
-0.30632299 -0.34548309 0.14699876
-0.30638257 -0.31522244 0.14770246
-0.30644417 -0.28495258 0.14842963
-0.3065038 -0.25467005 0.14913392
-0.30656543 -0.22437799 0.14986169
-0.3066251 -0.19407363 0.15056658
-0.30668676 -0.16375938 0.15129471
-0.2748481 -0.072253652 0.13200104
-0.27490008 -0.042058922 0.13267624
-0.27495205 -0.011854151 0.13335133
-0.27500406 0.018361317 0.13402677
-0.27505606 0.04858683 0.13470244
-0.2751027 0.07882192 0.13530862
-0.2751458 0.10906535 0.13586807
-0.2751871 0.13931638 0.13640451
-0.27522841 0.16957574 0.13694096
-0.27526972 0.19984344 0.13747764
-0.27531102 0.23011956 0.13801455
-0.27535418 0.2604053 0.13857472
-0.27539551 0.29069808 0.139112
-0.27543688 0.320999 0.13964915
-0.36616975 0.41173193 0.13906527
-0.30511805 0.41110182 0.13276923
-0.36584514 0.59281319 0.1358217
-0.27600807 0.68542099 0.14706933
-0.27606401 0.71587068 0.14779627
-0.27616701 0.74644434 0.1491338
-0.24477224 0.80406171 0.13386369
-0.24518923 0.83553171 0.13988304
-0.24574728 0.8675335 0.14793694
-0.21456879 0.89477658 0.13411999
-0.21533014 0.92785275 0.14648306
-0.18446687 0.95574743 0.13633454
-0.24626513 -0.95396268 0.15541172
-0.27694243 -0.92448336 0.15920699
-0.3073068 -0.86352289 0.15861738
-0.30671266 -0.83160084 0.15160024
-0.2166409 -0.74364471 0.16776729
-0.18536678 -0.7408095 0.15303469
-0.3080034 -0.46920878 0.16684318
-0.30674648 -0.1334331 0.15200007
-0.30680624 -0.10309595 0.15270531
-0.30686796 -0.072748683 0.15343463
-0.30692774 -0.042389616 0.15414047
-0.30698755 -0.012019554 0.15484643
