ply
format ascii 1.0
comment PCL generated
element vertex 1194
property float x
property float y
property float z
element camera 1
property float view_px
property float view_py
property float view_pz
property float x_axisx
property float x_axisy
property float x_axisz
property float y_axisx
property float y_axisy
property float y_axisz
property float z_axisx
property float z_axisy
property float z_axisz
property float focal
property float scalex
property float scaley
property float centerx
property float centery
property int viewportx
property int viewporty
property float k1
property float k2
end_header
-0.32122582 -0.13480136 -0.32908595
-0.29988196 -0.13447249 -0.33620632
-0.28110358 -0.13501036 -0.32456076
-0.32122582 -0.11444411 -0.32908595
-0.29988196 -0.11417011 -0.33620632
-0.28110358 -0.11461837 -0.32456064
-0.32122582 -0.094086945 -0.32908583
-0.29988196 -0.093867667 -0.33620644
-0.28110358 -0.094226278 -0.32456076
-0.32122582 -0.073729791 -0.32908583
-0.29988196 -0.073565289 -0.33620632
-0.28110358 -0.07383424 -0.32456064
-0.32122582 -0.053372536 -0.32908595
-0.29988196 -0.053262919 -0.33620632
-0.28110358 -0.053442154 -0.32456076
-0.32122582 -0.033015281 -0.32908595
-0.29988196 -0.032960545 -0.33620632
-0.28110358 -0.033050161 -0.32456052
-0.32122582 -0.012658028 -0.32908595
-0.29988196 -0.012658075 -0.33620644
-0.28110358 -0.012658028 -0.32456076
-0.32122582 0.007699036 -0.32908583
-0.29988196 0.0076442985 -0.33620632
-0.28110358 0.0077339644 -0.32456052
-0.32122582 0.02805629 -0.32908583
-0.29988196 0.027946673 -0.33620632
-0.28110358 0.028126098 -0.32456076
-0.32122582 0.048413545 -0.32908583
-0.29988196 0.048249047 -0.33620632
-0.28110358 0.048518043 -0.32456052
-0.32122582 0.068770751 -0.32908595
-0.29988196 0.068551421 -0.33620632
-0.28110358 0.068910085 -0.32456076
-0.32122582 0.089128003 -0.32908595
-0.29988196 0.088853888 -0.33620644
-0.28110358 0.089302123 -0.32456064
-0.32122582 0.10948507 -0.32908583
-0.29988196 0.10915627 -0.33620632
-0.28110358 0.10969412 -0.32456052
-0.32122582 0.12984237 -0.32908583
-0.29988196 0.12945864 -0.33620632
-0.28110358 0.1300862 -0.32456064
-0.34471884 -0.15625603 -0.30871832
-0.32263595 -0.15567817 -0.31944454
-0.34471884 -0.13574211 -0.30871809
-0.26215705 -0.13555245 -0.31282473
-0.34471884 -0.11522806 -0.3087182
-0.26215705 -0.11507007 -0.31282473
-0.34471884 -0.094714083 -0.3087182
-0.26215705 -0.094587713 -0.31282461
-0.34471884 -0.074200034 -0.3087182
-0.26215705 -0.074105293 -0.31282473
-0.34471884 -0.053686079 -0.30871809
-0.26215705 -0.053622872 -0.31282473
-0.34471884 -0.03317203 -0.30871832
-0.26215705 -0.033140548 -0.31282461
-0.34471884 -0.012658123 -0.3087182
-0.26215705 -0.012658123 -0.31282473
-0.34471679 0.0078557329 -0.30873144
-0.26215705 0.0078242989 -0.31282473
-0.34471679 0.028369643 -0.30873144
-0.26215705 0.028306626 -0.31282461
-0.34471679 0.048883501 -0.30873132
-0.26215705 0.04878905 -0.31282473
-0.34471679 0.069397546 -0.30873156
-0.26215705 0.069271378 -0.31282461
-0.34471679 0.089911453 -0.30873144
-0.26215705 0.089753799 -0.31282461
-0.34471679 0.11042526 -0.30873144
-0.26215705 0.11023627 -0.31282473
-0.34471679 0.13093917 -0.30873132
-0.26215705 0.13071854 -0.31282461
-0.34471679 0.15145305 -0.30873132
-0.32203063 0.15053841 -0.32358325
-0.30341524 0.15133139 -0.31070721
-0.34685889 -0.1776261 -0.29481816
-0.30398881 -0.15637192 -0.30656791
-0.28516155 -0.15707329 -0.29355216
-0.24304187 -0.13609934 -0.30098438
-0.24304187 -0.11552574 -0.30098426
-0.24304187 -0.094952218 -0.30098426
-0.24304187 -0.074378692 -0.30098426
-0.24304187 -0.053805169 -0.30098426
-0.24304187 -0.033231646 -0.30098438
-0.24304187 -0.012658028 -0.30098426
-0.24304187 0.0079154475 -0.30098426
-0.24304187 0.028488971 -0.30098426
-0.24304187 0.049062498 -0.30098426
-0.24304187 0.069635972 -0.30098426
-0.24304187 0.090209588 -0.30098426
-0.24304187 0.11078312 -0.30098426
-0.24304187 0.1313566 -0.30098426
-0.28461805 0.15213208 -0.29770541
-0.34622616 0.17264612 -0.29892766
-0.36857435 -0.17804311 -0.28804779
-0.32815844 -0.17843473 -0.28168726
-0.36857435 -0.1573699 -0.28804791
-0.26614964 -0.15778157 -0.28040862
-0.36857435 -0.13669692 -0.28804779
-0.22375581 -0.13665104 -0.28903818
-0.2042979 -0.13720849 -0.2769711
-0.36857435 -0.11602369 -0.28804779
-0.22375581 -0.1159856 -0.28903806
-0.2042979 -0.11645 -0.2769711
-0.36857435 -0.095350593 -0.28804791
-0.22375581 -0.095320068 -0.28903806
-0.2042979 -0.095691644 -0.2769711
-0.36857435 -0.074677452 -0.28804779
-0.22375581 -0.074654579 -0.28903818
-0.2042979 -0.07493329 -0.2769711
-0.36857435 -0.054004308 -0.28804791
-0.22375581 -0.053989142 -0.28903806
-0.2042979 -0.054174788 -0.2769711
-0.36857435 -0.033331312 -0.28804779
-0.22375581 -0.03332356 -0.28903806
-0.2042979 -0.033416577 -0.2769711
-0.36857221 -0.012658171 -0.28806114
-0.22375581 -0.012658171 -0.28903806
-0.2042979 -0.012658123 -0.2769711
-0.36857221 0.0080149705 -0.28806114
-0.22375581 0.0080073634 -0.28903806
-0.2042979 0.008100233 -0.2769711
-0.36857221 0.028687872 -0.28806114
-0.22375581 0.028672945 -0.28903818
-0.2042979 0.028858688 -0.2769711
-0.36857221 0.04936092 -0.28806114
-0.22375581 0.049338337 -0.28903806
-0.2042979 0.049617093 -0.2769711
-0.36857221 0.070034012 -0.28806126
-0.22375581 0.070003867 -0.28903806
-0.2042979 0.070375353 -0.2769711
-0.36857221 0.090707012 -0.28806114
-0.22375581 0.090669401 -0.28903818
-0.2042979 0.091133811 -0.2769711
-0.36857221 0.11138001 -0.28806114
-0.22375581 0.11133484 -0.28903806
-0.2042979 0.11189222 -0.2769711
-0.36857221 0.13205291 -0.28806114
-0.22375581 0.13200033 -0.28903818
-0.2042979 0.13265066 -0.2769711
-0.36857221 0.15272607 -0.28806126
-0.26563638 0.15294065 -0.28457594
-0.36857221 0.173399 -0.28806114
-0.32755539 0.17355499 -0.28581023
-0.39280057 -0.20016968 -0.26706779
-0.37168694 -0.20005012 -0.2687937
-0.39280057 -0.17933512 -0.26706767
-0.30927378 -0.17925145 -0.26842678
-0.39279369 -0.1584982 -0.26710856
-0.24695036 -0.15849687 -0.26713562
-0.39278904 -0.13766272 -0.26713574
-0.18466303 -0.13777018 -0.26480877
-0.39278904 -0.11682867 -0.26713574
-0.18466303 -0.11691829 -0.26480877
-0.39278904 -0.095994473 -0.26713586
-0.18466303 -0.096066192 -0.26480877
-0.39278904 -0.075160369 -0.26713586
-0.18466303 -0.075214155 -0.26480877
-0.39278904 -0.054326322 -0.26713562
-0.18466303 -0.054362111 -0.26480877
-0.39278904 -0.033492222 -0.26713586
-0.18466303 -0.033510167 -0.26480877
-0.39278904 -0.012658075 -0.26713574
-0.18466303 -0.012658075 -0.26480877
-0.39278904 0.0081760241 -0.26713586
-0.18466303 0.0081939185 -0.26480877
-0.39278904 0.029010125 -0.26713586
-0.18466303 0.029045865 -0.26480877
-0.39278904 0.049844176 -0.26713574
-0.18466303 0.049897909 -0.26480877
-0.39278904 0.070678271 -0.26713586
-0.18466303 0.070749953 -0.26480877
-0.39278904 0.091512419 -0.26713586
-0.18466303 0.091601945 -0.26480877
-0.39278904 0.11234652 -0.26713586
-0.18466303 0.11245394 -0.26480877
-0.39278904 0.13318062 -0.26713562
-0.18466303 0.13330603 -0.26480877
-0.39279139 0.15401548 -0.26712215
-0.24646753 0.15375721 -0.27131701
-0.39279827 0.17485265 -0.2670815
-0.30870056 0.17447269 -0.27256358
-0.39279827 0.19568704 -0.26708126
-0.37087837 0.19517024 -0.27379537
-0.35215124 0.19619805 -0.26044333
-0.41740829 -0.20164612 -0.24575746
-0.35312539 -0.20106706 -0.25411582
-0.41740584 -0.18064664 -0.24577129
-0.29020211 -0.18007618 -0.25503516
-0.41739851 -0.15964583 -0.24581265
-0.22755939 -0.15921833 -0.2537452
-0.4174034 -0.13864885 -0.24578488
-0.16485839 -0.13834153 -0.25243986
-0.41740584 -0.11765097 -0.24577129
-0.16485022 -0.11739054 -0.2525363
-0.41740584 -0.096652374 -0.24577117
-0.16485022 -0.096444041 -0.25253618
-0.41740096 -0.075653195 -0.24579883
-0.16485022 -0.075497553 -0.2525363
-0.4174034 -0.054655127 -0.245785
-0.16485022 -0.054551106 -0.25253618
-0.41739851 -0.03365634 -0.24581265
-0.16485022 -0.033604614 -0.2525363
-0.41740096 -0.012658123 -0.24579883
-0.16485022 -0.012658123 -0.25253618
-0.4174034 0.0083403317 -0.245785
-0.16485022 0.0082884161 -0.2525363
-0.4174034 0.02933874 -0.245785
-0.16485022 0.029234909 -0.25253618
-0.41739851 0.050336622 -0.24581277
-0.16485022 0.050181404 -0.2525363
-0.4174034 0.071335696 -0.24578512
-0.16485022 0.071127847 -0.25253618
-0.4174034 0.092334196 -0.245785
-0.16485022 0.092074342 -0.2525363
-0.41740096 0.11333203 -0.24579895
-0.16485022 0.11302073 -0.25253618
-0.41739607 0.13432886 -0.2458266
-0.16485022 0.13396733 -0.2525363
-0.41739851 0.15532784 -0.24581265
-0.22710875 0.15458186 -0.25792694
-0.20755711 0.15541469 -0.24440324
-0.4174034 0.17632803 -0.245785
-0.28965896 0.17539963 -0.25918579
-0.27042782 0.17633566 -0.24567449
-0.41740584 0.19732748 -0.24577129
-0.33327225 0.19725412 -0.24672401
-0.33436131 -0.20209512 -0.23927784
-0.27093899 -0.18090816 -0.24152446
-0.207977 -0.15994787 -0.24020743
-0.14495429 -0.13896741 -0.23888934
-0.14485708 -0.11786724 -0.240152
-0.14485708 -0.096825436 -0.240152
-0.14485708 -0.075783536 -0.240152
-0.14485708 -0.054741777 -0.240152
-0.14485708 -0.033699878 -0.240152
-0.14485708 -0.012658075 -0.240152
-0.14485708 0.0083836811 -0.24015188
-0.14485708 0.02942558 -0.240152
-0.14485708 0.050467335 -0.240152
-0.14485708 0.071509138 -0.24015188
-0.14485708 0.092551038 -0.240152
-0.14485708 0.11359285 -0.240152
-0.14485708 0.13463464 -0.240152
-0.18780977 0.15625584 -0.230744
-0.25100422 0.17728119 -0.23202825
-0.3143521 0.1984048 -0.23177719
-0.41930857 0.21923618 -0.23502469
-0.442404 -0.22431023 -0.22412276
-0.42062834 -0.22404483 -0.22757053
-0.40205202 -0.22520955 -0.21244073
-0.442404 -0.20314501 -0.22412288
-0.31539327 -0.2031353 -0.22426319
-0.44240138 -0.18197893 -0.22413695
-0.25148505 -0.18174936 -0.22786438
-0.23183557 -0.18259911 -0.2140671
-0.44239625 -0.16081229 -0.22416496
-0.18819866 -0.16068467 -0.22653425
-0.16822146 -0.1614289 -0.21272361
-0.442404 -0.13964933 -0.22412288
-0.12485096 -0.13959953 -0.22520292
-0.44240138 -0.11848366 -0.22413695
-0.12468112 -0.1183482 -0.22765446
-0.10432065 -0.11883423 -0.21502793
-0.44240138 -0.097318545 -0.22413695
-0.12468112 -0.097210176 -0.22765446
-0.10432065 -0.097598977 -0.21502793
-0.44239625 -0.076152869 -0.22416484
-0.12468112 -0.076072246 -0.22765434
-0.10432065 -0.07636378 -0.21502793
-0.44239363 -0.054987714 -0.22417903
-0.12468112 -0.05493417 -0.22765446
-0.10432065 -0.055128574 -0.21502793
-0.44240138 -0.033823181 -0.22413695
-0.12468112 -0.033796102 -0.22765446
-0.10432065 -0.033893324 -0.21502793
-0.44240138 -0.012658123 -0.22413695
-0.12468112 -0.012658171 -0.22765446
-0.10432065 -0.012658171 -0.21502793
-0.44240138 0.0085069826 -0.22413695
-0.12468112 0.00847995 -0.22765446
-0.10432065 0.0085770795 -0.21502793
-0.442404 0.02967228 -0.22412276
-0.12468112 0.02961788 -0.22765434
-0.10432065 0.029812377 -0.21502793
-0.44239882 0.050836861 -0.22415078
-0.12468112 0.050756 -0.22765446
-0.10432065 0.051047534 -0.21502793
-0.44240138 0.072002351 -0.22413683
-0.12468112 0.071894027 -0.22765446
-0.10432065 0.072282828 -0.21502793
-0.44240138 0.093167409 -0.22413683
-0.12468112 0.09303195 -0.22765434
-0.10432065 0.093518078 -0.21502805
-0.44239882 0.11433195 -0.2241509
-0.12468112 0.11417007 -0.22765446
-0.10432065 0.11475319 -0.21502793
-0.44239882 0.1354969 -0.22415078
-0.12468112 0.1353081 -0.22765446
-0.10432065 0.13598844 -0.21502793
-0.44239625 0.15666105 -0.22416484
-0.16786379 0.15710546 -0.21694767
-0.44239882 0.17782693 -0.2241509
-0.23138535 0.17823602 -0.21824479
-0.44240138 0.19899285 -0.22413695
-0.29522339 0.19956811 -0.21666563
-0.442404 0.22015919 -0.22412276
-0.4007757 0.22051039 -0.21997714
-0.46780208 -0.22600338 -0.20212805
-0.38327214 -0.22638822 -0.19712877
-0.46779934 -0.20466794 -0.20214224
-0.2962139 -0.20418607 -0.20909679
-0.46779385 -0.18333173 -0.20217085
-0.21198764 -0.18345736 -0.2001307
-0.46779665 -0.16199832 -0.20215666
-0.14804129 -0.16217981 -0.19878769
-0.46779665 -0.14066398 -0.20215666
-0.10454538 -0.14023809 -0.21137881
-0.084033757 -0.14088236 -0.1974293
-0.46779934 -0.11933017 -0.20214236
-0.083771348 -0.11932418 -0.202299
-0.46780208 -0.097996302 -0.20212805
-0.083771348 -0.09799099 -0.20229912
-0.46779934 -0.076661341 -0.20214236
-0.083771348 -0.076657794 -0.20229912
-0.46779934 -0.055326998 -0.20214236
-0.083771348 -0.055324558 -0.20229924
-0.46779934 -0.033992607 -0.20214236
-0.083771348 -0.03399127 -0.20229912
-0.46779934 -0.012658171 -0.20214224
-0.083771348 -0.012658123 -0.20229912
-0.46779934 0.0086763138 -0.20214248
-0.083771348 0.0086750695 -0.20229912
-0.46779934 0.030010752 -0.20214248
-0.083771348 0.030008312 -0.20229924
-0.46780208 0.05134543 -0.20212805
-0.083771348 0.051341504 -0.20229924
-0.46780208 0.072680011 -0.20212805
-0.083771348 0.072674744 -0.20229924
-0.46780208 0.09401454 -0.20212805
-0.083771348 0.094008036 -0.20229924
-0.46779934 0.1153484 -0.20214224
-0.083771348 0.11534119 -0.20229912
-0.46779665 0.13668212 -0.20215666
-0.083803609 0.13670662 -0.20170021
-0.46779665 0.15801637 -0.20215654
-0.14771612 0.15796374 -0.20301187
-0.46779385 0.17934975 -0.20217085
-0.21156818 0.17920066 -0.2043221
-0.46779665 0.20068496 -0.20215666
-0.27588266 0.20074424 -0.20138657
-0.46780208 0.2220217 -0.20212817
-0.38204032 0.22179973 -0.20474899
-0.47109023 -0.24878474 -0.18504238
-0.36428285 -0.22758012 -0.18164623
-0.27682176 -0.20524846 -0.19376218
-0.19193956 -0.18432525 -0.18603814
-0.12765735 -0.16293909 -0.18469596
-0.063314572 -0.14153379 -0.18332386
-0.063031495 -0.11981864 -0.18945229
-0.063031495 -0.098386593 -0.18945217
-0.063031495 -0.076954357 -0.18945229
-0.063031495 -0.055522356 -0.18945217
-0.063031495 -0.034090169 -0.18945229
-0.063031495 -0.012658075 -0.18945229
-0.063031495 0.0087740188 -0.18945241
-0.063031495 0.030206114 -0.18945229
-0.063031495 0.051638111 -0.18945229
-0.063031495 0.073070392 -0.18945217
-0.063031495 0.094502389 -0.18945229
-0.063031495 0.11593454 -0.18945229
-0.063116625 0.13746595 -0.18760943
-0.12736373 0.15883064 -0.18893421
-0.19154975 0.18017498 -0.19025791
-0.25632471 0.20193247 -0.18595147
-0.3630943 0.22310242 -0.18936598
-0.4696165 0.24422713 -0.19270039
-0.49473438 -0.24970622 -0.17416012
-0.45250425 -0.2501047 -0.16945374
-0.49473438 -0.2281564 -0.17416012
-0.34508052 -0.22878531 -0.16599011
-0.49473438 -0.20660652 -0.17416012
-0.25721326 -0.20632276 -0.17825651
-0.49473438 -0.18505676 -0.17416012
-0.17168543 -0.18520105 -0.17181623
-0.49473438 -0.16350685 -0.17416036
-0.10706531 -0.16370623 -0.17046046
-0.49473438 -0.141957 -0.17416024
-0.042383753 -0.14219202 -0.16907406
-0.49473438 -0.12040725 -0.17416012
-0.042098477 -0.12031768 -0.17648578
-0.49473438 -0.098857455 -0.17416012
-0.042098477 -0.098785825 -0.17648578
-0.49473438 -0.077307612 -0.17416012
-0.042098477 -0.077253878 -0.17648578
-0.49473438 -0.055757716 -0.17416012
-0.042098477 -0.055721976 -0.17648578
-0.49473438 -0.034207921 -0.17416024
-0.042098477 -0.034190025 -0.17648578
-0.49473438 -0.012658171 -0.17416012
-0.042098477 -0.012658075 -0.17648578
-0.49473438 0.0088916747 -0.17416012
-0.042098477 0.0088737318 -0.17648578
-0.49473438 0.030441567 -0.17416012
-0.042098477 0.030405778 -0.17648578
-0.49473438 0.051991366 -0.17416024
-0.042098477 0.051937632 -0.17648578
-0.49473438 0.073541209 -0.17416024
-0.042098477 0.073469535 -0.17648578
-0.49473438 0.095091105 -0.17416024
-0.042098477 0.095001534 -0.17648578
-0.49473438 0.11664081 -0.17416012
-0.042098477 0.11653344 -0.17648578
-0.49473438 0.1381906 -0.17416012
-0.042218238 0.13823299 -0.17337441
-0.49473438 0.1597404 -0.17416012
-0.10680343 0.15970647 -0.1747129
-0.49473438 0.18129028 -0.17416024
-0.1713257 0.18115847 -0.17606461
-0.49473438 0.20284019 -0.17416012
-0.23654932 0.20313512 -0.17032909
-0.49473438 0.22439003 -0.17416024
-0.34394088 0.2244219 -0.17378199
-0.49473438 0.24593978 -0.17416012
-0.45109239 0.24566858 -0.17709565
-0.43370929 -0.2514396 -0.15368962
-0.32566372 -0.23000532 -0.15014255
-0.2373848 -0.20740899 -0.16257679
-0.15122473 -0.18608679 -0.15743363
-0.086261973 -0.16448125 -0.1560787
-0.021237597 -0.14285628 -0.15469289
-0.020969555 -0.12082151 -0.16339779
0.00035768747 -0.12133056 -0.15017223
-0.020969555 -0.099188752 -0.16339803
0.00035768747 -0.099596024 -0.15017223
-0.020969555 -0.077556126 -0.16339803
0.00035768747 -0.07786154 -0.15017223
-0.020969555 -0.055923507 -0.16339779
0.00035768747 -0.056127097 -0.15017223
-0.020969555 -0.034290791 -0.16339791
0.00035768747 -0.034392517 -0.15017223
-0.020969555 -0.012658075 -0.16339791
0.00035768747 -0.012658075 -0.15017223
-0.020969555 0.0089745941 -0.16339803
0.00035768747 0.0090764118 -0.15017223
-0.020969555 0.030607216 -0.16339791
0.00035768747 0.030810852 -0.15017223
-0.020969555 0.052239835 -0.16339791
0.00035768747 0.052545339 -0.15017223
-0.020969555 0.073872603 -0.16339803
0.00035768747 0.07427983 -0.15017211
-0.020969555 0.095505223 -0.16339779
0.00035768747 0.096014313 -0.15017211
-0.020969555 0.11713803 -0.16339803
0.00035768747 0.11774875 -0.15017223
-0.021105185 0.13900788 -0.15899336
-0.086032063 0.16059132 -0.16034555
-0.15089433 0.18215184 -0.16172576
-0.21655101 0.20435125 -0.15453076
-0.32457593 0.22575898 -0.15799296
-0.43235403 0.24712382 -0.16134417
-0.30602252 -0.23123682 -0.13414514
-0.21733412 -0.20850867 -0.14670551
-0.13055184 -0.18698068 -0.14291787
-0.065244079 -0.16526417 -0.14154875
0.00012619793 -0.14352806 -0.14014852
0.021886852 -0.12184381 -0.13683641
0.021886852 -0.1000067 -0.13683641
0.021886852 -0.078169532 -0.13683629
0.021886852 -0.056332361 -0.13683629
0.021886852 -0.03449529 -0.13683629
0.021886852 -0.012658123 -0.13683629
0.021886852 0.0091790436 -0.13683641
0.021886852 0.031016212 -0.13683629
0.021886852 0.052853286 -0.13683629
0.021886852 0.074690454 -0.13683629
0.021886852 0.096527621 -0.13683629
0.021886852 0.11836474 -0.13683617
0.00022584945 0.13979085 -0.14446378
-0.065046325 0.16148515 -0.1458298
-0.13025345 0.18315642 -0.14722455
-0.10939766 0.18417051 -0.13258791
-0.19632602 0.20558116 -0.13855302
-0.30499521 0.22711354 -0.14199519
-0.4133983 0.24859254 -0.1454438
-0.52560759 -0.23160946 -0.12930298
-0.28615007 -0.23247759 -0.11802578
-0.52560759 -0.2097144 -0.12930286
-0.19705436 -0.20961969 -0.13066876
-0.52560759 -0.18781915 -0.12930298
-0.10966565 -0.18788499 -0.12823629
-0.52560759 -0.16592404 -0.12930286
-0.044008262 -0.16605523 -0.12686825
-0.52560759 -0.14402898 -0.12930286
0.021711599 -0.14420678 -0.12545323
-0.52560759 -0.12213382 -0.1293031
0.043620367 -0.122362 -0.12337399
-0.52560759 -0.10023861 -0.12930286
0.043620367 -0.10042124 -0.12337387
-0.52560759 -0.078343548 -0.12930286
0.043620367 -0.078480437 -0.12337387
-0.52560759 -0.056448393 -0.12930286
0.043620367 -0.056539685 -0.12337399
-0.52560759 -0.034553234 -0.12930286
0.043620367 -0.03459888 -0.12337399
0.043620367 -0.012658123 -0.12337387
-0.52560759 -0.012658075 -0.12930286
-0.52560759 0.0092370352 -0.12930286
0.043620367 0.0092826812 -0.12337387
-0.52560759 0.031132147 -0.12930274
0.043620367 0.031223439 -0.12337399
-0.52560759 0.053027354 -0.12930286
0.043620367 0.053164244 -0.12337399
-0.52560759 0.074922413 -0.12930286
0.043620367 0.075105004 -0.12337387
-0.52560759 0.096817523 -0.12930274
0.043620367 0.097045809 -0.12337387
-0.52560759 0.11871268 -0.12930286
0.043620367 0.11898661 -0.12337387
-0.52560759 0.14060785 -0.12930286
0.021778267 0.14058191 -0.12978327
-0.52560759 0.16250314 -0.12930286
-0.043842927 0.16238856 -0.13116372
-0.022417955 0.16330008 -0.11635983
-0.52560759 0.1843981 -0.12930286
-0.088324741 0.18519515 -0.11779845
-0.52560759 0.20629327 -0.12930274
-0.1758692 0.20682395 -0.12240851
-0.52560759 0.22818838 -0.12930298
-0.28517959 0.22847618 -0.12590504
-0.52560759 0.25008354 -0.12930286
-0.39423192 0.25008076 -0.1293329
-0.26605773 -0.23373728 -0.10166121
-0.17654446 -0.21074446 -0.114434
-0.088560849 -0.18879758 -0.11341691
-0.022551611 -0.16685544 -0.11201918
0.043522071 -0.14489253 -0.110605
0.065561146 -0.12288507 -0.10978317
0.065561146 -0.10083972 -0.10978317
0.065561146 -0.078794315 -0.10978317
0.065561146 -0.056748919 -0.10978317
0.065561146 -0.034703523 -0.10978293
0.065561146 -0.012658171 -0.10978305
0.065561146 0.0093873227 -0.10978317
0.065561146 0.031432722 -0.10978317
0.065561146 0.053478122 -0.10978317
0.065561146 0.075523518 -0.10978317
0.065561146 0.09756887 -0.10978305
0.065561146 0.11961427 -0.10978305
0.043555513 0.14138125 -0.11494982
0.065561146 0.14218886 -0.099960685
-0.00076863915 0.16422139 -0.10140085
-0.06703198 0.18623157 -0.10283959
-0.1551792 0.20808218 -0.10606372
-0.26514098 0.22985671 -0.10960031
-0.57751596 -0.23440881 -0.092938423
-0.24573377 -0.23501164 -0.085107803
-0.57751596 -0.21223377 -0.092938662
-0.15579778 -0.21188116 -0.098027945
-0.57751596 -0.19005869 -0.092938542
-0.067235783 -0.18972073 -0.098427057
-0.57751596 -0.16788362 -0.092938423
-0.00086957961 -0.16766314 -0.097029924
-0.57751596 -0.14570852 -0.092938662
0.065561146 -0.14558549 -0.095600963
-0.57751596 -0.12353349 -0.092938423
0.087712169 -0.12341325 -0.096061945
-0.57751596 -0.10135838 -0.092938423
0.087712169 -0.1012622 -0.096061945
-0.57751596 -0.079183318 -0.092938662
0.087712169 -0.079111114 -0.096062064
-0.57751596 -0.057008252 -0.092938542
0.087712169 -0.056960214 -0.096062064
-0.57751596 -0.034833189 -0.092938423
0.087712169 -0.034809168 -0.096061945
0.087712169 -0.012658219 -0.096061945
-0.57751596 -0.012658075 -0.092938662
-0.57751596 0.0095169405 -0.092938542
0.087712169 0.0094929216 -0.096062064
-0.57751596 0.031692054 -0.092938542
0.087712169 0.03164392 -0.096061945
-0.57751596 0.053867117 -0.092938662
0.087712169 0.053794965 -0.096061945
-0.57751596 0.076042183 -0.092938542
0.087712169 0.075946011 -0.096062064
-0.57751596 0.098217249 -0.092938423
0.087712169 0.098096959 -0.096062064
-0.57751596 0.12039241 -0.092938423
0.087712169 0.12024796 -0.096062064
-0.57751596 0.14256728 -0.092938662
0.087798759 0.14300518 -0.084813476
-0.57751596 0.16474235 -0.092938423
0.021108314 0.16515325 -0.086268902
-0.57751596 0.18691751 -0.092938662
-0.045514368 0.18727775 -0.087738276
-0.57751596 0.20909257 -0.092938662
-0.13425168 0.20935616 -0.089514852
-0.57751596 0.23126768 -0.092938423
-0.24487159 0.23125337 -0.093108058
-0.60272849 -0.23542126 -0.079786062
-0.55736935 -0.23513328 -0.083527327
-0.22517577 -0.23630194 -0.068346977
-0.60272849 -0.21314505 -0.079785824
-0.55736935 -0.21288581 -0.083527327
-0.13481164 -0.21303093 -0.0814327
-0.60272849 -0.19086868 -0.079785943
-0.55736935 -0.19063821 -0.083527327
-0.045685403 -0.19065256 -0.083294868
-0.02390746 -0.1915953 -0.067986608
-0.60272849 -0.16859238 -0.079785943
-0.55736935 -0.16839071 -0.083527327
0.021040551 -0.16848013 -0.081867456
-0.60272849 -0.14631607 -0.079786062
-0.55736935 -0.14614324 -0.083527327
0.087832324 -0.14628507 -0.08045423
-0.60272849 -0.12403976 -0.079785943
-0.55736935 -0.12389565 -0.083527327
0.11007673 -0.12394704 -0.082193375
0.13265753 -0.12448546 -0.068206072
-0.60272849 -0.10176336 -0.079786062
-0.55736935 -0.10164814 -0.083527327
0.11007673 -0.10168929 -0.082193255
0.13265753 -0.10211992 -0.068206072
-0.60272849 -0.0794871 -0.079786062
-0.55736935 -0.079400733 -0.083527327
0.11007673 -0.079431452 -0.082193375
0.13265753 -0.079754464 -0.068206072
-0.60272849 -0.05721074 -0.079786062
-0.55736935 -0.057153083 -0.083527327
0.11007673 -0.057173755 -0.082193255
0.13265753 -0.057389066 -0.068206072
-0.60272849 -0.034934431 -0.079786062
-0.55736935 -0.034905627 -0.083527327
0.11007673 -0.034915917 -0.082193375
0.13265753 -0.03502357 -0.068206072
-0.55736935 -0.012658171 -0.083527327
0.11007673 -0.012658171 -0.082193255
0.13265753 -0.012658123 -0.068206072
-0.60272849 -0.012658028 -0.079786062
-0.60272849 0.0096181864 -0.079786062
-0.55736935 0.009589429 -0.083527327
0.11007673 0.0095996698 -0.082193375
0.13265753 0.0097073736 -0.068205953
-0.60272849 0.031894498 -0.079785943
-0.55736935 0.031836934 -0.083527327
0.11007673 0.031857416 -0.082193255
0.13265753 0.032072775 -0.068205833
-0.60272849 0.054170854 -0.079786062
-0.55736935 0.05408439 -0.083527327
0.11007673 0.054115303 -0.082193255
0.13265753 0.054438271 -0.068206072
-0.60272849 0.07644707 -0.079785943
-0.55736935 0.076331995 -0.083527327
0.11007673 0.076373145 -0.082193375
0.13265753 0.076803766 -0.068205953
-0.60272849 0.098723471 -0.079786062
-0.55736935 0.098579496 -0.083527327
0.11007673 0.098630741 -0.082193255
0.13265753 0.099169075 -0.068205953
-0.60272849 0.12099978 -0.079786062
-0.55736935 0.120827 -0.083527207
0.11007673 0.12088868 -0.082193375
0.13265753 0.12153476 -0.068205953
-0.60272849 0.14327623 -0.079786062
-0.55736935 0.1430746 -0.083527327
0.11027206 0.14382997 -0.06950593
-0.60272849 0.16555248 -0.079785943
-0.55736935 0.16532196 -0.083527327
0.04321713 0.16609393 -0.070992231
-0.60272849 0.18782875 -0.079786062
-0.55736935 0.18756947 -0.083527327
-0.023769185 0.18833508 -0.072477221
-0.60272849 0.21010502 -0.079786062
-0.55736935 0.20981713 -0.083527327
-0.1130822 0.21064617 -0.072758555
-0.60272849 0.23238142 -0.079786062
-0.55736935 0.23206462 -0.083527327
-0.22436741 0.23266606 -0.076424599
-0.1135809 -0.21419296 -0.064660549
-0.0018972382 -0.19254707 -0.052531362
0.04318301 -0.16930512 -0.066559792
0.11033964 -0.14699359 -0.065116048
0.13298443 0.14466284 -0.054051161
0.065561146 0.16704476 -0.055553198
-0.0017931536 0.1894047 -0.057038307
-0.091666117 0.21195234 -0.055790305
-0.20362577 0.23409665 -0.059530973
-0.20437777 -0.23760721 -0.051390409
-0.092104197 -0.21537071 -0.047660708
0.02034815 -0.19351019 -0.036894679
0.065561146 -0.17013952 -0.051073432
0.13308653 -0.14770886 -0.049630046
0.15587342 -0.12554839 -0.040588021
0.15587342 -0.10297035 -0.040588021
0.15587342 -0.080392316 -0.040588021
0.15587342 -0.057814188 -0.040588021
0.15587342 -0.035236157 -0.040588021
0.15587342 -0.012658123 -0.040588021
0.15587342 0.0099200057 -0.040588021
0.15587342 0.032498039 -0.040588021
0.15587342 0.055076122 -0.040587902
0.15587342 0.077654205 -0.040588021
0.15587342 0.10023224 -0.040588021
0.15587342 0.12281032 -0.040587902
0.15593985 0.14550447 -0.038430691
0.08814425 0.1680067 -0.039933085
0.020418283 0.19048475 -0.041450143
-0.069999501 0.21327628 -0.03859055
-0.18263946 0.23554245 -0.042455077
-0.18333556 -0.23892784 -0.034234762
-0.63886523 -0.217169 -0.021704555
-0.07037425 -0.2165612 -0.030477405
-0.63886523 -0.19444561 -0.021704555
0.042833105 -0.19448239 -0.021106005
-0.63886523 -0.17172211 -0.021704555
0.088178858 -0.17098215 -0.035437226
0.11104015 -0.17183456 -0.019616604
-0.63886523 -0.14899862 -0.021704555
0.15607743 -0.14843254 -0.03396225
-0.63886523 -0.12627529 -0.021704555
-0.63886523 -0.10355184 -0.021704555
-0.63886523 -0.080828495 -0.021704435
-0.63886523 -0.058105003 -0.021704555
-0.63886523 -0.035381518 -0.021704555
-0.63886523 -0.012658123 -0.021704435
-0.63886523 0.010065318 -0.021704555
-0.63886523 0.032788761 -0.021704555
-0.63886523 0.055512197 -0.021704435
-0.63886523 0.078235641 -0.021704555
-0.63886523 0.10095913 -0.021704555
-0.63886523 0.12368247 -0.021704555
-0.63886523 0.14640597 -0.021704555
-0.63886523 0.16912927 -0.021704435
0.11097018 0.16897807 -0.024160981
-0.63886523 0.19185275 -0.021704555
0.042868428 0.19157624 -0.025694132
-0.63886523 0.2145762 -0.021704555
-0.048072815 0.21460992 -0.021267772
-0.16140702 0.23700677 -0.025161743
-0.16204731 -0.24026656 -0.016844153
-0.048387557 -0.21776575 -0.013090849
0.065561146 -0.19546628 -0.005130291
0.1341486 -0.17269552 -0.0036408901
0.13404289 0.16995986 -0.0082184076
0.065561146 0.19268094 -0.0097519159
-0.025885768 0.21595922 -0.0037389994
-0.13992253 0.23848854 -0.00766325
-0.14050455 -0.24162 0.00073707104
-0.026140049 -0.2189859 0.0045188665
0.088536359 -0.19645981 0.011002898
0.15750886 -0.17356667 0.012524962
0.15736689 0.17095324 0.0079141855
0.088500522 0.19379631 0.0063472986
-0.11818254 0.2399895 0.010060906
-0.11870299 -0.24298835 0.018512011
-0.003625527 -0.2202182 0.022305965
0.11176293 -0.19746524 0.027328968
0.11169046 0.19492382 0.022622585
-0.0034332946 0.21732329 0.013982177
-0.096181139 0.24150826 0.027997851
-0.096638426 -0.24437189 0.036484122
0.019159559 -0.22146524 0.040306568
0.13525984 -0.19852127 0.044477105
0.1351355 0.19606502 0.039093137
0.019288477 0.21870521 0.031933188
-0.074305594 -0.24576937 0.054638982
0.042220239 -0.22272626 0.058507919
0.22845791 -0.15228401 0.049422383
0.22845791 -0.12901291 0.049422383
0.22845791 -0.10574195 0.049422264
0.22845791 -0.082470991 0.049422503
0.22845791 -0.059200034 0.049422383
0.22845791 -0.035929032 0.049422264
0.22845791 -0.012658123 0.049422503
0.22845791 0.010612738 0.049422383
0.22845791 0.03388384 0.049422264
0.22845791 0.057154797 0.049422503
0.22845791 0.080425657 0.049422264
0.22845791 0.10369676 0.049422264
0.22845791 0.12696767 0.049422503
0.22845791 0.15023872 0.049422503
0.1588392 0.19721738 0.055728912
0.042284563 0.22010761 0.050152063
-0.073912039 0.24304263 0.04611814
-0.051701084 -0.24718258 0.072997093
0.15905634 -0.1996485 0.062780261
0.18280348 -0.1767974 0.07248044
0.18280348 -0.15334894 0.07248044
0.25254413 -0.15289535 0.062660456
0.18280348 -0.12990047 0.072480559
0.25254413 -0.12952258 0.062660575
0.18280348 -0.10645191 0.07248044
0.25254413 -0.10614956 0.062660575
0.18280348 -0.083003528 0.07248044
0.25254413 -0.082776785 0.062660694
0.18280348 -0.059555061 0.07248044
0.25254413 -0.059403863 0.062660575
0.18280348 -0.036106687 0.07248044
0.25254413 -0.036030993 0.062660575
0.25254413 -0.012658123 0.062660575
0.18280348 -0.012658028 0.07248044
0.18280348 0.010790301 0.07248044
0.25254413 0.010714748 0.062660575
0.18280348 0.034238815 0.072480559
0.25254413 0.034087621 0.062660694
0.18280348 0.057687283 0.072480559
0.25254413 0.057460487 0.062660575
0.18280348 0.081135757 0.07248044
0.25254413 0.080833457 0.062660575
0.18280348 0.10458422 0.07248044
0.25254413 0.10420618 0.062660575
0.18280348 0.12803259 0.07248044
0.25254413 0.12757915 0.062660575
0.18280348 0.15148112 0.072480559
0.25254413 0.15095204 0.062660694
0.18280348 0.17492972 0.07248044
0.18280944 0.19838887 0.072635651
0.065561146 0.22152591 0.068575859
-0.051373087 0.24459718 0.064475775
-0.028821357 -0.24861431 0.091596723
0.065561146 -0.22400746 0.076999664
0.18314189 -0.20078728 0.081272364
0.20694263 -0.17760324 0.087434411
0.20694263 -0.15403956 0.087434292
0.20694263 -0.13047607 0.087434411
0.20694263 -0.10691248 0.087434411
0.20679578 -0.0832754 0.084254622
0.20694263 -0.059785303 0.087434411
0.20694263 -0.036221713 0.087434411
0.20694263 -0.012658171 0.087434411
0.20694263 0.010905419 0.087434411
0.20694263 0.034468915 0.087434411
0.20694263 0.058032691 0.087434411
0.20679578 0.081498295 0.084254861
0.20694263 0.10515978 0.087434292
0.20694263 0.12872328 0.087434411
0.20694263 0.15228701 0.087434411
0.20694263 0.1758505 0.087434411
0.20712201 0.19968323 0.091317773
0.089123257 0.2229629 0.087242961
-0.028559484 0.24617352 0.083092332
0.089188501 -0.22530426 0.095718145
0.2075226 -0.2019401 0.099990845
0.23131999 -0.17841694 0.10253572
0.23131903 0.17677951 0.1025182
0.11297604 0.2244163 0.10612309
-0.0054649711 0.24777104 0.10195613
-0.0056605488 -0.25006372 0.11042488
0.1131076 -0.22661714 0.11466789
0.23220299 -0.20310599 0.11892271
0.25593904 -0.17923877 0.11778677
0.25593793 0.17771874 0.11776924
0.23173463 0.20099352 0.11023068
0.017916366 0.24938823 0.12105441
0.13732389 -0.22794634 0.13385296
0.25719041 -0.20428739 0.13810682
0.28080219 -0.18006781 0.13317204
0.28080219 -0.15615211 0.13317192
0.28080219 -0.13223651 0.13317204
0.28080219 -0.10832077 0.13317204
0.28080219 -0.084405169 0.13317227
0.28080344 -0.060489707 0.13318992
0.28080344 -0.036573868 0.13319004
0.28080344 -0.012658171 0.13318992
0.28080344 0.01125767 0.13318992
0.28080344 0.035173513 0.13319004
0.28080344 0.0590894 0.13319004
0.28080219 0.083004571 0.13317204
0.28080219 0.10692032 0.13317204
0.28080219 0.13083588 0.13317204
0.28080219 0.15475157 0.13317204
0.28080219 0.17866711 0.13317204
0.25665399 0.20232129 0.12939632
0.13712615 0.22589196 0.12529111
0.041590042 0.25102407 0.14037323
0.16184071 -0.22928716 0.15320551
0.30591545 -0.18090619 0.14872932
0.30591545 -0.15687074 0.14872932
0.30591545 -0.13283533 0.14872932
0.30591545 -0.10879986 0.14872932
0.30591545 -0.084764354 0.14872921
0.30591545 -0.060728993 0.14872932
0.30591545 -0.03669358 0.14872921
0.30591545 -0.012658123 0.14872932
0.30591545 0.011377287 0.14872932
0.30591545 0.035412844 0.14872932
0.30591545 0.059448108 0.14872932
0.30591545 0.083483525 0.14872921
0.30591545 0.10751908 0.14872909
0.30591545 0.13155439 0.14872932
0.30591545 0.15558994 0.14872932
0.30591545 0.1796253 0.14872932
0.28188503 0.20366579 0.14880157
0.16157877 0.22738583 0.14469898
0.18666551 -0.23064597 0.17281878
0.28248981 -0.20548357 0.15753067
0.33128151 -0.18175291 0.16444314
0.33128151 -0.15759648 0.16444302
0.33128151 -0.13344017 0.16444302
0.33128151 -0.10928374 0.16444302
0.33128151 -0.085127324 0.16444302
0.33128151 -0.060970955 0.16444302
0.33128151 -0.036814541 0.16444302
0.33128151 -0.012658123 0.16444302
0.33128151 0.01149815 0.16444302
0.33128151 0.035654709 0.16444325
0.33128151 0.05981113 0.16444314
0.33128151 0.083967492 0.16444302
0.33128151 0.10812391 0.16444302
0.33128151 0.13228033 0.16444302
0.33128151 0.15643671 0.16444302
0.33128151 0.1805931 0.16444302
0.30743223 0.20502585 0.16843271
0.18633609 0.22889183 0.16426039
0.30810559 -0.20669366 0.17717993
0.35690245 -0.18260722 0.18029737
0.35690245 -0.15832877 0.18029737
0.35690245 -0.13405026 0.18029737
0.35690245 -0.10977188 0.18029737
0.35690245 -0.085493453 0.18029737
0.35690415 -0.06121536 0.18031573
0.35690415 -0.036936596 0.18031585
0.35690415 -0.012658123 0.18031585
0.35690415 0.011620543 0.18031573
0.35690415 0.035899017 0.18031573
0.35690415 0.060177639 0.18031573
0.35690415 0.084456109 0.18031585
0.35690415 0.10873488 0.18031585
0.35690415 0.13301344 0.18031585
0.35690415 0.15729207 0.18031585
0.35690415 0.18157049 0.18031585
0.33330429 0.20640446 0.18833113
0.21140684 0.23041801 0.18408704
0.21180372 -0.23202187 0.19267964
0.33404493 -0.20791899 0.19707751
0.3827855 -0.18347119 0.19633126
0.3827855 -0.15906936 0.19633126
0.3827855 -0.13466749 0.19633138
0.3827855 -0.11026557 0.19633114
0.3827855 -0.085863695 0.19633126
0.3827855 -0.061461821 0.19633126
0.3827855 -0.037059996 0.19633126
0.3827855 -0.012658171 0.19633126
0.3827855 0.011743653 0.19633138
0.38278735 0.036145959 0.19634986
0.38278735 0.06054797 0.1963501
0.38278735 0.084949896 0.19634986
0.38278735 0.10935191 0.1963501
0.38278735 0.13375401 0.19634998
0.38278735 0.15815595 0.1963501
0.38278735 0.18255787 0.19634998
0.2367944 0.2319608 0.20412827
0.23726435 -0.23341933 0.2128495
0.36031571 -0.20916119 0.21724701
0.35950613 0.20780064 0.20848298
0.26305026 -0.2348334 0.23325884
0.38603839 0.20921066 0.22883618
0.26250747 0.23352478 0.22444475
0.38692287 -0.21041919 0.23767447
0.28855008 0.23510727 0.24500334
0.28916997 -0.23626691 0.2539506
0.31493121 0.23671179 0.26584768
0.31562746 -0.23771784 0.27489173
0.41546616 -0.21260385 0.27314913
0.41547251 -0.18761384 0.2732079
0.41547251 -0.1626201 0.2732079
0.41547251 -0.13762645 0.2732079
0.41547251 -0.11263285 0.27320814
0.41547251 -0.087639205 0.2732079
0.41547251 -0.062645465 0.2732079
0.41547251 -0.037651818 0.2732079
0.41547251 -0.012658028 0.2732079
0.41547251 0.012335475 0.27320814
0.41547251 0.037329268 0.27320814
0.41547251 0.062322862 0.2732079
0.41547251 0.087316655 0.2732079
0.41547251 0.11231025 0.2732079
0.41547251 0.1373038 0.27320814
0.41547251 0.16229759 0.27320814
0.41547251 0.18729115 0.2732079
0.41546831 0.21228206 0.27316892
0.34243214 -0.23918885 0.29612601
0.3416546 0.23833595 0.28694367
0.36958775 -0.24067804 0.31761968
0.36873022 0.2399828 0.30833638
0.39616141 0.24164985 0.32999146
0.39710477 -0.24218825 0.33941805
0.42495978 -0.24370012 0.36123908
0.42397469 0.24335147 0.35209858
0.45497987 -0.24630933 0.39890003
0.45497987 -0.22034806 0.39890003
0.45497987 -0.19438694 0.39890015
0.45497987 -0.16842563 0.39890003
0.45497987 -0.14246437 0.39890003
0.45497987 -0.11650326 0.39890015
0.45497987 -0.090541996 0.39890003
0.45497987 -0.064580694 0.39890003
0.45497987 -0.038619433 0.39890015
0.45497987 -0.012658171 0.39890015
0.45497987 0.013303089 0.39890015
0.45497987 0.0392644 0.39890003
0.45497987 0.065225564 0.39890015
0.45497987 0.091186874 0.39890003
0.45497987 0.11714818 0.39890003
0.45497987 0.14310929 0.39890015
0.45497987 0.1690706 0.39890015
0.45497987 0.19503191 0.39890015
0.45497987 0.22099312 0.39890015
0.45497987 0.24695434 0.39890015
0.48341566 -0.24770129 0.41899121
0.48341304 -0.22158405 0.41896975
0.48341566 -0.19546929 0.41899121
0.48341832 -0.16935459 0.41901267
0.48341832 -0.1432385 0.41901267
0.48341832 -0.1171224 0.41901267
0.48341832 -0.091006257 0.41901267
0.48341832 -0.064890213 0.41901267
0.48341304 -0.038773883 0.41896999
0.48341304 -0.012658123 0.41896999
0.48341304 0.013457634 0.41896975
0.48341566 0.039573777 0.41899121
0.48341832 0.065690018 0.4190129
0.48341566 0.091805533 0.41899121
0.48341566 0.11792138 0.41899121
0.48341566 0.14403734 0.41899121
0.48341566 0.17015325 0.41899121
0.48341566 0.19626909 0.41899121
0.48341566 0.22238514 0.41899145
0.48341566 0.24850096 0.41899121
0.51219517 -0.24911153 0.439345
0.51219237 -0.22283755 0.43932319
0.51218951 -0.19656393 0.43930137
0.51219237 -0.17029263 0.43932343
0.51219517 -0.14402112 0.439345
0.51218671 -0.11774647 0.43928015
0.51218951 -0.091474973 0.43930161
0.51219517 -0.065203235 0.43934488
0.51219517 -0.038930867 0.439345
0.51219237 -0.012658171 0.43932343
0.51218951 0.013614238 0.43930173
0.51219517 0.039887082 0.439345
0.51219517 0.066159584 0.439345
0.51219237 0.092431568 0.43932343
0.51219237 0.11870407 0.43932319
0.51219517 0.14497748 0.439345
0.51219517 0.17124996 0.43934488
0.51219517 0.19752255 0.43934488
0.51219517 0.22379525 0.43934488
0.51219517 0.25006783 0.43934488
0.54131913 -0.22410612 0.45992219
0.54131603 -0.19767395 0.45990062
0.54131305 -0.17124201 0.45987856
0.54131603 -0.14481229 0.45990014
0.54131305 -0.11838083 0.45987856
0.54131305 -0.091949999 0.45987856
0.54131305 -0.065519407 0.45987856
0.54131913 -0.039089195 0.45992243
0.54131603 -0.012658075 0.45990038
0.54131913 0.013772995 0.45992243
0.54131913 0.04020378 0.45992243
0.54131603 0.066634469 0.45990038
0.54131603 0.093065158 0.45990062
0.54131603 0.11949599 0.45990038
0.54131913 0.14592788 0.45992243
0.54132211 0.17236005 0.45994425
0.54132211 0.19879107 0.45994425
0.54132211 0.22522233 0.45994425
0.54131913 0.25165182 0.45992243
0.57079625 -0.22538871 0.48074925
0.57079303 -0.1987962 0.48072731
0.57079303 -0.17220518 0.48072731
0.57079303 -0.14561397 0.48072731
0.57079303 -0.11902275 0.48072731
0.57079303 -0.092431724 0.48072708
0.57078981 -0.06584008 0.48070514
0.57079947 -0.039249532 0.48077154
0.57079947 -0.012658075 0.48077154
0.57079625 0.013933283 0.48074925
0.57079625 0.04052455 0.48074925
0.57079303 0.067115337 0.48072708
0.57079303 0.093706407 0.48072731
0.57079625 0.12029843 0.48074925
0.57079947 0.14689076 0.48077154
0.57080281 0.17348351 0.48079371
0.57079947 0.20007381 0.48077154
0.57079947 0.22666536 0.48077154
0.60063672 -0.22668839 0.50185299
0.60063326 -0.19993334 0.50183058
0.60063326 -0.17317969 0.50183082
0.60063672 -0.14642712 0.50185299
0.60063672 -0.11967333 0.50185323
0.60062981 -0.092918329 0.50180817
0.60062635 -0.066164725 0.50178576
0.60063326 -0.039411731 0.50183058
0.60062981 -0.012658267 0.50180817
0.60063326 0.014095486 0.50183082
0.60063672 0.040849432 0.50185299
0.60063326 0.067602709 0.50183058
0.60063326 0.094356366 0.50183058
0.60063326 0.12110983 0.50183082
0.60063326 0.14786349 0.50183082
0.60064018 0.17461962 0.50187552
0.60064018 0.20137347 0.50187552
0.60064018 0.22812742 0.50187552
0.630844 -0.22800413 0.52321637
0.6308403 -0.20108445 0.5231936
0.630844 -0.17416759 0.52321613
0.6308403 -0.14724837 0.52319336
0.63083673 -0.12032974 0.52317083
0.63083303 -0.093411297 0.52314806
0.63083303 -0.066493526 0.52314782
0.63083673 -0.039576136 0.52317095
0.63083673 -0.012658171 0.52317095
0.630844 0.014260176 0.52321613
0.6308403 0.041177951 0.5231936
0.6308403 0.068096012 0.5231936
0.6308403 0.09501417 0.5231936
0.6308403 0.12193213 0.5231936
0.630844 0.14885132 0.52321613
0.6308403 0.17576835 0.5231936
0.63084769 0.20268914 0.52323878
0.630844 0.22960594 0.52321613
0.66142118 -0.22933452 0.5448209
0.66142118 -0.20224996 0.54482055
0.66142118 -0.1751653 0.54482055
0.66141725 -0.14807992 0.54479754
0.66141331 -0.12099491 0.54477453
0.66141331 -0.093910724 0.54477477
0.66141725 -0.066826731 0.54479754
0.66141331 -0.039742261 0.54477453
0.66141725 -0.012658075 0.54479754
0.66142118 0.014426398 0.54482067
0.66141725 0.041510679 0.54479778
0.66142118 0.068595536 0.54482055
0.66142118 0.095680103 0.54482067
0.66142499 0.12276544 0.54484367
0.66141725 0.14984819 0.54479754
0.66141725 0.17693238 0.54479778
0.66142499 0.20401962 0.54484344
0.66142499 0.23110443 0.54484344
0.69238245 -0.23068291 0.56671691
0.69238245 -0.20342992 0.56671691
0.6923784 -0.17617577 0.56669378
0.69237423 -0.14892192 0.56667042
0.69237018 -0.12166826 0.56664705
0.69237423 -0.094416186 0.56667018
0.69238245 -0.067164347 0.56671691
0.69237018 -0.039910682 0.56664705
0.69237423 -0.01265798 0.56667018
0.6923784 0.014594818 0.56669354
0.6923784 0.041847713 0.56669354
0.6923784 0.069100708 0.56669354
0.6923784 0.096353598 0.56669354
0.6923784 0.12360649 0.56669378
0.6923784 0.15085939 0.56669378
0.6923784 0.17811237 0.56669378
0.69238245 0.20536661 0.56671691
0.69238663 0.23262148 0.56674027
0.72373164 -0.23204832 0.58888733
0.72372735 -0.20462346 0.58886409
0.72372293 -0.17719851 0.58884013
0.72371864 -0.14977433 0.588817
0.72371864 -0.122351 0.58881676
0.72372293 -0.094928339 0.58884037
0.72372735 -0.0675053 0.58886409
0.72371864 -0.04008121 0.58881652
0.72371423 -0.01265798 0.58879328
0.72371423 0.014764869 0.58879328
0.72372735 0.042188961 0.58886409
0.72372735 0.069612764 0.58886385
0.72372735 0.09703619 0.58886409
0.72372735 0.12445989 0.58886409
0.72372735 0.15188341 0.58886385
0.72372735 0.17930703 0.58886409
0.72372735 0.20673054 0.58886385
0.72373164 0.23415588 0.58888757
0.75547135 -0.23342939 0.61131358
0.7554667 -0.20583171 0.61128938
0.7554667 -0.17823555 0.61128986
0.7554667 -0.1506394 0.61128986
0.7554667 -0.12304296 0.61128962
0.75547135 -0.095447384 0.6113137
0.75547135 -0.067851044 0.61131358
0.75547135 -0.040254515 0.61131358
0.75547135 -0.012658171 0.6113137
0.75547135 0.014938171 0.61131358
0.75547135 0.042534802 0.61131358
0.75547588 0.070131622 0.61133766
0.75547135 0.097727485 0.61131358
0.75547135 0.12532392 0.61131358
0.75547135 0.15292037 0.61131334
0.75547135 0.1805167 0.61131358
0.75547135 0.20811313 0.61131358
0.75547135 0.23570947 0.61131358
0 0 0 1 0 0 0 1 0 0 0 1 0 0 0 0 0 1194 1 0 0
