ply
format ascii 1.0
comment PCL generated
element vertex 1343
property float x
property float y
property float z
element camera 0
property float view_px
property float view_py
property float view_pz
property float x_axisx
property float x_axisy
property float x_axisz
property float y_axisx
property float y_axisy
property float y_axisz
property float z_axisx
property float z_axisy
property float z_axisz
property float focal
property float scalex
property float scaley
property float centerx
property float centery
property int viewportx
property int viewporty
property float k1
property float k2
end_header
0.43424129 -0.012761269 -0.21241164
0.45563358 -0.012761316 -0.2145555
0.49988377 -0.012761316 -0.21131611
0.52261782 -0.012761316 -0.20704448
0.47770011 -0.01276122 -0.21316612
0.41349447 0.0090896245 -0.2064352
0.43423307 0.0090433471 -0.21245599
0.45577008 0.0090325605 -0.21384621
0.47784221 0.0090433471 -0.21245599
0.49999458 0.0090561081 -0.21078289
0.52261138 0.0090846643 -0.20707428
0.41348654 0.030939844 -0.20648003
0.43422759 0.030847386 -0.21248555
0.45590955 0.030837514 -0.21312165
0.47798741 0.030859087 -0.2117306
0.50010544 0.030881867 -0.21024942
0.522605 0.030930214 -0.20710397
0.41347867 0.05278939 -0.20652449
0.43421942 0.05265075 -0.21252978
0.45604908 0.052653879 -0.21239686
0.47812968 0.052685566 -0.21101987
0.50023484 0.052717827 -0.20962691
0.52259541 0.05277504 -0.20714867
0.4134708 0.074638307 -0.20656908
0.43421125 0.074453436 -0.21257436
0.45618576 0.074480794 -0.21168625
0.478275 0.074523605 -0.21029389
0.50038278 0.074566029 -0.20891488
0.52258897 0.074619621 -0.20717824
0.4134655 0.096487038 -0.20659888
0.4342522 0.096265614 -0.2123524
0.45632541 0.096319214 -0.21096063
0.4784174 0.096372187 -0.20958245
0.50053394 0.096425831 -0.20818782
0.52268183 0.096481308 -0.20674741
0.41352338 0.1183518 -0.20627189
0.43438625 0.11810452 -0.21162701
0.45646226 0.11816813 -0.21024942
0.47856283 0.11823252 -0.20885551
0.5006851 0.118297 -0.2074604
0.52283239 0.1183622 -0.20604908
0.41397643 0.14034191 -0.2037133
0.4346599 0.13999529 -0.21014559
0.45664203 0.14004011 -0.20931542
0.47875297 0.14011592 -0.20790577
0.50088894 0.14019278 -0.20648003
0.52347386 0.14037639 -0.20307291
0.41442764 0.16237064 -0.20116496
0.43521088 0.16200145 -0.20716333
0.4568305 0.16192901 -0.20833623
0.47895205 0.16201684 -0.20691097
0.50112987 0.16211489 -0.20532048
0.43577129 0.1840567 -0.20413017
0.45719916 0.18389803 -0.20642066
0.47914839 0.18393202 -0.20592988
0.50166512 0.18415271 -0.20274532
0.41370505 0.20583954 -0.20524585
0.43430418 0.20531407 -0.21207118
0.4552443 0.20496711 -0.21657848
0.47690201 0.204923 -0.21715367
0.49913055 0.20509328 -0.21493959
0.52243215 0.20563474 -0.20790577
0.39160326 0.22757871 -0.20667303
0.41206461 0.22691499 -0.21451128
0.54412925 0.22742029 -0.20854414
0.36960289 0.24934138 -0.20760894
0.39020076 0.24866284 -0.2149545
0.37024951 0.27158368 -0.20360923
0.39043105 0.27058429 -0.21359491
0.54337162 0.27075011 -0.2119379
0.39189535 0.29331201 -0.20494843
0.41241276 0.29249328 -0.21254468
0.52053744 0.29204571 -0.21669638
0.3718946 -0.29812455 -0.19343269
0.54817307 -0.29842508 -0.19043016
0.35014918 -0.27629685 -0.19209731
0.32834822 -0.25442845 -0.19100118
0.34887257 -0.25363344 -0.20038927
0.56894857 -0.25403732 -0.19562042
0.35009831 -0.23234893 -0.1924274
0.37081346 -0.23175672 -0.20012045
0.37226585 -0.21047956 -0.19113636
0.39293048 -0.20994608 -0.19883621
0.54775733 -0.21039948 -0.19229233
0.37296623 -0.1887777 -0.1868037
0.39389896 -0.18838884 -0.19311774
0.41487163 -0.1880478 -0.19865692
0.52568108 -0.18840647 -0.19283259
0.3728177 -0.16672614 -0.18772244
0.39382023 -0.16641043 -0.19358253
0.41472358 -0.16609189 -0.19949341
0.52460933 -0.16618291 -0.19780505
0.3726936 -0.14469562 -0.18849015
0.39374152 -0.14443906 -0.19404733
0.41448307 -0.14412475 -0.2008518
0.54855245 -0.14468466 -0.18873084
0.3726182 -0.12268867 -0.1889565
0.39357403 -0.12245467 -0.19503641
0.54726183 -0.1224749 -0.19451201
0.37254283 -0.10068882 -0.18942285
0.39334327 -0.100474 -0.19639897
0.54648995 -0.10042575 -0.19796944
0.37235811 -0.078680605 -0.19056535
0.39311528 -0.078514762 -0.1977452
0.54609305 -0.078468531 -0.19974732
0.37213716 -0.05668645 -0.19193232
0.39288497 -0.05657598 -0.19910514
0.54592311 -0.05655431 -0.20050859
0.35107556 -0.034768909 -0.18608034
0.37191883 -0.034713484 -0.19328272
0.39267761 -0.034659207 -0.20032954
0.54588646 -0.034656513 -0.20067275
0.35086447 -0.012761316 -0.18745136
0.37175405 -0.012761316 -0.1943022
0.39267254 -0.012761316 -0.20035923
0.54589319 -0.012761269 -0.20064294
0.35073927 0.0092295166 -0.18826437
0.37174678 0.0091826618 -0.19434714
0.392665 0.0091360472 -0.20040405
0.54588646 0.0091340244 -0.20067275
0.35073465 0.03121987 -0.18829441
0.37173951 0.031125918 -0.19439209
0.39265737 0.031032737 -0.20044887
0.5458765 0.031028546 -0.20071757
0.35072771 0.053209357 -0.18833959
0.37173465 0.053068884 -0.19442213
0.39264983 0.052928656 -0.20049357
0.54590648 0.052926585 -0.20058322
0.57103693 0.053250097 -0.18657768
0.35072073 0.075198218 -0.18838465
0.37172738 0.07501094 -0.19446707
0.39264476 0.074824482 -0.2005235
0.54604977 0.074842393 -0.1999414
0.35106394 0.097273901 -0.18615568
0.3718437 0.096981741 -0.19374764
0.39263716 0.096719101 -0.2005682
0.54640317 0.096804239 -0.19835806
0.37225851 0.11904885 -0.1911813
0.39294568 0.11869939 -0.19874656
0.54713142 0.11886802 -0.19509625
0.37256715 0.14112006 -0.1892724
0.39337873 0.14074723 -0.1961894
0.54834425 0.14109902 -0.18966353
0.3726863 0.16314851 -0.18853521
0.39373896 0.16280809 -0.19406235
0.52446431 0.1625362 -0.19847751
0.37289315 0.18522587 -0.1872555
0.39386338 0.18480514 -0.19332755
0.41483992 0.18442364 -0.19883633
0.52553558 0.18479271 -0.19350767
0.37246019 0.20701826 -0.18993425
0.39313808 0.20642738 -0.19761074
0.54853225 0.20710392 -0.1888212
0.35028094 0.22888547 -0.19124138
0.37100896 0.22823595 -0.19891095
0.32842952 0.25092703 -0.19044518
0.34889781 0.2500236 -0.200225
0.56894857 0.25044882 -0.19562054
0.59332132 0.25139278 -0.1854018
0.34996668 0.27261704 -0.19328272
0.57122838 0.27337092 -0.18574858
0.54665017 0.29414141 -0.19725168
0.37170073 0.2944237 -0.19463181
0.33083478 -0.30006933 -0.17400014
0.35154256 -0.29916394 -0.18304706
0.30871311 -0.27795458 -0.17415226
0.32954031 -0.27715111 -0.18285072
0.57156283 -0.27701718 -0.1843003
0.59627807 -0.27806002 -0.17301154
0.30806965 -0.25546199 -0.17879593
0.5945074 -0.25532347 -0.18043125
0.30866048 -0.23372644 -0.17453218
0.329357 -0.23298968 -0.18410408
0.57179296 -0.23305129 -0.18330383
0.59640151 -0.23388335 -0.17249417
0.33070144 -0.21160361 -0.17491198
0.35148674 -0.21101487 -0.18340969
0.33112627 -0.18968895 -0.17200732
0.35200351 -0.18919343 -0.180053
0.55187154 -0.18957463 -0.17386317
0.33093491 -0.16750242 -0.17331588
0.35186139 -0.16708972 -0.18097603
0.54993594 -0.16700584 -0.18253338
0.33074367 -0.14533615 -0.17462325
0.35171938 -0.14500017 -0.18189847
0.33055481 -0.12319074 -0.17591429
0.35157743 -0.12292482 -0.18282056
0.57469368 -0.12338967 -0.17074335
0.33039945 -0.1010721 -0.1769768
0.35143557 -0.10086387 -0.18374181
0.57251924 -0.10097415 -0.18015885
0.3092995 -0.079157345 -0.16992021
0.33026415 -0.07897301 -0.17790174
0.35134724 -0.078824878 -0.18431544
0.30912003 -0.057005387 -0.17121542
0.33012891 -0.056888271 -0.17882621
0.35127524 -0.056796439 -0.18478334
0.30893862 -0.034873262 -0.17252481
0.33000708 -0.034818366 -0.17965937
0.30875736 -0.012761269 -0.17383301
0.32992512 -0.01276122 -0.18021941
0.30861837 0.0093329083 -0.17483592
0.32972601 0.009280948 -0.18158102
0.30849841 0.031413794 -0.17570174
0.32963753 0.031313967 -0.18218565
0.30844793 0.053492852 -0.17606604
0.32963088 0.053350404 -0.18223107
0.308671 0.075627185 -0.17445612
0.32979459 0.07542219 -0.18111229
0.5715524 0.075322598 -0.18434572
0.30893862 0.097798556 -0.17252481
0.33000931 0.097524457 -0.17964399
0.57372046 0.09770494 -0.17495751
0.30922771 0.12000677 -0.17043841
0.33021536 0.1196467 -0.17823517
0.35132402 0.11935902 -0.18446648
0.33043051 0.1417941 -0.17676413
0.3514728 0.14143114 -0.18350029
0.33071029 0.16399118 -0.17485118
0.35170075 0.16354983 -0.18201947
0.54965943 0.16344191 -0.18377197
0.33101499 0.18622963 -0.17276835
0.35192659 0.18569039 -0.18055236
0.55157971 0.18606316 -0.1751703
0.33088371 0.20827064 -0.17366552
0.3516705 0.20761231 -0.18221605
0.5747993 0.20853078 -0.17028606
0.32953367 0.22959211 -0.18289602
0.30873841 0.23034796 -0.17396975
0.57237244 0.22977014 -0.18079448
0.59572309 0.23023224 -0.17533731
0.30814737 0.25205487 -0.17823517
0.30855098 0.27441448 -0.17532194
0.32937023 0.27354467 -0.18401349
0.59517258 0.27418202 -0.17764401
0.33066365 0.29652119 -0.17517018
0.35135889 0.29554379 -0.18423998
0.57458818 0.29694903 -0.17120016
0.37547633 0.31906241 -0.17127633
0.39686903 0.31856549 -0.17558026
0.41874516 0.31842697 -0.17677951
0.37811595 -0.32422322 -0.15494788
0.40000087 -0.32399255 -0.1570878
0.4223842 -0.32408547 -0.15622604
0.31006357 -0.30102938 -0.16440606
0.57566279 -0.30081505 -0.16654706
0.26668045 -0.27957928 -0.15656447
0.28776097 -0.27876443 -0.16538513
0.2669479 -0.25752836 -0.15439332
0.28761691 -0.25650442 -0.16648579
0.28815767 -0.23466393 -0.16235399
0.28912887 -0.2129879 -0.15493262
0.30992365 -0.21226156 -0.16541588
0.57584631 -0.21223825 -0.16575229
0.28925389 -0.19079933 -0.15397716
0.31020781 -0.19022118 -0.16336501
0.28907847 -0.16847232 -0.15531766
0.31002539 -0.16796769 -0.16468167
0.57812452 -0.16844159 -0.15588748
0.28890321 -0.14616601 -0.15665698
0.30984315 -0.14573464 -0.16599679
0.57765204 -0.14610703 -0.15793335
0.28873014 -0.12388095 -0.15797961
0.30966318 -0.12352233 -0.16729569
0.28855518 -0.10161587 -0.1593163
0.30948126 -0.10132983 -0.16860843
0.28838041 -0.0793714 -0.1606518
0.59864587 -0.079315156 -0.16308928
0.6230486 -0.079523042 -0.15408504
0.2882058 -0.057147443 -0.16198611
0.2671473 -0.03502534 -0.15277433
0.28803334 -0.034944292 -0.16330385
0.26700863 -0.012761269 -0.15390015
0.28786108 -0.012761316 -0.1646204
0.26683971 0.0094834901 -0.15527141
0.28770494 0.0094023962 -0.16581333
0.266671 0.031707205 -0.15664148
0.28755295 0.031548053 -0.16697466
0.26671648 0.053949945 -0.15627217
0.28753096 0.053698905 -0.16714275
0.266927 0.076239631 -0.15456283
0.28776097 0.075906396 -0.16538525
0.59876287 0.07599216 -0.16259897
0.6230486 0.076254413 -0.15408504
0.26713398 0.098554648 -0.15288234
0.28802332 0.098150626 -0.16338038
0.2883001 0.12043059 -0.16126537
0.28857729 0.14274329 -0.15914714
0.30951509 0.14224681 -0.16836441
0.57764137 0.14280623 -0.15797949
0.30980504 0.16451959 -0.16627181
0.28885689 0.16508985 -0.15701067
0.57800722 0.1651278 -0.15639544
0.28913492 0.18746842 -0.15488636
0.31009325 0.18682387 -0.16419184
0.2893326 0.20983247 -0.15337586
0.31013781 0.20902467 -0.16387045
0.2882058 0.23136279 -0.16198599
0.26699534 0.25429285 -0.15400803
0.28769293 0.25319397 -0.16590524
0.2665346 0.276173 -0.15774882
0.28760692 0.27529091 -0.1665622
0.28920147 0.29876214 -0.15437806
0.30978596 0.29746532 -0.16640961
0.35482287 0.32016349 -0.1617409
0.44233114 0.31936884 -0.16862381
0.55564737 0.32071674 -0.15694916
0.35654566 -0.32469708 -0.15055108
0.44653362 -0.3252008 -0.14587724
0.53750741 -0.32605338 -0.13796568
0.26872763 -0.30347741 -0.13994372
0.28948399 -0.30224895 -0.15221894
0.24562064 -0.28051937 -0.14638865
0.24594662 -0.25844517 -0.14356565
0.24634507 -0.23637591 -0.14011478
0.26729366 -0.23549293 -0.15158594
0.26823178 -0.2137474 -0.14396954
0.26820695 -0.1914032 -0.14417112
0.26804262 -0.16900097 -0.14550531
0.26787847 -0.1466196 -0.14683807
0.24665624 -0.12467235 -0.13742006
0.2677297 -0.12426335 -0.14804578
0.24652848 -0.10225605 -0.13852656
0.26757917 -0.10192527 -0.14926815
0.24640799 -0.079858258 -0.13957
0.26743063 -0.079606451 -0.15047383
0.2462768 -0.057475146 -0.14070606
0.26728034 -0.057305925 -0.15169394
0.246117 -0.035107538 -0.14209008
0.24595737 -0.012761269 -0.14347255
0.24579787 0.009563718 -0.14485383
0.24568325 0.03187339 -0.14584625
0.24574414 0.054202951 -0.1453191
0.24594301 0.07657735 -0.14359677
0.24614391 0.098979048 -0.14185679
0.24634147 0.12140597 -0.14014602
0.26735455 0.12090054 -0.15109181
0.24653208 0.14385632 -0.13849545
0.26759058 0.14328071 -0.14917529
0.2467427 0.16634251 -0.13667142
0.26782888 0.16569155 -0.14724076
0.26808465 0.18814214 -0.14516389
0.26834846 0.21062945 -0.14302218
0.24644575 0.23328869 -0.13924301
0.26735643 0.23228666 -0.15107644
0.24598962 0.25529194 -0.14319289
0.24566537 0.2773487 -0.14600122
0.26853412 0.30014843 -0.14151478
0.33456302 0.32169127 -0.14851022
0.46761245 0.32125223 -0.15231144
0.53576529 0.32197559 -0.14604783
0.33757615 -0.32713717 -0.12790906
0.24779618 -0.30471796 -0.12754798
0.2247166 -0.28172714 -0.13331354
0.20346689 -0.26029837 -0.12168097
0.22478572 -0.25936753 -0.13267231
0.2252703 -0.23729506 -0.12817585
0.22596008 -0.21528502 -0.12177563
0.24722072 -0.21453981 -0.13253152
0.22582594 -0.19270577 -0.12302005
0.24707988 -0.19204499 -0.13375127
0.58431774 -0.19233318 -0.12906992
0.60643506 -0.19224824 -0.13044918
0.2257055 -0.17015247 -0.12413764
0.24693915 -0.16956873 -0.13496995
0.22559193 -0.14761935 -0.12519145
0.24679676 -0.14711079 -0.13620329
0.22548014 -0.12510306 -0.12622893
0.22535488 -0.10259897 -0.12739098
0.22520438 -0.080107272 -0.12878764
0.225054 -0.057637189 -0.13018286
0.20353633 -0.035270017 -0.1209873
0.22490376 -0.035188444 -0.1315769
0.22475368 -0.012761316 -0.13296962
0.20339593 -0.01276122 -0.12239015
0.20328403 0.0097280256 -0.1235081
0.22460374 0.0096445233 -0.13436079
0.20325726 0.032213178 -0.12377572
0.22454986 0.032042563 -0.13486063
0.20331872 0.054714605 -0.12316179
0.22461215 0.054457791 -0.13428259
0.20349371 0.077260435 -0.12141311
0.22479919 0.076917566 -0.13254714
0.22498816 0.099404648 -0.13079393
0.22517562 0.1219184 -0.12905431
0.22536334 0.14445879 -0.12731266
0.22554451 0.16702238 -0.12563169
0.22572246 0.18960963 -0.12398028
0.246968 0.18886568 -0.13472009
0.58454597 0.18932551 -0.1280818
0.60720235 0.18938427 -0.12723398
0.2259261 0.21224089 -0.12209082
0.2471936 0.21141906 -0.13276613
0.22536334 0.23429886 -0.12731266
0.20350316 0.25731254 -0.12131858
0.22482619 0.25629842 -0.1322968
0.20357576 0.27989125 -0.12059295
0.22462395 0.27853239 -0.13417315
0.24768382 0.30154866 -0.12852097
0.31417269 0.32327998 -0.13475132
0.22668359 -0.30596751 -0.11506212
0.18237147 -0.28420961 -0.10643983
0.20364052 -0.28296196 -0.11994636
0.18198508 -0.2612347 -0.11062241
0.20401999 -0.23822042 -0.11615419
0.2045688 -0.21605444 -0.11066997
0.20446399 -0.19340181 -0.11171758
0.20435759 -0.17076448 -0.11278033
0.20424023 -0.14813848 -0.11395323
0.18253633 -0.12593339 -0.10465503
0.20409918 -0.12552138 -0.11536288
0.18240529 -0.10325529 -0.1060735
0.20395827 -0.10292599 -0.11677098
0.1822744 -0.080599129 -0.10749042
0.20381749 -0.080352284 -0.11817789
0.58829945 -0.080498867 -0.11182868
0.1821436 -0.057964694 -0.10890615
0.20367682 -0.057800341 -0.11958325
0.58843136 -0.057928529 -0.11125743
0.18201298 -0.03535217 -0.11032057
0.58856702 -0.035349473 -0.11066985
0.60916752 -0.035285331 -0.11899912
0.18188244 -0.012761269 -0.11173356
0.5886991 -0.012761316 -0.11009824
0.60931826 -0.012761316 -0.11836743
0.18181354 0.0098129231 -0.11247909
0.58883119 0.0098356046 -0.10952616
0.60938615 0.0097697768 -0.11808312
0.18180478 0.032385673 -0.11257434
0.588956 0.032440953 -0.10898578
0.60930699 0.032295763 -0.11841488
0.18186194 0.054973349 -0.11195552
0.6093446 0.054827914 -0.11825681
0.18202472 0.077605903 -0.11019337
0.18218914 0.10026625 -0.1084131
0.2036705 0.099833906 -0.11964619
0.18235233 0.12295341 -0.10664678
0.20384595 0.12243392 -0.11789334
0.58763313 0.12258078 -0.11471379
0.18251571 0.14566769 -0.10487807
0.20402157 0.14506103 -0.11613834
0.20419899 0.16771628 -0.11436534
0.20437032 0.19039443 -0.11265361
0.20453706 0.21309561 -0.11098742
0.20410869 0.23531874 -0.11526787
0.18204233 0.258358 -0.11000276
0.18232879 0.28126156 -0.10690153
0.22664434 0.3029598 -0.11542618
0.29527289 0.32637078 -0.10798371
0.18391311 -0.30850053 -0.089750767
0.20539114 -0.30722928 -0.10245287
0.16090506 -0.28546882 -0.092807889
0.1604228 -0.262261 -0.098503232
0.1610072 -0.24011044 -0.091601849
0.18259084 -0.23915099 -0.10406494
0.16130042 -0.21761541 -0.088139057
0.18303955 -0.21684858 -0.09920764
0.16118032 -0.19476648 -0.089557528
0.18293166 -0.19410026 -0.10037541
0.16105896 -0.17193866 -0.090990543
0.18279877 -0.17135535 -0.10181403
0.16093773 -0.14913294 -0.092422128
0.18266746 -0.14863347 -0.10323513
0.16081661 -0.12634921 -0.093852401
0.16069427 -0.10358717 -0.095297217
0.16057342 -0.080847755 -0.096724868
0.16045263 -0.058130253 -0.098150969
0.13849294 -0.035518259 -0.08873558
0.16033199 -0.035434805 -0.099575639
0.13842717 -0.012761316 -0.089589596
0.16023043 -0.012761316 -0.10077512
0.13840362 0.0099868141 -0.089895844
0.16019118 0.0098994598 -0.10123873
0.13840362 0.0327348 -0.089895606
0.1601871 0.032559466 -0.10128665
0.13845074 0.055496991 -0.089283586
0.16023991 0.055234209 -0.1006633
0.16039029 0.077954069 -0.098887563
0.16054219 0.10070191 -0.097093582
0.1606929 0.12347677 -0.095313191
0.16084382 0.14627917 -0.093531251
0.16099629 0.16911012 -0.091730595
0.18268076 0.16841058 -0.1030916
0.16114759 0.19196777 -0.089944005
0.18284452 0.19117975 -0.1013186
0.16128814 0.21484332 -0.088284135
0.18300703 0.21397527 -0.099559665
0.16108352 0.23739912 -0.090700746
0.1826719 0.23634171 -0.1031872
0.16049606 0.25949997 -0.097638249
0.16088328 0.28264624 -0.093065023
0.18399349 0.30582082 -0.088880658
0.2054151 0.30438387 -0.10221326
0.1622186 -0.30974686 -0.07729578
0.13923609 -0.28673691 -0.079081535
0.13877618 -0.26339966 -0.085055947
0.13927481 -0.24111304 -0.078578472
0.13944861 -0.2184342 -0.076320887
0.13926858 -0.19543764 -0.078659773
0.13915744 -0.17252535 -0.080103159
0.1390464 -0.1496353 -0.081545472
0.11689267 -0.12718882 -0.072039962
0.13893551 -0.12676755 -0.082986236
0.11679219 -0.10425866 -0.073489904
0.1388247 -0.10392191 -0.084425688
0.11669184 -0.081350841 -0.074938655
0.13871399 -0.081098557 -0.085863709
0.11659155 -0.058465369 -0.076385975
0.13860339 -0.058297355 -0.087300181
0.11650152 -0.035603352 -0.077685714
0.11645652 -0.012761316 -0.078335047
0.11644641 0.010074602 -0.078481078
0.11644978 0.032911338 -0.078432441
0.11649252 0.055761799 -0.077815533
0.11661746 0.078658395 -0.076012015
0.13858849 0.078304887 -0.087494016
0.11674369 0.1015834 -0.07419014
0.13872766 0.10114095 -0.085686088
0.11686895 0.1245359 -0.072382212
0.13886577 0.12400441 -0.083892226
0.13900402 0.14689532 -0.0820961
0.13914371 0.16981523 -0.080281615
0.13927108 0.19275184 -0.078627229
0.13941607 0.21573174 -0.076743364
0.13934356 0.23850121 -0.077685595
0.13881099 0.26070416 -0.084603548
0.13923359 0.28404242 -0.07911396
0.16237691 0.30727077 -0.075426579
0.14033163 -0.31099236 -0.064850092
0.11736468 -0.28801668 -0.065227032
0.094941489 -0.26578653 -0.056868196
0.11696158 -0.26458603 -0.071045399
0.11735106 -0.2421257 -0.06542325
0.11742254 -0.2192608 -0.064391494
0.095012508 -0.19685076 -0.055714965
0.11719123 -0.19611071 -0.067730188
0.094862424 -0.17370825 -0.05815208
0.11709388 -0.17311631 -0.069135547
0.09477634 -0.15065119 -0.059550047
0.11699321 -0.15014131 -0.070588589
0.094686292 -0.12761326 -0.061012387
0.094596304 -0.10459781 -0.062473297
0.094506435 -0.081604958 -0.063932538
0.094416656 -0.058634687 -0.065390587
0.094359197 -0.035690799 -0.066323638
0.094328962 -0.01276122 -0.066814542
0.094318889 0.01016316 -0.066977978
0.094324924 0.033089131 -0.066879749
0.094363205 0.056028828 -0.066258073
0.094475143 0.079014696 -0.064440489
0.094588228 0.10202947 -0.062604308
0.094700433 0.12507173 -0.060782433
0.094801627 0.14813249 -0.059139013
0.11699434 0.14751625 -0.070572138
0.094853289 0.17116874 -0.058300138
0.11710972 0.17051569 -0.068906903
0.094986118 0.19430962 -0.056143284
0.11717653 0.19349204 -0.067942739
0.11739419 0.21665099 -0.064801097
0.11741234 0.23961453 -0.064538956
0.094951607 0.26328146 -0.056703687
0.11697174 0.26197028 -0.070898414
0.11737942 0.28545338 -0.065013766
0.14056262 0.30873406 -0.061849713
0.11846993 -0.3125512 -0.049273729
0.095287956 -0.28930861 -0.051242113
0.072713144 -0.26700276 -0.042505503
0.095230974 -0.24314608 -0.052167535
0.072853036 -0.22095694 -0.039909482
0.095220797 -0.22009616 -0.052332759
0.072653152 -0.19759554 -0.043619156
0.072470717 -0.17430894 -0.047004461
-0.15843007 -0.15146753 -0.041873574
0.072393037 -0.1511641 -0.048446059
-0.15831885 -0.12816454 -0.046689391
0.072314538 -0.12804088 -0.049902558
-0.1816175 -0.10530185 -0.039609671
-0.15820301 -0.10492956 -0.051704884
-0.13532591 -0.10525938 -0.040991783
0.049707107 -0.10528394 -0.040192723
0.072235234 -0.10493962 -0.051374316
-0.18152373 -0.082096435 -0.04265511
-0.15817747 -0.081861824 -0.052811742
-0.13532591 -0.082134865 -0.040991664
0.049638696 -0.082119115 -0.041673899
0.072156005 -0.081861101 -0.052844763
-0.18152373 -0.05898473 -0.04265511
-0.15817821 -0.058828801 -0.052778602
-0.13532591 -0.059010349 -0.040991783
0.049591832 -0.058984153 -0.04268837
0.072082184 -0.058806747 -0.054214478
-0.18152373 -0.035873026 -0.04265523
-0.15817821 -0.035795107 -0.052778482
-0.13532591 -0.035885833 -0.040991664
0.049561121 -0.035867676 -0.043353081
0.072045751 -0.035778828 -0.054890633
-0.18152373 -0.012761316 -0.04265511
-0.15817821 -0.012761316 -0.052778602
-0.13532591 -0.012761269 -0.040991783
0.049552687 -0.012761365 -0.043535948
0.072027974 -0.012761316 -0.055220485
-0.18152373 0.010350438 -0.04265511
-0.15817821 0.010272522 -0.052778602
-0.13532591 0.010363199 -0.040991783
0.049548082 0.010342829 -0.043635488
0.072019987 0.010252537 -0.0553689
-0.18152373 0.033462144 -0.04265511
-0.15817821 0.033306263 -0.052778721
-0.13532591 0.033487715 -0.040991545
0.049554981 0.033449288 -0.043486118
0.072027974 0.033268608 -0.055220485
-0.18152373 0.056573801 -0.04265523
-0.15817821 0.056340151 -0.052778602
-0.13532591 0.056612276 -0.040991783
0.049583383 0.056568988 -0.042871237
0.072060861 0.056297727 -0.05461061
-0.18152373 0.079685509 -0.04265511
-0.15817821 0.079373747 -0.052778602
-0.13532591 0.079736702 -0.040991783
0.049668662 0.079735689 -0.041025043
0.072159566 0.079373747 -0.052778602
-0.18158776 0.10287735 -0.040575743
-0.15819043 0.10242796 -0.052250147
-0.13532591 0.1028614 -0.040991783
0.072259285 0.10247881 -0.050927997
-0.15830429 0.12569357 -0.047319293
-0.13534334 0.12603812 -0.039859533
0.072347529 0.12560245 -0.049290419
0.072387673 0.14870323 -0.048545241
-0.158417 0.14903243 -0.042438984
0.072454624 0.1718462 -0.047302842
0.072630771 0.1951485 -0.044034481
0.072813548 0.21851076 -0.040642142
0.095194347 0.2175777 -0.052762032
0.09528593 0.24073766 -0.051275134
0.07271672 0.2645992 -0.042438984
0.095298134 0.28684819 -0.051076889
0.11853189 0.31018561 -0.048379779
0.09639705 -0.31415641 -0.033232689
0.073002152 -0.29061103 -0.037142158
0.050272398 -0.26823497 -0.027953744
0.050397344 -0.24521831 -0.025248408
0.072913177 -0.24417569 -0.038793325
0.050298758 -0.2218248 -0.027382731
0.050112851 -0.19834752 -0.031408072
-0.18200433 -0.17538434 -0.0270468
-0.15857634 -0.17492662 -0.035539508
-0.13553698 -0.17537163 -0.027282
-0.11233555 -0.17557187 -0.02356565
0.049954437 -0.17496453 -0.034837723
-0.18185095 -0.15192245 -0.032027602
-0.13543713 -0.15184203 -0.033767819
-0.11228033 -0.15198202 -0.030737877
-0.089076884 -0.15214932 -0.027114034
0.027122527 -0.15220059 -0.02600491
0.049837209 -0.15167542 -0.037375808
-0.18173203 -0.12858018 -0.035890222
-0.1353513 -0.12844735 -0.039343119
-0.11223039 -0.12852889 -0.037225604
-0.089076884 -0.12864259 -0.034269452
-0.065858722 -0.12885207 -0.028826475
0.027063668 -0.1289019 -0.027533889
0.049775593 -0.12847164 -0.038709998
-0.20526335 -0.10571045 -0.026341319
-0.1122137 -0.10530855 -0.039393187
-0.089076884 -0.10535786 -0.037792802
-0.065896891 -0.10548119 -0.033784747
-0.042599969 -0.10571513 -0.026189923
0.027010046 -0.10563085 -0.028927088
-0.20514059 -0.082399525 -0.029530764
-0.1122137 -0.082171753 -0.039393067
-0.089076884 -0.082208686 -0.037792921
-0.065899074 -0.082294695 -0.034068942
-0.042631514 -0.082429335 -0.028239131
0.026953898 -0.082379781 -0.030385852
-0.20505157 -0.059151154 -0.031843424
-0.1122137 -0.059034955 -0.039393067
-0.089076884 -0.059059516 -0.037792921
-0.065899074 -0.059116822 -0.034068942
-0.04263591 -0.059202299 -0.028524399
0.026927449 -0.059163049 -0.031072974
-0.20505157 -0.035956234 -0.031843543
-0.1122137 -0.03589816 -0.039393187
-0.089076884 -0.035910442 -0.037792802
-0.065899074 -0.03593909 -0.034068823
-0.04263591 -0.035981759 -0.028524399
-0.0193941 -0.035988886 -0.027601242
0.026907466 -0.035958208 -0.031592131
-0.1122137 -0.012761269 -0.039393187
-0.089076884 -0.012761365 -0.037809491
-0.065899074 -0.012761316 -0.034068823
-0.019416586 -0.012761269 -0.028574586
0.026901662 -0.012761269 -0.03174305
-0.20505157 -0.01276122 -0.031843543
-0.04263591 -0.01276122 -0.028524399
-0.20505157 0.010433603 -0.031843424
-0.1122137 0.010375528 -0.039393187
-0.089076884 0.010387758 -0.03780961
-0.065899074 0.010416508 -0.034068823
-0.04263591 0.010459222 -0.02852428
0.026899084 0.010433892 -0.031810045
-0.20505157 0.033628572 -0.031843543
-0.1122137 0.033512417 -0.039392948
-0.089076884 0.033536643 -0.03780961
-0.065899074 0.033594284 -0.034068942
-0.04263591 0.033679761 -0.028524399
0.026904888 0.033631459 -0.031659245
-0.20505157 0.056823537 -0.031843305
-0.1122137 0.056649119 -0.039393187
-0.089076884 0.056685768 -0.037809491
-0.065899074 0.056772202 -0.034068942
-0.04263591 0.056900203 -0.028524399
0.026928753 0.056842171 -0.031039476
-0.20505157 0.080018505 -0.031843424
-0.1122137 0.079786055 -0.039393067
-0.089076884 0.079834744 -0.03780961
-0.065899208 0.079949304 -0.034085631
-0.042635132 0.080122136 -0.028473973
0.02699133 0.080093198 -0.029413581
-0.20519352 0.10335544 -0.028155088
-0.1122137 0.10292276 -0.039393187
-0.089076884 0.10298382 -0.037809491
-0.065898694 0.10312959 -0.034018755
-0.042607989 0.10341086 -0.026710749
0.027020387 0.10333593 -0.028658509
0.049744807 0.10292348 -0.039376497
-0.20537665 0.1267985 -0.023397088
-0.18171711 0.12619916 -0.036374569
-0.112225 0.12612741 -0.037926197
-0.089076884 0.12625463 -0.035172105
-0.065866336 0.12650201 -0.029815912
0.027057856 0.12660034 -0.027685046
0.049778663 0.12609437 -0.03864336
-0.18183653 0.14956801 -0.032496333
-0.13542478 0.14945629 -0.034570336
-0.11227337 0.14961408 -0.031642556
-0.089076884 0.14980932 -0.028020859
0.027108289 0.14989802 -0.026374817
0.04983028 0.1492971 -0.037525892
-0.18195572 0.17299634 -0.028625011
-0.15855667 0.1725181 -0.03639102
-0.1355096 0.17296956 -0.029061317
-0.11232854 0.173252 -0.024474621
0.04993514 0.17258804 -0.035255432
-0.15884431 0.19654107 -0.023936033
0.050092734 0.1959931 -0.031843424
-0.019444473 0.2193467 -0.029782534
0.05025766 0.21946295 -0.028272748
-0.019375481 0.24281062 -0.02679491
0.050436206 0.24301262 -0.024407148
0.072961681 0.24187081 -0.037892818
-0.019405738 0.26592332 -0.028104782
0.050270848 0.26593417 -0.027987361
0.07300394 0.28824586 -0.037108898
0.096295126 0.31163961 -0.034887791
0.074087434 -0.3157807 -0.017001987
0.027830102 -0.293338 -0.0076216459
0.050506182 -0.29192746 -0.022891998
0.027613081 -0.26947916 -0.013260007
0.027698614 -0.24631222 -0.011037827
0.027555689 -0.22269994 -0.014751196
-0.18254331 -0.19969407 -0.0095431805
-0.15889606 -0.19894573 -0.021695495
-0.13568953 -0.19921179 -0.017373919
-0.11244872 -0.199736 -0.0088632107
0.027388394 -0.19910571 -0.019097328
-0.20571661 -0.17605694 -0.014564872
-0.089076884 -0.17578539 -0.019603848
-0.065737322 -0.17613822 -0.013056755
0.0043701753 -0.17629372 -0.010171771
0.027255304 -0.17562643 -0.022555113
-0.20554543 -0.15252364 -0.01901269
-0.065799028 -0.15242843 -0.021071672
-0.042423598 -0.15272121 -0.014734149
-0.018948801 -0.15301742 -0.0083191395
0.0042630807 -0.15277125 -0.01364994
-0.22926867 -0.12958783 -0.0097130537
-0.20539546 -0.12907985 -0.022908807
-0.042529214 -0.12913041 -0.021594524
-0.019134477 -0.12933195 -0.01635921
0.0041812211 -0.12933391 -0.016308308
-0.22911972 -0.10612315 -0.012938023
-0.019183673 -0.10595229 -0.018489242
0.0041406006 -0.10597882 -0.017627358
-0.22897106 -0.082708396 -0.016156197
-0.019239806 -0.082598366 -0.020919919
0.0041083395 -0.082650229 -0.018675089
-0.22882274 -0.0593432 -0.019367337
-0.01928068 -0.059292108 -0.022689939
0.004087545 -0.059343539 -0.019350648
-0.25266418 -0.036130942 -0.009152174
-0.22874948 -0.036040124 -0.020953655
-0.25261933 -0.012761269 -0.0099848509
-0.22874948 -0.012761269 -0.020953774
0.0044539422 -0.012761316 -0.0074515343
-0.25261933 0.010601955 -0.0099848509
-0.22874948 0.010517443 -0.020953655
-0.019286901 0.010501938 -0.022959352
0.0040657148 0.010524329 -0.020059466
-0.25261933 0.033965081 -0.0099848509
-0.22874948 0.033796247 -0.020953655
-0.019286901 0.033765379 -0.022959471
0.0044240803 0.033989113 -0.0084210634
-0.25261933 0.057328261 -0.0099848509
-0.22874948 0.057075009 -0.020953655
-0.019286126 0.057029501 -0.022925615
0.0040870309 0.057111651 -0.019367576
-0.25272465 0.080751725 -0.0080299377
-0.22876507 0.080364168 -0.020616293
-0.019244872 0.080348082 -0.021139145
0.0041099116 0.080425471 -0.018624187
-0.22899529 0.10383743 -0.015631437
-0.019202784 0.10369556 -0.019316673
0.0041354001 0.10375412 -0.017796516
-0.22922707 0.12738894 -0.010613203
-0.042541672 0.12684439 -0.022403479
-0.019138388 0.12711565 -0.016528368
0.0041765347 0.12711889 -0.016460657
-0.20552722 0.15026918 -0.019485593
-0.065806553 0.15013105 -0.022049546
-0.042438716 0.15047228 -0.015716195
-0.018966861 0.15082873 -0.0091011524
0.0042495131 0.15055987 -0.014090419
-0.20567751 0.17379968 -0.015580773
-0.089076884 0.17349163 -0.020582557
-0.065746456 0.17388213 -0.014243126
0.004356578 0.17410561 -0.010613203
0.027238451 0.17334326 -0.022992849
-0.13566378 0.19687966 -0.019046664
0.027371503 0.1968458 -0.019536257
-0.18247585 0.19738634 -0.01173377
-0.11242832 0.19740166 -0.011512995
-0.089076884 0.19765134 -0.0079109669
0.027521148 0.22043487 -0.015648365
0.027720176 0.24419214 -0.010477543
0.027607851 0.26728219 -0.013395667
0.027786233 0.29108274 -0.0087611675
0.050501518 0.28965849 -0.022993088
0.073857225 0.31310683 -0.02127409
0.051535241 -0.31742084 -0.00061237812
0.0049363896 -0.29480118 0.0082163811
0.0047319531 -0.27073556 0.0015772581
0.0047852248 -0.24741653 0.0033071041
0.0046208724 -0.22358122 -0.0020304918
-0.20639199 -0.20046553 0.0029816628
-0.089076884 -0.19996774 -0.0051013231
-0.065618873 -0.20042533 0.0023305416
-0.042102784 -0.20065777 0.006103158
-0.018684261 -0.20047501 0.0031358004
0.0044770017 -0.19986898 -0.0067025423
-0.22962746 -0.17673694 -0.0019450188
-0.042280536 -0.17654847 -0.0054420233
-0.018777534 -0.17679317 -0.00090277195
-0.25355288 -0.15374072 0.0073398352
-0.22944546 -0.15312991 -0.005885005
-0.25336421 -0.13010937 0.0038385391
-0.25318888 -0.10653955 0.00058472157
-0.25301301 -0.083019584 -0.0026792288
-0.27706957 -0.059759457 0.0076663494
-0.2528384 -0.059550367 -0.0059190989
-0.2768676 -0.036235102 0.0043871403
0.0045226291 -0.036161184 -0.0052205324
-0.27666715 -0.012761269 0.0011322498
-0.27666295 0.010686997 0.0010639429
-0.27666295 0.034135263 0.0010639429
-0.27666295 0.057583384 0.0010637045
-0.2768845 0.081142463 0.0046615601
-0.25299552 0.10432346 -0.0030034781
-0.25326818 0.12797418 0.0020567179
-0.25352788 0.15168974 0.0068759918
-0.22942343 0.15097637 -0.0063618422
-0.22960538 0.17460999 -0.002423048
-0.042300727 0.17434336 -0.0067535639
-0.018788189 0.17467524 -0.0013642311
-0.20630962 0.19825767 0.00084125996
-0.065638766 0.19818173 -0.00025343895
-0.042136595 0.19847009 0.0039072037
-0.018696927 0.19837855 0.0025875568
0.0044639036 0.19770542 -0.0071281195
0.0045935288 0.22141474 -0.0029183626
0.0048026368 0.24540736 0.0038728714
0.0047240481 0.26864141 0.0013204813
0.0048628598 0.29254282 0.005828619
0.051309012 0.31480581 -0.0055103302
0.02873826 -0.31908065 0.015972853
-0.018196933 -0.29628116 0.024237871
-0.018374227 -0.27200443 0.016560674
-0.018345878 -0.24853128 0.01778841
-0.13619018 -0.22477101 0.015143752
-0.11270822 -0.22544321 0.024846077
-0.065448761 -0.22541447 0.024429083
-0.041873015 -0.2251787 0.021027088
-0.018527202 -0.22441033 0.0099366903
-0.23044309 -0.20124955 0.015713811
-0.27812004 -0.17817412 0.024724483
-0.253768 -0.1774524 0.011331558
-0.27787849 -0.15436246 0.020801783
-0.27767479 -0.13063502 0.01749444
-0.27747262 -0.10695913 0.014211178
-0.30174565 -0.083650857 0.024655104
-0.27727088 -0.083334036 0.010935307
-0.30151713 -0.059970286 0.021356583
-0.30128911 -0.036340374 0.018065214
-0.30106157 -0.012761269 0.014780998
-0.30088225 0.010772668 0.012193322
-0.32527921 0.034479145 0.02340436
-0.30088225 0.034306556 0.012193084
-0.3008942 0.057844393 0.01236546
-0.30124715 0.081536569 0.017459869
-0.30160245 0.10530853 0.022588372
-0.27719772 0.10481422 0.0097475052
-0.27751088 0.12856422 0.014832854
-0.27782512 0.15239356 0.01993525
-0.27809009 0.17625196 0.02423799
-0.25374198 0.17542735 0.010849237
-0.2303434 0.19913845 0.013555527
-0.13609941 0.22235137 0.0092482567
-0.11267988 0.22326864 0.021165848
-0.089076884 0.2232407 0.020801902
-0.06548135 0.22319405 0.020195127
-0.041889824 0.22317402 0.01993525
-0.018246643 0.29416972 0.022085071
0.028560936 0.31662452 0.01136601
0.005690977 -0.32075685 0.032722354
-0.13639984 -0.29669905 0.028761864
-0.041587822 -0.29769564 0.0395509
-0.13635588 -0.27279586 0.025906801
-0.041708816 -0.27328569 0.031691909
-0.041711237 -0.24958955 0.03153491
-0.089076884 -0.22552402 0.026011109
-0.25470814 -0.20205419 0.028779268
-0.30268529 -0.17890121 0.038217783
-0.30243537 -0.15500022 0.034610391
-0.30220535 -0.13116604 0.031290531
-0.30197588 -0.107383 0.027977824
-0.32644251 -0.083970994 0.038515806
-0.3261863 -0.060183182 0.035187721
-0.32593066 -0.036446702 0.03186667
-0.32567421 -0.012761316 0.028535366
-0.35023105 0.01097993 0.039129734
-0.32541966 0.010873072 0.02522862
-0.34994614 0.034669407 0.035765171
-0.35018501 0.058450095 0.038585901
-0.32541966 0.058141612 0.02522862
-0.32581511 0.081934042 0.030365705
-0.32621324 0.1058069 0.03553772
-0.32661137 0.1297594 0.040709496
-0.30195776 0.12915924 0.027716637
-0.30231425 0.15309013 0.032862186
-0.30265251 0.1770837 0.037744641
-0.27904069 0.2009479 0.039673686
-0.25458148 0.20003039 0.026428699
-0.041735414 0.24761669 0.029964685
-0.04171285 0.27142292 0.031430125
-0.04161806 0.29572099 0.037586808
0.0055566803 0.31845617 0.028361082
-0.017621748 -0.32240021 0.04914403
-0.11285225 -0.27429038 0.043556929
-0.089076884 -0.27494156 0.051246643
-0.065275349 -0.27457821 0.046956301
-0.089076884 -0.25145042 0.055708647
-0.065293387 -0.25059628 0.044612885
-0.30396348 -0.20377165 0.056666613
-0.27919754 -0.20288198 0.042220354
-0.32747427 -0.17963943 0.051918745
-0.32721582 -0.1556446 0.048561335
-0.32695794 -0.13170187 0.045211554
-0.35166797 -0.10824893 0.056098938
-0.32669929 -0.10781024 0.041851282
-0.35137841 -0.084298111 0.052679539
-0.351091 -0.060400315 0.049285293
-0.35080424 -0.036554717 0.045898676
-0.35051808 -0.012761316 0.042519331
-0.35067299 0.082364507 0.044348717
-0.3511613 0.10636796 0.050115347
-0.35165143 0.13046128 0.055903912
-0.32701084 0.15379238 0.045898557
-0.32741302 0.17790756 0.051122904
-0.30374855 0.20191033 0.053564429
-0.089076884 0.24956889 0.053015828
-0.065305308 0.24872614 0.043064356
-0.017723948 0.3202191 0.044718504
-0.041172769 -0.32413799 0.066509485
-0.065184608 -0.29946864 0.058743834
-0.11301219 -0.25211421 0.064332485
-0.35300541 -0.18071581 0.071893334
-0.35224596 -0.15630808 0.062924623
-0.35195667 -0.1322521 0.059508085
-0.37688312 -0.10869668 0.070639491
-0.37656593 -0.084633619 0.067206144
-0.37624779 -0.06062318 0.063762188
-0.37598622 -0.036670431 0.060930729
-0.37588435 -0.012761365 0.059827924
-0.3757875 0.011131138 0.058779359
-0.37586302 0.035036355 0.059596777
-0.37593859 0.05895409 0.06041491
-0.37604374 0.082894266 0.061553597
-0.37658408 0.10703342 0.067402482
-0.37712479 0.13126263 0.073255658
-0.35214493 0.15464555 0.061731458
-0.35289925 0.17910957 0.070639491
-0.32892781 0.20310445 0.070800781
-0.11296793 0.25004017 0.058583856
-0.065173656 0.2740773 0.060165882
-0.065158181 0.29818177 0.062176585
-0.041211497 0.32229644 0.06399405
-0.064981297 -0.32600391 0.085154772
-0.089076884 -0.30096328 0.07492435
-0.1371479 -0.25311631 0.077349663
-0.32918584 -0.20484842 0.074152708
-0.37814051 -0.15729317 0.084251642
-0.37720099 -0.13281311 0.074080944
-0.40241724 -0.085070677 0.086130977
-0.40230688 -0.060950588 0.085028291
-0.40219665 -0.036847502 0.083926439
-0.40215689 -0.012761365 0.083529472
-0.40224001 0.011328144 0.084360003
-0.40232316 0.035430364 0.085191011
-0.40240636 0.059545442 0.086022615
-0.40252042 0.083682768 0.087161899
-0.40272334 0.10787191 0.089189649
-0.3780238 0.15579098 0.082987785
-0.11319071 0.27660465 0.087523818
-0.089076884 0.27533787 0.073811769
-0.089076884 0.29970938 0.077439785
-0.065002695 0.32427728 0.082374454
-0.089076884 -0.32803333 0.1054337
-0.11321958 -0.3024736 0.0912745
-0.16161239 -0.25454634 0.09592545
-0.30730286 -0.2309873 0.10486639
-0.3551144 -0.2062432 0.096799135
-0.37921387 -0.18200797 0.095870972
-0.40391904 -0.13385448 0.10113788
-0.40278319 -0.10928631 0.089787722
-0.40374193 0.13246875 0.099368215
-0.37905598 0.18055809 0.09416163
-0.35472342 0.20458582 0.092181921
-0.30711666 0.22950505 0.10217881
-0.13751751 0.27788258 0.1013571
-0.11325426 0.30154473 0.095780015
-0.089076884 0.32628381 0.10099185
-0.16201463 -0.28019977 0.11334324
-0.18636972 -0.2559934 0.11472368
-0.40540028 -0.15875676 0.11593938
-0.43001908 -0.06146735 0.11859512
-0.4296574 -0.037088379 0.11523926
-0.42949471 -0.012761172 0.1137296
-0.42968518 0.011567863 0.11549711
-0.42994151 0.03593364 0.11787546
-0.43020815 0.060338184 0.12034965
-0.40522334 0.15747142 0.11417127
-0.38151953 0.2065707 0.1208303
-0.16206013 0.27917165 0.11531293
-0.13764942 0.3029601 0.10992491
-0.11341257 0.32793838 0.11634481
-0.11353479 -0.33071399 0.13222051
-0.16228628 -0.30559886 0.12510586
-0.18685234 -0.28164387 0.1303972
-0.21141085 -0.25742912 0.13337529
-0.35839945 -0.23311611 0.13559401
-0.38195902 -0.20801607 0.12558782
-0.40684527 -0.18386732 0.13037848
-0.4305231 -0.085928328 0.12327194
-0.43043932 0.084770896 0.1224947
-0.40667042 0.18268089 0.12863135
-0.35794365 0.23166305 0.13021123
-0.33402336 0.23218505 0.13699389
-0.21118537 0.25587744 0.12751734
-0.18682143 0.2804724 0.1293931
-0.16227517 0.3044312 0.12462401
-0.18723404 -0.30723274 0.1427933
-0.21195975 -0.28310359 0.14763618
-0.23672497 -0.25884145 0.15172076
-0.33482814 -0.2339374 0.14744818
-0.23619241 0.25695056 0.14019036
-0.21180436 0.28178471 0.14359963
-0.18713892 0.30594039 0.13970399
-0.13816673 0.33086753 0.14352441
-0.21253258 -0.30905503 0.16251874
-0.23734036 -0.28457773 0.16504443
-0.26230016 -0.26022309 0.16966927
-0.43417916 -0.11136196 0.15719569
-0.43391848 0.11039643 0.15477693
-0.23701194 0.28310883 0.15793359
-0.21224913 0.30748653 0.15515471
-0.16321872 0.33323401 0.16548157
-0.23814791 -0.31090337 0.18252838
-0.26298481 -0.28604525 0.1823746
-0.43635526 -0.13678929 0.1773876
-0.43609747 0.13596176 0.17499566
-0.28796849 0.26071459 0.18464303
-0.26245436 0.28445715 0.17253077
-0.23767734 0.30920625 0.1723398
-0.26376989 -0.312235 0.196944
-0.28881919 -0.28740698 0.19845676
-0.31403592 -0.26271579 0.20204985
-0.28816417 -0.26162049 0.18782043
-0.43855903 -0.16253935 0.19783592
-0.43830419 0.1618523 0.19547129
-0.31393224 0.26206189 0.20055318
-0.28812975 0.28581792 0.18726146
-0.26337907 0.31094265 0.18969107
-0.28962177 -0.31357861 0.21148884
-0.31488517 -0.28874922 0.21430767
-0.38982195 -0.23832016 0.21070659
-0.41502887 -0.21334714 0.21215391
-0.44049686 -0.1884713 0.21581697
-0.46529058 -0.03784211 0.21315229
-0.46529058 -0.01276122 0.21315229
-0.46529284 0.012319814 0.21317172
-0.46529284 0.037400752 0.21317172
-0.44023499 0.18790054 0.21338713
-0.41421631 0.21233527 0.20403469
-0.38933337 0.23745246 0.20541751
-0.2900672 0.23847665 0.21872175
-0.31486344 0.28828758 0.21399438
-0.28935713 0.31269401 0.20719159
-0.31574631 -0.31498724 0.22673726
-0.34103063 -0.28991044 0.22802079
-0.34137177 -0.26505619 0.23245275
-0.2904551 -0.23931183 0.22502053
-0.46621296 -0.063046135 0.22114003
-0.46608579 0.062640555 0.22003877
-0.34036469 0.26365519 0.21937037
-0.34103671 0.28959036 0.22810006
-0.31561917 0.31446654 0.22490227
-0.34184542 -0.31608355 0.23860562
-0.36736667 -0.29105115 0.24149156
-0.36776364 -0.26611286 0.24617958
-0.26611778 -0.24038541 0.24051595
-0.46937665 -0.11417454 0.24853861
-0.46851236 -0.088648312 0.24105346
-0.4682366 0.088347949 0.23866534
-0.46929583 0.11397839 0.2478385
-0.26596344 0.23993374 0.23765159
-0.36794984 0.26611167 0.24837852
-0.36737341 0.29083484 0.24157131
-0.36786011 0.3167097 0.24731874
-0.34159616 0.31551379 0.23536754
-0.39488453 -0.31856894 0.26551068
-0.36824319 -0.31730634 0.25184286
-0.42021483 -0.29295504 0.26397538
-0.39377573 -0.29206848 0.25350749
-0.394344 -0.26715064 0.25965929
-0.41984341 -0.2417535 0.2602638
-0.44498107 -0.2161351 0.25742531
-0.4706538 -0.13995364 0.25959909
-0.47035402 0.1397496 0.25700283
-0.44438377 0.21565031 0.25188291
-0.41954929 0.2414483 0.2573247
-0.24199191 0.24209718 0.26575339
-0.39453763 0.2672444 0.26175547
-0.42016634 0.29285991 0.2634908
-0.39373124 0.29189306 0.25302601
-0.39439797 0.31800312 0.26024354
-0.42206615 -0.32013607 0.28247488
-0.44682229 -0.29384696 0.27450955
-0.42099065 -0.26807958 0.27172768
-0.24220696 -0.24245644 0.27040946
-0.4716284 0.16576277 0.26803923
-0.42120197 0.26826763 0.27383912
-0.44676971 0.29383254 0.2740221
-0.42129144 0.3194533 0.27473319
-0.50091922 -0.29590297 0.29878879
-0.47360206 -0.29474652 0.28513181
-0.47492918 -0.26999617 0.29662478
-0.44783047 -0.26901382 0.28386414
-0.47460607 -0.16697295 0.29382634
-0.5006299 -0.11564955 0.29643965
-0.5004372 -0.089891404 0.29487526
-0.50053096 -0.06419301 0.29563665
-0.50061971 -0.038482677 0.29635727
-0.50074148 -0.012761269 0.29734576
-0.50069076 0.012964668 0.29693377
-0.50061214 0.03868049 0.29629564
-0.50054115 0.06438832 0.29571915
-0.50044733 0.090081364 0.29495764
-0.50057405 0.11583157 0.29598665
-0.44945669 0.24465282 0.29895377
-0.21763095 0.24434678 0.29497826
-0.16630685 0.24467187 0.29920137
-0.448181 0.26939201 0.28711677
-0.50104374 0.29621375 0.29979944
-0.47372255 0.29495519 0.28617525
-0.44880885 0.32127559 0.29294264
-0.44977036 -0.32192713 0.30186415
-0.50234133 -0.27105159 0.31033516
-0.44956562 -0.24450411 0.29996455
-0.21787372 -0.24459566 0.30128586
-0.16650504 -0.24504572 0.30778313
-0.47667542 -0.21948053 0.31174767
-0.47563675 -0.19315588 0.30275273
-0.50270224 -0.16787085 0.31326532
-0.50150168 -0.141644 0.30351782
-0.52889162 -0.11624716 0.31584668
-0.52842867 -0.090293981 0.31230879
-0.52826279 -0.064430222 0.31104124
-0.52830088 -0.038598008 0.31133211
-0.52838516 -0.012761316 0.31197631
-0.52840149 0.013081253 0.31210113
-0.52831173 0.038913418 0.3114152
-0.52826279 0.064742118 0.31104124
-0.52840149 0.090609148 0.31210113
-0.52883172 0.11657833 0.31538844
-0.50136924 0.14184837 0.30244279
-0.50256658 0.16814034 0.31216335
-0.47551987 0.19334151 0.30174029
-0.47655785 0.21972737 0.31072962
-0.50281507 0.27168369 0.31418085
-0.47538394 0.27053046 0.30056298
-0.47675702 0.32322812 0.31245434
-0.47780171 -0.3237412 0.32150161
-0.52910984 -0.29748857 0.31751394
-0.53029191 -0.27229947 0.32654667
-0.47764489 -0.24590212 0.32014346
-0.19300592 -0.24660164 0.33024061
-0.50391507 -0.19425291 0.32311177
-0.53079456 -0.16866162 0.33038759
-0.52966458 -0.14234583 0.32175243
-0.5565626 -0.064704284 0.32883346
-0.55635613 -0.038721241 0.32734334
-0.5563736 -0.012761269 0.32746935
-0.5563736 0.013199618 0.32746935
-0.55635613 0.039158579 0.32734334
-0.55653352 0.06514807 0.32862353
-0.52956331 0.14270453 0.32097912
-0.53065437 0.16906467 0.32931614
-0.50377852 0.19458941 0.32200348
-0.50496912 0.2211781 0.33166981
-0.47759905 0.24625351 0.31974673
-0.19275486 0.24643375 0.32208705
-0.53078085 0.27304715 0.33028257
-0.52907163 0.29782325 0.31722212
-0.50646895 -0.32580543 0.34384704
-0.55784023 -0.29922777 0.33805358
-0.55879569 -0.27371615 0.34494889
-0.50589061 -0.24721909 0.3391515
-0.50509608 -0.22077087 0.33270061
-0.53207421 -0.19517201 0.34016585
-0.55861366 -0.14318816 0.34363544
-0.55810356 -0.11698949 0.33995438
-0.55747199 -0.090827212 0.33539617
-0.55748653 0.11735256 0.33550131
-0.55846697 0.14370193 0.34257686
-0.53193319 0.19564171 0.33908832
-0.50586981 0.24773423 0.33898258
-0.55901009 0.27442026 0.34649682
-0.55774665 0.29968518 0.33737826
-0.50505203 0.3252185 0.33234286
-0.58692682 -0.30099016 0.35886705
-0.58762789 -0.27515656 0.36366045
-0.53465027 -0.24865296 0.35985041
-0.53345591 -0.22188081 0.35072374
-0.56001461 -0.16974041 0.35374618
-0.58739918 -0.091443799 0.36209679
-0.58703935 -0.06517832 0.35963655
-0.58671123 -0.038952678 0.35739326
-0.58650523 -0.012761269 0.35598481
-0.58645844 0.013416657 0.35566473
-0.58641785 0.039590392 0.35538733
-0.5865801 0.065791719 0.35649681
-0.58702374 0.092069663 0.35952985
-0.55974913 0.170278 0.35182989
-0.56137949 0.19715096 0.36359608
-0.53327781 0.22240385 0.34936321
-0.53460824 0.24931602 0.35952985
-0.5868268 0.30160707 0.35818338
-0.53424489 0.32766122 0.35675299
-0.61637354 -0.30277443 0.37993824
-0.56332338 -0.24988455 0.37762487
-0.56319165 -0.2234789 0.37667441
-0.5616231 -0.19652918 0.36535418
-0.58879656 -0.14426647 0.37165082
-0.58806711 -0.11781184 0.36666322
-0.58783174 0.11848986 0.36505389
-0.58904552 0.14512344 0.37335241
-0.56300926 0.22420488 0.37535787
-0.56367689 0.25090533 0.38017631
-0.58780664 0.27597696 0.36488247
-0.14172541 0.27680546 0.37466753
-0.61626697 0.30355275 0.37924612
-0.61678022 -0.276613 0.38257945
-0.59224951 -0.25110626 0.39525867
-0.59219527 -0.1981207 0.39488745
-0.59051234 -0.17110942 0.38338161
-0.61850721 -0.11864743 0.39379668
-0.61786997 -0.09208037 0.38965774
-0.61751848 -0.065605417 0.38737488
-0.61731786 -0.039173424 0.38607156
-0.61727107 -0.012761413 0.38576782
-0.61722428 0.01364607 0.38546383
-0.61717749 0.040048834 0.38516009
-0.6172477 0.066464216 0.38561559
-0.61774939 0.092973255 0.38887477
-0.61874908 0.11965662 0.39536774
-0.59050918 0.17197683 0.38335979
-0.59198147 0.19898796 0.39342582
-0.61696708 0.27757823 0.38379335
-0.16842952 0.27819836 0.39111638
-0.64618713 -0.30458099 0.40127182
-0.64625442 -0.27808392 0.40168786
-0.59330851 -0.22506924 0.40249896
-0.61970866 -0.14541927 0.40160036
-0.62027931 0.1465995 0.40530682
-0.59263295 0.25226814 0.39788008
-0.64645284 0.27919751 0.40291548
-0.1953918 0.27960473 0.40772367
-0.64607382 0.30552262 0.40057099
-0.67640078 -0.30642325 0.42302811
-0.6761567 -0.27961582 0.42158699
-0.62159073 -0.25239253 0.4138248
-0.62309992 -0.19966942 0.42362738
-0.62150586 -0.17248996 0.41327333
-0.6494354 -0.11949638 0.42136526
-0.64887351 -0.092732199 0.4178896
-0.64868408 -0.066057265 0.41671765
-0.64863408 -0.039406881 0.4164083
-0.64858055 -0.012761316 0.41607702
-0.64853048 0.013879288 0.41576767
-0.64848053 0.04051527 0.41545844
-0.64844841 0.067148894 0.41525984
-0.64900941 0.093892552 0.41873014
-0.65042949 0.12089403 0.42751455
-0.62184906 0.17370902 0.41550255
-0.62302822 0.20081927 0.42316127
-0.62236983 0.25388509 0.41888499
-0.67630684 0.28085375 0.42247355
-0.67625433 0.30751735 0.42216325
-0.70641816 -0.28117049 0.44178402
-0.65171957 -0.25389385 0.43549466
-0.62440473 -0.22689252 0.43210208
-0.65295023 -0.17386802 0.44310772
-0.65111345 -0.14657962 0.43174529
-0.65204841 0.14808771 0.43752897
-0.62433261 0.22810376 0.43163395
-0.65273994 0.25564963 0.44180655
-0.70657694 0.28256476 0.44268143
-0.70797431 -0.30875576 0.45057344
-0.70948225 -0.25552869 0.45909023
-0.68174201 -0.2552152 0.45456684
-0.65575373 -0.20165367 0.46044958
-0.68108481 -0.1203991 0.45068634
-0.68061191 -0.093425214 0.44789362
