ply
format ascii 1.0
comment PCL generated
element vertex 714
property float x
property float y
property float z
element camera 1
property float view_px
property float view_py
property float view_pz
property float x_axisx
property float x_axisy
property float x_axisz
property float y_axisx
property float y_axisy
property float y_axisz
property float z_axisx
property float z_axisy
property float z_axisz
property float focal
property float scalex
property float scaley
property float centerx
property float centery
property int viewportx
property int viewporty
property float k1
property float k2
end_header
-0.10607822 -0.056595027 -0.3938185
-0.10600194 -0.040245473 -0.39464432
-0.10605678 -0.0076018358 -0.39405042
-0.10604821 0.00872696 -0.39414334
-0.1055344 0.041297309 -0.39970559
-0.089404121 0.041325495 -0.39787632
-0.10589233 0.057671901 -0.39583081
-0.089736715 0.057715394 -0.39394832
-0.090633959 -0.056917213 -0.38335252
-0.09080638 -0.040553253 -0.38131636
-0.091036528 -0.024168372 -0.37859857
-0.12339419 -0.0076793237 -0.38397104
-0.090499908 -0.0076719401 -0.38493556
-0.090865254 0.00872696 -0.38062114
-0.12271103 0.041434482 -0.3907975
-0.074499756 0.041604444 -0.37975615
-0.1234467 0.057957936 -0.38344616
-0.10651994 0.074196108 -0.38903672
-0.090383485 0.074280083 -0.38631058
-0.10834378 -0.024311595 -0.36929309
-0.075684085 -0.0078302333 -0.3643713
-0.075651765 0.0087269386 -0.36479098
-0.10836044 0.025247592 -0.36911249
-0.091195315 0.025189053 -0.37672323
-0.07565397 0.025281116 -0.36476243
-0.074896768 0.058162306 -0.3745988
-0.075512365 0.074886963 -0.36660171
-0.092955872 -0.10762803 -0.35593206
-0.076070607 -0.10744388 -0.3593502
-0.076023385 -0.057637431 -0.3599636
-0.075979143 -0.041033085 -0.36053818
-0.076078713 -0.024466269 -0.35924476
-0.059749573 0.041979637 -0.35538375
-0.060081616 0.058716677 -0.35059118
-0.094377249 -0.091781236 -0.33914638
-0.077204421 -0.091528296 -0.3446216
-0.060595587 -0.091595232 -0.34317267
-0.060522825 -0.074834451 -0.34422296
-0.061163351 -0.058406889 -0.33497769
-0.061156541 -0.041621152 -0.3350758
-0.06102626 -0.02480951 -0.33695644
-0.060738653 -0.0080092819 -0.34110785
-0.060742021 0.0087269386 -0.34105897
-0.060743377 0.025463719 -0.34103954
-0.14437267 0.058925588 -0.34154642
-0.060640097 0.075628243 -0.34253031
-0.077604845 0.092473254 -0.3394199
-0.061853901 -0.1092943 -0.32501042
-0.095660582 -0.075613171 -0.323991
-0.078436524 -0.075435154 -0.32861584
-0.18014351 0.059357792 -0.32283163
-0.16218141 0.059140701 -0.33222914
-0.14637037 0.076229312 -0.32301003
-0.12856039 0.075941771 -0.33234704
-0.12877995 0.092829928 -0.33015323
-0.12877995 0.10965042 -0.33015311
-0.045399532 -0.092738464 -0.31842101
-0.04541485 -0.075837173 -0.31817204
-0.1308964 -0.059206605 -0.30900437
-0.045666099 -0.059050009 -0.31409252
-0.13057236 -0.042148437 -0.31224233
-0.045708567 -0.042121697 -0.31340283
-0.13052331 -0.025182463 -0.3127327
-0.045725197 -0.025176242 -0.31313282
-0.045377463 -0.0081812674 -0.31877917
-0.14832421 0.0087269815 -0.30488056
-0.1303772 0.0087269815 -0.31419259
-0.045498908 0.00872696 -0.31680727
-0.14822978 0.025735326 -0.30575687
-0.13030323 0.02566475 -0.31493157
-0.045500755 0.025650498 -0.31677735
-0.14773814 0.042673439 -0.31031871
-0.045503199 0.042574678 -0.31673759
-0.19830278 0.059584059 -0.31303287
-0.045503199 0.059498496 -0.31673747
-0.16433221 0.076518901 -0.31360281
-0.046113119 0.076727398 -0.30683386
-0.11323825 0.093362771 -0.3163088
-0.029917933 -0.093963645 -0.29189622
-0.029872902 -0.07681632 -0.29273206
-0.16700709 -0.059778266 -0.2904374
-0.14886191 -0.059487231 -0.29989141
-0.16667393 -0.042585358 -0.29332268
-0.14854705 -0.042366263 -0.30281287
-0.16659635 -0.025470845 -0.29399472
-0.14848287 -0.025325987 -0.3034085
-0.16651061 -0.0083663007 -0.29473716
-0.14840461 -0.0082939798 -0.30413467
-0.029763207 -0.0083660008 -0.29476786
-0.166412 0.00872696 -0.29559118
-0.029912993 0.0087270029 -0.29198813
-0.16630176 0.025806207 -0.29654592
-0.029913545 0.02584143 -0.291978
-0.18376049 0.042932969 -0.29346538
-0.16570291 0.042805724 -0.30173212
-0.029916286 0.042956676 -0.29192698
-0.23542878 0.060092699 -0.29100895
-0.21669504 0.059824061 -0.30264133
-0.029916838 0.060071662 -0.29191667
-0.20071566 0.077104211 -0.29459488
-0.18244514 0.076810122 -0.30414468
-0.098045647 0.094151177 -0.295825
-0.063345641 0.093856551 -0.30347902
-0.18532306 -0.060075685 -0.28077877
-0.030090697 -0.059832178 -0.28869033
-0.18494686 -0.042804625 -0.28383303
-0.030125976 -0.04270748 -0.28803581
-0.18486342 -0.025616951 -0.28451067
-0.030096762 -0.02555434 -0.2885778
-0.18476233 -0.0084386664 -0.28533149
-0.18464363 0.0087269172 -0.28629512
-0.20307189 0.0087269386 -0.27659011
-0.20294073 0.02595216 -0.27759236
-0.18452504 0.025877684 -0.28725785
-0.20196149 0.043062218 -0.28507507
-0.25436056 0.060364198 -0.27925366
-0.21929121 0.077433348 -0.28390497
-0.030326985 0.07742101 -0.28430539
-0.047623262 0.094671249 -0.28231221
-0.014140494 -0.095301189 -0.26293558
-0.013966806 -0.077818461 -0.26669598
-0.20384905 -0.060387537 -0.27065164
-0.014151603 -0.060632579 -0.26269495
-0.22203019 -0.04325933 -0.26413822
-0.20339417 -0.043028716 -0.2741273
-0.014180131 -0.043307021 -0.26207727
-0.22194332 -0.02592092 -0.2647652
-0.2033034 -0.025766116 -0.2748211
-0.014120676 -0.025942516 -0.26336455
-0.22189847 -0.0085944617 -0.26508892
-0.20320317 -0.0085136564 -0.27558708
-0.01384221 -0.0085613476 -0.26939356
-0.22175962 0.0087269815 -0.26609093
-0.01397115 0.00872696 -0.2666021
-0.22165409 0.02603488 -0.26685238
-0.01397115 0.026036777 -0.26660216
-0.23909318 0.043356501 -0.26595521
-0.22044525 0.043208323 -0.27557665
-0.013973549 0.043347325 -0.26655
-0.2734918 0.060638346 -0.26738399
-0.013974518 0.060658004 -0.26652902
-0.25707918 0.078120343 -0.26159543
-0.23809046 0.077775039 -0.272811
-0.014214486 0.078128353 -0.26133364
-0.24152398 -0.06104394 -0.24933583
-0.22259748 -0.0607142 -0.26004404
-0.24086085 -0.043496512 -0.25386971
-0.24075291 -0.026077382 -0.2546078
-0.24070513 -0.0086726183 -0.25493455
-0.24062344 0.0087268958 -0.25549287
-0.24057263 0.026119541 -0.2558403
-0.25790045 0.043505814 -0.25626147
-0.29282907 0.060915574 -0.25537688
-0.27625713 0.078468859 -0.250278
-0.031596474 0.095501386 -0.26074672
0.0020310804 -0.096700981 -0.23263019
0.0023163855 -0.078844354 -0.24004251
-0.26063108 -0.061376736 -0.23852545
0.002162829 -0.061452895 -0.23605323
-0.27916387 -0.04399471 -0.232297
-0.25989851 -0.043740947 -0.24328357
0.0021413863 -0.043920901 -0.23549587
-0.26113051 -0.026374873 -0.23528153
0.0021912754 -0.026351575 -0.23679227
-0.26112887 -0.0088239135 -0.23529208
0.0024321154 -0.0087641226 -0.2430495
-0.27896938 0.0087268958 -0.2335003
-0.25971174 0.0087269386 -0.2444967
0.0023385659 0.0087269386 -0.24061882
-0.27896938 0.026291613 -0.23350042
-0.25967735 0.02620519 -0.2447198
0.0023398027 0.026236538 -0.24065095
-0.29600912 0.04380849 -0.2365995
-0.27687219 0.04365642 -0.24647295
0.0023373365 0.043747127 -0.240587
-0.31250596 0.061213087 -0.24249554
0.0023360997 0.061257891 -0.24055493
-0.29563046 0.078821167 -0.23883545
0.0022332966 0.078850515 -0.23788387
-0.22632462 0.096563704 -0.23314589
-0.2071647 0.096095331 -0.24531525
-0.19074741 0.096425392 -0.23673868
-0.015255116 0.096345924 -0.23880333
-0.27992138 -0.061712831 -0.22761142
-0.29877651 -0.044272713 -0.22025889
-0.28062412 -0.026559863 -0.22326404
-0.28022698 -0.0088975476 -0.22572094
-0.298554 0.0087269386 -0.22157264
-0.298554 0.026383333 -0.22157252
-0.31551427 0.043979272 -0.2255047
-0.33259374 0.061537057 -0.22846371
-0.31545493 0.079221331 -0.22583979
0.018990576 -0.079894468 -0.21276063
-0.29968375 -0.06210424 -0.21490175
0.018864766 -0.062295988 -0.20867503
-0.31882265 -0.044583075 -0.206819
0.018852599 -0.044549443 -0.20827979
-0.3003262 -0.026747093 -0.21110833
0.018892802 -0.026770476 -0.20958531
-0.29990754 -0.0089910338 -0.21358037
0.019092113 -0.0089719156 -0.21605808
0.019029953 0.0087268529 -0.21403921
-0.31856787 0.0087270243 -0.20825791
-0.31852317 0.026483923 -0.20851034
0.019031294 0.026441079 -0.21408296
-0.33521634 0.044152249 -0.21426851
0.019029275 0.044156168 -0.21401745
-0.352929 0.061864968 -0.21426862
0.019027933 0.061871771 -0.2139737
-0.33553129 0.079630181 -0.21256375
0.01902692 0.079587676 -0.21394086
-0.24738288 0.097482413 -0.20927829
-0.17568889 0.097252488 -0.21525097
0.0013948977 0.097219676 -0.21610159
0.018553227 -0.098274745 -0.19855744
-0.3198899 -0.062538728 -0.20079124
-0.33916047 -0.044904117 -0.19292039
-0.33897966 -0.027012073 -0.1938988
-0.32039323 -0.026949719 -0.19794846
-0.33891192 -0.009139725 -0.1942656
-0.32036382 -0.0091100549 -0.19811451
-0.33878881 0.0087269386 -0.19493192
-0.3387129 0.026585292 -0.19534284
-0.37527099 0.044508364 -0.1911391
-0.35512757 0.044328198 -0.2028445
-0.37351611 0.062196583 -0.19990712
-0.35584188 0.080043651 -0.19913286
-0.16034365 0.098095261 -0.19335407
0.036071841 -0.080966152 -0.18491733
-0.34034541 -0.062978618 -0.18650675
0.035975441 -0.063156053 -0.18074328
-0.35977933 -0.045233127 -0.17867321
0.035967652 -0.045193058 -0.18040597
-0.35962334 -0.027233966 -0.17948359
0.035998795 -0.027198914 -0.18175447
-0.35953891 -0.0092501333 -0.17992252
0.036151901 -0.0091849817 -0.18838418
-0.35931391 0.0087268958 -0.18109161
0.036115773 0.0087268958 -0.18681979
-0.35913447 0.026687864 -0.18202406
0.03611603 0.026650786 -0.18683088
-0.39571056 0.044697233 -0.17887586
0.036115516 0.044575065 -0.18680871
-0.39441067 0.062537886 -0.18513006
0.03611448 0.062500164 -0.18676382
-0.37639078 0.080462039 -0.18554425
-0.26929027 0.098521397 -0.18228215
0.035591658 -0.099865079 -0.16412491
-0.36105502 -0.063423909 -0.17204452
-0.38072121 -0.045574129 -0.16390812
-0.38055465 -0.027460985 -0.1647402
-0.38033125 -0.0093584331 -0.16585648
-0.38008532 0.0087268529 -0.16708535
-0.37984642 0.026793621 -0.16827875
-0.41658783 0.04490371 -0.1654579
-0.41597003 0.06292595 -0.16832429
-0.39738002 0.080914825 -0.17084354
0.053580292 -0.082041539 -0.15697742
-0.38221401 -0.063904174 -0.15644968
0.053509157 -0.064030103 -0.15235728
-0.40202549 -0.045929987 -0.14849329
0.053501531 -0.045852263 -0.15186203
-0.40185505 -0.027698468 -0.14931321
0.053525992 -0.027634736 -0.15345067
-0.40165836 -0.009478488 -0.15025949
0.053620156 -0.0094067911 -0.159567
-0.4014163 0.0087269815 -0.15142417
0.053600941 0.0087269815 -0.15831876
-0.40115777 0.026913807 -0.15266812
0.053601116 0.026870228 -0.1583302
-0.51093477 0.045140374 -0.15008652
-0.49279624 0.045144726 -0.1498096
-0.43771142 0.045113076 -0.15186203
0.053601116 0.045013472 -0.1583302
-0.43784267 0.063319787 -0.15127432
-0.41884136 0.081402533 -0.15500277
0.035333987 0.081465192 -0.15296739
-0.29181892 0.099609427 -0.15401429
0.035287168 0.099727802 -0.15093988
-0.4045938 -0.064529598 -0.13613647
-0.51352513 -0.046128716 -0.1398896
-0.4950794 -0.046113688 -0.1405412
-0.42358321 -0.046287742 -0.13300365
-0.42343438 -0.027938962 -0.13369405
-0.51273388 -0.0095343804 -0.1430043
-0.49587697 -0.009578173 -0.13730323
-0.42323023 -0.0095987143 -0.13464123
-0.49606955 0.0087268958 -0.13652158
-0.51266903 0.0087269386 -0.14325976
-0.42301863 0.0087269815 -0.13562274
-0.42276198 0.027035885 -0.1368134
-0.47814578 0.045374155 -0.13489836
-0.45908362 0.045325063 -0.13809615
0.071559697 0.045382939 -0.13433731
-0.51211828 0.063454784 -0.1454277
-0.49394697 0.06346146 -0.14513814
-0.47863698 0.063745409 -0.1328398
-0.45981401 0.063697048 -0.13493335
0.053264454 0.063661784 -0.1364634
-0.49654138 0.082030587 -0.13460618
-0.44058692 0.081895843 -0.13898152
0.053246837 0.082008623 -0.13531893
0.016739205 0.10016259 -0.13964528
0.053288516 0.10022482 -0.13802618
0.016496472 0.11881375 -0.13176233
0.035116762 0.11826876 -0.14356124
0.05328618 0.11853152 -0.13787466
0.053195145 0.13715076 -0.13196141
0.07150355 -0.083193749 -0.12704271
-0.49804252 -0.064764366 -0.12851214
-0.42686111 -0.0650943 -0.11779618
0.071474612 -0.064925328 -0.12328422
-0.48112297 -0.046532199 -0.1224224
-0.44542491 -0.046650272 -0.11730993
0.071469069 -0.046528924 -0.1225642
-0.49800497 -0.028016344 -0.12866491
-0.48230904 -0.028188933 -0.11745226
-0.44528991 -0.028181914 -0.11791468
0.071482599 -0.02808322 -0.12432218
-0.48142469 -0.0097025344 -0.12115824
-0.44508624 -0.0097204475 -0.11882704
0.071526334 -0.0096344547 -0.13000333
-0.48135418 0.0087268958 -0.12145364
-0.44486421 0.0087268958 -0.11982161
0.071519561 0.0087268958 -0.12912297
-0.49805123 0.027100086 -0.12847698
-0.48208559 0.027177684 -0.11838877
-0.44464236 0.02715908 -0.1208154
0.071519561 0.02709505 -0.12912297
-0.48027319 0.082296059 -0.12598342
-0.46262968 0.082395919 -0.12274134
-0.46175855 0.10066804 -0.12651324
-0.4435333 0.10069608 -0.12578332
-0.31492415 0.10072967 -0.12491161
0.016036116 0.13796715 -0.11681181
0.034780074 0.13731138 -0.12898219
-0.48521012 -0.10258235 -0.10529548
-0.48392659 -0.065313652 -0.11067402
-0.46608925 -0.046870746 -0.10776067
-0.466012 -0.02833306 -0.10809535
-0.4659099 -0.009799595 -0.1085375
-0.46577197 0.0087268958 -0.10913455
-0.46591818 0.027253773 -0.10850149
0.089887679 0.045830172 -0.1052835
-0.42979568 0.10152754 -0.10418099
0.071343236 0.13853811 -0.10621762
0.034166578 0.15731651 -0.10241711
0.052936491 0.15653169 -0.11516154
0.071333833 0.1571577 -0.10499597
-0.50608712 -0.10301832 -0.095855415
-0.468638 -0.084360711 -0.096724391
0.089887679 -0.08445777 -0.094200253
-0.46889168 -0.065776952 -0.095625818
0.089887679 -0.065832458 -0.093825459
0.089887679 -0.047222428 -0.092530787
0.089887679 -0.028546039 -0.094260693
0.089887679 -0.0098676318 -0.099700451
0.089887679 0.0087269386 -0.099194944
0.089887679 0.027325429 -0.099194944
-0.47206068 -0.10366278 -0.081903696
-0.49019259 -0.084834382 -0.084416807
-0.45226246 -0.06605237 -0.086681664
0.10867123 0.046294071 -0.075155914
0.071141198 0.064966321 -0.079972565
0.071159542 0.083639525 -0.082355499
0.089887679 0.083817363 -0.07657963
-0.41612744 0.10243342 -0.080645204
-0.003855072 0.12121832 -0.07970351
0.071175881 0.12099772 -0.084477782
0.089887679 0.15882614 -0.077903628
-0.45536786 -0.085282609 -0.072771251
0.1087609 -0.066765897 -0.063508153
0.10877456 -0.047933668 -0.061733842
0.10876042 -0.029018596 -0.063569903
0.10872138 -0.010106751 -0.068642378
0.10872233 0.0087269815 -0.068518758
0.10872233 0.027561661 -0.068518996
0.089887679 0.14046445 -0.070468187
-0.45966733 -0.10497412 -0.053511977
-0.44183213 -0.086223021 -0.048339009
0.10880107 -0.085839994 -0.058289886
-0.40226954 0.10337251 -0.056246161
0.070941545 0.10345759 -0.054036736
0.089887679 0.10368556 -0.048112988
0.089887679 0.12229542 -0.056383491
0.10888405 0.14170161 -0.047510386
0.12811548 -0.067728661 -0.032243729
0.12814701 -0.048662052 -0.030194879
0.1281137 -0.029499073 -0.032358289
0.12804082 -0.010349658 -0.037091851
0.12804082 0.0087269386 -0.037091851
0.12804103 0.027803667 -0.037079215
0.12794609 0.046785314 -0.043245077
-0.38696817 0.10409813 -0.037395835
0.10901382 0.10435766 -0.030653119
0.10894176 0.1230514 -0.040014267
-0.42802292 -0.08718247 -0.023413062
0.12831502 -0.08734145 -0.019282341
0.10905537 0.066229999 -0.025255799
0.12835166 0.066422865 -0.016903162
0.10906315 0.085428804 -0.024245143
0.12835522 0.08566194 -0.016671181
0.14786267 -0.010598036 -0.0048209429
0.14786237 0.0087269815 -0.0048340559
0.14786237 0.028051827 -0.0048340559
0.1477997 0.047334906 -0.007547617
0.089887679 0.066556618 -0.011109352
-0.37248293 0.10505417 -0.01255703
0.12839848 0.10500392 -0.013861179
-0.41393441 -0.088161901 0.0020349026
0.14803338 -0.068800665 0.0025708675
0.14802401 -0.049409378 0.0021656752
0.14796913 -0.029993974 -0.00021111965
-0.35776737 0.10604329 0.013140559
0.070243195 -0.10913999 0.036682367
0.089887679 -0.10894489 0.032458186
0.10952669 -0.10910714 0.035970688
-0.39955515 -0.089161567 0.028007984
0.16848424 -0.06986966 0.037286758
0.16842553 -0.050176471 0.035379887
0.16834505 -0.030501753 0.032766342
0.16820717 -0.010852915 0.028288126
0.16820675 0.0087268958 0.028274894
0.16820717 0.028306793 0.028288126
0.16820797 0.047887079 0.028314948
0.14869238 0.067531653 0.03110683
0.16820922 0.067468047 0.028355002
0.14878798 0.087260626 0.035245895
0.16820839 0.087047607 0.0283283
0.14890191 0.10708399 0.040179253
-0.10635166 0.12647058 0.034012079
0.089887679 -0.12978552 0.055258393
0.050488379 -0.10947096 0.043848038
0.1294111 -0.1098434 0.0519104
-0.38500696 -0.090209417 0.055231214
0.16867629 0.10721266 0.043523908
-0.12684622 0.12694547 0.04429388
0.070053816 -0.13011013 0.061282396
0.10970248 -0.12997663 0.058806539
0.12964711 -0.13043097 0.067238569
0.18936729 -0.050960787 0.069344878
0.18925977 -0.031021889 0.06655097
0.18909599 -0.011114729 0.062296033
0.18909547 0.0087268529 0.062282324
0.18909599 0.028568607 0.062296152
0.18909705 0.048410658 0.06232357
0.18909863 0.068253487 0.062364578
0.18909809 0.08809524 0.062350988
-0.088666394 0.12776294 0.061994672
0.02991537 -0.13120848 0.081665516
0.050061222 -0.13066566 0.071592569
-0.37015381 -0.09128207 0.083099127
0.14980543 -0.091135964 0.079303026
0.18950006 -0.070962943 0.072793841
0.18976289 0.10860211 0.079622626
-0.32975888 0.12862588 0.080678344
0.069766283 -0.15224424 0.098634124
0.089887679 -0.15169507 0.089716315
0.10991148 -0.15146349 0.085956693
0.13004386 -0.15189777 0.093009353
0.009649545 -0.13168982 0.090598345
0.15012488 -0.13182651 0.093135834
0.14996488 -0.11142749 0.086207986
0.21055099 -0.011383644 0.097225666
0.21055034 0.0087269386 0.09721148
0.21055099 0.028837521 0.097225547
0.21055228 0.048948407 0.097253799
0.21055359 0.069059849 0.097281933
0.21055359 0.089170866 0.097282052
-0.35102868 0.12897679 0.088275433
-0.33148709 0.14918521 0.091368794
0.049497034 -0.15283559 0.10823762
0.15053238 -0.15299226 0.11078095
-0.031524703 -0.13292082 0.11344349
-0.010782786 -0.13221169 0.10028374
0.17085955 -0.092487916 0.11442721
-0.35511011 -0.092408895 0.11237502
0.21088022 -0.05176935 0.1043539
0.21074244 -0.031558 0.10137069
-0.35401544 0.1499688 0.10591161
-0.31287459 0.14969373 0.100806
-0.31459436 0.17051972 0.11197627
0.11019751 -0.1740616 0.12311327
0.13049498 -0.17400588 0.12230945
0.0084919855 -0.15406443 0.12819111
0.029079616 -0.15342787 0.11785471
-0.052534595 -0.13369536 0.12781644
0.17129891 -0.13374268 0.12869561
0.17107753 -0.11305787 0.12150621
0.21135011 -0.072247975 0.11452711
0.21149653 0.11006767 0.11769736
0.13050491 0.13057858 0.12295544
-0.33679762 0.17127368 0.1242193
0.089887679 -0.17470644 0.13242078
0.15120189 -0.17521568 0.13977158
0.17154114 -0.15457997 0.13656235
-0.073777303 -0.13447994 0.14237654
-0.15448326 -0.093094304 0.13018143
0.2329863 -0.052601032 0.14036775
0.23281564 -0.032109659 0.13720071
0.23259468 -0.011659796 0.13310051
0.23259468 0.0087269386 0.13310063
0.23259546 0.029113717 0.13311493
0.23259702 0.049501099 0.13314378
0.23259859 0.069888733 0.13317275
0.23259859 0.090276033 0.13317275
-0.29831445 0.15174869 0.13894308
-0.29690003 0.17158498 0.12927258
0.069414631 -0.17553055 0.14431548
-0.012446694 -0.15500809 0.14351332
0.19277272 -0.11473507 0.15781999
-0.34016192 -0.093665853 0.1450305
-0.17689708 -0.093882628 0.15066218
0.19249099 -0.093876421 0.15050089
-0.280278 0.17324494 0.15622926
0.048697334 -0.17662968 0.16017997
0.1725155 -0.17718568 0.16820562
-0.033629514 -0.15596266 0.15901411
0.19307366 -0.13573344 0.1656388
-0.15821688 -0.11532539 0.17059898
-0.19959649 -0.094660267 0.17086697
0.25525317 -0.011943742 0.16998911
0.25525317 0.0087268958 0.16998911
0.25525409 0.029397707 0.17000401
0.25525591 0.050068904 0.17003381
0.25525773 0.070740744 0.17006361
0.25525773 0.091411985 0.1700635
0.2339299 0.11161429 0.15787888
-0.30147028 0.13231361 0.1605196
0.15173054 0.13241264 0.16266251
-0.28116739 0.15302615 0.16264784
0.027722068 -0.17776994 0.17663836
-0.055060789 -0.15692852 0.17469692
0.19342747 -0.15693671 0.17483103
0.23475979 -0.074057154 0.17327976
0.25591892 -0.053534817 0.18079972
0.25549898 -0.03267587 0.17398071
-0.26314071 0.15409157 0.18241966
0.19426548 -0.17915316 0.19660318
0.0064731538 -0.17895576 0.19375443
-0.076742128 -0.15790287 0.19051933
-0.18106872 -0.11632988 0.19234765
0.21512422 -0.11650962 0.19623923
-0.22269496 -0.095467322 0.19183362
0.21472557 -0.095304638 0.187608
0.27794653 -0.053959355 0.1991843
0.25705767 0.11320825 0.19929051
-0.28564554 0.13390473 0.19496596
-0.26405844 0.13364902 0.1894325
-0.015045345 -0.18015252 0.21102834
-0.098678961 -0.15888785 0.20651364
0.21575989 -0.15910269 0.21000171
-0.1623061 -0.13838606 0.21486628
0.2154395 -0.13775018 0.20306492
-0.20425889 -0.11733589 0.21412849
0.27863765 -0.033217538 0.20915949
0.27855176 -0.012235698 0.20791996
0.27855176 0.0087268958 0.20792007
0.27855283 0.029689662 0.20793533
0.27855599 0.050653201 0.20798123
0.27855599 0.071616396 0.20798135
0.27855599 0.09257964 0.20798111
-0.036873028 -0.18141413 0.22923839
0.2165602 -0.18128181 0.22732902
-0.12107089 -0.16003993 0.22522068
0.23762548 -0.096800067 0.22646046
-0.078766674 0.13521774 0.22339416
-0.18544474 -0.13952903 0.23607552
0.23837785 -0.13976328 0.24042273
0.23799987 -0.11822638 0.23340821
0.28090784 0.11484931 0.24192703
-0.059004486 -0.18270583 0.24788237
-0.14391914 -0.16131437 0.24591529
0.23875777 -0.16141026 0.24747288
0.26062813 -0.076643281 0.25726795
0.3028529 -0.033866081 0.25128794
0.30251926 -0.012536178 0.24695349
0.30251804 0.0087268958 0.24693799
0.30251926 0.029990014 0.24695349
0.3025229 0.051254034 0.24700081
0.30252409 0.072517842 0.24701667
0.3025229 0.093780957 0.24700081
-0.059240744 0.13655135 0.252267
-0.081450447 -0.18402851 0.2669729
0.23973201 -0.18393002 0.26555264
-0.16731137 -0.16273911 0.26904988
0.26153904 -0.12001161 0.2720592
0.26110101 -0.098281458 0.26494682
0.30359066 -0.05538395 0.26087165
-0.10425137 -0.18541211 0.28694427
0.26242483 -0.16381022 0.28644228
0.2619783 -0.14185241 0.27919197
0.32718247 -0.012845316 0.28710628
0.32718247 0.0087268958 0.28710628
0.32718247 0.030299194 0.28710616
0.32718658 0.051872138 0.28715491
0.32718933 0.073445596 0.28718734
0.32718796 0.09501794 0.28717113
0.30552047 0.11654329 0.28594053
-0.039298683 0.13791338 0.28175521
0.28475201 -0.077879436 0.29741323
0.32838726 -0.056318507 0.30133474
0.3275795 -0.034489825 0.29179525
0.26367915 -0.18678847 0.30681026
0.28576338 -0.12185684 0.31201029
0.28525639 -0.099811293 0.30469286
0.28678757 -0.16629508 0.32679331
0.28627297 -0.14401717 0.31936598
0.35257483 -0.013163666 0.32846022
0.35257328 0.0087268958 0.32844365
0.35257483 0.030617457 0.32846022
0.35257789 0.052508667 0.32849371
0.35258099 0.07440035 0.32852685
0.35258099 0.096291296 0.32852685
0.31011373 -0.10138609 0.34560895
0.30953699 -0.079132736 0.33811665
0.35403115 -0.05730892 0.34422529
0.35303941 -0.035131611 0.33348954
0.33093023 0.11829171 0.33136535
0.31069481 -0.12375735 0.35315764
0.28917179 -0.19055724 0.36120689
0.31186363 -0.16885385 0.36834085
0.31128031 -0.14624797 0.36076331
0.37872612 -0.013491406 0.37103593
0.37872612 0.0087268958 0.3710357
0.37872612 0.030945241 0.37103581
0.37872955 0.053164061 0.37107015
0.37873474 0.075383998 0.37112164
0.37873128 0.097601958 0.37108743
0.33560598 -0.1029632 0.38658309
0.33495325 -0.080387793 0.37887478
0.38051856 -0.058341742 0.38894677
0.37923601 -0.035788208 0.37613058
0.17907482 0.14250763 0.3812263
0.33702001 -0.14853908 0.40328205
0.33631241 -0.12568666 0.39492607
0.35873726 0.12074758 0.39517069
0.40567434 -0.013829221 0.41492343
0.4056724 0.0087269386 0.41490543
0.40567434 0.031283058 0.41492319
0.40567622 0.053839561 0.41494095
0.40568194 0.076397099 0.414994
0.40567622 0.098952226 0.41494119
0.3611702 -0.081700519 0.42150795
0.40622684 -0.036464356 0.42005014
0.20290153 0.14434345 0.42097449
0.36304483 -0.10508853 0.44180155
0.40784577 -0.059406944 0.43507171
0.38576099 0.12252437 0.4413327
0.43345469 -0.014177629 0.4601661
0.43345258 0.0087269386 0.46014786
0.43345258 0.031631291 0.46014786
0.43345469 0.054535776 0.4601661
0.43346104 0.077441595 0.46022105
0.43345049 0.10034366 0.46012974
0.43405032 -0.037161388 0.46532428
0.22738874 0.14622794 0.46177363
0.43606353 -0.060508192 0.48275936
0.4627991 -0.03788697 0.51245189
0.46210411 -0.014536546 0.50680912
0.46210411 0.0087269386 0.50680912
0.46210179 0.031990249 0.50679028
0.46210411 0.055253994 0.50680912
0.46210644 0.078517862 0.50682795
0.46211341 0.10178342 0.50688457
0.25271004 0.14828889 0.50639486
0.46387577 -0.10814429 0.52119339
0.44210738 -0.10867967 0.53510058
0.46544459 -0.061690055 0.5339303
0.48996609 0.079329006 0.54194796
0.49252272 -0.038642004 0.56148422
0.49167368 -0.014907432 0.55499625
0.49166349 0.0087269386 0.55491853
0.49166861 0.032361008 0.55495751
0.49086112 0.055900343 0.54878736
0.49591097 -0.062924273 0.58737504
0.49574733 0.1042233 0.58612454
0.5221988 -0.015290375 0.60472488
0.52052772 0.0087268529 0.5926652
0.47387016 0.12872145 0.6023376
0.49658498 0.12834375 0.59252584
0.5232361 -0.039422963 0.61221147
0.49902925 0.15312976 0.61120319
0.47677335 0.153809 0.62590861
0.52568173 0.15399159 0.62986159
0.52790666 0.081730105 0.64591777
0.52844989 -0.064366736 0.64983857
0.5537138 -0.015684988 0.65598726
0.52964991 0.13088302 0.65849912
0.55495179 -0.040227216 0.66445172
0.53074944 0.057711497 0.66643417
0.53118384 0.10679277 0.66956925
0.55814564 0.0087269386 0.68628824
0.53297389 0.033342715 0.68248725
0.55881757 0.03340748 0.69088233
0.45948935 0.13192752 0.68563282
0.55863154 0.13208055 0.6896106
0.55851078 0.15671305 0.6887846
0.58417141 0.0087269386 0.69525564
0.56062615 0.05827827 0.70324755
0.56041372 0.10778516 0.70179546
0.43639797 0.13248068 0.7000035
0.58803082 -0.041087408 0.72032297
0.58629161 -0.016093209 0.70902658
0.56141496 0.083178513 0.70864081
0.58958143 0.033711664 0.7303946
0.59197116 0.058935296 0.74591649
0.62000638 -0.016516846 0.76404762
0.61941904 0.059158526 0.76041436
0.5934242 0.084257364 0.75535405
0.61915445 0.084336512 0.75877726
0.62047297 0.0087270243 0.76693356
0.62122113 0.034028511 0.77156162
0.62278903 -0.042025454 0.78126037
0 0 0 1 0 0 0 1 0 0 0 1 0 0 0 0 0 714 1 0 0
