ply
format ascii 1.0
comment PCL generated
element vertex 688
property float x
property float y
property float z
element camera 1
property float view_px
property float view_py
property float view_pz
property float x_axisx
property float x_axisy
property float x_axisz
property float y_axisx
property float y_axisy
property float y_axisz
property float z_axisx
property float z_axisy
property float z_axisz
property float focal
property float scalex
property float scaley
property float centerx
property float centery
property int viewportx
property int viewporty
property float k1
property float k2
end_header
0.11265975 0.031645302 -0.38256741
0.11262614 0.049196742 -0.38305271
0.095961466 -0.0034799455 -0.36853212
0.11349106 -0.0034799008 -0.37056851
0.095610216 0.014146849 -0.37423551
0.11299525 0.014119941 -0.37772489
0.095512927 0.031749286 -0.37581533
0.13127147 0.031855151 -0.36893964
0.095593572 0.049394056 -0.37450582
0.13046992 0.049282238 -0.37935168
0.14881434 0.049488682 -0.37041199
0.096043915 0.067243956 -0.36719322
0.11311963 0.066974938 -0.37592953
0.13124652 0.067180179 -0.36926353
0.096600339 -0.038981061 -0.35815793
0.11449277 -0.039012536 -0.35610992
0.096207142 -0.021181397 -0.3645426
0.11388965 -0.021179315 -0.36481518
0.13258585 -0.021278936 -0.35186493
0.13250017 -0.0034799902 -0.35297805
0.079108939 -0.0034799455 -0.35334879
0.07896813 0.014287435 -0.35596192
0.13211523 0.014272011 -0.35797864
0.078981228 0.032058664 -0.35571879
0.079071857 0.049866877 -0.35403711
0.16728826 0.049693115 -0.36155963
0.1859584 0.049911357 -0.35210884
0.20281634 0.049710084 -0.36082321
0.14968508 0.06746155 -0.3601287
0.1682789 0.067747667 -0.35083586
0.20319572 0.067548543 -0.3573032
0.09679614 0.08539515 -0.3549788
0.11474499 0.085491635 -0.35246938
0.079784915 -0.039248243 -0.3408041
0.13370062 -0.039300848 -0.33738369
0.07930845 -0.021296062 -0.34964639
0.15115204 -0.02134876 -0.34280467
0.15102814 -0.0034799231 -0.34426808
0.15065283 0.014343356 -0.3487004
0.16934216 0.014415552 -0.33932573
0.15065372 0.032166947 -0.34868985
0.16847026 0.032165784 -0.34876424
0.062149122 0.050296605 -0.33542764
0.07935141 0.067808785 -0.34884924
0.18704687 0.068043329 -0.34123242
0.079788953 0.085943528 -0.34072924
0.13320765 0.085825816 -0.34378761
0.15176943 0.086144373 -0.33551377
0.18734609 0.086039275 -0.33824241
0.080743015 -0.057542998 -0.32302421
0.15228994 -0.039424334 -0.32936686
0.17105913 -0.039557196 -0.32073897
0.062530041 -0.021468926 -0.32718062
0.16980763 -0.021414284 -0.33428693
0.18860061 -0.021480344 -0.32570642
0.16971417 -0.0034799678 -0.33529854
0.18853658 -0.0034799902 -0.32634616
0.062339239 -0.0034799455 -0.3313114
0.062292889 0.014469503 -0.33231485
0.18818454 0.014488374 -0.32986403
0.20693807 0.014544475 -0.32257849
0.062285423 0.032416511 -0.33247668
0.18818562 0.032456938 -0.3298533
0.20650049 0.032506324 -0.32663888
0.22374238 0.050349213 -0.33314496
0.24289455 0.050576098 -0.32332861
0.062569574 0.068502359 -0.32632446
0.22505797 0.068643212 -0.32175159
0.17053917 0.086496353 -0.32636791
0.080566928 0.10449515 -0.32629204
0.098320156 0.1043131 -0.33023143
0.11683775 0.10468119 -0.32226306
0.062992834 -0.039612196 -0.31716096
0.18996865 -0.039691176 -0.31203628
0.20759381 -0.021551222 -0.31649411
0.22678559 -0.021625903 -0.30679023
0.045307621 -0.0034800351 -0.30726403
0.2075396 -0.0034799902 -0.31699681
0.22671686 -0.0034799455 -0.30738527
0.045268618 0.014654593 -0.30827731
0.22613041 0.014622333 -0.31246412
0.045247018 0.032780468 -0.30883867
0.22633068 0.032751255 -0.31072968
0.2448474 0.032801509 -0.30747348
0.045286417 0.050934326 -0.3078149
0.26222306 0.050807193 -0.31331962
0.24430297 0.068946838 -0.3118937
0.063000396 0.086856976 -0.31699687
0.20853154 0.087211289 -0.30779278
0.1354325 0.10502194 -0.31488615
0.1542213 0.10540665 -0.30655879
0.081841528 -0.31250489 -0.30263829
0.081874922 -0.29440325 -0.30201864
0.063806325 -0.058085129 -0.29954809
0.045869179 -0.039989252 -0.29267424
0.20902033 -0.0398263 -0.30325758
0.22823276 -0.039964851 -0.29425722
0.04547289 -0.021655384 -0.30297017
0.24613668 -0.021701299 -0.29700571
0.24605046 -0.0034799902 -0.29770559
0.24531491 0.014689964 -0.30367768
0.26484162 0.014769793 -0.29330999
0.26399189 0.032919485 -0.2998032
0.28177583 0.051049996 -0.30280429
0.30152708 0.051298618 -0.29203826
0.045458421 0.069209993 -0.30334604
0.26374686 0.069261387 -0.3016755
0.28342074 0.069592215 -0.29093277
0.045818545 0.087742582 -0.29398984
0.22783969 0.087601297 -0.29766136
0.063631415 0.10555552 -0.30333507
0.17308839 0.10576628 -0.29877156
0.24762823 -0.040108997 -0.28489608
0.028058954 -0.021845736 -0.27824152
0.26571953 -0.021781351 -0.2866016
0.285469 -0.021861807 -0.27615076
0.027921185 -0.0034799902 -0.2827158
0.26559484 -0.0034799902 -0.28755432
0.28532332 -0.0034799008 -0.27720243
0.027878948 0.014840803 -0.2840873
0.28455001 0.014850697 -0.28278321
0.027859583 0.03315179 -0.28471637
0.28363138 0.033079527 -0.28941256
0.30348229 0.03324496 -0.27867061
0.027929842 0.0515204 -0.28243452
0.32146108 0.051549815 -0.28116244
0.028036021 0.06996002 -0.27898651
0.2472346 0.087969601 -0.28809196
0.26702505 0.088410854 -0.27662575
0.046356946 0.10663317 -0.28000176
0.19221477 0.10619028 -0.28959155
0.21143676 0.10659462 -0.28083563
0.04654175 -0.058647472 -0.27520025
0.028381623 -0.040372819 -0.26776248
0.267259 -0.040263887 -0.27483785
0.28705484 -0.040419828 -0.26470602
0.30539286 -0.021943025 -0.26560771
0.30521274 -0.0034799902 -0.2668395
0.30443746 0.014932766 -0.27213997
0.3245582 0.015018103 -0.26104593
0.32351714 0.033412188 -0.26780814
0.34183985 0.051840525 -0.26857096
0.028313644 0.088667095 -0.2699703
0.28598547 0.088572666 -0.27242374
0.23079975 0.10700148 -0.27202642
0.25052059 0.10749175 -0.2614125
0.028937861 -0.059236344 -0.24969846
0.30702102 -0.040577363 -0.25447607
0.010293175 -0.022045646 -0.25226271
0.32566017 -0.022033244 -0.25388855
0.32544029 -0.0034800351 -0.25531656
0.0101844 -0.0034799008 -0.25697279
0.010154687 0.015039594 -0.2582593
0.34540361 0.015129945 -0.24652606
0.010141164 0.033550087 -0.25884473
0.34423018 0.033627991 -0.25378478
0.010202985 0.052127067 -0.25616807
0.3627159 0.052172735 -0.25418812
0.010282248 0.070768349 -0.25273579
0.30622941 0.07054811 -0.25988853
0.32645309 0.070891425 -0.24873829
0.30623108 0.089055516 -0.25987703
0.32662958 0.089528404 -0.24759209
0.028796412 0.10782065 -0.25429177
0.27037495 0.10797147 -0.25102752
0.010549627 -0.040782422 -0.24115783
0.32780671 -0.040801048 -0.23994619
0.3466332 -0.022148352 -0.23891997
-0.0079350024 -0.0034799008 -0.23033816
0.34643525 -0.0034799455 -0.24014443
-0.0079525411 0.015245817 -0.23147732
0.36653423 0.015244474 -0.23164165
-0.0079588667 0.033965129 -0.23188812
0.36528182 0.033855211 -0.23903674
0.38384819 0.052509427 -0.23960817
0.34736824 0.071333781 -0.23437327
0.36534113 0.071200989 -0.23868662
0.010487571 0.089672707 -0.24384499
0.34736252 0.090035945 -0.23440832
0.29043722 0.1084671 -0.24029577
0.010976423 -0.059860408 -0.22267711
0.34935075 -0.04107568 -0.22210938
-0.0078597814 -0.022252049 -0.22545248
0.36786032 -0.022264719 -0.22381157
0.36769634 -0.0034799455 -0.2247799
0.38797718 0.015362718 -0.21628767
0.38664085 0.034089103 -0.22383517
-0.0079183541 0.052748512 -0.22925669
0.40530324 0.052858476 -0.2244966
-0.007869225 0.071589611 -0.22606558
0.38684171 0.071693264 -0.22270083
-0.0077342279 0.09069442 -0.21729738
0.010850284 0.1090286 -0.2281391
0.31097817 0.10906178 -0.22742087
-0.0076800287 -0.041203912 -0.21377718
0.37121212 -0.041354168 -0.20402026
0.38934088 -0.022381887 -0.20858556
-0.026462469 -0.0034799902 -0.20344383
0.38924772 -0.0034799902 -0.20911163
-0.026468107 0.015455979 -0.20417631
-0.026469402 0.034389216 -0.20434421
-0.026451368 0.053377882 -0.20200169
0.42711025 0.053221758 -0.20876497
0.46552604 0.053290039 -0.20580757
0.40873611 0.072210073 -0.20591557
0.37043083 0.091027975 -0.20863336
-0.0074965134 0.11024252 -0.20185739
0.33226711 0.10982139 -0.21097523
-0.0073962696 -0.060491569 -0.19534624
-0.026325671 -0.041636728 -0.18567312
-0.026421051 -0.022462927 -0.19806349
0.41124564 -0.022507027 -0.19233227
0.41118294 -0.0034799902 -0.19267166
0.41047007 0.015514721 -0.19653052
0.41047007 0.034509476 -0.1965304
0.43073964 0.034611512 -0.18990612
0.44837976 0.053495143 -0.19692904
-0.026426714 0.072429143 -0.19879901
0.43099922 0.072744526 -0.18855745
0.44937497 0.07263989 -0.19195664
-0.026362929 0.091725312 -0.19051307
0.39254069 0.091725312 -0.19051307
0.35399997 0.11063544 -0.19334984
0.10794036 -0.060984157 -0.17401898
0.12729865 -0.061047558 -0.17127317
0.3940025 -0.041689202 -0.18225682
0.43344706 -0.022634003 -0.17583793
-0.045404002 -0.0034799902 -0.17731082
0.43341637 -0.0034800351 -0.17599756
-0.045404002 0.015669901 -0.17637831
0.43272489 0.015645143 -0.1795904
-0.045404002 0.034814689 -0.17670953
0.45259863 0.034827899 -0.17585021
-0.045404002 0.054014817 -0.17442483
0.41488373 0.092413329 -0.17264068
0.37610352 0.11147664 -0.17513776
-0.026182408 -0.061144713 -0.16706276
0.14690435 -0.061172515 -0.1658625
0.1667186 -0.061331593 -0.1589725
-0.045404002 -0.042088754 -0.15630579
-0.045404002 -0.022685759 -0.16912657
0.45625836 -0.022774722 -0.15756512
0.45610625 -0.0034799455 -0.15832508
0.45518559 0.01577346 -0.16292495
0.47538733 0.035097159 -0.15836251
0.49465984 0.054383922 -0.15843725
0.43504542 0.092609972 -0.16753268
0.18730225 -0.061656509 -0.14490187
0.41830069 -0.042122107 -0.15414572
0.47914445 -0.0034799902 -0.14028597
-0.064767741 -0.0034799455 -0.1485976
-0.064782441 0.015898421 -0.14668822
0.47799671 0.015905228 -0.14580798
-0.064771995 0.035256013 -0.1480453
0.49860758 0.035378065 -0.14012182
-0.064720124 0.054468408 -0.15478289
0.47666669 0.073863797 -0.15220714
-0.02603949 0.11270712 -0.14849722
0.39890003 0.11242541 -0.15459549
-0.026042001 0.13205406 -0.1488235
-0.0066469349 0.1321698 -0.14667571
-0.026029531 0.15151575 -0.14720345
-0.0065850951 0.15179567 -0.14265919
-0.045404002 -0.061834123 -0.13721204
0.20783086 -0.061918743 -0.13354635
-0.06494157 -0.042555105 -0.12601697
0.44211471 -0.042481452 -0.13079965
-0.064840481 -0.022916429 -0.13914847
0.47935462 -0.022915486 -0.13927484
0.50017828 0.016005114 -0.13283491
0.51975131 0.03549622 -0.13244081
0.51849961 0.054854933 -0.1380477
0.50021112 0.074465089 -0.13268232
0.46138364 0.093979165 -0.13195753
0.013073854 0.13296837 -0.13185573
-0.025974821 0.17138264 -0.14009643
-0.0064338408 0.17188576 -0.13283467
-0.025860038 0.19195965 -0.12518597
0.22848596 -0.062170766 -0.12263882
0.46571213 -0.042796608 -0.11033118
0.48409903 -0.042702451 -0.11644852
0.50496465 -0.042791996 -0.11062872
0.50237864 -0.023043673 -0.12262607
-0.084605053 -0.0034799902 -0.11783803
0.50208056 -0.0034800351 -0.12400901
-0.0846439 0.016139925 -0.11531496
0.52144223 0.016066499 -0.12486637
-0.084615156 0.035731185 -0.11718202
-0.045404002 0.074762069 -0.12303615
0.013239697 0.15290321 -0.12467456
-0.045404002 0.17255576 -0.12316406
-0.045404002 0.19245501 -0.11875105
-0.0061138459 0.19297084 -0.11205053
-0.065092936 -0.062546812 -0.1063534
-0.084755316 -0.023155648 -0.10807812
-0.045404002 0.095359325 -0.096099734
0.48561794 0.09485738 -0.10914052
-0.065166436 0.11509458 -0.096805811
-0.045404002 0.11471356 -0.10505497
-0.065162003 0.13482602 -0.097381115
-0.045404002 0.13432577 -0.1066649
-0.045404002 0.15465569 -0.096217394
-0.045404002 -0.082648702 -0.092943192
-0.02561436 -0.082638539 -0.093271017
-0.005780261 -0.082727507 -0.09038353
0.25130898 -0.06282261 -0.094411135
-0.084963515 -0.043039501 -0.094555259
-0.10493626 -0.0034799455 -0.086198449
-0.10498929 0.016381789 -0.083902597
-0.10493353 0.036206312 -0.086317062
-0.065254793 0.095773965 -0.085328102
-0.065250121 0.15528892 -0.085934639
-0.06520687 0.19454882 -0.091552496
-0.045404002 0.21440943 -0.090869665
-0.045404002 -0.1035158 -0.065013289
-0.025399821 -0.1035009 -0.065401793
-0.065306611 -0.083090432 -0.078596354
0.014287293 -0.083068356 -0.079312205
0.034406595 -0.083290562 -0.072095871
-0.085271582 -0.063281305 -0.074545741
0.27450949 -0.0634638 -0.066647053
-0.10516086 -0.023398943 -0.076472878
-0.065409109 0.07654053 -0.065281272
-0.065400764 0.17649077 -0.066365957
-0.065375857 0.21621032 -0.069601297
-0.06550236 -0.10397182 -0.053167701
-0.0052804314 -0.10378892 -0.057918906
0.014950152 -0.10407018 -0.050609589
-0.085616753 -0.083905473 -0.052126169
0.054644749 -0.083518952 -0.064678311
0.075056374 -0.083786868 -0.055977345
0.09543404 -0.083958887 -0.050392747
-0.10548189 -0.043531865 -0.062572241
-0.12579119 -0.0034799902 -0.053370595
-0.12587163 0.016636994 -0.050758481
-0.12584367 0.036739916 -0.051665902
-0.085527569 0.056705296 -0.057918787
-0.085625306 0.076962598 -0.051571131
-0.085597806 0.11710147 -0.053357124
-0.085637808 0.13733836 -0.0507586
-0.085607171 0.17743437 -0.052748442
-0.085536703 0.19718355 -0.05732584
-0.045404002 -0.12484774 -0.036333084
0.035294123 -0.1043527 -0.043272734
0.11621153 -0.08428774 -0.039711714
-0.10595026 -0.064026281 -0.042291284
-0.12609331 -0.023652267 -0.043558836
-0.085868344 0.097680926 -0.03578496
-0.0858441 0.15828042 -0.037359834
-0.065686509 -0.12517503 -0.029246092
-0.025162967 -0.12492618 -0.034633398
-0.0047961138 -0.12530367 -0.026461363
-0.085994475 -0.10495623 -0.027592421
0.055807516 -0.10469154 -0.034468651
0.076498114 -0.10506508 -0.02476275
-0.10644071 -0.084862262 -0.021054387
0.13727415 -0.084670231 -0.027289152
-0.12654549 -0.044050645 -0.028874278
-0.12644 0.057297058 -0.032299876
-0.10634357 0.09808594 -0.02526021
-0.10637325 0.11845852 -0.023975015
-0.10637006 0.13877417 -0.024113178
-0.10634676 0.15903397 -0.025122166
-0.045404002 -0.14663067 -0.0074744225
0.01568298 -0.12565397 -0.018877029
0.03631632 -0.1260605 -0.010075927
0.097431347 -0.10550519 -0.01332736
0.15853712 -0.08505635 -0.014748454
-0.12720743 -0.064832546 -0.0073765516
0.30086094 -0.064585492 -0.01807189
-0.14762166 -0.023923546 -0.0083283186
-0.14722204 -0.0034799902 -0.018710732
-0.14731726 0.016902674 -0.016237378
-0.14729905 0.037277993 -0.016709924
-0.14732581 0.057673149 -0.016014695
-0.10649708 0.057613108 -0.018613219
-0.14770466 0.078360535 -0.0061718225
-0.10649483 0.077974506 -0.018710494
-0.065889515 -0.14687862 -0.002874732
-0.024895534 -0.14703931 0.00010693073
-0.0042655356 -0.14746465 0.0080007315
-0.086346507 -0.12630747 -0.004727602
0.057132371 -0.12652358 -4.8041344e-05
-0.10700787 -0.10615309 0.0035045147
0.11863513 -0.10600445 -0.00035762787
0.18047802 -0.085618876 0.003518343
-0.14822891 -0.044609945 0.007448554
-0.12763473 0.078750819 0.0065002441
-0.14809176 0.099207848 0.0038855076
-0.086689964 -0.14798084 0.017580986
0.016498934 -0.14792012 0.016454458
-0.10745145 -0.12757489 0.022711873
0.078169912 -0.12705396 0.011432648
0.099482253 -0.12766825 0.02473259
0.14003462 -0.10650147 0.012555003
0.20252149 -0.08612185 0.019851089
0.42808241 -0.065239079 0.01022625
-0.16921383 -0.0034799902 0.016540051
-0.16935685 0.017178874 0.01963675
-0.16932783 0.037827935 0.019008398
-0.16951872 0.058577422 0.023141623
-0.12792939 0.099676847 0.01606977
-0.12801944 0.12044308 0.018993974
-0.066141635 -0.16938108 0.029876471
-0.045404002 -0.16918266 0.026655555
-0.024641737 -0.16957809 0.033076286
0.037457973 -0.14848837 0.027000308
0.058605433 -0.14909317 0.038223147
0.12100218 -0.12828468 0.038078427
0.16178191 -0.10707295 0.027402759
0.22482641 -0.086627781 0.036283612
-0.14948708 -0.06592983 0.040136695
0.41027355 -0.065617815 0.026626945
-0.16974741 -0.024203911 0.028092623
-0.16975604 0.079421423 0.028279424
-0.1489124 0.12073015 0.02520597
-0.087167844 -0.17053537 0.048620224
-0.0037345588 -0.17015775 0.042488694
0.017337315 -0.17079014 0.052757382
0.08002995 -0.1498196 0.051703691
0.14283109 -0.12897004 0.052918553
0.18385179 -0.10768714 0.043360829
-0.12886612 -0.086942047 0.04649055
0.39228725 -0.066007286 0.043491602
-0.17054738 -0.045194454 0.04541254
-0.19181144 -0.0034799902 0.052962422
-0.17046538 0.10073787 0.043637156
0.038576961 -0.17144191 0.063340664
-0.1084303 -0.15054138 0.06509769
0.10167408 -0.15055808 0.065407991
0.16501059 -0.12972876 0.06934464
-0.12931596 -0.10836988 0.06109941
0.20618363 -0.10830809 0.059494615
0.24793579 -0.087291405 0.057832956
0.33208144 -0.066394217 0.060245395
0.37431234 -0.066437416 0.062116385
-0.1924208 -0.024482351 0.064270496
-0.19197656 0.017458972 0.056026459
-0.19194177 0.038387951 0.055380821
-0.19219913 0.059432175 0.060157061
-0.19247572 0.080561027 0.065289855
-0.17145659 0.12257256 0.065097809
-0.10876165 -0.17243366 0.079445362
0.060063504 -0.17222801 0.076104879
0.12360674 -0.15136434 0.080371261
-0.12985557 -0.13015738 0.078624368
0.22917567 -0.1090875 0.079743981
-0.15110651 -0.088041931 0.082210302
0.27157396 -0.08800745 0.081088781
-0.17227879 -0.066917427 0.082898736
0.35626107 -0.06690082 0.082180381
-0.19335929 -0.045752946 0.081686854
-0.19338588 0.10222132 0.082180381
0.33414489 0.1441223 0.075137138
0.35579342 0.14432956 0.078982711
0.33479774 0.16549857 0.079848409
0.081748635 -0.1730168 0.088914156
0.14589746 -0.15226996 0.097177386
0.18745229 -0.13049249 0.085880637
-0.15168026 -0.10975617 0.097116947
-0.21501866 -0.0034800351 0.090177536
-0.21519677 0.017744087 0.093069792
-0.21515499 0.038957775 0.092391491
-0.21548328 0.060299691 0.097722054
0.31622249 0.16669726 0.099311709
0.35711193 0.16600034 0.087997437
0.33676976 0.18760695 0.094080448
-0.13096112 -0.17459425 0.1145277
0.10366282 -0.17384206 0.10231423
-0.13057008 -0.15252064 0.10182858
0.16847935 -0.15319833 0.11440527
0.21046908 -0.13141651 0.10588646
0.25270021 -0.10994583 0.10204113
0.29585576 -0.088794962 0.10666275
-0.21571 -0.024768226 0.10140383
-0.21581566 0.081725873 0.10311913
-0.19451582 0.1243301 0.10314941
0.31722635 0.14583831 0.10698259
0.31642878 0.18807854 0.10088801
0.36083782 0.1889503 0.11347139
0.12595864 -0.1748426 0.11856139
-0.15238577 -0.13185816 0.11544704
0.23406611 -0.13246626 0.12861216
0.27708292 -0.11097565 0.12879777
-0.17391889 -0.089156635 0.11840785
-0.19554937 -0.067828014 0.12232959
-0.2167903 -0.046326529 0.11894548
-0.23887044 -0.0034799008 0.12842631
-0.21688592 0.10369613 0.12049806
0.29847348 0.18995115 0.12791622
0.31918639 0.21098499 0.12196004
0.14878207 -0.17608978 0.13881326
-0.15331335 -0.1545531 0.13954604
0.19163799 -0.15432484 0.13531137
-0.17464365 -0.11117968 0.13409936
0.32157552 -0.089828089 0.14021659
-0.23964731 -0.025062561 0.13963962
-0.23906033 0.01803739 0.13116693
-0.23901524 0.039544698 0.13051617
-0.23941748 0.06119116 0.13632214
-0.23982249 0.082928196 0.14216793
-0.21824545 0.1261511 0.14257407
0.29942071 0.1473809 0.13560688
0.29942071 0.16893241 0.13560665
0.29911649 0.21184538 0.13313687
-0.15383983 -0.17697725 0.15322435
0.21537979 -0.15560383 0.15904617
-0.17554082 -0.13361673 0.15352356
0.25833344 -0.13365318 0.1543113
-0.19734493 -0.090303443 0.15565121
-0.24094257 -0.046933021 0.15833485
0.28031307 0.19195029 0.1567713
0.17224491 -0.17759907 0.16332138
-0.19826064 -0.11266331 0.1726445
-0.26360363 -0.0034799902 0.17047524
-0.26363307 0.018343009 0.17085779
-0.26361716 0.040162604 0.1706506
-0.24113433 0.1052591 0.16110301
0.28124338 0.14895548 0.16482854
0.28124338 0.17073199 0.16482854
-0.17669734 -0.15665549 0.17856288
0.23950671 -0.15689346 0.1829778
-0.22062877 -0.06918928 0.18127441
-0.26427561 -0.025367148 0.17920423
-0.26409179 0.062126372 0.17681682
-0.26457846 0.084189802 0.18313849
-0.24285841 0.1281562 0.18598771
0.26178724 0.17205794 0.18635845
-0.17741568 -0.17949569 0.19411564
-0.1993766 -0.13545649 0.19335425
-0.22147648 -0.091516241 0.19503975
-0.26578206 -0.047555629 0.19877398
-0.26610419 0.10687006 0.20295846
0.26231271 0.15037844 0.19123411
-0.15620151 -0.24723448 0.2145822
-0.15617619 -0.22502442 0.21392488
-0.17820856 -0.2026868 0.21128201
-0.15598932 -0.20253354 0.20906973
-0.20028788 -0.15836389 0.21026564
-0.22223367 -0.11399856 0.207335
-0.24492836 -0.069988161 0.21586514
-0.28900686 -0.0034800351 0.21279156
-0.28891516 0.01865745 0.21170855
-0.28890961 0.040793676 0.21164286
-0.2894358 0.063074209 0.21785712
-0.1787104 -0.24787503 0.22214711
-0.1787104 -0.22565736 0.22214711
-0.13428614 -0.20346476 0.22251058
-0.20141853 -0.18178231 0.23124766
-0.22379133 -0.13727054 0.23262846
-0.24627215 -0.092754744 0.23526073
-0.29009888 -0.025725018 0.22568762
-0.29007223 0.085490361 0.22537303
-0.26811177 0.13014473 0.22903764
-0.090264291 -0.22778143 0.24973989
-0.11237893 -0.20440477 0.23607802
-0.090264805 -0.20535363 0.2497735
-0.29155225 -0.048234291 0.24285102
-0.29177243 0.10850565 0.24545133
-0.067940965 -0.20631263 0.26361585
-0.22544141 -0.16101277 0.2594223
-0.24760017 -0.11581114 0.25442934
-0.27079195 -0.071096376 0.26385403
-0.31579882 -0.026012994 0.26308894
-0.31505668 -0.0034800351 0.25505483
-0.31493026 0.018980481 0.25368607
-0.3149271 0.041440416 0.25365233
-0.31548047 0.064039193 0.2596426
-0.11327028 -0.22970092 0.27467525
-0.045404002 -0.20727958 0.27757323
-0.24915609 -0.13931473 0.27688694
-0.27195776 -0.094101548 0.27899885
-0.31624705 0.086800948 0.26794088
-0.29406148 0.13215144 0.27248418
-0.11371751 -0.25396284 0.29404044
-0.022651125 -0.20825593 0.29166448
-0.22760651 -0.18568255 0.29457879
-0.31815708 -0.048938837 0.28861761
-0.31827056 0.11021436 0.28984594
-0.25108317 -0.1634527 0.30470192
-0.27348775 -0.1175219 0.2988739
-0.29712021 -0.072129816 0.30860579
-0.34276408 -0.026353803 0.30737925
-0.34191114 -0.0034799902 0.29885638
-0.34175962 0.019316636 0.2973423
-0.34176487 0.042113978 0.29739451
-0.34240168 0.065058 0.30375814
-0.27533382 -0.14143789 0.32285488
-0.29843324 -0.09549062 0.32411194
-0.34338057 0.088205062 0.31353974
-0.32095897 0.13429739 0.31894898
0.023655146 -0.23367713 0.32632768
0.046909235 -0.23426312 0.33393931
-0.34556484 -0.0496586 0.33536637
-0.34559697 0.11197885 0.33568752
0.024168134 -0.21219638 0.34854078
-0.27688783 -0.16551875 0.34304202
-0.30018359 -0.1192889 0.34478295
-0.34667981 -0.096180208 0.34650791
-0.34655392 -0.072976016 0.34525001
-0.32427084 -0.073196657 0.35480106
-0.37056369 -0.026705626 0.35308468
-0.36959738 -0.0034799902 0.34411871
-0.36941952 0.019663937 0.34246802
-0.3694427 0.042811356 0.34268332
-0.37015742 0.066110112 0.3493154
0.0010944121 -0.23597205 0.35613942
0.094758838 -0.23708473 0.37059343
0.0012360811 -0.21336032 0.36534131
0.094632387 -0.21353453 0.36785555
-0.30202472 -0.14345489 0.36652505
-0.32544816 -0.096828118 0.36754572
-0.37135965 0.089650229 0.36047018
-0.34873408 0.13651843 0.36703527
0.094888061 -0.26068208 0.37339091
0.071764432 -0.23781686 0.3801043
0.07164216 -0.21416311 0.37692726
-0.37383658 -0.050398961 0.38345349
-0.37384653 0.11382089 0.38354564
-0.32727718 -0.12092709 0.38734579
-0.39915663 -0.027063496 0.39956641
-0.39812338 -0.0034799008 0.39061832
-0.3979333 0.020022072 0.38897192
-0.39798665 0.04353103 0.38943434
-0.39878291 0.067195803 0.39633024
-0.4003365 -0.098128714 0.40978456
-0.40092182 -0.074583493 0.41485357
-0.40030622 0.09116064 0.40952218
-0.37901986 -0.074969031 0.43154824
-0.40292418 -0.051149394 0.43219459
-0.42752635 -0.0034799455 0.4384259
-0.42732424 0.020390015 0.43678427
-0.4274323 0.044273451 0.43766224
-0.42831582 0.068315923 0.44483531
-0.40313071 0.11576218 0.43398321
-0.42866093 -0.027433451 0.4476372
-0.43027401 0.092737488 0.46073377
-0.45777661 -0.0034799455 0.48708332
-0.45741606 0.020756032 0.48432827
-0.45762461 0.045016497 0.48592162
-0.43371361 0.11786677 0.48865986
-0.45908767 -0.027814288 0.49710155
-0.45869112 0.069453016 0.4940716
-0.4610399 0.094316661 0.51201904
-0.48855752 0.021139555 0.53416371
-0.48864746 0.045769218 0.53481317
-0.49053997 -0.02820972 0.54847133
-0.48899651 -0.0034800351 0.53733218
-0.44254583 -0.053122707 0.56036866
-0.5189454 0.021443292 0.57360172
-0.46931672 0.12120032 0.575266
-0.46943939 0.1461796 0.57620299
-0.52135724 -0.0034799455 0.59009147
-0.4459585 0.14672785 0.58807635
-0.47060639 0.17160326 0.58512056
-0.52315831 -0.028625075 0.60240567
-0.49853015 0.072041146 0.60613513
-0.49872422 0.1728112 0.60753572
-0.44735879 0.17237528 0.59944522
-0.49916297 0.19819066 0.6107024
-0.47328985 0.19787806 0.60562599
-0.50038069 0.12290244 0.61949039
-0.50092369 0.14835982 0.62340915
-0.50276095 0.098154888 0.63666856
-0.52862847 0.12368426 0.63980508
-0.55499315 -0.0034800351 0.64585757
-0.53058726 0.14973567 0.65319741
-0.55706936 -0.0290634 0.65934277
-0.55812734 0.022156164 0.66621447
-0.53241718 0.047784477 0.66570866
-0.53235286 0.073406622 0.66526902
-0.53145081 0.20117131 0.65910172
-0.58636522 0.022280004 0.68230855
-0.53347462 0.17633547 0.67293847
-0.53581846 0.099765271 0.68896365
-0.58984196 -0.0034799455 0.70381546
-0.59211379 -0.029513903 0.7178688
-0.59227526 0.048602924 0.71886742
-0.56851912 0.048831444 0.733711
-0.59448612 0.074960232 0.73254359
-0.570629 0.075303815 0.74741542
-0.57106656 0.10165253 0.75025761
-0.62654948 -0.0034801245 0.76747942
-0.62656134 0.022936102 0.76754951
-0.62808847 0.049491301 0.77656651
-0.1539492 0.18647406 0.86108792
-0.15393327 0.21357854 0.86057031
-0.18259749 0.18859082 0.90037048
0 0 0 1 0 0 0 1 0 0 0 1 0 0 0 0 0 688 1 0 0
