ply
format ascii 1.0
comment PCL generated
element vertex 1236
property float x
property float y
property float z
element camera 1
property float view_px
property float view_py
property float view_pz
property float x_axisx
property float x_axisy
property float x_axisz
property float y_axisx
property float y_axisy
property float y_axisz
property float z_axisx
property float z_axisy
property float z_axisz
property float focal
property float scalex
property float scaley
property float centerx
property float centery
property int viewportx
property int viewporty
property float k1
property float k2
end_header
-0.026885781 -0.2251454 -0.27733237
-0.0083966823 -0.22461963 -0.28112733
0.01003399 -0.22461963 -0.28112733
0.0284671 -0.22466341 -0.28081065
-0.063911214 -0.20713466 -0.27390105
-0.04537791 -0.20686826 -0.27593619
-0.026879493 -0.20663214 -0.27774078
-0.0084080072 -0.20638147 -0.27965605
0.01003399 -0.20638147 -0.27965605
0.028488901 -0.20660096 -0.2779789
0.046969838 -0.20682222 -0.27628809
0.065485537 -0.20709288 -0.27421969
-0.10127091 -0.39373955 -0.26552027
-0.082720973 -0.39374426 -0.26549733
-0.064169981 -0.39374426 -0.26549733
-0.045618985 -0.39374426 -0.26549733
-0.027067993 -0.39374426 -0.26549733
-0.0085171787 -0.39374903 -0.26547444
0.01003399 -0.39375141 -0.26546299
0.028585069 -0.39374664 -0.26548588
0.047135975 -0.39374426 -0.26549733
0.065686963 -0.39374426 -0.26549733
0.084237956 -0.39374426 -0.26549733
0.10278807 -0.39373955 -0.26552027
0.12145173 -0.39424732 -0.2630772
0.01003399 -0.26474136 -0.25995022
0.065837406 -0.24628916 -0.25898296
-0.045501743 -0.22608191 -0.27057397
0.047059573 -0.22609773 -0.27045989
-0.11998307 -0.20862311 -0.26252604
-0.10120955 -0.20805746 -0.26684856
-0.082508884 -0.20751327 -0.27100754
0.084054239 -0.20745355 -0.27146363
0.10271139 -0.20797068 -0.26751226
0.12144589 -0.20853454 -0.2632035
-0.10153721 -0.19039071 -0.2597546
-0.082809262 -0.18996584 -0.26320356
-0.064159401 -0.18964103 -0.26584095
-0.045526788 -0.18919167 -0.26948953
-0.026990537 -0.1890637 -0.27052838
-0.0084715998 -0.18895692 -0.27139533
0.01003399 -0.18896532 -0.27132678
0.028547045 -0.18907633 -0.27042568
0.047079787 -0.18923384 -0.26914698
0.065671884 -0.18960294 -0.26615018
0.084293745 -0.18990657 -0.26368552
0.10299005 -0.19032693 -0.26027256
-0.0460959 -0.2857767 -0.24484634
0.047444589 -0.2856788 -0.24545205
-0.027348112 -0.28537953 -0.24730307
-0.0086466791 -0.28516155 -0.24865156
0.01003399 -0.28513911 -0.24879086
0.028723698 -0.2853514 -0.24747747
-0.10208493 -0.26659721 -0.24789613
-0.083376072 -0.26650769 -0.24847728
-0.064668313 -0.266379 -0.24931371
-0.045996483 -0.26640397 -0.24915111
-0.027298037 -0.26618782 -0.25055546
-0.0085730935 -0.26500914 -0.25821084
0.028712157 -0.26643088 -0.24897677
0.047387645 -0.26640397 -0.24915111
0.066056959 -0.26635391 -0.24947613
0.084761687 -0.26650593 -0.24848884
0.1034284 -0.2664451 -0.24888402
-0.13964285 -0.24834996 -0.24489284
-0.12046766 -0.24708617 -0.2535333
-0.1021537 -0.2481285 -0.24640709
-0.083210878 -0.24719799 -0.25276923
-0.064742401 -0.24805531 -0.24690759
-0.045964584 -0.2475251 -0.25053239
-0.027242929 -0.24699819 -0.25413489
-0.0085786851 -0.24650827 -0.2574845
0.01003399 -0.24643925 -0.25795734
0.028668802 -0.24692887 -0.25460887
0.047359057 -0.24745563 -0.25100785
0.084907599 -0.24851716 -0.2437501
0.10362465 -0.24851197 -0.2437852
0.12196635 -0.24731997 -0.25193524
0.14096797 -0.24825963 -0.24551028
-0.15842515 -0.22978577 -0.2438435
-0.13907368 -0.22835976 -0.25413477
-0.12031879 -0.22806028 -0.25629592
0.10310891 -0.22793713 -0.25718457
0.12226901 -0.22957256 -0.24538225
0.14041291 -0.22812757 -0.25581092
0.15977834 -0.22979236 -0.24379677
-0.15805584 -0.21037051 -0.24917418
0.15939498 -0.21025962 -0.25002182
-0.1389399 -0.20943698 -0.25630742
0.14035691 -0.2093659 -0.25684994
-0.15822577 -0.19199601 -0.24672121
-0.13920416 -0.19134378 -0.25201637
-0.12031505 -0.19080818 -0.25636506
0.12173935 -0.19074836 -0.25684994
0.1405818 -0.19126245 -0.25267655
0.15956958 -0.1919387 -0.2471866
-0.1208617 -0.17335823 -0.24622071
-0.10202482 -0.17301452 -0.24919742
-0.083221577 -0.17263415 -0.25249135
-0.064509526 -0.17240557 -0.25447023
-0.045832284 -0.17219889 -0.25626111
-0.027198642 -0.17211217 -0.25701147
-0.0085747791 -0.17199904 -0.25799191
0.01003399 -0.17199373 -0.25803787
0.028648529 -0.17208552 -0.2572422
0.047279421 -0.17220819 -0.25618041
0.065940559 -0.17240027 -0.25451654
0.084643431 -0.17265293 -0.25232911
0.10341365 -0.17300647 -0.2492671
0.12223083 -0.17335957 -0.24620908
-0.0086783087 -0.15483961 -0.24454319
0.01003399 -0.1548346 -0.24458981
0.028753921 -0.15494648 -0.24355185
-0.1772138 -0.37971178 -0.24292147
-0.15848903 -0.37971178 -0.24292147
-0.13976352 -0.37970939 -0.24293327
-0.12103947 -0.37971178 -0.24292147
-0.10231362 -0.37970713 -0.2429449
-0.083589911 -0.37971178 -0.24292147
-0.06486477 -0.37970939 -0.24293327
-0.046140082 -0.37970939 -0.24293327
-0.027415387 -0.37970939 -0.24293327
-0.0086907903 -0.37971178 -0.24292147
0.01003399 -0.3797141 -0.24290985
0.028758679 -0.37970939 -0.24293327
0.04748337 -0.37970939 -0.24293327
0.066208065 -0.37970939 -0.24293327
0.084932394 -0.37970713 -0.2429449
0.10365655 -0.3797048 -0.24295664
0.12238268 -0.37971178 -0.24292147
0.14110745 -0.37971178 -0.24292147
0.15983081 -0.37970713 -0.2429449
0.17855702 -0.37971178 -0.24292147
0.1974806 -0.3802287 -0.24033892
-0.10291205 -0.28817862 -0.22998852
-0.064954028 -0.2865546 -0.2400347
0.06625852 -0.28643924 -0.24074829
-0.14025399 -0.26858744 -0.23496914
-0.12118685 -0.26778418 -0.24018675
0.12246253 -0.2676293 -0.2411927
0.14148599 -0.2684446 -0.235897
-0.17779072 -0.24973446 -0.23542732
-0.15877014 -0.24923176 -0.23886406
0.15999201 -0.24901775 -0.24032724
0.17904776 -0.24967429 -0.23583835
-0.10260987 -0.23079905 -0.2365309
-0.083835438 -0.23079741 -0.23654276
-0.065060832 -0.23079416 -0.23656619
0.06635429 -0.23078921 -0.23660141
0.085128449 -0.23079252 -0.23657787
-0.19710869 -0.21299711 -0.22910339
-0.17741083 -0.21152362 -0.24036241
0.17873757 -0.21152979 -0.24031562
0.19834825 -0.21300179 -0.22906786
-0.19671752 -0.19359693 -0.23372293
-0.17725785 -0.19253439 -0.24234951
0.17859828 -0.19253731 -0.24232608
0.19799262 -0.19360122 -0.2336877
-0.19703072 -0.17522842 -0.2300241
-0.17790654 -0.17477831 -0.2339229
-0.15873851 -0.17415503 -0.2393207
-0.13976641 -0.17374328 -0.24288654
0.14112948 -0.1737864 -0.24251288
0.16007635 -0.1741969 -0.2389577
0.17922612 -0.17485434 -0.23326421
0.19827557 -0.17522979 -0.23001224
-0.12162394 -0.15618339 -0.23207521
-0.10267495 -0.155855 -0.23512185
-0.083739333 -0.15543273 -0.23903978
-0.064925931 -0.15522715 -0.24094707
-0.046151135 -0.15506467 -0.24245459
-0.027406946 -0.15495402 -0.24348181
0.047490384 -0.15506226 -0.24247777
0.066254467 -0.15522972 -0.2409237
0.085057691 -0.15545046 -0.23887569
0.10393188 -0.15578157 -0.23580307
0.12289834 -0.15621766 -0.23175704
-0.046454016 -0.13764888 -0.2293396
-0.027609237 -0.1375484 -0.23034257
-0.0087800911 -0.13745047 -0.23132116
0.01003399 -0.13746352 -0.23119146
0.028856877 -0.13756497 -0.23017734
0.047695387 -0.13766652 -0.22916251
-0.23569371 -0.36542073 -0.21988302
-0.21679047 -0.36541849 -0.21989501
-0.19788642 -0.3654139 -0.21991879
-0.17898366 -0.36541161 -0.21993077
-0.16008271 -0.3654139 -0.21991879
-0.14118011 -0.36541161 -0.21993077
-0.122279 -0.3654139 -0.21991879
-0.10337605 -0.36540926 -0.21994263
-0.084475286 -0.3654139 -0.21991879
-0.065573066 -0.36541161 -0.21993077
-0.046671029 -0.36540926 -0.21994263
-0.027769353 -0.36540926 -0.21994263
-0.008867682 -0.36540926 -0.21994263
0.01003399 -0.36541161 -0.21993077
0.028935663 -0.36540926 -0.21994263
0.047837336 -0.36540926 -0.21994263
0.066739008 -0.36540926 -0.21994263
0.085640311 -0.36540693 -0.21995455
0.10454235 -0.36540926 -0.21994263
0.12344512 -0.3654139 -0.21991879
0.14234507 -0.36540693 -0.21995455
0.1612481 -0.36541161 -0.21993077
0.18015151 -0.36541614 -0.21990693
0.19905347 -0.36541614 -0.21990693
0.21795642 -0.36541849 -0.21989501
0.23685956 -0.36542073 -0.21988302
-0.14122558 -0.28992373 -0.21919298
-0.12204864 -0.2891154 -0.22419381
-0.084519729 -0.28999302 -0.21876442
0.085606262 -0.28962186 -0.2210604
0.10447464 -0.28951824 -0.22170174
0.12321155 -0.28898892 -0.22497588
0.14234762 -0.28980833 -0.21990699
-0.17914587 -0.27122727 -0.21782333
0.18019769 -0.271009 -0.21924067
-0.15960686 -0.2698471 -0.22678721
0.16079892 -0.26977977 -0.22722477
-0.1975224 -0.25137398 -0.22421759
0.19861495 -0.25117126 -0.22560358
0.21849167 -0.2529307 -0.21357393
-0.23619233 -0.23379615 -0.21490055
-0.21697745 -0.23338464 -0.21787113
-0.1978119 -0.23297903 -0.22079873
-0.17850046 -0.2322295 -0.22620732
0.17967321 -0.23214591 -0.22681081
0.19884674 -0.23273045 -0.22259253
0.21809049 -0.23332343 -0.21831185
0.23728454 -0.23374325 -0.21528274
-0.21718456 -0.21476045 -0.21562892
0.21832272 -0.21476826 -0.21556914
-0.21649526 -0.19490653 -0.22309095
0.21769184 -0.19491526 -0.2230196
-0.21649306 -0.17602634 -0.22311449
0.21768682 -0.17603043 -0.22307897
-0.21710409 -0.15786186 -0.21650016
-0.19786829 -0.15747043 -0.22013289
-0.17888662 -0.15735635 -0.22119093
-0.15974383 -0.15696633 -0.22481
-0.14066105 -0.15658376 -0.22835946
0.14191189 -0.15662327 -0.22799301
0.16097316 -0.15701106 -0.22439528
0.1800881 -0.15739614 -0.22082251
0.19926983 -0.15779769 -0.21709621
0.21850181 -0.15819019 -0.21345443
-0.14156349 -0.13921343 -0.21370548
-0.12241375 -0.13884185 -0.21741819
-0.10330742 -0.13844045 -0.22142857
-0.084272891 -0.13806534 -0.22517729
-0.065348111 -0.13785928 -0.22723657
0.066575207 -0.13787945 -0.22703546
0.085485697 -0.13808559 -0.22497582
0.1045007 -0.13848095 -0.22102463
0.12357769 -0.13887884 -0.21704859
0.14270242 -0.13925168 -0.21332288
-0.065727957 -0.12015331 -0.21490049
-0.046737034 -0.11995165 -0.21708435
-0.027799599 -0.11986899 -0.21797824
-0.0088784946 -0.11981735 -0.21853805
0.01003399 -0.11981735 -0.21853805
0.028951794 -0.11988108 -0.21784729
0.047882996 -0.11996157 -0.216977
0.066870071 -0.12021181 -0.21426725
-0.12327033 -0.31182384 -0.20152223
-0.10397922 -0.31091586 -0.20688379
-0.066185668 -0.31207559 -0.20003611
-0.04701234 -0.31120721 -0.20516336
-0.027963005 -0.31083447 -0.20736456
-0.0089468556 -0.31044602 -0.20965779
0.01003399 -0.31038517 -0.21001756
0.029028974 -0.31075707 -0.20782107
0.048059691 -0.3111501 -0.20550042
0.067132637 -0.31159091 -0.20289791
0.086252891 -0.31207144 -0.20006043
0.10502139 -0.31081206 -0.2074967
0.12426025 -0.31169719 -0.20227057
-0.16090423 -0.29172337 -0.20806128
0.16187336 -0.29144585 -0.20977771
-0.19905438 -0.27302808 -0.20612615
0.20000604 -0.27281159 -0.2075327
-0.21756344 -0.25323004 -0.21152776
0.23882258 -0.25511605 -0.19863302
-0.23766415 -0.21678042 -0.20019335
0.23859806 -0.21666664 -0.20106328
-0.2372427 -0.19720808 -0.20440453
0.23829719 -0.19721839 -0.20432031
-0.2366906 -0.17754969 -0.20992166
0.23778641 -0.17755798 -0.20984966
-0.23717521 -0.15909281 -0.20507908
0.23839851 -0.15929276 -0.20322347
-0.21837398 -0.14030942 -0.20275319
-0.19914404 -0.14007789 -0.20506698
-0.18002041 -0.13993822 -0.2064628
-0.1607662 -0.13957886 -0.21005356
0.16187854 -0.13961484 -0.20969379
0.18110879 -0.13997547 -0.20608997
0.20042504 -0.14037591 -0.20208961
0.21966772 -0.14061645 -0.19968545
-0.12327228 -0.1213925 -0.20148605
-0.104042 -0.12101944 -0.2055245
-0.084874392 -0.12064758 -0.20954978
0.085972883 -0.12068418 -0.20915401
0.10511352 -0.12105833 -0.20510316
0.1243149 -0.12142923 -0.20108747
-0.066136561 -0.10233645 -0.20163083
-0.047059089 -0.10220881 -0.20313913
-0.028014142 -0.1021322 -0.20404333
-0.0089990785 -0.10223123 -0.20287383
0.01003399 -0.10223123 -0.20287383
0.029059354 -0.10214651 -0.20387447
0.048098456 -0.10222204 -0.20298237
0.067179471 -0.10240096 -0.20086998
-0.277715 -0.35326588 -0.18336254
-0.25711969 -0.35084522 -0.19646472
-0.23803729 -0.35084522 -0.19646472
-0.21895376 -0.35084301 -0.19647682
-0.19987041 -0.35084066 -0.19648898
-0.18078633 -0.35083631 -0.19651312
-0.16170599 -0.35084066 -0.19648898
-0.14262375 -0.35084066 -0.19648898
-0.12354154 -0.35084066 -0.19648898
-0.10445821 -0.35083631 -0.19651312
-0.085377105 -0.35084066 -0.19648898
-0.066294521 -0.35083845 -0.19650114
-0.047212109 -0.35083631 -0.19651312
-0.028130073 -0.35083631 -0.19651312
-0.0090480419 -0.35083631 -0.19651312
0.01003399 -0.35083631 -0.19651312
0.029116023 -0.35083631 -0.19651312
0.048198055 -0.35083631 -0.19651312
0.067280091 -0.35083631 -0.19651312
0.086362496 -0.35083845 -0.19650114
0.10544508 -0.35084066 -0.19648898
0.12452619 -0.35083631 -0.19651312
0.14360887 -0.35083845 -0.19650114
0.16269249 -0.35084301 -0.19647682
0.1817748 -0.35084301 -0.19647682
0.20085526 -0.35083845 -0.19650114
0.21993944 -0.35084301 -0.19647682
0.23902175 -0.35084301 -0.19647682
0.25810528 -0.35084522 -0.19646472
0.27812651 -0.35245469 -0.1877535
-0.085813537 -0.3337661 -0.18515015
-0.066485755 -0.33285594 -0.19029039
-0.047437251 -0.33348039 -0.18676412
-0.028296921 -0.33367297 -0.18567622
-0.0091378698 -0.33382016 -0.18484426
0.01003399 -0.33376828 -0.18513793
0.02920001 -0.33368599 -0.18560272
0.04834966 -0.33349758 -0.18666637
0.067402139 -0.33268997 -0.19122815
0.086687528 -0.33362535 -0.18594521
-0.14303476 -0.3138065 -0.18981522
-0.085375234 -0.31266803 -0.19653755
0.14388907 -0.31355488 -0.19130135
-0.21930258 -0.27509519 -0.19270051
0.22009559 -0.27479777 -0.19463259
-0.2381016 -0.25552717 -0.19582206
-0.2573708 -0.23667362 -0.19413471
0.25803247 -0.23624998 -0.19719195
-0.27755663 -0.21880355 -0.18473411
-0.25712359 -0.21727315 -0.19642842
0.2580519 -0.21719852 -0.19699806
0.27798054 -0.21823105 -0.18910801
-0.2583338 -0.16123521 -0.18519914
0.25924367 -0.16124716 -0.18508905
-0.23815745 -0.14105888 -0.19526386
0.23943238 -0.14138246 -0.19203156
-0.23928839 -0.1230112 -0.18396276
-0.21978891 -0.12269036 -0.18743598
-0.20048405 -0.12252356 -0.18924218
-0.18121378 -0.12236479 -0.19096041
-0.16186908 -0.12207162 -0.19413471
-0.14255062 -0.12174438 -0.1976766
0.14356512 -0.12177798 -0.19731313
0.16285618 -0.12210074 -0.19381887
0.18217809 -0.12239298 -0.19065589
0.20157658 -0.12271863 -0.18713057
0.22095762 -0.12296599 -0.18445253
-0.12417497 -0.10376729 -0.18473405
-0.10480362 -0.10340309 -0.18903482
-0.085500456 -0.10304321 -0.19328427
0.08647465 -0.10307935 -0.1928587
0.10574843 -0.10343929 -0.18860781
0.12508947 -0.10380249 -0.18431783
-0.066602618 -0.084459022 -0.18649524
-0.047421172 -0.08438471 -0.18746042
-0.028255168 -0.084313333 -0.18838823
-0.0091353254 -0.084560648 -0.18517447
0.01003399 -0.084560648 -0.18517447
0.029179603 -0.0843236 -0.18825388
0.048340254 -0.084398791 -0.18727714
0.06751398 -0.084467396 -0.18638521
-0.27895686 -0.33598676 -0.17260772
-0.25969347 -0.3359912 -0.17258298
-0.24042597 -0.33598897 -0.17259526
-0.2211587 -0.33598676 -0.17260772
-0.2018916 -0.3359845 -0.17262012
-0.18262468 -0.33598247 -0.1726324
-0.16335966 -0.3359845 -0.17262012
-0.14409523 -0.33598897 -0.17259526
-0.12482841 -0.33598676 -0.17260772
-0.1051823 -0.33452994 -0.18083596
0.10604048 -0.33449733 -0.18102008
0.12563033 -0.33598676 -0.17260772
0.14489706 -0.33598897 -0.17259526
0.16416246 -0.33598676 -0.17260772
0.18342765 -0.3359845 -0.17262012
0.20269361 -0.3359845 -0.17262012
0.22195959 -0.3359845 -0.17262012
0.24122782 -0.33598897 -0.17259526
0.26049396 -0.33598897 -0.17259526
0.27975878 -0.33598676 -0.17260772
-0.18216911 -0.29649404 -0.17855018
0.18277173 -0.29592219 -0.1820876
0.20296609 -0.29802489 -0.1690805
-0.24075663 -0.27869925 -0.16929126
0.24163039 -0.27886143 -0.16823763
-0.25916839 -0.25821355 -0.17745507
0.2596902 -0.25774959 -0.18062729
0.27996007 -0.23991531 -0.17074019
-0.27859914 -0.20074281 -0.17570579
-0.25888079 -0.20019865 -0.18012375
0.2596828 -0.20012748 -0.18070102
0.27941957 -0.20073667 -0.17575508
-0.258726 -0.18082464 -0.1815601
0.25960174 -0.18083027 -0.1815111
-0.25909942 -0.14277707 -0.17809516
0.26026911 -0.14310253 -0.17484254
0.2404575 -0.12329093 -0.18093419
-0.22140439 -0.10501933 -0.16994786
-0.20213254 -0.10503399 -0.16977447
-0.18257426 -0.10473663 -0.17328715
-0.16307074 -0.10443996 -0.17679012
0.16392688 -0.10447022 -0.17643285
0.18340796 -0.10476898 -0.17290437
0.20293938 -0.10506339 -0.16942745
-0.14359832 -0.10411192 -0.180664
0.14448278 -0.1041441 -0.18028337
-0.10563546 -0.085649952 -0.17102468
-0.086192712 -0.08532086 -0.17529899
0.087030537 -0.085358903 -0.17480552
0.10644474 -0.085688978 -0.17051739
-0.067104518 -0.066429079 -0.17019552
-0.047799017 -0.066366538 -0.17109901
-0.028507639 -0.066304803 -0.17198968
0.029305756 -0.06631346 -0.17186594
0.048591238 -0.066375047 -0.17097539
0.067890443 -0.066436827 -0.17008406
-0.30057731 -0.3393712 -0.15349245
0.30042726 -0.33813709 -0.16046262
-0.18377885 -0.31925577 -0.15763915
-0.16401887 -0.31832999 -0.16310513
0.16466027 -0.31808978 -0.16452396
0.1843452 -0.31896159 -0.15937638
-0.22280978 -0.30034405 -0.15473425
-0.20233834 -0.29830557 -0.16734427
0.22349004 -0.30037451 -0.15454614
-0.27964061 -0.240477 -0.1666863
-0.29955292 -0.20245442 -0.16180944
0.29963261 -0.20177275 -0.16734427
-0.30044287 -0.18393958 -0.15458381
-0.28021812 -0.18311954 -0.16168487
0.28105158 -0.18324342 -0.16061223
0.3011249 -0.18395838 -0.15442073
-0.2812061 -0.1646916 -0.15312862
0.28186485 -0.16469833 -0.1530658
-0.26020455 -0.12450054 -0.1678406
0.261298 -0.12480351 -0.16456127
-0.26159814 -0.10629277 -0.15490961
-0.24095023 -0.10523875 -0.16735667
0.22242522 -0.10525867 -0.16712087
0.24197458 -0.1054797 -0.16451144
-0.1839774 -0.086878866 -0.15506005
-0.16433348 -0.08660914 -0.15856421
-0.1447157 -0.086304605 -0.16251981
-0.1251428 -0.085977167 -0.16677338
0.12591989 -0.086010724 -0.16633862
0.14546081 -0.086334363 -0.16213346
0.16504963 -0.08663702 -0.15820169
0.18466942 -0.086906865 -0.15469658
-0.086814702 -0.067195117 -0.15913904
-0.0092764059 -0.06666106 -0.16684771
0.01003399 -0.06666106 -0.16684771
0.087554894 -0.067289561 -0.15777671
-0.028792612 -0.048173904 -0.15348005
0.029448163 -0.048180863 -0.15336716
-0.3012169 -0.32083741 -0.14829969
-0.28176662 -0.32084173 -0.1482743
-0.26231596 -0.32084593 -0.14824915
-0.24286368 -0.32084814 -0.14823651
-0.22340767 -0.32084382 -0.14826179
-0.20395206 -0.32083961 -0.14828694
0.20456678 -0.32083961 -0.14828694
0.22402219 -0.32084382 -0.14826179
0.24347566 -0.32084382 -0.14826179
0.26293167 -0.32084814 -0.14823651
0.28238127 -0.32084173 -0.1482743
0.30183172 -0.32083741 -0.14829969
-0.24387777 -0.30303267 -0.13810313
0.24417494 -0.30261412 -0.14069176
-0.26273212 -0.28253344 -0.14438748
0.26268727 -0.28156474 -0.15067863
-0.28210163 -0.26290593 -0.14537311
0.28210992 -0.26211339 -0.15079176
-0.30154938 -0.22392482 -0.14560032
0.30153522 -0.22323546 -0.15086734
-0.30170026 -0.16563493 -0.14437509
0.30218422 -0.16554105 -0.14524674
-0.30232579 -0.14665973 -0.13929665
-0.28170264 -0.14570591 -0.14882863
0.28220075 -0.1455937 -0.14994919
0.30276728 -0.14656964 -0.1401974
-0.30226484 -0.12709165 -0.13979137
-0.28178555 -0.12632316 -0.14811051
0.28280151 -0.12666817 -0.14437485
-0.28267294 -0.10751922 -0.14042556
0.26257154 -0.10655309 -0.15183496
-0.26314822 -0.087997571 -0.14052701
-0.24273384 -0.087304339 -0.14953375
-0.22312517 -0.087166786 -0.15131986
-0.20367716 -0.087150365 -0.15153337
0.20434491 -0.087178469 -0.15116894
0.22399873 -0.087380812 -0.14853895
0.24361774 -0.087520584 -0.14672363
-0.1657141 -0.068615541 -0.13863671
-0.1459305 -0.068327561 -0.14279425
-0.12620009 -0.068025619 -0.14715242
-0.10652354 -0.067703739 -0.15179741
0.10718074 -0.067731574 -0.15139544
0.12682587 -0.068055212 -0.14672363
0.14652339 -0.068353876 -0.14241433
0.16627643 -0.068640217 -0.13828111
-0.087506689 -0.048932552 -0.14116061
-0.067679159 -0.048293754 -0.1515336
-0.048227657 -0.04823187 -0.15253866
-0.0094351107 -0.048620239 -0.14623153
0.01003399 -0.048619524 -0.14624429
0.048877992 -0.048243433 -0.15235019
0.068321459 -0.048300743 -0.15142035
0.08810284 -0.04900521 -0.13998151
-0.30427593 -0.30539921 -0.12346327
-0.28463307 -0.30540138 -0.12345052
-0.26499274 -0.30540758 -0.12341189
0.26541597 -0.30540758 -0.12341189
0.28505936 -0.30540547 -0.12342477
0.30470252 -0.3054035 -0.12343752
-0.30348668 -0.24557814 -0.12987149
0.30340415 -0.24491164 -0.13468194
0.30325863 -0.12744717 -0.1359421
-0.30311549 -0.1081578 -0.13288498
0.28360751 -0.10781808 -0.1368959
0.30402902 -0.10846381 -0.12927043
-0.30427277 -0.08930923 -0.1234889
-0.28379866 -0.088755965 -0.13067651
0.26399788 -0.088224292 -0.13758242
0.2846418 -0.089015871 -0.12729919
-0.26496229 -0.069650874 -0.12369442
-0.24471945 -0.069235235 -0.12969244
-0.22494954 -0.069105133 -0.13157058
-0.20537622 -0.069112152 -0.13146842
-0.1855206 -0.06886667 -0.13501298
0.18604991 -0.068883374 -0.13477099
0.20588212 -0.069130778 -0.13120031
0.22565199 -0.069282219 -0.12901461
0.24544051 -0.069422364 -0.12699175
-0.12732929 -0.0498541 -0.1261971
-0.10747842 -0.049550712 -0.13112366
0.10797673 -0.049575835 -0.13071489
0.12779409 -0.049880952 -0.12576115
-0.088196769 -0.030390471 -0.12323201
-0.068294644 -0.029942617 -0.13154495
-0.048688903 -0.029887632 -0.13256598
-0.029098704 -0.029831946 -0.1335988
-0.0096026706 -0.030324116 -0.12446499
0.01003399 -0.030324116 -0.12446499
0.029601123 -0.029837385 -0.133497
0.049184158 -0.0298931 -0.13246393
0.068782821 -0.029948056 -0.1314429
-0.28553191 -0.28695533 -0.11566615
0.2852076 -0.2859726 -0.12204909
-0.30622658 -0.26842687 -0.10762608
0.30580902 -0.26751587 -0.113855
0.30508286 -0.089566693 -0.12014401
-0.30589527 -0.070577666 -0.11031592
-0.28539914 -0.070127293 -0.11681616
0.26566181 -0.069840506 -0.12095523
0.28609487 -0.070335135 -0.11381614
-0.24684572 -0.050947353 -0.10844529
-0.22698613 -0.050880939 -0.10952389
-0.20720915 -0.050862506 -0.10982251
-0.1871693 -0.050630137 -0.11359608
-0.1671856 -0.050396025 -0.11739719
-0.14723341 -0.050134897 -0.12163746
0.14766517 -0.050160229 -0.1212256
0.1675864 -0.050419912 -0.11701
0.1875376 -0.050648421 -0.1132983
0.20754775 -0.050878406 -0.10956287
-0.10849287 -0.031148821 -0.10916007
0.088677198 -0.03049317 -0.12132859
0.10882287 -0.031171918 -0.10873127
-0.068984725 -0.011395469 -0.1091342
-0.049206346 -0.011348158 -0.11016011
-0.029443778 -0.011300847 -0.11118543
0.029773675 -0.011305571 -0.11108172
0.049529348 -0.011353515 -0.11004341
0.069300719 -0.011400916 -0.10901725
-0.30739895 -0.28965864 -0.098107696
0.30762738 -0.28965864 -0.098107696
0.30656436 -0.070785627 -0.10731375
-0.28747618 -0.051539525 -0.098828316
-0.26692551 -0.051130071 -0.10547769
0.22752264 -0.051041067 -0.10692334
0.24739659 -0.051109135 -0.10581672
0.26750574 -0.051311702 -0.10252953
0.28797013 -0.05168812 -0.096415997
-0.16878664 -0.031950206 -0.094288468
-0.14864779 -0.031714052 -0.098670959
-0.1285371 -0.031438604 -0.10378277
0.12882368 -0.031455427 -0.10346973
0.14890313 -0.031736583 -0.098251939
0.16901158 -0.031972855 -0.093867779
-0.088950388 -0.011648722 -0.10365236
-0.0097814864 -0.011760317 -0.10123599
0.01003399 -0.011760317 -0.10123599
0.089278989 -0.011734977 -0.10178483
-0.30818698 -0.051977903 -0.091709614
0.30863863 -0.052123249 -0.089349985
-0.26944509 -0.032606989 -0.082099199
-0.24915475 -0.032430619 -0.085372329
-0.22910227 -0.032363668 -0.086615801
-0.20917761 -0.032365784 -0.086576104
-0.18900733 -0.032196403 -0.089719415
0.18913372 -0.032167271 -0.090260029
0.20929082 -0.032347292 -0.086919904
0.22944959 -0.032495573 -0.08416748
0.24951397 -0.032564089 -0.082895041
0.26973897 -0.032708675 -0.080213547
-0.12976994 -0.01269947 -0.080904365
-0.1095427 -0.012444101 -0.086430669
0.10970261 -0.012469806 -0.085875273
0.12988985 -0.012723379 -0.0803864
-0.089811645 0.0072869062 -0.081276059
-0.069766141 0.0073823333 -0.083756685
-0.049789187 0.0074272603 -0.084922314
-0.029831219 0.0074694827 -0.086020589
0.029967509 0.0074649379 -0.085901737
0.049919169 0.0074195191 -0.084723711
0.069888063 0.0073757619 -0.083584428
0.0899821 0.0071974099 -0.078950763
-0.29067877 -0.0332001 -0.071092963
0.29084933 -0.033275098 -0.06970048
-0.19080856 -0.01337304 -0.066320419
-0.17041036 -0.013163671 -0.070852041
-0.150087 -0.012958176 -0.07530129
0.15016286 -0.012978025 -0.074874163
0.17045537 -0.013183527 -0.070423603
0.19082209 -0.013392843 -0.065890551
-0.0099841105 0.0070419759 -0.074914217
0.01003399 0.0070419759 -0.074914217
-0.31208682 -0.033795297 -0.060046911
0.31218284 -0.03387025 -0.058656096
-0.27223101 -0.013838269 -0.056249142
0.23166017 -0.013754547 -0.058061361
0.25185671 -0.013778806 -0.057534218
0.27230933 -0.013917588 -0.05452919
-0.2516973 -0.013666496 -0.059965849
-0.23150426 -0.013636559 -0.060613394
-0.21130985 -0.013600498 -0.061395526
0.21122871 -0.013584338 -0.06174612
-0.15158601 0.0061200187 -0.050960064
-0.13108975 0.0063299239 -0.056411624
-0.11068035 0.0065372139 -0.061799884
0.11064898 0.0065175444 -0.061287642
0.1310247 0.0063069165 -0.055815935
0.15148079 0.0060991719 -0.05041647
-0.090857841 0.026419111 -0.054095507
-0.070643589 0.026454948 -0.055260777
-0.0504473 0.026490733 -0.056425095
-0.030270211 0.026524134 -0.057507277
-0.010116342 0.026531205 -0.057736993
0.01003399 0.026531205 -0.057736993
0.030187238 0.026519544 -0.057358503
0.050358396 0.026483662 -0.056194901
0.070547804 0.026447386 -0.055016875
0.090750791 0.026415735 -0.053987026
-0.29458714 -0.014715984 -0.037245274
0.29453662 -0.014797144 -0.035486579
-0.25436598 0.0054401457 -0.033298492
-0.23411405 0.0054041818 -0.032361627
-0.21336415 0.0055878907 -0.037135482
-0.19269644 0.0057673231 -0.041796327
-0.17211106 0.0059407651 -0.046304345
0.17196676 0.0059245601 -0.045881391
0.19252172 0.0057505295 -0.041358471
0.21315706 0.005570963 -0.036695957
-0.11179672 0.025911972 -0.037629724
0.11163677 0.025850207 -0.035623908
-0.27533516 0.0052149817 -0.027446032
0.23387489 0.0053866282 -0.031906843
0.25430813 0.005351603 -0.030996442
0.27521223 0.0051409304 -0.025521755
-0.15316199 0.025534518 -0.025369406
-0.13247265 0.025700085 -0.030748129
0.13221888 0.025675997 -0.029961467
0.15286557 0.025514483 -0.024717927
-0.092133373 0.045832131 -0.020956039
-0.071668237 0.045855809 -0.021984339
-0.05121927 0.045879215 -0.022997975
-0.030785922 0.045902714 -0.024011016
-0.010368175 0.045926075 -0.025022864
0.01003399 0.045923106 -0.024898171
0.030444801 0.045900147 -0.023899913
0.050870992 0.045877054 -0.02290082
0.071313225 0.045853287 -0.021873236
0.091772161 0.045828935 -0.020817041
-0.25727832 0.024882652 -0.0041968822
-0.23665473 0.024902947 -0.0048583746
-0.21565971 0.025062129 -0.010026455
-0.19469531 0.025240794 -0.015830278
-0.17428622 0.025212429 -0.014909148
0.17390944 0.025194876 -0.014336348
0.19431646 0.025229223 -0.015453577
0.21518959 0.025070272 -0.010292411
0.23620106 0.024889939 -0.0044361353
-0.13392085 0.045437615 -0.0038729906
-0.11301149 0.045609754 -0.011329174
0.11265982 0.045556996 -0.0090446472
0.13344598 0.045426585 -0.0033942461
-0.27859071 0.024668328 0.0027616024
0.25701421 0.024805762 -0.0017027855
0.27825665 0.024602428 0.0049000978
-0.19680633 0.045080509 0.011592507
-0.17579226 0.04519039 0.0068290234
-0.15480904 0.045316387 0.001375556
0.15431508 0.045297798 0.00218153
0.17521727 0.04518877 0.0069000721
0.19621694 0.045071505 0.011977196
-0.031343505 0.065754995 0.012205362
-0.010646422 0.065771647 0.011122465
0.01003399 0.06577237 0.011079788
0.030720543 0.06575945 0.011920094
0.051422458 0.065744005 0.012917995
-0.26011586 0.044790205 0.024157882
-0.2392488 0.044811811 0.023223519
-0.21796538 0.044950865 0.017202377
0.21734029 0.044940602 0.017645955
0.23857729 0.044802494 0.02362597
0.2596384 0.044731461 0.026705027
-0.13545921 0.06556309 0.024675369
-0.11449271 0.065623634 0.020740032
-0.093520664 0.065710694 0.015087008
-0.072783798 0.065723658 0.014244676
-0.052057277 0.06573838 0.013288736
0.072141401 0.065727577 0.01398778
0.092876829 0.065711051 0.015058398
0.11379023 0.065630026 0.020324349
0.13477102 0.065553457 0.025294065
-0.28276804 0.044389211 0.041522384
0.28206742 0.044355534 0.042979598
-0.19903971 0.065317802 0.040605187
-0.17773691 0.065405667 0.034897685
-0.15654391 0.065488093 0.029545784
0.1558231 0.065478504 0.030166626
0.17696825 0.065398917 0.03533268
0.19822656 0.065312043 0.040983677
-0.30528653 0.0020257309 0.055413961
0.3035188 0.0023165345 0.047857881
-0.26342207 0.065062344 0.057195425
-0.24191836 0.065140486 0.052122235
-0.22042006 0.065231822 0.046190858
0.21957706 0.065223858 0.046702385
0.24102139 0.065134719 0.052489281
-0.13707912 0.086116299 0.054737449
-0.11587376 0.086147904 0.050640702
-0.094808504 0.086164013 0.048545599
-0.073803052 0.086173244 0.047345757
-0.052816104 0.086182475 0.046147108
-0.031847406 0.086191788 0.04493463
-0.010900642 0.086197823 0.044146419
0.01003399 0.086195484 0.044452786
0.030980423 0.086186118 0.04567945
0.051945981 0.086176485 0.04692173
0.072858103 0.086191118 0.045022368
0.093915641 0.086162128 0.048794508
0.11499211 0.086140834 0.051549911
0.13616833 0.08611013 0.055546522
0.26264974 0.065029882 0.05930388
-0.20130584 0.085998543 0.070043087
-0.17978527 0.08604148 0.064463019
-0.15837923 0.086080872 0.059348106
0.15743773 0.086074889 0.060130358
0.17880693 0.086035855 0.065189004
0.2002821 0.085993811 0.070652962
-0.24479264 0.085896984 0.08323729
-0.22304079 0.085943893 0.077139974
0.22186264 0.085949562 0.076392889
0.24366324 0.085893475 0.083687901
-0.13875175 0.10713254 0.085777164
-0.11734536 0.10713249 0.082501888
-0.096019097 0.10713254 0.079998016
-0.074783586 0.10713249 0.079189539
-0.053560521 0.10713254 0.078381419
-0.032348994 0.10713249 0.077513814
-0.011150715 0.10713254 0.076632023
0.01003399 0.10713254 0.076676607
0.031225368 0.10713254 0.077498794
0.073647164 0.10713249 0.079189539
0.094878308 0.10713254 0.080057979
0.11619904 0.10713249 0.082907081
0.13758825 0.10713254 0.086288571
0.052429415 0.10713258 0.078321457
-0.28793192 0.064565957 0.089437366
0.28677097 0.064557672 0.089980245
-0.26696596 0.085824825 0.092607975
0.26594287 0.085806772 0.094952941
-0.20363802 0.10713249 0.10033894
-0.18189768 0.10713249 0.094953179
-0.16027126 0.10713249 0.090070724
0.15907386 0.10713258 0.090493441
0.18066977 0.10713258 0.095437646
0.20237461 0.10713258 0.10085595
0.22429271 0.10713254 0.10796034
0.2463662 0.10713254 0.11560833
-0.24773327 0.10713258 0.11507046
-0.22562341 0.10713258 0.10763943
-0.097399801 0.12861928 0.11586964
-0.075831704 0.12859893 0.11322832
-0.054320309 0.12858394 0.11128116
-0.032838941 0.12856895 0.10933673
-0.01139094 0.12855738 0.10783815
0.01003399 0.12855703 0.107777
0.031458095 0.12855661 0.10773122
0.052974399 0.12860267 0.11371934
0.074296422 0.12855333 0.10730326
0.096047804 0.12863588 0.11803889
-0.27024776 0.10713254 0.12540174
0.26896882 0.10713245 0.12770975
-0.16290867 0.12875037 0.13289714
-0.14094034 0.12870026 0.1263926
-0.1190344 0.12864394 0.11907053
0.11768476 0.12866268 0.12150717
0.13944843 0.12870157 0.12656307
0.16136889 0.12875175 0.13308382
-0.11966295 0.15036486 0.13267922
-0.097917609 0.15031308 0.12932289
-0.076227523 0.15026334 0.1260829
-0.054627117 0.15023988 0.1245662
-0.033057228 0.15022373 0.12351501
-0.011503412 0.15020734 0.1224488
0.01003399 0.15020734 0.1224488
0.031579599 0.15022373 0.12351501
0.053141635 0.15024012 0.12458181
0.074730478 0.15026343 0.12609851
0.096395746 0.1503135 0.12933838
0.11811538 0.15036513 0.13269496
0.29262221 0.085394926 0.14844918
-0.25055099 0.12884787 0.14557302
-0.2282639 0.12879601 0.1388222
-0.20729069 0.12886493 0.14778864
-0.18501392 0.12880443 0.13993227
0.18341956 0.12880573 0.14008856
0.20568179 0.12887119 0.1485908
0.2267262 0.12880167 0.13957262
0.24908715 0.12886457 0.14774144
-0.16357915 0.15053569 0.1437844
-0.14154953 0.15044215 0.13769782
0.13996418 0.15044256 0.13772905
0.16194719 0.15053627 0.14381552
0.1838821 0.15059444 0.14759994
-0.12026647 0.17228276 0.14574575
-0.09842658 0.17220896 0.14254606
-0.07663808 0.17213663 0.1394161
-0.054898303 0.17206478 0.13630891
-0.03323308 0.17203319 0.13493693
-0.011599545 0.17203319 0.13493693
0.01003399 0.17203319 0.13493693
0.031667527 0.17203319 0.13493693
0.053322185 0.17206478 0.13630891
0.075038403 0.1721369 0.13943183
0.09680292 0.17220923 0.14256167
0.11861831 0.17228307 0.14576149
-0.0551943 0.19410355 0.14912581
-0.033425622 0.19405174 0.1474427
-0.011695816 0.19405174 0.1474427
0.01003399 0.19405174 0.1474427
0.031763796 0.19405174 0.1474427
0.053519517 0.19410355 0.14912581
-0.29437825 0.085388809 0.14925182
-0.20847985 0.15083522 0.16323602
-0.18583426 0.15065876 0.15177262
0.20670307 0.15083684 0.16333151
-0.18669567 0.17270909 0.16420639
-0.16443411 0.17255807 0.15766692
-0.14227399 0.17240736 0.15114212
0.14058515 0.17240816 0.15117359
0.16269444 0.17255843 0.15768278
0.18490677 0.17270982 0.1642381
-0.12085732 0.1943934 0.15853822
-0.098925136 0.19429986 0.15549922
-0.077035077 0.19420165 0.15230882
0.075336151 0.19420195 0.15232468
0.097201772 0.19430032 0.15551496
0.11911069 0.19439399 0.15855408
-0.05548897 0.21633741 0.16188562
-0.033619393 0.21626598 0.16002846
-0.011792702 0.21626598 0.16002846
0.01003399 0.21626598 0.16002846
0.031860683 0.21626598 0.16002846
0.053715963 0.21633741 0.16188562
-0.2743111 0.12900524 0.16600502
0.27269191 0.12902068 0.16801345
-0.20942996 0.17297162 0.17557847
0.20755599 0.17297325 0.17564273
-0.18766482 0.19499877 0.17819488
-0.16528274 0.19479099 0.17144716
-0.14300542 0.19458355 0.16471541
0.14121211 0.19458458 0.16474736
0.16343787 0.19479188 0.17147934
0.18576828 0.19499964 0.17822695
-0.14370494 0.21694598 0.17769694
-0.12143511 0.21669006 0.17104745
-0.099405587 0.21657203 0.16798162
-0.077423476 0.21645442 0.16492236
0.075627454 0.21645495 0.16493821
0.09758614 0.2165727 0.1679976
0.11959156 0.21669006 0.17104745
0.1418117 0.21694729 0.17772925
-0.0778381 0.23894054 0.17838776
-0.05580001 0.23880054 0.17535412
-0.03382574 0.23871176 0.17343128
-0.011895875 0.23871176 0.17343128
0.01003399 0.23871176 0.17343128
0.031963855 0.23871176 0.17343128
0.053923327 0.23880054 0.17535412
0.075938426 0.23894143 0.17840374
-0.25381103 0.15110672 0.18086433
-0.2318144 0.15110496 0.18075168
0.22990237 0.15110627 0.18083203
0.25208834 0.1511424 0.18318415
-0.23288074 0.17338203 0.19334471
0.23087184 0.17338392 0.19342577
-0.21045317 0.19532748 0.18887019
0.20847805 0.19532995 0.18895125
-0.18851778 0.21743903 0.19050598
-0.16606116 0.21719208 0.18408716
0.16411813 0.21719271 0.18410325
0.18652545 0.21743956 0.19052219
-0.14442135 0.23952276 0.19099212
-0.12206421 0.23923066 0.18466794
-0.099920653 0.2390781 0.18136346
0.097998194 0.23907878 0.18137956
0.12011706 0.23923227 0.18470025
0.14242505 0.23952349 0.19100845
-0.078260668 0.26164812 0.19211113
-0.056121502 0.26149535 0.18927503
-0.034038287 0.26138538 0.18723643
-0.012002149 0.26138538 0.18723643
0.01003399 0.26138538 0.18723643
0.03207013 0.26138538 0.18723643
0.0541379 0.26149616 0.18929112
0.076255351 0.26164907 0.19212735
-0.27816612 0.15147088 0.20452654
0.27607542 0.15147269 0.20464098
-0.23380129 0.19579983 0.20421565
0.23172385 0.19580841 0.20449388
-0.21149851 0.21789882 0.20244992
0.20943363 0.21791011 0.20274389
-0.18940981 0.24009503 0.20338154
-0.1668766 0.23981544 0.19732809
0.16483253 0.23981689 0.19736075
0.18731838 0.24009576 0.20339775
-0.1451683 0.26233482 0.20485401
-0.12271818 0.26201001 0.19882691
-0.10044371 0.26180118 0.19495296
0.098416649 0.26180214 0.1949693
0.12066142 0.26201093 0.19884324
0.14306454 0.26233482 0.20485401
-0.10096547 0.28473157 0.20850825
-0.078669168 0.28453881 0.20537782
-0.056431804 0.28437468 0.20271134
-0.034258679 0.28430325 0.20155132
-0.012112345 0.28430325 0.20155132
0.01003399 0.28430325 0.20155132
0.032180324 0.28430325 0.20155132
0.05434452 0.28437468 0.20271134
0.076561354 0.28453881 0.20537782
0.098833039 0.28473073 0.20849204
-0.25735971 0.17398086 0.21927989
0.2551505 0.17398253 0.21934617
-0.23494819 0.21848811 0.21775973
0.23287992 0.21855545 0.21951127
-0.2125894 0.24070653 0.21662068
0.21040076 0.24071032 0.21670341
-0.1904197 0.26304096 0.21795797
-0.16770874 0.26265734 0.21084023
0.16555712 0.26265562 0.21080744
0.18822116 0.26304635 0.21805704
-0.16854873 0.28571534 0.22448015
-0.14588067 0.2853207 0.21807361
-0.12334218 0.28496736 0.2123369
0.12118016 0.28496632 0.21232033
0.14367361 0.28531867 0.21804047
0.16629121 0.28571224 0.22443044
-0.10155149 0.30798629 0.2237339
-0.079113543 0.30771443 0.21980906
-0.056777429 0.30756679 0.21767712
-0.034487639 0.30747992 0.21642268
-0.012226825 0.30747992 0.21642268
0.01003399 0.30747992 0.21642268
0.032294806 0.30747992 0.21642268
0.054574933 0.30756679 0.21767712
0.076894253 0.30771339 0.21979249
0.099301346 0.30798399 0.22370064
-0.25889409 0.19677521 0.23588979
0.25655422 0.1967763 0.23592329
-0.21379632 0.26381373 0.23229897
0.21147087 0.26380569 0.23214912
-0.19149305 0.28626767 0.23345053
0.18918562 0.28628415 0.23371756
-0.16947824 0.30908385 0.23957336
-0.14668588 0.30862957 0.23301661
-0.12404191 0.30824643 0.22748637
0.12176261 0.30824411 0.22745311
0.14436378 0.30862707 0.23298311
0.16710538 0.30908138 0.23953986
-0.079623125 0.33127525 0.23635828
-0.057161365 0.33111691 0.23430216
-0.034737978 0.3309924 0.2326827
-0.012351994 0.3309924 0.2326827
0.01003399 0.3309924 0.2326827
0.032419976 0.3309924 0.2326827
0.054830637 0.33111572 0.23428535
0.077276431 0.331274 0.23634136
-0.28294554 0.17474316 0.25228572
0.28047508 0.17474276 0.25226879
-0.28222302 0.21953917 0.24506557
-0.25977126 0.21955132 0.24538541
0.25737399 0.21955979 0.24560416
0.27980658 0.21953773 0.24503195
-0.28286603 0.24231714 0.25149119
-0.23745432 0.24212614 0.24735594
0.23502339 0.24212614 0.24735594
0.28040326 0.24231714 0.25149119
-0.21498783 0.28714991 0.24777746
0.21251744 0.28711787 0.24725497
-0.19258499 0.30975151 0.24921107
0.19013767 0.30974907 0.24917734
-0.17041433 0.33269289 0.25477362
-0.14746857 0.33213618 0.24754143
-0.12478938 0.33183804 0.24366951
-0.10217277 0.33154613 0.23987508
0.099798881 0.33154476 0.23985851
0.12238614 0.33183679 0.24365294
0.1450541 0.33216599 0.2479291
-0.035071831 0.3552146 0.25436723
-0.012520746 0.35523462 0.25460446
0.01003399 0.35523462 0.25460446
0.032588597 0.35523316 0.25458741
-0.30635601 0.22012897 0.26039147
0.3038179 0.22012639 0.26032352
-0.30610147 0.24261919 0.25802982
0.30357987 0.24261518 0.2579447
-0.21634963 0.31087771 0.26546752
0.21403493 0.31113344 0.26915801
-0.19384138 0.33366081 0.26734579
0.16794911 0.33272558 0.25519705
0.19130917 0.33372661 0.26820028
-0.1259453 0.35642791 0.26869631
-0.10306661 0.3559539 0.26309764
-0.080320239 0.35560662 0.25899768
-0.057673667 0.35539383 0.25648558
0.055172689 0.35539538 0.25650251
0.077801228 0.35561246 0.25906575
0.10050555 0.35592937 0.26280808
0.12333953 0.3564046 0.2684226
-0.14890024 0.35688633 0.27410984
0.14627524 0.35690805 0.27436757
-0.1959994 0.35895115 0.29849398
-0.17232038 0.35786971 0.28572404
0.16963792 0.35793859 0.28653729
0.19321994 0.35901311 0.299227
-0.10426269 0.38144448 0.294173
-0.081257336 0.38100648 0.28943074
-0.058366079 0.3807328 0.28646815
-0.035560731 0.3807008 0.28612196
-0.012764568 0.38071516 0.28627789
0.01003399 0.38071516 0.28627789
0.03283095 0.38069603 0.28607011
0.05563537 0.38074076 0.28655457
0.078504488 0.3810145 0.28951752
0.10147455 0.38145423 0.29427743
-0.15071315 0.38269916 0.30775321
-0.12743534 0.3820712 0.30095625
0.12459714 0.38208416 0.3010962
0.14783348 0.38273138 0.3081044
-0.1744523 0.3838619 0.32034242
0.1714872 0.38390943 0.32085586
-0.082365364 0.40743035 0.32541478
-0.059183966 0.40707693 0.32188344
-0.036135342 0.40723321 0.32344413
-0.013050676 0.40723321 0.32344413
0.01003399 0.40723321 0.32344413
0.033118658 0.40723321 0.32344413
0.056181751 0.40709308 0.32204306
0.079336777 0.40744469 0.32555699
-0.19845952 0.38512391 0.33400285
0.19554222 0.38539487 0.336936
-0.12917081 0.40874285 0.3385303
-0.10567552 0.40797722 0.33087933
0.10261641 0.40802535 0.33136058
0.12605454 0.40878606 0.33896041
-0.26970804 0.24700351 0.35295451
0.26644275 0.24699175 0.35270107
-0.24647129 0.27036306 0.3538413
0.24314956 0.27031338 0.35291803
-0.22352114 0.34068763 0.35862839
0.22018583 0.34063458 0.35793841
-0.15280639 0.40955034 0.34659863
0.14963309 0.40959725 0.34706712
-0.17711706 0.41125301 0.36361289
0.17381968 0.4113059 0.36414135
-0.083717503 0.4352628 0.36932695
-0.060179662 0.4347963 0.36499846
-0.036828239 0.43516809 0.36844933
-0.013397125 0.43516809 0.36844933
0.01003399 0.43516809 0.36844933
0.033465106 0.43516809 0.36844933
0.0568459 0.43481588 0.36518061
0.080351405 0.43528041 0.36949146
-0.13136707 0.43706828 0.38608086
-0.10741077 0.43597782 0.3759625
0.10400394 0.43602735 0.37642169
0.12788743 0.43712211 0.38658023
-0.20257615 0.41423613 0.39342117
0.19937618 0.41481364 0.39919209
-0.15556909 0.4383387 0.39786851
0.15203892 0.43847722 0.39915466
-0.27570397 0.27381304 0.41786218
0.27192688 0.2737917 0.41746581
-0.25169438 0.29748046 0.41552317
0.24797323 0.29748389 0.41557944
-0.18059643 0.44073579 0.42010999
0.17691103 0.44088653 0.42150986
-0.085533366 0.46551004 0.42829883
-0.061493475 0.46476984 0.42188835
-0.037726581 0.4653368 0.42679822
-0.013846296 0.4653368 0.42679822
0.01003399 0.4653368 0.42679822
0.033914275 0.4653368 0.42679822
0.0577248 0.46481356 0.42226684
0.081720032 0.4655627 0.42875516
-0.22986424 0.37102059 0.44102752
0.22586013 0.37091988 0.43983984
-0.109837 0.46674538 0.43899775
0.1059573 0.46684483 0.43985915
-0.25553924 0.32441974 0.46092856
0.25145075 0.32440764 0.46075392
-0.13442634 0.4682833 0.45231616
0.13044956 0.46837926 0.45314646
-0.1594843 0.47038597 0.47052562
0.15540667 0.47056419 0.47206891
-0.28276235 0.30233011 0.49427164
0.27840212 0.3023093 0.49393451
-0.20873009 0.44743225 0.48224568
0.20496581 0.44826317 0.48995626
-0.18576355 0.474253 0.50401413
0.18142459 0.47439796 0.5052712
-0.25993448 0.35255837 0.51283395
0.25566691 0.35276538 0.51552355
-0.039190836 0.50093114 0.52190423
-0.014543229 0.500368 0.51733243
0.01003399 0.50036299 0.51729214
0.03464625 0.50092852 0.5218842
-0.064002678 0.50199467 0.53053999
0.059390835 0.50198722 0.53047907
-0.28733152 0.33015671 0.54373431
0.28314117 0.33058375 0.54990017
-0.089347281 0.50465763 0.55215919
0.084565662 0.50463474 0.5519743
-0.26419175 0.38135824 0.56310987
0.25948471 0.38152826 0.56511819
-0.3151814 0.28224844 0.57440567
0.31030983 0.28229344 0.57523954
-0.31497926 0.30714071 0.57238591
0.31011736 0.30718812 0.573156
-0.31531492 0.3323741 0.57573974
0.3104158 0.3324188 0.57638633
-0.3162064 0.35808656 0.58464801
-0.29005516 0.35720682 0.57321846
0.28515804 0.3572453 0.57371831
0.31123513 0.35813341 0.5852561
-0.1152529 0.50805056 0.57970703
0.11025835 0.50802988 0.57953966
-0.31776029 0.38449684 0.6001755
-0.29161933 0.38364792 0.59015095
0.28658873 0.3836872 0.59061384
0.31266221 0.38454169 0.60070467
-0.24200141 0.40957502 0.59869409
0.2368688 0.40957892 0.59873641
-0.31835029 0.20817383 0.60607088
0.31327572 0.208213 0.60734606
-0.2941238 0.41129023 0.6172626
-0.26788899 0.41032133 0.60677218
0.26272234 0.41035855 0.60717595
-0.32040623 0.41215426 0.62661517
0.28888151 0.41132975 0.61769044
0.31509945 0.41219798 0.62708843
-0.27226731 0.44076127 0.65847743
-0.24600399 0.43998191 0.65068901
0.24049541 0.44002119 0.65108216
0.26612574 0.44005173 0.65138781
-0.29874143 0.44163924 0.66725016
0.29311922 0.4416877 0.66773534
-0.14436696 0.51886833 0.66753685
0.1386777 0.51879227 0.66691959
-0.27726579 0.47278672 0.71750677
-0.25118786 0.47284305 0.71802938
0.24516198 0.47288716 0.71843827
0.27124009 0.47282112 0.71782482
-0.17323481 0.52603257 0.725703
0.16708149 0.5259257 0.72483599
-0.23070043 0.50835651 0.79936004
0.22406122 0.50843346 0.80002713
-0.097343363 0.56348622 0.81183958
-0.070449181 0.56320369 0.80968177
-0.043596748 0.56299388 0.80807698
-0.01677401 0.56286854 0.80711925
0.01003399 0.56282163 0.80676055
0.036847699 0.56296557 0.80786133
0.06368944 0.56320369 0.80968177
0.090567 0.56348622 0.81183958
-0.12435967 0.56407082 0.81630802
0.11754744 0.56406462 0.81625986
0 0 0 1 0 0 0 1 0 0 0 1 0 0 0 0 0 1236 1 0 0
