ply
format ascii 1.0
comment PCL generated
element vertex 1237
property float x
property float y
property float z
element camera 1
property float view_px
property float view_py
property float view_pz
property float x_axisx
property float x_axisy
property float x_axisz
property float y_axisx
property float y_axisy
property float y_axisz
property float z_axisx
property float z_axisy
property float z_axisz
property float focal
property float scalex
property float scaley
property float centerx
property float centery
property int viewportx
property int viewporty
property float k1
property float k2
end_header
0.2368529 0.034998123 -0.16789138
0.23666736 0.061308127 -0.1709038
0.26406607 0.035268236 -0.15619564
-0.32345665 -0.097916111 -0.10944057
-0.081787713 -0.097919345 -0.10923111
-0.054910012 -0.097903773 -0.11023891
-0.028094379 -0.097934857 -0.10822284
0.13307407 -0.097932532 -0.10837507
0.15992704 -0.097929291 -0.10858452
-0.37725234 -0.071069285 -0.10866046
-0.35009235 -0.071047746 -0.11145508
-0.3235518 -0.071070649 -0.10848927
-0.21613501 -0.071073264 -0.10814679
-0.18923706 -0.071068943 -0.10871756
-0.16235307 -0.071065247 -0.10919309
-0.13549833 -0.071065247 -0.10919309
-0.10864287 -0.071065024 -0.10921216
-0.081738539 -0.071052581 -0.11082816
-0.054863065 -0.071041495 -0.11227167
-0.02806188 -0.071056381 -0.11033392
-0.0012169611 -0.07105758 -0.11020088
0.025630003 -0.071058542 -0.11006784
0.052480482 -0.071060933 -0.10974467
0.079338565 -0.071064793 -0.10925019
0.10620428 -0.071068659 -0.10875559
0.13307759 -0.071072415 -0.10826087
0.15994315 -0.071073033 -0.10816574
0.18668106 -0.071052402 -0.11086607
-0.37706131 -0.044210531 -0.11031485
-0.34999409 -0.044210531 -0.11236644
-0.16239509 -0.044210471 -0.10841322
-0.13553348 -0.044210471 -0.10843217
-0.10867435 -0.044210531 -0.10839403
-0.081776001 -0.044210471 -0.10961151
-0.054938115 -0.044210471 -0.10902202
-0.028058073 -0.044210471 -0.11058092
-0.0012248661 -0.044210587 -0.10917413
0.025630003 -0.044210471 -0.10913622
0.052486919 -0.044210471 -0.10890806
0.079350285 -0.044210531 -0.10848927
0.10621745 -0.044210531 -0.10818493
0.21349321 -0.044210531 -0.11141694
-0.054920547 -0.017360298 -0.1097827
-0.028069487 -0.017360752 -0.10983968
-0.32357851 0.090100408 -0.10822284
-0.0012264755 0.090071931 -0.1089648
0.025630003 0.090071931 -0.1089648
0.0524919 0.090098873 -0.10826087
-0.21741541 -0.15223068 -0.089665413
-0.19031212 -0.15218152 -0.09126091
-0.16324379 -0.15213838 -0.092663288
-0.13624142 -0.15212469 -0.09310472
-0.10924438 -0.15211003 -0.093584538
-0.082254738 -0.15209524 -0.094064355
-0.055307478 -0.15212719 -0.093027949
-0.028359668 -0.15218987 -0.090991974
-0.37880269 -0.12509714 -0.095234156
-0.35135144 -0.12499218 -0.099771976
-0.32415649 -0.12493052 -0.10244715
-0.29706827 -0.12488505 -0.10441256
-0.27008149 -0.12485908 -0.10553765
-0.24317223 -0.12485112 -0.10588062
-0.21627353 -0.12484498 -0.10614729
-0.18944113 -0.12486227 -0.10540414
-0.16258599 -0.12487455 -0.1048702
-0.13569888 -0.12487493 -0.10485125
-0.10881146 -0.12487528 -0.10483229
-0.081896752 -0.12485562 -0.10569
-0.055011541 -0.12485209 -0.10584247
-0.028128387 -0.12484805 -0.10601401
-0.001244057 -0.12483266 -0.10668087
0.025630003 -0.12482874 -0.10685217
0.05250949 -0.12484902 -0.10597575
0.079389863 -0.12485033 -0.10591865
0.10627111 -0.12485169 -0.10586143
0.13361645 -0.12520029 -0.090761542
-0.40512824 -0.098055288 -0.10040307
-0.37772742 -0.097991519 -0.10454619
-0.35053298 -0.097948045 -0.1073662
-0.29696259 -0.097975895 -0.10555661
-0.2700702 -0.097974181 -0.10567093
-0.24317223 -0.097970888 -0.10588062
-0.2162656 -0.097965151 -0.10626161
-0.18936485 -0.097959131 -0.10664272
-0.162471 -0.097953558 -0.10700452
-0.13559678 -0.097952813 -0.10706162
-0.10872418 -0.097952195 -0.10709965
-0.0012337994 -0.097938158 -0.10801351
0.025630003 -0.097941682 -0.10778499
0.052498642 -0.097947821 -0.1073854
0.079375491 -0.097955942 -0.10685217
0.10625747 -0.097962141 -0.10645223
-0.4320206 -0.07113117 -0.10063243
-0.40453807 -0.071095996 -0.10519445
-0.29685345 -0.071084119 -0.10673797
-0.26995242 -0.071081676 -0.10706162
-0.24304172 -0.071077697 -0.10757565
-0.459299 -0.044210531 -0.098050117
-0.43164819 -0.044210587 -0.10347784
-0.40427524 -0.044210471 -0.1073283
-0.32379952 -0.044210531 -0.10601413
-0.29688162 -0.044210471 -0.10643315
-0.26997823 -0.044210471 -0.10675704
-0.24306956 -0.044210531 -0.10721397
-0.21616268 -0.044210471 -0.10774708
-0.18927574 -0.044210531 -0.10808969
0.13308872 -0.044210471 -0.10789943
0.1599578 -0.044210587 -0.10778499
0.18683831 -0.044210531 -0.10746133
0.24084324 -0.044210531 -0.10309637
-0.48698533 -0.017230839 -0.092951179
-0.45919293 -0.017275905 -0.09881568
-0.43167067 -0.017310457 -0.10330606
-0.40431279 -0.017339041 -0.10702348
-0.37748092 -0.017336544 -0.10668075
-0.35070339 -0.017329551 -0.10578525
-0.3240037 -0.017315572 -0.10397398
-0.29707357 -0.017318528 -0.10435545
-0.27014121 -0.017322164 -0.10483217
-0.24320596 -0.017326938 -0.10544229
-0.21629199 -0.017330291 -0.1058805
-0.18938714 -0.01733336 -0.10628068
-0.16249973 -0.017334782 -0.10647118
-0.13562141 -0.017335236 -0.1065284
-0.10874397 -0.017335691 -0.10658562
-0.081866242 -0.017336544 -0.10668075
-0.0012370236 -0.017343532 -0.10759461
0.025630003 -0.01734376 -0.10763276
0.052497469 -0.017343022 -0.10753775
0.079367869 -0.017341487 -0.10734749
0.1062412 -0.01734001 -0.10715699
0.13311745 -0.017338702 -0.10696638
0.15999737 -0.017336998 -0.10675693
0.1868823 -0.017335122 -0.10650933
0.21376999 -0.01733336 -0.10628068
0.24061896 -0.017336885 -0.10673785
0.26759425 -0.017325521 -0.10527074
-0.48690385 0.0097404979 -0.093507767
-0.45928308 0.0096687786 -0.098165035
-0.43186057 0.0096118897 -0.10185516
-0.40458268 0.0095660277 -0.10483217
-0.37751833 0.0095426701 -0.10635698
-0.35137203 0.0096468963 -0.099580884
-0.32440695 0.0096413866 -0.099944115
-0.29744926 0.009635929 -0.10028827
-0.27047583 0.0096269511 -0.10088086
-0.24349827 0.0096150711 -0.10164499
-0.21656825 0.0096113794 -0.10189331
-0.18964204 0.0096075162 -0.10214174
-0.16272274 0.009604618 -0.10233271
-0.13580903 0.0096024573 -0.10246623
-0.10889665 0.0096001253 -0.10261893
-0.081987202 0.0095980801 -0.10275257
-0.055022545 0.0095578469 -0.10536611
-0.028126629 0.0095461383 -0.10612822
-0.0012676865 0.0095848963 -0.10361147
0.025630003 0.009582568 -0.10376418
0.052526664 0.0095828511 -0.10374498
0.07942538 0.0095848963 -0.10361147
0.10632616 0.0095869415 -0.10347795
0.13322957 0.0095892735 -0.10332525
0.16013753 0.0095925108 -0.10311544
0.18705051 0.0095963776 -0.10286713
0.21396628 0.009599898 -0.10263801
0.24088556 0.009603478 -0.10240901
0.2675586 0.0095514804 -0.10578525
0.29461423 0.0095863156 -0.1035161
-0.56843221 0.036797989 -0.08995378
-0.54112178 0.036754061 -0.091856599
-0.51374054 0.036695067 -0.094409585
-0.48647201 0.036647726 -0.0964607
-0.45925394 0.036603455 -0.09837544
-0.43210065 0.036565553 -0.10002065
-0.40504819 0.036541741 -0.10105276
-0.37798303 0.036512073 -0.10233271
-0.35131434 0.036563333 -0.10011613
-0.32441846 0.036569927 -0.099829316
-0.29753229 0.036580097 -0.099389672
-0.27063772 0.03658976 -0.098968625
-0.24371463 0.03659283 -0.098834753
-0.21679869 0.036599081 -0.098566771
-0.1898787 0.036605161 -0.098299026
-0.16295248 0.036610674 -0.09806931
-0.1360245 0.036616642 -0.097801328
-0.10912188 0.036640514 -0.096767306
-0.082167372 0.036637496 -0.096901178
-0.05517868 0.036598112 -0.098605037
-0.028224485 0.036571179 -0.099772096
-0.0013134461 0.036619823 -0.097667217
0.025630003 0.036623064 -0.097533345
0.052575365 0.03662562 -0.097418547
0.079521619 0.036626931 -0.097361088
0.1064692 0.03662869 -0.097284198
0.13341795 0.036630567 -0.097207904
0.16037156 0.036634427 -0.097035408
0.18733314 0.036640968 -0.096748114
0.21429916 0.036647726 -0.0964607
0.29447478 0.036442909 -0.10532784
0.32187667 0.036584076 -0.099217415
-0.62246978 0.063806087 -0.089780569
-0.59494168 0.063714936 -0.09273982
-0.56747949 0.063627705 -0.095579147
-0.54009271 0.06354627 -0.098222494
-0.51283842 0.063483074 -0.1002692
-0.48566622 0.063430905 -0.10196972
-0.4585681 0.063389018 -0.10332549
-0.4315134 0.063352644 -0.10450804
-0.40453807 0.0633315 -0.10519433
-0.37759092 0.063314974 -0.10572815
-0.3506808 0.063306957 -0.10599494
-0.32377285 0.063298151 -0.1062808
-0.29688689 0.063295022 -0.10637593
-0.26996857 0.063279852 -0.10687125
-0.24307546 0.063271716 -0.1071378
-0.21619038 0.06326519 -0.10734737
-0.18930502 0.063256994 -0.10761368
-0.16242585 0.063249901 -0.10784233
-0.13556775 0.063254669 -0.10768998
-0.10870952 0.063261151 -0.10748041
-0.08185041 0.063269958 -0.10719502
-0.054987341 0.063279271 -0.1068902
-0.028127505 0.063304573 -0.106071
-0.0012531523 0.063322246 -0.10549951
0.025630003 0.063339695 -0.10492742
0.052521817 0.063356742 -0.10437429
0.079422146 0.063373849 -0.10382152
0.10633145 0.063391462 -0.10324883
0.13324955 0.063408971 -0.10267627
0.1601706 0.06342198 -0.10225618
0.18709637 0.063433632 -0.10187423
0.21405068 0.063458353 -0.10107195
0.26801363 0.063515469 -0.099217296
0.29500997 0.063541427 -0.098375559
0.32202253 0.063568547 -0.09749496
0.34905577 0.063598037 -0.096537471
0.37612489 0.063634187 -0.095368385
0.4032121 0.063670158 -0.094198585
0.43033957 0.063712031 -0.092836022
0.4575426 0.063767672 -0.091030478
-0.56829542 0.090772599 -0.090761304
-0.54083622 0.090662509 -0.093623042
-0.51346898 0.090564251 -0.096173167
-0.48621714 0.090486169 -0.098203301
-0.45906308 0.090426505 -0.099752903
-0.43196055 0.090374902 -0.10109103
-0.40492347 0.0903375 -0.10206521
-0.37788382 0.090294033 -0.10319185
-0.35067463 0.090184003 -0.10605204
-0.29676202 0.090119615 -0.10772812
-0.2701073 0.090215549 -0.10523272
-0.24318543 0.09019725 -0.10570896
-0.21627617 0.090181842 -0.10610914
-0.18936603 0.090162009 -0.10662353
-0.16247202 0.090148091 -0.10698545
-0.13560118 0.090148821 -0.10696626
-0.10873077 0.090150192 -0.10692835
-0.081859797 0.090151787 -0.1068902
-0.054987781 0.090152636 -0.10687125
-0.028108737 0.090136275 -0.10729015
0.079370797 0.09014149 -0.10715675
0.10624824 0.090153143 -0.10685217
0.13313563 0.090171441 -0.10637593
0.16004577 0.090205252 -0.10549939
0.1869712 0.090240434 -0.1045841
0.21391074 0.090275735 -0.10366869
0.24086559 0.090311706 -0.10273349
0.26783353 0.090347111 -0.10181701
0.29481563 0.090382397 -0.1008997
0.32181349 0.090418369 -0.099963188
0.34884351 0.090461731 -0.098834753
0.37589866 0.090508282 -0.097628951
0.40296623 0.090552494 -0.096479893
0.43006489 0.090601087 -0.095215201
0.45719492 0.090653598 -0.093853235
0.48437625 0.090714857 -0.092260003
0.51158494 0.090776965 -0.090646029
-0.48732525 0.11777541 -0.090626717
-0.46011201 0.11770363 -0.092183113
-0.4329856 0.11765374 -0.093258381
-0.40604132 0.11766618 -0.092989445
-0.37897319 0.11763078 -0.093757272
-0.35191903 0.11759616 -0.094505429
-0.32494548 0.1175935 -0.094563007
-0.29794449 0.11757685 -0.09492743
-0.27093613 0.11755286 -0.095445037
-0.24392685 0.11752366 -0.096077442
-0.21693003 0.11749609 -0.096671462
-0.18996122 0.11748292 -0.096958876
-0.16299993 0.11747228 -0.097188592
-0.13605545 0.11747496 -0.097131014
-0.10910935 0.11747672 -0.097092986
-0.082162067 0.11747763 -0.097073674
-0.055214934 0.11747938 -0.097035289
-0.02830085 0.11758208 -0.094812155
-0.0013087299 0.11742193 -0.098279834
0.025630003 0.11745012 -0.097667217
0.052564166 0.11739442 -0.098873019
0.079520434 0.11746074 -0.097437501
0.10647582 0.11748114 -0.096997142
0.13343564 0.11749803 -0.096633196
0.16041727 0.11753418 -0.095847607
0.18741724 0.11757685 -0.09492743
0.21443036 0.11761834 -0.094026089
0.2414562 0.11765908 -0.093143106
0.26849699 0.11770074 -0.092240691
0.29555321 0.1177433 -0.091318727
0.322622 0.11778519 -0.090415239
0.34970653 0.1178278 -0.089492321
-0.35435101 -0.15277646 -0.071939468
-0.32662141 -0.15259552 -0.077816248
-0.29909819 -0.15245327 -0.082437992
-0.27179733 -0.15236592 -0.085274696
-0.24454191 -0.15227926 -0.088087678
-0.0013805218 -0.15225261 -0.088953495
0.025630003 -0.15231547 -0.08691287
0.05268088 -0.15241401 -0.083712101
0.079799578 -0.15254965 -0.079306602
0.10702312 -0.15273464 -0.073298812
-0.40742657 -0.12540863 -0.081742644
0.16136593 -0.12565215 -0.071200967
-0.43359175 -0.098236628 -0.088626504
0.18816286 -0.098388135 -0.078784227
-0.46070349 -0.071229033 -0.087914228
0.21498092 -0.071260631 -0.08380878
-0.48844951 -0.044210531 -0.082940102
-0.51700872 -0.017078536 -0.073182464
-0.57160807 0.010083921 -0.071201086
-0.54431641 0.010070112 -0.072094917
-0.51512617 0.009865012 -0.08540976
-0.73412693 0.037191991 -0.072890997
-0.70622671 0.037106913 -0.076576471
-0.67848933 0.037034001 -0.07973218
-0.65087223 0.036969785 -0.08251524
-0.62332374 0.036908638 -0.085159063
-0.59585071 0.036852147 -0.087606311
0.37742275 0.036972512 -0.082399487
0.40518227 0.037122089 -0.075917482
0.43277943 0.037219439 -0.071706176
-0.76184237 0.06440644 -0.070286989
-0.73354143 0.064242482 -0.075607419
-0.70556283 0.064114511 -0.079771042
-0.67774296 0.064000681 -0.083461404
-0.65006667 0.063900992 -0.086700916
0.48482656 0.063835755 -0.088819027
0.51220369 0.063917026 -0.086180568
0.53978014 0.064031586 -0.082457304
0.56744492 0.064152464 -0.078532577
0.59523118 0.064284995 -0.074230313
-0.70709771 0.091479674 -0.072386146
-0.67909765 0.091314062 -0.07669282
-0.6512627 0.091168016 -0.080486417
-0.62351614 0.091028154 -0.084117413
-0.5958575 0.090895459 -0.087567568
0.53888351 0.090856194 -0.088588119
0.56624961 0.090944335 -0.08629632
0.59370458 0.09104538 -0.083673477
0.62130535 0.091170341 -0.080428243
0.64898807 0.091302022 -0.077002764
0.67682868 0.091455862 -0.073007464
-0.62558663 0.11859365 -0.072910547
-0.59781724 0.11842783 -0.076498985
-0.5700978 0.11826068 -0.080118895
-0.54234481 0.11806802 -0.084290981
-0.51475537 0.11790499 -0.087817907
0.3768169 0.11787573 -0.088453293
0.40392879 0.11791743 -0.087548494
0.43106803 0.11796471 -0.086527467
0.45823017 0.11801466 -0.085448265
0.48540902 0.11806451 -0.084368348
0.51259923 0.11811247 -0.083326101
0.53981686 0.1181643 -0.08220613
0.56710541 0.11823221 -0.080737829
0.59444499 0.11830808 -0.079093814
0.62200695 0.11843771 -0.076285958
0.64967817 0.11858468 -0.073104858
-0.54421592 0.14573804 -0.072716236
-0.51602709 0.14536938 -0.079558253
-0.37989482 0.14503436 -0.085776091
-0.35322788 0.14521839 -0.082360864
-0.32632902 0.14530578 -0.08073771
-0.29918385 0.14526436 -0.081510782
-0.27206859 0.145234 -0.082070827
-0.2449694 0.14520894 -0.082534552
-0.21788269 0.14518815 -0.08292079
-0.19080314 0.14516842 -0.083287597
-0.16373028 0.14514968 -0.083634973
-0.13668238 0.14515404 -0.083557844
-0.10963327 0.14515808 -0.083480477
-0.082582407 0.14516115 -0.083422661
-0.055531532 0.14516644 -0.083326221
-0.028523793 0.14532766 -0.080331564
-0.0014184937 0.14512894 -0.084020853
0.025630003 0.14513843 -0.083847404
0.052681323 0.14514877 -0.083654404
0.079736806 0.14516315 -0.083384037
0.10679422 0.14517263 -0.083210349
0.1338537 0.14518087 -0.083055973
0.16093788 0.14522043 -0.08232224
0.18804049 0.1452684 -0.081433415
0.21515787 0.14531738 -0.080525041
0.24228805 0.14536534 -0.07963562
0.26943198 0.14541325 -0.078745365
0.29658666 0.14545906 -0.077893734
0.32375941 0.14550816 -0.076983452
0.35094619 0.14555731 -0.076072812
0.37817425 0.14562102 -0.074890018
0.40537456 0.14566171 -0.074133277
0.43260002 0.14570883 -0.073260188
0.45985335 0.14576213 -0.072269559
0.48710674 0.14580935 -0.071395159
0.51426053 0.14581236 -0.071336985
-0.27461404 -0.18068504 -0.052010775
-0.24705619 -0.1805536 -0.05542624
-0.21965042 -0.18047744 -0.057405829
-0.19227529 -0.1804013 -0.059382915
-0.16494544 -0.18033578 -0.061084509
-0.13770321 -0.18032146 -0.061455965
-0.11046673 -0.18030724 -0.061827183
-0.083235942 -0.18029298 -0.06219852
-0.056052856 -0.18034856 -0.060752273
-0.028861383 -0.18043903 -0.058404446
-0.0016337875 -0.18052945 -0.056053638
0.025630003 -0.18062009 -0.053699493
-0.38237381 -0.15301146 -0.064307213
0.13449113 -0.15307164 -0.062354803
-0.43729585 -0.12590328 -0.060322285
-0.46421534 -0.098637789 -0.062569499
0.21649343 -0.098742925 -0.055739999
-0.49174911 -0.07144101 -0.060380697
0.24340281 -0.071432143 -0.061534286
-0.51990551 -0.044210531 -0.054367065
0.27040121 -0.044210471 -0.064755917
0.29757097 -0.017016362 -0.065106988
-0.76584351 0.010373808 -0.05236423
-0.73754072 0.010301635 -0.057053089
-0.70952386 0.010245316 -0.060713172
-0.6816743 0.010197408 -0.063819051
-0.65439516 0.0101915 -0.064209461
-0.62671143 0.010151319 -0.06682241
-0.59913749 0.01011705 -0.069042087
0.32479811 0.010183599 -0.064716816
-0.81955683 0.037581783 -0.056014538
-0.7906571 0.037418228 -0.063096881
-0.76227677 0.037297126 -0.068341613
0.35221338 0.037435275 -0.062354684
0.4605915 0.037344802 -0.06627667
0.48835376 0.037446644 -0.061866403
0.51619083 0.037549678 -0.05740571
0.54410118 0.037653338 -0.0529145
-0.81973934 0.064869329 -0.055249572
-0.79041374 0.064595342 -0.064151049
0.62321061 0.064440593 -0.069178343
0.65126354 0.064595342 -0.064151049
0.6795013 0.064768046 -0.058541417
-0.79243767 0.092133954 -0.055387139
-0.76367861 0.091877192 -0.062061906
-0.73523349 0.091657892 -0.067757368
0.70481873 0.091627195 -0.068555593
0.73295772 0.091814056 -0.063701987
0.76124334 0.092014268 -0.058502316
0.78976899 0.092242956 -0.052560687
-0.73794633 0.11941297 -0.055171371
-0.70961738 0.1191777 -0.060263515
-0.68143606 0.11895861 -0.065009356
-0.65345764 0.11877045 -0.069081068
0.67756492 0.11877318 -0.069022775
0.70556879 0.11897492 -0.064658403
0.73361462 0.11917065 -0.060419917
0.76160157 0.11933886 -0.056778908
0.79004425 0.11959244 -0.051283598
-0.6002627 0.14627855 -0.062686801
-0.57242882 0.14608094 -0.066354632
0.67908204 0.14637969 -0.060810924
-0.71131629 0.14684965 -0.052089334
-0.68359363 0.14673433 -0.054229617
-0.65593833 0.14662872 -0.056190968
-0.6284439 0.1465611 -0.057445049
0.70739454 0.14668357 -0.055171371
0.73544329 0.14689304 -0.051283598
-0.60232002 0.17420678 -0.051067233
-0.57437265 0.17397219 -0.054877043
-0.49207538 0.17377084 -0.058150053
-0.46332386 0.17310241 -0.069003344
-0.43616232 0.17310353 -0.068983912
-0.40899566 0.17310241 -0.069003344
-0.38378462 0.17414394 -0.052089214
-0.32802412 0.17342274 -0.063799739
-0.30089027 0.17346975 -0.06303823
-0.27335322 0.17323187 -0.066900253
-0.24614593 0.17321022 -0.067250967
-0.21894269 0.17318742 -0.067620993
-0.19174398 0.17316332 -0.068010688
-0.16455543 0.17314418 -0.068321943
-0.13738428 0.1731419 -0.068361163
-0.11021449 0.17314075 -0.068380475
-0.083043791 0.17313707 -0.068438888
-0.055881187 0.1731527 -0.068185687
-0.028716786 0.17317663 -0.06779623
-0.0015462413 0.17319942 -0.067426324
0.025630003 0.17322476 -0.067017317
0.052810445 0.17323299 -0.066880822
0.079992086 0.17323789 -0.066802859
0.10717449 0.17324139 -0.066744566
0.13435777 0.17324504 -0.066685915
0.16157347 0.17329913 -0.065808773
0.1888054 0.17335673 -0.06487298
0.21605282 0.17341565 -0.063916564
0.24331377 0.17347333 -0.062979698
0.27058923 0.17353097 -0.062042117
0.29788062 0.1735899 -0.061084509
0.32518515 0.17364781 -0.060146093
0.35250598 0.17370676 -0.059187412
0.37989062 0.17379592 -0.057738781
0.40721321 0.17383699 -0.057072759
0.43457553 0.17389384 -0.056151628
0.46198347 0.17396621 -0.054975033
0.62627119 0.17420444 -0.051106691
-0.52034694 0.20147909 -0.051499724
-0.49304807 0.20147909 -0.051499724
-0.46574923 0.20147909 -0.051499724
-0.43845037 0.20147909 -0.051499724
-0.41114911 0.20147772 -0.051519632
-0.38385496 0.20148057 -0.051480174
-0.35655174 0.20147772 -0.051519632
0.62624121 0.2014941 -0.051283598
0.65327036 0.2286766 -0.052816153
-0.35826659 -0.18131638 -0.035607338
-0.33011264 -0.18103467 -0.04292953
-0.30224872 -0.18082666 -0.048332691
0.052941866 -0.18076979 -0.04980886
0.080339886 -0.18098517 -0.044212937
0.10784139 -0.18122943 -0.037866712
-0.41129926 -0.15344286 -0.05030036
0.16252024 -0.15372275 -0.041210651
-0.46843264 -0.12655421 -0.032133698
0.18951935 -0.12615515 -0.04941535
-0.49585444 -0.09910363 -0.032312512
0.27236024 -0.071625024 -0.036479831
0.29966944 -0.044210471 -0.037846923
-0.63281566 -0.01677529 -0.033782125
-0.60511345 -0.016786883 -0.035290003
-0.57737088 -0.016801318 -0.03717339
-0.54846984 -0.016872469 -0.046402097
0.3270013 -0.016813196 -0.038698316
-0.82357579 0.010576863 -0.039173245
-0.7947312 0.010480311 -0.045455813
0.3544133 0.010586694 -0.038539767
0.40846309 0.010479912 -0.045475483
0.43648347 0.010570046 -0.039628386
0.46454978 0.01065455 -0.034139276
-0.85202384 0.038069446 -0.034893394
0.57214606 0.037766997 -0.047997832
0.60033911 0.037890825 -0.042633533
0.62861073 0.038014088 -0.037292361
0.65695691 0.038136501 -0.03199482
-0.85258126 0.065565944 -0.032630324
0.70838118 0.065029636 -0.050044894
0.73689002 0.065214053 -0.044055104
0.76596904 0.065469384 -0.035765886
-0.82255214 0.09259297 -0.043462873
0.81865019 0.092517212 -0.045436025
0.84848541 0.092931956 -0.034655333
-0.82458293 0.12034696 -0.034952879
-0.79531002 0.11997758 -0.042949319
-0.76652825 0.11968434 -0.049297214
0.8188616 0.11990643 -0.044488907
0.84866875 0.12039715 -0.033861518
-0.82514668 0.14790048 -0.032590628
-0.79625517 0.14756264 -0.038856626
-0.76771176 0.14728585 -0.043995857
-0.73947126 0.14706473 -0.048096299
-0.46846294 0.14793666 -0.031914949
-0.44026819 0.14762984 -0.0376091
0.57373637 0.14762673 -0.037668586
0.60197866 0.14790569 -0.032491446
0.76375014 0.14715396 -0.046441555
0.79207486 0.14740083 -0.041862726
0.82094616 0.14776231 -0.035151362
-0.74284774 0.17535457 -0.032431841
-0.71467608 0.17513947 -0.035924673
-0.68645656 0.17489317 -0.039925218
-0.65834612 0.17466186 -0.043679833
-0.63027662 0.17442495 -0.047525287
0.57454568 0.17535582 -0.032411933
0.59918869 0.17428797 -0.049749613
0.73806918 0.17500167 -0.038163662
0.76628649 0.1752433 -0.034238696
-0.30310214 0.20233853 -0.03909421
-0.27554196 0.20220277 -0.041052341
-0.24811703 0.20216167 -0.041645408
-0.22070539 0.20212479 -0.042178869
-0.19329709 0.20208246 -0.042791486
-0.16590351 0.20204677 -0.04330492
-0.13853064 0.20203051 -0.043541789
-0.11116066 0.20201267 -0.043798327
-0.083792798 0.20199084 -0.044114232
-0.056429803 0.20196897 -0.044429898
-0.029071676 0.20194714 -0.044745564
-0.0017159767 0.20190333 -0.045377016
0.025630003 0.20189776 -0.045455694
0.052974463 0.20188969 -0.045574069
0.080317713 0.20188423 -0.045653105
0.1076602 0.20188008 -0.045711875
0.13498053 0.2018282 -0.046461225
0.16237204 0.2019252 -0.045061111
0.18977605 0.20200863 -0.043857574
0.21718694 0.202077 -0.042870283
0.2446118 0.20214394 -0.041902542
0.27205026 0.20220976 -0.040953398
0.29950336 0.20227545 -0.040004373
0.32697114 0.20234126 -0.039054513
0.35445356 0.20240718 -0.038104415
0.38206768 0.20255397 -0.035984159
0.4095501 0.20259529 -0.035389304
0.43709898 0.20267093 -0.034297943
0.60173464 0.20269145 -0.034000397
0.65396309 0.20165907 -0.048903465
-0.55050355 0.23013891 -0.033821702
-0.52306557 0.2301373 -0.033841729
-0.41332892 0.23013891 -0.033821702
-0.35845903 0.23013891 -0.033821702
-0.33116323 0.23024584 -0.032431841
0.62890613 0.23000588 -0.035547972
0.65605402 0.25729677 -0.037093997
-0.25010616 -0.2096522 -0.015806198
-0.22238815 -0.20955592 -0.017890334
-0.19468389 -0.20944601 -0.020272136
-0.16703154 -0.20934901 -0.022371173
-0.1394974 -0.20933788 -0.022610903
-0.11196464 -0.209324 -0.022910476
-0.084433407 -0.20930558 -0.023309946
-0.056951232 -0.20937298 -0.02185154
-0.02946387 -0.2094921 -0.019271731
-0.0019368231 -0.20961145 -0.016688228
0.025630003 -0.20973091 -0.014101028
-0.38681749 -0.18169299 -0.025823951
0.13562398 -0.18170287 -0.02556479
-0.44174004 -0.15417989 -0.0263623
0.19110782 -0.15452899 -0.015024185
0.21823126 -0.12675391 -0.023489594
0.24535297 -0.099141248 -0.029867172
-0.5237847 -0.071681231 -0.029170752
-0.55239987 -0.044210531 -0.022091389
-0.77376318 -0.01664532 -0.016888618
-0.74518847 -0.016681351 -0.021571636
-0.71692884 -0.016708344 -0.025086164
-0.68872064 -0.016735509 -0.02861321
-0.66068667 -0.016757732 -0.031517625
-0.85733861 0.010974899 -0.013318181
0.383522 0.010849874 -0.02145195
0.49253353 0.010719281 -0.029926896
0.52058631 0.010784689 -0.025684476
0.5487029 0.010849874 -0.02145195
0.57703435 0.01092989 -0.016247272
0.68566012 0.03829341 -0.025205851
0.71448064 0.038451511 -0.018351078
0.79532135 0.065745413 -0.026800871
0.82539469 0.066101909 -0.015224457
-0.85429722 0.14827368 -0.02566433
-0.41362983 0.14796558 -0.031378508
0.54731792 0.14799032 -0.030921221
0.63133407 0.1485135 -0.021211863
0.85077369 0.14832312 -0.024747014
-0.82888901 0.17631046 -0.016908646
-0.7991913 0.1757417 -0.026142955
-0.7708081 0.17549665 -0.030125737
-0.52499771 0.17604063 -0.021291852
-0.35976848 0.17601721 -0.021671772
0.54965186 0.17643026 -0.014963865
0.65762258 0.175613 -0.028235078
0.7947377 0.17553456 -0.029509068
0.82340252 0.17586462 -0.024148345
0.85300058 0.17642167 -0.015104294
-0.66274703 0.20360526 -0.020812035
-0.63445544 0.20332158 -0.024906516
-0.60625327 0.20304811 -0.028852344
0.74159807 0.20362471 -0.020532131
-0.71945405 0.20415094 -0.012936354
-0.69107938 0.20388113 -0.016828656
0.68760425 0.2040299 -0.014683008
0.77012593 0.20395483 -0.015765905
-0.49596488 0.23031308 -0.031557322
-0.47080898 0.23158891 -0.014984012
-0.38624728 0.23037423 -0.030761957
-0.27772051 0.23156266 -0.01532495
-0.25004134 0.23146082 -0.016648173
-0.22238258 0.23135911 -0.017970443
-0.19474795 0.23126186 -0.019231677
-0.16713497 0.23116793 -0.020452261
-0.1395694 0.23112176 -0.021052003
-0.11201384 0.23107727 -0.021631718
-0.084478304 0.2310604 -0.021851659
-0.056946613 0.23104487 -0.022051454
-0.029462637 0.23125266 -0.019351959
-0.0018923059 0.2310126 -0.022470951
0.025630003 0.23101421 -0.022450924
0.053153083 0.23102035 -0.022370934
0.080675848 0.2310188 -0.022390962
0.10820016 0.23102351 -0.022331119
0.13572907 0.23103721 -0.022151351
0.16328461 0.2310987 -0.021352053
0.19084786 0.23115258 -0.020652175
0.21842082 0.23120497 -0.019972086
0.24600425 0.23125724 -0.019291639
0.27360374 0.23131596 -0.018531084
0.30120724 0.23136665 -0.017870426
0.32881925 0.23141594 -0.017229199
0.35644114 0.23146541 -0.016588211
0.38416728 0.2315874 -0.01500392
0.41181624 0.23163684 -0.014361978
0.43957484 0.23175271 -0.012856126
0.68652362 0.23116179 -0.020532131
-0.55338675 0.25908402 -0.015986681
-0.52582067 0.25908732 -0.015946627
-0.47087848 0.25921136 -0.01448226
-0.44290113 0.25895655 -0.017489791
-0.41571337 0.25921312 -0.014462113
-0.36038548 0.25908732 -0.015946627
-0.33281094 0.25908577 -0.015966654
0.63214767 0.25904831 -0.016407609
0.68720049 0.25900933 -0.016868711
0.65886247 0.28617162 -0.021232009
-0.30612439 -0.3483187 -0.0063772202
-0.27847821 -0.3483187 -0.0063772202
-0.25083199 -0.3483187 -0.0063772202
-0.22318579 -0.3483187 -0.0063772202
-0.19553959 -0.3483187 -0.0063772202
-0.16789339 -0.3483187 -0.0063772202
-0.1402472 -0.3483187 -0.0063772202
-0.11260099 -0.3483187 -0.0063772202
-0.084954791 -0.3483187 -0.0063772202
-0.057308592 -0.3483187 -0.0063772202
-0.029662395 -0.3483187 -0.0063772202
-0.002016196 -0.3483187 -0.0063772202
0.025630003 -0.3483187 -0.0063772202
0.053276204 -0.3483187 -0.0063772202
-0.30623055 -0.32076091 -0.0052279234
-0.27857551 -0.32076091 -0.0052279234
-0.25092047 -0.32076091 -0.0052279234
-0.22326544 -0.32076091 -0.0052279234
-0.19561037 -0.32076091 -0.0052279234
-0.16795532 -0.32076091 -0.0052279234
-0.14030027 -0.32076091 -0.0052279234
-0.11264523 -0.32076091 -0.0052279234
-0.084990181 -0.32076091 -0.0052279234
-0.057335131 -0.32076091 -0.0052279234
-0.02968009 -0.32076091 -0.0052279234
-0.0020250436 -0.32076091 -0.0052279234
0.025630003 -0.32076091 -0.0052279234
0.053285047 -0.32076091 -0.0052279234
-0.30641514 -0.29324436 -0.0032299757
-0.2787447 -0.29324436 -0.0032299757
-0.25107428 -0.29324436 -0.0032299757
-0.22340384 -0.29324436 -0.0032299757
-0.19573341 -0.29324436 -0.0032299757
-0.16806301 -0.29324436 -0.0032299757
-0.14039163 -0.29324293 -0.0032501221
-0.11272135 -0.29324293 -0.0032501221
-0.085051082 -0.29324293 -0.0032501221
-0.05738081 -0.29324293 -0.0032501221
-0.029710541 -0.29324293 -0.0032501221
-0.0020402689 -0.29324293 -0.0032501221
0.025630003 -0.29324293 -0.0032501221
0.053300429 -0.29324436 -0.0032299757
-0.27891234 -0.26569584 -0.0012499094
-0.25122669 -0.26569584 -0.0012499094
-0.22354104 -0.26569584 -0.0012499094
-0.19585535 -0.26569584 -0.0012499094
-0.16816968 -0.26569584 -0.0012499094
-0.14048402 -0.26569584 -0.0012499094
-0.11279834 -0.26569584 -0.0012499094
-0.085112669 -0.26569584 -0.0012499094
-0.057427004 -0.26569584 -0.0012499094
-0.029741334 -0.26569584 -0.0012499094
-0.0020556655 -0.26569584 -0.0012499094
0.025630003 -0.26569584 -0.0012499094
0.053315669 -0.26569584 -0.0012499094
-0.27908877 -0.23812255 0.00083339214
-0.25138706 -0.23812255 0.00083339214
-0.22368535 -0.23812255 0.00083339214
-0.19598365 -0.23812255 0.00083339214
-0.16828196 -0.23812255 0.00083339214
-0.14058024 -0.23812255 0.00083339214
-0.11287852 -0.23812255 0.00083339214
-0.085176818 -0.23812255 0.00083339214
-0.057475112 -0.23812255 0.00083339214
-0.029773409 -0.23812255 0.00083339214
-0.0020717029 -0.23812255 0.00083339214
0.025630003 -0.23812255 0.00083339214
0.05333171 -0.23812255 0.00083339214
0.10850999 -0.2375972 -0.0089151859
-0.33422506 -0.21029739 -0.0018361807
-0.30598295 -0.21001694 -0.0079085827
-0.27799079 -0.20982194 -0.012133002
0.053248301 -0.20992026 -0.010001898
0.080963708 -0.21021158 -0.0036942959
0.10867861 -0.21030773 -0.0016139746
-0.41622806 -0.18229106 -0.010283589
0.16379198 -0.1823725 -0.0081703663
-0.50131589 -0.12741251 0.0050274134
0.27478981 -0.099579409 -0.0014116764
0.30216494 -0.071864054 -0.0054296255
-0.63989592 -0.044210471 0.004540801
-0.61199695 -0.044210471 0.003587842
-0.58406132 -0.044210471 0.0023317337
0.32961363 -0.044210587 -0.0078480244
-0.83155131 -0.01655945 -0.0057523251
-0.80259383 -0.016603038 -0.01140964
0.35713136 -0.016585365 -0.0091166496
0.41250956 -0.016576329 -0.0079288483
0.44074237 -0.016536264 -0.0027452707
0.46900693 -0.016499609 0.0020481348
0.49722737 -0.016469546 0.0059405565
0.60549718 0.011014964 -0.010725856
0.63406157 0.011101518 -0.0051070452
0.66277641 0.011193469 0.0008739233
0.74363726 0.038636547 -0.010343909
0.77318931 0.038851593 -0.0010274649
0.85582209 0.066481754 -0.0028865337
-0.8585124 0.093936712 -0.0085529089
-0.88922608 0.12212706 0.003587842
-0.85797715 0.12146589 -0.010725856
0.88240731 0.12161741 -0.007445097
-0.88550299 0.14906009 -0.011067867
-0.49872959 0.14897466 -0.012655258
0.6617496 0.14939119 -0.0049253702
0.88276798 0.14933679 -0.0059338808
-0.85868108 0.1768674 -0.0078682899
0.52450764 0.17751293 0.0026150942
0.6904971 0.17741199 0.00097501278
0.88264292 0.17695412 -0.0064580441
-0.80614626 0.20532233 0.0039731264
-0.77686197 0.20483871 -0.0030078888
-0.74790347 0.20442528 -0.008975625
-0.33404312 0.20479381 -0.0036538839
0.55199498 0.20512025 0.0010559559
0.79875159 0.20429274 -0.010886908
0.82783353 0.20474926 -0.0042998791
0.85779971 0.20544048 0.0056767464
-0.61210823 0.2330669 0.0042163134
-0.44373104 0.23188414 -0.011148214
0.57969838 0.23282377 0.0010559559
0.6080898 0.23315124 0.0053116083
0.74676663 0.23314975 0.0052912235
0.60689837 0.26026353 -0.0020582676
-0.55629897 0.28832036 0.0020278692
-0.52859116 0.28832212 0.0020480156
-0.5013485 0.28861794 0.0052506924
-0.4731718 0.288324 0.0020684004
-0.44526458 0.28818569 0.00057017803
-0.41793406 0.28846249 0.0035675764
-0.36216119 0.28818199 0.00052976608
-0.33461374 0.28832212 0.0020480156
0.63500583 0.28817642 0.00046896935
0.66169608 0.31530493 -0.0052278042
0.10900568 -0.26654571 0.012549043
-0.39189154 -0.21121906 0.01811862
-0.36287561 -0.21071292 0.0071587563
0.13691688 -0.21114086 0.016423464
-0.44737929 -0.18333094 0.016729712
0.19291653 -0.18361594 0.024135947
-0.47386029 -0.15520839 0.0070369244
0.22022486 -0.15540758 0.013506532
0.24762945 -0.12746042 0.0070978403
-0.52925295 -0.099698804 0.0063464642
-0.55790758 -0.071997941 0.011978626
-0.78268373 -0.044210531 0.023070335
-0.75374794 -0.044210531 0.018139005
-0.69658023 -0.044210531 0.010655522
-0.66815346 -0.044210471 0.0072807074
-0.72511113 -0.044210415 0.014281034
0.38722658 -0.016395383 0.01556623
0.52552867 -0.016438402 0.0099841356
0.55388761 -0.016407372 0.013995767
0.58245438 -0.01636941 0.018956542
0.61109644 -0.016331164 0.023910284
0.69189483 0.011311617 0.0085405111
0.72109437 0.011426698 0.016015172
0.7506327 0.011558942 0.024607658
0.8030529 0.039084766 0.0090689659
0.83356422 0.039368864 0.02137053
0.88626087 0.094600946 0.0087029934
0.9141584 0.15015514 0.0092519522
-0.89152318 0.1781297 0.012630463
0.49912876 0.17861247 0.020469785
0.91486013 0.17809711 0.012100697
-0.86624181 0.2066284 0.022824168
-0.83571452 0.20585726 0.011693478
0.52676344 0.20635618 0.018895388
0.58060044 0.20552617 0.0069150925
0.88875657 0.20637448 0.019161105
-0.69891334 0.23445992 0.022312284
-0.66957921 0.23387326 0.014688969
-0.64042467 0.23331223 0.0074025393
0.55413818 0.23395173 0.015709162
0.77571905 0.23360036 0.011143923
0.8051092 0.23417501 0.018608928
0.58171576 0.26163664 0.014158845
0.69415182 0.29005033 0.020756364
-0.53139591 0.31785643 0.020265341
-0.50332326 0.31770489 0.018752098
-0.47569615 0.31785855 0.020285845
-0.36428812 0.31785643 0.020265341
-0.33643478 0.31785434 0.020244956
0.63704133 0.31707788 0.012487769
-0.3925035 0.31817189 0.023418546
-0.3388232 -0.24045448 0.044111252
-0.31013855 -0.2400755 0.037077427
0.081664003 -0.24032947 0.041791201
-0.42200038 -0.2120719 0.036581993
0.16542794 -0.21196808 0.034333229
0.27761388 -0.12820512 0.039350152
0.30515131 -0.1001148 0.033364534
-0.59119314 -0.072247997 0.044443011
0.33271831 -0.072127573 0.028816223
-0.84087127 -0.044210471 0.033302665
-0.81172222 -0.044210531 0.028117537
0.36034516 -0.044210471 0.025674105
0.44550765 -0.044210471 0.038523197
0.4739683 -0.044210531 0.042329669
-0.86814839 -0.016280016 0.03056407
0.63981706 -0.016292917 0.028878093
0.66874802 -0.016248874 0.034601212
0.69801885 -0.016194431 0.041687727
0.7804746 0.011703972 0.034023881
0.81065524 0.011862755 0.044339299
0.8651706 0.039743539 0.037593603
-0.59008563 0.20767327 0.037903428
0.50127244 0.20760019 0.036850214
-0.72915041 0.23533778 0.033714771
0.5290255 0.23545359 0.035220146
0.83540541 0.23502241 0.029618025
0.55653369 0.26315475 0.032087445
0.58446968 0.29109338 0.032046199
0.61282134 0.31928894 0.034580588
-0.50623918 0.3476932 0.03868866
-0.47824037 0.34768859 0.038647294
-0.45025027 0.34769103 0.038667917
-0.42225733 0.34769103 0.038667917
-0.39426437 0.34769103 0.038667917
-0.36627141 0.34769103 0.038667917
0.63980311 0.34662691 0.028795838
0.10980357 -0.2967312 0.047098637
-0.36791304 -0.24098206 0.053900361
0.13836102 -0.24148977 0.063323379
-0.48046654 -0.18479283 0.054713368
0.22245768 -0.1848017 0.054942727
-0.5078218 -0.15651622 0.049508452
0.25014785 -0.15646939 0.047991633
-0.53583097 -0.12842971 0.049072146
-0.56482947 -0.10044464 0.054796696
-0.7629863 -0.072375409 0.060999751
-0.73392242 -0.072342105 0.056674242
-0.70497298 -0.072310619 0.052587986
-0.67618424 -0.072283119 0.049009681
-0.64749783 -0.072257489 0.045687318
-0.61930394 -0.072251178 0.044857621
0.39181724 -0.044210471 0.061438918
0.50249946 -0.044210587 0.046226978
0.53111196 -0.044210531 0.050277829
0.55980641 -0.044210471 0.054463148
0.41855413 -0.044210415 0.048157811
0.58868909 -0.044210415 0.059452176
0.72744423 -0.016137943 0.049009681
0.75741863 -0.016064802 0.058511853
0.8414548 0.012053307 0.056716084
0.89579529 0.068068787 0.048656464
-0.89974689 0.095998049 0.045002818
0.92330241 0.12410308 0.046371937
0.47553471 0.20886092 0.055046916
-0.75965452 0.23624818 0.045542002
0.50398141 0.23717259 0.057551146
0.86705416 0.23626421 0.045749664
0.025630003 0.26480436 0.051567793
0.053713456 0.26470751 0.050423503
0.081761703 0.26451379 0.048137069
0.10977482 0.26432049 0.045853376
0.13781989 0.26431164 0.045749545
0.16593286 0.26445583 0.047451735
0.19406924 0.26459488 0.04909277
0.22223209 0.26473558 0.050756454
0.53132242 0.26482385 0.051796675
0.58761305 0.32107848 0.052463055
0.61481476 0.34857941 0.046911836
-0.39737514 -0.24161291 0.065608025
0.16725361 -0.24248368 0.081765771
-0.45405871 -0.21351248 0.067769647
0.19495614 -0.21353664 0.068294525
0.30849174 -0.12906899 0.076757789
0.33626235 -0.10068913 0.07066977
-0.85069281 -0.072479069 0.074459314
-0.82146662 -0.072447129 0.070312142
-0.7921378 -0.072409391 0.065419197
0.36404184 -0.072411552 0.065692067
0.45054239 -0.072538108 0.082125545
0.61766434 -0.044210531 0.064538956
0.64668107 -0.044210471 0.069408298
0.67602152 -0.044210587 0.075682163
0.70553285 -0.044210471 0.082358241
0.78770679 -0.01598558 0.068819761
0.81858999 -0.015890561 0.081152081
0.87313962 0.012290061 0.07210052
0.47758844 0.23826347 0.071721554
0.50557989 0.26634535 0.069765568
0.53389674 0.29463413 0.070375323
-0.45398176 0.3225514 0.067181706
-0.42562199 0.32243171 0.06598568
0.56138128 0.32235616 0.06523037
0.58956259 0.35054231 0.065125823
-0.34399852 -0.27167428 0.095826507
-0.31484818 -0.27119592 0.088060617
0.08244215 -0.2714591 0.092333198
-0.42859995 -0.24293609 0.090163827
0.22497027 -0.2150736 0.10157084
0.25291005 -0.18626058 0.09284389
0.28069919 -0.15757456 0.083882809
-0.71394724 -0.10110103 0.097426176
-0.68473482 -0.10103971 0.093440175
-0.65560502 -0.10098004 0.089568734
-0.6271525 -0.10097413 0.089186311
-0.59878862 -0.10097589 0.089292645
0.42258701 -0.072564654 0.085578322
0.47929516 -0.072564654 0.085578322
0.50815755 -0.072594546 0.089462519
0.53710157 -0.072625518 0.093503833
0.56618392 -0.07266058 0.098066568
0.76568592 -0.044210471 0.099817872
0.73522937 -0.044210415 0.089462519
0.85005265 -0.015782129 0.095229626
0.90494031 0.040883895 0.086978197
-0.91380203 0.069660202 0.10033059
0.93404275 0.097728923 0.089972377
-0.51290518 0.26757288 0.084264278
0.47966367 0.26793766 0.088570237
-0.40016639 0.29642671 0.089781165
0.50782412 0.29616183 0.086914539
0.53595334 0.32435638 0.085217714
0.56406915 0.3525342 0.083607435
-0.37369236 -0.27239475 0.10752583
0.14001289 -0.27297625 0.11696923
-0.48842448 -0.21556194 0.11214471
-0.51572442 -0.18667226 0.10353935
-0.5442003 -0.15817657 0.1034323
-0.57366937 -0.12982477 0.10947943
0.34012085 -0.12998083 0.11623621
-0.86129558 -0.1014315 0.11888957
-0.83205736 -0.10138961 0.1161716
-0.8025977 -0.10132965 0.11227381
-0.77288526 -0.10124737 0.10692537
-0.74333841 -0.1011711 0.10197711
0.36814234 -0.1012959 0.11008096
0.39615685 -0.072712637 0.10480297
0.59544051 -0.072701097 0.10330379
0.62477314 -0.072741225 0.10851324
0.65421402 -0.072782651 0.11388779
0.68395835 -0.072833568 0.12050939
0.79645252 -0.044210531 0.11089778
0.88239741 -0.015651705 0.11218762
0.90912241 0.01278897 0.10450315
-0.57496732 0.18458845 0.11750841
0.73865199 0.1839567 0.10724699
0.56688738 0.29763615 0.10287571
0.62380302 0.2976025 0.102512
-0.40400419 -0.27334869 0.12301731
-0.46207151 -0.24502885 0.12899864
0.1974577 -0.24467623 0.122455
0.28424212 -0.18788387 0.13502085
0.31211111 -0.158803 0.12377501
-0.66443712 -0.13046889 0.13737416
-0.6355685 -0.13045371 0.13672006
-0.60683924 -0.13045633 0.13682902
0.42698133 -0.10154624 0.12635243
0.45591474 -0.10158175 0.12865126
0.48502311 -0.10163455 0.13208342
0.51424503 -0.10169456 0.13597906
0.71380103 -0.072884209 0.1271112
0.74404311 -0.072947003 0.13526034
0.82776779 -0.044210531 0.12373137
0.85992378 -0.044210415 0.1394465
-0.35005775 -0.30430201 0.15637362
0.083316088 -0.30379784 0.1490972
-0.4365651 -0.27530807 0.1548326
0.16957632 -0.27452457 0.14211142
0.25644869 -0.21732447 0.15030432
-0.7834819 -0.13090108 0.1560874
-0.75347888 -0.13077815 0.15076554
-0.72363538 -0.13066426 0.14583099
-0.69395864 -0.13056111 0.14136851
0.40045348 -0.10187556 0.1477375
0.54352796 -0.10175469 0.13988304
0.57306439 -0.1018351 0.14510834
0.60269362 -0.10191688 0.15041423
0.63242829 -0.10200082 0.1558671
0.77490413 -0.073028781 0.14587474
0.80629843 -0.0731242 0.15826869
0.94994974 0.071329355 0.1545465
-0.38037652 -0.30521473 0.16954708
0.22858068 -0.24716114 0.16857135
-0.5262171 -0.21847805 0.17527843
-0.55488175 -0.18933843 0.17281032
-0.58469498 -0.16046289 0.17768264
0.34488511 -0.16030331 0.17249954
-0.84329426 -0.13110299 0.16482854
-0.8135159 -0.13101865 0.16118145
0.37266302 -0.13096887 0.15901875
0.43224218 -0.13134162 0.1751672
0.46155581 -0.13139567 0.17750442
0.66235065 -0.10209419 0.16193247
0.69243658 -0.10219364 0.16839409
0.72269589 -0.10229946 0.17525613
0.83837038 -0.073237009 0.17292154
0.89362019 -0.044210531 0.16078413
-0.41130379 -0.30637082 0.18623388
0.14195444 -0.30594051 0.18002307
0.20066436 -0.27758959 0.1918813
-0.49890774 -0.24819741 0.18780088
0.31695884 -0.18987496 0.18674862
-0.70382243 -0.16092281 0.19262218
-0.67382395 -0.1607862 0.18818164
-0.64428759 -0.16071789 0.18596518
-0.61518347 -0.16072199 0.18609953
0.49110088 -0.13148631 0.18142867
0.52073085 -0.1315811 0.18554032
0.55044097 -0.13167897 0.18977284
0.5804345 -0.1318111 0.19549835
0.7537626 -0.10246114 0.18576384
0.87138402 -0.07337448 0.19078195
-0.4726468 -0.27869385 0.20980906
0.2889207 -0.21973769 0.20254993
-0.82530338 -0.16158056 0.21398246
-0.79495382 -0.16143674 0.20931077
-0.76437342 -0.16124812 0.20318198
-0.73402655 -0.16108081 0.19774842
0.40579426 -0.13194072 0.20110607
0.61051548 -0.13194335 0.20121884
0.64070189 -0.13207802 0.20704687
0.67120028 -0.13224289 0.21418703
0.78521895 -0.10264038 0.19741082
0.81741607 -0.10286139 0.21175849
0.96300507 0.043668393 0.20754457
-0.3574546 -0.338891 0.23028743
0.0843651 -0.33788601 0.21723247
0.11407805 -0.33903733 0.23218918
0.17274666 -0.30902058 0.2244792
0.26093796 -0.2501049 0.22320092
-0.85555929 -0.16170241 0.21793759
0.37915349 -0.16205169 0.22927988
0.43776101 -0.1619623 0.22637522
0.46756342 -0.16205947 0.22953153
0.49758744 -0.16219996 0.23409271
0.70191824 -0.1324219 0.2219466
0.73285037 -0.13261302 0.23021853
0.85068589 -0.10314316 0.23005843
0.90808225 -0.073625669 0.22340667
-0.38902131 -0.34038994 0.24976075
-0.44784725 -0.31054142 0.2464323
0.23297185 -0.28117272 0.25006151
-0.71468073 -0.19227268 0.24904382
-0.68416369 -0.19208418 0.24414706
-0.65372825 -0.19189715 0.23928583
-0.62407404 -0.19187056 0.23859572
-0.5944714 -0.19185373 0.23815882
0.35096967 -0.19209224 0.24435461
0.5276891 -0.16234215 0.23871076
0.55792093 -0.16249734 0.24375498
0.5884015 -0.16268875 0.24996901
0.76478535 -0.13290922 0.24304032
0.32281199 -0.22251976 0.26278341
-0.80733895 -0.19295493 0.2667706
-0.77623886 -0.19270475 0.26026952
-0.74537784 -0.19248119 0.25446284
0.41176158 -0.1630203 0.2607348
0.61898446 -0.16288134 0.25622618
0.64976108 -0.16309264 0.26308644
0.68104774 -0.16337748 0.27233338
0.79719055 -0.13323668 0.25722456
0.88566756 -0.10352357 0.25476456
0.14488125 -0.34233868 0.27507401
0.20530073 -0.31371662 0.2922616
0.29471079 -0.2534956 0.28612256
-0.57262868 -0.22368823 0.28808033
-0.83873749 -0.1932393 0.27415991
0.44370526 -0.19352311 0.28153098
0.47416326 -0.19372162 0.28668845
0.50473452 -0.1939307 0.29211974
0.71265113 -0.16369243 0.28256619
0.83094639 -0.13369012 0.27685642
-0.72655118 -0.22473396 0.31072438
-0.69549042 -0.22449067 0.30545509
-0.66456801 -0.22426227 0.30050898
-0.63401687 -0.22411418 0.29730535
-0.60381836 -0.22405297 0.29597807
0.3864235 -0.19454122 0.30798054
0.41528615 -0.19407822 0.29595423
0.53539747 -0.19414198 0.29761362
0.56625271 -0.19438346 0.30388427
0.74477637 -0.16406819 0.29476988
0.86604005 -0.13425456 0.30129278
0.95493442 -0.014232831 0.29647565
0.26717931 -0.28575981 0.32454836
-0.789509 -0.22535262 0.32411516
-0.75782043 -0.2250068 0.31662977
0.59738898 -0.1946734 0.31141675
0.62890053 -0.19502808 0.32063305
0.66065454 -0.19540685 0.33047163
0.77803636 -0.16459545 0.31189406
0.23781548 -0.31702054 0.33994806
-0.55146694 -0.25682515 0.34791243
-0.82209986 -0.22586687 0.33525264
0.35944027 -0.22628883 0.34438765
0.41931564 -0.22591165 0.33621967
0.45057106 -0.2263281 0.34523785
0.69388866 -0.19608757 0.34815562
0.81402898 -0.16550264 0.34135401
-0.64549267 -0.25774953 0.36506665
-0.61437666 -0.25754598 0.36129081
-0.58335757 -0.25735617 0.35776627
0.4817982 -0.22667789 0.35280907
0.51319981 -0.22704928 0.36084974
0.72698456 -0.196679 0.36352122
0.30146998 -0.28940165 0.38368332
-0.70886016 -0.2584368 0.37782085
-0.67698604 -0.25805017 0.37064564
0.39273593 -0.2277635 0.37631452
0.5449549 -0.22750181 0.37064588
0.57714182 -0.22804783 0.38246977
0.76089221 -0.19739005 0.38199985
0.85044014 -0.16640453 0.37064588
0.33362135 -0.25980443 0.40320122
0.39525893 -0.25982744 0.4036268
0.60958308 -0.22861676 0.39478815
0.79533404 -0.19815129 0.40177572
0.36508912 -0.26022995 0.41109741
0.42809239 -0.26092094 0.42392242
0.64217168 -0.229173 0.4068321
0.67519408 -0.22980018 0.42041194
0.8310914 -0.19910689 0.42660344
0 0 0 1 0 0 0 1 0 0 0 1 0 0 0 0 0 1237 1 0 0
