ply
format ascii 1.0
comment PCL generated
element vertex 784
property float x
property float y
property float z
element camera 1
property float view_px
property float view_py
property float view_pz
property float x_axisx
property float x_axisy
property float x_axisz
property float y_axisx
property float y_axisy
property float y_axisz
property float z_axisx
property float z_axisy
property float z_axisz
property float focal
property float scalex
property float scaley
property float centerx
property float centery
property int viewportx
property int viewporty
property float k1
property float k2
end_header
0.5607416 -0.007764088 -0.41474557
0.56003833 0.013738949 -0.41825962
0.56003833 0.035214741 -0.4182595
0.56003833 0.056690585 -0.4182595
0.56003833 0.078166425 -0.4182595
0.57907563 0.077895582 -0.42999196
0.60310668 0.078179002 -0.41771865
0.56003833 0.099642426 -0.41825962
0.57907563 0.099281013 -0.42999172
0.56003833 0.12111828 -0.41825962
0.58115518 0.12105176 -0.41998684
0.540842 -0.0078281127 -0.40641451
0.58538163 0.013738845 -0.39965224
0.540842 0.013738897 -0.40641451
0.54083949 0.035305854 -0.40642786
0.58538163 0.035357986 -0.39965224
0.54083949 0.056872759 -0.40642786
0.58538163 0.056977022 -0.39965224
0.54083949 0.078439713 -0.40642786
0.54083949 0.10000673 -0.40642786
0.60622936 0.10010512 -0.40323067
0.540842 0.12157415 -0.40641439
0.54083949 0.14314058 -0.40642786
0.50195146 -0.0080126971 -0.38244724
0.52147955 -0.007920064 -0.3944819
0.58887327 -0.008009553 -0.38285303
0.52147955 0.013738791 -0.3944819
0.50195146 0.013739002 -0.38244724
0.50195146 0.035490438 -0.382447
0.52147955 0.035397857 -0.3944819
0.50195146 0.057242032 -0.38244712
0.52147704 0.057056557 -0.39449525
0.50195146 0.078993574 -0.38244712
0.52147704 0.07871531 -0.39449525
0.63159782 0.078904286 -0.38631272
0.50195146 0.10074511 -0.38244724
0.52147955 0.10037458 -0.3944819
0.50195146 0.12249665 -0.382447
0.52147955 0.12203343 -0.3944819
0.60937023 0.12225758 -0.38865936
0.50195146 0.14424825 -0.38244712
0.52147955 0.1436923 -0.39448178
0.48225784 -0.0081061684 -0.37029529
0.48225555 0.013738949 -0.370309
0.6138379 0.013738949 -0.36793172
0.48225555 0.035583854 -0.370309
0.6138379 0.035602197 -0.36793184
0.48225555 0.057428814 -0.370309
0.6138379 0.057465438 -0.36793184
0.48225784 0.079274252 -0.37029541
0.48225784 0.10111921 -0.37029541
0.63490546 0.10108227 -0.37149608
0.48225784 0.12296443 -0.37029541
0.48225784 0.1448095 -0.37029529
0.44235387 -0.0082955714 -0.34570336
0.46239191 -0.0082003716 -0.35805249
0.61765176 -0.0082605723 -0.35023785
0.46239191 0.013738791 -0.35805237
0.44235387 0.013738949 -0.34570336
0.44235596 0.035773471 -0.34568942
0.46239191 0.035678215 -0.35805237
0.44235596 0.057807885 -0.34568942
0.46239191 0.057617594 -0.35805237
0.44235596 0.079842463 -0.34568954
0.46239191 0.079556912 -0.35805237
0.66074079 0.079646453 -0.35417807
0.46239191 0.10149629 -0.35805237
0.44235596 0.10187699 -0.34568954
0.44235596 0.1239114 -0.34568954
0.46239191 0.12343571 -0.35805237
0.63825119 0.12349503 -0.35650945
0.44235596 0.14594603 -0.34568954
0.46239191 0.14537488 -0.35805237
0.4221434 -0.008391453 -0.33323276
0.42214134 0.013738897 -0.33324683
0.64294124 0.013738949 -0.3355006
0.4221434 0.035869248 -0.33323276
0.64294428 0.03585206 -0.33548665
0.4221434 0.0579997 -0.33323276
0.64294428 0.057964966 -0.33548665
0.4221434 0.0801301 -0.33323276
0.4221434 0.10226046 -0.33323276
0.66423786 0.10208184 -0.33903503
0.4221434 0.12439092 -0.33323276
0.4221434 0.14652126 -0.33323276
0.38118583 -0.008585887 -0.30799127
0.40175414 -0.0084882248 -0.32066739
0.64710248 -0.0085175671 -0.31686056
0.40175414 0.013738845 -0.32066715
0.38118583 0.013738897 -0.30799139
0.38118771 0.036063787 -0.30797708
0.40175611 0.035966121 -0.32065308
0.40175611 0.058193401 -0.32065308
0.40175611 0.080420583 -0.32065308
0.69175059 0.08052139 -0.3162936
0.40175611 0.10264786 -0.32065308
0.40175611 0.12487513 -0.32065308
0.66777223 0.12475662 -0.32373071
0.40175611 0.14710242 -0.32065296
0.57920945 0.14701812 -0.32247496
0.36043793 -0.0086843893 -0.29518926
0.36043793 0.013738949 -0.29518938
0.67464948 0.013738949 -0.29395187
0.36043793 0.036162078 -0.29518914
0.67464948 0.036171615 -0.29395163
0.67464948 0.058604486 -0.29395175
0.6976977 0.10354935 -0.29137266
0.33950436 -0.0087837279 -0.28228807
0.33950436 0.013738845 -0.28228819
0.33950606 0.036261626 -0.28227377
0.29707745 -0.031709105 -0.25612521
0.319177 -0.031619877 -0.26191914
0.29707745 -0.008985078 -0.25612545
0.31838611 -0.008884009 -0.26925766
0.68180585 -0.008932475 -0.26296353
0.29707745 0.013738897 -0.25612545
0.31838611 0.013738897 -0.26925766
0.29707745 0.036462925 -0.25612533
0.31838611 0.03636175 -0.26925766
0.70374817 0.12697802 -0.26601863
0.27557886 -0.031913389 -0.2428602
0.27557746 -0.0090870894 -0.24287498
0.27557746 0.013738897 -0.2428751
0.27557886 0.036564987 -0.2428602
0.72925538 0.081950322 -0.25441086
0.25388488 -0.03211914 -0.2294904
0.25388488 -0.0091901477 -0.22949028
0.25388488 0.013738897 -0.2294904
0.71133643 0.013738897 -0.23422039
0.25388488 0.036667891 -0.22949028
0.71133643 0.036631476 -0.23422039
0.71133643 0.059524052 -0.23422027
0.73566097 0.1054883 -0.22840726
0.2099058 -0.032536667 -0.20237041
0.2319956 -0.032327041 -0.21598423
0.34864762 -0.032525349 -0.20310533
0.2099058 -0.0093989391 -0.20237041
0.23199442 -0.0092939921 -0.21599936
0.2099058 0.013738897 -0.20237029
0.23199442 0.013738897 -0.21599936
0.2099058 0.036876626 -0.20237029
0.23199442 0.036771733 -0.21599936
0.74216914 0.12944253 -0.2019875
0.62311506 0.15183878 -0.21810734
0.18761408 -0.032748181 -0.18863225
0.18761408 -0.0095046703 -0.18863213
0.18761408 0.013738949 -0.18863213
0.18761408 0.03698241 -0.18863213
0.18761408 0.060226031 -0.18863225
0.39625454 0.060161114 -0.19284534
0.18761408 0.08346954 -0.18863213
0.39625454 0.08337225 -0.19284534
0.76840043 0.083442032 -0.1898216
0.18761408 0.106713 -0.18863201
0.39625454 0.10658328 -0.19284534
0.18761408 0.12995662 -0.18863213
0.39625454 0.1297944 -0.19284534
0.18761311 0.1531994 -0.18864751
0.39625454 0.15300545 -0.19284534
0.16511847 -0.032961845 -0.17475212
0.16511847 -0.0096115004 -0.17475212
0.16511847 0.013738949 -0.17475212
0.74955887 0.013738897 -0.17198884
0.16511847 0.037089244 -0.174752
0.74955887 0.037110567 -0.17198884
0.16511847 0.060439691 -0.17475212
0.3746812 0.060365815 -0.17954838
0.74955887 0.06048229 -0.17198896
0.16511847 0.083790094 -0.174752
0.3746812 0.083679274 -0.17954838
0.16511847 0.10714054 -0.17475212
0.3746812 0.10699274 -0.17954838
0.16511847 0.13049082 -0.17475212
0.3746812 0.13030624 -0.17954838
0.16511764 0.1538405 -0.17476761
0.3746812 0.15361966 -0.17954838
0.14253518 -0.056695875 -0.15814412
0.14241438 -0.03317729 -0.16075957
0.14241438 -0.0097192749 -0.16075945
0.72911876 -0.0097273439 -0.15970445
0.14241438 0.013738845 -0.16075957
0.14241438 0.037197016 -0.16075957
0.14241438 0.060655136 -0.16075957
0.21338256 0.060787063 -0.15218782
0.3309603 0.060780987 -0.1525836
0.35291857 0.060572617 -0.16611791
0.35291857 0.083989397 -0.16611791
0.14241438 0.08411321 -0.16075957
0.21338256 0.084311098 -0.15218771
0.3309603 0.084302083 -0.15258348
0.14241438 0.10757132 -0.16075957
0.21338256 0.10783523 -0.15218794
0.3309603 0.10782303 -0.15258348
0.35291857 0.10740623 -0.16611791
0.77529562 0.10751218 -0.16267884
0.14241438 0.13102944 -0.16075957
0.21338256 0.13135937 -0.15218782
0.3309603 0.13134412 -0.1525836
0.35291857 0.13082322 -0.16611791
0.35291857 0.15424006 -0.16611791
0.14241438 0.15448752 -0.16075945
0.21338256 0.1548834 -0.15218782
0.3309603 0.15486507 -0.15258348
0.11984205 -0.080802158 -0.13774621
0.11960389 -0.057024013 -0.14393401
0.096372411 -0.03361436 -0.13236761
0.11949983 -0.03339462 -0.14663744
0.096372411 -0.0099377036 -0.13236761
0.11949983 -0.0098279398 -0.1466372
0.11949983 0.013738845 -0.1466372
0.096372411 0.013738949 -0.13236761
0.096371919 0.037415393 -0.13238358
0.11949983 0.037305735 -0.14663732
0.096371919 0.061091997 -0.13238358
0.11949983 0.060872518 -0.1466372
0.3088074 0.060991507 -0.13891232
0.096371919 0.084768549 -0.13238358
0.11949983 0.084439412 -0.14663732
0.3088074 0.084617764 -0.1389122
0.096371919 0.10844505 -0.13238358
0.11949983 0.10800619 -0.1466372
0.30880582 0.10824348 -0.13892829
0.096371919 0.13212159 -0.13238358
0.11949983 0.13157293 -0.1466372
0.30880582 0.13186969 -0.13892841
0.78229976 0.13201676 -0.13510716
0.096371919 0.1557982 -0.13238358
0.11949983 0.15513982 -0.14663732
0.30880582 0.15549584 -0.13892841
0.09684284 -0.10523245 -0.11708987
0.096650235 -0.081245571 -0.1233449
0.073095731 -0.057691041 -0.11504781
0.096458897 -0.057355989 -0.12955868
0.073028006 -0.033835884 -0.11798036
0.073028006 -0.01004852 -0.11798024
0.073028006 0.013738897 -0.11798024
0.073028006 0.037526365 -0.11798024
0.073027633 0.061313413 -0.11799657
0.2864539 0.061203543 -0.12513435
0.073028006 0.085101202 -0.11798036
0.2864539 0.084935948 -0.12513435
0.80929571 0.08500044 -0.12234461
0.073028006 0.10888857 -0.11798024
0.2864539 0.10866824 -0.12513423
0.073028006 0.13267598 -0.11798024
0.28645238 0.13240002 -0.12515044
0.073028006 0.15646344 -0.11798036
0.28645238 0.15613216 -0.12515044
0.073386028 -0.10579491 -0.10247719
0.12142842 -0.1060237 -0.096531153
0.073240586 -0.081694275 -0.10877514
0.14497957 -0.081803665 -0.10522139
0.049511258 -0.058029402 -0.10039949
0.16839865 -0.05771808 -0.11387968
0.049464174 -0.034059606 -0.10345769
0.049464174 -0.010160223 -0.10345781
0.049464174 0.013738897 -0.10345781
0.78941524 0.013738949 -0.10709727
0.049464174 0.03763812 -0.10345769
0.78941524 0.037609987 -0.10709715
0.049464174 0.061537296 -0.10345781
0.24027736 0.06146127 -0.1084007
0.26389879 0.061417628 -0.11123204
0.78941524 0.061481182 -0.10709703
0.049464174 0.085436568 -0.10345793
0.24027613 0.085322037 -0.10841691
0.26389879 0.085256964 -0.11123204
0.049464174 0.10933575 -0.10345781
0.24027613 0.10918297 -0.1084168
0.26389879 0.10909636 -0.11123192
0.049464174 0.13323496 -0.10345781
0.24027613 0.13304409 -0.10841691
0.26389879 0.13293575 -0.11123204
0.049464174 0.15713415 -0.10345781
0.24027613 0.15690503 -0.1084168
0.26389879 0.15677509 -0.11123192
0.67035806 0.15703015 -0.10571098
0.07392814 -0.15487328 -0.079003334
0.049805183 -0.13067934 -0.081308722
0.073532827 -0.12999533 -0.096120596
0.097744986 -0.13037996 -0.087791681
0.049706634 -0.10636333 -0.087709188
0.025751552 -0.082604304 -0.079219103
0.049608752 -0.082147107 -0.094067216
0.025702341 -0.058370959 -0.085611582
0.025677938 -0.034285422 -0.088781714
0.38676485 -0.034398437 -0.081441283
0.025677813 -0.010273237 -0.088798046
0.025677813 0.013738949 -0.088798165
0.025677813 0.037750926 -0.088798165
0.025677813 0.061763007 -0.088798165
0.025677813 0.085775033 -0.088798165
0.025677813 0.10978712 -0.088798165
0.8167097 0.10962632 -0.094017863
0.025677813 0.1337992 -0.088798046
0.025677813 0.15781134 -0.088798165
0.050003227 -0.17961107 -0.068444967
0.04990413 -0.15509538 -0.074881792
0.025850581 -0.1313701 -0.066354871
0.025800837 -0.10693656 -0.072816849
0.0016657502 -0.083065838 -0.064228654
0.0016657502 -0.058715764 -0.070682526
0.19503626 -0.058775079 -0.068110824
0.0016657502 -0.034513287 -0.073982835
0.0016657502 -0.010387247 -0.073982835
0.0016657502 0.013738845 -0.073999524
0.0016657502 0.037864778 -0.073999405
0.0016657502 0.061990816 -0.073999405
0.0016657502 0.08611685 -0.073999643
0.0016657502 0.11024289 -0.073999524
0.0016657502 0.13436878 -0.073999643
0.82425666 0.13470814 -0.065183401
0.0016657502 0.15849477 -0.073999643
0.026000919 -0.20527771 -0.04682529
0.025950685 -0.18054049 -0.053350925
0.0016657502 -0.15672243 -0.044689417
0.02590053 -0.15590455 -0.059866428
0.0016657502 -0.1320682 -0.051240802
0.0016657502 -0.10751589 -0.057764888
0.14751889 -0.10780536 -0.050243616
-0.022651827 -0.083531365 -0.049110651
0.17134543 -0.083220884 -0.059194207
-0.022601794 -0.059063818 -0.055609941
-0.047048707 -0.034975559 -0.043959737
-0.022575367 -0.034743294 -0.059042931
-0.047048707 -0.010618305 -0.043959856
-0.022575367 -0.010502147 -0.059042931
-0.047048707 0.013738897 -0.043959856
-0.022575367 0.013738949 -0.059042931
-0.047048707 0.038096048 -0.043959856
-0.022575237 0.037979886 -0.059059858
-0.047048707 0.0624533 -0.043959737
-0.022575237 0.062220827 -0.059059739
-0.047048707 0.086810559 -0.043959737
-0.022575237 0.086461872 -0.059059739
0.8520478 0.08662875 -0.051831841
-0.047048707 0.1111678 -0.043959856
-0.022575367 0.11070333 -0.059042931
-0.047048707 0.13552506 -0.043959737
-0.022575367 0.13494448 -0.059042931
-0.047048707 0.15988226 -0.043959737
-0.022575367 0.15918569 -0.059042811
0.0016657502 -0.20633905 -0.031505227
0.0016657502 -0.18147908 -0.038111091
-0.022803694 -0.15754727 -0.029382467
0.099457629 -0.15739694 -0.032171965
-0.022752771 -0.13277227 -0.035997391
0.12355714 -0.13253073 -0.041225195
-0.047306389 -0.10869156 -0.027222991
-0.022702195 -0.10810086 -0.042567492
-0.04720467 -0.084001973 -0.03382957
-0.04710364 -0.059415225 -0.040391803
-0.071757615 -0.035210073 -0.028731585
-0.071757615 -0.010735614 -0.028731465
0.7834537 -0.010691971 -0.034393311
-0.071757615 0.013738897 -0.028731585
0.83101261 0.013738897 -0.039370894
-0.071757615 0.038213409 -0.028731585
0.83101261 0.038131464 -0.039371014
-0.071757615 0.062687814 -0.028731585
0.83101261 0.062523976 -0.039371014
-0.071757615 0.087162331 -0.028731704
-0.071757615 0.11163668 -0.028731585
-0.071757615 0.1361112 -0.028731585
-0.071757615 0.16058549 -0.028731585
-0.022957603 -0.23249462 -0.0093891621
0.0016657502 -0.23130156 -0.024888754
-0.022906173 -0.20740841 -0.016070008
0.050842859 -0.2075581 -0.013909578
-0.022854825 -0.18242568 -0.022740364
0.075219937 -0.18240568 -0.023066878
-0.047511093 -0.15838006 -0.013926983
-0.047408525 -0.13348395 -0.020588756
-0.072150275 -0.1092879 -0.011728883
-0.071996212 -0.084477082 -0.018400073
0.19850528 -0.08468084 -0.011780858
-0.096823387 -0.060128052 -0.0095279217
-0.071842797 -0.059769567 -0.025043368
0.22247374 -0.059863824 -0.020967722
-0.096705511 -0.035446737 -0.013355851
-0.096705511 -0.010853868 -0.01335609
-0.096705511 0.013738897 -0.01335597
-0.096705511 0.038331714 -0.01335597
-0.096705511 0.062924534 -0.01335597
-0.096705511 0.087517291 -0.013355851
-0.096705511 0.11211011 -0.01335597
-0.096705511 0.13670303 -0.013356209
-0.096705511 0.16129576 -0.01335597
-0.047821924 -0.23369959 0.0062621832
0.026325205 -0.23285562 -0.0046993494
-0.047718056 -0.20848815 -0.00048422813
-0.072616763 -0.18434775 0.0084702969
-0.047614358 -0.1833816 -0.0072196722
-0.072460346 -0.15922204 0.0016974211
-0.072304986 -0.13420253 -0.0050299168
0.15015061 -0.13474596 0.0067349672
-0.097237378 -0.10989001 0.0039168596
0.17439824 -0.10964151 -0.002540946
-0.097029954 -0.084956795 -0.0028196573
-0.12204871 -0.06048983 0.0061395168
-0.12189656 -0.03568602 0.0021864176
-0.12189589 -0.010973431 0.002169013
-0.12189589 0.013738897 0.002169013
-0.12189589 0.038451172 0.002169013
-0.12189589 0.063163608 0.002169013
-0.12189589 0.087875888 0.002169013
-0.12189589 0.11258832 0.002169013
0.86417526 0.1123113 -0.0068202019
-0.12189589 0.1373006 0.002169013
-0.12189656 0.16201365 0.0021864176
-0.07293158 -0.23491885 0.022102594
-0.072773837 -0.20957983 0.015272141
-0.097864933 -0.18532255 0.024297237
0.1012319 -0.18539333 0.025448918
-0.097654864 -0.16007218 0.017475128
0.12576224 -0.15999611 0.016064882
-0.12283424 -0.13566113 0.026548386
-0.097445682 -0.13492829 0.010681748
-0.12257129 -0.11049816 0.01971662
-0.12230945 -0.085441291 0.012913823
-0.14752237 -0.060855176 0.021961093
-0.1473331 -0.0359274 0.017863035
-0.1473331 -0.011094252 0.017863035
-0.1473331 0.013738845 0.017863035
-0.1473331 0.038572043 0.017863035
-0.1473331 0.063405193 0.017863154
-0.1473331 0.088238284 0.017863035
-0.1473331 0.11307149 0.017863035
-0.1473331 0.13790458 0.017863154
-0.1473331 0.16273779 0.017863154
0.72133887 0.16263667 0.015677333
-0.09807644 -0.21068095 0.031166077
0.076558337 -0.21093889 0.03488791
-0.1233635 -0.18630792 0.040298581
-0.12309831 -0.16093077 0.033408761
-0.14847435 -0.13640119 0.042571902
-0.14815567 -0.11111221 0.035672426
-0.14783834 -0.085930482 0.028802276
0.22649433 -0.086184964 0.037064195
-0.17324805 -0.061224181 0.037939191
0.25074631 -0.060985375 0.027594924
-0.17301929 -0.036171138 0.03369379
-0.17301929 -0.011216069 0.03369379
-0.17301929 0.013738949 0.033693671
-0.17301929 0.038693912 0.03369379
-0.17301929 0.063648932 0.03369379
-0.17301929 0.088603899 0.03369379
-0.17301929 0.11355881 0.03369391
-0.17301929 0.13851383 0.03369379
-0.17301929 0.16346885 0.03369379
-0.12362982 -0.21179317 0.047217727
-0.14911577 -0.18730314 0.056459188
-0.14879437 -0.16179794 0.049500704
-0.17436974 -0.13714863 0.058755159
0.17756195 -0.13702933 0.056170225
-0.17399424 -0.1117325 0.05178678
0.20210105 -0.11153319 0.046607137
-0.19965926 -0.086923569 0.06105423
-0.17362034 -0.086424559 0.044848323
-0.19922951 -0.061596807 0.054076314
-0.19895883 -0.036417231 0.049680591
0.4280895 -0.036428601 0.050418377
-0.19895883 -0.011339195 0.04968071
-0.19895883 0.013738897 0.049680471
-0.19895883 0.038816988 0.04968071
-0.19895883 0.063895077 0.049680591
-0.19895883 0.08897306 0.049680471
-0.19895883 0.11405115 0.04968071
-0.19895883 0.13912919 0.049680471
-0.19895883 0.16420729 0.04968071
-0.14943855 -0.21291754 0.063447356
-0.17512456 -0.18830723 0.072763085
0.1280486 -0.18847358 0.075465679
-0.17474683 -0.1626737 0.065753102
0.15287822 -0.16267568 0.06578958
-0.20052539 -0.13790452 0.075118661
-0.20009197 -0.11235966 0.068080306
-0.22596018 -0.087428227 0.077440977
-0.22547314 -0.061974045 0.070410967
0.27989537 -0.062141921 0.0776788
-0.22515672 -0.036666051 0.06584394
-0.22515672 -0.011463629 0.065844059
-0.22515672 0.013738949 0.06584394
-0.22515672 0.038941372 0.065844059
-0.22515672 0.064143844 0.065844059
-0.22515672 0.089346483 0.06584394
-0.22515672 0.11454895 0.065844059
-0.22515672 0.13975137 0.065843821
-0.22515672 0.16495386 0.065844059
0.052479941 -0.2657392 0.092422247
0.052479941 -0.2403321 0.092422247
-0.20183694 -0.21520166 0.09641552
-0.17550491 -0.21405198 0.079821587
0.10307229 -0.21442586 0.085217714
-0.20139901 -0.18932593 0.089304447
-0.20096183 -0.16356026 0.082205296
-0.22694312 -0.13866697 0.091628194
-0.22645059 -0.11299248 0.084519386
-0.25252467 -0.087937281 0.093973875
0.25535348 -0.087736249 0.087443948
-0.25197667 -0.062353749 0.086854815
-0.25161448 -0.036917124 0.08215034
-0.25161448 -0.011589114 0.082150221
-0.25161448 0.013738897 0.08215034
-0.25161448 0.039066959 0.082150221
-0.25161448 0.064394861 0.08215034
-0.25161448 0.089722931 0.082150221
-0.25161448 0.11505105 0.08215034
-0.25161448 0.14037912 0.082150221
-0.25161448 0.16570702 0.08215034
-0.22843355 -0.21636041 0.11314082
-0.22793457 -0.19035028 0.10593867
-0.22743778 -0.16445275 0.098768115
-0.2536279 -0.13943726 0.10830486
0.20582949 -0.13938387 0.10714924
-0.25307509 -0.11363158 0.10112417
0.23066531 -0.11348298 0.09726727
-0.2793563 -0.088451013 0.11065578
-0.27874896 -0.062737793 0.10348308
-0.2783387 -0.037171025 0.098638296
-0.2783387 -0.011716012 0.098638177
-0.2783387 0.013738949 0.098638296
-0.2783387 0.039193857 0.098638177
-0.2783387 0.064648658 0.098638296
0.89681387 0.064890094 0.11431909
-0.2783387 0.090103731 0.098638415
-0.2783387 0.11555858 0.098638296
-0.2783387 0.14101371 0.098638296
-0.2783387 0.16646862 0.098638296
0.078546003 -0.26815531 0.1209563
0.078546003 -0.24252865 0.12095642
-0.2552993 -0.21752962 0.13001728
-0.25473925 -0.19138511 0.12274206
0.15570879 -0.19165185 0.12707305
-0.25418165 -0.16535424 0.11549842
0.18084371 -0.16543905 0.11707199
-0.28058213 -0.14021447 0.12513208
-0.2799679 -0.11427644 0.11787808
-0.30646214 -0.088970497 0.12752581
-0.30579111 -0.063125402 0.12026143
0.30996096 -0.063334882 0.12933731
-0.33259499 -0.037685953 0.13207746
-0.30533037 -0.037427127 0.11527371
-0.33259499 -0.011973476 0.13207734
-0.30533037 -0.011844167 0.11527359
-0.33259687 0.013738897 0.13209629
-0.30533209 0.013738897 0.11529243
-0.33259687 0.039451376 0.13209617
-0.30533037 0.039321959 0.11527371
-0.33259687 0.065163903 0.13209617
-0.30533209 0.064905234 0.11529255
-0.33259687 0.09087643 0.13209629
-0.30533209 0.090488464 0.11529243
-0.33259875 0.11658949 0.13211513
-0.30533209 0.11607142 0.11529243
-0.33259875 0.14230223 0.13211524
-0.30533209 0.14165464 0.11529255
-0.33259875 0.16801476 0.13211524
-0.30533209 0.16723786 0.11529255
-0.28244108 -0.21871217 0.14708495
0.13042149 -0.21802135 0.1371156
-0.28181872 -0.19243169 0.13973546
-0.30849299 -0.16718696 0.14951038
-0.28119907 -0.16626595 0.1324178
-0.30781308 -0.14100049 0.14215004
-0.30713615 -0.11492854 0.13482189
0.26013431 -0.11549534 0.14954853
-0.33384305 -0.089494586 0.14454913
0.28512284 -0.08933647 0.1394124
-0.33311057 -0.063517153 0.13722932
-0.36013874 -0.037947506 0.14907074
-0.36013874 -0.012104252 0.14907086
-0.36014083 0.013738897 0.14909005
-0.36014083 0.039582256 0.14909005
-0.36014083 0.065425456 0.14908993
-0.36014083 0.091268763 0.14909005
-0.36014083 0.11711228 0.14908981
-0.36014083 0.14295559 0.14909005
-0.36014083 0.16879879 0.14908993
0.77646732 0.16869923 0.14693248
0.1055249 -0.27187377 0.16486824
0.1055249 -0.24590892 0.16486824
-0.30986184 -0.21990681 0.16432834
-0.30917591 -0.19348894 0.15690315
-0.33606574 -0.16811655 0.16675925
-0.33532158 -0.14179374 0.15932333
0.23499398 -0.14181317 0.15974617
-0.33458069 -0.11558671 0.15191996
-0.36150697 -0.090024814 0.16176617
-0.36070794 -0.06391263 0.15435219
-0.38796201 -0.038211573 0.16621888
-0.38796201 -0.01223639 0.16621888
-0.38796201 0.013738949 0.166219
-0.38796648 0.039714392 0.1662575
-0.38796648 0.065689892 0.1662575
-0.38796425 0.09166497 0.16623819
-0.38796425 0.11764015 0.16623819
-0.38796425 0.14361559 0.16623843
-0.33756396 -0.22111249 0.18173051
-0.33681318 -0.19455583 0.17422831
0.18425129 -0.19493036 0.18030906
-0.36392537 -0.16905671 0.18420613
0.20970045 -0.16829149 0.17000604
-0.36311567 -0.14259599 0.17669296
-0.36230952 -0.11625227 0.16921306
-0.38945648 -0.090560332 0.17916131
-0.38859153 -0.064312547 0.17167044
0.34098512 -0.064565614 0.18262684
-0.41607338 -0.038478468 0.1835624
-0.41607338 -0.012369838 0.18356252
-0.41607338 0.013738897 0.18356252
-0.4160758 0.039847683 0.18358195
-0.4160758 0.065956578 0.18358207
-0.4160758 0.092065409 0.18358183
-0.4160758 0.11817436 0.18358195
-0.4160758 0.14428315 0.18358195
-0.36555558 -0.22233197 0.19933259
0.15864645 -0.22173226 0.19067538
-0.36473867 -0.19563511 0.19175255
-0.39207453 -0.17000651 0.20183408
-0.39119795 -0.14340658 0.19424284
-0.39032528 -0.11692475 0.1866852
-0.41769361 -0.09110105 0.19671714
0.31584615 -0.09098798 0.19304633
-0.4167614 -0.06471619 0.18914855
-0.44447261 -0.038747981 0.20106566
0.47305053 -0.038637221 0.19386995
-0.44447261 -0.012504594 0.20106554
-0.44447261 0.013738897 0.20106554
-0.44447523 0.03998249 0.20108521
0.13322276 -0.27568659 0.20989501
0.13322276 -0.24937513 0.20989478
-0.39383945 -0.22356422 0.21711862
-0.39295501 -0.19672547 0.2094593
-0.4205153 -0.17096533 0.21962643
-0.41957051 -0.14422466 0.21195579
0.26509875 -0.14432096 0.21403885
-0.41862997 -0.11760357 0.20431936
0.29055053 -0.11757234 0.20351028
-0.44622755 -0.091647774 0.21447563
-0.44522679 -0.065124452 0.206828
-0.4731693 -0.039020535 0.21877027
-0.4731693 -0.012640767 0.21877015
-0.4731693 0.013738897 0.21877027
-0.4731693 0.040118665 0.21877015
-0.4214668 -0.19782738 0.22735155
0.21371982 -0.19831517 0.23527217
-0.44925708 -0.17193519 0.23762536
0.23948944 -0.17123516 0.22463274
-0.44824269 -0.14505233 0.22987425
-0.4472329 -0.11829014 0.22215772
-0.47506073 -0.092200384 0.23242056
-0.47398996 -0.065537155 0.22469258
0.37301829 -0.065836743 0.23766565
-0.50216264 -0.039295707 0.23663938
-0.50216264 -0.012778405 0.23663962
-0.50216264 0.013738897 0.2366395
-0.50216264 0.040256094 0.2366395
0.18778993 -0.22556368 0.245978
-0.4772169 -0.14588875 0.24798119
-0.47613639 -0.11898389 0.24018335
-0.50419784 -0.092758685 0.25055468
0.34756798 -0.092692614 0.24840653
-0.50305563 -0.065953955 0.24274504
-0.53146303 -0.039573867 0.2547164
-0.53146303 -0.012917565 0.25471663
-0.53146303 0.013738897 0.25471663
-0.53146303 0.040395305 0.25471663
0.16167484 -0.27961117 0.25624168
0.16167484 -0.2529428 0.25624168
0.29619014 -0.14691086 0.27011096
-0.50534523 -0.11968513 0.25839949
0.32195851 -0.11971641 0.2592144
-0.53364372 -0.093323022 0.26888084
-0.53242868 -0.0663753 0.26098847
0.27025768 -0.17427547 0.28105509
-0.56340337 -0.093893334 0.28740215
-0.56211388 -0.066801116 0.27942562
-0.56107259 -0.039855171 0.27298427
-0.56107259 -0.013058189 0.27298415
-0.56107259 0.013738791 0.27298415
-0.56107259 0.040535931 0.27298427
0.19090685 -0.28364 0.30382085
0.19090685 -0.25660563 0.30382085
0.21790013 -0.22952478 0.30315185
0.2441601 -0.20181169 0.29204798
0.38034183 -0.094454318 0.30561972
-0.59211636 -0.067231312 0.29805994
0.40610856 -0.067149639 0.29452097
-0.59099269 -0.040139094 0.29142511
-0.59099269 -0.013200073 0.29142511
-0.59099269 0.013738949 0.29142487
-0.59099269 0.040677972 0.29142487
0.3544113 -0.12193252 0.31678903
-0.62123525 -0.040426478 0.31008303
-0.62123525 -0.013343895 0.31008303
-0.62123525 0.013738791 0.31008303
-0.62123525 0.040821582 0.31008327
-0.62123525 0.067904219 0.31008327
-0.62123525 0.094986856 0.31008327
-0.62123525 0.12206949 0.31008327
-0.62123525 0.14915207 0.31008327
0.3020525 -0.17741634 0.33934224
0.32831538 -0.14958604 0.32802963
-0.65179807 -0.040716372 0.32892013
-0.65179807 -0.013488764 0.32892001
-0.65179807 0.013738949 0.32892013
-0.65179807 0.040966399 0.32892013
-0.65179807 0.068194114 0.32892013
-0.59968996 0.068407565 0.34277987
-0.46218899 0.068310112 0.33644307
-0.65179807 0.09542188 0.32892013
-0.59968996 0.095741957 0.34277987
-0.46218899 0.095595568 0.33644307
-0.65179807 0.12264943 0.32892001
-0.59968996 0.12307639 0.34277987
-0.46218899 0.12288117 0.33644331
-0.65179807 0.14987721 0.32892013
-0.59968638 0.15040979 0.34275854
-0.46218899 0.15016684 0.33644331
0.2756227 -0.2054266 0.35074854
0.44030648 -0.068506226 0.35326242
-0.68269402 -0.013635572 0.3479811
-0.68269402 0.013738897 0.34798133
-0.68269402 0.041113261 0.3479811
-0.68268991 0.068487361 0.34795976
-0.49202564 0.068593413 0.35485399
-0.68268991 0.095861629 0.34796
-0.49202266 0.096020266 0.35483265
-0.68268991 0.12323578 0.34795976
-0.49202266 0.12344751 0.35483265
-0.68268991 0.15061004 0.34796
-0.49202266 0.15087458 0.35483265
0.24902238 -0.23361774 0.36222899
0.38796005 -0.1242234 0.37630785
0.41421893 -0.09627533 0.36475873
-0.71392047 -0.01378369 0.36722732
-0.71392047 0.013738845 0.36722732
-0.71392047 0.041261379 0.36722755
-0.71392047 0.068783864 0.36722732
-0.57805043 0.068950057 0.37800753
-0.52217066 0.068879694 0.37343538
-0.71392047 0.096306443 0.36722732
-0.57805043 0.096555427 0.37800753
-0.52217066 0.096449852 0.37343538
-0.71391612 0.12382846 0.36720574
-0.57805043 0.12416095 0.37800753
-0.52217066 0.12402028 0.37343538
-0.71391612 0.15135063 0.36720574
-0.57804686 0.15176569 0.37798572
-0.52216744 0.15158971 0.37341356
0.36153084 -0.15235266 0.38793182
-0.7454868 -0.013933433 0.38668287
-0.7454868 0.013738739 0.38668287
-0.7454868 0.041411228 0.38668275
-0.7454868 0.069083452 0.38668287
-0.55263174 0.069168642 0.39221179
-0.7454868 0.096755832 0.38668287
-0.55263174 0.09688352 0.39221179
-0.7454868 0.12442805 0.38668287
-0.55263174 0.12459838 0.39221156
-0.55263174 0.15231311 0.39221156
0.30815488 -0.20916241 0.41140771
0.33492967 -0.18066508 0.39963162
-0.7774033 -0.01408506 0.40637326
-0.7774033 0.013738791 0.40637362
-0.7774033 0.041562803 0.4063735
-0.77739853 0.069386341 0.40635145
-0.77739853 0.097210094 0.40635145
-0.77739853 0.12503384 0.40635145
-0.8096664 -0.014238052 0.42625868
-0.8096664 0.013738845 0.42625868
-0.8096664 0.041715898 0.42625868
-0.8096664 0.069692791 0.42625868
-0.8096664 0.097669795 0.42625868
-0.8096664 0.12564674 0.42625868
-0.84228641 -0.014392875 0.44636369
-0.84228641 0.013738739 0.44636369
-0.84228641 0.041870616 0.44636369
-0.84228641 0.070002392 0.44636369
-0.84228641 0.09813416 0.44636369
-0.84228641 0.12626572 0.44636369
-0.87526941 0.098603562 0.46669245
-0.87526941 0.12689194 0.46669257
0 0 0 1 0 0 0 1 0 0 0 1 0 0 0 0 0 784 1 0 0
