ply
format ascii 1.0
comment PCL generated
element vertex 1088
property float x
property float y
property float z
element camera 1
property float view_px
property float view_py
property float view_pz
property float x_axisx
property float x_axisy
property float x_axisz
property float y_axisx
property float y_axisy
property float y_axisz
property float z_axisx
property float z_axisy
property float z_axisz
property float focal
property float scalex
property float scaley
property float centerx
property float centery
property int viewportx
property int viewporty
property float k1
property float k2
end_header
-0.010289767 0.10223414 -0.16834176
0.01069585 0.10223086 -0.1683805
-0.052260395 0.12321734 -0.16836762
-0.031270608 0.12319112 -0.1686517
-0.010285192 0.12316492 -0.16893566
0.01069585 0.12316141 -0.16897452
0.031678781 0.12318751 -0.16869044
0.052666083 0.12321374 -0.16840625
-0.031541552 -0.0018954575 -0.15105343
-0.010420938 -0.0019069761 -0.15130186
0.01069585 -0.0019081235 -0.15132797
0.031814247 -0.00189735 -0.15109265
-0.15825215 0.019221857 -0.15107965
-0.13705404 0.019142225 -0.1525569
-0.11587874 0.019062713 -0.15403259
-0.094752334 0.019019887 -0.15482867
-0.073637806 0.018976226 -0.15563726
-0.052538741 0.018939763 -0.15631497
-0.031456936 0.018927112 -0.15654957
-0.010378637 0.018913746 -0.15679705
0.01069585 0.0189123 -0.15682304
0.031771939 0.018924966 -0.15658867
0.05285164 0.018937588 -0.15635407
0.073943384 0.018969864 -0.15575457
0.095051192 0.01901421 -0.15493298
0.11616965 0.019055665 -0.154163
0.13732895 0.01913096 -0.15276587
0.15851477 0.019211292 -0.15127575
-0.20045592 0.04031378 -0.15151107
-0.17918323 0.040173739 -0.15378463
-0.15797788 0.040066153 -0.15553296
-0.13681081 0.039971486 -0.15707064
-0.1156681 0.039877579 -0.15859354
-0.09457539 0.039826334 -0.15942585
-0.073495135 0.039774314 -0.16027069
-0.052431788 0.039732784 -0.16094625
-0.031385444 0.039717481 -0.16119289
-0.010342899 0.039702386 -0.16143966
0.01069585 0.039699927 -0.16147864
0.031736195 0.039715141 -0.16123188
0.052780338 0.039730236 -0.16098499
0.073836386 0.039767057 -0.16038752
0.094909243 0.039819181 -0.15954292
0.11599463 0.039870426 -0.1587106
0.1371205 0.039958611 -0.15727901
0.15827411 0.040053263 -0.15574145
0.17945634 0.040152833 -0.15412402
0.20071068 0.040294409 -0.15182495
-0.22150137 0.061371893 -0.15233469
-0.2002126 0.061209932 -0.15467215
-0.17895828 0.061046556 -0.15703154
-0.157787 0.060935557 -0.15863252
-0.13663837 0.06082204 -0.16027069
-0.11552344 0.060721368 -0.16172528
-0.09445443 0.060662866 -0.16256857
-0.073397227 0.060601786 -0.16345048
-0.052358989 0.060556844 -0.16409838
-0.031336922 0.060539886 -0.16434455
-0.010318541 0.060521916 -0.16460371
0.01069585 0.060520098 -0.16462958
0.031711936 0.060537115 -0.16438329
0.052731808 0.060554177 -0.16413736
0.073762961 0.06059365 -0.16356695
0.09481208 0.060653865 -0.16269839
0.1158741 0.060713276 -0.16184199
0.13697211 0.060806856 -0.16049159
0.15810572 0.0609193 -0.15886664
0.17926045 0.061027527 -0.157305
0.20049083 0.061187372 -0.15499818
0.22176108 0.061351076 -0.15263534
-0.22132 0.082315952 -0.15447652
-0.20003797 0.08212617 -0.15694034
-0.17879602 0.081938833 -0.15937376
-0.15763652 0.081807777 -0.16107595
-0.13650337 0.081677034 -0.16277623
-0.11540664 0.081563145 -0.16425383
-0.094354667 0.081493393 -0.16516042
-0.073316671 0.081423625 -0.16606641
-0.052298311 0.081372917 -0.16672611
-0.031296272 0.081353009 -0.16698468
-0.01029822 0.081333086 -0.16724336
0.01069585 0.081330165 -0.16728222
0.031691611 0.081349969 -0.16702366
0.052691355 0.081369877 -0.16676497
0.073702253 0.081413761 -0.16619575
0.094732285 0.081483394 -0.16528988
0.11577678 0.081554234 -0.16437042
0.13685583 0.081658944 -0.16300952
0.15797406 0.081789851 -0.16130984
0.17911863 0.081920817 -0.15960801
0.20033284 0.082100153 -0.15727901
0.22159322 0.0822898 -0.15481555
0.24297275 0.082553223 -0.15139353
-0.24260899 0.10358842 -0.1523478
-0.22123165 0.1033199 -0.15551984
-0.19995078 0.10310362 -0.15807295
-0.17872484 0.10290663 -0.16040063
-0.15757097 0.1027592 -0.16214037
-0.13644189 0.10260881 -0.16391706
-0.1153576 0.10249035 -0.16531575
-0.094312824 0.10241145 -0.16624761
-0.073282026 0.10233146 -0.16719151
-0.052273232 0.10227901 -0.16781199
-0.031279556 0.10225703 -0.16807032
0.031683255 0.10225385 -0.16810906
0.052674636 0.10227573 -0.16785085
0.073676266 0.10232055 -0.16732097
0.094698809 0.10240044 -0.16637683
0.11573541 0.10247944 -0.16544521
0.13680254 0.10258795 -0.16416335
0.15791602 0.1027384 -0.16238701
0.1790546 0.10288562 -0.16064739
0.20025347 0.10307389 -0.1584245
0.22151192 0.10329007 -0.15587175
0.24280897 0.10350552 -0.1533277
-0.24256554 0.12465373 -0.1528182
-0.22123054 0.12440291 -0.15553284
-0.19993775 0.12415266 -0.15824223
-0.17871046 0.12393409 -0.16060853
-0.1575502 0.12376139 -0.16247773
-0.13641815 0.1235877 -0.16435742
-0.11533668 0.12345734 -0.16576874
-0.094293416 0.12336653 -0.16675186
-0.073264912 0.12327459 -0.16774726
0.073663145 0.12326148 -0.16788948
0.09468288 0.12335351 -0.16689432
0.11571798 0.12344542 -0.1658982
0.13678159 0.12356392 -0.16461658
0.15789646 0.12373623 -0.16275012
0.17904101 0.12391019 -0.16086829
0.20023994 0.12411785 -0.15861964
0.22150892 0.12436801 -0.15591085
0.24282002 0.12461868 -0.15319705
-0.22134763 0.14562556 -0.15415013
-0.20003095 0.14533713 -0.15703142
-0.17879058 0.14509499 -0.15945184
-0.15761334 0.14489478 -0.16145253
-0.13646773 0.14469615 -0.16343749
-0.11538272 0.1445626 -0.16477191
-0.094330758 0.14446148 -0.16578162
-0.073294759 0.14436182 -0.16677773
-0.052283373 0.14430231 -0.16737258
-0.031285927 0.14427397 -0.16765702
-0.010292848 0.14424536 -0.16794121
0.01069585 0.1442402 -0.16799283
0.031686436 0.14427006 -0.16769564
0.052681401 0.14429843 -0.16741133
0.073685527 0.1443477 -0.16692007
0.094712757 0.14444733 -0.16592407
0.11575584 0.14454827 -0.16491437
0.13682349 0.14466891 -0.16370952
0.15795098 0.14486614 -0.16173804
0.17911062 0.14506641 -0.15973794
0.20032199 0.14529687 -0.1574353
0.22161332 0.14558512 -0.15455461
-0.24270922 0.14591455 -0.15126276
0.24295059 0.14587525 -0.15165496
-0.22159657 0.16703731 -0.15121031
-0.20025378 0.16672185 -0.15413713
-0.17899708 0.16647029 -0.15647125
-0.15779582 0.16625273 -0.15848935
-0.13662437 0.16603285 -0.16053069
-0.11551685 0.16588864 -0.1618681
-0.094440445 0.16577402 -0.1629318
-0.073380463 0.1656594 -0.16399467
-0.052347329 0.16559383 -0.16460359
-0.031328347 0.16556174 -0.16490138
-0.010313955 0.16552964 -0.16519916
0.01069585 0.16552544 -0.16523814
0.031707648 0.1655575 -0.16494024
0.05272403 0.1655896 -0.16464245
0.073749498 0.16564265 -0.16415024
0.094800107 0.16575718 -0.16308737
0.11586711 0.16587195 -0.16202366
0.13695711 0.16600201 -0.16081643
0.15811062 0.16622192 -0.15877557
0.17929494 0.16644081 -0.15674496
0.20052247 0.16667819 -0.15454161
0.22183955 0.16699356 -0.15161574
-0.17925109 0.18797055 -0.15280509
-0.15801002 0.18771589 -0.15501118
-0.13680309 0.18746156 -0.15721381
-0.11566748 0.18730068 -0.15860653
-0.094562382 0.18716705 -0.15976393
-0.07347513 0.18703362 -0.16092026
-0.052418295 0.18696305 -0.16153038
-0.031375051 0.1869241 -0.16186786
-0.010337102 0.18688664 -0.16219234
0.01069585 0.18688065 -0.16224432
0.031730998 0.18691963 -0.16190684
0.052771144 0.18695709 -0.16158235
0.073820487 0.18701553 -0.16107595
0.094897635 0.18714911 -0.15991986
0.11599262 0.18728271 -0.15876269
0.13710907 0.18742549 -0.15752625
0.1582966 0.18767977 -0.15532422
0.17951906 0.18793586 -0.15310562
-0.13710617 0.20922559 -0.15158963
-0.11587211 0.20890698 -0.15417624
-0.094723724 0.20873487 -0.15557206
-0.073596872 0.2085633 -0.15696645
-0.05250806 0.20847991 -0.15764344
-0.031435281 0.20844138 -0.157956
-0.010367312 0.20840299 -0.15826833
0.01069585 0.2083981 -0.15830731
0.031761114 0.20843667 -0.15799475
0.052831188 0.20847502 -0.15768254
0.073910885 0.20853931 -0.15716171
0.095025495 0.20871088 -0.15576756
0.11616162 0.20888287 -0.15437222
0.13736819 0.20918515 -0.1519165
-0.095525183 -0.043630823 -0.13474965
-0.074259788 -0.043652035 -0.13543761
-0.053003777 -0.043674827 -0.13617837
-0.031767108 -0.043681674 -0.1364032
-0.010533798 -0.04368908 -0.13664114
0.01069585 -0.043689899 -0.13666749
0.031927124 -0.043682538 -0.13642967
0.05316186 -0.043675594 -0.13620484
0.074410133 -0.043655306 -0.13554347
0.095669828 -0.04363364 -0.13484216
0.11694798 -0.043605991 -0.13394177
-0.20172586 -0.022396721 -0.1350143
-0.18034624 -0.022473216 -0.13699806
-0.15900548 -0.022544302 -0.13884699
-0.13772173 -0.022595041 -0.14016616
-0.11645529 -0.022648342 -0.14154994
-0.09522897 -0.022682786 -0.14244521
-0.074020915 -0.022711605 -0.14319539
-0.052825626 -0.022738531 -0.14389265
-0.03164836 -0.022747122 -0.14411604
-0.010474333 -0.022756673 -0.14436579
0.01069585 -0.022757798 -0.14439201
0.031867649 -0.022748649 -0.1441555
0.053043094 -0.022739455 -0.14391875
0.074230991 -0.02271574 -0.14330053
0.095432475 -0.022686869 -0.14255059
0.11664754 -0.022655956 -0.14174736
0.13790178 -0.022602759 -0.14036381
0.15917526 -0.022550844 -0.13901854
0.18049395 -0.022483796 -0.1372757
0.20185611 -0.02240745 -0.13529205
-0.24427989 -0.0011197478 -0.13425982
-0.22264346 -0.0013317019 -0.13884687
-0.20120652 -0.0014661998 -0.14176071
-0.17987587 -0.0015598536 -0.14378726
-0.15858713 -0.0016454458 -0.14564013
-0.13735108 -0.0017103106 -0.14704466
-0.11613549 -0.0017763078 -0.1484741
-0.094963141 -0.0018168539 -0.14935172
-0.073807962 -0.0018519163 -0.15011132
-0.052665692 -0.0018845648 -0.15081799
0.052936472 -0.0018857419 -0.1508441
0.074071296 -0.001856789 -0.15021586
0.095219821 -0.0018217415 -0.1494565
0.11638056 -0.0017860383 -0.14868355
0.13758411 -0.0017193556 -0.14724159
0.15880783 -0.0016544312 -0.14583731
0.18007591 -0.0015726686 -0.14406335
0.2013879 -0.0014795363 -0.14205027
0.22276664 -0.0013651848 -0.13957262
0.24437092 -0.001148507 -0.13488185
-0.26551199 0.020119652 -0.13441849
-0.24376228 0.019826308 -0.13986301
-0.22211827 0.019546807 -0.14504898
-0.20078762 0.019430846 -0.14720213
-0.17948945 0.019314304 -0.14936483
0.17973168 0.019298717 -0.14965308
0.20101008 0.019414648 -0.14750385
0.22231674 0.019527033 -0.14541698
0.24388774 0.019787222 -0.14058805
0.26557621 0.020072594 -0.13529217
-0.26512429 0.041127846 -0.13829255
-0.24337184 0.040770829 -0.14408958
-0.2217606 0.040451631 -0.14927316
0.2219957 0.04043223 -0.14958751
0.24352443 0.040722281 -0.14487839
0.26520762 0.041066855 -0.13928223
-0.26478118 0.062107205 -0.14172113
-0.2430189 0.06167835 -0.14791036
0.24319555 0.061619446 -0.14876235
0.26490447 0.062048823 -0.1425637
0.28685069 0.062576547 -0.13494813
-0.28654769 0.083709121 -0.13637662
-0.26459283 0.08315289 -0.14360321
-0.242789 0.082629681 -0.15039921
0.26472223 0.083081037 -0.14453661
0.28663757 0.083655313 -0.13707721
-0.28644371 0.10485923 -0.13734162
-0.26443762 0.10419768 -0.14515424
0.26457179 0.10411201 -0.14616561
0.28648427 0.1047518 -0.13860941
-0.28651494 0.12614438 -0.13668084
-0.26445863 0.12538114 -0.14494395
0.26457784 0.12527442 -0.14609981
0.28656092 0.12603703 -0.13784361
-0.28674874 0.14759091 -0.13451123
-0.26460207 0.14669028 -0.14351118
0.26470283 0.1465666 -0.14474702
0.28676859 0.14746517 -0.13576841
-0.26481017 0.16809121 -0.14143121
-0.24298379 0.16735196 -0.1482904
0.24320221 0.16730949 -0.14868355
0.26489234 0.16795489 -0.14269531
-0.26523137 0.18977001 -0.13722265
-0.24337915 0.18898618 -0.14401078
-0.22193708 0.18861908 -0.14718902
-0.20054555 0.18825451 -0.15034688
0.20078228 0.18820307 -0.15079188
0.22214702 0.18856916 -0.14762199
0.24356005 0.18893448 -0.14445782
0.26526612 0.18960527 -0.13864899
-0.24398178 0.21096253 -0.13748682
-0.22246927 0.21054164 -0.14090419
-0.20101 0.21012163 -0.14431322
-0.179662 0.20980635 -0.14687419
-0.1583658 0.20951566 -0.14923382
0.15860644 0.20947382 -0.1495744
0.17988181 0.20976436 -0.14721513
0.20119743 0.21006182 -0.14479959
0.22262761 0.2104831 -0.14137864
0.24411008 0.21090388 -0.13796234
-0.13753439 0.23137999 -0.14364266
0.13773455 0.23133534 -0.14398444
-0.20162401 0.23233619 -0.13633728
-0.18021631 0.23200437 -0.13887322
-0.15885687 0.2316919 -0.14126003
-0.11652713 0.23185754 -0.13999462
-0.095323801 0.2318593 -0.13998151
-0.074119873 0.2318593 -0.13998151
-0.052915644 0.23185754 -0.13999462
-0.031711813 0.23185754 -0.13999462
-0.010507979 0.23185754 -0.13999462
0.01069585 0.23185754 -0.13999462
0.031899679 0.23185754 -0.13999462
0.05310351 0.23185754 -0.13999462
0.074307643 0.2318593 -0.13998151
0.095511578 0.2318593 -0.13998151
0.11671449 0.23185578 -0.14000773
0.15903603 0.23164713 -0.1416024
0.18037523 0.23196101 -0.13920343
0.20175076 0.23227391 -0.13681293
-0.13805071 0.25388348 -0.1340611
-0.11673271 0.25367799 -0.13554347
-0.095548116 0.25387064 -0.13415384
-0.074281387 0.2537899 -0.13473618
-0.053030964 0.25375319 -0.13500106
-0.03178747 0.25374216 -0.13508058
-0.010544182 0.25371295 -0.13529217
0.01069585 0.25370911 -0.13531864
0.031937305 0.25373858 -0.13510704
0.053180393 0.25375319 -0.13500106
0.074426025 0.25377348 -0.13485551
0.095691025 0.25387064 -0.13415384
0.11687919 0.25365242 -0.13572872
0.13817698 0.25383577 -0.13440537
-0.22451578 -0.064459093 -0.11673617
-0.20290087 -0.064528584 -0.11975026
-0.18140964 -0.064572483 -0.12164915
-0.15995438 -0.064613827 -0.1234386
-0.13854979 -0.064645201 -0.12479925
-0.11717296 -0.064673252 -0.12601209
-0.095823057 -0.064696252 -0.1270107
-0.074497961 -0.064712346 -0.12770259
-0.053183544 -0.064728238 -0.12839437
-0.031886522 -0.064734116 -0.12864697
-0.010593594 -0.064739376 -0.12887299
0.01069585 -0.064740248 -0.12891293
0.031986728 -0.064735033 -0.12868702
0.053281289 -0.064729564 -0.12844753
0.074588761 -0.064714745 -0.12780905
0.095907696 -0.064698756 -0.12711704
0.11724654 -0.064677291 -0.12618506
0.13861267 -0.064649239 -0.12497258
0.16000186 -0.064619288 -0.12367892
0.18144064 -0.06457831 -0.12190306
0.20290786 -0.064536914 -0.12011158
0.22449259 -0.064468592 -0.11715198
-0.24550405 -0.04320766 -0.12100756
-0.22391208 -0.043295659 -0.1238656
-0.20230712 -0.043406442 -0.12746322
-0.18088429 -0.043460868 -0.12923193
-0.15947576 -0.043521829 -0.1312108
-0.13813782 -0.043559849 -0.13244438
-0.11681526 -0.043600217 -0.13375628
0.1382596 -0.043565109 -0.13261676
0.15958527 -0.043528013 -0.13140965
0.18097293 -0.043469042 -0.12949777
0.20238101 -0.043414213 -0.12771595
0.22394392 -0.043308377 -0.12427914
0.24551634 -0.043218337 -0.12135506
-0.267252 -0.021704711 -0.1170311
-0.24486101 -0.022125579 -0.12796879
-0.22323279 -0.022276431 -0.13188744
0.2233123 -0.022299424 -0.13248408
0.2449214 -0.022141472 -0.12838113
0.26690936 -0.021852039 -0.12086046
-0.26618806 -0.00081501901 -0.1276629
0.26607344 -0.0009188056 -0.12990952
0.28861284 0.021040007 -0.11733949
-0.28796077 0.042053327 -0.12326515
0.28751582 0.041743204 -0.12830126
-0.28695577 0.062739775 -0.13259006
0.31000116 0.10656083 -0.11724567
-0.30993119 0.12789392 -0.11774158
0.30924749 0.1272938 -0.12423921
-0.30946144 0.14886203 -0.1218096
0.30921009 0.14858419 -0.12458587
-0.3096081 0.17034268 -0.12053943
-0.28700152 0.16908965 -0.13216591
0.28699911 0.16894969 -0.13346493
0.30931216 0.17000863 -0.12363875
-0.28756142 0.19095367 -0.12697089
0.28750387 0.19078615 -0.12842095
0.30985245 0.19191724 -0.11862564
-0.28836694 0.21317849 -0.11949587
-0.26588613 0.21180096 -0.13067973
0.26585886 0.21160966 -0.13223231
0.28824174 0.21298721 -0.12104762
-0.26672569 0.23417437 -0.12229025
-0.24474066 0.23326066 -0.12927175
-0.22314857 0.23278829 -0.13288176
0.22324394 0.23272422 -0.13337219
0.24480321 0.23319459 -0.12977672
0.26662314 0.23395595 -0.12395895
-0.245781 0.25610763 -0.11800957
-0.22407146 0.25555718 -0.12198317
-0.20242397 0.2550081 -0.12594533
-0.18091099 0.25460598 -0.12884641
-0.15945858 0.25423992 -0.13148928
0.15956166 0.25419024 -0.1318475
0.18098931 0.25455272 -0.12923193
0.20246769 0.25493595 -0.12646472
0.22407852 0.25548115 -0.12253094
0.24575312 0.2560316 -0.11855876
-0.16032174 0.27755916 -0.11747348
-0.13878798 0.27713415 -0.12037897
-0.11735534 0.27688789 -0.12206328
-0.095955402 0.27666715 -0.12357211
-0.074579157 0.27644864 -0.1250658
-0.053242866 0.27633759 -0.12582541
-0.031923193 0.27627319 -0.12626517
-0.010610289 0.276209 -0.12670434
0.01069585 0.27619919 -0.12677097
0.03200496 0.2762655 -0.12631834
0.05332084 0.27632979 -0.12587881
0.074647494 0.27641943 -0.12526572
0.096010692 0.27663773 -0.12377214
0.11739747 0.27685854 -0.12226367
0.13880754 0.27707934 -0.12075353
0.16031529 0.27750227 -0.11786246
-0.22542545 -0.085676588 -0.10599315
-0.20380083 -0.08570832 -0.10805941
-0.18223532 -0.085734025 -0.10973179
-0.16070727 -0.085756816 -0.11121356
-0.13921298 -0.085776597 -0.11249197
-0.11775085 -0.085792027 -0.1135006
-0.096305303 -0.085807204 -0.11448145
-0.074887291 -0.085816093 -0.11505878
-0.053476941 -0.085825801 -0.11568975
-0.032082289 -0.085829534 -0.11593115
-0.010691672 -0.085832596 -0.1161325
0.01069585 -0.085833013 -0.11615956
0.032084715 -0.085829943 -0.11595821
0.053476468 -0.085826978 -0.11577034
0.074881352 -0.085817322 -0.11513937
0.096294299 -0.085808426 -0.11456203
0.11772856 -0.085794583 -0.11366177
0.13918228 -0.08577884 -0.1126399
0.16066122 -0.085760444 -0.11144245
0.18217857 -0.08573699 -0.10992026
0.20372322 -0.085712716 -0.10834277
0.22532973 -0.08568088 -0.10627699
0.24725395 -0.085597076 -0.10083473
-0.24634293 -0.064347945 -0.11192703
0.24615528 -0.064391434 -0.1138097
0.26834765 -0.042723686 -0.10529041
-0.28967661 0.021578565 -0.10734415
0.31189266 0.086532921 -0.099694967
-0.31087476 0.10721076 -0.10956991
-0.31014329 0.19223154 -0.11590457
0.3107253 0.21428314 -0.1105268
-0.31093079 0.21446082 -0.10908449
-0.28939024 0.2357825 -0.11000121
0.28917739 0.23556057 -0.11169827
0.31186923 0.23710302 -0.099912047
-0.2678881 0.25712407 -0.11067486
0.26768363 0.25687391 -0.11247849
-0.24723729 0.27978653 -0.10224473
-0.22536597 0.27913558 -0.10669589
-0.20356426 0.27848658 -0.11113286
-0.18191275 0.27801052 -0.11438739
0.18187702 0.27794769 -0.11481726
0.20348889 0.27839997 -0.11172521
0.22525071 0.27904665 -0.10730338
0.24708295 0.27969727 -0.10285425
-0.13988867 0.30163372 -0.099952817
-0.11827885 0.30130801 -0.10206854
-0.09671165 0.30102235 -0.10392392
-0.075173102 0.3007372 -0.10577691
-0.053684335 0.30059355 -0.10670936
-0.032216374 0.30051461 -0.10722244
-0.010756313 0.30043551 -0.10773551
0.01069585 0.30042523 -0.10780287
0.032151438 0.3005043 -0.10729003
0.053614724 0.30058116 -0.1067903
0.075091638 0.30069765 -0.1060338
0.096613944 0.30098289 -0.10418117
0.11816487 0.30126846 -0.10232604
0.13974634 0.30156064 -0.10042787
-0.22710583 -0.10698934 -0.086148977
-0.20533356 -0.10700467 -0.088148832
-0.18360361 -0.10701887 -0.089981914
-0.1619214 -0.10703042 -0.091498494
-0.14027216 -0.10704075 -0.092836142
-0.11865806 -0.10704862 -0.093858838
-0.097060777 -0.10705628 -0.09485364
-0.075491421 -0.10706083 -0.095439315
-0.053930458 -0.10706553 -0.096051931
-0.032384794 -0.10706737 -0.096283197
-0.010843004 -0.1070688 -0.096473694
0.01069585 -0.10706901 -0.096500993
0.032236066 -0.10706742 -0.096296906
0.053778794 -0.10706614 -0.096133471
0.075334415 -0.10706149 -0.095520854
0.096898638 -0.10705689 -0.094935536
0.118485 -0.10704974 -0.094008803
0.14009069 -0.10704177 -0.092972636
0.16172415 -0.10703221 -0.091716886
0.18339469 -0.1070203 -0.090173244
0.20510145 -0.10700712 -0.088449955
0.22685912 -0.10699128 -0.08640945
-0.24775532 -0.085532434 -0.09663713
-0.269063 -0.042528018 -0.098934412
0.2920858 0.0012646317 -0.082635522
-0.31213576 0.23726821 -0.098649144
-0.3138659 0.26086634 -0.083665848
-0.29080999 0.25904286 -0.096827507
0.29047373 0.25877705 -0.098744273
0.31345004 0.2606478 -0.08524406
-0.2696119 0.28107283 -0.093449831
0.26924255 0.28075814 -0.095602751
-0.2272882 0.30409065 -0.083995342
-0.20526507 0.30331424 -0.089038253
-0.18340304 0.30272314 -0.092876911
-0.16161667 0.30217364 -0.096446514
0.16144289 0.30209813 -0.096936345
0.18319795 0.30264765 -0.093367934
0.2050133 0.30320895 -0.089722037
0.22699215 0.30398497 -0.08468163
-0.032596186 0.32595876 -0.082553148
-0.010948156 0.32591647 -0.082814097
0.01069585 0.32590991 -0.082855463
0.032341547 0.32595208 -0.082594395
-0.14065318 0.39030325 -0.085765243
-0.11889713 0.38976425 -0.088682771
-0.097202003 0.38930202 -0.091184378
-0.075585864 0.38908267 -0.092372179
-0.053988028 0.38886333 -0.093558908
-0.032418974 0.38877016 -0.094063282
-0.010859045 0.38870966 -0.094390392
0.01069585 0.38870227 -0.094431281
0.032252841 0.38876015 -0.094117761
0.053815916 0.38883322 -0.093722582
0.075403355 0.38905245 -0.092535973
0.097009093 0.3892718 -0.091348171
0.11867473 0.389691 -0.08907938
0.14040521 0.39022988 -0.086162925
0.1622135 0.3908816 -0.082635641
-0.18529937 -0.12860768 -0.065505862
-0.16341853 -0.12860768 -0.067187905
-0.11976684 -0.12860762 -0.069852948
-0.097981445 -0.12860768 -0.070934057
-0.076225512 -0.12860762 -0.071599126
-0.054479826 -0.12860762 -0.072263718
-0.032750335 -0.12860768 -0.072540641
-0.011025858 -0.12860768 -0.072720289
0.01069585 -0.12860762 -0.072734237
0.032418728 -0.12860762 -0.072568178
0.054145016 -0.12860772 -0.072346687
0.075884633 -0.12860762 -0.071696043
0.097634695 -0.12860762 -0.071031094
0.14120337 -0.12860762 -0.068881869
0.16303395 -0.12860768 -0.067410231
0.18489926 -0.12860768 -0.065742373
-0.14157118 -0.12860757 -0.068729281
0.1194089 -0.12860757 -0.070005536
0.2496569 -0.10688387 -0.072457433
0.27167758 -0.063362211 -0.069242597
-0.31459692 0.088254228 -0.077335119
-0.29294643 0.28347826 -0.077003837
0.29241899 0.28314152 -0.079306126
-0.27213994 0.30652434 -0.068187833
-0.24939829 0.30488247 -0.078851461
0.2490548 0.30477229 -0.07956779
0.27156359 0.30617189 -0.07047677
-0.20691824 0.32838193 -0.067562938
-0.18488872 0.32775649 -0.071432829
-0.16294409 0.32719719 -0.074891448
-0.14108366 0.32673091 -0.077776432
-0.11932131 0.3264524 -0.079498887
-0.097606212 0.32626098 -0.080682874
-0.075921655 0.32613423 -0.081466913
-0.054249179 0.3260076 -0.082250834
0.053991266 0.32599422 -0.082333326
0.075656444 0.32611647 -0.081576943
0.097334109 0.32624319 -0.080792904
0.11903659 0.32642347 -0.079677939
0.14077792 0.3266795 -0.07809341
0.16260549 0.32712141 -0.075361133
0.18451981 0.32768035 -0.071903706
0.20650621 0.32828325 -0.068174005
-0.27192339 0.37141103 -0.070351839
-0.24994546 0.37095493 -0.072928071
-0.22813518 0.37076631 -0.073992968
-0.20636794 0.37063915 -0.0747118
-0.18461752 0.37052652 -0.075347304
-0.16288456 0.37043607 -0.075858355
-0.14116396 0.37036029 -0.076286197
-0.11945439 0.37030166 -0.076617479
-0.097750992 0.37024781 -0.076921225
-0.076054834 0.37020877 -0.077141762
-0.05436207 0.37016961 -0.077362657
-0.032674607 0.37015256 -0.077459216
-0.010988954 0.37014285 -0.07751441
0.01069585 0.37014049 -0.077528119
0.032380972 0.37015009 -0.077472925
0.05406737 0.37016481 -0.077390313
0.075758226 0.37020385 -0.077169538
0.097452484 0.37024301 -0.076948762
0.11915227 0.37029186 -0.076672792
0.14085883 0.37035048 -0.07634151
0.16257499 0.37042373 -0.075927377
0.18430264 0.3705118 -0.075430393
0.20604654 0.37062198 -0.074808478
0.22780858 0.37075165 -0.074075937
0.24960299 0.37092555 -0.073093891
0.27149448 0.37125644 -0.071225047
-0.22878909 0.39390498 -0.066270709
-0.20654467 0.39276969 -0.072415948
-0.18445115 0.39178431 -0.077748775
-0.16250359 0.39099061 -0.082044601
0.18412332 0.39167482 -0.078341603
0.20615479 0.39261621 -0.073246121
0.22834525 0.39375085 -0.067104697
-0.2292361 -0.12860762 -0.060991883
-0.20724271 -0.12860762 -0.063348174
0.20681931 -0.12860762 -0.063654542
0.22878893 -0.12860768 -0.06134069
-0.25072235 -0.10682275 -0.064517975
-0.27364707 -0.06299004 -0.053128004
-0.29425457 0.0020853579 -0.064865828
0.31602466 0.067675129 -0.061354756
-0.31666785 0.28605306 -0.05940032
0.31577227 0.28542468 -0.063696504
-0.29531559 0.30855149 -0.055021048
0.29476517 0.30842218 -0.055861354
-0.25145733 0.33016044 -0.05656147
-0.22906488 0.32911742 -0.063013673
0.22861189 0.32901603 -0.063640833
0.25090462 0.32997262 -0.057723045
0.27354783 0.33138323 -0.048996568
-0.076591671 0.35147369 -0.059707522
-0.054746259 0.35130107 -0.060726762
-0.032925129 0.35122314 -0.061187387
-0.011111741 0.35115933 -0.061563969
0.01069585 0.35115227 -0.061605811
0.032505911 0.35121384 -0.061243057
0.05432177 0.35127753 -0.060866356
0.076159239 0.35145718 -0.059805274
-0.29604372 0.35341159 -0.048264861
-0.2739141 0.35303998 -0.050459266
-0.25189769 0.35281381 -0.051794291
-0.22993171 0.35264742 -0.052777052
-0.20800355 0.35253102 -0.053464651
-0.18607435 0.35238615 -0.054319978
-0.1641497 0.35221758 -0.055315137
-0.14222911 0.3520138 -0.056519628
-0.12032323 0.35179573 -0.057806849
-0.098442592 0.35160139 -0.058953047
0.098003596 0.351585 -0.059051037
0.11987142 0.35176483 -0.057988524
0.14176661 0.35198507 -0.056687474
0.16367815 0.35219386 -0.055455208
0.18559404 0.35236228 -0.054460406
0.20751946 0.35251677 -0.053548932
0.22944058 0.35263082 -0.0528754
0.25139233 0.35278529 -0.051962852
0.27339196 0.35300186 -0.050684214
0.29549727 0.35336408 -0.048546314
-0.2953352 0.37415773 -0.054838777
0.29455373 0.37360245 -0.057974577
-0.25154141 0.39586681 -0.055651426
0.25094724 0.39557719 -0.057219386
-0.16450243 0.41888702 -0.049587488
-0.14238693 0.41811657 -0.053590894
-0.12038203 0.41755015 -0.056533575
-0.098427534 0.41700941 -0.059344292
-0.076549977 0.41667879 -0.06106174
-0.054698911 0.4163487 -0.062776923
-0.032888431 0.41619587 -0.063571215
-0.011091894 0.4160859 -0.064142108
0.01069585 0.41606998 -0.064225435
0.032487344 0.41617972 -0.063654542
0.054288704 0.4163031 -0.063013792
0.076124743 0.41663307 -0.061298847
0.097987674 0.41696626 -0.05956769
0.1199118 0.41747206 -0.056939483
0.14189085 0.41803825 -0.053997517
0.16396175 0.41877067 -0.050192118
-0.20965084 -0.15064238 -0.032065749
-0.18683098 -0.150555 -0.043398857
-0.16531354 -0.15060875 -0.036416769
-0.14321986 -0.15059566 -0.038133621
-0.12117363 -0.1505859 -0.039395094
-0.099149585 -0.15057671 -0.040584564
-0.077156968 -0.15057078 -0.041348815
-0.055176783 -0.15056527 -0.042084336
-0.033214018 -0.15056266 -0.042423725
-0.011257232 -0.15056066 -0.042663932
0.01069585 -0.15056062 -0.042678118
0.032650456 -0.1505622 -0.042466164
0.054609634 -0.15056455 -0.042169213
0.076582856 -0.15056998 -0.041461945
0.098569155 -0.15057595 -0.040683866
0.12058054 -0.15058458 -0.039565086
0.14261574 -0.15059429 -0.038303733
0.1646903 -0.15060681 -0.036672354
0.1868076 -0.15062158 -0.034754753
0.20898418 -0.15063971 -0.032407522
0.25308925 -0.12860768 -0.031923294
0.296758 -0.018583722 -0.035948038
-0.31925619 0.069363564 -0.036984563
-0.31888136 0.3108286 -0.040230751
0.31791717 0.31027994 -0.043794274
-0.29761463 0.33385819 -0.033688188
-0.2741774 0.33157226 -0.047828078
0.29681912 0.33359149 -0.035337329
-0.3183378 0.35397497 -0.044937968
0.31773767 0.35388663 -0.045459867
-0.27498874 0.39880991 -0.039720893
0.27412239 0.39824545 -0.042777061
-0.18672435 0.41978174 -0.044938087
0.18612918 0.41962159 -0.045770288
-0.18861768 -0.17289947 -0.017610312
-0.23202483 -0.15067309 -0.028058648
0.23121805 -0.15065986 -0.029785633
-0.25456345 -0.12860762 -0.022937059
0.27590615 -0.084405966 -0.023467302
-0.29939392 -0.017861314 -0.017178774
0.32086471 0.048631683 -0.016444683
-0.32074428 0.33540854 -0.024097443
0.31998286 0.33532301 -0.024627328
-0.32070294 0.37953722 -0.024455547
0.31946692 0.37865919 -0.029414654
0.29850537 0.40273303 -0.018487573
-0.21229112 -0.17320511 0.0022326708
-0.16738531 -0.17312789 -0.0027755499
-0.14501482 -0.17309636 -0.0048233271
-0.12270277 -0.17307377 -0.00628829
-0.10041668 -0.17305267 -0.0076649189
-0.078166522 -0.17303887 -0.0085628033
-0.05593155 -0.17302589 -0.0094020367
-0.033715289 -0.17301874 -0.0098649263
-0.011507715 -0.17301485 -0.01012516
0.01069585 -0.1730143 -0.010154247
0.032901198 -0.17301838 -0.009893775
0.055112332 -0.17302421 -0.0095176697
0.07734029 -0.17303729 -0.0086641312
0.099581413 -0.17305043 -0.0078097582
0.12185411 -0.17307091 -0.0064768791
0.14415275 -0.17309335 -0.0050263405
0.16650197 -0.1731236 -0.0030516386
0.18889254 -0.17315677 -0.00089943409
0.21135785 -0.17319928 0.001853466
-0.27819094 -0.084163487 -0.0077229738
-0.23521627 -0.17331891 0.0096307993
0.23405391 -0.1732792 0.007053256
0.25696599 -0.1509959 0.013858676
0.30189103 -0.039009213 0.015344262
-0.19226706 -0.19626197 0.035064101
-0.16956784 -0.19620654 0.032664418
-0.14691621 -0.19615564 0.030462265
-0.1243247 -0.19611794 0.028827548
-0.1017647 -0.19608395 0.027357697
-0.0792429 -0.19606172 0.026393652
-0.05673768 -0.19604108 0.025504231
-0.034252081 -0.19602951 0.025000453
-0.01177572 -0.19602232 0.024689436
0.01069585 -0.19602165 0.024659753
0.033169471 -0.19602844 0.024955869
0.055649936 -0.19603883 0.025400519
0.078147173 -0.19605902 0.026275039
0.10065881 -0.19607991 0.027179718
0.12320496 -0.19611308 0.028619528
0.14578159 -0.19615057 0.030239224
0.16841052 -0.19619969 0.032366633
0.19108436 -0.19625334 0.034691215
-0.25942346 -0.15111756 0.029674292
0.28052443 -0.106122 0.026527166
-0.30504993 -0.03839457 0.035302639
-0.32660872 0.051288173 0.026690364
0.19215228 -0.21933582 0.052032113
-0.23849663 -0.19656929 0.048369884
-0.21506335 -0.19633541 0.038244724
0.21384907 -0.19632545 0.037811399
0.23703881 -0.19651058 0.045828342
-0.28381187 -0.10595322 0.048444986
-0.19479385 -0.21993631 0.07153523
-0.17180924 -0.21986023 0.069060326
-0.14886872 -0.21978736 0.066696167
-0.1259957 -0.21973532 0.06500566
-0.10314935 -0.21968377 0.063332081
-0.080347545 -0.21965112 0.062268019
-0.057564948 -0.21962209 0.061326265
-0.034802936 -0.21960518 0.06077981
-0.012050857 -0.21959449 0.060430765
0.01069585 -0.21959311 0.060385108
0.033444893 -0.2196039 0.060734153
0.056201179 -0.21961831 0.061204791
0.078975588 -0.21964733 0.062146425
0.10176546 -0.21967722 0.063119173
0.12459726 -0.2197288 0.064792395
0.1474514 -0.21977806 0.066391587
0.17037135 -0.21985076 0.068755031
0.26158607 -0.174224 0.068419456
0.3286908 0.03038983 0.05617249
-0.21787821 -0.22003728 0.074810982
0.21638595 -0.22002554 0.074427962
0.2400903 -0.22036546 0.085468292
-0.26453188 -0.1744789 0.084974527
0.30790192 -0.060021594 0.075408697
-0.15092495 -0.24405102 0.10485518
-0.12775327 -0.24398188 0.10305834
-0.10461834 -0.24392179 0.10149741
-0.081520446 -0.2438781 0.10035908
-0.058444422 -0.24384135 0.099408388
-0.035388552 -0.24381873 0.098816633
-0.012344073 -0.24380723 0.098520756
0.01069585 -0.243806 0.098489404
0.033737808 -0.24381745 0.0987854
0.056787442 -0.24383661 0.099283695
0.079855196 -0.24387315 0.10023439
0.10294095 -0.24391398 0.10129464
0.1260623 -0.24397406 0.10285521
0.14921424 -0.24403968 0.10455835
-0.24218422 -0.22056404 0.091918349
0.28636038 -0.12860762 0.089703321
-0.22084886 -0.24438001 0.11340082
-0.19745825 -0.24424884 0.1099925
-0.17415337 -0.2441384 0.10712409
0.17242372 -0.24412747 0.10684216
0.19569562 -0.24423259 0.10956907
0.21905448 -0.24436238 0.11294484
-0.29036263 -0.12860768 0.11390412
-0.31324488 -0.059191711 0.11134231
-0.059370484 -0.26874036 0.13950837
-0.036005437 -0.26871151 0.13888443
-0.012651839 -0.26869386 0.13850069
0.01069585 -0.26869157 0.13845265
0.034046125 -0.26870924 0.13883662
0.057404768 -0.26873446 0.13938034
0.080782883 -0.26878178 0.14040458
0.243717 -0.24511822 0.13258076
0.26652247 -0.19837847 0.12671542
-0.33936447 0.034753844 0.13715827
-0.22405566 -0.26945859 0.1550585
-0.20032327 -0.26928705 0.15134537
-0.17668028 -0.26913971 0.14815617
-0.15311274 -0.26901501 0.14545548
-0.12962033 -0.26892376 0.14348114
-0.10616764 -0.2688438 0.14174974
-0.082757466 -0.26878768 0.14053249
0.10418024 -0.26883435 0.1415416
0.12761734 -0.26891339 0.14325666
0.15108763 -0.2689994 0.14511812
0.17463176 -0.26912415 0.14781833
0.19823959 -0.26926541 0.15087783
0.22194083 -0.26943767 0.15460598
-0.24646357 -0.24549825 0.14245498
-0.27001804 -0.19878611 0.14436364
0.29266965 -0.1521055 0.15800309
0.31641075 -0.081574664 0.16043413
-0.17928642 -0.29484209 0.19047439
-0.15539081 -0.29469436 0.18773139
-0.13156204 -0.29457518 0.18552029
-0.10778325 -0.2944783 0.18372416
-0.084047891 -0.29440928 0.18244016
-0.060337644 -0.29435247 0.18138742
-0.036649182 -0.29431534 0.18069696
-0.01297363 -0.294294 0.18030238
0.01069585 -0.29429126 0.18025315
0.034367986 -0.29431266 0.18064773
0.058049485 -0.29434532 0.18125582
0.081750996 -0.2944029 0.18232489
0.10547254 -0.29446691 0.18351007
0.12923582 -0.29456353 0.18530583
0.15303983 -0.29467565 0.18738461
0.1769125 -0.2948243 0.1901437
0.24774662 -0.27083811 0.18492687
0.27170455 -0.22351992 0.18791282
-0.29729542 -0.15229933 0.18318081
0.342042 0.013397709 0.18005621
-0.22732949 -0.29522535 0.19758689
-0.2032671 -0.29502326 0.19383597
0.20085654 -0.29499829 0.19337201
0.22488759 -0.29520124 0.19713831
-0.2509661 -0.27133241 0.19562745
-0.27568564 -0.22406812 0.20571744
-0.32326472 -0.080898963 0.20431507
-0.34593013 0.014042765 0.19401836
-0.085377567 -0.32075444 0.22562265
-0.061335783 -0.32069197 0.22460794
-0.037314046 -0.32064718 0.22388101
-0.013305976 -0.32062227 0.22347534
0.01069585 -0.32061911 0.22342467
0.034700405 -0.32064411 0.22383034
0.058714852 -0.32068366 0.22447264
0.082748182 -0.32074723 0.2255044
-0.23084867 -0.3218433 0.24330223
-0.20629068 -0.32148451 0.23747778
-0.18196398 -0.32126755 0.23395276
-0.15773223 -0.32109684 0.23118246
-0.13356371 -0.32095367 0.22885799
-0.10944869 -0.32083896 0.22699404
0.10680471 -0.32082546 0.22677386
0.13090301 -0.32093918 0.22862053
0.1550463 -0.3210749 0.2308259
0.17925486 -0.32124647 0.23361242
0.20354442 -0.32145619 0.23701751
0.2279153 -0.32169157 0.24083996
0.25195879 -0.29749173 0.23964453
0.29936695 -0.17671958 0.23050344
-0.25587976 -0.29824674 0.25365484
0.27713296 -0.24971551 0.25201929
-0.30465347 -0.17712291 0.25670671
-0.16015942 -0.34827882 0.27622557
-0.1356346 -0.34810328 0.27369404
-0.11117036 -0.34796685 0.27172399
-0.086750463 -0.34786192 0.27020884
-0.062364373 -0.34778827 0.26914728
-0.037999719 -0.3477377 0.26841688
-0.013648587 -0.3477076 0.26798236
0.01069585 -0.34770402 0.26793027
0.035043098 -0.3477329 0.26834726
0.059400789 -0.3477799 0.26902568
0.083777368 -0.34785217 0.2700696
0.10818184 -0.34795111 0.27149761
0.13262782 -0.34808508 0.27343237
0.15712708 -0.34825453 0.27587605
-0.28163666 -0.25041294 0.27013934
0.3264429 -0.10431942 0.26068115
-0.23458342 -0.34935904 0.29181814
-0.20944957 -0.34875304 0.28307235
-0.18475367 -0.34848842 0.27925146
0.18169342 -0.34846163 0.27886629
0.20635149 -0.34872016 0.28259861
0.23124078 -0.34915262 0.28883898
0.2566835 -0.32539773 0.30102026
0.3065531 -0.20257197 0.30829549
-0.18763752 -0.37652436 0.32607949
-0.1626702 -0.37627345 0.32282007
-0.13777494 -0.37605894 0.32003379
-0.11294761 -0.37589449 0.31789804
-0.088168129 -0.37576756 0.31624889
-0.063424833 -0.3756766 0.31506681
-0.038705815 -0.37561595 0.31427908
-0.01400154 -0.3755815 0.31383193
0.01069585 -0.37557739 0.31377828
0.035396267 -0.37561184 0.31422544
0.060107432 -0.37566549 0.31492352
0.084840529 -0.37575647 0.31610548
0.10960288 -0.37587532 0.31764698
0.13441114 -0.37603825 0.31976449
0.15927787 -0.37624431 0.32244229
0.18421714 -0.37649524 0.325701
-0.26124838 -0.32638529 0.31705534
0.28281477 -0.27703613 0.31911802
-0.23848876 -0.37779227 0.34254992
-0.21272558 -0.3768537 0.33035755
0.2092604 -0.37681335 0.32983351
0.2347376 -0.37754297 0.33931136
-0.28857991 -0.27824554 0.3453021
-0.31258026 -0.20320976 0.33591616
-0.19092736 -0.40583956 0.37949991
-0.16553593 -0.40554339 0.37600112
-0.14020985 -0.4052681 0.372751
-0.11496683 -0.4050656 0.37035942
-0.089772724 -0.4048962 0.3683598
-0.064622693 -0.40477565 0.36693561
-0.039502576 -0.40469894 0.3660301
-0.01440009 -0.40466297 0.36560512
0.01069585 -0.40465832 0.3655498
0.035794776 -0.40469581 0.36599302
0.060905937 -0.40476316 0.36678779
0.086043447 -0.40488219 0.36819327
0.11121745 -0.40504199 0.37008154
0.13643989 -0.40524453 0.37247288
0.16173276 -0.4055087 0.37559223
0.18709406 -0.4058049 0.37908995
0.26172352 -0.35453263 0.36649203
-0.21646765 -0.40625194 0.38436949
0.21258442 -0.40620452 0.38380909
0.23865961 -0.40723008 0.3959204
-0.2670418 -0.35584754 0.38547218
0.31460753 -0.22991146 0.39548743
-0.24286839 -0.40752834 0.39944291
0.28960371 -0.30609453 0.39929211
-0.11727015 -0.43572608 0.43020129
-0.091607198 -0.43551677 0.42793584
-0.065993346 -0.43536454 0.42628682
-0.040413175 -0.43526188 0.42517567
-0.014855127 -0.43521941 0.424716
0.01069585 -0.43521571 0.42467761
0.036249921 -0.43525651 0.42511809
0.061819032 -0.43534669 0.42609513
0.087418713 -0.43549907 0.42774403
0.11305919 -0.43569764 0.42989385
-0.29622748 -0.30764627 0.42808938
-0.22075437 -0.43720794 0.44624317
-0.19468944 -0.43668553 0.44058859
-0.16879676 -0.43630928 0.43651474
-0.1429877 -0.43597472 0.43289304
0.13875361 -0.43594632 0.43258536
0.16452616 -0.43626824 0.43607116
0.19038299 -0.43664283 0.44012487
0.21638995 -0.43714878 0.44560313
0.26717475 -0.38508651 0.43730557
-0.24785522 -0.43886888 0.46422374
0.24312584 -0.43851435 0.4603852
-0.32438967 -0.23171082 0.45392263
-0.27437264 -0.38776079 0.4720453
-0.093755037 -0.46807298 0.49768913
-0.067591086 -0.46785101 0.49547076
-0.041474231 -0.46771309 0.49409306
-0.015384582 -0.4676533 0.49349439
0.01069585 -0.46764722 0.49343455
0.036780275 -0.46770516 0.49401307
0.062883757 -0.46782908 0.49525094
0.089027554 -0.46804503 0.49740911
0.11522439 -0.46832544 0.50021088
-0.1993141 -0.46987388 0.51568353
-0.17272259 -0.46924186 0.50936878
-0.14629056 -0.46874487 0.50440216
-0.11997948 -0.46836355 0.50059152
0.14150085 -0.46870071 0.50396061
0.16787909 -0.4691714 0.50866413
0.19441643 -0.46980301 0.51497626
0.29886514 -0.33818531 0.50866413
-0.22615919 -0.47073156 0.52425456
0.22117108 -0.47063002 0.52323937
0.27413264 -0.41838816 0.52769125
-0.25451559 -0.47338253 0.55074453
0.24896808 -0.47277862 0.54471028
-0.28083771 -0.42014122 0.54839432
-0.30648479 -0.34006149 0.53912783
0.3286221 -0.26107699 0.54719973
0.30688003 -0.37094015 0.60331547
-0.043375403 -0.50710642 0.61757791
-0.016319659 -0.50682485 0.61496425
0.01069585 -0.50679243 0.61466479
0.03772933 -0.50707638 0.61729908
0.28037059 -0.45221731 0.60872483
-0.097909383 -0.50872594 0.63260543
-0.070524558 -0.50763631 0.62249398
0.064829886 -0.50754583 0.62165582
0.092096388 -0.50847685 0.63029373
-0.28812245 -0.45459124 0.63442278
-0.31544977 -0.37321681 0.63617682
0.28707319 -0.4878982 0.69579399
0.31690064 -0.40697563 0.72165322
-0.29611444 -0.49120155 0.72880387
-0.41436312 -0.44031754 0.78666568
0.40754703 -0.44041929 0.78786719
-0.35960767 -0.47042623 0.80584204
-0.38730159 -0.44131997 0.79850304
0.32375574 -0.44166753 0.80260837
0.38038594 -0.44142234 0.7997123
-0.41619855 -0.41320401 0.80256069
-0.33062008 -0.41303763 0.80040038
0.40926123 -0.41329724 0.80377257
-0.36007026 -0.44233286 0.81046474
-0.33162254 -0.44239938 0.81125188
0.3530539 -0.44243586 0.81168175
-0.38902572 -0.41412306 0.81450093
0.38198793 -0.41421694 0.81572056
-0.3616744 -0.4150463 0.82649422
0.35453564 -0.4151409 0.82772207
0 0 0 1 0 0 0 1 0 0 0 1 0 0 0 0 0 1088 1 0 0
