ply
format ascii 1.0
comment PCL generated
element vertex 1318
property float x
property float y
property float z
element camera 0
property float view_px
property float view_py
property float view_pz
property float x_axisx
property float x_axisy
property float x_axisz
property float y_axisx
property float y_axisy
property float y_axisz
property float z_axisx
property float z_axisy
property float z_axisz
property float focal
property float scalex
property float scaley
property float centerx
property float centery
property int viewportx
property int viewporty
property float k1
property float k2
end_header
-0.39515471 -0.1671409 -0.11734116
-0.37155667 -0.16703692 -0.11959541
-0.34801143 -0.1669395 -0.12170267
0.18777506 -0.16744384 -0.11078346
-0.48996237 -0.14420041 -0.10792065
-0.46619156 -0.14410639 -0.11036563
-0.44264928 -0.14406 -0.1115706
-0.41900837 -0.14398278 -0.11357665
-0.39536321 -0.14389579 -0.11583662
-0.37220794 -0.14394274 -0.1146189
-0.34868857 -0.14388159 -0.11620474
-0.32520121 -0.14382321 -0.11772501
-0.30171677 -0.14375731 -0.11943567
-0.27827641 -0.1436983 -0.1209687
-0.2548672 -0.1436424 -0.12242031
0.23457904 -0.14414409 -0.10938478
-0.44335505 -0.12085371 -0.10698652
-0.4191609 -0.12068289 -0.11253393
-0.39610347 -0.12074561 -0.11049426
-0.37252489 -0.12069321 -0.1121968
-0.34898856 -0.12064484 -0.11376917
-0.32548404 -0.12059834 -0.11527598
-0.30200288 -0.12055205 -0.11678112
-0.27853701 -0.12050331 -0.11836481
-0.25512519 -0.1204645 -0.11962724
-0.23172213 -0.12042161 -0.1210165
-0.20836383 -0.12038824 -0.12210143
0.2571758 -0.12047284 -0.11935568
-0.41955325 -0.097404718 -0.10985124
-0.39644223 -0.097446382 -0.10804939
-0.37284237 -0.097406596 -0.10977089
-0.34928903 -0.09737058 -0.11132967
-0.32576358 -0.097335331 -0.11285496
-0.30228081 -0.097304247 -0.11420202
-0.27879801 -0.097268328 -0.11575663
-0.25537482 -0.097241372 -0.11692524
-0.23195343 -0.09720993 -0.11828482
-0.20858258 -0.097187445 -0.11925983
-0.18521018 -0.097159415 -0.12047362
-0.16187915 -0.09713988 -0.12131965
0.047560204 -0.097102389 -0.12294638
0.070824042 -0.097108185 -0.12269139
0.094092548 -0.097114898 -0.12240434
0.11736988 -0.097124875 -0.12197375
0.1406471 -0.097130671 -0.12171853
0.16394593 -0.097145423 -0.12108028
0.18725547 -0.097160533 -0.12042582
0.21055543 -0.097168267 -0.12009048
0.23387606 -0.097181134 -0.11953151
0.25708112 -0.097156823 -0.12058556
0.28063124 -0.097230993 -0.11737335
0.3044315 -0.097355373 -0.11198807
-0.3732025 -0.074087627 -0.10701871
-0.34960583 -0.074060872 -0.1087575
-0.32604361 -0.07403513 -0.11042976
-0.30254191 -0.074014321 -0.11177933
-0.2790595 -0.07399331 -0.11314368
-0.25561598 -0.07397525 -0.11431456
-0.23218788 -0.073956788 -0.1155163
-0.20879433 -0.073941574 -0.11650884
-0.18541725 -0.073926464 -0.11748517
-0.16206016 -0.073912784 -0.11838078
-0.13872203 -0.073900416 -0.11917984
-0.11534534 -0.073871121 -0.12108028
-0.092068613 -0.073870204 -0.12114406
-0.068812028 -0.073878698 -0.12058544
-0.045533214 -0.073878191 -0.12061751
-0.02225513 -0.073878035 -0.12063336
0.0010203701 -0.073882461 -0.12034595
0.024300296 -0.073886842 -0.12005854
0.047584645 -0.073891312 -0.11977112
0.070873424 -0.073895797 -0.11948347
0.094166636 -0.073900118 -0.11919594
0.1174687 -0.073906779 -0.11876452
0.14078541 -0.073916651 -0.11812496
0.16411199 -0.073926464 -0.11748517
0.18744929 -0.073936641 -0.11682904
0.21077304 -0.073940814 -0.11655712
0.23401229 -0.073925301 -0.11756504
0.25756264 -0.073975101 -0.11433029
0.28091604 -0.073979989 -0.11400974
0.30428472 -0.073986694 -0.11357677
0.32802019 -0.074048713 -0.10954571
-0.3031522 -0.050711989 -0.10611641
-0.27960959 -0.050700285 -0.10764694
-0.25611296 -0.050690368 -0.1089344
-0.2326308 -0.050679937 -0.11028528
-0.20920046 -0.050672665 -0.11123335
-0.18577251 -0.050664015 -0.11235726
-0.16238464 -0.050658271 -0.1131115
-0.13899544 -0.050650537 -0.11410606
-0.11557867 -0.050635681 -0.11602867
-0.092265502 -0.050635681 -0.11602867
-0.068957776 -0.050637156 -0.11585259
-0.045640301 -0.050636142 -0.11598063
-0.022324547 -0.050635122 -0.11612475
0.00098676607 -0.050636142 -0.11598063
0.024300296 -0.050637461 -0.11580443
0.047616661 -0.050638989 -0.11561239
0.070935741 -0.050640307 -0.1154362
0.094259754 -0.050642446 -0.1151638
0.11759685 -0.050646771 -0.1146028
0.1409432 -0.050651196 -0.11402571
0.1642977 -0.050655521 -0.11346447
0.18766171 -0.050659843 -0.11288702
0.2110386 -0.050664879 -0.11224484
0.23442984 -0.050670274 -0.11153853
0.25784805 -0.050677344 -0.11062264
0.28138939 -0.050694384 -0.10841954
0.30497092 -0.050711833 -0.10614872
0.32834238 -0.05071041 -0.10632598
-0.1627688 -0.027322611 -0.10687387
-0.1158202 -0.027322663 -0.11079955
-0.092466787 -0.027322663 -0.11079955
-0.069063425 -0.027322611 -0.11242151
-0.045788903 -0.027322611 -0.10954571
-0.02242361 -0.027322611 -0.10969055
0.024300296 -0.027322611 -0.10957778
0.047664601 -0.027322663 -0.10938478
0.071032122 -0.027322611 -0.10917568
0.14118314 -0.027322611 -0.10779178
0.16458648 -0.027322611 -0.10721195
0.25803131 -0.027322611 -0.10824251
-0.18619932 -0.027322561 -0.106197
-0.13934696 -0.027322561 -0.10758233
0.00093883835 -0.027322561 -0.1097548
0.094406217 -0.027322561 -0.10882187
0.11778922 -0.027322561 -0.10835516
0.18799962 -0.027322561 -0.10661602
-0.069253594 -0.0039341506 -0.1062454
0.28127772 0.019400537 -0.10973847
-0.30438668 -0.21514367 -0.09466207
0.071304135 -0.21533798 -0.091508269
-0.28058437 -0.21494396 -0.09790647
-0.25683263 -0.21474448 -0.10114408
-0.2331313 -0.21454556 -0.10437477
0.024300296 -0.21446615 -0.10566509
0.047746103 -0.214889 -0.09879756
-0.42185566 -0.19169584 -0.094109774
-0.39729381 -0.19127589 -0.1019038
0.14134945 -0.19119145 -0.1034708
0.16515714 -0.19165561 -0.094856977
-0.51553601 -0.16814943 -0.09550631
-0.49083087 -0.16781291 -0.1027925
0.21198352 -0.16808496 -0.096901417
-0.56255329 -0.1446933 -0.095116615
-0.53807014 -0.14448315 -0.10057783
-0.51390868 -0.14432454 -0.10469735
0.25923935 -0.14479205 -0.092549443
-0.61061704 -0.12138435 -0.089749932
-0.58626801 -0.12125626 -0.093914747
-0.56206006 -0.12114032 -0.097679496
-0.53821361 -0.12107486 -0.099801421
-0.51428884 -0.12099025 -0.10255027
-0.49082264 -0.1209812 -0.10284102
-0.46703744 -0.12091074 -0.10513294
0.28193432 -0.12100765 -0.10198474
-0.58680499 -0.097834736 -0.091231585
-0.56313187 -0.097814485 -0.092110276
-0.53909111 -0.097746521 -0.095051646
-0.51517129 -0.097688377 -0.097566247
-0.49131003 -0.097633079 -0.099963188
-0.46749938 -0.097579718 -0.10227561
-0.44375715 -0.097531237 -0.10437465
0.32973894 -0.097808383 -0.09237051
-0.53968865 -0.074321687 -0.091817498
-0.51567394 -0.074276872 -0.094726801
-0.49179831 -0.074240595 -0.097079873
-0.46799359 -0.074207634 -0.099218607
-0.44421971 -0.07417462 -0.10137033
-0.42012075 -0.074103758 -0.10597134
-0.39684635 -0.074116677 -0.10513282
0.35220158 -0.074165665 -0.10195243
-0.51654655 -0.050837692 -0.08979857
-0.49267027 -0.05082126 -0.091931224
-0.46878529 -0.050802894 -0.094320893
-0.44498014 -0.050786614 -0.096431017
-0.42102793 -0.050760977 -0.099768877
-0.39760083 -0.050761588 -0.099687934
-0.37391633 -0.050747089 -0.10156441
-0.35029677 -0.05073493 -0.10314786
-0.32668689 -0.050721705 -0.10485876
0.3518571 -0.050719567 -0.10514903
0.37582853 -0.050757721 -0.10017359
-0.46958485 -0.027322663 -0.089375019
-0.42178911 -0.027322611 -0.094564676
-0.39835125 -0.027322611 -0.094272375
-0.37461993 -0.027322663 -0.096187711
-0.35098228 -0.027322663 -0.097582221
-0.30378222 -0.027322611 -0.10027051
-0.28019887 -0.027322611 -0.10175836
-0.25665942 -0.027322663 -0.10301864
-0.23313268 -0.027322611 -0.10435867
-0.20966883 -0.027322611 -0.10514903
0.21143785 -0.027322611 -0.10576189
0.23488255 -0.027322611 -0.10500383
0.30536601 -0.027322611 -0.10187161
0.32900992 -0.027322663 -0.099655628
0.35267082 -0.027322611 -0.097598553
0.375864 -0.027322663 -0.099866152
-0.44575563 -0.027322561 -0.091394305
-0.32733071 -0.027322561 -0.099283338
0.28177425 -0.027322561 -0.10387444
0.39977863 -0.02732251 -0.095993161
-0.37532818 -0.0038151108 -0.090775728
-0.35164824 -0.0038257949 -0.092175364
-0.32798249 -0.0038369857 -0.093638659
-0.30437618 -0.0038456861 -0.094759464
-0.28079045 -0.0038540289 -0.095847011
-0.25720355 -0.0038639996 -0.09712851
-0.23363785 -0.0038735624 -0.098392606
-0.21012411 -0.0038801767 -0.099234581
-0.18662785 -0.0038861278 -0.10001171
-0.16314556 -0.0038918257 -0.10075581
-0.13969041 -0.0038953871 -0.10120869
-0.11613035 -0.003917465 -0.10408425
-0.092714071 -0.0039198045 -0.10437477
-0.045938153 -0.0039097834 -0.10308313
-0.022523098 -0.0039109532 -0.10322869
0.00088984333 -0.0039121751 -0.10339022
0.024300296 -0.0039115138 -0.10330939
0.04771274 -0.0039101392 -0.10313177
0.071130395 -0.0039074942 -0.10279262
0.094553664 -0.0039047971 -0.10243702
0.11798289 -0.0039019994 -0.10206544
0.14142407 -0.0038977768 -0.1015321
0.16487572 -0.0038933512 -0.10095
0.18834855 -0.003887197 -0.10014105
0.21183683 -0.0038805325 -0.099283218
0.28213564 -0.0038830247 -0.099606991
0.30584311 -0.0038606916 -0.096706867
0.32950476 -0.0038453285 -0.094710708
0.35320446 -0.003829509 -0.092647076
0.37694377 -0.0038131271 -0.090515256
0.40028092 -0.0038238112 -0.091915131
0.42397568 -0.0038122125 -0.090417504
-0.42249337 0.019708309 -0.089749694
-0.39877707 0.01968598 -0.091198921
-0.37513226 0.019669443 -0.092272878
-0.35151204 0.01965398 -0.093281031
-0.32790369 0.019637957 -0.094321012
-0.30444443 0.019641008 -0.094126105
-0.28100008 0.019646656 -0.093752265
-0.25718108 0.019590899 -0.097371459
-0.23364748 0.019577011 -0.098279119
-0.21012661 0.019562818 -0.099202275
-0.18662001 0.019548524 -0.10012507
-0.16312861 0.019534636 -0.10103071
-0.13967039 0.019526139 -0.10158062
-0.11623704 0.01952314 -0.10177445
-0.092853352 0.019538809 -0.10075581
-0.069444045 0.019549593 -0.10006022
-0.046019923 0.019557476 -0.09954226
-0.022587579 0.01956521 -0.099040389
0.00085137226 0.019575283 -0.098392606
0.024300296 0.019596241 -0.097031236
0.047761947 0.019600667 -0.096739173
0.071229085 0.019606262 -0.096382499
0.094701737 0.019611705 -0.096025586
0.11818036 0.019617353 -0.095652223
0.14166662 0.019623864 -0.095230341
0.16517363 0.019635208 -0.094499707
0.18869893 0.019648384 -0.093638539
0.21223749 0.019661713 -0.092777014
0.30647224 0.019706022 -0.089896321
-0.39905468 0.043236464 -0.089195609
-0.37531966 0.043198615 -0.090840936
-0.35166627 0.043171145 -0.092028856
-0.32807258 0.043151967 -0.092858315
-0.3044847 0.043131419 -0.093752384
-0.28091067 0.043110713 -0.094645858
-0.25735191 0.043090411 -0.095522404
-0.23381631 0.043072864 -0.096285105
-0.21029499 0.043055974 -0.097014904
-0.18678494 0.043039136 -0.097744346
-0.1632861 0.043022297 -0.098473668
-0.13980551 0.043008409 -0.099072814
-0.1163424 0.042998791 -0.099493861
-0.09289135 0.042992435 -0.099768877
-0.069452018 0.042991623 -0.099801302
-0.046016928 0.042994574 -0.099671721
-0.022581842 0.043000624 -0.099412799
0.0008578524 0.043004692 -0.0992347
0.024300296 0.043008767 -0.099056482
0.047745354 0.043012582 -0.098894596
0.071193404 0.04301706 -0.098700285
0.094653428 0.043030538 -0.098116994
0.11812243 0.043043964 -0.097533822
0.14160667 0.043061264 -0.09678781
0.16510616 0.043080337 -0.095960736
0.18861754 0.043099061 -0.095149159
0.21214743 0.043120019 -0.094239593
0.28288758 0.043201208 -0.090726972
0.30652642 0.043233968 -0.089309931
-0.3049266 0.066742286 -0.089652181
-0.28132403 0.06671568 -0.090515256
-0.25773326 0.066688567 -0.091394424
-0.23416571 0.066665061 -0.092159152
-0.21062122 0.066645987 -0.092777133
-0.18708627 0.066626959 -0.093394756
-0.16355985 0.066607423 -0.094028592
-0.1400502 0.066592008 -0.094532013
-0.11655356 0.066579953 -0.094921827
-0.093059167 0.066565052 -0.095408916
-0.069580778 0.066558488 -0.095619917
-0.046105634 0.066552028 -0.095830798
-0.022631247 0.066540428 -0.096203923
0.00083540007 0.06653697 -0.096317649
0.024300296 0.066546887 -0.095993042
0.047769062 0.066552483 -0.095814466
0.07124383 0.066564538 -0.09542501
0.094727218 0.066579953 -0.094921827
0.11821736 0.0665944 -0.094450951
0.14171226 0.066606969 -0.094044924
0.16521266 0.066619024 -0.093654752
0.18874273 0.066644512 -0.09282577
0.2122886 0.06667152 -0.091947556
0.23584688 0.066698179 -0.091085196
0.25941473 0.06672316 -0.090270996
0.28300068 0.066750325 -0.089391351
-0.069771558 0.090267234 -0.089423895
-0.046170909 0.090129472 -0.093004704
0.024300296 0.090252176 -0.089815021
0.047814623 0.090249024 -0.089896441
0.071328446 0.09024775 -0.089928985
0.094848931 0.090258487 -0.089652061
0.11837366 0.090269066 -0.0893749
0.14190392 0.090281069 -0.089065433
-0.21207206 -0.24005766 -0.073930264
-0.18820584 -0.23982874 -0.07723546
-0.16439195 -0.23960139 -0.080517054
-0.14063777 -0.2393858 -0.083628058
-0.11715607 -0.23950708 -0.081876874
-0.093646869 -0.23962754 -0.080139875
-0.070111483 -0.23974918 -0.078384757
-0.046549115 -0.23987085 -0.076627493
-0.022959732 -0.23999269 -0.074868321
0.00065723248 -0.24011014 -0.073172927
-0.37722057 -0.21627368 -0.076315284
-0.35281989 -0.21588267 -0.082662821
-0.32852185 -0.21549442 -0.088967562
0.094975203 -0.21578898 -0.08418417
0.11876062 -0.21624325 -0.076808214
-0.49592242 -0.19284807 -0.072728038
-0.47070172 -0.19232328 -0.082466245
-0.44617191 -0.19198795 -0.0886904
0.18929391 -0.19231616 -0.082597136
-0.54115635 -0.16868667 -0.08387351
0.23652911 -0.16880852 -0.081237912
-0.61293828 -0.14532976 -0.07858181
-0.58730382 -0.14493881 -0.088739395
0.28430986 -0.14550872 -0.073930264
-0.66087097 -0.12182897 -0.075312376
-0.63538855 -0.12156378 -0.083922505
0.30697876 -0.12154882 -0.084412932
-0.65995067 -0.098107152 -0.079434872
-0.63512075 -0.097974882 -0.085164785
-0.61090159 -0.097900562 -0.088380694
0.35537067 -0.098266274 -0.072546959
-0.66035002 -0.074539773 -0.077645898
-0.6356107 -0.074459143 -0.082891822
-0.61224318 -0.074473947 -0.081925988
-0.58794075 -0.074417993 -0.085557103
-0.56375861 -0.074367374 -0.088853478
0.378371 -0.074531987 -0.078155041
-0.66118687 -0.050960138 -0.073897362
-0.63684052 -0.050934754 -0.077186108
-0.61320442 -0.050933942 -0.077301145
-0.58891338 -0.05090769 -0.080697298
-0.56468242 -0.050882 -0.084053278
-0.54062206 -0.05086099 -0.086765409
0.40130967 -0.050885767 -0.083562613
-0.5900175 -0.027322611 -0.075180769
-0.56576067 -0.027322663 -0.078450322
-0.54155546 -0.027322713 -0.081712961
-0.51746541 -0.027322663 -0.084609151
-0.4935092 -0.027322611 -0.086977482
0.42419529 -0.027322561 -0.088739395
-0.58984315 -0.0037017185 -0.076052308
-0.56553972 -0.0037290379 -0.079598784
-0.54160392 -0.0037432816 -0.081451058
-0.51787376 -0.0037498437 -0.08230257
-0.49412081 -0.0037579834 -0.083366394
-0.47040814 -0.003765054 -0.08428216
-0.44653112 -0.0037809759 -0.086357236
-0.42268172 -0.0037972052 -0.088462114
-0.39907724 -0.0038016308 -0.089032769
0.44820249 -0.0037724804 -0.085246801
-0.59002739 0.019933417 -0.075131536
-0.56589973 0.019893382 -0.077727914
-0.54182792 0.019854669 -0.080238342
-0.51776946 0.019813921 -0.082891822
-0.49389645 0.019786298 -0.084691048
-0.47004366 0.019757759 -0.086537004
-0.44624221 0.019731712 -0.088234067
0.33013663 0.019729167 -0.088396907
0.35383129 0.019753281 -0.086830735
0.37756157 0.019778971 -0.085164785
0.40131572 0.019804355 -0.083513618
0.42459893 0.019771442 -0.085655093
0.44833386 0.0197923 -0.084298491
0.47254026 0.019860569 -0.079861283
-0.56653553 0.043577708 -0.074423909
-0.54239184 0.043513864 -0.077186108
-0.51829439 0.043450631 -0.079926848
-0.49435917 0.04340373 -0.08195889
-0.47048479 0.043361001 -0.083808064
-0.44661158 0.043314144 -0.085834503
-0.42282006 0.043275379 -0.087516189
0.33009911 0.043246336 -0.088771939
0.35376796 0.043277569 -0.087418199
0.37746349 0.043310076 -0.086014271
0.40119484 0.043345079 -0.084494829
0.42500123 0.043389335 -0.082580686
0.44887149 0.043439344 -0.080418706
0.47269145 0.043476015 -0.078827739
0.49683219 0.043557212 -0.075312376
-0.51928908 0.067214727 -0.074308872
-0.49528989 0.067148291 -0.076463103
-0.47129518 0.06707646 -0.078795195
-0.44737226 0.067011908 -0.080893874
-0.42352992 0.066957526 -0.082662702
-0.40068007 0.067117512 -0.077465296
-0.37655705 0.066996798 -0.081385374
-0.35223618 0.066811472 -0.087401867
-0.32855386 0.06677179 -0.0886904
0.30661076 0.066780895 -0.088396907
0.33023944 0.066812538 -0.087369323
0.35386294 0.06683813 -0.086536884
0.37754458 0.066875875 -0.085312128
0.40124723 0.066914082 -0.08406961
0.4250398 0.066969067 -0.082286239
0.4488374 0.067018874 -0.080664515
0.47271541 0.067080632 -0.078663826
0.49659434 0.067136288 -0.076857686
0.52062368 0.067215137 -0.074292302
0.5446319 0.067283101 -0.072085381
-0.42502636 0.09092129 -0.072431564
-0.35344791 0.090723753 -0.077564001
-0.32962638 0.090652943 -0.079402089
-0.30588463 0.090600595 -0.080762982
-0.28217211 0.090551451 -0.082040668
-0.25848088 0.09050297 -0.083300829
-0.2348258 0.090461917 -0.084363937
-0.21119714 0.090426005 -0.085295439
-0.1875829 0.090390339 -0.086226583
-0.16398202 0.090353765 -0.087173581
-0.14040804 0.090326242 -0.087891459
-0.11685494 0.090306759 -0.088397026
-0.093309611 0.090287276 -0.088902235
-0.022844519 0.090539396 -0.082351565
0.00072801486 0.090538785 -0.082368016
0.16543895 0.090292975 -0.088755608
0.18899104 0.090313628 -0.088217616
0.21256451 0.090342574 -0.087467313
0.23614955 0.090371519 -0.086716413
0.25974616 0.090400368 -0.085965514
0.2833544 0.090429209 -0.085214019
0.30700141 0.090469651 -0.084167719
0.3306466 0.09050297 -0.083300829
0.35432282 0.0905426 -0.082269669
0.37803581 0.090589203 -0.081057787
0.40175748 0.090632796 -0.079926848
0.42551598 0.090681888 -0.078647256
0.44931027 0.090735808 -0.077251673
0.47314548 0.090794519 -0.07572341
0.49701458 0.090856068 -0.074127674
0.52094847 0.090927035 -0.072283268
-0.21217346 0.11456177 -0.072612882
-0.18846218 0.11451909 -0.073535085
-0.16476414 0.1144757 -0.074473619
-0.14108677 0.11443764 -0.075296044
-0.1174365 0.11441414 -0.075805783
-0.093790278 0.11438601 -0.076413989
-0.070153952 0.11435878 -0.077005386
-0.046530526 0.1143391 -0.077432513
-0.0229109 0.11431102 -0.078040004
0.00069457106 0.11431164 -0.078023672
0.024300296 0.11428452 -0.078614593
0.04790147 0.11428452 -0.078614593
0.071503147 0.11428605 -0.07858181
0.095108375 0.11429362 -0.07841742
0.11871612 0.1143011 -0.078253508
0.14232576 0.11430807 -0.078105807
0.16593766 0.11431488 -0.077958107
0.18956248 0.11433066 -0.077613115
0.21321081 0.11436032 -0.076972604
0.23686902 0.11438978 -0.076331735
0.26053587 0.11441872 -0.075706959
0.28421375 0.11444843 -0.075065613
0.30792889 0.11449167 -0.074127793
0.3316651 0.11453806 -0.073123217
0.35541686 0.1145844 -0.072118402
-0.33243263 -0.24136236 -0.055099368
-0.3080821 -0.24099705 -0.060372472
-0.28400019 -0.24076141 -0.063773155
-0.25997135 -0.24052633 -0.067166448
-0.23599537 -0.24029167 -0.070552111
0.024300296 -0.24022777 -0.071475625
0.047999278 -0.24061339 -0.065909266
0.071815223 -0.2411398 -0.058311939
-0.45104107 -0.21745919 -0.057064295
-0.42632425 -0.21705922 -0.063557863
-0.40172032 -0.21666503 -0.069958091
0.14266032 -0.2166986 -0.069413304
0.16668704 -0.21717161 -0.061733603
-0.52155083 -0.19345117 -0.061534643
0.2138412 -0.19317101 -0.066736341
-0.59362686 -0.16992113 -0.057147622
-0.56710935 -0.16926096 -0.071442723
0.26149282 -0.16963807 -0.063276052
-0.64040732 -0.14602038 -0.060638309
0.30968356 -0.14623237 -0.055132508
0.33241355 -0.12212672 -0.065644383
-0.68596286 -0.098348893 -0.068967581
-0.68580276 -0.074662879 -0.069660902
0.40442586 -0.07483834 -0.058261991
-0.68646663 -0.051014826 -0.06678617
0.42750806 -0.051040769 -0.063425183
-0.68772542 -0.027322663 -0.061335444
-0.66241282 -0.027322611 -0.068405747
-0.63813889 -0.027322611 -0.071162224
0.4509691 -0.027322663 -0.065280318
-0.61441183 -0.027322561 -0.071492076
-0.68809742 -0.0035760663 -0.059724808
-0.66353214 -0.0036041979 -0.063392043
-0.63886124 -0.0036382824 -0.067811012
-0.61439812 -0.0036672261 -0.071557999
0.47439706 -0.0036332961 -0.067166448
-0.68824703 0.020180602 -0.059076667
-0.66371715 0.020126931 -0.062563181
-0.639018 0.020057291 -0.067083716
-0.61448038 0.019994512 -0.071162343
0.49749655 0.019997008 -0.070997477
-0.66447693 0.043930247 -0.059159875
-0.63971728 0.043822095 -0.063839436
-0.61520439 0.043733425 -0.067678809
-0.59076244 0.043646187 -0.071459174
0.52112168 0.043651827 -0.071211576
0.54537535 0.043733075 -0.06769526
0.56979907 0.043829374 -0.063524604
0.59467924 0.043974765 -0.057230592
-0.6413427 0.067769177 -0.056298494
-0.61658841 0.067623891 -0.061020136
-0.5919196 0.067480534 -0.065677643
-0.56763333 0.067386828 -0.068719864
-0.54342854 0.067298919 -0.071574569
0.56879735 0.067372583 -0.069182158
0.59310329 0.067477942 -0.065760374
0.61759114 0.067603894 -0.061667442
-0.56997573 0.09153261 -0.056548238
-0.5455749 0.091401413 -0.059957385
-0.52125424 0.091276117 -0.063209772
-0.49710247 0.091177985 -0.065760374
-0.47303346 0.09109018 -0.068042397
-0.4489823 0.090997949 -0.070436478
-0.40195143 0.091080666 -0.068290114
-0.37791434 0.090975925 -0.071013927
0.54491109 0.090997949 -0.070436478
0.56898451 0.091086924 -0.06812501
0.59314609 0.091186993 -0.06552875
0.61747938 0.091313206 -0.062247992
0.6421209 0.091489017 -0.057679892
-0.45103595 0.11527824 -0.057097554
-0.4269335 0.11517233 -0.059392452
-0.40289673 0.11507644 -0.061468244
-0.37892911 0.11499362 -0.063259482
-0.35500163 0.11491552 -0.064949274
-0.33109844 0.11483678 -0.066653609
-0.30725554 0.11477268 -0.068042397
-0.28344569 0.11471403 -0.069314241
-0.25965706 0.11465608 -0.070568562
-0.23590039 0.11460505 -0.071673393
0.37913656 0.11461188 -0.071524978
0.4029223 0.11466071 -0.070469618
0.42673305 0.11471245 -0.069347262
0.45056349 0.1147652 -0.068207622
0.47440919 0.11481704 -0.067083597
0.4982799 0.11487122 -0.065909266
0.52219564 0.11493328 -0.0645684
0.54614908 0.11499988 -0.063126683
0.57013667 0.11506942 -0.061617613
0.5941478 0.1151392 -0.060106874
0.61841935 0.11526598 -0.057363749
-0.28487822 0.13915822 -0.054999232
-0.26097062 0.13908553 -0.056348562
-0.23709662 0.13902088 -0.057546854
-0.21325645 0.13896714 -0.058544755
-0.18943052 0.13891245 -0.059558511
-0.16562025 0.13885793 -0.060571909
-0.14182919 0.13880691 -0.061518073
-0.118065 0.13877012 -0.062198162
-0.094315112 0.13873889 -0.062778711
-0.070580274 0.13871838 -0.063159943
-0.046849038 0.1386925 -0.063640594
-0.023124173 0.13866299 -0.064187407
0.00058997236 0.13864961 -0.06443584
0.024300296 0.13863714 -0.064667702
0.048007049 0.13862473 -0.064899564
0.071711257 0.13861577 -0.065065026
0.095419034 0.13862117 -0.064965844
0.11912934 0.13862824 -0.064833283
0.14284107 0.13863444 -0.064717531
0.16655535 0.13864163 -0.06458509
0.19028325 0.1386603 -0.064237237
0.21403287 0.13869326 -0.063624024
0.23779078 0.13872561 -0.063027263
0.26155919 0.13875867 -0.062413812
0.28533566 0.13879077 -0.061816812
0.30914739 0.13883825 -0.060937166
0.33298269 0.13889104 -0.059957385
0.35683671 0.13894552 -0.05894351
0.38066036 0.13897885 -0.058328629
0.40454677 0.13903527 -0.057280421
0.42846248 0.13909717 -0.056131959
0.45240754 0.13916361 -0.054899216
-0.023526188 -0.26645505 -0.038075805
-0.1906985 -0.26621017 -0.041256547
-0.16647074 -0.26578641 -0.046761632
-0.1424422 -0.26552618 -0.05014205
-0.11869137 -0.26564211 -0.048637033
-0.094940618 -0.26580435 -0.046527028
-0.071178168 -0.26601863 -0.043743134
-0.047375683 -0.2662425 -0.040836215
-0.38181955 -0.24232724 -0.041172504
-0.35704169 -0.24182743 -0.048385978
0.095765218 -0.2417174 -0.049974918
0.11984445 -0.24229692 -0.041609883
-0.50169122 -0.2185922 -0.038665295
-0.47603527 -0.21792665 -0.049473524
0.19143736 -0.21833634 -0.0428195
-0.54734498 -0.19405241 -0.050376177
0.23873331 -0.19410384 -0.049423218
-0.62091988 -0.17070484 -0.040180206
0.28688741 -0.17055199 -0.043491125
-0.6926654 -0.12291802 -0.039944649
0.35841343 -0.12278353 -0.044313669
0.3814725 -0.098757036 -0.051295161
-0.71503747 -0.051172219 -0.046342731
0.45433053 -0.051213123 -0.041021347
-0.7147736 -0.027322611 -0.047448397
0.47772482 -0.027322663 -0.044414282
-0.71389544 -0.0035098828 -0.051128268
0.5012846 -0.0034734588 -0.046392918
-0.713736 0.020292722 -0.051796317
0.52520972 0.02038312 -0.045923829
0.54816699 0.020301677 -0.051211715
0.57334602 0.020420462 -0.043491006
-0.71561778 0.044282384 -0.043910861
-0.68934655 0.044042066 -0.054315925
0.61975765 0.044132359 -0.050409675
0.64542478 0.044345617 -0.041172504
-0.69202089 0.068186983 -0.042735457
-0.66644901 0.067953028 -0.050326109
0.64268744 0.067813843 -0.054849267
0.66800976 0.068041794 -0.047448397
0.69388562 0.068332478 -0.038008213
-0.64405257 0.092026062 -0.043726325
-0.61921436 0.091846794 -0.048385859
-0.59444731 0.091667369 -0.053048372
0.66702628 0.09170074 -0.052180409
0.69228792 0.091960952 -0.045420766
-0.59711713 0.11608134 -0.039708972
-0.57250148 0.11590971 -0.043424129
-0.54798806 0.11574951 -0.046895623
-0.5235768 0.11560173 -0.050091982
-0.49934581 0.11549002 -0.052514195
-0.4751662 0.11538216 -0.054849267
0.64285421 0.11542058 -0.054015875
0.66763061 0.11563979 -0.049272656
0.69258803 0.11588183 -0.044028401
-0.50169408 0.14003921 -0.038648486
-0.47740981 0.13991413 -0.040970922
-0.45355767 0.13992776 -0.040718436
-0.42905548 0.13970321 -0.044884086
-0.40485096 0.13956946 -0.047364593
-0.38080987 0.1394875 -0.048887849
-0.35676771 0.13939463 -0.050610185
-0.33276391 0.13930738 -0.052230477
-0.30880675 0.13923097 -0.053648829
0.47636932 0.13922913 -0.053682208
0.50035506 0.13929644 -0.052430749
0.52465481 0.13946223 -0.049356341
0.54897738 0.13961998 -0.046426535
0.57309049 0.13970052 -0.044934392
0.59714627 0.13975744 -0.043877244
0.62076944 0.13968866 -0.045152426
0.64500099 0.13978907 -0.043289781
0.66934913 0.13991223 -0.041004658
-0.3103998 0.1639346 -0.038867235
-0.28635788 0.16385163 -0.040213823
-0.26233527 0.16376776 -0.041576028
-0.2383451 0.16369225 -0.042802811
-0.2143907 0.16363025 -0.043810248
-0.19045183 0.16356818 -0.04481709
-0.16652854 0.16350631 -0.045823216
-0.14262255 0.16344631 -0.046795011
-0.11874086 0.16339888 -0.047565699
-0.094871014 0.16335136 -0.048335671
-0.071032628 0.1633433 -0.048469663
-0.047183942 0.16330214 -0.049138784
-0.023345307 0.16325964 -0.049824476
0.00047929771 0.16324535 -0.050058722
0.024300296 0.16323619 -0.050209165
0.048119236 0.16322897 -0.05032599
0.071936116 0.16322073 -0.050459743
0.095756337 0.16322699 -0.050359488
0.11958018 0.16323721 -0.050192237
0.14340915 0.16325146 -0.049958348
0.1672425 0.16326702 -0.049707532
0.19108604 0.16328959 -0.049339652
0.21494965 0.16332664 -0.048737168
0.23881908 0.16336077 -0.04818511
0.2626932 0.16339165 -0.047682881
0.28657642 0.1634236 -0.047163725
0.31050017 0.16347729 -0.046292543
0.33446261 0.16354662 -0.045169234
0.35844779 0.16361876 -0.043994784
0.38233292 0.16362806 -0.043843746
0.40634242 0.16369832 -0.04270196
0.43038276 0.16377503 -0.041458488
0.45446339 0.16386093 -0.040062428
0.47856817 0.16394815 -0.038648367
0.50189173 0.16371395 -0.042449951
0.52541298 0.16357741 -0.044665933
0.54912215 0.16352163 -0.045571685
0.57312018 0.16357124 -0.044766665
0.59746277 0.16373158 -0.042164207
0.50247437 0.1878558 -0.038665175
0.52598858 0.1876868 -0.04110539
0.54983866 0.18767026 -0.04134059
0.57382804 0.18771005 -0.040768981
0.59800965 0.18781835 -0.039204121
-0.31219879 -0.26767904 -0.022174716
-0.28778204 -0.26738596 -0.025982738
-0.26342478 -0.2670936 -0.029781342
-0.23913257 -0.26680696 -0.033503294
-0.2148996 -0.26652247 -0.037199378
0.00037160888 -0.26660946 -0.036069512
0.024300296 -0.26676542 -0.034043789
0.048285082 -0.26717049 -0.028781891
-0.43128178 -0.24312475 -0.029662728
-0.40635526 -0.24265037 -0.036508083
0.1438769 -0.24256049 -0.037806034
0.16811046 -0.24303776 -0.030915856
-0.52784848 -0.21937428 -0.025965691
0.21593988 -0.21896218 -0.032658219
-0.57379353 -0.19478883 -0.036710501
0.26399955 -0.19511211 -0.030712724
0.31269038 -0.17151763 -0.022583127
-0.66937941 -0.14692259 -0.037199378
0.33544078 -0.14699203 -0.035394549
-0.71758163 -0.12304933 -0.035681367
0.38485864 -0.12347156 -0.021970391
0.40785453 -0.09923894 -0.030424953
0.43090484 -0.075158477 -0.037469149
0.50494778 -0.027322611 -0.022600055
0.52880412 -0.0032986142 -0.023688674
-0.74473155 0.020741917 -0.022617102
0.59876651 0.020549521 -0.035107613
0.62452078 0.020695064 -0.025660038
0.67161846 0.044601552 -0.03008616
-0.71824259 0.068489313 -0.032911777
0.72038168 0.068688676 -0.026441216
-0.69475836 0.092520483 -0.030882001
-0.66928154 0.092260584 -0.037637711
0.7182849 0.092329919 -0.03583312
0.74503183 0.092799358 -0.023637772
-0.67230827 0.11680336 -0.02407968
-0.6469999 0.1165275 -0.030052304
-0.62203032 0.11630645 -0.034837365
0.71811169 0.1162246 -0.036609292
0.74487484 0.11679232 -0.024317741
-0.62487102 0.14098109 -0.02117002
-0.59984404 0.14071631 -0.026084423
-0.57514662 0.14052249 -0.029679894
-0.55054039 0.14033926 -0.033080816
-0.52602369 0.14016736 -0.03627193
0.69414717 0.14013918 -0.036794782
0.71946967 0.14047685 -0.0305264
-0.5757013 0.16467789 -0.026797533
-0.55053729 0.16428995 -0.033097625
-0.52609831 0.16412055 -0.035850286
-0.50196803 0.1640476 -0.037030816
-0.47805765 0.16405182 -0.036963463
-0.4545359 0.16421191 -0.0343647
-0.43117031 0.16445446 -0.030424953
-0.40711612 0.16441798 -0.031017423
-0.38276571 0.1642378 -0.033942461
-0.35858154 0.16411829 -0.035883784
-0.33447424 0.16402383 -0.037418365
0.62221241 0.16400933 -0.0376544
0.64752847 0.1644399 -0.030661821
0.67289859 0.16485472 -0.023926735
0.69633859 0.16468827 -0.026627541
0.72118598 0.16492167 -0.022838235
-0.57578945 0.18870957 -0.026339173
-0.55075592 0.18832345 -0.031914115
-0.52648699 0.18820274 -0.033655405
-0.50244242 0.18816301 -0.034229636
-0.47856507 0.18819115 -0.033824205
-0.45502523 0.18837392 -0.031186581
-0.43166119 0.18865916 -0.027068973
-0.40845224 0.18905367 -0.021374583
-0.31218964 0.18899241 -0.022259712
-0.28800991 0.18889214 -0.023705721
-0.2638526 0.18879208 -0.025150418
-0.23972772 0.18870026 -0.026474953
-0.21564157 0.18862502 -0.02756083
-0.1915722 0.18854983 -0.028645992
-0.16752063 0.18847597 -0.029713631
-0.14348644 0.18840317 -0.030763626
-0.11948095 0.18834935 -0.031541944
-0.095485508 0.18829176 -0.032370806
-0.071520016 0.18827304 -0.032641172
-0.047545809 0.18821555 -0.033469439
-0.023586445 0.18816769 -0.034162164
0.00035822578 0.18815604 -0.034331083
0.024300296 0.18814434 -0.034499764
0.048239633 0.18813147 -0.034685612
0.072176635 0.18812104 -0.034837484
0.096118316 0.18813147 -0.034685612
0.12006493 0.1881478 -0.0344491
0.14401455 0.18816301 -0.034229636
0.16796754 0.18817827 -0.034010053
0.19192392 0.18819349 -0.033790469
0.21589823 0.18822508 -0.033334136
0.23988076 0.18825798 -0.032860994
0.26386932 0.18828942 -0.032404542
0.28786775 0.18832345 -0.031914115
0.31192845 0.18839854 -0.030831218
0.33602118 0.18848421 -0.029594898
0.3600691 0.18852882 -0.028951168
0.38416612 0.18859699 -0.02796793
0.40828043 0.18866618 -0.026967168
0.43279502 0.18893936 -0.023025513
0.45584339 0.18844895 -0.030102968
0.47911322 0.18811503 -0.034921885
0.62268627 0.18809636 -0.035192132
0.64792854 0.18854861 -0.028663039
0.45676517 0.21293558 -0.023450732
-0.16902508 -0.29314494 -0.0052843094
-0.14465661 -0.29282632 -0.0090478659
-0.12060955 -0.2929906 -0.0071070194
-0.096538663 -0.29316834 -0.0050090551
-0.361889 -0.26869097 -0.0090305805
-0.33689997 -0.26812285 -0.016411185
0.072400704 -0.26782459 -0.020284176
0.096648216 -0.26848239 -0.011740208
-0.48216286 -0.24437822 -0.011569023
-0.45685333 -0.24384174 -0.01931262
0.19287145 -0.24405697 -0.016206026
-0.55432481 -0.22019765 -0.012596726
0.24113533 -0.22006482 -0.014753103
-0.60099137 -0.19567038 -0.020352364
0.28975314 -0.19624726 -0.0096484423
-0.6490503 -0.17161193 -0.02053988
0.36179104 -0.14785501 -0.012973547
0.43481296 -0.099766016 -0.0076055527
0.45798931 -0.075510196 -0.014616251
0.48147359 -0.051384356 -0.018783808
-0.74611306 -0.0032471828 -0.017008781
0.57817698 -0.0032409765 -0.016206026
0.60398406 -0.0031690951 -0.0068664551
0.65067148 0.020859785 -0.014958143
-0.74684989 0.044972755 -0.014017701
0.69817644 0.044878393 -0.018101335
0.72543138 0.045208246 -0.0038211346
0.74823481 0.069202125 -0.0097686052
-0.72135359 0.092944093 -0.019875288
-0.7246508 0.11763567 -0.0060584545
-0.69793063 0.11712345 -0.017145514
-0.67547631 0.14158891 -0.009888649
-0.64998436 0.14124848 -0.016206026
0.74609768 0.14109688 -0.019022822
-0.6525982 0.16607696 -0.0040795803
-0.62781185 0.1658958 -0.0070211887
-0.60158193 0.16525656 -0.017401695
0.74711132 0.16542703 -0.014633417
-0.62833381 0.19022202 -0.0045099258
-0.60153413 0.18931244 -0.017640591
-0.38535082 0.18955149 -0.014188528
-0.36080331 0.18929811 -0.017845273
-0.33651569 0.18916705 -0.019738793
0.67390376 0.18921192 -0.019090891
0.70091313 0.19016007 -0.0054049492
0.72449452 0.18997912 -0.0080177784
-0.6023106 0.2136815 -0.013760924
-0.53171432 0.21442285 -0.0041310787
-0.50731826 0.21432208 -0.0054391623
-0.43304271 0.21338427 -0.017623544
-0.40932947 0.21358281 -0.015043736
-0.38618091 0.21413685 -0.0078458786
-0.31373191 0.21412912 -0.0079488754
-0.28944072 0.21401675 -0.0094082355
-0.26517212 0.21390447 -0.010866165
-0.24094929 0.21381341 -0.012048721
-0.21676055 0.21373834 -0.013024926
-0.19259281 0.21366976 -0.013914824
-0.16844721 0.21361177 -0.014667511
-0.14440081 0.21367891 -0.013795018
-0.12026666 0.21362239 -0.014530659
-0.096142545 0.21356308 -0.015300274
-0.072042927 0.2135354 -0.015659094
-0.047939759 0.21347757 -0.016411185
-0.023850538 0.21343163 -0.017008781
0.00022619404 0.21341835 -0.017179728
0.024300296 0.21340522 -0.017350435
0.0483719 0.21339342 -0.017503858
0.072441399 0.21338288 -0.017640591
0.096515507 0.2133946 -0.01748693
0.12059407 0.21341179 -0.017265081
0.14467211 0.21342109 -0.017145395
0.16875042 0.21342766 -0.017060041
0.1928374 0.21344475 -0.016838074
0.21694358 0.21348153 -0.016359925
0.24105833 0.21351968 -0.015864372
0.26518995 0.21356705 -0.015249014
0.28932959 0.21361314 -0.014650464
0.31352904 0.21370129 -0.013504148
0.33775654 0.21379754 -0.012254119
0.36186302 0.21379353 -0.012305617
0.38610521 0.21388061 -0.011174679
0.41052979 0.21407072 -0.0087045431
0.43359581 0.21343936 -0.016906381
0.55592173 0.21432345 -0.0054221153
0.58031183 0.21442159 -0.0041482449
0.65016198 0.21339342 -0.017503858
0.67472005 0.2135735 -0.015163422
0.4348512 0.23832798 -0.0073132515
-0.26711401 -0.29445249 0.010155559
-0.24250035 -0.29412323 0.0062682629
-0.21794724 -0.29379487 0.0023907423
-0.1934545 -0.29346731 -0.0014774799
-0.072435558 -0.29334623 -0.0029082298
-0.048300173 -0.29352432 -0.0008045435
-0.024132445 -0.29370275 0.0013018847
6.7686662e-05 -0.2938813 0.0034111738
0.024300296 -0.29406011 0.0055232048
0.048583753 -0.29444057 0.010016561
-0.41221774 -0.26983258 0.0058003664
-0.386994 -0.26926041 -0.0016325712
0.12102818 -0.26914239 -0.0031666756
0.14555664 -0.26983529 0.0058351755
-0.50819665 -0.24516231 -0.00025236607
0.21823685 -0.24550126 0.0046399832
-0.58146834 -0.22116862 0.0031689405
0.26673031 -0.22126661 0.0047610998
-0.62950224 -0.19682699 0.0011119843
0.31591219 -0.19742957 0.012294173
-0.67963308 -0.17296401 0.0087314844
0.33880049 -0.1724766 -0.0018222332
-0.75070024 -0.14841643 0.0016130209
-0.72679913 -0.14846766 0.0029441118
-0.70268995 -0.1484876 0.0034631491
0.3886244 -0.1487639 0.010642052
0.41178566 -0.12419394 0.0014919043
0.48578256 -0.075899675 0.01067698
0.50915235 -0.051565155 0.0047091246
0.53325218 -0.051558338 0.0038263798
0.53265142 -0.027322663 0.00011014938
0.55659562 -0.0031273291 -0.0014429092
0.63022208 -0.0030857679 0.003964901
0.6772601 0.021044806 -0.0029426813
0.70440567 0.021256279 0.010798573
0.75332999 0.045580417 0.012294173
-0.75153977 0.069657423 0.0050209761
0.7753213 0.093809925 0.002615571
0.7751109 0.11799559 0.0017338991
-0.72852421 0.14266998 0.010173082
-0.7011748 0.14195488 -0.0030977726
0.77597797 0.1424111 0.0053673983
-0.70406306 0.16690759 0.0094087124
-0.67812109 0.16644883 0.0019584894
0.77462453 0.16630939 -0.00030422211
-0.65626627 0.19143099 0.012938023
0.74980325 0.19032826 -0.002977252
0.77660269 0.19108775 0.0079851151
-0.62860942 0.21449581 -0.0031839609
-0.55711299 0.21493284 0.0024944544
-0.48373565 0.21459928 -0.0018395185
-0.46105343 0.21535431 0.0079678297
-0.36319569 0.21486239 0.0015782118
-0.33850291 0.21454617 -0.0025291443
0.50964868 0.21535157 0.0079331398
0.53233349 0.214598 -0.0018568039
0.60571992 0.21493569 0.0025291443
0.70178568 0.21463652 -0.0013566017
0.72926211 0.21576759 0.013338327
0.75339425 0.21570863 0.012572527
-0.63099217 0.23964843 0.0082802773
-0.58112562 0.23906478 0.0013883114
-0.5561626 0.23872289 -0.0026496649
-0.53187293 0.23867327 -0.0032355785
-0.50769728 0.23867622 -0.0032010078
-0.48350999 0.23867327 -0.0032355785
-0.45964968 0.23884985 -0.0011497736
-0.43635473 0.23937237 0.0050209761
-0.38740739 0.23907655 0.001526475
-0.3643035 0.23984256 0.010572553
-0.29159167 0.23997071 0.012085438
-0.26714292 0.2398338 0.010468364
-0.2426898 0.23966736 0.0085058212
-0.21832851 0.23956898 0.007343173
-0.19388072 0.23934305 0.0046746731
-0.16954887 0.2392199 0.0032207966
-0.14523107 0.23908392 0.0016127825
-0.12095246 0.23897412 0.00031745434
-0.096714437 0.2389099 -0.00044214725
-0.072583809 0.2391088 0.0019066334
-0.048281852 0.23881191 -0.0015980005
-0.024078507 0.23876077 -0.0022015572
0.00011248514 0.23874342 -0.0024085045
0.024300296 0.23873174 -0.0025461912
0.048485853 0.23871851 -0.0027014017
0.072669014 0.23870534 -0.0028566122
0.096856162 0.23871565 -0.0027358532
0.12104888 0.23873591 -0.0024946928
0.14524598 0.23875794 -0.0022361279
0.16944547 0.23877686 -0.0020120144
0.19365305 0.23880312 -0.0017015934
0.21787816 0.2388469 -0.0011841059
0.24211247 0.2388922 -0.00064921379
0.26635501 0.23893762 -0.00011432171
0.29062188 0.23899892 0.0006108284
0.31491113 0.23907068 0.0014573336
0.33951479 0.23939735 0.0053153038
0.36380687 0.23943263 0.0057311058
0.38860434 0.2398338 0.010468364
0.41162187 0.23896092 0.00016176701
0.48495281 0.23937088 0.0050034523
0.5082503 0.23884985 -0.0011497736
0.53211057 0.23867327 -0.0032355785
0.556292 0.23867327 -0.0032355785
0.58047348 0.23867327 -0.0032355785
0.60476315 0.23872289 -0.0026496649
0.62972617 0.23906478 0.0013883114
0.70334703 0.23944587 0.0058870316
-0.58327806 0.2643151 0.012572527
-0.55895245 0.2643038 0.012450695
-0.43745926 0.2643151 0.012572527
0.41304547 0.26423624 0.011720061
0.48605987 0.2643151 0.012572527
0.60756582 0.2643103 0.012520313
0.63188195 0.26431656 0.012589931
-0.34158379 -0.29563764 0.02415216
-0.31652594 -0.29511464 0.017976284
-0.29179028 -0.29478386 0.014069796
0.073010199 -0.29522711 0.019303918
0.097591862 -0.2960583 0.029120803
-0.48878899 -0.27165091 0.02941978
-0.46309218 -0.27101889 0.021209955
-0.43759161 -0.27042365 0.013477683
0.17023976 -0.27055511 0.015184999
0.19506983 -0.2712791 0.024590373
-0.56216222 -0.24724606 0.029824257
-0.53496468 -0.24616539 0.014226675
0.24389513 -0.24691743 0.025081396
-0.60945356 -0.22232372 0.021927357
0.29301819 -0.22275373 0.028909683
-0.65865314 -0.19806093 0.02401197
0.36541659 -0.17351529 0.020667672
0.43903548 -0.12490746 0.024660587
0.46232167 -0.10032617 0.016649961
-0.73121238 -0.076065361 0.021437407
-0.75574756 -0.027322611 0.022102356
0.56125706 -0.027322561 0.026081443
0.60983145 -0.027322561 0.024783254
0.65683371 -0.0029944014 0.01583004
0.68369418 -0.002900647 0.028013349
0.73201293 0.021485202 0.025660515
0.77800071 0.069929026 0.013843298
-0.73098272 0.16758911 0.020475268
0.80420583 0.16765378 0.021524906
-0.70731413 0.19216175 0.023486137
-0.68145144 0.19170377 0.016876459
0.80632401 0.19262159 0.030123591
-0.657435 0.21615437 0.018360496
-0.58607721 0.21682836 0.027117372
0.48822832 0.21685009 0.027398586
0.63476229 0.21686219 0.027556419
0.77991313 0.21642353 0.021857381
-0.65826046 0.24082622 0.022189975
-0.6103763 0.24119443 0.026538014
-0.41521531 0.24127027 0.027433515
-0.34065306 0.24030998 0.016091585
-0.31606552 0.24010772 0.013704062
0.46377701 0.2412464 0.027152538
0.65909636 0.24124503 0.027135015
0.73253036 0.24131635 0.027978301
-0.60817033 0.26458684 0.015516043
-0.51115668 0.26474482 0.017225504
-0.48643151 0.26452416 0.01483655
-0.46212435 0.26453215 0.014923453
-0.41374284 0.26470605 0.016806841
-0.36574087 0.26520833 0.022242665
-0.24435507 0.26575598 0.028171539
-0.2198426 0.26564884 0.02701211
-0.19535534 0.26555157 0.025958776
-0.1708854 0.26545605 0.024923682
-0.1464324 0.26536202 0.023906946
-0.12199911 0.26527622 0.022978067
-0.097580165 0.26519054 0.022050142
-0.073178738 0.26511455 0.021227479
-0.04879969 0.26507735 0.020824909
-0.024423063 0.26501748 0.02017808
-5.9768558e-05 0.26499811 0.019968271
0.024300296 0.26498207 0.019793272
0.048657671 0.26496604 0.019618511
0.07301262 0.26495129 0.019461036
0.097369596 0.26495454 0.019496202
0.12172817 0.264961 0.019566059
0.14609322 0.26498041 0.019775987
0.1704623 0.26500145 0.02000308
0.19484337 0.26503685 0.020387888
0.21924327 0.26509184 0.020982385
0.24365237 0.26514679 0.021577358
0.26807201 0.26520348 0.022190094
0.29250401 0.26526335 0.022837996
0.31700757 0.26538476 0.024152279
0.34152094 0.26549652 0.025362015
0.36592633 0.26549965 0.025397301
0.39001647 0.26525047 0.022697806
0.46233615 0.26470131 0.016754389
0.51070619 0.26452091 0.014801383
0.58367628 0.26452565 0.014853716
0.65678138 0.26459178 0.015568376
0.70617867 0.26491106 0.019024253
-0.61078072 0.29021794 0.028558254
-0.41537112 0.29021794 0.028558254
0.46397173 0.29021794 0.028558254
0.65938127 0.29021794 0.028558254
-0.22131684 -0.32206312 0.046163321
-0.19646123 -0.32167131 0.04192102
-0.1716716 -0.32128045 0.037690043
-0.14690879 -0.32082379 0.032747388
-0.12256765 -0.32105845 0.035287261
-0.0981801 -0.32127547 0.037636876
-0.073757023 -0.32149458 0.040007591
-0.049297113 -0.32171226 0.042364359
-0.024800707 -0.32192862 0.044706464
-0.00026812591 -0.32214376 0.047034502
-0.4179239 -0.29757065 0.046981096
-0.39226726 -0.29686639 0.038662553
-0.36701301 -0.29635054 0.032571077
0.12222694 -0.29662088 0.035764098
0.14698653 -0.29723236 0.042984962
-0.51559126 -0.27272788 0.043410778
0.22079073 -0.27293563 0.046110034
0.26988462 -0.24834853 0.04573679
0.34260786 -0.19871895 0.036223054
-0.73636711 -0.1745486 0.043038011
-0.71196055 -0.17457475 0.043605804
0.41595036 -0.14971319 0.035304904
0.49031353 -0.1009037 0.041655183
0.51385742 -0.076278254 0.035269618
0.63631123 -0.027322663 0.035605073
0.71110243 -0.0027939174 0.041867852
0.76039726 0.021750547 0.042896271
0.78268439 0.046069443 0.033470154
-0.75894326 0.144012 0.035075426
0.80659711 0.14380497 0.031232238
-0.75957859 0.16864716 0.037654638
-0.73450482 0.19297566 0.035234451
-0.71162879 0.21798702 0.042169213
-0.68491578 0.21723473 0.032394886
0.75761414 0.24155906 0.030844927
0.78517944 0.24266675 0.043925285
-0.66024363 0.26605338 0.031390905
-0.39330003 0.26745418 0.046554446
-0.34285733 0.26640347 0.035181284
-0.31833261 0.26636282 0.034740329
-0.29369292 0.26620954 0.033082247
-0.26899597 0.26597372 0.030528188
0.44177505 0.2673654 0.045594573
0.73512495 0.26681173 0.039600492
-0.63826442 0.29168984 0.0432688
-0.58780921 0.29097444 0.036117196
-0.56259161 0.29057714 0.032148361
-0.53851545 0.29079065 0.034281492
-0.51422751 0.29089829 0.035357952
-0.48960057 0.2908065 0.034440041
-0.44012925 0.29044491 0.030827522
-0.39182556 0.29089117 0.03528738
-0.36811879 0.29151794 0.041548729
-0.19682044 0.29207411 0.047105551
-0.17218247 0.29196179 0.045985579
-0.14755513 0.29183736 0.044741988
-0.12296581 0.29175398 0.043907523
-0.098383218 0.29165453 0.042913914
-0.07381703 0.29155868 0.041956425
-0.049271729 0.29148957 0.041265249
-0.024736542 0.29141667 0.040538907
-0.00021634996 0.29139373 0.040308714
0.024300296 0.29137433 0.040113926
0.048814081 0.29135659 0.039936781
0.073324859 0.29133701 0.039742112
0.097841248 0.29135486 0.039919257
0.12236142 0.29137611 0.040131688
0.14688557 0.29139915 0.040361762
0.17141244 0.29142034 0.040574431
0.19595499 0.29146463 0.041017175
0.22051419 0.29152501 0.041619658
0.24508269 0.2915853 0.0422225
0.2696605 0.29164568 0.042825222
0.29425359 0.29171309 0.043499351
0.31890798 0.2918357 0.044724345
0.34358126 0.29195845 0.045950055
0.39162108 0.29102215 0.036594272
0.44037536 0.29085246 0.034899116
0.51339853 0.29059133 0.032289147
0.53820688 0.29080996 0.034475565
0.56287289 0.29092479 0.035622597
0.58743793 0.29097265 0.036099553
0.63539177 0.29044491 0.030827522
0.68714905 0.29182673 0.044635534
-0.61400563 0.31638056 0.04467082
-0.41774657 0.31649157 0.045701146
-0.3933652 0.31663722 0.047052264
0.44194484 0.31662005 0.046892166
0.46642843 0.31655478 0.046287775
0.66260618 0.31638056 0.04467082
-0.32140863 -0.32364455 0.063282013
-0.29628423 -0.32324681 0.058976293
-0.27122554 -0.32284841 0.054664016
-0.24623726 -0.32245442 0.050399065
0.024300296 -0.32236066 0.04938364
0.048924148 -0.32280883 0.05423522
0.073705271 -0.32375246 0.064450264
-0.44411534 -0.29851064 0.058080554
0.17227812 -0.29861534 0.059316754
-0.54297978 -0.27396613 0.059496045
-0.59028351 -0.24857274 0.048973918
-0.63920975 -0.22391817 0.047817111
0.31966943 -0.22423531 0.05296731
-0.69121403 -0.20003296 0.060607553
0.36973068 -0.20003775 0.060697079
0.3929314 -0.17477502 0.047941685
0.4439722 -0.15075549 0.062384009
0.4669759 -0.12569495 0.050238609
0.54236174 -0.07666178 0.060177088
0.56627625 -0.051957883 0.05571866
0.61629432 -0.051989011 0.059764743
0.66501069 -0.027322663 0.056684494
0.69065148 -0.027322611 0.061486483
0.73915857 -0.0026722848 0.057668686
0.78922027 0.022027083 0.060858488
0.81259376 0.071214192 0.055575609
0.81148547 0.095675074 0.051076412
-0.76483977 0.12064122 0.059012055
-0.76471174 0.19458695 0.058492541
-0.73963642 0.21910852 0.056738019
0.81256294 0.21900947 0.055450439
-0.71606511 0.24414471 0.061378837
-0.68964797 0.24348527 0.053592205
0.76188719 0.26771215 0.049347997
-0.66405278 0.29226997 0.049063087
-0.34465981 0.29244295 0.050791144
-0.32060122 0.292943 0.055790305
-0.29574546 0.292723 0.053592205
-0.27092379 0.29250342 0.051397443
-0.24614523 0.29229477 0.049312353
-0.22147429 0.29218441 0.048208594
0.36840969 0.29220745 0.04843986
0.73927444 0.29318303 0.0581882
-0.63964272 0.31694421 0.049900174
-0.59020472 0.31680015 0.048564553
-0.56590092 0.31696135 0.050060511
-0.5430178 0.31800142 0.059711099
-0.51869512 0.31821996 0.061737776
-0.49422535 0.31836113 0.063048601
-0.46773708 0.31710353 0.051379561
0.17207395 0.31748259 0.054896355
0.19670577 0.31748834 0.05494976
0.22138247 0.31757122 0.05571866
0.3935385 0.31729966 0.05319941
0.49147779 0.31691349 0.049615145
0.51637888 0.31713235 0.051647186
0.54282594 0.31836113 0.063048601
0.56728649 0.31821403 0.061683893
0.5915454 0.31795701 0.059298754
0.61446857 0.31694224 0.049882412
0.68828404 0.31696522 0.050096035
0.71557105 0.31831267 0.06259954
-0.61727428 0.34281659 0.061002135
-0.59303707 0.34307984 0.063282013
-0.395381 0.34298429 0.062455893
0.44395339 0.34295958 0.062240362
0.4689227 0.34319603 0.064288497
0.66587484 0.34281659 0.061002135
-0.14949736 -0.35008964 0.080785275
-0.37277034 -0.32512563 0.079314947
-0.34692335 -0.32430157 0.07039392
0.09864518 -0.32470214 0.074730635
-0.49654999 -0.30014896 0.077428818
-0.47009289 -0.29923892 0.066681027
0.19749133 -0.2994799 0.069528103
-0.57087022 -0.27531031 0.076957703
0.24692078 -0.27467865 0.068752766
-0.61917573 -0.25006422 0.070502281
0.2966074 -0.25011939 0.071296573
-0.67007703 -0.22571608 0.077011943
0.34677503 -0.22576858 0.077863812
0.42086205 -0.17603318 0.075183034
0.49589074 -0.12660478 0.079786658
-0.74537939 -0.1018078 0.080803394
0.51919293 -0.10155644 0.069924831
0.64320439 -0.052078851 0.071423054
0.71874398 -0.027322663 0.077320099
0.76803333 -0.0025314204 0.075961471
0.81504571 0.04680983 0.065529346
0.84232384 0.14619741 0.075635552
0.84281623 0.1711054 0.077573895
-0.74492019 0.2456266 0.078879476
-0.69374943 0.26980144 0.071964741
0.79093212 0.26943812 0.068031788
0.76752353 0.29474086 0.073753834
-0.34660897 0.31885949 0.067671418
