ply
format ascii 1.0
comment PCL generated
element vertex 1058
property float x
property float y
property float z
element camera 1
property float view_px
property float view_py
property float view_pz
property float x_axisx
property float x_axisy
property float x_axisz
property float y_axisx
property float y_axisy
property float y_axisz
property float z_axisx
property float z_axisy
property float z_axisz
property float focal
property float scalex
property float scaley
property float centerx
property float centery
property int viewportx
property int viewporty
property float k1
property float k2
end_header
-0.24453154 -0.1395663 -0.21038145
-0.22764558 -0.1395663 -0.21038145
-0.21075961 -0.1395663 -0.21038145
-0.19387271 -0.1395652 -0.21039164
-0.17698683 -0.1395652 -0.21039164
-0.16010094 -0.1395652 -0.21039164
-0.14321505 -0.1395652 -0.21039164
-0.12632917 -0.1395652 -0.21039164
-0.10944328 -0.1395652 -0.21039164
-0.0925574 -0.1395652 -0.21039164
-0.075671524 -0.1395652 -0.21039164
-0.058785636 -0.1395652 -0.21039164
-0.041899756 -0.1395652 -0.21039164
-0.025013871 -0.1395652 -0.21039164
-0.0081279892 -0.1395652 -0.21039164
0.008757893 -0.1395652 -0.21039164
0.025643775 -0.1395652 -0.21039164
0.042529657 -0.1395652 -0.21039164
0.059415542 -0.1395652 -0.21039164
0.076301426 -0.1395652 -0.21039164
0.093187302 -0.1395652 -0.21039164
0.11007319 -0.1395652 -0.21039164
0.12695907 -0.1395652 -0.21039164
0.14384495 -0.1395652 -0.21039164
0.16073082 -0.1395652 -0.21039164
0.17761672 -0.1395652 -0.21039164
0.19450261 -0.1395652 -0.21039164
0.21138942 -0.1395663 -0.21038145
0.22827539 -0.1395663 -0.21038145
0.24516135 -0.1395663 -0.21038145
-0.24627343 -0.15819415 -0.19529617
-0.22927134 -0.15819415 -0.19529617
-0.21226923 -0.15819415 -0.19529617
-0.19526716 -0.15819415 -0.19529617
-0.17826508 -0.15819415 -0.19529617
-0.16126297 -0.15819415 -0.19529617
-0.1442609 -0.15819415 -0.19529617
-0.12725881 -0.15819415 -0.19529617
-0.11025672 -0.15819415 -0.19529617
-0.093254626 -0.15819415 -0.19529617
-0.076252535 -0.15819415 -0.19529617
-0.059250455 -0.15819415 -0.19529617
-0.042248368 -0.15819415 -0.19529617
-0.025246281 -0.15819415 -0.19529617
-0.0082441941 -0.15819415 -0.19529617
0.008757893 -0.15819415 -0.19529617
0.02575998 -0.15819415 -0.19529617
0.042762067 -0.15819415 -0.19529617
0.059764154 -0.15819415 -0.19529617
0.076766238 -0.15819415 -0.19529617
0.093768328 -0.15819415 -0.19529617
0.11077042 -0.15819415 -0.19529617
0.12777251 -0.15819415 -0.19529617
0.14477459 -0.15819415 -0.19529617
0.16177668 -0.15819415 -0.19529617
0.17877875 -0.15819415 -0.19529617
0.19578086 -0.15819415 -0.19529617
0.21278293 -0.15819415 -0.19529617
0.22978501 -0.15819415 -0.19529617
0.24678712 -0.15819415 -0.19529617
-0.24653703 -0.12441842 -0.19301349
-0.22951734 -0.12441842 -0.19301349
-0.2124977 -0.12441842 -0.19301349
-0.19547802 -0.12441842 -0.19301349
-0.17845838 -0.12441842 -0.19301349
-0.1614387 -0.12441842 -0.19301349
-0.14441906 -0.12441842 -0.19301349
-0.12739938 -0.12441842 -0.19301349
-0.11037973 -0.12441842 -0.19301349
-0.093360066 -0.12441842 -0.19301349
-0.076340407 -0.12441842 -0.19301349
-0.059320744 -0.12441842 -0.19301349
-0.042301085 -0.12441842 -0.19301349
-0.025281426 -0.12441842 -0.19301349
-0.0082617663 -0.12441842 -0.19301349
0.008757893 -0.12441842 -0.19301349
0.025777552 -0.12441842 -0.19301349
0.042797212 -0.12441842 -0.19301349
0.059816871 -0.12441842 -0.19301349
0.076836526 -0.12441842 -0.19301349
0.093856186 -0.12441842 -0.19301349
0.11087584 -0.12441842 -0.19301349
0.1278955 -0.12441842 -0.19301349
0.14491516 -0.12441842 -0.19301349
0.16193484 -0.12441842 -0.19301349
0.17895448 -0.12441842 -0.19301349
0.19597416 -0.12441842 -0.19301349
0.2129938 -0.12441842 -0.19301349
0.23001347 -0.12441842 -0.19301349
0.24703312 -0.12441842 -0.19301349
-0.24748012 -0.17648339 -0.18484586
-0.23039871 -0.17648473 -0.18483537
-0.2133161 -0.17648473 -0.18483537
-0.19623348 -0.17648473 -0.18483537
-0.17915088 -0.17648473 -0.18483537
-0.16206746 -0.17648339 -0.18484586
-0.14498492 -0.17648339 -0.18484586
-0.12790239 -0.17648339 -0.18484586
-0.11082041 -0.17648473 -0.18483537
-0.093737796 -0.17648473 -0.18483537
0.094195828 -0.17656422 -0.18418932
0.11125357 -0.17648473 -0.18483537
0.12833564 -0.17648339 -0.18484586
0.14541817 -0.17648339 -0.18484586
0.16250069 -0.17648339 -0.18484586
0.17958404 -0.17648473 -0.18483537
0.19666666 -0.17648473 -0.18483537
0.21374926 -0.17648473 -0.18483537
0.23083188 -0.17648473 -0.18483537
0.24791338 -0.17648339 -0.18484586
0.26514393 -0.17664132 -0.18356377
-0.24870074 -0.19494933 -0.17427504
-0.23153684 -0.19494933 -0.17427504
-0.2143729 -0.19494933 -0.17427504
-0.19720902 -0.19494933 -0.17427504
-0.18004511 -0.19494933 -0.17427504
-0.16288038 -0.1949479 -0.17428559
-0.14571874 -0.19495204 -0.174254
-0.12855338 -0.19494933 -0.17427504
-0.11138947 -0.19494933 -0.17427504
-0.094225556 -0.19494933 -0.17427504
-0.077281594 -0.19569716 -0.16856074
-0.0600737 -0.19569716 -0.16856074
-0.042865798 -0.19569716 -0.16856074
-0.025657903 -0.19569716 -0.16856074
-0.0084500052 -0.19569716 -0.16856074
0.008757893 -0.19569716 -0.16856074
0.025965791 -0.19569716 -0.16856074
0.043173689 -0.19569716 -0.16856074
0.060381584 -0.19569716 -0.16856074
0.077589482 -0.19569716 -0.16856074
0.094577432 -0.19494933 -0.17427504
0.11174135 -0.19494933 -0.17427504
0.12890525 -0.19494933 -0.17427504
0.14607045 -0.19495204 -0.174254
0.16323161 -0.19494659 -0.17429608
0.18039697 -0.19494933 -0.17427504
0.19756089 -0.19494933 -0.17427504
0.21472479 -0.19494933 -0.17427504
0.23188868 -0.19494933 -0.17427504
0.24905261 -0.19494933 -0.17427504
-0.077058822 -0.17777634 -0.17434865
-0.059895474 -0.17777634 -0.17434865
-0.042732131 -0.17777634 -0.17434865
-0.025568791 -0.17777634 -0.17434865
-0.0084054489 -0.17777634 -0.17434865
0.008757893 -0.17777634 -0.17434865
0.025921235 -0.17777634 -0.17434865
0.043084577 -0.17777634 -0.17434865
0.060247917 -0.17777634 -0.17434865
0.077411264 -0.17777634 -0.17434865
-0.24939352 -0.10968398 -0.1682753
-0.23208205 -0.10959711 -0.16921592
-0.2148792 -0.10959711 -0.16921592
-0.19767636 -0.10959711 -0.16921592
-0.18047349 -0.10959711 -0.16921592
-0.16327065 -0.10959711 -0.16921592
-0.1460678 -0.10959711 -0.16921592
-0.12886494 -0.10959711 -0.16921592
-0.11166207 -0.10959711 -0.16921592
-0.094459236 -0.10959711 -0.16921592
-0.077256382 -0.10959711 -0.16921592
-0.060053524 -0.10959711 -0.16921592
-0.042850669 -0.10959711 -0.16921592
-0.025647815 -0.10959711 -0.16921592
-0.0084449612 -0.10959711 -0.16921592
0.008757893 -0.10959711 -0.16921592
0.025960747 -0.10959711 -0.16921592
0.043163601 -0.10959711 -0.16921592
0.060366455 -0.10959711 -0.16921592
0.077569306 -0.10959711 -0.16921592
0.09477216 -0.10959711 -0.16921592
0.11197501 -0.10959711 -0.16921592
0.12917787 -0.10959711 -0.16921592
0.14638072 -0.10959711 -0.16921592
0.16358358 -0.10959711 -0.16921592
0.18078643 -0.10959711 -0.16921592
0.19798927 -0.10959711 -0.16921592
0.21519214 -0.10959711 -0.16921592
0.23239498 -0.10959711 -0.16921592
0.24959783 -0.10959711 -0.16921592
-0.060528431 -0.28423762 -0.1537928
-0.02586006 -0.28396031 -0.15543014
-0.0085553639 -0.28405455 -0.15487391
0.026065139 -0.28392228 -0.15565479
0.060728818 -0.28428307 -0.15352494
-0.25048095 -0.26609722 -0.15885788
-0.23319837 -0.26609722 -0.15885788
-0.21591577 -0.26609722 -0.15885788
-0.19863319 -0.26609722 -0.15885788
-0.18135059 -0.26609722 -0.15885788
-0.164068 -0.26609722 -0.15885788
-0.14678542 -0.26609722 -0.15885788
-0.12950283 -0.26609722 -0.15885788
-0.11222024 -0.26609722 -0.15885788
-0.094937652 -0.26609722 -0.15885788
-0.077655047 -0.26609722 -0.15885788
-0.060372468 -0.26609722 -0.15885788
-0.043089878 -0.26609722 -0.15885788
-0.025807288 -0.26609722 -0.15885788
-0.0085246973 -0.26609722 -0.15885788
0.008757893 -0.26609722 -0.15885788
0.026040483 -0.26609722 -0.15885788
0.043323074 -0.26609722 -0.15885788
0.060605664 -0.26609722 -0.15885788
0.07788825 -0.26609722 -0.15885788
0.095170841 -0.26609722 -0.15885788
0.11245343 -0.26609722 -0.15885788
0.12973602 -0.26609722 -0.15885788
0.14701861 -0.26609722 -0.15885788
0.1643012 -0.26609722 -0.15885788
0.18158378 -0.26609722 -0.15885788
0.19886637 -0.26609722 -0.15885788
0.21614897 -0.26609722 -0.15885788
0.23343155 -0.26609722 -0.15885788
0.25071415 -0.26609722 -0.15885788
-0.25072247 -0.24913666 -0.15676612
-0.23342378 -0.24913666 -0.15676612
-0.2161251 -0.24913666 -0.15676612
-0.1988264 -0.24913666 -0.15676612
-0.18152772 -0.24913666 -0.15676612
-0.16422902 -0.24913666 -0.15676612
-0.14693034 -0.24913666 -0.15676612
-0.12963164 -0.24913666 -0.15676612
-0.11233294 -0.24913666 -0.15676612
-0.095034257 -0.24913666 -0.15676612
-0.077735558 -0.24913666 -0.15676612
-0.060436871 -0.24913666 -0.15676612
-0.04313818 -0.24913666 -0.15676612
-0.025839489 -0.24913666 -0.15676612
-0.008540798 -0.24913666 -0.15676612
0.008757893 -0.24913666 -0.15676612
0.026056584 -0.24913666 -0.15676612
0.043355275 -0.24913666 -0.15676612
0.060653966 -0.24913666 -0.15676612
0.077952653 -0.24913666 -0.15676612
0.095251352 -0.24913666 -0.15676612
0.11255004 -0.24913666 -0.15676612
0.12984873 -0.24913666 -0.15676612
0.14714742 -0.24913666 -0.15676612
0.16444612 -0.24913666 -0.15676612
0.1817448 -0.24913666 -0.15676612
0.1990435 -0.24913666 -0.15676612
0.21634218 -0.24913666 -0.15676612
0.23364088 -0.24913666 -0.15676612
0.25093958 -0.24913666 -0.15676612
-0.25117716 -0.23241395 -0.15282834
-0.23384817 -0.23241395 -0.15282834
-0.21651918 -0.23241395 -0.15282834
-0.19919015 -0.23241395 -0.15282834
-0.18186116 -0.23241395 -0.15282834
-0.16453215 -0.23241395 -0.15282834
-0.14720315 -0.23241395 -0.15282834
-0.12987414 -0.23241395 -0.15282834
-0.11254513 -0.23241395 -0.15282834
-0.095216125 -0.23241395 -0.15282834
-0.077887133 -0.23241395 -0.15282834
-0.060558122 -0.23241395 -0.15282834
-0.043229118 -0.23241395 -0.15282834
-0.025900114 -0.23241395 -0.15282834
-0.0085711107 -0.23241395 -0.15282834
0.008757893 -0.23241395 -0.15282834
0.026086897 -0.23241395 -0.15282834
0.0434159 -0.23241395 -0.15282834
0.060744904 -0.23241395 -0.15282834
0.078073904 -0.23241395 -0.15282834
0.095402911 -0.23241395 -0.15282834
0.11273192 -0.23241395 -0.15282834
0.13006093 -0.23241395 -0.15282834
0.14738992 -0.23241395 -0.15282834
0.16471893 -0.23241395 -0.15282834
0.18204793 -0.23241395 -0.15282834
0.19937694 -0.23241395 -0.15282834
0.21670593 -0.23241395 -0.15282834
0.23403496 -0.23241395 -0.15282834
0.25136396 -0.23241395 -0.15282834
-0.24993303 -0.21359196 -0.16360307
-0.23268695 -0.21359196 -0.16360307
-0.21544091 -0.21359196 -0.16360307
-0.19819485 -0.21359196 -0.16360307
-0.18094879 -0.21359196 -0.16360307
-0.16370273 -0.21359196 -0.16360307
-0.14645667 -0.21359196 -0.16360307
-0.12921061 -0.21359196 -0.16360307
-0.11196452 -0.21359196 -0.16360307
-0.094718471 -0.21359196 -0.16360307
-0.077505529 -0.21371114 -0.16274285
-0.060252842 -0.21371114 -0.16274285
-0.043000162 -0.21371114 -0.16274285
-0.025747474 -0.21371114 -0.16274285
-0.0084947906 -0.21371114 -0.16274285
0.008757893 -0.21371114 -0.16274285
0.026010577 -0.21371114 -0.16274285
0.04326326 -0.21371114 -0.16274285
0.060515948 -0.21371114 -0.16274285
0.077768624 -0.21371114 -0.16274285
0.094988197 -0.21359196 -0.16360307
0.11223426 -0.21359196 -0.16360307
0.12948032 -0.21359196 -0.16360307
0.14672638 -0.21359196 -0.16360307
0.16397245 -0.21359196 -0.16360307
0.1812185 -0.21359196 -0.16360307
0.19846457 -0.21359196 -0.16360307
0.21571063 -0.21359196 -0.16360307
0.23295669 -0.21359196 -0.16360307
0.25020275 -0.21359196 -0.16360307
-0.060913432 -0.30377305 -0.14128929
-0.026090782 -0.30392265 -0.14044422
-0.0086598564 -0.30377111 -0.14130008
0.02618365 -0.30395523 -0.14026004
0.061011393 -0.30377305 -0.14128929
-0.25213 -0.28579846 -0.14457655
-0.23473749 -0.28579846 -0.14457655
-0.21734495 -0.28579846 -0.14457655
-0.19995242 -0.28579846 -0.14457655
-0.18255991 -0.28579846 -0.14457655
-0.16516738 -0.28579846 -0.14457655
-0.14777483 -0.28579846 -0.14457655
-0.13038233 -0.28579846 -0.14457655
-0.1129898 -0.28579846 -0.14457655
-0.095597267 -0.28579846 -0.14457655
-0.078204736 -0.28579846 -0.14457655
-0.043375589 -0.28547508 -0.14648628
0.008757893 -0.28579846 -0.14457655
0.043542948 -0.28579846 -0.14457655
0.078327999 -0.28579846 -0.14457655
0.09572053 -0.28579846 -0.14457655
0.11311305 -0.28579846 -0.14457655
0.13050558 -0.28579846 -0.14457655
0.14789811 -0.28579846 -0.14457655
0.16529061 -0.28579846 -0.14457655
0.18268315 -0.28579846 -0.14457655
0.20007569 -0.28579846 -0.14457655
0.2174682 -0.28579846 -0.14457655
0.23486073 -0.28579846 -0.14457655
0.25225326 -0.28579846 -0.14457655
-0.23461419 -0.094383813 -0.14572054
-0.21723047 -0.094383813 -0.14572054
-0.19984674 -0.094383813 -0.14572054
-0.18246303 -0.094383813 -0.14572054
-0.16507931 -0.094383813 -0.14572054
-0.1476956 -0.094383813 -0.14572054
-0.13031186 -0.094383813 -0.14572054
-0.11292815 -0.094383813 -0.14572054
-0.095544428 -0.094383813 -0.14572054
-0.078160703 -0.094383813 -0.14572054
-0.060776982 -0.094383813 -0.14572054
-0.043393265 -0.094383813 -0.14572054
-0.026009545 -0.094383813 -0.14572054
-0.0086258259 -0.094383813 -0.14572054
0.008757893 -0.094383813 -0.14572054
0.026141612 -0.094383813 -0.14572054
0.043525331 -0.094383813 -0.14572054
0.060909051 -0.094383813 -0.14572054
0.078292772 -0.094383813 -0.14572054
0.095676497 -0.094383813 -0.14572054
0.11306021 -0.094383813 -0.14572054
0.13044393 -0.094383813 -0.14572054
0.14782764 -0.094383813 -0.14572054
0.16521138 -0.094383813 -0.14572054
0.18259509 -0.094383813 -0.14572054
0.19997881 -0.094383813 -0.14572054
0.21736252 -0.094383813 -0.14572054
0.23474625 -0.094383813 -0.14572054
-0.25380018 -0.30575189 -0.13011247
-0.23629631 -0.30575189 -0.13011247
-0.21879244 -0.30575189 -0.13011247
-0.20128857 -0.30575189 -0.13011247
-0.18378471 -0.30575189 -0.13011247
-0.16628082 -0.30575189 -0.13011247
-0.14877696 -0.30575189 -0.13011247
-0.13127309 -0.30575189 -0.13011247
-0.1137692 -0.30575189 -0.13011247
-0.096265331 -0.30575189 -0.13011247
-0.078761458 -0.30575189 -0.13011247
-0.043753721 -0.30575189 -0.13011247
0.008757893 -0.30575189 -0.13011247
0.043765638 -0.30575189 -0.13011247
0.078773379 -0.30575189 -0.13011247
0.096277252 -0.30575189 -0.13011247
0.11378112 -0.30575189 -0.13011247
0.131285 -0.30575189 -0.13011247
0.14878887 -0.30575189 -0.13011247
0.16629274 -0.30575189 -0.13011247
0.1837966 -0.30575189 -0.13011247
0.20130049 -0.30575189 -0.13011247
0.21880434 -0.30575189 -0.13011247
0.23630822 -0.30575189 -0.13011247
0.2538121 -0.30575189 -0.13011247
-0.25377744 -0.095688738 -0.1303094
0.25340378 -0.095384635 -0.13390112
-0.23704825 -0.078738742 -0.12313539
-0.21949068 -0.078738742 -0.12313539
-0.20193307 -0.078738742 -0.12313539
-0.18437549 -0.078738742 -0.12313539
-0.16681792 -0.078738742 -0.12313539
-0.14926034 -0.078738742 -0.12313539
-0.13170275 -0.078738742 -0.12313539
-0.11414517 -0.078738742 -0.12313539
-0.096587583 -0.078738742 -0.12313539
-0.079030007 -0.078738742 -0.12313539
-0.061472427 -0.078738742 -0.12313539
-0.043914847 -0.078738742 -0.12313539
-0.026357267 -0.078738742 -0.12313539
-0.008799687 -0.078738742 -0.12313539
0.008757893 -0.078738742 -0.12313539
0.026315473 -0.078738742 -0.12313539
0.043873053 -0.078738742 -0.12313539
0.061430633 -0.078738742 -0.12313539
0.078988209 -0.078738742 -0.12313539
0.096545801 -0.078738742 -0.12313539
0.11410338 -0.078738742 -0.12313539
0.13166097 -0.078738742 -0.12313539
0.14921853 -0.078738742 -0.12313539
0.16677612 -0.078738742 -0.12313539
0.1843337 -0.078738742 -0.12313539
0.20189127 -0.078738742 -0.12313539
0.21944885 -0.078738742 -0.12313539
0.23700646 -0.078738742 -0.12313539
-0.2554906 -0.32596046 -0.11547309
-0.23787405 -0.32596046 -0.11547309
-0.22025748 -0.32596046 -0.11547309
-0.20264091 -0.32596046 -0.11547309
-0.18502434 -0.32596046 -0.11547309
-0.16740777 -0.32596046 -0.11547309
-0.14979121 -0.32596046 -0.11547309
-0.13217464 -0.32596046 -0.11547309
-0.11455807 -0.32596046 -0.11547309
-0.096941501 -0.32596046 -0.11547309
-0.079324931 -0.32596046 -0.11547309
-0.061708372 -0.32596046 -0.11547309
-0.044091806 -0.32596046 -0.11547309
-0.02647524 -0.32596046 -0.11547309
-0.0088586733 -0.32596046 -0.11547309
0.008757893 -0.32596046 -0.11547309
0.026374459 -0.32596046 -0.11547309
0.043991026 -0.32596046 -0.11547309
0.061607592 -0.32596046 -0.11547309
0.079224154 -0.32596046 -0.11547309
0.096840724 -0.32596046 -0.11547309
0.11445729 -0.32596046 -0.11547309
0.13207386 -0.32596046 -0.11547309
0.14969042 -0.32596046 -0.11547309
0.16730699 -0.32596046 -0.11547309
0.18492354 -0.32596046 -0.11547309
0.20254011 -0.32596046 -0.11547309
0.22015668 -0.32596046 -0.11547309
0.23777325 -0.32596046 -0.11547309
0.25538984 -0.32596046 -0.11547309
-0.23919554 -0.062561534 -0.10321093
-0.22148459 -0.062561534 -0.10321093
-0.20377363 -0.062561534 -0.10321093
-0.18606266 -0.062561534 -0.10321093
-0.16835171 -0.062561534 -0.10321093
-0.15064074 -0.062561534 -0.10321093
-0.1329298 -0.062561534 -0.10321093
-0.11521882 -0.062561534 -0.10321093
-0.097507864 -0.062561534 -0.10321093
-0.07979691 -0.062561534 -0.10321093
-0.062085953 -0.062561534 -0.10321093
-0.044374987 -0.062561534 -0.10321093
-0.02666403 -0.062561534 -0.10321093
-0.0089530684 -0.062561534 -0.10321093
0.008757893 -0.062561534 -0.10321093
0.026468854 -0.062561534 -0.10321093
0.044179816 -0.062561534 -0.10321093
0.061890773 -0.062561534 -0.10321093
0.079601735 -0.062561534 -0.10321093
0.097312689 -0.062561534 -0.10321093
0.11502366 -0.062561534 -0.10321093
0.13273461 -0.062561534 -0.10321093
0.15044558 -0.062561534 -0.10321093
0.16815652 -0.062561534 -0.10321093
0.18586749 -0.062561534 -0.10321093
0.20357844 -0.062561534 -0.10321093
0.22128941 -0.062561534 -0.10321093
0.23900037 -0.062561534 -0.10321093
-0.24055082 -0.045624964 -0.090635478
-0.22274306 -0.045624964 -0.090635478
-0.2049353 -0.045624964 -0.090635478
-0.18712755 -0.045624964 -0.090635478
-0.16931976 -0.045624964 -0.090635478
-0.151512 -0.045624964 -0.090635478
-0.13370425 -0.045624964 -0.090635478
-0.11589646 -0.045624964 -0.090635478
-0.098088697 -0.045624964 -0.090635478
-0.08028093 -0.045624964 -0.090635478
-0.062473174 -0.045624964 -0.090635478
-0.044665404 -0.045624964 -0.090635478
-0.026857641 -0.045624964 -0.090635478
-0.0090498738 -0.045624964 -0.090635478
0.008757893 -0.045624964 -0.090635478
0.02656566 -0.045624964 -0.090635478
0.044373427 -0.045624964 -0.090635478
0.06218119 -0.045624964 -0.090635478
0.079988956 -0.045624964 -0.090635478
0.097796723 -0.045624964 -0.090635478
0.11560449 -0.045624964 -0.090635478
0.13341224 -0.045624964 -0.090635478
0.15122002 -0.045624964 -0.090635478
0.16902778 -0.045624964 -0.090635478
0.18683554 -0.045624964 -0.090635478
0.20464332 -0.045624964 -0.090635478
0.22245108 -0.045624964 -0.090635478
0.24025884 -0.045624964 -0.090635478
-0.22376253 -0.028366186 -0.080448329
-0.20587635 -0.028366186 -0.080448329
-0.18799016 -0.028366186 -0.080448329
-0.17010397 -0.028366186 -0.080448329
-0.15221778 -0.028366186 -0.080448329
-0.1343316 -0.028366186 -0.080448329
-0.11644541 -0.028366186 -0.080448329
-0.098559231 -0.028366186 -0.080448329
-0.080673039 -0.028366186 -0.080448329
-0.062786847 -0.028366186 -0.080448329
-0.044900667 -0.028366186 -0.080448329
-0.027014479 -0.028366186 -0.080448329
-0.0091282949 -0.028366186 -0.080448329
0.008757893 -0.028366186 -0.080448329
0.026644081 -0.028366186 -0.080448329
0.044530265 -0.028366186 -0.080448329
0.062416453 -0.028366186 -0.080448329
0.080302641 -0.028366186 -0.080448329
0.098188818 -0.028366186 -0.080448329
0.11607501 -0.028366186 -0.080448329
0.13396119 -0.028366186 -0.080448329
0.15184738 -0.028366186 -0.080448329
0.16973355 -0.028366186 -0.080448329
0.18761975 -0.028366186 -0.080448329
0.20550594 -0.028366186 -0.080448329
0.22339213 -0.028366186 -0.080448329
-0.22479102 -0.010954663 -0.070171177
-0.20682572 -0.010954663 -0.070171177
-0.18886042 -0.010954663 -0.070171177
-0.17089511 -0.010954663 -0.070171177
-0.15292981 -0.010954663 -0.070171177
-0.1349645 -0.010954663 -0.070171177
-0.11699921 -0.010954663 -0.070171177
-0.099033907 -0.010954663 -0.070171177
-0.081068605 -0.010954663 -0.070171177
-0.063103303 -0.010954663 -0.070171177
-0.045138009 -0.010954663 -0.070171177
-0.027172707 -0.010954663 -0.070171177
-0.009207407 -0.010954663 -0.070171177
0.008757893 -0.010954663 -0.070171177
0.026723193 -0.010954663 -0.070171177
0.044688493 -0.010954663 -0.070171177
0.062653795 -0.010954663 -0.070171177
0.080619097 -0.010954663 -0.070171177
0.098584399 -0.010954663 -0.070171177
0.1165497 -0.010954663 -0.070171177
0.13451499 -0.010954663 -0.070171177
0.15248027 -0.010954663 -0.070171177
0.17044559 -0.010954663 -0.070171177
0.18841089 -0.010954663 -0.070171177
0.20637619 -0.010954663 -0.070171177
0.2243415 -0.010954663 -0.070171177
0.26156127 -0.08373671 -0.058209002
-0.24374354 -0.029413573 -0.061010718
0.2428731 -0.02922494 -0.064512134
-0.22593804 0.0065695122 -0.058709443
-0.20788451 0.0065695122 -0.058709443
-0.18983096 0.0065695122 -0.058709443
-0.17177744 0.0065695122 -0.058709443
-0.1537239 0.0065695122 -0.058709443
-0.13567038 0.0065695122 -0.058709443
-0.11761685 0.0065695122 -0.058709443
-0.099563301 0.0065695122 -0.058709443
-0.081509769 0.0065695122 -0.058709443
-0.063456237 0.0065695122 -0.058709443
-0.045402706 0.0065695122 -0.058709443
-0.027349174 0.0065695122 -0.058709443
-0.0092956405 0.0065695122 -0.058709443
0.008757893 0.0065695122 -0.058709443
0.026811427 0.0065695122 -0.058709443
0.04486496 0.0065695122 -0.058709443
0.062918492 0.0065695122 -0.058709443
0.080972031 0.0065695122 -0.058709443
0.099025562 0.0065695122 -0.058709443
0.11707909 0.0065695122 -0.058709443
0.13513263 0.0065695122 -0.058709443
0.15318616 0.0065695122 -0.058709443
0.17123967 0.0065695122 -0.058709443
0.18929322 0.0065695122 -0.058709443
0.20734674 0.0065695122 -0.058709443
0.22540028 0.0065695122 -0.058709443
-0.26448366 -0.085323878 -0.037590802
-0.20896243 0.024263695 -0.047040522
-0.19081905 0.024263695 -0.047040522
-0.17267571 0.024263695 -0.047040522
-0.15453234 0.024263695 -0.047040522
-0.13638899 0.024263695 -0.047040522
-0.11824563 0.024263695 -0.047040522
-0.10010226 0.024263695 -0.047040522
-0.081958905 0.024263695 -0.047040522
-0.063815549 0.024263695 -0.047040522
-0.045672186 0.024263695 -0.047040522
-0.027528826 0.024263695 -0.047040522
-0.0093854666 0.024263695 -0.047040522
0.008757893 0.024263695 -0.047040522
0.026901253 0.024263695 -0.047040522
0.045044612 0.024263695 -0.047040522
0.063187972 0.024263695 -0.047040522
0.081331328 0.024263695 -0.047040522
0.099474698 0.024263695 -0.047040522
0.11761805 0.024263695 -0.047040522
0.13576141 0.024263695 -0.047040522
0.15390477 0.024263695 -0.047040522
0.17204812 0.024263695 -0.047040522
0.19019149 0.024263695 -0.047040522
0.20833483 0.024263695 -0.047040522
0.24702108 -0.013130426 -0.023063362
-0.22880419 0.023741119 -0.030069113
0.22770843 0.023853682 -0.033723056
-0.21005222 0.042134691 -0.035243213
-0.19181806 0.042134691 -0.035243213
-0.17358387 0.042134691 -0.035243213
-0.15534969 0.042134691 -0.035243213
-0.13711552 0.042134691 -0.035243213
-0.11888134 0.042134691 -0.035243213
-0.10064717 0.042134691 -0.035243213
-0.082412988 0.042134691 -0.035243213
-0.06417881 0.042134691 -0.035243213
-0.045944635 0.042134691 -0.035243213
-0.02771046 0.042134691 -0.035243213
-0.0094762836 0.042134691 -0.035243213
0.008757893 0.042134691 -0.035243213
0.02699207 0.042134691 -0.035243213
0.045226246 0.042134691 -0.035243213
0.063460425 0.042134691 -0.035243213
0.081694603 0.042134691 -0.035243213
0.099928766 0.042134691 -0.035243213
0.11816294 0.042134691 -0.035243213
0.13639712 0.042134691 -0.035243213
0.1546313 0.042134691 -0.035243213
0.17286547 0.042134691 -0.035243213
0.19109964 0.042134691 -0.035243213
0.20933384 0.042134691 -0.035243213
-0.21115188 0.060185559 -0.023339033
-0.19282606 0.060185559 -0.023339033
-0.17450026 0.060185559 -0.023339033
-0.15617442 0.060185559 -0.023339033
-0.1378486 0.060185559 -0.023339033
-0.11952281 0.060185559 -0.023339033
-0.10119699 0.060185559 -0.023339033
-0.082871184 0.060185559 -0.023339033
-0.064545363 0.060185559 -0.023339033
-0.04621955 0.060185559 -0.023339033
-0.027893733 0.060185559 -0.023339033
-0.0095679201 0.060185559 -0.023339033
0.008757893 0.060185559 -0.023339033
0.027083706 0.060185559 -0.023339033
0.045409519 0.060185559 -0.023339033
0.063735336 0.060185559 -0.023339033
0.082061142 0.060185559 -0.023339033
0.10038696 0.060185559 -0.023339033
0.11871278 0.060185559 -0.023339033
0.13703859 0.060185559 -0.023339033
0.15536438 0.060185559 -0.023339033
0.1736902 0.060185559 -0.023339033
0.19201604 0.060185559 -0.023339033
0.21034184 0.060185559 -0.023339033
-0.24821889 -0.013295814 -0.019484758
-0.19384529 0.078418702 -0.01130259
-0.17542681 0.078418702 -0.01130259
-0.15700833 0.078418702 -0.01130259
-0.13858987 0.078418702 -0.01130259
-0.12017141 0.078418702 -0.01130259
-0.10175294 0.078418702 -0.01130259
-0.083334461 0.078418702 -0.01130259
-0.064915985 0.078418702 -0.01130259
-0.04649752 0.078418702 -0.01130259
-0.028079048 0.078418702 -0.01130259
-0.0096605774 0.078418702 -0.01130259
0.008757893 0.078418702 -0.01130259
0.027176363 0.078418702 -0.01130259
0.045594834 0.078418702 -0.01130259
0.064013302 0.078418702 -0.01130259
0.082431778 0.078418702 -0.01130259
0.10085024 0.078418702 -0.01130259
0.11926872 0.078418702 -0.01130259
0.13768719 0.078418702 -0.01130259
0.15610565 0.078418702 -0.01130259
0.17452411 0.078418702 -0.01130259
0.19294259 0.078418702 -0.01130259
-0.21349433 0.078316122 0.0020189285
0.21217026 0.078345135 -0.0017465949
-0.19487384 0.096837126 0.00084394217
-0.17636186 0.096837126 0.00084394217
-0.15784988 0.096837126 0.00084394217
-0.1393379 0.096837126 0.00084394217
-0.12082593 0.096837126 0.00084394217
-0.10231397 0.096837126 0.00084394217
-0.083801985 0.096837126 0.00084394217
-0.065290004 0.096837126 0.00084394217
-0.046778034 0.096837126 0.00084394217
-0.028266057 0.096837126 0.00084394217
-0.0097540822 0.096837126 0.00084394217
0.008757893 0.096837126 0.00084394217
0.027269868 0.096837126 0.00084394217
0.045781843 0.096837126 0.00084394217
0.064293817 0.096837126 0.00084394217
0.082805797 0.096837126 0.00084394217
0.10131776 0.096837126 0.00084394217
0.11982974 0.096837126 0.00084394217
0.13834171 0.096837126 0.00084394217
0.15685368 0.096837126 0.00084394217
0.17536566 0.096837126 0.00084394217
0.19387764 0.096837126 0.00084394217
-0.23307382 0.041029908 0.012595594
0.23164082 0.041116446 0.0088462234
-0.19591288 0.11544358 0.013114631
-0.17730644 0.11544358 0.013114631
-0.15870002 0.11544358 0.013114631
-0.14009356 0.11544358 0.013114631
-0.12148714 0.11544358 0.013114631
-0.10288072 0.11544358 0.013114631
-0.084274277 0.11544358 0.013114631
-0.065667838 0.11544358 0.013114631
-0.04706141 0.11544358 0.013114631
-0.028454974 0.11544358 0.013114631
-0.0098485406 0.11544358 0.013114631
0.008757893 0.11544358 0.013114631
0.027364327 0.11544358 0.013114631
0.04597076 0.11544358 0.013114631
0.064577192 0.11544358 0.013114631
0.083183631 0.11544358 0.013114631
0.10179006 0.11544358 0.013114631
0.12039649 0.11544358 0.013114631
0.13900292 0.11544358 0.013114631
0.15760934 0.11544358 0.013114631
0.1762158 0.11544358 0.013114631
0.19482222 0.11544358 0.013114631
-0.25285977 0.0034022927 0.023577273
0.25130996 0.0035478622 0.019793928
-0.17826071 0.13424091 0.025510848
-0.15955886 0.13424091 0.025510848
-0.140857 0.13424091 0.025510848
-0.12215514 0.13424091 0.025510848
-0.10345328 0.13424091 0.025510848
-0.084751412 0.13424091 0.025510848
-0.066049546 0.13424091 0.025510848
-0.047347691 0.13424091 0.025510848
-0.028645828 0.13424091 0.025510848
-0.0099439677 0.13424091 0.025510848
0.008757893 0.13424091 0.025510848
0.027459754 0.13424091 0.025510848
0.046161614 0.13424091 0.025510848
0.064863473 0.13424091 0.025510848
0.083565339 0.13424091 0.025510848
0.10226719 0.13424091 0.025510848
0.12096906 0.13424091 0.025510848
0.13967092 0.13424091 0.025510848
0.15837277 0.13424091 0.025510848
0.17707464 0.13424091 0.025510848
0.19619648 0.13432485 0.030966699
-0.21753442 0.096837126 0.045754015
0.2158909 0.096837088 0.04219228
-0.19774576 0.13438325 0.034759939
-0.17945428 0.15330082 0.041015685
-0.16063307 0.15330082 0.041015685
-0.14181185 0.15330082 0.041015685
-0.12299064 0.15330082 0.041015685
-0.10416941 0.15330082 0.041015685
-0.085348189 0.15330082 0.041015685
-0.066526979 0.15330082 0.041015685
-0.047705758 0.15330082 0.041015685
-0.028884541 0.15330082 0.041015685
-0.010063324 0.15330082 0.041015685
0.008757893 0.15330082 0.041015685
0.02757911 0.15330082 0.041015685
0.046400327 0.15330082 0.041015685
0.065221548 0.15330082 0.041015685
0.084042758 0.15330082 0.041015685
0.10286398 0.15330082 0.041015685
0.12168519 0.15330082 0.041015685
0.14050642 0.15330082 0.041015685
0.15932763 0.15330082 0.041015685
0.17814885 0.15330082 0.041015685
-0.23750359 0.058950786 0.056860507
0.23574297 0.059006248 0.053253591
-0.18103261 0.17275336 0.061519086
-0.16198234 0.17272171 0.060490787
-0.1430112 0.17272171 0.060490787
-0.12404007 0.17272171 0.060490787
-0.10506892 0.17272171 0.060490787
-0.086097792 0.17272171 0.060490787
-0.067126647 0.17272171 0.060490787
-0.048155516 0.17272171 0.060490787
-0.029184379 0.17272171 0.060490787
-0.010213243 0.17272171 0.060490787
0.008757893 0.17272171 0.060490787
0.027729029 0.17272171 0.060490787
0.046700165 0.17272171 0.060490787
0.065671302 0.17272171 0.060490787
0.08464244 0.17272171 0.060490787
0.10361357 0.17272171 0.060490787
0.12258472 0.17272171 0.060490787
0.14155585 0.17272171 0.060490787
0.16052698 0.17272171 0.060490787
0.17950524 0.17272481 0.060593665
0.25760093 0.02026999 0.08265692
0.21971349 0.11601491 0.08733505
-0.20154938 0.15419361 0.079678476
0.19966248 0.15410842 0.075991452
-0.16389583 0.19275588 0.088109672
-0.14471209 0.19275588 0.088109672
-0.12552834 0.19275588 0.088109672
-0.1063446 0.19275588 0.088109672
-0.087160841 0.19275588 0.088109672
-0.067977101 0.19275588 0.088109672
-0.048793353 0.19275588 0.088109672
-0.029609602 0.19275588 0.088109672
-0.010425854 0.19275588 0.088109672
0.008757893 0.19275588 0.088109672
0.02794164 0.19275588 0.088109672
0.047125388 0.19275588 0.088109672
0.066309139 0.19275588 0.088109672
0.085492879 0.19275588 0.088109672
0.10467663 0.19275588 0.088109672
0.12386039 0.19275588 0.088109672
0.14304411 0.19275588 0.088109672
0.16222787 0.19275588 0.088109672
-0.26150423 0.01961939 0.10378784
-0.24208802 0.077541322 0.10267097
0.23995736 0.077570461 0.098875701
-0.22172895 0.11604442 0.091161311
-0.18379416 0.19311319 0.097392499
0.18198325 0.19307342 0.096360505
-0.16585922 0.21324846 0.11644882
-0.14645731 0.21324846 0.11644882
-0.12705542 0.21324846 0.11644882
-0.10765353 0.21324846 0.11644882
-0.088251606 0.21324846 0.11644882
-0.068849713 0.21324846 0.11644882
-0.049447816 0.21324846 0.11644882
-0.030045912 0.21324846 0.11644882
-0.010644009 0.21324846 0.11644882
0.008757893 0.21324846 0.11644882
0.028159795 0.21324846 0.11644882
0.047561698 0.21324846 0.11644882
0.066963598 0.21324846 0.11644882
0.086365506 0.21324846 0.11644882
0.1057674 0.21324846 0.11644882
0.12516931 0.21324846 0.11644882
0.1445712 0.21324846 0.11644882
0.16397309 0.21324846 0.11644882
-0.20550722 0.17475179 0.12641805
0.20325598 0.17463639 0.12267214
-0.22607815 0.13597651 0.13824254
0.22370408 0.13591823 0.13446146
-0.18663305 0.21407166 0.13427061
0.1845399 0.21402514 0.13326257
-0.24684364 0.09683717 0.15019184
0.24434391 0.09683717 0.14636129
-0.16837405 0.23460642 0.15274721
-0.14869273 0.23460642 0.15274721
-0.12901139 0.23460642 0.15274721
-0.10933007 0.23460642 0.15274721
-0.089648739 0.23460642 0.15274721
-0.069967419 0.23460642 0.15274721
-0.050286088 0.23460642 0.15274721
-0.030604761 0.23460642 0.15274721
-0.010923434 0.23460642 0.15274721
0.008757893 0.23460642 0.15274721
0.02843922 0.23460642 0.15274721
0.048120547 0.23460642 0.15274721
0.067801878 0.23460642 0.15274721
0.087483197 0.23460642 0.15274721
0.10716453 0.23460642 0.15274721
0.12684585 0.23460642 0.15274721
0.14652717 0.23460642 0.15274721
0.16620851 0.23460642 0.15274721
0.2069733 0.19594485 0.17096168
-0.18956231 0.23566118 0.17232281
0.18717606 0.23560682 0.17131227
-0.23059595 0.15667564 0.18714911
0.22783417 0.15658523 0.18323535
-0.20960972 0.19609517 0.1748665
-0.17080767 0.27640262 0.18787354
-0.15085594 0.27640262 0.18787354
-0.13090423 0.27640262 0.18787354
-0.1109525 0.27640262 0.18787354
-0.091000751 0.27640262 0.18787354
-0.07104902 0.27640262 0.18787354
-0.0510973 0.27640262 0.18787354
-0.031145785 0.27640367 0.18788785
-0.011193836 0.27640262 0.18787354
0.008757893 0.27640262 0.18787354
0.028709622 0.27640262 0.18787354
0.048661351 0.27640262 0.18787354
0.06861341 0.27640367 0.18788785
0.088564813 0.27640262 0.18787354
0.10851653 0.27640262 0.18787354
0.12846828 0.27640262 0.18787354
0.14842001 0.27640262 0.18787354
-0.25178161 0.1168786 0.19953495
0.24890277 0.11684921 0.19571239
-0.17096236 0.25658846 0.19010621
-0.15099345 0.25658846 0.19010621
-0.13102454 0.25658846 0.19010621
-0.11105561 0.25658846 0.19010621
-0.091086701 0.25658846 0.19010621
-0.071117774 0.25658846 0.19010621
-0.051148858 0.25658846 0.19010621
-0.031179942 0.25658846 0.19010621
-0.011211025 0.25658846 0.19010621
0.008757893 0.25658846 0.19010621
0.028726811 0.25658846 0.19010621
0.048695728 0.25658846 0.19010621
0.06866464 0.25658846 0.19010621
0.088633567 0.25658846 0.19010621
0.10860248 0.25658846 0.19010621
0.12857139 0.25658846 0.19010621
0.14854032 0.25658846 0.19010621
0.16850923 0.25658846 0.19010621
0.16860659 0.27666697 0.19168741
-0.19265874 0.25797042 0.21254653
0.18988849 0.25784212 0.21046299
-0.19260412 0.27806303 0.21183711
-0.19251391 0.29810894 0.21066529
-0.1718563 0.29751962 0.20300931
-0.15178807 0.29751962 0.20300931
-0.13171983 0.29751962 0.20300931
-0.11165157 0.29751962 0.20300931
-0.091583326 0.29751962 0.20300931
-0.071515083 0.29751962 0.20300931
-0.05144684 0.29751962 0.20300931
-0.031378597 0.29751962 0.20300931
-0.011310352 0.29751962 0.20300931
0.008757893 0.29751962 0.20300931
0.028826138 0.29751962 0.20300931
0.048894383 0.29751962 0.20300931
0.068962626 0.29751962 0.20300931
0.089030877 0.29751962 0.20300931
0.10909912 0.29751962 0.20300931
0.12916736 0.29751962 0.20300931
0.14923561 0.29751962 0.20300931
0.16940749 0.29764909 0.2046923
-0.21387115 0.2182712 0.22519165
0.2108411 0.21808705 0.22120589
-0.23528825 0.17818575 0.23794478
0.23213604 0.17806549 0.23403817
-0.17444871 0.3207562 0.24042743
-0.15409242 0.3207562 0.24042743
-0.13373613 0.3207562 0.24042743
-0.11337984 0.3207562 0.24042743
-0.093023553 0.3207562 0.24042743
-0.072667256 0.3207562 0.24042743
-0.052310973 0.3207562 0.24042743
-0.031954683 0.3207562 0.24042743
-0.011598395 0.3207562 0.24042743
0.008757893 0.3207562 0.24042743
0.029114181 0.3207562 0.24042743
0.049470469 0.3207562 0.24042743
0.069826759 0.3207562 0.24042743
0.090183049 0.3207562 0.24042743
0.11053933 0.3207562 0.24042743
0.13089563 0.3207562 0.24042743
0.15125191 0.3207562 0.24042743
0.17179972 0.32101965 0.24353737
0.25364155 0.13765098 0.24701113
-0.25814015 0.13789833 0.26307327
0.19333455 0.28141382 0.26020259
0.23661284 0.20040759 0.28690654
-0.21830738 0.24133325 0.27758104
0.21487103 0.2411164 0.27355629
-0.24017388 0.20055872 0.29083318
0.1970744 0.30607766 0.31418258
0.21906011 0.26507893 0.32797366
0.24127139 0.22366267 0.34192175
-0.22291996 0.26533014 0.33205289
-0.24526206 0.22384706 0.34591454
0.20097344 0.33176714 0.37046045
-0.18350504 0.3531878 0.37114447
-0.16214252 0.3531878 0.37114447
-0.14077996 0.3531878 0.37114447
-0.11941741 0.3531878 0.37114447
-0.098054856 0.3531878 0.37114447
-0.076692313 0.3531878 0.37114447
-0.055329759 0.3531878 0.37114447
-0.033967208 0.3531878 0.37114447
-0.012604658 0.3531878 0.37114447
0.008757893 0.3531878 0.37114447
0.030120444 0.3531878 0.37114447
0.051482994 0.3531878 0.37114447
0.072845548 0.3531878 0.37114447
0.094208091 0.3531878 0.37114447
0.11557065 0.3531878 0.37114447
0.13693319 0.3531878 0.37114447
0.15829574 0.3531878 0.37114447
0.17965829 0.3531878 0.37114447
0.22343311 0.29004475 0.38478082
-0.20513882 0.33212352 0.37466758
0.24613145 0.24789301 0.39931625
-0.22772942 0.29032683 0.38885003
-0.25056261 0.2481074 0.4032945
-0.20965502 0.35893258 0.43333477
0.20503853 0.35854459 0.42913502
-0.2327428 0.31638321 0.44805521
0.22799185 0.31607103 0.44400054
-0.2560955 0.27340606 0.46319002
0.25118291 0.27314633 0.45897061
-0.23797335 0.34356827 0.50982505
0.23274839 0.3432267 0.50578982
-0.31087038 0.32514304 0.56184846
0.30558535 0.32516596 0.56214613
-0.28901681 0.32589453 0.57161146
0.28365451 0.32591772 0.57191116
-0.28938836 0.34911478 0.57532459
0.28397331 0.34911788 0.57536191
-0.24343866 0.37196064 0.57436723
0.23770152 0.37156951 0.57013291
0.26267892 0.3045907 0.59473246
-0.25946119 0.41382328 0.76358432
-0.23507763 0.41382328 0.76358432
-0.21069409 0.41382328 0.76358432
-0.18631051 0.41382328 0.76358432
-0.16192697 0.41382328 0.76358432
-0.13754344 0.41382328 0.76358432
-0.11315987 0.41382328 0.76358432
-0.088776305 0.41382328 0.76358432
-0.06439276 0.41382328 0.76358432
-0.040009208 0.41382328 0.76358432
-0.015625658 0.41382328 0.76358432
0.008757893 0.41382328 0.76358432
0.033141442 0.41382328 0.76358432
0.057524994 0.41382328 0.76358432
0.081908554 0.41382328 0.76358432
0.1062921 0.41382328 0.76358432
0.13067566 0.41382328 0.76358432
0.15505922 0.41382328 0.76358432
0.17944275 0.41382328 0.76358432
0.20382629 0.41382328 0.76358432
0.22820987 0.41382328 0.76358432
0.25259343 0.41382328 0.76358432
-0.090584815 0.44453672 0.82231694
0.008757893 0.4445436 0.82238299
0.033593573 0.44453672 0.82231694
0.083264932 0.44453672 0.82231694
0.10809992 0.44453427 0.82229489
-0.041115977 0.44595423 0.83547097
-0.016078463 0.44454604 0.82240504
-0.11627206 0.44692096 0.84444124
-0.066156089 0.44643575 0.8399387
0.058749259 0.44677675 0.8431024
-0.26705658 0.44787383 0.8532818
-0.24198255 0.44787383 0.8532818
-0.21690851 0.44787383 0.8532818
-0.19183448 0.44787383 0.8532818
-0.16676041 0.44787383 0.8532818
-0.14168637 0.44787383 0.8532818
0.13412811 0.44787383 0.8532818
0.15920214 0.44787383 0.8532818
0.18427619 0.44787383 0.8532818
0.20935026 0.44787383 0.8532818
0.23442429 0.44787383 0.8532818
0.25949833 0.44787383 0.8532818
0 0 0 1 0 0 0 1 0 0 0 1 0 0 0 0 0 1058 1 0 0
