ply
format ascii 1.0
comment PCL generated
element vertex 946
property float x
property float y
property float z
element camera 1
property float view_px
property float view_py
property float view_pz
property float x_axisx
property float x_axisy
property float x_axisz
property float y_axisx
property float y_axisy
property float y_axisz
property float z_axisx
property float z_axisy
property float z_axisz
property float focal
property float scalex
property float scaley
property float centerx
property float centery
property int viewportx
property int viewporty
property float k1
property float k2
end_header
0.46105593 -0.05336402 -0.09701097
0.46155185 -0.025301389 -0.092409611
0.43361723 -0.053465523 -0.090422392
-0.38485375 0.087682664 -0.072915792
-0.3565487 0.08767844 -0.073101997
-0.32825321 0.087675594 -0.073225975
-0.29995963 0.087672755 -0.073350191
-0.27166796 0.087669864 -0.073474169
-0.24337995 0.087667488 -0.073577881
-0.21509194 0.087664589 -0.073701978
-0.18680584 0.087661751 -0.073826194
-0.15852168 0.087658852 -0.073950171
-0.13023937 0.087656073 -0.074074388
-0.10195901 0.087653175 -0.074198365
-0.073680557 0.087650336 -0.074322343
-0.04540465 0.087647729 -0.074425936
-0.017129868 0.087645121 -0.074549794
0.011143018 0.087642282 -0.074673891
0.039416216 0.087632723 -0.075087428
0.067683049 0.087637417 -0.074880719
0.095961347 0.087666906 -0.073598623
0.12423804 0.087664589 -0.073701978
0.15251315 0.087662272 -0.073805332
0.1807854 0.087658852 -0.073950171
0.2090562 0.087656073 -0.074074388
0.23732415 0.087652594 -0.074219108
0.26558763 0.08764831 -0.074405074
0.29383299 0.087638229 -0.074839354
0.32206306 0.087625369 -0.075397372
0.35024005 0.087599181 -0.076533556
-0.63936591 0.11595983 -0.073122621
-0.61073238 0.11590143 -0.075025439
-0.58212125 0.11584147 -0.076967478
-0.55374652 0.11581945 -0.077690005
-0.52546299 0.11581233 -0.07791698
-0.49720526 0.11580966 -0.077999592
-0.46894574 0.11580653 -0.078102827
-0.4406907 0.11580405 -0.078185201
-0.4124369 0.11580138 -0.078267694
-0.38418186 0.11579843 -0.078370929
-0.35593075 0.11579582 -0.078453541
-0.32767874 0.11579246 -0.078556657
-0.29943034 0.11579014 -0.07863915
-0.27118132 0.1157869 -0.078742266
-0.24293563 0.11578441 -0.078824759
-0.21468645 0.11577994 -0.07896924
-0.18644094 0.11577612 -0.079093218
-0.15819603 0.11577166 -0.079237461
-0.12995338 0.11576708 -0.079381704
-0.10171387 0.11576343 -0.079505444
-0.073475517 0.11575903 -0.079649806
-0.045239985 0.11575509 -0.079773545
-0.017005891 0.1157508 -0.079917908
0.011225656 0.11574686 -0.080041409
0.039455466 0.1157424 -0.08018589
0.067683049 0.11574177 -0.080206513
0.095921271 0.11578504 -0.078804135
0.12415726 0.11578058 -0.078948617
0.15239152 0.11577664 -0.079072356
0.18062323 0.11577218 -0.079216719
0.20885351 0.11576853 -0.079340458
0.23701239 0.11571836 -0.080969095
0.26523393 0.11571836 -0.080969095
0.29347074 0.11572589 -0.080721617
0.32186276 0.11580086 -0.078288555
-0.49797523 0.14424679 -0.072998405
-0.46965897 0.14423798 -0.073226213
-0.44134629 0.14422923 -0.073453546
-0.41303712 0.14422043 -0.073681355
-0.38473147 0.14421162 -0.073908687
-0.35642928 0.14420293 -0.074136257
-0.3281306 0.14419401 -0.074363708
-0.29983544 0.14418526 -0.07459116
-0.2715438 0.14417651 -0.074818492
-0.24325562 0.14416783 -0.075046062
-0.21497098 0.14415908 -0.075273514
-0.18668839 0.14414969 -0.07552135
-0.15841091 0.14414082 -0.075748682
-0.13013577 0.14413109 -0.075996637
-0.10186545 0.14412259 -0.076223731
-0.073597826 0.1441129 -0.076471686
-0.04533466 0.14410427 -0.07669878
-0.01707451 0.14409477 -0.076946735
0.011181507 0.14408591 -0.077173829
0.039434023 0.14407721 -0.077401042
0.067683049 0.14406846 -0.077627897
0.095942087 0.14412728 -0.076099992
0.12422499 0.14418694 -0.074549794
0.15253131 0.14424586 -0.073019028
0.23823741 0.0028320423 -0.05444622
0.35188082 0.0028320423 -0.055219412
0.38026872 0.0028320423 -0.055595517
0.40865281 0.0028319843 -0.055950642
0.43702933 0.0028320423 -0.056326628
0.067683049 0.0028321003 -0.053609848
0.18140592 0.0028321003 -0.053798079
0.20982456 0.0028321003 -0.0541116
0.26665303 0.0028321582 -0.054634452
0.29506958 0.0028321003 -0.054759622
0.32348272 0.0028321003 -0.054906011
0.46515274 0.0028321582 -0.058997631
0.4938904 0.0028321582 -0.055992484
-0.72824186 0.031257816 -0.05442524
-0.69939476 0.031242462 -0.056451917
-0.67051667 0.031224446 -0.058789015
-0.6421324 0.031224733 -0.05874753
-0.61416 0.031242231 -0.056472659
-0.58569074 0.031239623 -0.056807041
-0.55724078 0.03123771 -0.057057381
-0.52879798 0.031235915 -0.057286978
-0.5003556 0.031233888 -0.057537317
-0.47192007 0.031232208 -0.057767034
-0.44348526 0.031230353 -0.058017373
-0.41505697 0.031228555 -0.058246851
-0.38662711 0.031226471 -0.058518052
-0.35820383 0.031224446 -0.058768272
-0.32978213 0.031222474 -0.059039116
-0.30136675 0.031220447 -0.059289455
-0.27295327 0.031218477 -0.059560418
-0.24454573 0.031216448 -0.059810638
-0.21614042 0.031214481 -0.060081482
-0.18774077 0.031212393 -0.060331583
-0.15934366 0.031210365 -0.060602427
-0.13095185 0.031208454 -0.060852528
-0.10256293 0.031206368 -0.061123252
-0.074178986 0.031204399 -0.061373234
-0.045798235 0.031202313 -0.061643958
-0.017422147 0.031200575 -0.061893582
0.0109501 0.031198662 -0.062143564
0.039317377 0.031197852 -0.062247634
0.067683049 0.031191826 -0.063017726
0.096050166 0.031199126 -0.062060118
0.12441215 0.031196577 -0.062393308
0.15276949 0.031194318 -0.062705636
0.18112138 0.031191653 -0.063038468
0.20946816 0.03118916 -0.063371301
0.2378127 0.031187134 -0.063641787
0.26616204 0.031186322 -0.063745618
0.29451105 0.031185685 -0.063829064
0.32285878 0.031185105 -0.063912153
0.35120684 0.031184353 -0.06397438
0.37955219 0.031183714 -0.064057469
0.40789622 0.031183079 -0.064140677
0.43611836 0.03117317 -0.065429568
0.46515948 0.031223169 -0.058934927
-0.72716647 0.059606995 -0.059414506
-0.69817287 0.059562039 -0.062330842
-0.66937476 0.059528843 -0.064494371
-0.64060652 0.059495356 -0.066676021
-0.61273569 0.059533592 -0.06418252
-0.58421558 0.059518993 -0.065138698
-0.55583698 0.059515808 -0.065346479
-0.52746153 0.059512619 -0.06555438
-0.49908614 0.059508912 -0.065782785
-0.47071731 0.059505843 -0.065990567
-0.44235164 0.059502538 -0.06619823
-0.41398922 0.059499353 -0.066406012
-0.38562998 0.059496108 -0.066613674
-0.35727394 0.059493039 -0.066821218
-0.32891884 0.059489504 -0.067049503
-0.30056939 0.059486318 -0.067257166
-0.27222309 0.059483074 -0.067464828
-0.24388 0.059480004 -0.067672491
-0.21554011 0.0594767 -0.067879915
-0.18720344 0.059473515 -0.06808722
-0.15886864 0.059469979 -0.068315506
-0.13053852 0.05946691 -0.068523169
-0.10221443 0.059464533 -0.068668246
-0.073894195 0.059463028 -0.068772078
-0.045574911 0.059461173 -0.068896413
-0.017257549 0.059459031 -0.069020867
0.011057898 0.059457291 -0.069145441
0.039371908 0.059454337 -0.069331884
0.067683049 0.059450917 -0.069560051
0.096001528 0.059469052 -0.068377972
0.12431842 0.059467487 -0.068481684
0.1526337 0.059465922 -0.068585277
0.18094805 0.059464533 -0.068668246
0.20925951 0.059462737 -0.068792701
0.23756808 0.05946048 -0.068938017
0.26586884 0.059456769 -0.069186926
0.29415557 0.059450109 -0.069601536
0.32245886 0.05944889 -0.069684386
0.35076252 0.059448022 -0.069746494
0.37900552 0.059436202 -0.070513368
0.4074071 0.059452772 -0.069435596
0.4369207 0.059637878 -0.057412028
-0.69756329 0.087859482 -0.065263391
-0.66856015 0.087783299 -0.068564653
-0.63982415 0.087732896 -0.070741415
-0.61118716 0.087690838 -0.072563887
-0.58313918 0.087722003 -0.071217895
-0.55476892 0.087711923 -0.071652889
-0.52644217 0.087707169 -0.071859956
-0.49811864 0.087702423 -0.072066903
-0.46979827 0.087697439 -0.07227397
-0.44147825 0.087692164 -0.072501779
-0.41316438 0.087687418 -0.072708726
0.37907922 0.087758213 -0.069642901
-0.66797936 0.11601099 -0.071466565
0.35103887 0.11617425 -0.066156745
-0.67143613 0.14497046 -0.054195285
-0.6424697 0.14486271 -0.056994677
-0.61326236 0.14469562 -0.061331511
-0.58427078 0.14456116 -0.064826727
-0.55528843 0.14441654 -0.068585277
-0.52641875 0.14428492 -0.072004914
0.18086188 0.14430554 -0.071466327
0.20921877 0.14436781 -0.069850206
0.23760065 0.1444301 -0.068232536
0.26606905 0.1445363 -0.065471172
0.29472259 0.14473166 -0.060394168
-0.36105224 -0.054332588 -0.034100175
-0.33244029 -0.054328475 -0.034374952
-0.30383256 -0.054324187 -0.03464973
-0.27522907 -0.0543199 -0.034924269
-0.24663159 -0.054315962 -0.035177708
-0.21803641 -0.05431173 -0.035452485
-0.18944544 -0.054307617 -0.035726786
-0.16085869 -0.054303329 -0.036001325
-0.13227618 -0.054299101 -0.036275864
-0.1036979 -0.054294873 -0.036550164
-0.075123854 -0.054290585 -0.036824584
-0.046554029 -0.054286472 -0.037099004
-0.017988421 -0.054282241 -0.037373066
0.010572959 -0.054278072 -0.037647486
0.039134011 -0.054266021 -0.038427711
0.067683049 -0.054210864 -0.042008758
0.096230142 -0.054262023 -0.038680792
0.12476976 -0.054254666 -0.039165378
0.15330145 -0.054246843 -0.039671421
0.181826 -0.054239485 -0.040155888
0.21034309 -0.054231953 -0.040640354
0.23885176 -0.054224189 -0.041145682
0.26736283 -0.054219324 -0.041461468
0.29587558 -0.054216079 -0.041671872
0.32438651 -0.054213125 -0.041861415
0.35289454 -0.054210227 -0.042050838
0.38139963 -0.054207273 -0.042240262
0.40990183 -0.054204375 -0.042429686
0.49543709 -0.054201771 -0.04259789
0.52389443 -0.054194354 -0.043081641
0.55240768 -0.054194354 -0.043081641
0.58091795 -0.054194007 -0.043102741
0.60942793 -0.054193716 -0.043123841
0.63800234 -0.054199856 -0.042724013
0.6666714 -0.054214459 -0.041777134
0.69565475 -0.054256286 -0.039060235
-0.78948504 -0.025740191 -0.035410047
-0.7605263 -0.025726868 -0.037140965
-0.73159462 -0.025713541 -0.038870454
-0.70268989 -0.025700275 -0.040598273
-0.67381209 -0.025687007 -0.042324305
-0.64497328 -0.025674203 -0.043985844
-0.61643988 -0.025672987 -0.044133186
-0.58793098 -0.025672872 -0.044154048
-0.55942249 -0.025672639 -0.044175029
-0.53091085 -0.025672408 -0.04421711
-0.50240314 -0.025672292 -0.044237971
-0.47389579 -0.02567206 -0.044259191
-0.44538873 -0.025671944 -0.044280052
-0.41688201 -0.025671653 -0.044301271
-0.38837558 -0.025671538 -0.044322133
-0.35986704 -0.025671307 -0.044364095
-0.33135691 -0.025670728 -0.044427276
-0.30284774 -0.025670206 -0.044490337
-0.27433762 -0.025669685 -0.044574499
-0.24583057 -0.025669163 -0.044637442
-0.21732447 -0.025668584 -0.044700503
-0.18884557 -0.025671074 -0.044385314
-0.16037473 -0.025675073 -0.043859839
-0.13189584 -0.025679186 -0.043334126
-0.10340885 -0.025683183 -0.042808294
-0.074916206 -0.02568776 -0.042219043
-0.046397656 -0.025688108 -0.042177081
-0.01787214 -0.025686255 -0.042408586
0.010650795 -0.025684053 -0.042703152
0.039169028 -0.025681967 -0.042976379
0.067683049 -0.025673218 -0.044111967
0.096191891 -0.025676811 -0.043649435
0.12469976 -0.02567629 -0.043712497
0.15319987 -0.025673509 -0.044069886
0.18169382 -0.025670728 -0.044448256
0.21018276 -0.025667831 -0.044805527
0.23866719 -0.025665281 -0.045141816
0.26715434 -0.025663832 -0.045330644
0.29564118 -0.025662674 -0.045477986
0.3241272 -0.025661748 -0.045603752
0.35260969 -0.025660532 -0.045750976
0.38109168 -0.025659662 -0.045876861
0.4095698 -0.025658503 -0.046023846
0.43802884 -0.025656011 -0.046338797
0.49440718 -0.02561621 -0.051517367
0.52291477 -0.025619918 -0.051035643
0.55219585 -0.025668584 -0.044700503
0.58118039 -0.025695581 -0.041208863
0.61036468 -0.025730053 -0.036718965
-0.81722146 0.0028319843 -0.038912535
-0.75859952 0.0028319843 -0.045771956
-0.72964555 0.0028320423 -0.047912955
-0.70065546 0.0028320423 -0.050386548
-0.6718632 0.0028320423 -0.052061677
-0.64426601 0.0028320423 -0.047661185
-0.58732861 0.0028320423 -0.047556281
-0.55880719 0.0028320423 -0.047807932
-0.47327244 0.0028320423 -0.04852128
-0.41626662 0.0028320423 -0.049003482
-0.30229965 0.0028320423 -0.049967527
-0.2738162 0.0028320423 -0.05021894
-0.21686256 0.0028319843 -0.050700545
-0.18839204 0.0028320423 -0.050931096
0.01080551 0.0028320423 -0.052752376
0.096121982 0.0028320423 -0.052731395
-0.78746569 0.0028322162 -0.044154167
-0.61585003 0.0028321582 -0.047325492
-0.53029311 0.0028321003 -0.048038721
-0.50177926 0.0028321003 -0.048290491
-0.44476616 0.0028321582 -0.048772573
-0.387768 0.0028321003 -0.049254775
-0.3592757 0.0028321003 -0.049485564
-0.33078468 0.0028321003 -0.049736977
-0.24533844 0.0028321003 -0.050449371
-0.15992379 0.0028321582 -0.051182508
-0.13145822 0.0028321582 -0.051454663
-0.10299789 0.0028321003 -0.051705837
-0.074541397 0.0028321003 -0.05195713
-0.046088129 0.0028321003 -0.052229166
-0.01763954 0.0028321003 -0.05248034
0.03924299 0.0028321582 -0.052584887
0.12455543 0.0028321003 -0.053087115
0.15298341 0.0028321003 -0.053442597
0.5237624 0.0028322162 -0.044154167
-0.78743654 0.031336028 -0.044280171
-0.75718606 0.031275835 -0.052103519
0.49536911 0.031344604 -0.043186784
-0.75851989 0.059811626 -0.046128988
0.46731958 0.059923034 -0.038891435
-0.73004824 0.088303268 -0.046044946
0.4089444 0.088147424 -0.05279398
-0.70257169 0.11694387 -0.041166782
0.38131058 0.11687852 -0.043292046
-0.70125675 0.14522834 -0.047493339
0.32390186 0.14517596 -0.048856616
-0.018063031 0.1743243 -0.034142375
0.010522898 0.17431255 -0.034396172
0.039104763 0.17430183 -0.034628391
0.067683049 0.17428996 -0.03488183
0.46990106 -0.11208741 -0.014938474
0.49857667 -0.11207292 -0.015408158
0.5272451 -0.11205838 -0.015877843
0.55590069 -0.11204256 -0.016389966
0.58453953 -0.11202501 -0.016965985
0.61315089 -0.11200334 -0.017669678
0.64129567 -0.11189043 -0.021333575
0.66947788 -0.11179547 -0.024416685
0.69813836 -0.11179616 -0.024395466
0.72683305 -0.11180271 -0.024182916
0.7556802 -0.11183417 -0.023162723
0.78552288 -0.11202229 -0.017051339
-0.70780128 -0.083332852 -0.016005993
-0.67875087 -0.083294958 -0.017648339
-0.64997625 -0.083287083 -0.017989516
-0.62122655 -0.083281696 -0.018224001
-0.59247673 -0.08327578 -0.018479705
-0.56373441 -0.083270334 -0.01871419
-0.53499573 -0.083264776 -0.018948555
-0.50626063 -0.08325956 -0.01918292
-0.47752607 -0.083253652 -0.019438744
-0.44879836 -0.083248205 -0.019672871
-0.42007151 -0.083242238 -0.019928455
-0.39134338 -0.083235346 -0.020226598
-0.36262226 -0.083229028 -0.020503402
-0.33390313 -0.083222076 -0.020801425
-0.30519071 -0.083215646 -0.021077991
-0.27648059 -0.083208866 -0.021375895
-0.24777687 -0.083202496 -0.021652699
-0.21907577 -0.083195597 -0.021950603
-0.19038072 -0.083189167 -0.022227287
-0.16168863 -0.083182335 -0.022524834
-0.13300228 -0.083175905 -0.022801161
-0.10431919 -0.083169065 -0.023099065
-0.07564152 -0.083162636 -0.023375392
-0.046967439 -0.083155796 -0.0236727
-0.01829844 -0.083149426 -0.023949265
0.010366313 -0.083142996 -0.024225354
0.039031386 -0.083122894 -0.025096297
0.067683049 -0.083128333 -0.024862766
0.096333563 -0.083119586 -0.025244832
0.1249782 -0.083110668 -0.025627136
0.15361744 -0.083102323 -0.025988102
0.18225047 -0.083093517 -0.026370049
0.21087354 -0.083082221 -0.026858091
0.23948911 -0.083070979 -0.027346134
0.26810634 -0.083063684 -0.027664065
0.29672125 -0.083057195 -0.027939916
0.32533193 -0.083050877 -0.028215528
0.35393837 -0.083044559 -0.028491139
0.38253874 -0.083037667 -0.028787971
0.41113657 -0.083031237 -0.029063463
0.43973857 -0.083026834 -0.029254079
0.46833768 -0.083022431 -0.029444814
0.49693385 -0.083018027 -0.029635549
0.52552712 -0.083013743 -0.029826045
0.55409247 -0.083004877 -0.030207396
0.58264905 -0.082995549 -0.030609727
0.61119324 -0.082985297 -0.031054258
0.63973057 -0.082975097 -0.031498909
0.66817558 -0.082952559 -0.032472253
0.69681346 -0.082958415 -0.032218456
0.72562015 -0.08298593 -0.031033158
0.75465661 -0.083039634 -0.028703094
0.78374994 -0.083095953 -0.026263833
0.81291544 -0.083156265 -0.0236516
0.84219277 -0.083224513 -0.02069509
0.87200403 -0.08334519 -0.015472293
-0.85154617 -0.05461983 -0.015450835
-0.82138598 -0.054527249 -0.021461248
-0.79186201 -0.054470878 -0.025117517
-0.76292139 -0.054450892 -0.026412606
-0.73400551 -0.054431427 -0.027685404
-0.70510495 -0.054411381 -0.028978586
-0.67622453 -0.054391682 -0.030270934
-0.64742935 -0.054376967 -0.031223655
-0.61877012 -0.054372389 -0.031520009
-0.59011918 -0.054368161 -0.031795025
-0.5614689 -0.054363642 -0.032091379
-0.5328266 -0.054359354 -0.032366276
-0.50418532 -0.054354776 -0.03266263
-0.47555172 -0.054350607 -0.032937288
-0.44691944 -0.054345913 -0.033233643
-0.41829163 -0.054341394 -0.033529282
-0.38967106 -0.054337107 -0.033804417
0.72515202 -0.054339133 -0.033677459
0.75484467 -0.054431427 -0.027685404
0.78479296 -0.054536637 -0.020843983
0.81442869 -0.054609869 -0.016091228
-0.84949988 -0.025829934 -0.023757815
-0.81873316 -0.025761917 -0.032577872
0.63974041 -0.025770839 -0.03143537
0.6691792 -0.025810584 -0.026263833
0.69893092 -0.025860988 -0.019715667
0.55441695 0.0028320423 -0.027727723
-0.82285082 0.031558964 -0.015322924
0.52648664 0.031507343 -0.022035718
-0.7938233 0.060265899 -0.016624808
0.49860379 0.060288146 -0.015173316
-0.76531607 0.089004464 -0.015685797
0.43968982 0.08867985 -0.029741287
0.41202563 0.11761303 -0.019438744
0.35371986 0.14585051 -0.031329513
-0.65055931 0.17521009 -0.014959931
-0.62142748 0.17510962 -0.017136574
-0.59199786 0.17492278 -0.021184564
-0.56266439 0.17474498 -0.025032401
-0.53338802 0.17456654 -0.028893828
-0.50444275 0.1744699 -0.030990839
-0.47581166 0.17446202 -0.031160116
-0.44718033 0.17445309 -0.031350851
-0.4185546 0.17444527 -0.031520009
-0.38992894 0.17443652 -0.031710505
-0.36130619 0.17442778 -0.031900764
-0.33268869 0.17441995 -0.03207016
-0.30407164 0.17441121 -0.032260656
-0.27545753 0.17440246 -0.032450914
-0.24684817 0.17439453 -0.032620072
-0.21823975 0.17438577 -0.032810569
-0.18963575 0.17437784 -0.032979727
-0.16103303 0.1743691 -0.033170223
-0.1324333 0.17436023 -0.033360243
-0.10383742 0.17435265 -0.033529639
-0.075243361 0.17434378 -0.033719659
-0.046652213 0.17433485 -0.033909917
0.096270934 0.17435947 -0.033381462
0.12488259 0.17443085 -0.031837463
0.15351805 0.174502 -0.030292034
0.18217734 0.1745735 -0.028745294
0.21086049 0.17464504 -0.027197599
0.23956755 0.17471647 -0.025648355
0.2683489 0.17483148 -0.023162842
0.29731956 0.17505945 -0.018224001
0.41423577 -0.14156488 0.0044865608
0.44306982 -0.14154756 0.0040336847
0.47189924 -0.14153093 0.0036022663
0.50072455 -0.14151506 0.0031924248
0.52954084 -0.14149837 0.0027611256
0.55833924 -0.14147861 0.0022441149
0.58673596 -0.14134924 -0.0011148453
0.61506933 -0.14121692 -0.004553318
0.78841192 -0.14131367 -0.0020395517
0.81737882 -0.14134021 -0.0013513565
0.8468889 -0.14146529 0.0018992424
-0.85643631 -0.11268281 0.0044002533
-0.82655984 -0.11255419 0.0002194643
-0.79701287 -0.11246069 -0.0028134584
-0.76772934 -0.11239725 -0.0048755407
-0.73865837 -0.11235947 -0.0060988665
-0.70978016 -0.11234771 -0.0064848661
-0.68098521 -0.11234771 -0.0064848661
-0.65164995 -0.11226121 -0.0092927217
-0.62270653 -0.11223288 -0.010213614
-0.59441823 -0.1123159 -0.0075143576
-0.56585634 -0.1123568 -0.0061845779
-0.53703827 -0.11235298 -0.0063132048
-0.50822228 -0.11234893 -0.00644207
-0.4794113 -0.11234574 -0.0065493584
-0.45059609 -0.11234099 -0.0066995621
-0.42178032 -0.11233583 -0.006870985
-0.3929646 -0.11232992 -0.0070638657
-0.36415431 -0.11232454 -0.0072356462
-0.33534667 -0.11231926 -0.0074071884
-0.30653951 -0.11231335 -0.007600069
-0.27773732 -0.11230803 -0.0077716112
-0.24893597 -0.11230212 -0.0079643726
-0.22013921 -0.11229684 -0.008136034
-0.19134364 -0.11229087 -0.0083286762
-0.16255233 -0.11228566 -0.0085000992
-0.13376367 -0.11228039 -0.0086714029
-0.10497666 -0.11227436 -0.0088644028
-0.076193444 -0.11226909 -0.0090358257
-0.047412202 -0.11226318 -0.0092285872
-0.018634439 -0.11225791 -0.0093998909
0.010140698 -0.11225253 -0.0095711946
0.038913354 -0.11224667 -0.0097638369
0.067683049 -0.11223955 -0.0099993944
0.096449442 -0.11223352 -0.010192037
0.12521255 -0.11222686 -0.010406256
0.15397285 -0.11222106 -0.010598779
0.18272689 -0.11221173 -0.010898471
0.21147549 -0.11220183 -0.011219501
0.24021915 -0.11219209 -0.011540294
0.26896483 -0.11218613 -0.011732817
0.29769564 -0.11217419 -0.012117743
0.32641461 -0.11215965 -0.012588263
0.35512635 -0.11214528 -0.013058662
0.38383085 -0.11213074 -0.013528705
0.41252816 -0.11211625 -0.013998628
0.44122037 -0.11210241 -0.014447331
0.81488168 -0.11212159 -0.01382792
0.84442914 -0.11224145 -0.0099351406
0.87422335 -0.11238798 -0.0051760674
0.90516615 -0.11268281 0.0044002533
-0.8546381 -0.083635561 -0.0028994083
-0.82494968 -0.083551846 -0.0065277815
-0.79537803 -0.08347404 -0.0098924637
-0.76604092 -0.083415292 -0.012438416
-0.73690486 -0.083373755 -0.014233828
0.90381014 -0.083663896 -0.0016739368
0.84442025 -0.05470401 -0.0099779367
0.8754977 -0.054869011 0.00073623657
0.72887075 -0.025915215 -0.012673736
0.75899535 -0.025972629 -0.0052188635
0.78923625 -0.026030101 0.0022441149
-0.85262018 0.0028319843 -0.011090994
0.58619106 0.0028319843 -0.0050473213
0.64474982 0.0028320423 0.0011023283
0.61547786 0.0028321582 -0.001760006
0.55828291 0.031690769 0.0018130541
0.58684331 0.031674255 -0.00034022331
0.47082368 0.089219406 -0.0063778162
-0.73839945 0.11798671 -0.0072997808
0.38433471 0.14676467 -0.0075784922
-0.7108472 0.17583886 -0.0013513565
-0.68067199 0.17552932 -0.0080502033
0.32684487 0.17560665 -0.006377697
0.56084502 -0.17122509 0.021391869
0.82117337 -0.1710503 0.01760745
0.85067797 -0.17116675 0.020129442
-0.83125407 -0.14215785 0.019890189
-0.80103701 -0.14195462 0.014611363
-0.62690443 -0.14187363 0.012508392
-0.59800935 -0.14188364 0.012768388
-0.5685088 -0.14175688 0.0094773769
-0.5403263 -0.14193203 0.014025688
-0.51134682 -0.14192541 0.013852358
-0.48237306 -0.14191951 0.013700485
-0.45339876 -0.14191285 0.013527036
-0.42442706 -0.14190629 0.013353705
-0.39545536 -0.14189865 0.013158441
-0.3664892 -0.14189205 0.012985229
-0.33752337 -0.14188457 0.012790084
-0.30856052 -0.14187698 0.012595177
-0.27960271 -0.14187026 0.012421727
-0.2506457 -0.14186284 0.012226939
-0.22169337 -0.14185612 0.01205337
-0.19274226 -0.14184865 0.011858702
-0.1637941 -0.14184117 0.011663556
-0.13485011 -0.14183445 0.011490345
-0.10590781 -0.14182693 0.011295319
-0.076969333 -0.14182021 0.011122108
-0.04803285 -0.14181273 0.01092732
-0.019099876 -0.14180607 0.010753989
0.0098294318 -0.14180201 0.010645986
0.038757406 -0.1417961 0.010494351
0.067683049 -0.14178035 0.010083318
0.096601859 -0.14176197 0.0096071959
0.12551335 -0.14174356 0.009131074
0.15441701 -0.14172444 0.008633852
0.18331367 -0.14170624 0.0081582069
0.21220303 -0.14168794 0.0076826811
0.24108407 -0.14166883 0.0071855783
0.26995978 -0.14165126 0.0067318678
0.29882854 -0.14163382 0.0062782764
0.32769179 -0.14161725 0.0058463812
0.35654676 -0.14159982 0.0053927898
0.38539475 -0.14158233 0.0049397945
0.70384556 -0.14175034 0.009304285
0.87642235 -0.14158562 0.0050259829
0.90691823 -0.1418636 0.012248397
-0.88807988 -0.11301797 0.015283942
-0.88969225 -0.084201999 0.02163136
0.93835115 -0.084234729 0.02304709
0.90753293 -0.055088587 0.015002012
0.8197757 -0.026094642 0.01062417
0.85087246 -0.026174882 0.021065235
0.70482892 0.0028320423 0.015110493
0.73498321 0.0028320423 0.021848917
0.67477524 0.0028321003 0.0083528757
0.53032273 0.060662001 0.0091097355
0.50254464 0.089804322 0.018954873
0.44319075 0.11837291 0.0052421093
0.4158155 0.14788741 0.021587729
0.35692781 0.17637888 0.010342956
-0.57081068 0.20598914 0.023068786
-0.54108453 0.20575473 0.01871562
-0.51154715 0.20556256 0.015153766
-0.48256028 0.20555323 0.014980197
-0.45357603 0.20554391 0.014806628
-0.42459166 0.20553353 0.014611363
-0.39561296 0.20552409 0.014437914
-0.3666369 0.2055147 0.014264345
-0.33766353 0.20550543 0.014090776
-0.3086907 0.20549472 0.01389575
-0.27972284 0.20548557 0.013722301
-0.25075766 0.20547618 0.01354897
-0.22179514 0.20546678 0.013375401
-0.19283381 0.2054563 0.013180256
-0.1638768 0.20544687 0.013006926
-0.13492247 0.20543775 0.012833476
-0.10597084 0.20542829 0.012660146
-0.07702101 0.20541784 0.012465119
-0.048074864 0.20540832 0.012291789
-0.019130878 0.20539802 0.012096882
0.0098100975 0.20538749 0.011901736
0.038748071 0.20537688 0.011706948
0.067683049 0.20536639 0.011511922
0.096628033 0.20544687 0.013006926
0.12559772 0.20553353 0.014611363
0.15459163 0.20561877 0.016195655
0.18360999 0.20570432 0.017781258
0.21265364 0.20579088 0.019389749
0.24172112 0.20587657 0.020978212
0.27085656 0.20600572 0.023373961
0.32882461 0.20594221 0.022197604
0.56373662 -0.20142531 0.04348743
0.59173161 -0.2009646 0.034938335
0.82464212 -0.2009646 0.034938335
0.85555571 -0.20143127 0.043597579
-0.83656996 -0.17218462 0.042166233
-0.80466408 -0.1716373 0.030317187
-0.54368216 -0.17184372 0.034784555
-0.51518792 -0.17202912 0.038801432
-0.48604435 -0.17202912 0.038801432
-0.4568978 -0.17202814 0.038779259
-0.42771995 -0.17201602 0.038515806
-0.3985461 -0.17200391 0.038252234
-0.36937636 -0.17199169 0.037988782
-0.34021065 -0.17197958 0.037725091
-0.31104901 -0.17196736 0.037461519
-0.28189144 -0.17195514 0.037198186
-0.25273791 -0.17194296 0.036934495
-0.22358847 -0.17193086 0.036671281
-0.19444308 -0.17191863 0.036408067
-0.16530713 -0.17191052 0.036232471
-0.1361739 -0.17190242 0.036056757
-0.10704438 -0.17189528 0.035903215
-0.077916391 -0.17188729 0.035727859
-0.048791774 -0.17188011 0.035574198
-0.019669518 -0.17187303 0.035420537
0.0094507001 -0.17186505 0.03524518
0.038568225 -0.17185688 0.035069942
0.067683049 -0.1718366 0.034631252
0.09678977 -0.17180832 0.034017444
0.12588671 -0.17177895 0.03338182
0.15497386 -0.17174964 0.032746673
0.18405193 -0.17172125 0.032133579
0.21311972 -0.17169194 0.031498671
0.24217772 -0.17166255 0.030864
0.27122718 -0.17163429 0.030251384
0.30026585 -0.17160504 0.02961731
0.32929626 -0.17157675 0.029005289
0.35831562 -0.1715475 0.028371453
0.38732523 -0.17151824 0.027737737
0.41633317 -0.17149292 0.027191639
0.44532833 -0.17146569 0.02660203
0.47431919 -0.17144056 0.02605629
0.50330162 -0.1714154 0.025511026
0.53227305 -0.1713891 0.024943709
0.59128839 -0.171703 0.031739473
0.88101178 -0.1714526 0.026318431
0.91305202 -0.17207181 0.039724469
-0.86173874 -0.14239 0.025925398
-0.74540585 -0.14236242 0.025205493
-0.68744159 -0.1423841 0.025772691
0.93870866 -0.1423389 0.024594784
0.9395808 -0.11342091 0.028371453
0.94166994 -0.055433709 0.037417769
0.88243985 -0.02626642 0.032943964
0.76568198 0.0028321003 0.030973434
0.79648328 0.0028321582 0.039900422
-0.86207217 0.031886939 0.027279019
0.65048641 0.031972218 0.038362026
-0.83273596 0.06092364 0.026100159
0.5628159 0.061083078 0.036451817
-0.8036297 0.089963295 0.025838137
-0.77572745 0.11916471 0.0309515
0.47522911 0.1192738 0.034499764
0.38829187 0.17770965 0.039153099
-0.69095629 0.20708117 0.043333173
-0.66039014 0.20669259 0.036122561
-0.63061923 0.20650344 0.032615304
-0.60060173 0.20622307 0.027409911
0.3002443 0.20632313 0.029267311
0.65315342 -0.23135607 0.055685401
0.77101839 -0.23161303 0.059857488
0.79993516 -0.23148863 0.057836771
-0.80924964 -0.20178549 0.050173283
-0.5754047 -0.2017867 0.050195336
-0.54788989 -0.20235901 0.060813308
-0.51855975 -0.20235285 0.060702085
-0.48909807 -0.20229788 0.059679866
-0.45972306 -0.20227025 0.059169054
-0.4304373 -0.20227636 0.059280157
-0.40114975 -0.20228228 0.059391141
-0.3718605 -0.20228831 0.059502125
-0.34256959 -0.20229423 0.059613228
-0.31327695 -0.20230025 0.05972445
-0.28398055 -0.20230508 0.059813261
-0.25468466 -0.2023109 0.059924245
-0.22538707 -0.20231695 0.060035229
-0.19608772 -0.20232297 0.060146451
-0.1667867 -0.20232892 0.060257673
-0.13748398 -0.202335 0.060368776
-0.10817953 -0.2023409 0.060479879
-0.078873374 -0.20234695 0.060591102
-0.049565516 -0.20235285 0.060702085
-0.020255946 -0.20235901 0.060813308
0.0090553463 -0.20236479 0.060924411
0.038368341 -0.20237088 0.061035633
0.067683049 -0.20237696 0.061146855
0.096999981 -0.20238641 0.061324596
0.1263193 -0.20239486 0.061480284
0.15564156 -0.20240442 0.061658025
0.18496585 -0.20241281 0.061813831
0.21429166 -0.20242 0.061947227
0.24361753 -0.20242481 0.062036157
0.27293393 -0.20241885 0.061925173
0.30225 -0.20241402 0.061836004
0.33156776 -0.20241155 0.061791539
0.3608866 -0.20241039 0.061769366
0.39013165 -0.2023626 0.060879946
0.41932815 -0.20229423 0.059613228
0.44848967 -0.20221768 0.058192134
0.47762945 -0.20214106 0.056771874
0.50674748 -0.20206475 0.055352807
0.53573745 -0.2019417 0.05307126
0.68344647 -0.20242251 0.06199193
0.74218911 -0.20245239 0.062547803
0.88681155 -0.20195021 0.053226233
-0.86816943 -0.17264028 0.052030921
-0.7237494 -0.17304172 0.060724258
-0.57460457 -0.17233722 0.045470715
0.68323439 -0.17303975 0.060680032
0.71126902 -0.17269138 0.053137541
0.74185836 -0.17303975 0.060680032
0.97355151 -0.1140542 0.048935771
0.91446286 -0.026367286 0.04604423
0.82759404 0.0028321003 0.049687028
0.85944366 0.0028321003 0.062303185
0.62399346 0.032111555 0.056461453
0.68091476 0.032033689 0.046330929
0.71147156 0.032095157 0.054333448
0.74226004 0.032161608 0.062948465
0.53547853 0.090543754 0.050969005
-0.74994028 0.14883615 0.046242714
0.44781554 0.14903684 0.051455736
0.65576243 -0.2618036 0.072631121
0.74492615 -0.26217607 0.078006744
0.77337831 -0.2618036 0.072631121
-0.78393996 -0.2320984 0.06773901
-0.75471789 -0.23213965 0.068408489
-0.6085766 -0.23238866 0.072452188
0.53875345 -0.23270307 0.07755816
0.56770861 -0.23247394 0.073839188
0.62729234 -0.23279293 0.079016328
-0.72554135 -0.20281878 0.069345951
0.91887796 -0.20262875 0.065821409
-0.69569373 -0.1733318 0.067002773
-0.665797 -0.17320313 0.064217329
-0.78631228 -0.14440842 0.078365564
-0.72731346 -0.14438953 0.077872276
-0.66833419 -0.14437145 0.077401042
0.97822505 -0.085284926 0.068520069
-0.90085012 -0.055867009 0.065553904
0.94886303 -0.026540514 0.068564534
0.89150071 0.0028321003 0.074980974
0.77347338 0.03223994 0.073145628
0.59648693 0.061588161 0.069256663
-0.8450051 0.091156766 0.077513218
0.50787139 0.12021566 0.065085888
0.42094234 0.17946179 0.077087045
0.36118653 0.20828448 0.065665483
-0.58047199 0.23852479 0.080116153
-0.55020916 0.23821954 0.075160027
-0.52006251 0.23793027 0.070462704
-0.49054128 0.2378739 0.069546938
-0.46113014 0.23786005 0.069323778
-0.43172529 0.23784782 0.069122672
-0.40232086 0.23783398 0.068899393
-0.37291983 0.2378203 0.068676233
-0.34352466 0.23780797 0.068475366
-0.31413034 0.23779424 0.068252206
-0.28473946 0.23778062 0.068028927
-0.25535202 0.23776665 0.067806005
-0.22596976 0.23775432 0.067605138
-0.19658902 0.23774071 0.067382216
-0.16721171 0.23772685 0.067158937
-0.13783908 0.23771441 0.066958308
-0.10846847 0.23770079 0.066735148
-0.079101302 0.23768705 0.066512346
-0.049737558 0.23767334 0.066289544
-0.020377778 0.23766087 0.066088796
0.0089792646 0.23764724 0.065865755
0.038332529 0.23763618 0.065687537
0.067683049 0.23762383 0.065487027
0.097045407 0.23773091 0.067226052
0.12643732 0.23784924 0.069145083
0.15585932 0.23796891 0.071088433
0.18531063 0.23808727 0.073011398
0.21479335 0.23820847 0.074980974
0.24431166 0.23833692 0.077064872
0.27396017 0.23857729 0.08096981
-0.72915906 -0.26278192 0.086751938
-0.69973665 -0.26281318 0.087202549
-0.67013371 -0.26278192 0.086751938
-0.64062107 -0.26278192 0.086751938
0.68712515 -0.2626431 0.084747553
0.71697706 -0.26278818 0.08684206
-0.78857702 -0.20385136 0.088510156
0.80494952 -0.20360252 0.083892465
0.95547909 -0.2043203 0.097212911
-0.79050964 -0.17472503 0.097167611
-0.76086313 -0.17471351 0.096918583
-0.64232367 -0.17466953 0.095967293
-0.61269993 -0.1746591 0.095740914
0.95550525 -0.17473239 0.097326398
0.65852684 -0.14487879 0.090586185
0.68802887 -0.1448693 0.090337873
0.74702549 -0.14485104 0.089863896
0.77652043 -0.14484236 0.089638233
0.92397326 0.0028320423 0.088645458
0.80483699 0.032318324 0.083307505
0.83655798 0.032404184 0.094473362
-0.87588507 0.061805069 0.083352447
0.65751702 0.061815616 0.084027529
0.68834293 0.061942551 0.092280388
0.71930182 0.062070243 0.10056877
0.56897712 0.091295697 0.083532333
-0.81730181 0.12083013 0.085040212
0.4810378 0.15045875 0.088397503
-0.6717025 0.23943543 0.094903469
-0.64153808 0.23923908 0.091715574
-0.61082131 0.23883359 0.085130215
0.30383855 0.23898754 0.087630749
-0.73562735 -0.23518586 0.11787224
-0.64593935 -0.23504205 0.11553788
0.63177228 -0.17530137 0.10964572
0.66142613 -0.17529076 0.10941768
0.77999365 -0.17524558 0.10843766
0.80962938 -0.17523509 0.10820985
0.98714221 -0.056487788 0.10588682
-0.91411752 -0.026919469 0.11778069
0.95942056 0.0028320423 0.11428034
0.86905617 0.032512642 0.1085515
0.63148898 0.062180031 0.10770857
0.75052392 0.062209517 0.10962284
0.60152161 0.091805182 0.10559118
0.54213333 0.12144459 0.10499978
-0.79209054 0.15106882 0.10424912
0.45430407 0.18127246 0.1162926
0.39427453 0.21066293 0.10980535
-0.70302105 0.23997174 0.10361266
0.33466065 0.24014549 0.10643339
-0.7080906 -0.23586757 0.12894166
-0.67827088 -0.23587325 0.12903368
0.9917599 -0.026976768 0.12523711
0.90179342 0.032621849 0.12273312
0.78243124 0.062394332 0.12163138
0.81454235 0.062580831 0.13373804
0.66559374 0.092518598 0.13648748
-0.85897928 0.12240139 0.13607121
0.5154177 0.15207706 0.13043916
-0.76830202 0.18197174 0.13143063
-0.41016191 0.2716198 0.13256085
-0.38025397 0.27159423 0.13219178
-0.35034925 0.27156714 0.1317997
-0.32045054 0.27154014 0.13140738
-0.29055792 0.2715129 0.13101554
-0.26067325 0.27148724 0.13064659
-0.23079252 0.27146012 0.13025475
-0.20091784 0.27143294 0.12986314
-0.17104918 0.27140582 0.12947142
-0.14118776 0.27138028 0.12910283
-0.11133099 0.27135316 0.12871122
-0.081481136 0.27132761 0.12834287
-0.051637672 0.27130368 0.1279974
-0.02179952 0.27127975 0.12765205
0.0080333166 0.27125582 0.1273067
0.037860841 0.27123201 0.12696195
0.067683049 0.27120805 0.12661672
0.097523868 0.27139941 0.12937927
0.93580097 0.032767326 0.14162707
0.84732497 0.06280458 0.14826846
0.63793558 0.092871837 0.1517843
0.69704807 0.092741363 0.14612949
0.72867078 0.092966735 0.15589011
0.57757372 0.12280648 0.14922237
0.88079751 0.063062854 0.16504228
0.76078922 0.093237177 0.16760135
0.61015302 0.12338109 0.16788316
0.49060166 0.18408297 0.17713916
0.42905858 0.21363443 0.16494834
0.97785777 0.033171311 0.1941154
0.91468716 0.063332424 0.18255293
0.79338056 0.093544237 0.1808964
0.82651037 0.093891323 0.19592583
0.64326108 0.12400655 0.18819487
0.67521864 0.1243391 0.19900286
-0.84292078 0.15459935 0.19597352
0.86061645 0.094324216 0.21467698
0.70752305 0.12470636 0.21092689
0.55386448 0.15476377 0.20024455
0.95325977 0.063906275 0.21983278
0.74012959 0.12509511 0.22355139
0.89648485 0.094921127 0.24051797
0.77449876 0.1257565 0.24503267
0.58998096 0.15644917 0.24403131
0 0 0 1 0 0 0 1 0 0 0 1 0 0 0 0 0 946 1 0 0
