ply
format ascii 1.0
comment PCL generated
element vertex 1022
property float x
property float y
property float z
element camera 1
property float view_px
property float view_py
property float view_pz
property float x_axisx
property float x_axisy
property float x_axisz
property float y_axisx
property float y_axisy
property float y_axisz
property float z_axisx
property float z_axisy
property float z_axisz
property float focal
property float scalex
property float scaley
property float centerx
property float centery
property int viewportx
property int viewporty
property float k1
property float k2
end_header
-0.095325641 0.33191931 -0.75780582
-0.073472992 0.33183143 -0.75847816
-0.051641639 0.33180553 -0.75867581
-0.029816385 0.33180553 -0.75867581
-0.0079911286 0.33180553 -0.75867581
0.013834129 0.33180553 -0.75867581
0.035659388 0.33180553 -0.75867581
0.057484645 0.33180553 -0.75867581
0.079314463 0.33183143 -0.75847816
0.10116194 0.33191931 -0.75780582
-0.16195895 0.29038814 -0.73933589
-0.13994811 0.29030958 -0.74001694
-0.11794779 0.29023093 -0.7406975
-0.095957965 0.2901524 -0.74137771
-0.073978603 0.29007384 -0.74205768
-0.052020494 0.29004928 -0.74227118
-0.030068953 0.29004928 -0.74227118
-0.0081174122 0.29004928 -0.74227118
0.013834129 0.29004928 -0.74227118
0.035785671 0.29004928 -0.74227118
0.057737213 0.29004928 -0.74227118
0.079693675 0.29007384 -0.74205768
0.10166779 0.2901524 -0.74137771
0.1236524 0.29023093 -0.7406975
0.1456475 0.29030958 -0.74001694
0.16765308 0.29038814 -0.73933589
-0.2934415 0.31194833 -0.74269748
-0.271328 0.31174487 -0.74434853
-0.24934326 0.31167939 -0.7448808
-0.22735439 0.31159577 -0.74555898
-0.20537597 0.3115122 -0.74623704
-0.18340801 0.31142876 -0.74691474
-0.16145051 0.3113454 -0.74759197
-0.13950343 0.31126204 -0.7482692
-0.11756682 0.31117862 -0.74894571
-0.095641144 0.311097 -0.74960899
-0.073725268 0.3110137 -0.75028515
-0.051830526 0.31098765 -0.7504971
-0.029942304 0.31098765 -0.7504971
-0.0080540879 0.31098765 -0.7504971
0.013834129 0.31098765 -0.7504971
0.035722345 0.31098765 -0.7504971
0.057610564 0.31098765 -0.7504971
0.079503678 0.3110137 -0.75028515
0.10141435 0.311097 -0.74960899
0.12333543 0.31118023 -0.74893248
0.14526695 0.31126368 -0.74825597
0.16720819 0.3113454 -0.74759197
0.18916048 0.31142876 -0.74691474
0.21112321 0.3115122 -0.74623704
0.23309644 0.31159577 -0.74555898
0.2550801 0.31167939 -0.7448808
0.27706069 0.31174487 -0.74434853
0.29916281 0.31194985 -0.74268401
-0.29336113 0.33379889 -0.74344337
-0.2709423 0.33317596 -0.74820268
-0.2488514 0.33291394 -0.7502054
-0.22684203 0.33273014 -0.75160956
-0.2048544 0.33254665 -0.75301242
-0.18288843 0.33236325 -0.75441396
-0.16094579 0.33218348 -0.75578761
-0.13906203 0.33209538 -0.75646067
-0.11718865 0.33200735 -0.7571336
0.12301977 0.33200735 -0.7571336
0.144888 0.33209538 -0.75646067
0.16676657 0.33218348 -0.75578761
0.18869947 0.33236492 -0.75440061
0.21065381 0.33254665 -0.75301242
0.23263066 0.33273014 -0.75160956
0.25462922 0.33291394 -0.7502054
0.27670589 0.3331778 -0.74818957
0.29908818 0.33380061 -0.74343002
-0.18391459 0.35627344 -0.73960292
-0.16185538 0.35607758 -0.7410177
-0.13981731 0.3558799 -0.74244416
-0.11780191 0.35568422 -0.74385595
-0.095808282 0.35548887 -0.74526656
-0.073836409 0.35529354 -0.74667573
-0.051908959 0.35523462 -0.74710071
-0.029994596 0.35523462 -0.74710071
-0.008080232 0.35523462 -0.74710071
0.013834129 0.35523462 -0.74710071
0.035748489 0.35523462 -0.74710071
0.057662856 0.35523462 -0.74710071
0.07958734 0.35529527 -0.74666238
0.10154805 0.35548887 -0.74526656
0.12353082 0.35568422 -0.74385595
0.14553599 0.35588157 -0.74243104
0.16756245 0.35607758 -0.7410177
0.18961076 0.35627344 -0.73960292
-0.29530072 0.22574882 -0.72544611
-0.27321965 0.22574882 -0.72544611
-0.25108129 0.22569154 -0.72606623
-0.22893313 0.22561316 -0.72691536
-0.20679805 0.22553469 -0.72776365
-0.18467608 0.2254564 -0.72861159
-0.16256636 0.22537695 -0.72947252
-0.14047067 0.22529869 -0.7303195
-0.11838742 0.22521932 -0.73117936
-0.096317932 0.22514112 -0.73202527
-0.074261077 0.22506176 -0.73288405
-0.052231077 0.22503699 -0.73315251
-0.03020934 0.22503699 -0.73315251
-0.008187606 0.22503699 -0.73315251
0.013834129 0.22503699 -0.73315251
0.035855863 0.22503699 -0.73315251
0.0578776 0.22503699 -0.73315251
0.079905838 0.22506298 -0.7328707
0.10195578 0.22514112 -0.73202527
0.12401927 0.22522046 -0.73116601
0.1460954 0.22529869 -0.7303195
0.16818531 0.2253782 -0.72945917
0.19028766 0.2254564 -0.72861159
0.2124031 0.22553469 -0.72776365
0.23453163 0.22561316 -0.72691536
0.25667441 0.22569273 -0.72605276
0.27880684 0.22574882 -0.72544611
0.30088788 0.22574882 -0.72544611
-0.29498857 0.24754001 -0.72834253
-0.27292979 0.24754001 -0.72834253
-0.25081387 0.24747811 -0.72896147
-0.22868697 0.24739201 -0.72982216
-0.20657441 0.24730717 -0.73066878
-0.18447493 0.24722259 -0.73151517
-0.16238768 0.24713652 -0.73237431
-0.1403144 0.24705194 -0.7332195
-0.11825418 0.24696742 -0.73406422
-0.096206449 0.24688153 -0.73492181
-0.074171938 0.24679576 -0.73577905
-0.052164238 0.24676903 -0.73604679
-0.030164782 0.24676903 -0.73604679
-0.0081653269 0.24676903 -0.73604679
0.013834129 0.24676903 -0.73604679
0.035833586 0.24676903 -0.73604679
0.057833042 0.24676903 -0.73604679
0.079838991 0.24679725 -0.7357657
0.10186659 0.24688153 -0.73492181
0.12390771 0.24696742 -0.73406422
0.14596145 0.24705194 -0.7332195
0.16802895 0.24713786 -0.73236072
0.19010885 0.24722259 -0.73151517
0.21220182 0.24730717 -0.73066878
0.23430891 0.24739332 -0.72980869
0.25642812 0.24747811 -0.72896147
0.27853927 0.24754001 -0.72834253
0.30059803 0.24754001 -0.72834253
-0.29467848 0.26928866 -0.73121965
-0.27264187 0.26928866 -0.73121965
-0.25054571 0.26921919 -0.73186421
-0.22844243 0.26912811 -0.73270965
-0.20635122 0.26903558 -0.73356819
-0.18427417 0.2689445 -0.73441267
-0.16220933 0.26885217 -0.73527002
-0.14015844 0.26876128 -0.73611355
-0.11812059 0.26867041 -0.73695672
-0.096095182 0.26857814 -0.73781252
-0.074083395 0.26848745 -0.73865461
-0.052097838 0.2684586 -0.73892176
-0.030120518 0.2684586 -0.73892176
-0.008143195 0.2684586 -0.73892176
0.013834129 0.2684586 -0.73892176
0.035811454 0.2684586 -0.73892176
0.057788778 0.2684586 -0.73892176
0.079772264 0.26848745 -0.73865461
0.10177758 0.26857814 -0.73781252
0.12379638 0.26867041 -0.73695672
0.14582777 0.26876128 -0.73611355
0.16787289 0.26885357 -0.73525679
0.18993041 0.2689445 -0.73441267
0.21200095 0.26903558 -0.73356819
0.23408557 0.26912811 -0.73270965
0.25618345 0.26922071 -0.73185086
0.27827349 0.26928866 -0.73121965
0.30031011 0.26928866 -0.73121965
-0.29417989 0.29079109 -0.73584592
-0.27215481 0.29076326 -0.73608685
-0.25010744 0.29070312 -0.73660886
-0.22805449 0.29062423 -0.7372911
-0.20601214 0.29054549 -0.73797309
-0.1839803 0.29046679 -0.73865461
0.18966918 0.29046679 -0.73865461
0.21169578 0.29054549 -0.73797309
0.23373291 0.29062423 -0.7372911
0.25578055 0.29070312 -0.73660886
0.27782387 0.29076326 -0.73608685
0.29984716 0.29079109 -0.73584592
-0.29499435 0.35784137 -0.72828877
-0.27244976 0.35716924 -0.73313916
-0.25022241 0.35686094 -0.73536384
-0.22809754 0.35666439 -0.73678279
-0.20599566 0.35646978 -0.73818684
0.21168096 0.35646978 -0.73818684
0.23377307 0.3566663 -0.73676944
0.25588596 0.35686094 -0.73536384
0.27809867 0.35717297 -0.7331121
0.30060476 0.35784328 -0.72827518
-0.22936623 0.38084957 -0.72180045
-0.20714788 0.38064206 -0.72321928
-0.18495053 0.38043272 -0.72465026
-0.16277532 0.3802236 -0.72607982
-0.14062218 0.38001484 -0.72750783
-0.11849048 0.37980404 -0.72894788
-0.096381009 0.37959367 -0.73038661
-0.074294135 0.37938541 -0.73181057
-0.052251529 0.37931862 -0.73226702
-0.030222975 0.37931862 -0.73226702
-0.0081944233 0.37931862 -0.73226702
0.013834129 0.37931862 -0.73226702
0.035862681 0.37931862 -0.73226702
0.057891235 0.37931862 -0.73226702
0.079930633 0.37938732 -0.73179722
0.10200664 0.37959558 -0.73037314
0.12410516 0.37980592 -0.72893453
0.14622526 0.38001484 -0.72750783
0.16836813 0.38022548 -0.72606647
0.19053245 0.38043451 -0.72463667
0.21271795 0.38064206 -0.72321928
0.23492536 0.38084957 -0.72180045
-0.29702377 0.20502158 -0.70945811
0.3024033 0.20494996 -0.71030319
-0.29664508 0.38214076 -0.71297181
-0.27397606 0.38142172 -0.71788788
-0.25160658 0.38105729 -0.72038007
0.2571559 0.38105908 -0.7203666
0.2795063 0.38142377 -0.71787429
0.30213761 0.38214281 -0.71295846
-0.076841578 0.41415453 -0.64908004
-0.054157879 0.41405618 -0.64971948
-0.031493876 0.41405618 -0.64971948
-0.0088298721 0.41405618 -0.64971948
0.013834129 0.41405618 -0.64971948
0.036498129 0.41405618 -0.64971948
0.059162136 0.41405618 -0.64971948
0.081840903 0.41415453 -0.64908004
-0.30480576 0.18837605 -0.6372503
0.30976278 0.18841344 -0.63676286
-0.1678953 0.41509968 -0.64294147
-0.14509764 0.41486695 -0.64445364
-0.12232334 0.41463429 -0.64596426
-0.099570706 0.41439542 -0.64751601
0.104558 0.41439542 -0.64751601
0.12729868 0.41463429 -0.64596426
0.15006137 0.41486695 -0.64445364
0.17284817 0.41510195 -0.64292741
-0.2822237 0.41624966 -0.63547254
-0.25935197 0.41608641 -0.63653362
-0.23645543 0.41584802 -0.63808084
-0.21358065 0.41560569 -0.63965523
-0.19072527 0.41535252 -0.64129937
0.19566558 0.41535479 -0.64128494
0.21850744 0.41560569 -0.63965523
0.24137011 0.41584802 -0.63808084
0.26425472 0.41608641 -0.63653362
0.28711823 0.41624966 -0.63547254
-0.10022451 0.43982232 -0.63052976
-0.077364057 0.43956664 -0.63211191
-0.054548901 0.4394573 -0.6327877
-0.031754561 0.4394573 -0.6327877
-0.0089602163 0.4394573 -0.6327877
0.013834129 0.4394573 -0.6327877
0.036628474 0.4394573 -0.6327877
0.059422821 0.4394573 -0.6327877
0.082233094 0.43956903 -0.6320976
0.10508148 0.43982458 -0.63051522
-0.30746356 0.16732459 -0.61258936
0.31223151 0.16735893 -0.61209381
-0.26094893 0.44164643 -0.61924613
-0.23791407 0.44138634 -0.62085509
-0.2148997 0.44111723 -0.62252021
-0.19191208 0.44085068 -0.62416899
-0.1689491 0.4405821 -0.62583017
-0.14601798 0.44033241 -0.62737429
-0.12311006 0.44008073 -0.6289314
0.12795429 0.44008073 -0.6289314
0.15085089 0.44033474 -0.62735987
0.17376946 0.4405821 -0.62583017
0.19671966 0.44085068 -0.62416899
0.21969558 0.44111943 -0.62250578
0.24269727 0.44138861 -0.62084067
0.26571858 0.44164643 -0.61924613
-0.10088645 0.46554658 -0.61333191
-0.077893041 0.46527568 -0.61493266
-0.054944795 0.4651548 -0.61564517
-0.032018483 0.4651548 -0.61564517
-0.0090921773 0.4651548 -0.61564517
0.013834129 0.4651548 -0.61564517
0.036760435 0.4651548 -0.61564517
0.059686743 0.4651548 -0.61564517
0.082629502 0.46527568 -0.61493266
0.10561059 0.46554658 -0.61333191
-0.21623528 0.46692875 -0.60517061
-0.19311178 0.46664384 -0.60685313
-0.17001516 0.46636155 -0.60851932
-0.14694746 0.46608976 -0.61012518
-0.12390458 0.46581808 -0.6117295
0.12861638 0.46581808 -0.6117295
0.1516476 0.4660922 -0.61011076
0.17470227 0.46636155 -0.60851932
0.19778694 0.46664634 -0.6068387
0.22089763 0.46693137 -0.60515583
-0.28733626 0.053443898 -0.58438456
-0.26416931 0.053443898 -0.58438456
-0.24100234 0.053443898 -0.58438456
0.24550366 0.053443898 -0.58438456
0.26867059 0.053443898 -0.58438456
0.29183754 0.053443898 -0.58438456
-0.31119099 0.076856405 -0.57800269
-0.28702611 0.076491594 -0.58748376
-0.26388302 0.076491594 -0.58748376
-0.2407399 0.076491594 -0.58748376
0.24526507 0.076491594 -0.58748376
0.26840815 0.076491594 -0.58748376
0.29155126 0.076491594 -0.58748376
0.31565955 0.076862738 -0.57783866
-0.31127939 0.10011052 -0.57718253
-0.28709579 0.099666804 -0.58678746
-0.26394734 0.099666804 -0.58678746
-0.24079885 0.099666804 -0.58678746
0.24531868 0.099666804 -0.58678746
0.2684671 0.099666804 -0.58678746
0.29161558 0.099666804 -0.58678746
0.31574166 0.10011804 -0.5770185
-0.31145629 0.12342125 -0.57554102
-0.28716552 0.12285286 -0.58609068
-0.26401168 0.12285286 -0.58609068
-0.24085785 0.12285286 -0.58609068
0.24537231 0.12285286 -0.58609068
0.26852611 0.12285286 -0.58609068
0.29167992 0.12285286 -0.58609068
-0.28981659 0.0074916072 -0.55959964
-0.26645884 0.0074916072 -0.55959964
-0.24310108 0.0074916072 -0.55959964
0.24741042 0.0074913874 -0.55961478
0.27076805 0.0074913874 -0.55961478
0.29412565 0.0074913874 -0.55961478
-0.31334028 0.030884933 -0.55805993
-0.28857133 0.030561958 -0.57204282
-0.26530936 0.030561958 -0.57204282
-0.24204741 0.030561958 -0.57204282
0.24645257 0.030561578 -0.57205784
0.26971439 0.030561578 -0.57205784
0.29297623 0.030561578 -0.57205784
0.31765705 0.030889157 -0.55787861
-0.31173813 0.053796779 -0.57292569
0.31616917 0.053802308 -0.57274616
0.31591043 0.12343252 -0.57533193
-0.28851143 0.14683495 -0.57264137
-0.26525408 0.14683495 -0.57264137
-0.24199672 0.14683495 -0.57264137
0.24640764 0.14683495 -0.57264137
0.26966497 0.14683495 -0.57264137
0.29292232 0.14683495 -0.57264137
-0.29000846 0.17112871 -0.55768204
-0.26663598 0.17112871 -0.55768204
-0.24326344 0.17112871 -0.55768204
0.2475592 0.17112871 -0.55768204
0.27093169 0.17112871 -0.55768204
0.29430422 0.17112871 -0.55768204
-0.31342334 0.14778039 -0.55728936
0.3177357 0.14779243 -0.55709279
-0.29309222 -0.015614297 -0.52686739
-0.26948249 -0.015614297 -0.52686739
-0.24587278 -0.015614297 -0.52686739
0.24993013 -0.015614243 -0.52688289
0.27353969 -0.015614243 -0.52688289
0.29714933 -0.015614243 -0.52688289
-0.31586996 0.0078766234 -0.53458738
0.32002321 0.0078822039 -0.53423464
-0.29368892 0.19733228 -0.52090478
-0.2700333 0.19733228 -0.52090478
-0.24637766 0.19733228 -0.52090478
0.25039032 0.19733228 -0.52090478
0.27404591 0.19733228 -0.52090478
0.29770154 0.19733228 -0.52090478
-0.2293143 -0.014908968 -0.43526924
0.23269264 -0.014906311 -0.43490922
-0.23155394 0.18162538 -0.40617514
0.23470417 0.18164626 -0.40587533
-0.23331264 0.01020547 -0.38332927
0.2362791 0.010208286 -0.38314331
-0.2346739 0.035328519 -0.36564565
0.23750439 0.035332907 -0.36545765
-0.23509935 0.13502955 -0.3601191
0.23788732 0.13503969 -0.35993052
-0.23396721 0.15901718 -0.37482607
0.23686713 0.15902758 -0.37465596
-0.23578335 0.060623083 -0.35123384
0.23850061 0.060627904 -0.35107875
-0.23584703 0.085616678 -0.35040641
0.23855911 0.085623279 -0.35023379
-0.23591341 0.11062473 -0.34954405
0.23861888 0.11063254 -0.34937155
-0.31073588 0.23541234 -0.35056162
0.31339738 0.23537566 -0.35099244
-0.29519159 0.24404962 -0.24855864
0.29708746 0.24402951 -0.24879706
-0.30085444 -0.14412008 -0.18725634
0.30249685 -0.1441922 -0.18491542
-0.27431184 0.24892212 -0.19101834
0.27576745 0.24890275 -0.19124603
-0.25270578 0.25396994 -0.131405
0.25370234 0.25394848 -0.13166034
-0.25552917 0.23013951 -0.094728112
0.25624299 0.23011924 -0.094989061
-0.23099102 0.2600069 -0.060113072
0.23144136 0.25998589 -0.060358763
-0.31395495 -0.17580271 -0.045439005
0.31452253 -0.17590052 -0.042898893
-0.23337929 0.23545764 -0.025641441
0.23356269 0.23543675 -0.025912642
-0.20787162 0.26562142 0.0061928034
0.20782323 0.26561618 0.0061291456
-0.31981319 -0.12263574 0.017977953
0.3195743 -0.12260756 0.016759753
-0.3197954 -0.094828844 0.017785668
0.31955802 -0.094809987 0.016567588
-0.31981122 -0.067027748 0.017956734
0.3195689 -0.067017995 0.016695738
0.31958336 -0.039223947 0.016866684
-0.31982502 -0.039223891 0.018106341
-0.23587951 0.21048981 0.010446072
0.23578478 0.21047051 0.010169506
-0.18101262 0.26696369 0.022045255
0.18084267 0.26695833 0.021981001
-0.15344405 0.26745272 0.027819037
-0.12575327 0.2678684 0.032727361
-0.097952738 0.26819 0.03652513
-0.070092916 0.26850852 0.040287614
-0.042117231 0.26850852 0.040287614
-0.014141551 0.26850852 0.040287614
0.013834129 0.26850852 0.040287614
0.041809808 0.26850852 0.040287614
0.069785155 0.2685068 0.040266156
0.097673781 0.26818818 0.036503673
0.12550405 0.2678684 0.032727361
0.15323178 0.26745102 0.02779758
-0.23816614 0.18477619 0.043450952
0.23781702 0.18475896 0.043168783
-0.21041879 0.2410921 0.047553778
0.21004021 0.24107049 0.047271252
-0.2404782 0.15857461 0.076822519
0.2398705 0.15855797 0.07651341
-0.18326826 0.24235104 0.06390512
-0.15542027 0.24286659 0.070605516
-0.12740716 0.24325873 0.075696707
0.12682648 0.24325709 0.075674653
0.15487862 0.24286504 0.070583344
0.18277602 0.2423458 0.063838959
-0.2126901 0.21561591 0.084435105
0.21202609 0.21559446 0.084124684
-0.099279322 0.24355964 0.079607248
-0.071090437 0.24385791 0.083481789
-0.042783953 0.2438664 0.083592534
-0.014474911 0.2438664 0.083592534
0.013834129 0.2438664 0.083592534
0.04214317 0.2438664 0.083592534
0.070450164 0.24385627 0.083459735
0.098668702 0.24355806 0.079585075
-0.24286269 0.13190737 0.11123979
0.24199107 0.13189377 0.11094713
-0.18557799 0.21716307 0.10676765
-0.15743124 0.21767418 0.11414433
0.15655442 0.21767263 0.11412179
0.18475568 0.2171583 0.1067003
-0.21485326 0.18946348 0.11956072
0.21391857 0.18944392 0.11924422
-0.12907027 0.21800403 0.11890543
-0.10060082 0.21825467 0.12252378
-0.072074756 0.21850275 0.12610424
-0.043441255 0.2185152 0.12628567
-0.014803563 0.2185152 0.12628567
0.013834129 0.2185152 0.12628567
0.042471822 0.2185152 0.12628567
0.071106367 0.21850108 0.12608123
0.099659808 0.21825309 0.12250125
0.12815695 0.21800245 0.11888313
0.30217308 -0.039224055 0.1517731
-0.2453209 0.10475114 0.14672112
0.24417442 0.10473883 0.14640009
-0.18760864 0.19099644 0.14445186
0.18649513 0.19099075 0.14436066
-0.30338159 -0.039223783 0.15227902
-0.2170468 0.16279705 0.1551795
0.21583758 0.1627795 0.15485716
-0.15923193 0.19153097 0.15313017
-0.1305747 0.19183014 0.15799212
-0.10180673 0.19205785 0.16168714
-0.072975062 0.19226713 0.1650883
-0.044042941 0.19228426 0.16536617
-0.015104407 0.19228426 0.16536617
0.013834129 0.19228426 0.16536617
0.042772666 0.19228426 0.16536617
0.071706563 0.19226578 0.16506517
0.10056423 0.19205639 0.16166401
0.1293612 0.19183014 0.15799212
0.15805496 0.19152939 0.15310705
-0.30585083 -0.068286195 0.18143988
0.30441907 -0.068282396 0.18094909
-0.24773116 0.077027217 0.18150985
0.24631791 0.077017948 0.18120623
-0.18974283 0.16435304 0.18405783
0.18832436 0.16434796 0.18396425
-0.30787537 -0.36093339 0.2053479
-0.21928285 0.13561377 0.19148791
0.21779504 0.13559969 0.19118297
-0.16107196 0.16483322 0.19296837
-0.13211118 0.16509952 0.19791043
-0.10303033 0.16528885 0.20142496
-0.073894441 0.16547608 0.20489872
-0.044657409 0.16549662 0.20527673
-0.015411641 0.16549662 0.20527673
0.013834129 0.16549662 0.20527673
0.043079898 0.16549662 0.20527673
0.072319478 0.16547471 0.20487487
0.10148192 0.1652877 0.20140135
0.13059036 0.16509952 0.19791043
0.15958831 0.164832 0.19294477
0.30652145 -0.36117989 0.20825994
-0.30830261 -0.097794309 0.21039355
0.30664551 -0.097786292 0.20987201
-0.25014871 0.048770327 0.2164042
0.24846503 0.048762631 0.21607125
-0.19184937 0.13707612 0.22315037
0.19013098 0.13707288 0.22307861
-0.31085753 -0.12777627 0.24056602
0.30896941 -0.12776449 0.24005985
-0.28140691 -0.039223891 0.24143362
0.27952933 -0.039223835 0.24112034
-0.22146679 0.10783912 0.22695088
0.21970567 0.1078271 0.22663999
-0.1628263 0.13743643 0.23095107
-0.13355847 0.13764706 0.23551202
-0.10418069 0.13779826 0.2387836
-0.07475099 0.13794631 0.24198842
-0.045228932 0.13796528 0.2423985
-0.015697401 0.13796528 0.2423985
0.013834129 0.13796528 0.2423985
0.043365661 0.13796528 0.2423985
0.072890505 0.13794512 0.24196434
0.10234468 0.13779712 0.23875952
0.13174747 0.13764615 0.23548794
0.16105025 0.13743557 0.23092699
-0.25261307 0.019986559 0.25197387
0.25065666 0.019981682 0.25165892
-0.19381751 0.1090987 0.25967407
0.19181675 0.10909486 0.2595768
-0.31359231 -0.15828808 0.27286196
0.31145492 -0.15827225 0.27234769
-0.2841908 -0.069026314 0.27759767
0.28203443 -0.069023982 0.27727818
-0.22366051 0.07952334 0.26257253
0.2216249 0.079513535 0.26225567
-0.16445138 0.10934737 0.26613474
-0.13491783 0.10952809 0.2708292
-0.10527834 0.10966672 0.27443099
-0.075576186 0.10979335 0.27772021
-0.045780689 0.10981308 0.27823615
-0.015973281 0.10981308 0.27823615
0.013834129 0.10981308 0.27823615
0.043641537 0.10981308 0.27823615
0.073440999 0.10979335 0.27772021
0.10316847 0.10966672 0.27443099
0.13283569 0.10952809 0.2708292
0.16240539 0.10934737 0.26613474
-0.25511533 -0.0093407817 0.28809094
0.25288355 -0.0093427319 0.28781915
-0.22568923 0.050597381 0.29551482
0.22340503 0.050592069 0.29529142
-0.19582231 0.080579713 0.29687858
0.19353507 0.080576673 0.29677963
-0.31616473 -0.18922333 0.30324101
0.31381008 -0.18921189 0.30294204
-0.28686973 -0.09936472 0.31239796
0.28445199 -0.099361144 0.31217265
-0.22672433 0.020915691 0.31232285
0.22431737 0.020914067 0.31222272
-0.16611812 0.080744341 0.30222034
-0.13630342 0.0808862 0.30682874
-0.10638891 0.080999136 0.310498
-0.076417476 0.081111476 0.31414914
-0.046342857 0.081129998 0.31475019
-0.016254365 0.081129998 0.31475019
0.013834129 0.081129998 0.31475019
0.043922622 0.081129998 0.31475019
0.074001864 0.081111476 0.31414914
0.10400084 0.08099848 0.31047297
0.13394341 0.08088544 0.3068037
0.16379337 0.080743358 0.30219579
0.25464544 -0.039224107 0.31642842
-0.25709248 -0.039223783 0.31662893
-0.22775599 -0.0090252906 0.32907486
0.2252187 -0.0090260487 0.32894874
-0.19766329 0.021203872 0.33104324
0.19511648 0.021203548 0.33101797
-0.19694465 0.051109847 0.31770682
-0.16702472 0.051205654 0.32184911
-0.13709565 0.051333759 0.32741094
-0.10700988 0.051409189 0.33066463
0.10446713 0.051409189 0.33066463
0.13457717 0.051333431 0.32738566
0.16454887 0.051204894 0.32182407
0.19450051 0.05110931 0.31768203
-0.31891286 -0.22072226 0.33569479
0.31630018 -0.22070357 0.33528948
-0.28884053 -0.13002631 0.33799911
0.2862255 -0.13002111 0.33777094
-0.25856254 -0.06949012 0.33784699
0.25595978 -0.069489576 0.33777094
-0.22895645 -0.039223891 0.34856796
0.22626904 -0.039223891 0.34844065
-0.19838686 -0.0089067239 0.34447074
-0.16837302 -0.0088562202 0.35104084
0.16567145 -0.0088564362 0.35098958
0.19573668 -0.008906832 0.34444523
-0.167642 0.021268249 0.33521366
-0.13769165 0.021386381 0.34289551
-0.10748748 0.021436777 0.34617472
-0.07724236 0.021493785 0.34986758
-0.046895698 0.021505922 0.35065794
-0.016530786 0.021505922 0.35065794
0.013834129 0.021505922 0.35065794
0.044199042 0.021505922 0.35065794
0.074551389 0.021493461 0.34984207
0.10482533 0.021436777 0.34617472
0.13505398 0.021386057 0.34286976
0.16506328 0.021267816 0.33518839
-0.076876484 0.051486794 0.33402491
-0.046651296 0.051504243 0.33478379
-0.016408585 0.051504243 0.33478379
0.013834129 0.051504243 0.33478379
0.044076841 0.051504243 0.33478379
0.074307874 0.051486794 0.33402491
-0.32117406 -0.34377679 0.36239815
0.3182745 -0.34366423 0.3609364
-0.32115236 -0.31330365 0.36214161
0.31825474 -0.31320232 0.36068034
-0.32113931 -0.28284094 0.36198759
0.31824291 -0.28275105 0.36052632
-0.32115668 -0.25240001 0.36219287
0.3182587 -0.25232127 0.36073136
-0.29082349 -0.16108696 0.36375833
0.28801703 -0.161083 0.36362982
-0.25983047 -0.10003825 0.35614848
0.25708368 -0.10003629 0.35602069
-0.23011348 -0.069717392 0.36735559
0.22728689 -0.069717169 0.36732984
-0.19911538 -0.039223891 0.35799074
-0.16912894 -0.039223891 0.36740685
0.16630237 -0.039223891 0.36738133
0.19636111 -0.039223783 0.35796523
-0.13829237 -0.008798562 0.35850239
-0.10796886 -0.0087730922 0.3618083
-0.077610604 -0.0087424219 0.36581302
-0.047142085 -0.0087358113 0.36666131
-0.016653977 -0.0087358113 0.36666131
0.013834129 -0.0087358113 0.36666131
0.044322237 -0.0087358113 0.36666131
0.074796885 -0.0087426379 0.36578751
0.10518637 -0.0087730922 0.3618083
0.13553455 -0.00879867 0.35847712
-0.29148892 -0.52774078 0.37240267
-0.26095662 -0.52774078 0.37240267
0.25809255 -0.52774078 0.37240267
0.28862485 -0.52774078 0.37240267
-0.29155838 -0.49731261 0.37330532
-0.26101917 -0.49731261 0.37330532
0.25814813 -0.49731261 0.37330532
0.28868741 -0.49731261 0.37330532
-0.29162988 -0.46687359 0.3742342
-0.26108351 -0.46687359 0.3742342
0.25820532 -0.46687359 0.3742342
0.28875175 -0.46687359 0.3742342
-0.26119977 -0.1309019 0.37591243
0.25830075 -0.13089904 0.37578321
-0.23095579 -0.10042136 0.38103342
0.22802392 -0.10042115 0.38100719
-0.19994341 -0.069763556 0.37335682
-0.16989116 -0.069844842 0.3839097
0.16693756 -0.069844626 0.38388395
0.19706966 -0.069763236 0.37330532
-0.10846046 -0.039223999 0.37777281
-0.13889787 -0.039223891 0.3742342
-0.077981837 -0.039223891 0.38188791
-0.047390077 -0.039223891 0.38276887
-0.016777974 -0.039223891 0.38276887
0.013834129 -0.039223891 0.38276887
0.044446234 -0.039223891 0.38276887
0.075044371 -0.039223891 0.38186193
0.10555446 -0.039223783 0.37774706
0.13601895 -0.039223891 0.37420845
-0.29276049 -0.56043488 0.38892126
-0.26210105 -0.56043488 0.38892126
0.25910982 -0.56043488 0.38892126
0.28976929 -0.56043488 0.38892126
-0.23156652 -0.53002518 0.3909502
0.22854988 -0.53000271 0.39076781
-0.2314816 -0.49919093 0.38957119
0.22847699 -0.49917284 0.38941526
-0.23156172 -0.4686667 0.39087224
0.22854568 -0.46864697 0.39068985
-0.29290468 -0.43798426 0.3907938
-0.26223081 -0.43798426 0.3907938
0.25922516 -0.43798426 0.3907938
0.28989905 -0.43798426 0.3907938
-0.29405686 -0.19316946 0.40576124
0.29090148 -0.19315033 0.40526319
-0.26258102 -0.162075 0.39584875
0.25953004 -0.16207185 0.39574456
-0.23187304 -0.13136415 0.39592695
0.22882509 -0.13136284 0.39587498
-0.20083536 -0.10055803 0.38990927
-0.170661 -0.10072222 0.40057659
-0.14012346 -0.10080697 0.40607595
0.13700022 -0.10080697 0.40607595
0.16757804 -0.10072157 0.40052414
0.19783534 -0.1005577 0.38988328
-0.13950822 -0.069892317 0.39009142
-0.10895843 -0.069922119 0.39394522
-0.078356095 -0.069953978 0.3980937
-0.047640499 -0.069961131 0.3990345
-0.016903184 -0.069961131 0.3990345
0.013834129 -0.069961131 0.3990345
0.044571444 -0.069961131 0.3990345
0.075294271 -0.069953978 0.3980937
0.10592794 -0.069921792 0.39391923
0.13650721 -0.069892317 0.39006543
-0.29486632 -0.59488481 0.41627669
-0.26399627 -0.59488481 0.41627669
0.26079449 -0.59488481 0.41627669
0.29166451 -0.59488481 0.41627669
-0.2325594 -0.56281024 0.40707302
0.22941718 -0.56278288 0.40686297
-0.23256588 -0.43962401 0.40717769
0.22942425 -0.43960544 0.4069941
-0.29430938 -0.40899608 0.4090414
-0.26349503 -0.40899608 0.4090414
0.26034892 -0.40899608 0.4090414
0.29116327 -0.40899608 0.4090414
-0.23290405 -0.16259289 0.4126687
-0.20264319 -0.16292539 0.42345858
0.19938368 -0.16292354 0.42340589
0.22972862 -0.16259223 0.41264248
-0.20173478 -0.13161048 0.40660071
-0.17143606 -0.13185894 0.41735744
-0.14075486 -0.13197741 0.42248011
0.13750452 -0.13197675 0.4224534
0.16822495 -0.13185862 0.41733122
0.19860628 -0.13161011 0.40657425
-0.10946048 -0.10087124 0.41024995
-0.078733414 -0.10093562 0.41443253
-0.047892567 -0.10095069 0.41540694
-0.017029218 -0.10095069 0.41540694
0.013834129 -0.10095069 0.41540694
0.044697478 -0.10095069 0.41540694
0.075545825 -0.10093562 0.41443253
0.10630447 -0.1008708 0.41022348
-0.23409253 -0.41111404 0.4319675
0.23075423 -0.41108692 0.43167543
-0.26530623 -0.19430186 0.43518424
0.26195234 -0.19429779 0.43507791
-0.17221768 -0.16325849 0.43427968
-0.14139146 -0.16340432 0.43901944
0.13801378 -0.16340362 0.43899274
0.16887628 -0.16325757 0.43425322
-0.10996665 -0.13207452 0.42668819
-0.079113841 -0.13217194 0.43090534
-0.048147131 -0.1321959 0.43194079
-0.0171565 -0.1321959 0.43194079
0.013834129 -0.1321959 0.43194079
0.04482476 -0.1321959 0.43194079
0.075799443 -0.13217194 0.43090534
0.10668471 -0.13207452 0.42668819
-0.23490827 -0.59889424 0.44521308
0.23146357 -0.5988425 0.44483876
-0.29808918 -0.38233942 0.45814276
-0.26689684 -0.38233942 0.45814276
0.26337278 -0.38233942 0.45814276
0.29456508 -0.38233942 0.45814276
-0.29729572 -0.2259018 0.44783521
0.29381573 -0.22587839 0.4473269
-0.23493791 -0.19470644 0.44569445
-0.20429052 -0.19502729 0.45402932
0.2007969 -0.19502626 0.45400262
0.23150823 -0.19470535 0.44566774
-0.11047699 -0.16353497 0.4432621
-0.079498023 -0.16366681 0.44754076
-0.048403792 -0.1636997 0.44861197
-0.017284833 -0.1636997 0.44861197
0.013834129 -0.1636997 0.44861197
0.044953089 -0.1636997 0.44861197
0.076055147 -0.16366579 0.44751406
0.10706747 -0.16353497 0.4432621
-0.17351644 -0.19534945 0.46239877
-0.14242952 -0.19548763 0.46598887
-0.11128419 -0.19562186 0.4694767
-0.080084674 -0.19575511 0.47294354
-0.048792597 -0.19579077 0.47386527
-0.017479233 -0.19579077 0.47386527
0.013834129 -0.19579077 0.47386527
0.045147493 -0.19579077 0.47386527
0.07644666 -0.19575511 0.47294354
0.10767224 -0.19562083 0.46944952
0.13884506 -0.19548763 0.46598887
0.16995856 -0.19534847 0.46237206
-0.30060345 -0.25933015 0.49080396
0.29679006 -0.25930077 0.49025702
-0.26857358 -0.22749577 0.48234415
-0.2377833 -0.22793686 0.49189806
0.23399793 -0.22793585 0.49187088
0.26485649 -0.22749069 0.48223519
-0.23840661 -0.38605487 0.50201893
0.23447812 -0.38595021 0.50078201
-0.20669293 -0.22824706 0.4986124
-0.1755842 -0.22864217 0.50716734
-0.14415891 -0.22881551 0.51091957
-0.11266158 -0.22896747 0.51420879
0.10870591 -0.22896747 0.51420879
0.14022772 -0.22881426 0.51089215
0.17168169 -0.22864103 0.50713992
0.20285606 -0.22824603 0.49858499
-0.27191639 -0.26147419 0.53059316
0.26782769 -0.26146826 0.53048182
-0.081120126 -0.22913246 0.51778007
-0.049484495 -0.22917977 0.5188055
-0.017825183 -0.22917977 0.5188055
0.013834129 -0.22917977 0.5188055
0.045493443 -0.22917977 0.5188055
0.077136539 -0.22913112 0.51775241
-0.30398226 -0.29347715 0.5346961
0.29983017 -0.29344267 0.53413749
-0.24072213 -0.26196054 0.53961873
-0.20922902 -0.26228705 0.54567647
0.20502985 -0.26228544 0.5456481
0.23656936 -0.26195908 0.53959084
-0.17769681 -0.26267666 0.55290675
-0.1459357 -0.26290166 0.55708218
-0.11407921 -0.26307222 0.56024766
-0.082178667 -0.26325378 0.56361604
-0.050191853 -0.26331463 0.56474972
-0.018178862 -0.26331463 0.56474972
0.013834129 -0.26331463 0.56474972
0.045847122 -0.26331463 0.56474972
0.077842221 -0.26325238 0.5635879
0.10976914 -0.26307222 0.56024766
0.14164913 -0.26290008 0.55705428
0.17344217 -0.26267508 0.55287886
-0.30697146 -0.32794908 0.5735271
0.30253351 -0.32792348 0.57315683
-0.27531552 -0.29624572 0.57965565
-0.2436669 -0.29672498 0.58743572
0.23914598 -0.29672313 0.58740687
0.27084902 -0.29623881 0.57954168
-0.30905342 -0.36211157 0.60057235
0.30440691 -0.36208251 0.60019708
-0.21178076 -0.29706967 0.59303093
-0.17980918 -0.29741493 0.59864092
-0.14767735 -0.29764241 0.60233188
-0.11547021 -0.29783252 0.60542202
0.11081172 -0.29783073 0.60539293
0.14304332 -0.29764241 0.60233188
0.17520246 -0.29741308 0.59861207
0.20721699 -0.29706767 0.59300208
-0.27806905 -0.33112702 0.61939907
0.2732982 -0.33112106 0.61931205
-0.083214931 -0.29802141 0.60848761
-0.05087461 -0.29805881 0.60909557
-0.01852024 -0.29805881 0.60909557
0.013834129 -0.29805881 0.60909557
0.0461885 -0.29805881 0.60909557
0.0785335 -0.29802141 0.60848761
-0.24614699 -0.33170265 0.62770748
-0.2139567 -0.33209792 0.63341117
-0.18168066 -0.33249611 0.63915968
0.176762 -0.3324942 0.63913012
0.20908208 -0.33209574 0.63338184
0.24131607 -0.33170059 0.62767816
-0.28082618 -0.36662441 0.65919542
0.27575254 -0.36662209 0.65916562
-0.14924534 -0.3327671 0.64306927
-0.11672647 -0.33298531 0.64621997
-0.084133975 -0.33312821 0.64828348
-0.051483389 -0.33315271 0.64863753
-0.018824629 -0.33315271 0.64863753
0.013834129 -0.33315271 0.64863753
0.04649289 -0.33315271 0.64863753
0.079146199 -0.33312821 0.64828348
0.11175389 -0.33298311 0.64619017
0.1442977 -0.3327671 0.64306927
-0.084485352 -0.66191405 0.66349864
-0.051736895 -0.66214859 0.6651032
-0.018951382 -0.66214859 0.6651032
0.013834129 -0.66214859 0.6651032
0.046619643 -0.66214859 0.6651032
0.079379991 -0.66190964 0.6634686
-0.21616216 -0.63064295 0.67433929
0.21097106 -0.63063467 0.67427969
-0.24867536 -0.3673608 0.66876316
-0.21617502 -0.3678084 0.67457819
0.21098346 -0.36780617 0.67454839
0.24352834 -0.36735842 0.66873336
-0.18399057 -0.63269818 0.68917084
0.17868574 -0.63268983 0.68911099
-0.18359005 -0.36826429 0.68049884
-0.15084408 -0.36858028 0.6846056
-0.11799996 -0.36880907 0.68757772
-0.085063651 -0.36888319 0.68853974
-0.05210327 -0.368911 0.68889999
-0.01913457 -0.368911 0.68889999
0.013834129 -0.368911 0.68889999
0.04680283 -0.368911 0.68889999
0.079765975 -0.36888319 0.68853974
0.112709 -0.36880678 0.68754792
0.1455767 -0.36858028 0.6846056
0.17835313 -0.3682619 0.68046951
-0.15133634 -0.63383764 0.69739485
-0.11844366 -0.63447392 0.70198727
-0.085479803 -0.63510752 0.70655942
-0.052402239 -0.63535112 0.708318
-0.019284055 -0.63535112 0.708318
0.013834129 -0.63535112 0.708318
0.046952315 -0.63535112 0.708318
0.080043413 -0.63510752 0.70655942
0.11304177 -0.63446987 0.70195699
0.14596957 -0.63383335 0.69736433
-0.21843863 -0.40422389 0.7165854
-0.18553568 -0.40473518 0.72262335
-0.15247446 -0.40510267 0.72696424
-0.11926176 -0.40523762 0.72855592
-0.086011134 -0.40532312 0.72956657
-0.052735042 -0.40535432 0.72993445
-0.019450456 -0.40535432 0.72993445
0.013834129 -0.40535432 0.72993445
0.047118716 -0.40535432 0.72993445
0.080397159 -0.40532061 0.72953606
0.11365604 -0.40523762 0.72855592
0.14688101 -0.40510267 0.72696424
0.17997448 -0.40473267 0.72259283
0.21292506 -0.40422389 0.7165854
-0.21965767 -0.60627544 0.73920774
0.2139657 -0.60626358 0.73911595
-0.18729587 -0.60909218 0.76073241
0.18144009 -0.60908413 0.76067019
-0.22108245 -0.57617629 0.76564884
0.21518834 -0.57616848 0.76558638
-0.22074889 -0.44136643 0.75945854
-0.18752007 -0.44193238 0.76558638
-0.15410623 -0.44228089 0.76935887
0.14818643 -0.44228089 0.76935887
0.1816293 -0.44193238 0.76558638
0.21490386 -0.44136339 0.75942755
-0.15416509 -0.61042124 0.77088833
-0.12078772 -0.61136681 0.77811289
-0.087300397 -0.61231953 0.785393
0.08125665 -0.61231548 0.78536177
0.11479979 -0.61136276 0.77808166
0.14823255 -0.61041725 0.77085686
-0.18816812 -0.57789683 0.77961755
0.18216693 -0.57788897 0.77955437
-0.2221007 -0.54479879 0.78454494
0.21606106 -0.54479152 0.784482
-0.22210915 -0.47740433 0.78470182
0.21606979 -0.47740129 0.78467059
-0.12054893 -0.44237313 0.77035713
-0.086976223 -0.44246534 0.77135682
-0.053379502 -0.44250572 0.77179408
-0.019772686 -0.44250572 0.77179408
0.013834129 -0.44250572 0.77179408
0.047440946 -0.44250572 0.77179408
0.081041031 -0.44246534 0.77135682
0.11462141 -0.44237313 0.77035713
-0.053636339 -0.61272293 0.78847575
-0.019901104 -0.61272293 0.78847575
0.013834129 -0.61272293 0.78847575
0.047569364 -0.61272293 0.78847575
-0.15490021 -0.57917404 0.78998709
-0.12137876 -0.58007544 0.79730701
-0.087745138 -0.58098 0.80465126
0.081553146 -0.58097595 0.80461955
0.11524305 -0.58007139 0.7972753
0.14882161 -0.57917404 0.78998709
-0.1890465 -0.54642558 0.79863501
0.18289891 -0.54641843 0.79857159
-0.18912542 -0.51279628 0.80034328
0.18296586 -0.51279289 0.8003118
-0.22237021 -0.51163256 0.78954625
0.21629208 -0.51162565 0.78948331
-0.18878831 -0.47823912 0.79304457
-0.15520751 -0.47873223 0.79797077
-0.1214586 -0.4789252 0.79990029
-0.087679282 -0.47911525 0.80179954
-0.053853665 -0.47919464 0.80259132
-0.020009767 -0.47919464 0.80259132
0.013834129 -0.47919464 0.80259132
0.047678027 -0.47919464 0.80259132
0.08150924 -0.47911218 0.80176783
0.11530294 -0.47892207 0.79986882
0.14906745 -0.47873223 0.79797077
0.18268496 -0.47823596 0.7930131
-0.053934243 -0.58137095 0.80782485
-0.020050056 -0.58137095 0.80782485
0.013834129 -0.58137095 0.80782485
0.047718316 -0.58137095 0.80782485
-0.088105246 -0.54892075 0.82024431
-0.054160867 -0.54918647 0.82254457
-0.020163368 -0.54918647 0.82254457
0.013834129 -0.54918647 0.82254457
0.047831628 -0.54918647 0.82254457
0.081793219 -0.54891711 0.82021236
-0.15564303 -0.54765546 0.80928612
-0.12192298 -0.54831302 0.81498122
0.11565196 -0.54831302 0.81498122
0.14941488 -0.54765177 0.80925393
-0.15555745 -0.5135203 0.80706263
-0.12176619 -0.51382506 0.80988979
-0.08796531 -0.51428807 0.81418514
-0.054067481 -0.51453513 0.81647944
-0.020116676 -0.51453513 0.81647944
0.013834129 -0.51453513 0.81647944
0.047784936 -0.51453513 0.81647944
0.08169993 -0.51428449 0.81415343
0.11553364 -0.5138216 0.80985832
0.14934644 -0.51351684 0.80703115
0 0 0 1 0 0 0 1 0 0 0 1 0 0 0 0 0 1022 1 0 0
