ply
format ascii 1.0
comment PCL generated
element vertex 1339
property float x
property float y
property float z
element camera 0
property float view_px
property float view_py
property float view_pz
property float x_axisx
property float x_axisy
property float x_axisz
property float y_axisx
property float y_axisy
property float y_axisz
property float z_axisx
property float z_axisy
property float z_axisz
property float focal
property float scalex
property float scaley
property float centerx
property float centery
property int viewportx
property int viewporty
property float k1
property float k2
end_header
0.034257103 -0.19628967 -0.14612067
0.059500683 -0.19661279 -0.14087451
-0.016150504 -0.17170051 -0.1354723
0.0090942821 -0.17116983 -0.14532244
0.059595417 -0.17174105 -0.13472152
-0.04150518 -0.1467855 -0.12833488
-0.016110662 -0.14621678 -0.14064837
0.05959085 -0.14647676 -0.13501835
-0.041436177 -0.12131319 -0.13281691
-0.016078286 -0.12084993 -0.14485383
0.059584394 -0.1212124 -0.13543725
-0.0413738 -0.09592326 -0.13686812
0.059577141 -0.095952809 -0.1359086
-0.041329537 -0.070622794 -0.13974333
0.059569083 -0.070699237 -0.13643205
-0.066769704 -0.045563094 -0.12985933
-0.041285079 -0.045366541 -0.14263082
0.059561025 -0.04545382 -0.13695526
-0.066712715 -0.020256117 -0.1323272
-0.04124818 -0.020158386 -0.14502752
0.059554849 -0.02021732 -0.1373564
-0.066665083 0.0050129411 -0.13438976
0.059518371 0.0050128866 -0.1397258
-0.066619925 0.030250974 -0.13634491
0.059519444 0.030225528 -0.13965619
-0.066590123 0.055469196 -0.13763535
0.059582248 0.05550088 -0.13557708
-0.066565581 0.080672696 -0.13869834
0.059578754 0.080739625 -0.13580394
-0.066545874 0.10586641 -0.13955176
0.059574455 0.10597322 -0.13608313
-0.066526569 0.13104768 -0.14038754
0.059572037 0.13120726 -0.13624012
-0.066510901 0.15622339 -0.14106607
0.05956962 0.15643899 -0.13639724
-0.066495642 0.18138936 -0.14172697
0.059567202 0.1816681 -0.136554
-0.066481583 0.20654865 -0.1423353
0.059565861 0.20689918 -0.13664138
-0.092094928 0.20739128 -0.12865043
-0.092083059 0.23266187 -0.12903595
-0.066471949 0.2317117 -0.14275265
0.059564784 0.23213015 -0.13671124
-0.092070647 0.2579253 -0.12943888
-0.066463925 0.25687358 -0.14310002
0.059565861 0.25737083 -0.13664126
-0.092065796 0.28320321 -0.12959671
-0.066461921 0.28205225 -0.14318693
0.059569351 0.28262582 -0.13641441
-0.092065796 0.30849308 -0.12959659
-0.066463523 0.30724403 -0.14311731
0.059574723 0.30789563 -0.1360656
-0.092071727 0.33380234 -0.12940395
-0.066468343 0.33245087 -0.14290893
0.059581976 0.33318302 -0.13559449
-0.092077658 0.35911462 -0.12921131
-0.066474356 0.35766664 -0.14264822
0.059588965 0.35847566 -0.13514054
-0.092086837 0.38444206 -0.12891316
-0.066481985 0.38289422 -0.14231801
0.059502024 0.38307095 -0.1407876
-0.066488408 0.40812057 -0.1420399
0.059544921 0.40861815 -0.13800132
-0.092095472 0.4097721 -0.1286329
-0.092104107 0.43510598 -0.1283524
-0.066496044 0.43335807 -0.14170957
0.059552707 0.43390942 -0.13749588
-0.066503666 0.45860052 -0.141379
0.059561025 0.45921361 -0.13695526
-0.066511303 0.4838483 -0.14104855
0.059569083 0.4845235 -0.13643205
-0.066520944 0.50911433 -0.14063108
0.059578754 0.50985759 -0.13580394
-0.066531397 0.53439277 -0.14017856
0.059589773 0.53521562 -0.13508821
-0.066545874 0.5597074 -0.13955176
0.059602141 0.56059933 -0.13428485
-0.066560343 0.58503187 -0.13892484
0.059616666 0.58602035 -0.13334131
-0.066578053 0.61039156 -0.1381582
0.0342547 0.60886288 -0.14643252
0.059632551 0.61147213 -0.13230968
-0.066599384 0.63579363 -0.13723421
0.034262978 0.63423032 -0.14535713
0.059647903 0.63693303 -0.13131249
-0.066608652 0.66110504 -0.13683331
0.034270722 0.65960056 -0.14435053
0.059662726 0.66240263 -0.13034964
-0.066648953 0.68670201 -0.13508821
0.03427019 0.68476248 -0.14442003
0.059657604 0.68761772 -0.13068235
-0.06658449 0.71134818 -0.13787937
0.034324165 0.71144956 -0.13740849
0.059683494 0.71326184 -0.12900078
-0.066665083 0.7373535 -0.13438952
0.23795287 -0.32556057 -0.11157715
0.21244781 -0.32543656 -0.11281645
0.2374289 -0.29943329 -0.11914015
0.059873339 -0.27427191 -0.11667013
0.085262455 -0.27427039 -0.11668766
0.0090942821 -0.24910408 -0.11378956
0.034441203 -0.2484563 -0.1222049
0.085133418 -0.24845093 -0.12227511
-0.016278811 -0.22334495 -0.11880505
0.0090942821 -0.22276242 -0.12721241
0.085266538 -0.22350381 -0.11651123
-0.041706529 -0.19819032 -0.11525702
-0.016212605 -0.19744214 -0.12740552
0.085255936 -0.1980848 -0.11697018
-0.067212373 -0.17303595 -0.11069131
-0.041581411 -0.17235206 -0.1233834
0.085260011 -0.17270714 -0.11679375
-0.067102447 -0.14738062 -0.11545134
0.08525838 -0.14731529 -0.11686409
-0.092586301 -0.12208771 -0.11269259
-0.0669965 -0.12180502 -0.12003911
0.085255116 -0.12192184 -0.11700547
-0.092658833 -0.096740179 -0.11033678
-0.066905864 -0.096320584 -0.12396359
0.08524289 -0.096518561 -0.117535
-0.092568867 -0.071234457 -0.11325896
-0.066837721 -0.070919156 -0.12691426
0.085232705 -0.071125455 -0.11797619
-0.092482865 -0.045775682 -0.11605203
0.085219666 -0.045737434 -0.11854053
-0.092408948 -0.020362874 -0.11845243
0.085208267 -0.020358387 -0.11903417
-0.092346527 0.0050129411 -0.12047935
0.085152112 0.0050128866 -0.12146556
-0.092287444 0.030358389 -0.12239838
0.085145608 0.030363368 -0.12174726
-0.092246823 0.055683479 -0.12371755
0.085237995 0.055775356 -0.11774671
-0.1180862 0.081321299 -0.1106205
-0.092210025 0.080991171 -0.1249125
0.085229851 0.08114849 -0.11809957
-0.11805142 0.10672946 -0.11152387
-0.092182443 0.10628967 -0.12580824
0.08522252 0.10651725 -0.11841702
-0.11801666 0.13212375 -0.11242712
-0.092155419 0.13157514 -0.12668598
0.085213155 0.13187774 -0.11882281
-0.11798942 0.15751337 -0.1131351
-0.092134885 0.15685661 -0.12735271
0.085207865 0.15724009 -0.11905193
-0.11796491 0.18289569 -0.1137718
-0.092114903 0.18212895 -0.12800169
0.085201345 0.18259615 -0.11933386
-0.11794177 0.20827058 -0.11437321
0.085195243 0.20794888 -0.11959851
-0.11792746 0.233652 -0.11474442
0.0851928 0.23330845 -0.11970413
-0.11791183 0.2590251 -0.11515081
0.085189946 0.25866506 -0.11982739
-0.11790435 0.28440985 -0.11534524
0.085195243 0.28404984 -0.11959851
-0.11790094 0.30980143 -0.11543357
0.085203782 0.30945078 -0.11922812
-0.11790502 0.3352111 -0.11532772
0.085214376 0.3348667 -0.11876976
-0.11791046 0.3606261 -0.11518633
0.085225776 0.36029318 -0.11827588
-0.11791863 0.38605177 -0.11497414
0.085169606 0.38538957 -0.12070847
-0.11792746 0.41148257 -0.11474419
0.085153341 0.41066128 -0.12141275
-0.11793835 0.43692395 -0.11446142
0.085163906 0.43607399 -0.12095511
-0.11794993 0.46237212 -0.11416078
-0.092113823 0.46044943 -0.12803674
0.085174486 0.46149412 -0.12049699
-0.11796285 0.48783001 -0.11382484
-0.092124082 0.48580012 -0.12770355
0.085185878 0.48692638 -0.12000382
-0.11797921 0.51330668 -0.11340034
-0.092136502 0.51116693 -0.12730014
0.085197687 0.51236886 -0.11949253
-0.092151098 0.53655112 -0.12682652
-0.11799827 0.53880167 -0.11290491
0.085211121 0.53783071 -0.11891079
-0.1180228 0.56432813 -0.11226773
-0.092170008 0.56196642 -0.12621212
0.085226595 0.56331664 -0.11824071
-0.11805142 0.58988327 -0.11152399
-0.092191093 0.58740377 -0.12552738
0.08524289 0.58881891 -0.11753488
-0.11808211 0.61545962 -0.11072683
-0.092214353 0.61286467 -0.12477207
0.085262045 0.61435515 -0.1167053
-0.092243031 0.63837105 -0.12384045
0.085280813 0.63990074 -0.11589289
-0.092271194 0.66388839 -0.12292612
0.085298762 0.66545177 -0.11511564
-0.1180712 0.6917066 -0.11101031
-0.092185147 0.68864906 -0.1257205
0.085317545 0.69102234 -0.1143024
-0.09225332 0.71444619 -0.12350655
0.085305296 0.71631575 -0.11483276
-0.092357926 0.7405414 -0.12010944
0.034485307 0.74135262 -0.11647594
0.059841011 0.74084049 -0.11876976
0.085800387 -0.32738027 -0.093394637
0.11129966 -0.32715452 -0.095649362
0.18780157 -0.32687205 -0.098472357
0.034655541 -0.30172211 -0.094361424
0.06010244 -0.301036 -0.10178947
0.085464425 -0.30046764 -0.10794246
0.11110511 -0.30101955 -0.10196769
0.0090942821 -0.27573726 -0.099364758
0.034541979 -0.27491176 -0.10911345
0.11131012 -0.27608073 -0.095309615
-0.016402941 -0.24995935 -0.10268009
0.1112881 -0.25047159 -0.096024871
-0.067604378 -0.22508308 -0.093716979
-0.041828711 -0.22414052 -0.10732102
0.11127049 -0.22488351 -0.096596837
-0.067408085 -0.19899344 -0.10221696
0.11126059 -0.19931963 -0.096918702
-0.093066514 -0.17376849 -0.097097278
0.11125563 -0.17376947 -0.097079277
-0.09292423 -0.14801483 -0.10171843
0.11124519 -0.14821342 -0.097418904
-0.11857578 -0.12265717 -0.097901106
0.11123363 -0.12266133 -0.097793698
-0.11864729 -0.097180344 -0.096042752
0.11122154 -0.097114295 -0.098186851
-0.11854073 -0.071568027 -0.098811507
0.11120724 -0.071571857 -0.098650813
-0.11843227 -0.045997683 -0.10162914
0.1111913 -0.046035603 -0.099168539
-0.11834182 -0.020474287 -0.10397935
0.11117757 -0.020507937 -0.099614382
-0.11826448 0.0050128317 -0.10598874
0.11110017 0.0050128866 -0.10212791
-0.1443411 0.030585477 -0.092893243
-0.11818928 0.03046958 -0.10794222
0.11108647 0.030510949 -0.10257316
-0.1442741 0.05613574 -0.094343543
-0.11813533 0.055904824 -0.10934401
0.11121274 0.056072101 -0.098472238
-0.14421049 0.081665322 -0.095721006
0.11120229 0.08159402 -0.098811507
-0.1441692 0.10718855 -0.096614718
0.11118581 0.10710439 -0.099346757
-0.14412712 0.13269745 -0.097525835
0.11117373 0.13261218 -0.099739432
-0.14409329 0.15820059 -0.098258138
0.11116164 0.15811397 -0.10013175
-0.14406608 0.18369991 -0.098847151
0.11114682 0.18360487 -0.10061324
-0.14403889 0.20919059 -0.099436164
0.11113858 0.20910144 -0.10088074
-0.14402159 0.23468673 -0.0998106
0.11112981 0.23459278 -0.10116565
-0.14400429 0.26017728 -0.10018539
0.1111265 0.26009342 -0.1012727
-0.14399441 0.28567553 -0.10039914
0.1111287 0.28560761 -0.10120153
-0.14398864 0.31117871 -0.10052419
0.11114188 0.31115574 -0.10077369
-0.14399192 0.33669978 -0.10045254
0.11115176 0.33669978 -0.10045254
-0.14399688 0.36222568 -0.10034561
0.11116658 0.36226586 -0.099971175
-0.1440051 0.38776138 -0.10016739
0.11114682 0.38770995 -0.10061324
-0.14401498 0.41330421 -0.099953413
0.11105905 0.41287199 -0.10346317
-0.14402735 0.43885756 -0.099685907
0.11107221 0.43841895 -0.10303617
0.11108756 0.46398279 -0.10253751
-0.14403971 0.46441492 -0.099418163
-0.14405455 0.48998418 -0.099097013
0.11110237 0.48955128 -0.10205674
-0.14407434 0.51557481 -0.098668694
0.11111774 0.51513004 -0.10155785
-0.14409658 0.54118097 -0.098186493
0.11113419 0.54072255 -0.1010232
-0.14412381 0.56681252 -0.097597361
0.1111512 0.56632602 -0.10047054
-0.14415517 0.59246916 -0.096918583
0.11117043 0.59195083 -0.099846244
-0.14419231 0.61815917 -0.096114159
0.11119405 0.61761159 -0.099079251
-0.14423527 0.64388615 -0.095184326
-0.11811827 0.64107555 -0.10978734
0.11121604 0.64327389 -0.098365307
-0.14411804 0.66893286 -0.097722411
-0.11816879 0.66678077 -0.10847473
0.11123693 0.66894019 -0.097686768
-0.14421213 0.69489169 -0.095685124
0.11125838 0.69462055 -0.09698987
-0.14431792 0.72093654 -0.093394637
-0.11815923 0.71763253 -0.10872316
0.11123638 0.7200076 -0.09770453
-0.11828363 0.74380487 -0.10549104
0.0090942821 0.74434495 -0.10307169
0.085434921 0.74297231 -0.10921979
0.11125783 0.74569863 -0.097007871
0.085840523 0.77247536 -0.091656923
0.08615309 -0.35459489 -0.078122139
0.1116616 -0.3539727 -0.083894968
0.13743249 -0.35433415 -0.080541968
0.034781385 -0.3289195 -0.078013778
0.060333341 -0.32804099 -0.086792111
0.0090942821 -0.30269074 -0.083876967
0.13770464 -0.30365196 -0.073471427
-0.042313613 -0.27773061 -0.075825453
-0.016514041 -0.27667865 -0.088247538
0.13767534 -0.27786544 -0.074232221
0.13766699 -0.25213251 -0.074449658
-0.067971207 -0.25187203 -0.077833056
-0.042080916 -0.25086311 -0.09093976
-0.093594067 -0.22603586 -0.079964519
0.13765863 -0.22640288 -0.074666977
-0.11949585 -0.20073135 -0.073996782
-0.093329616 -0.19983487 -0.088552833
0.13765235 -0.20067991 -0.074829936
-0.11915925 -0.17454207 -0.082741976
0.13765305 -0.17496938 -0.074811816
-0.11898123 -0.14867771 -0.087367177
0.13763842 -0.14924006 -0.075192094
-0.1448008 -0.12323294 -0.082940459
0.137621 -0.12351381 -0.075644493
-0.14488073 -0.097637147 -0.08120954
0.13759801 -0.097790033 -0.076241732
-0.14475504 -0.071911782 -0.083931088
0.13757086 -0.072072983 -0.076947212
-0.1446287 -0.046228051 -0.086666226
0.1375493 -0.046369065 -0.077507734
-0.17096803 -0.020710237 -0.073326349
-0.14452 -0.020589581 -0.089019656
0.13745889 -0.020660006 -0.079856157
-0.17086066 0.0050129411 -0.075318813
-0.144428 0.0050128317 -0.091011286
0.13742486 0.005012996 -0.080740452
-0.17075929 0.030706244 -0.077200174
0.13740541 0.030675054 -0.081245661
-0.17067942 0.056376893 -0.078682423
0.13755067 0.056395497 -0.077471614
-0.17060158 0.082025431 -0.080126882
0.13752981 0.082074188 -0.078013659
-0.17055394 0.10766911 -0.081011176
0.13750824 0.10774413 -0.078573823
-0.17050534 0.13329832 -0.081912994
0.13748182 0.13340038 -0.079260349
-0.17046745 0.158923 -0.082615852
0.13746445 0.15905719 -0.079711556
-0.17043541 0.1845426 -0.083210468
0.13744013 0.18469718 -0.080343485
-0.17040338 0.21015312 -0.083804965
0.1374186 0.21033172 -0.080902815
-0.17038397 0.23577069 -0.084165096
0.1374075 0.23597676 -0.08119154
-0.17036359 0.26138124 -0.084543228
0.1373964 0.26161715 -0.081480026
-0.17034905 0.28699526 -0.084813118
0.13739847 0.28728217 -0.081426024
-0.17034031 0.31261501 -0.084975123
0.1374068 0.31296292 -0.08120954
-0.17033935 0.33824664 -0.084993243
0.1374193 0.33865783 -0.080884933
-0.1703413 0.36388403 -0.084957242
0.13742971 0.36435217 -0.08061409
-0.17034614 0.38952813 -0.084867239
0.13734989 0.38977981 -0.082687974
-0.17035486 0.41518238 -0.084705234
0.13716425 0.41483682 -0.087510943
-0.17036651 0.44084623 -0.084489346
0.1372965 0.44090024 -0.084075093
-0.17038009 0.46651831 -0.084237099
0.13731383 0.46660334 -0.08362484
-0.17039561 0.49219984 -0.08394897
0.13733256 0.4923183 -0.083138585
-0.17041793 0.51790506 -0.083534837
0.13735266 0.51804644 -0.082615852
-0.17044415 0.5436281 -0.083048344
0.13737071 0.54377389 -0.082147241
-0.17047328 0.56936806 -0.08250773
0.13738805 0.56950533 -0.08169651
-0.17050825 0.59513563 -0.081858754
0.1374075 0.59525383 -0.08119154
-0.17054906 0.62093312 -0.081101418
0.13743041 0.62102628 -0.08059597
-0.17060059 0.64678031 -0.080145001
0.13745542 0.64681858 -0.079946399
-0.17073298 0.67294288 -0.077688456
0.13747627 0.67259926 -0.079404712
-0.17061131 0.69816309 -0.079946399
0.13750476 0.69842947 -0.078664184
-0.17074272 0.72436082 -0.077507615
0.13747418 0.72394031 -0.079458952
-0.17090945 0.75074267 -0.0744133
-0.14446115 0.74719745 -0.090293884
0.13747001 0.74959213 -0.079567313
0.060442071 0.77522975 -0.079729915
0.11150049 0.77305943 -0.089127541
0.13765235 0.77636129 -0.074829936
0.13830099 -0.40844846 -0.057978034
0.086518742 -0.38210937 -0.062289
0.11214801 -0.38143855 -0.068098545
0.13775419 -0.38096684 -0.072184205
0.16426237 -0.38290736 -0.055378795
0.034908336 -0.35638386 -0.061522603
0.060566619 -0.35529351 -0.071640015
-0.016764387 -0.33114973 -0.055727005
0.0090942821 -0.3299717 -0.067498684
0.13773604 -0.32945561 -0.072655678
0.16415922 -0.33096105 -0.057612181
-0.042555749 -0.30488729 -0.06009829
-0.016632255 -0.30370557 -0.072891355
-0.06832049 -0.27884126 -0.062708616
-0.094078258 -0.25291845 -0.064239979
-0.11983353 -0.22705722 -0.065223575
-0.1459014 -0.20164807 -0.059111595
-0.14549807 -0.17534475 -0.067844033
-0.17186116 -0.15009178 -0.056752205
-0.14528336 -0.14936477 -0.072492361
-0.17132127 -0.12385537 -0.066770792
-0.17138699 -0.098119289 -0.065551519
-0.17124091 -0.07227359 -0.068262219
-0.1978202 -0.046715718 -0.054994106
-0.17109215 -0.046468932 -0.071022987
0.16427083 -0.046712652 -0.055195451
-0.19767699 -0.020833522 -0.057319403
0.16413556 -0.020827338 -0.058124304
-0.19755761 0.0050128866 -0.059257865
0.16411191 0.0050129411 -0.058636427
-0.19744062 0.030829802 -0.061157465
0.16408573 0.03084485 -0.059203029
-0.19734961 0.056623843 -0.062635422
0.16424544 0.056729946 -0.055745006
-0.19725864 0.082395233 -0.064112186
0.1642167 0.082574055 -0.056367755
-0.19720368 0.10816197 -0.065005064
0.16418204 0.10840476 -0.057118297
-0.19714984 0.13391562 -0.065879107
0.16415076 0.13422675 -0.057795167
-0.19710502 0.15966238 -0.066607118
0.16411951 0.16003814 -0.05847168
-0.19706804 0.18540499 -0.067207575
0.16408743 0.18583827 -0.059166551
-0.1970322 0.21113934 -0.067789555
0.16405873 0.21163219 -0.05978775
-0.1970087 0.23687877 -0.068171382
0.16403089 0.2374177 -0.060390711
-0.1969863 0.26261365 -0.06853497
0.16401656 0.26321667 -0.060701132
-0.19697064 0.28835216 -0.068789124
0.16401403 0.28903237 -0.060755849
-0.1969583 0.31409168 -0.068989158
0.16402583 0.31487605 -0.060500264
-0.1969572 0.33984667 -0.069007397
0.16403341 0.34071425 -0.060335755
-0.1969572 0.36560294 -0.069007158
0.16403931 0.3665514 -0.060207963
-0.19696167 0.39136782 -0.068934679
0.16391456 0.39206365 -0.062909126
-0.19696839 0.41713828 -0.068825483
0.16389436 0.41781303 -0.063346744
-0.19698294 0.44292703 -0.068589449
0.16385646 0.44350573 -0.064167023
-0.19699861 0.46872199 -0.068334937
0.16387498 0.46935493 -0.063766122
-0.19701764 0.49452862 -0.068025827
0.16389602 0.49521849 -0.063310385
-0.19704115 0.52035141 -0.067644
0.1639213 0.52110302 -0.062763214
-0.1970714 0.54619783 -0.067153096
0.16394237 0.54698128 -0.062307239
-0.1971039 0.57205802 -0.066625357
0.16396005 0.57285404 -0.061923981
-0.19714426 0.59794879 -0.065970063
0.16398029 0.59874249 -0.061486125
-0.19719133 0.62386978 -0.065205455
0.16400473 0.62465465 -0.060956597
-0.19724858 0.64983428 -0.064276338
0.16403258 0.65058905 -0.060353994
-0.19741927 0.67618191 -0.061504364
0.16405873 0.67652547 -0.059787989
-0.19728334 0.70153749 -0.063711405
0.16403173 0.70223147 -0.060372353
-0.19743951 0.72788119 -0.061175823
0.16407223 0.72824341 -0.05949533
-0.19762743 0.75437903 -0.058124185
0.16405873 0.75400776 -0.05978775
0.034880824 0.77860922 -0.06509614
0.16426322 0.7808575 -0.055360436
0.13895334 -0.43650785 -0.041028976
0.16468318 -0.43582231 -0.046267986
0.061100561 -0.41103742 -0.036959648
0.086887449 -0.40988404 -0.046323299
0.11263736 -0.40915936 -0.052206755
0.16445553 -0.4092837 -0.051196933
0.035039525 -0.3841657 -0.044480562
0.060830522 -0.3830089 -0.054499388
-0.016897742 -0.35887548 -0.038403511
0.0090942821 -0.35752237 -0.050958037
0.16455823 -0.35773626 -0.04897356
-0.042820625 -0.33243406 -0.042894125
-0.068680182 -0.30608493 -0.047133446
0.16452596 -0.30585048 -0.049672008
-0.094560802 -0.28003863 -0.048568726
0.16449369 -0.27988613 -0.050370336
-0.12043636 -0.25404844 -0.049561501
0.16446741 -0.25394228 -0.050939679
-0.14631532 -0.22810155 -0.050149798
0.16444536 -0.22801366 -0.051417351
-0.17260094 -0.20263883 -0.043023229
0.16442753 -0.20209816 -0.051802754
-0.172114 -0.17619543 -0.05205977
0.16440888 -0.1761875 -0.052206755
-0.19872005 -0.15084785 -0.040382385
0.16438515 -0.150278 -0.052720547
-0.19810495 -0.12448657 -0.050370336
0.16435805 -0.12437352 -0.053307533
-0.19816038 -0.098614447 -0.049469709
0.16432755 -0.098475948 -0.053967714
-0.19798848 -0.072643116 -0.052261472
0.16429453 -0.072587192 -0.054682612
-0.22487496 -0.04698018 -0.037811279
-0.22470708 -0.020965124 -0.040234447
-0.22456631 0.0050128866 -0.042266369
0.19108832 0.005012996 -0.037478089
-0.22442822 0.030959817 -0.044259191
0.19101153 0.031001076 -0.038902998
-0.22432351 0.056883544 -0.045770764
0.19093581 0.056967542 -0.040308356
-0.22422147 0.082784951 -0.047243953
0.19088602 0.082923554 -0.041232347
-0.22415897 0.10868099 -0.048145652
0.19095173 0.10893138 -0.040012598
-0.22409526 0.13456263 -0.049065232
0.19101651 0.13495737 -0.038810611
-0.22404431 0.16043875 -0.049800515
-0.2240023 0.18631028 -0.050407052
-0.22396031 0.21217245 -0.051013231
0.19081636 0.21269524 -0.042525053
-0.22393486 0.23804212 -0.051380515
0.19076663 0.23859172 -0.043447614
-0.22390687 0.2639029 -0.051784396
0.19072688 0.26448804 -0.044185519
-0.2238878 0.28976884 -0.05205977
0.19070105 0.29039484 -0.04466486
-0.22387634 0.31564039 -0.052224994
0.19068813 0.31631655 -0.04490447
-0.22387509 0.34152415 -0.052243352
0.19067821 0.34224018 -0.045088887
-0.22387634 0.36741167 -0.052224994
0.19067423 0.36817282 -0.045162559
-0.22388397 0.39331007 -0.052114844
0.19066331 0.39408943 -0.045365214
-0.22389415 0.4192147 -0.051967978
0.19063352 0.41995975 -0.045917988
-0.22391067 0.44513339 -0.051729441
0.19060969 0.44583598 -0.046360254
-0.2239285 0.47105849 -0.051472425
0.1905968 0.47173366 -0.046599507
-0.22395138 0.49699831 -0.051141739
0.1906236 0.49773538 -0.046102285
-0.22397938 0.52295446 -0.050737739
0.19066529 0.5237872 -0.045328379
-0.22401503 0.54893452 -0.050223351
0.19070601 0.5498482 -0.044572711
-0.22405322 0.57492918 -0.049672008
0.19073285 0.57587683 -0.044074893
-0.22410291 0.60096127 -0.048954844
0.19076663 0.60193628 -0.043447614
-0.2241628 0.6270318 -0.048090577
0.19081138 0.628043 -0.042617321
0.19086014 0.65417665 -0.041712761
-0.22443463 0.67965198 -0.044166923
0.19091788 0.68035764 -0.040641189
-0.22427121 0.70510936 -0.046525955
0.19097963 0.70657074 -0.039494872
-0.22446784 0.73165077 -0.043687582
0.19107933 0.73295301 -0.037644625
-0.22468787 0.75831097 -0.040511608
0.0090942821 0.78219235 -0.049579978
0.16592395 -0.49161437 -0.019404411
0.11365143 -0.46549422 -0.019273281
0.13959509 -0.46479002 -0.024356008
0.16547321 -0.4641239 -0.029163122
0.19182558 -0.46486756 -0.02379632
0.061373435 -0.43935984 -0.019235849
0.087293632 -0.43811673 -0.028735161
0.11313651 -0.4371666 -0.035996318
0.19175419 -0.43858978 -0.025120854
0.035175066 -0.41227967 -0.026872993
0.19170095 -0.41237369 -0.026109099
-0.017033052 -0.38689718 -0.020825863
0.0090942821 -0.38545167 -0.03334415
0.19187185 -0.38665339 -0.022937417
-0.043088522 -0.36026669 -0.025493979
0.19186179 -0.36052206 -0.023124218
-0.069094755 -0.33380622 -0.029181838
-0.095052458 -0.30742732 -0.032601714
0.19180547 -0.30820632 -0.024169564
0.21810722 -0.30850646 -0.020919442
-0.12104128 -0.28128538 -0.033845425
0.1917723 -0.28205255 -0.024785161
-0.14705469 -0.2552354 -0.034142137
0.19174013 -0.25590974 -0.025381923
-0.1730905 -0.22922462 -0.033938169
0.19170898 -0.22977746 -0.025959849
-0.19960479 -0.20368618 -0.026015878
0.19167686 -0.2036528 -0.026556492
-0.19902782 -0.177094 -0.035384655
0.19164272 -0.17753553 -0.027189732
-0.22591321 -0.1516588 -0.02282548
0.19160758 -0.15142702 -0.027841687
-0.22525646 -0.12518202 -0.032304525
0.21828006 -0.12572834 -0.01811254
-0.22526935 -0.099148624 -0.032118917
0.19147824 -0.09920641 -0.030242085
0.21823625 -0.099557988 -0.0188241
-0.22507392 -0.073043115 -0.034939647
0.19136909 -0.073104896 -0.032267451
0.21818784 -0.073397152 -0.019610047
-0.25222948 -0.047251809 -0.020171285
0.19127607 -0.047039002 -0.033993721
0.21813947 -0.047248308 -0.020395875
-0.25202662 -0.021099187 -0.022806644
0.19118415 -0.020999925 -0.035699725
0.2180865 -0.021111116 -0.021256089
0.21801284 0.0050128866 -0.022451758
-0.25186139 0.005012996 -0.024953008
-0.2517021 0.031092567 -0.027022123
0.21798293 0.031123977 -0.022937536
-0.25158456 0.057148717 -0.028549075
0.21796568 0.0572308 -0.023217559
-0.25147286 0.083183087 -0.03000021
0.21795304 0.083335049 -0.023422956
-0.25140131 0.10921112 -0.030929923
0.21793465 0.10943306 -0.023721576
-0.25132835 0.1352243 -0.031877398
0.21791741 0.13552728 -0.024001479
-0.25127259 0.16123307 -0.032601953
0.21789901 0.16161643 -0.024299979
-0.25122401 0.18723565 -0.033232927
0.21788178 0.18770191 -0.024580002
-0.25117972 0.2132321 -0.033808231
0.2178703 0.21378905 -0.024766445
-0.25114685 0.23923002 -0.034235001
0.21785882 0.23987293 -0.024953008
-0.25111401 0.26522118 -0.034661531
0.2178324 0.2659356 -0.025381923
-0.2510983 0.29122478 -0.034865379
0.21782091 0.29201201 -0.025568366
-0.25108692 0.31723037 -0.035013914
0.2178186 0.3180995 -0.025605798
-0.25108692 0.3432484 -0.035013795
0.21781288 0.34418055 -0.0256989
-0.25109118 0.36927259 -0.034958363
0.21783583 0.37031063 -0.025326014
-0.25110832 0.39531675 -0.034735799
0.21785536 0.39644 -0.025008917
-0.25112545 0.42136455 -0.034513116
0.21785192 0.42252809 -0.025065064
-0.25114685 0.44742286 -0.034235001
0.217868 0.44865698 -0.024803638
-0.25116828 0.47348559 -0.033956647
0.21789557 0.47481567 -0.024356008
-0.25119829 0.49956882 -0.033566952
0.21793465 0.50100881 -0.023721576
-0.25123256 0.52566659 -0.033121586
0.21800137 0.52728045 -0.022638559
-0.25127831 0.55179542 -0.032527566
0.21808188 0.55360532 -0.021330595
-0.25132978 0.57794565 -0.031858802
0.21818094 0.58000118 -0.019722342
-0.25139558 0.60413957 -0.03100419
0.21827891 0.60641867 -0.018131375
-0.25146857 0.63036364 -0.030056
-0.25138411 0.65620887 -0.031152964
-0.25139412 0.68228287 -0.031022668
-0.25156593 0.70879543 -0.028790951
-0.25180396 0.73552805 -0.0256989
-0.25206399 0.7623719 -0.022320867
0.19121711 0.75952178 -0.035087943
-0.016962573 0.78671855 -0.029981732
0.19162564 0.78729022 -0.027506351
0.11322216 0.81200403 -0.033214331
0.087487951 0.81508082 -0.020321012
0.13946523 0.81331271 -0.027729988
0.16670224 -0.57288301 -0.002554059
0.16646951 -0.54580033 -0.0075929165
0.16623314 -0.51878321 -0.01271069
0.19266115 -0.51946384 -0.0082900524
0.21934535 -0.52061474 -0.00081443787
0.11423497 -0.49440545 -0.00032246113
0.14024322 -0.49335295 -0.007517457
0.1922207 -0.49204442 -0.016463876
0.21916957 -0.4939158 -0.0036689043
0.06165443 -0.4680284 -0.00098478794
0.087722763 -0.46675792 -0.010153532
0.21903126 -0.46734527 -0.0059148073
0.035318993 -0.44080716 -0.0081769228
0.2189198 -0.44086632 -0.007724762
-0.017177638 -0.4153378 -0.0020438433
0.0090942821 -0.4137812 -0.014682055
0.2188154 -0.41442937 -0.0094195604
-0.043366738 -0.38844469 -0.0074231625
0.21873662 -0.38806644 -0.010699034
-0.069513336 -0.36182266 -0.011056423
0.21844165 -0.36134496 -0.015488744
-0.095608287 -0.33527049 -0.014550686
-0.14857568 -0.31032705 -0.0012117624
-0.12165982 -0.30879691 -0.017775536
-0.17488152 -0.28409192 -0.00070083141
-0.14780889 -0.28264293 -0.017812848
0.21854566 -0.2829828 -0.013799906
-0.17396851 -0.2565054 -0.017644286
0.21850173 -0.25674644 -0.014513135
-0.20018497 -0.23042622 -0.016595006
0.21845898 -0.23052247 -0.01520741
-0.22694245 -0.2047976 -0.0079696178
0.21841392 -0.20430671 -0.015938878
-0.22628126 -0.17805701 -0.017513156
0.21836776 -0.17810139 -0.016688704
-0.25345042 -0.15251386 -0.0043108463
0.21832506 -0.15191008 -0.017382145
-0.25273153 -0.12589994 -0.013649583
0.19222675 -0.12579603 -0.016351342
-0.25269395 -0.0997025 -0.014137626
-0.25246149 -0.073453844 -0.017157197
-0.27992249 -0.047535587 -0.0017412901
-0.27969691 -0.021240858 -0.0044052601
-0.2795068 0.005012996 -0.0066504478
-0.2793265 0.031233033 -0.0087795258
-0.27919582 0.057429269 -0.010322928
-0.27907637 0.083604872 -0.011733294
-0.27899364 0.10977216 -0.012710452
-0.27890936 0.13592362 -0.013705969
-0.27884576 0.16207121 -0.014456868
-0.27878696 0.18821 -0.015151024
-0.27873453 0.21434303 -0.015770078
-0.27869645 0.24047792 -0.016220093
-0.27865994 0.26660767 -0.016651273
-0.27864724 0.29275438 -0.016801357
-0.27864248 0.3189075 -0.016857386
-0.27865198 0.34507665 -0.01674521
0.2455599 0.34657443 -0.0017790794
-0.27866629 0.37125361 -0.01657629
-0.2786901 0.39744601 -0.016295195
-0.27871233 0.42364067 -0.016032457
-0.27873775 0.44984424 -0.015732646
-0.27876472 0.47605491 -0.015413642
-0.2787981 0.50228137 -0.015019774
-0.27883461 0.52852005 -0.014588237
-0.27889025 0.55480158 -0.013931036
-0.27895227 0.58110607 -0.013198733
-0.27902704 0.60744846 -0.012315869
-0.27911457 0.63383234 -0.011282086
0.21840586 0.6329475 -0.016070127
-0.27924043 0.66031909 -0.0097959042
0.2185341 0.65951234 -0.01398766
-0.27963296 0.68745905 -0.0051602125
0.21867527 0.68615097 -0.011695623
-0.27920058 0.71264577 -0.010266542
0.21883166 0.7128765 -0.0091561079
-0.27949882 0.73961341 -0.0067446232
0.21900688 0.73970699 -0.0063109398
-0.27981365 0.76667905 -0.0030264854
-0.043328468 0.791354 -0.0099090338
0.061584625 0.81861317 -0.0055187941
0.16626959 0.81708539 -0.011921287
0.16752973 -0.62872893 0.015361667
0.22031333 -0.62864423 0.014903188
0.14109737 -0.60220116 0.014674187
0.19382454 -0.60195798 0.013300061
0.22003384 -0.60143834 0.010365009
0.16694091 -0.60006589 0.002613306
0.14090219 -0.57494181 0.0096035004
0.19356385 -0.57474858 0.008461833
0.21976446 -0.57433009 0.0059907436
0.14072149 -0.54782128 0.0049084425
0.19316904 -0.54721135 0.0011352301
0.21954128 -0.54741037 0.002366662
0.1147385 -0.52320814 0.016029954
0.14056313 -0.52086246 0.00079441071
0.088163212 -0.49575692 0.0089184046
0.24685997 -0.49693692 0.016985655
0.035465974 -0.46967772 0.010917306
0.24669717 -0.47019285 0.014635921
-0.017328247 -0.44417009 0.017521024
0.0090942821 -0.44242278 0.0041683912
0.24656235 -0.44353789 0.012689948
-0.043669648 -0.41709858 0.012251377
0.24643691 -0.41692951 0.010879278
-0.069936432 -0.39014065 0.0072637796
0.24637225 -0.39045036 0.0099461079
-0.096170664 -0.36341441 0.003713131
0.24633138 -0.36402261 0.0093561411
-0.14945769 -0.33851635 0.017884254
-0.12238841 -0.33684215 0.0011541843
-0.17582737 -0.31199563 0.016851902
-0.2023319 -0.28569812 0.018266916
0.2462154 -0.28480184 0.0076822042
-0.20126404 -0.25793508 0.00092697144
0.24617985 -0.25841546 0.0071687698
-0.22761919 -0.23170054 0.0017982721
0.24615219 -0.23204505 0.0067697763
-0.25466523 -0.20599477 0.011470079
0.24612191 -0.20567837 0.0063327551
-0.25390467 -0.17908636 0.0015897751
0.24608903 -0.1793164 0.0058579445
-0.28132385 -0.15339698 0.01480782
0.24606007 -0.15296431 0.0054401159
-0.28061906 -0.12667495 0.0064847469
0.24602981 -0.12661792 0.0050033331
-0.28045985 -0.10027952 0.0046048164
0.24587473 -0.10022289 0.0027649403
-0.28019172 -0.073883235 0.0014382601
0.24584322 -0.073903479 0.0023100376
-0.30798495 -0.047833648 0.017616749
0.24581958 -0.047592714 0.0019687414
-0.30771488 -0.021387836 0.01469326
0.24588788 -0.021297602 0.0029546022
-0.30749634 0.0050128317 0.012327552
0.24584584 0.0050128317 0.002347827
-0.30729398 0.031378534 0.010136604
0.24583533 0.031317521 0.0021960735
-0.3071498 0.057720326 0.0085760355
0.24582878 0.05762057 0.0021015406
-0.30702332 0.084042363 0.0072069168
0.24581039 0.083918363 0.0018361807
-0.30692679 0.11035328 0.006161809
0.2458012 0.11021599 0.00170362
-0.30682856 0.13664746 0.0050984621
0.24578153 0.13650584 0.0014195442
-0.30676192 0.16294099 0.0043772459
0.24576576 0.1627939 0.0011920929
-0.30669358 0.18922243 0.0036370754
0.24575132 0.18907945 0.00098371506
-0.30662701 0.21549384 0.0029165745
0.24574214 0.21536651 0.00085103512
-0.30658323 0.24177106 0.0024427176
0.24572508 0.24164367 0.00060498714
-0.30654296 0.26804397 0.00200665
0.24571197 0.26792133 0.00041544437
-0.30653945 0.29434377 0.0019687414
0.24570672 0.29420593 0.00033998489
-0.30654821 0.32065547 0.002063632
0.24571066 0.32050154 0.00039684772
-0.30656922 0.34698167 0.0022910833
-0.3065955 0.3733176 0.0025752783
0.24644352 0.37422279 0.010974526
-0.30662876 0.39966673 0.002935648
0.245792 0.39950919 0.00157094
-0.30666029 0.42601892 0.003276825
0.24582878 0.42587429 0.0021015406
-0.30669358 0.45237902 0.0036371946
0.24586818 0.45225236 0.0026701689
-0.30672511 0.47874206 0.0039788485
0.24591808 0.4786604 0.0033905506
-0.30676368 0.50512135 0.004396081
0.24602193 0.50519353 0.004889369
-0.30681276 0.53152466 0.004927516
0.24617195 0.53185213 0.0070548058
-0.30688292 0.55797297 0.0056869984
0.24632743 0.5585568 0.0092989206
-0.30695838 0.58444285 0.0065038204
0.24648574 0.58530307 0.011584163
-0.3070409 0.61093855 0.0073970556
0.24670511 0.61224073 0.0147506
-0.30713925 0.63747996 0.0084617138
-0.30723065 0.66402322 0.0094512701
-0.30694607 0.68976694 0.0063707829
-0.30719724 0.71666878 0.0090895891
-0.30756682 0.74388868 0.013090372
-0.070065707 0.79661274 0.012861729
0.21994005 0.79568458 0.0088423491
0.03549049 0.8232953 0.014101624
0.22148386 -0.71180183 0.033910275
0.1417546 -0.68482065 0.031749487
0.19481145 -0.68479365 0.031614304
0.22103067 -0.68378025 0.026551366
0.14151162 -0.6570738 0.025436878
0.16815318 -0.65773255 0.028859854
0.19444853 -0.65696651 0.024879575
0.22064072 -0.65606964 0.020219326
0.24799109 -0.6585893 0.033311844
0.11527123 -0.6320489 0.033331156
0.14129753 -0.62956274 0.019874573
0.19411695 -0.6293506 0.01872611
0.24760132 -0.63100588 0.027685881
0.11511222 -0.60459012 0.02816689
0.2473231 -0.60379404 0.023670197
0.11495899 -0.57724303 0.023190737
0.24717163 -0.57695401 0.021484017
0.088745721 -0.55254716 0.034142017
0.11483448 -0.55012316 0.019147277
0.24707872 -0.55028409 0.020142794
0.08860907 -0.52508563 0.028224587
0.24697924 -0.52362037 0.018707037
0.035626642 -0.49910182 0.031787992
0.061969686 -0.49730343 0.019491911
0.0090942821 -0.47139162 0.023286581
-0.043978155 -0.44610283 0.032289386
-0.070392959 -0.418919 0.027032018
-0.096756831 -0.39192876 0.022749305
-0.12312518 -0.36520159 0.020296097
-0.20344995 -0.31380343 0.036421657
-0.22893792 -0.2594673 0.020832419
-0.25543612 -0.23306449 0.021483898
-0.28275189 -0.20723875 0.031672359
-0.28188753 -0.18015733 0.021464705
-0.30960962 -0.15433905 0.035204291
-0.30901286 -0.12753175 0.028744221
-0.30862749 -0.1008943 0.024572492
-0.30829969 -0.074335605 0.021023989
-0.33613539 -0.021543186 0.034875751
-0.33588043 0.0050128866 0.03232801
-0.33563739 0.031530712 0.029899359
-0.33548713 0.058025442 0.028397799
-0.33536389 0.084503323 0.027166605
-0.33525425 0.11096621 0.026070833
-0.33515042 0.13741475 0.025033474
-0.33506972 0.16385788 0.024227142
-0.33498907 0.19028853 0.023420691
-0.33491996 0.21671385 0.02273035
-0.33487579 0.24314602 0.022289038
-0.33483359 0.26957273 0.021867275
-0.33483934 0.29603353 0.021924853
-0.33485854 0.3225078 0.022116542
-0.33488923 0.3489964 0.022423387
-0.33491609 0.37548566 0.022691965
-0.33496216 0.4020012 0.023152351
-0.33500442 0.42851901 0.023574352
-0.3350409 0.4550359 0.023939013
0.27477604 0.45667186 0.036441207
-0.33507931 0.48156089 0.024322867
0.27478796 0.48326156 0.036595941
-0.33513507 0.50811744 0.024879694
-0.33519274 0.53468525 0.025456071
-0.33527347 0.56129915 0.026262999
-0.33535236 0.58792269 0.02705121
-0.33544669 0.6145854 0.027993679
-0.33556032 0.64129829 0.029129267
0.24700443 0.63944 0.019070625
-0.33559692 0.66788077 0.029495001
0.24728985 0.6666674 0.023190618
-0.33526772 0.69373685 0.02620542
0.24756534 0.6939292 0.027166724
-0.33557957 0.72087407 0.029321671
0.24783878 0.7212463 0.031113386
-0.33600402 0.74830151 0.033562779
0.24814229 0.74871773 0.035494089
0.0090942821 0.82844186 0.035668135
0.22268787 -0.76926386 0.053461075
0.16931111 -0.74266553 0.053929687
0.19569139 -0.74137557 0.047944307
0.22201902 -0.74022365 0.042600274
0.11583399 -0.71548009 0.051607132
0.14204392 -0.71291506 0.039266109
0.16893315 -0.71426201 0.045746446
0.19521542 -0.71288294 0.039111257
0.24902508 -0.71477956 0.048236251
0.1156242 -0.68743157 0.044794202
0.16860522 -0.68620116 0.038646698
0.24846937 -0.68651521 0.040215492
0.089183755 -0.66239941 0.053109765
0.11544444 -0.6596756 0.038956285
0.27611932 -0.66254973 0.053890705
0.089055479 -0.63467675 0.047555089
0.27569455 -0.63482779 0.048372626
0.088937923 -0.60712159 0.042464495
0.27542955 -0.60755813 0.0449301
0.06248216 -0.58225375 0.052777767
0.088825174 -0.57968026 0.037582159
0.27528304 -0.58060241 0.043027043
0.062429927 -0.55501139 0.04938519
0.27525318 -0.55392081 0.042639136
0.035789121 -0.52888387 0.052895069
0.27533683 -0.52747226 0.043725967
0.062292028 -0.52696449 0.0404284
0.0090942821 -0.50099576 0.044736028
0.27545196 -0.5010668 0.045221567
-0.044290286 -0.47544822 0.05256319
-0.017482977 -0.47337782 0.037620902
0.27546695 -0.47445789 0.045415878
-0.070869617 -0.44811586 0.047671795
0.2748341 -0.4467448 0.037195325
-0.097397365 -0.42095375 0.043551326
0.27528155 -0.42088675 0.043007851
-0.12387025 -0.39388072 0.03965354
0.27524123 -0.39420748 0.042483807
-0.15037465 -0.36708117 0.037737131
0.2752203 -0.36756355 0.042212129
-0.17691632 -0.34043539 0.037060022
0.27519941 -0.3409237 0.04194057
0.27518895 -0.31430084 0.04180491
-0.23018956 -0.2874451 0.03889811
0.27517849 -0.28767985 0.04166925
-0.25699297 -0.26107442 0.041708112
0.27516955 -0.26106238 0.041552901
-0.28393048 -0.23473455 0.045590878
0.27516508 -0.23445088 0.041494727
-0.31123841 -0.20854221 0.052836418
0.27515462 -0.20783538 0.041358948
-0.31028387 -0.18129101 0.042503238
0.2751427 -0.18122093 0.041203856
0.27512777 -0.15460718 0.041010022
-0.33776098 -0.12839299 0.051119685
0.27511433 -0.12799715 0.0408355
-0.33719409 -0.10153732 0.045454741
0.27510539 -0.1013916 0.040719271
-0.33682495 -0.074814565 0.041766167
0.27509344 -0.074786879 0.040564179
-0.33645272 -0.048148178 0.038046718
0.27508003 -0.048184238 0.040389776
0.27505463 -0.021583132 0.040060282
-0.3647871 0.0050128866 0.054320574
0.27510837 0.0050128866 0.040757895
-0.36451152 0.031699084 0.051763296
0.27510238 0.031613667 0.040680408
-0.36434764 0.058361754 0.050242424
0.2750994 0.058214009 0.040641785
-0.36421955 0.085008718 0.049054146
0.27509794 0.08481402 0.040622473
-0.36409575 0.11163866 0.047905445
0.27509642 0.11141376 0.040602922
-0.36398461 0.13825546 0.046874166
0.27509344 0.13801262 0.040564179
-0.36389241 0.16486439 0.046018481
0.27509344 0.16461241 0.040564179
-0.36380234 0.19146119 0.045182824
0.27509642 0.19121429 0.040602922
-0.3637374 0.21805972 0.04458046
0.27509794 0.21781576 0.040622473
-0.36369136 0.24466082 0.044153333
0.27509642 0.24441475 0.040602922
-0.36365369 0.27126139 0.043803692
0.27510238 0.27102107 0.040680408
-0.36365581 0.2978881 0.043823123
0.27512178 0.29764313 0.040932536
-0.36367881 0.32453266 0.044036746
0.27519345 0.32433185 0.041863203
-0.3637144 0.35119253 0.044366837
0.27525166 0.35101759 0.042619705
-0.36375627 0.37786353 0.044755459
0.27524123 0.37761858 0.042483807
-0.36379397 0.40453592 0.0451051
0.2752009 0.40417293 0.041960001
-0.36383376 0.43121633 0.04547441
0.27494434 0.43037298 0.038627148
-0.36388403 0.4579151 0.045940876
-0.36393222 0.4846184 0.046388149
-0.36399931 0.51135421 0.047010303
0.27489072 0.5100261 0.037930608
0.27511135 0.53704709 0.040796638
-0.3640601 0.53809053 0.047574639
-0.36414191 0.56486714 0.048333645
0.27542803 0.56431377 0.044910789
-0.36424053 0.59168196 0.049248934
0.27575749 0.59167206 0.049190283
-0.36434132 0.61851424 0.050183892
-0.36447158 0.64541155 0.051392794
-0.3637374 0.6707837 0.04458046
-0.36407268 0.69803739 0.047691464
-0.36453044 0.72557479 0.051938772
0.24846803 0.77632827 0.040195823
-0.097238593 0.80250949 0.038395047
0.1969893 -0.80025154 0.072030544
0.11632328 -0.77239734 0.067497492
0.1432883 -0.77331245 0.071596503
0.16978882 -0.77167743 0.064272404
0.19624151 -0.77031136 0.058153391
0.25070092 -0.77349734 0.072425246
0.089645796 -0.74680126 0.073116302
0.11606752 -0.74379981 0.059191227
0.14269181 -0.74313325 0.056098938
0.249662 -0.74341995 0.057429075
0.089473784 -0.71840256 0.065667987
0.27764341 -0.72006971 0.073688984
0.089316525 -0.69024658 0.058858395
0.27679303 -0.69100386 0.062642336
0.062715754 -0.66525555 0.067950249
0.062630713 -0.63742423 0.062426686
0.035943113 -0.6125102 0.072898984
0.062553465 -0.60976768 0.057409525
0.035908353 -0.58489674 0.068383455
0.035878822 -0.55746251 0.064547539
0.0090942821 -0.53110176 0.067300677
-0.017652798 -0.50318164 0.059681177
-0.071363397 -0.47773311 0.069053292
-0.098054774 -0.45037067 0.064901352
-0.12468034 -0.4230659 0.060700297
-0.15131854 -0.3960191 0.058172941
-0.17801709 -0.36920986 0.057487726
-0.20474608 -0.34247765 0.057468295
-0.2315331 -0.31582358 0.058290482
-0.25843087 -0.28926465 0.060386777
-0.28555399 -0.26284915 0.064763784
-0.31272554 -0.23635197 0.068935037
-0.33918542 -0.18252227 0.065353274
-0.33833757 -0.15534031 0.056881309
-0.36631545 -0.10224698 0.068501592
-0.36587027 -0.07533671 0.064370751
-0.36545357 -0.048493955 0.060504436
-0.36508417 -0.021714134 0.05707705
-0.39372486 0.13928595 0.073649526
-0.39362225 0.16609953 0.07276082
0.19612451 0.1653246 0.055981517
-0.3935197 0.19289935 0.07187283
0.19619405 0.19211273 0.057272792
-0.39345589 0.21970628 0.071320295
-0.39341718 0.24651983 0.07098496
-0.39338985 0.27333567 0.070748329
-0.39341265 0.3001847 0.070945501
-0.39356756 0.32714233 0.072287083
-0.39368838 0.35409129 0.073333502
0.27627274 0.61952347 0.055883884
0.27691698 0.64778739 0.064252734
0.27722284 0.67533439 0.06822598
0.27753699 0.70296401 0.072306871
-0.36510739 0.75341624 0.057292342
-0.12488593 0.8088941 0.066041708
-0.017693739 0.83544153 0.064999461
0.090052798 -0.80457234 0.090740204
0.14374779 -0.80290818 0.083534122
0.11664608 -0.80162561 0.077980757
0.17037079 -0.80136955 0.07687223
0.22411013 -0.80129653 0.07655561
0.089832284 -0.77545446 0.081191659
0.063021824 -0.74997276 0.087830424
0.27862471 -0.74967235 0.086436868
0.062910154 -0.72150135 0.080576777
0.036068942 -0.69632822 0.089244604
0.06280563 -0.6932345 0.073787808
0.30583408 -0.69637215 0.089464068
0.036023147 -0.66820878 0.083295822
0.30555418 -0.6687597 0.086158276
0.035981473 -0.64027971 0.077881932
0.0090942821 -0.61533016 0.088826418
0.0090942821 -0.58759707 0.08432889
0.0090942821 -0.55998325 0.080140471
-0.017828621 -0.53344524 0.082521319
0.30492881 -0.53286809 0.078772902
-0.044633493 -0.50540102 0.074854851
0.30494729 -0.506006 0.078990936
-0.098720349 -0.48015293 0.0865165
0.30523109 -0.47957465 0.082342625
-0.12554087 -0.4527466 0.083057404
0.30541274 -0.45293379 0.084487915
-0.15235607 -0.42552131 0.080636263
0.30576995 -0.42651537 0.088706613
0.30572781 -0.39948738 0.088208675
-0.17913738 -0.39834067 0.078277826
-0.20605934 -0.37150598 0.07879293
0.30572444 -0.37251642 0.088168859
-0.2330167 -0.34470296 0.079704523
0.30572274 -0.34554803 0.088148952
-0.26004919 -0.31795931 0.081409931
0.30571768 -0.31857628 0.088089228
-0.28718212 -0.29126352 0.08399117
0.30571768 -0.2916106 0.088089228
-0.31458509 -0.26471993 0.089065433
0.30571601 -0.26464322 0.08806932
0.30570754 -0.23767076 0.087969899
-0.34026092 -0.20997488 0.076100588
0.30570084 -0.21070096 0.087890029
-0.36875731 -0.18391281 0.091158986
0.30570084 -0.18373673 0.08788991
-0.36763179 -0.15644112 0.080715656
0.30570084 -0.15677249 0.08788991
-0.36697674 -0.12929823 0.074637413
0.30570588 -0.12981045 0.087949753
0.30570754 -0.10284638 0.087969661
0.30570588 -0.075881168 0.087949872
0.30569407 -0.048914425 0.087810397
0.30568057 -0.021949591 0.087651014
0.305657 0.0050128866 0.087372303
-0.39492819 0.005012996 0.084070563
-0.3944698 0.031917144 0.080101013
0.3056401 0.0319717 0.087173343
-0.39418384 0.058783371 0.077624559
0.30562326 0.058927231 0.086974025
0.30560809 0.085880354 0.086794972
-0.39385036 0.11246477 0.074736476
0.30559126 0.11282992 0.086596012
0.30557439 0.13977657 0.086397052
0.30555925 0.166721 0.08621788
0.30554408 0.19366284 0.086038828
0.30552891 0.22060168 0.085859895
0.30551377 0.24753796 0.085680962
0.30549017 0.27446371 0.085402489
0.3054885 0.30140725 0.085382581
0.30550364 0.32836854 0.085561752
0.3054969 0.35530689 0.085482001
-0.39416325 0.38138661 0.077446461
0.30498418 0.38160008 0.079427123
0.30468243 0.4080877 0.075863242
0.30456522 0.43478882 0.074479461
0.30457026 0.46165752 0.074538827
0.30567047 0.59816539 0.087531805
0.30577672 0.62534893 0.088786244
0.2776525 0.73012018 0.073807597
0.27782902 0.75747013 0.076100588
0.27807596 0.78505987 0.079308033
0.25134128 0.81250298 0.081667781
0.27880713 0.81415147 0.08880651
0.090310663 -0.83422309 0.10190594
0.11720075 -0.83281219 0.095993996
0.14430904 -0.83331847 0.098115921
0.17132147 -0.83316076 0.097455144
0.063288338 -0.8078981 0.10514092
0.25227839 -0.8056007 0.095193863
0.063145362 -0.77872777 0.095854044
0.27990982 -0.78035229 0.10313094
0.036177386 -0.75331396 0.1033318
0.036121208 -0.72471392 0.096033931
0.30693698 -0.72605562 0.10248816
0.0090942821 -0.69952196 0.10520124
0.0090942821 -0.67127681 0.099238157
-0.018042129 -0.64626086 0.11025655
0.0090942821 -0.64322698 0.093834639
-0.018003676 -0.61824018 0.10526156
0.30755377 -0.61903888 0.10977256
-0.01796842 -0.5903666 0.10068202
0.30726379 -0.59132612 0.10634792
0.30756575 -0.56479621 0.10991371
-0.017935108 -0.56260425 0.096354127
-0.045007043 -0.53600031 0.099117875
-0.099456944 -0.51060539 0.11043823
-0.07190571 -0.50798708 0.092536092
-0.12642339 -0.48285076 0.10598576
-0.15341362 -0.45542616 0.10353279
-0.18039006 -0.42809421 0.10152471
-0.2074234 -0.40095776 0.10094273
-0.23451871 -0.37394059 0.10138404
-0.26177388 -0.34711567 0.10381401
-0.28905651 -0.32024249 0.10612655
-0.3165147 -0.29346201 0.10995412
-0.34218368 -0.23817956 0.095313787
-0.36999559 -0.2116098 0.10264885
0.30746502 0.493256 0.10872424
0.3073422 0.52016854 0.10727382
0.30613652 0.6801089 0.09303546
0.30632946 0.70756876 0.095313907
0.30656165 0.73516005 0.09805584
0.30698627 0.76328331 0.10307074
0.22563423 0.7899701 0.10130394
-0.15331437 0.81705606 0.10138416
0.090650037 -0.86491519 0.11660123
0.11806139 -0.86672395 0.12394416
0.22710238 -0.83976859 0.12514377
0.063454807 -0.83757532 0.11595356
0.19907959 -0.83635062 0.11082137
0.036309328 -0.81143856 0.12047172
0.28131816 -0.81165874 0.12142527
0.0090942821 -0.78577071 0.12740302
0.30897084 -0.78557074 0.12650716
0.036239076 -0.78218627 0.11134613
0.0090942821 -0.75676787 0.11935627
0.3082898 -0.75657564 0.11846447
-0.018183846 -0.73149651 0.12866616
0.0090942821 -0.72803926 0.11203241
-0.018130917 -0.70284235 0.12179077
-0.018084425 -0.67445475 0.11575115
-0.045439702 -0.64939493 0.1272198
0.30840823 -0.64803576 0.11986315
-0.045362368 -0.62123847 0.12219691
-0.045290243 -0.5932169 0.11751211
-0.0452208 -0.56529552 0.11300182
-0.072472684 -0.53876698 0.11708713
-0.15448509 -0.48572525 0.12673104
-0.18168144 -0.45829946 0.12548947
-0.20890003 -0.43097576 0.12492013
-0.23613243 -0.40369821 0.12467611
-0.26352081 -0.37664819 0.12650704
-0.34424916 -0.26678982 0.11595356
-0.37266997 -0.24040693 0.12746406
0.30772462 0.54797709 0.11179018
0.30875209 0.57708687 0.1239239
0.3077879 0.79247791 0.11253726
-0.072362952 0.8467375 0.11233521
0.2270911 0.84975046 0.12496066
0.036507532 -0.8722111 0.14621925
0.063674077 -0.8682639 0.1301955
0.14614627 -0.87211984 0.14584875
0.036392663 -0.84123683 0.13129723
0.25555852 -0.84391952 0.14253843
0.2826654 -0.84305775 0.13892698
0.0090942821 -0.81516612 0.13661218
-0.018302973 -0.78950751 0.14414144
-0.018241074 -0.76037705 0.13610053
-0.045728728 -0.73509777 0.14599252
-0.045620263 -0.70627624 0.13894737
-0.045525428 -0.67773354 0.13278794
0.33793923 -0.68008071 0.14498448
-0.073109359 -0.65261626 0.14465547
0.3376165 -0.6520316 0.14149117
-0.072991267 -0.62430954 0.1395421
0.33811602 -0.62561208 0.14689851
-0.072880596 -0.59613615 0.13475013
-0.072774 -0.56806499 0.13013411
-0.10026037 -0.54176039 0.13653028
0.33751985 -0.54236293 0.14044452
-0.12740704 -0.51369214 0.13154221
0.33781955 -0.51546884 0.14368904
0.33712989 -0.45970416 0.1362232
0.33714691 -0.43239057 0.13640738
0.3371847 -0.4051002 0.13681686
0.3371866 -0.37776151 0.13683724
-0.29100138 -0.34964558 0.12909424
0.3371866 -0.35042053 0.13683736
-0.31878638 -0.32286778 0.13454568
0.3371866 -0.32307944 0.13683736
-0.34668982 -0.29603511 0.140342
0.33719984 -0.2957505 0.13698065
0.33720931 -0.26841632 0.13708305
0.33722255 -0.24108328 0.13722634
0.3372339 -0.21374688 0.13734937
0.33724713 -0.18640964 0.13749266
0.33725283 -0.15906636 0.13755393
0.33726415 -0.13172446 0.13767695
0.33726797 -0.10437828 0.13771796
0.3372888 -0.077035762 0.13794339
0.33729255 -0.049686797 0.13798428
0.33730391 -0.02233794 0.13810718
0.33730203 0.0050129411 0.13808668
0.33732095 0.032365136 0.1382916
0.33733991 0.059720617 0.13849664
0.33735693 0.087078556 0.13868093
0.33737397 0.11443945 0.13886547
0.33738533 0.14180084 0.13898838
0.33739859 0.16916518 0.1391319
0.33741185 0.19653158 0.13927543
0.33743078 0.22390398 0.13948059
0.33744594 0.25127655 0.13964474
0.33746111 0.27865192 0.13980865
0.33745351 0.30600885 0.13972652
0.33807608 0.36140987 0.14646614
0.33772844 0.44319186 0.14270306
0.33791831 0.47084692 0.14475846
0.33783853 0.55292004 0.14389479
0.33770186 0.58007604 0.14241529
