ply
format ascii 1.0
comment PCL generated
element vertex 269
property float x
property float y
property float z
element camera 1
property float view_px
property float view_py
property float view_pz
property float x_axisx
property float x_axisy
property float x_axisz
property float y_axisx
property float y_axisy
property float y_axisz
property float z_axisx
property float z_axisy
property float z_axisz
property float focal
property float scalex
property float scaley
property float centerx
property float centery
property int viewportx
property int viewporty
property float k1
property float k2
end_header
-0.17772827 -0.12201109 -0.6386919
-0.15894184 -0.075229019 -0.63916111
-0.1593143 0.074810311 -0.63593578
-0.34816357 -0.27407366 -0.52764225
-0.28282067 -0.24093615 -0.56798077
-0.22145075 -0.17644241 -0.52289009
-0.14489785 0.028539915 -0.59569263
-0.20525691 0.20212936 -0.57147598
-0.17360455 0.13343529 -0.59446812
-0.33787441 0.30345225 -0.53027344
-0.27228531 0.26883078 -0.5657692
-0.34910756 0.33938178 -0.53583241
-0.55417377 -0.30671808 -0.41038704
-0.4848423 -0.27417812 -0.43964958
-0.37261242 -0.2560893 -0.46031952
-0.29635149 -0.22874765 -0.48427963
-0.33673573 -0.21348003 -0.42382717
-0.26608223 -0.19153245 -0.47459412
-0.17077172 -0.049747966 -0.44776535
-0.1512492 0.038168207 -0.40984726
-0.23541182 0.18661869 -0.45787907
-0.1990701 0.1308457 -0.46541786
-0.47150809 0.29430079 -0.42679882
-0.36702508 0.2795895 -0.44543457
-0.28117144 0.23213296 -0.45406437
-0.47143573 0.34954879 -0.45075798
-0.4036029 0.33743757 -0.49577522
-0.54945874 -0.24256073 -0.4019928
-0.47496748 -0.23605677 -0.39795876
-0.41249323 -0.23574425 -0.4016552
-0.57570088 -0.16577607 -0.34608269
-0.47736037 -0.17765437 -0.34004688
-0.37455323 -0.17484477 -0.35177326
-0.28528216 -0.16331205 -0.37295437
-0.6607753 -0.041323334 -0.32386875
-0.60270977 -0.075939037 -0.31299496
-0.48451078 -0.11018727 -0.3006506
-0.25764793 -0.051799394 -0.33229828
-0.15256709 -0.051048297 -0.37979984
-0.047373004 -0.0096176593 -0.32200718
0.083695322 -0.077759579 -0.30735683
0.13480045 -0.048034318 -0.29933834
-0.6470651 0.043421131 -0.31614494
-0.61456984 0.069128647 -0.30657196
-0.27703771 0.095389567 -0.34392834
-0.13799775 0.052736774 -0.36823463
-0.047327869 0.01154697 -0.32274055
0.13266465 0.011743234 -0.29724598
-0.58157974 0.16005383 -0.3276329
-0.47708046 0.16720003 -0.31840897
-0.36641544 0.17765105 -0.32893181
-0.27492377 0.17159314 -0.34006786
-0.56493956 0.24456598 -0.37520218
-0.48137695 0.23995976 -0.36920261
-0.38541639 0.23362844 -0.37701702
-0.53499424 0.31887344 -0.40506744
-0.13324961 -0.27595878 -0.18885422
0.011296257 -0.31955335 -0.1962347
0.071833342 -0.28700987 -0.22351742
0.1634385 -0.26586503 -0.21501827
0.23994756 -0.23814285 -0.19926929
-0.322117 -0.12868308 -0.25716496
-0.25980026 -0.14897855 -0.23584747
-0.18656278 -0.20797165 -0.20909119
0.086723395 -0.18599544 -0.27378082
0.16248225 -0.17709342 -0.25806999
0.27298528 -0.16056523 -0.21340942
0.41863671 -0.15249158 -0.21697807
0.45083055 -0.14119576 -0.22421932
-0.55923676 -0.041724797 -0.28921032
-0.47354978 -0.046588477 -0.27242279
-0.38724303 -0.080264151 -0.23850346
-0.2253322 -0.096447095 -0.25219631
0.19164303 -0.069273025 -0.27592373
0.28445143 -0.055804651 -0.23051262
0.36129048 -0.046432473 -0.20212841
0.45108926 -0.097377725 -0.22197819
-0.56889594 0.044583008 -0.28781891
-0.476834 0.052578911 -0.27092934
-0.39675474 0.059191339 -0.22101784
-0.13502032 0.054634966 -0.28988934
0.19375151 0.051880866 -0.27862453
0.28485483 0.047687326 -0.24293327
0.35379618 0.04558596 -0.20461941
-0.45608187 0.11884698 -0.2907505
-0.36426869 0.12232118 -0.24875069
-0.27699912 0.1441986 -0.21792984
-0.1613878 0.17222044 -0.24035835
-0.043452583 0.19283856 -0.24341869
0.056481004 0.16935699 -0.23662663
0.18119463 0.16218853 -0.24402428
0.28411049 0.14879891 -0.22356224
0.34310392 0.11201365 -0.19969749
-0.13259414 0.21658546 -0.21537495
-0.027024396 0.2511979 -0.21299744
0.067891806 0.24483891 -0.22366428
0.16472986 0.24140446 -0.21567535
0.24901971 0.21681981 -0.20257092
-0.13054886 -0.35390165 -0.090492249
-0.031675838 -0.36913109 -0.12572002
0.062939063 -0.37425673 -0.14160347
0.15712988 -0.36664152 -0.124156
0.24826056 -0.353899 -0.09051609
-0.2396529 -0.25832736 -0.13651943
-0.15639952 -0.29116714 -0.15544891
-0.046441503 -0.32387352 -0.15614796
0.18538584 -0.31505257 -0.169034
0.28027621 -0.2809715 -0.13640785
0.35811719 -0.24574339 -0.10390854
-0.25157472 -0.18252325 -0.17498398
0.31538045 -0.20299172 -0.17367458
0.36940071 -0.16717613 -0.15129852
-0.34528449 -0.048179209 -0.16886902
-0.30554253 -0.065818682 -0.14903927
0.3996824 -0.059545238 -0.14957809
0.46661887 -0.067055322 -0.087488174
-0.34771582 0.043637671 -0.15264416
-0.309789 0.058557637 -0.12000656
0.4161202 0.042606171 -0.13458252
-0.32369471 0.10180291 -0.17728996
-0.13639387 0.17007795 -0.15419483
-0.067244537 0.16848817 -0.18000984
0.32267192 0.19106711 -0.17545414
0.38559178 0.14606933 -0.13442135
-0.23161542 0.25128302 -0.14086056
-0.15135875 0.28109437 -0.15107822
-0.044396169 0.29731226 -0.16487598
0.066347174 0.30242774 -0.1766634
0.17636099 0.29704949 -0.16742802
0.28011382 0.26406431 -0.13860321
0.35960838 0.23720454 -0.10435295
-0.12140425 0.33565128 -0.13119221
-0.03522975 0.35584232 -0.12954044
0.065177754 0.35424426 -0.11865234
0.16425076 0.35244226 -0.1202879
0.23638585 0.3335776 -0.09992981
0.062888697 -0.45902881 0.00056362152
-0.21934226 -0.35101241 -0.013855934
-0.14530766 -0.38706392 -0.034983635
-0.051494025 -0.4229044 -0.04145813
0.075678356 -0.42673683 -0.061781883
0.17744704 -0.41555011 -0.037883759
0.27957806 -0.37499678 -0.024284363
-0.2761254 -0.29058206 -0.030192375
-0.20074427 -0.33234915 -0.077502251
0.31874672 -0.32213274 -0.06496048
0.3864063 -0.27387249 -0.030090332
0.42448142 -0.21903618 -0.049383163
0.50795811 -0.1356357 -0.0027189255
0.49923825 -0.061822161 -0.031664848
0.48361552 0.033793651 -0.028229713
0.43536177 0.16458459 -0.05640316
0.46579841 0.15536831 -0.012914658
-0.27688092 0.29539976 -0.024168015
0.32269648 0.30689862 -0.063884735
0.39213198 0.26048374 -0.040122032
-0.23356315 0.33012131 0.0069847107
-0.15468583 0.37393379 0.0092754364
-0.016367368 0.40544924 -0.076592445
0.064238228 0.40630797 -0.070399284
0.17650822 0.4059006 -0.045394897
0.27886036 0.35998419 -0.033689499
0.35719264 0.31966951 -0.01667881
0.0046894029 0.43611625 -0.024583817
0.063442349 0.43540722 -0.029428482
0.14581026 0.44134662 0.011179924
0.0011666045 -0.46873713 0.066940308
0.21897505 -0.44606054 0.077675819
0.26638234 -0.41873571 0.054154396
0.3639214 -0.34832451 0.070729256
0.38749477 -0.32339871 0.063407898
0.54080641 -0.1412386 0.036799431
0.60805291 -0.13595998 0.084066391
0.54885107 -0.069631688 0.05206871
0.61527431 -0.096414328 0.085813522
0.69035459 -0.1084637 0.13805008
0.50599426 0.074424937 0.04566288
0.48871079 0.18596847 0.10383415
0.43367285 0.25411651 0.042463303
-0.25110033 0.35152915 0.055153847
-0.16609216 0.3984957 0.046473503
-0.081542052 0.42136544 0.038267136
0.26651171 0.41198882 0.057449341
0.37713158 0.34293196 0.085585594
-0.022505127 0.44794342 0.056278229
0.073541053 0.47484842 0.074616432
0.19518876 0.45398924 0.097619057
-0.10719835 -0.34066406 0.2359333
0.72317588 -0.13482456 0.18089867
-0.33474925 -0.11111455 0.22413349
0.66704029 -0.083943091 0.14630127
0.72446865 -0.10167094 0.18855381
-0.23020819 0.26710758 0.19588757
-0.19390342 0.29373625 0.2118187
-0.15631604 0.31928739 0.21452808
-0.046593733 -0.34713465 0.30059052
-0.2145932 -0.25550821 0.29123592
-0.14803746 -0.28926751 0.30892277
-0.068664931 -0.31863183 0.34455585
-0.2433804 -0.20289835 0.32068729
-0.1946958 -0.22073983 0.35611725
0.79613155 -0.13926053 0.29614258
-0.32940736 -0.0096174963 0.27908134
-0.29912525 -0.022762287 0.34692955
0.77027345 -0.087411501 0.29650974
0.79778212 -0.100419 0.30439091
-0.35063687 0.025007874 0.30642605
-0.29813969 0.069130421 0.33892632
-0.27377197 0.15907645 0.30017376
-0.16202527 0.30021474 0.28195
-0.13683823 -0.25521091 0.37715912
-0.04522901 -0.27923167 0.40341282
0.015457913 -0.30244389 0.38757229
-0.25347534 -0.16522095 0.41012859
-0.15397337 -0.19275764 0.41958427
-0.062583439 -0.22136605 0.45463371
-0.35029584 -0.063469328 0.42041111
-0.26420712 -0.079487838 0.41144562
-0.19259003 -0.096370675 0.45115376
0.76029247 -0.072445855 0.43186665
-0.36322203 0.061711773 0.39813042
-0.28250024 0.027595617 0.38497353
-0.33876494 0.14393897 0.39788342
-0.22420099 0.16345535 0.38724232
-0.16724357 0.16783921 0.43618393
-0.17786187 -0.28220803 0.46897125
0.010416046 -0.24667539 0.55131245
0.038308643 -0.24667539 0.5513258
-0.23640594 -0.16123085 0.51112461
-0.13749689 -0.14325264 0.50016689
-0.028928556 -0.16042711 0.49283123
0.046443693 -0.16060591 0.49715805
-0.31415984 -0.064135738 0.46899509
-0.13690326 -0.05774853 0.49935818
-0.029411174 -0.053905997 0.52649689
0.052674741 -0.037328932 0.52984715
0.62579566 -0.031594705 0.52478409
0.69957352 -0.050797984 0.50080872
-0.13731477 0.045717966 0.51291847
-0.028103806 0.041198108 0.52818966
0.069037251 0.035746656 0.53138351
0.12198765 0.059628636 0.52647781
-0.24298686 0.1307573 0.57496262
-0.10998572 0.1359835 0.50399494
-0.032399736 0.13921179 0.50893116
0.072963305 0.13421817 0.50808716
0.14690076 0.14492978 0.49227619
-0.044324599 0.21170728 0.52177906
-0.10326519 -0.15040076 0.58556843
-0.13246077 -0.0096173342 0.600564
0.65900427 -0.0096176593 0.59952259
0.70781022 -0.0096173342 0.64001274
-0.15510428 0.029998094 0.60146999
-0.076543458 0.047105785 0.61219597
0.63279498 0.047195144 0.61382961
0.70902789 0.047695223 0.64774323
-0.22410801 0.12016753 0.67451286
0.61849225 0.13368274 0.64882278
0.68820971 0.12474581 0.66787338
0.59128958 -0.24425107 0.73789692
0.61633277 -0.21315259 0.7050581
0.67381835 -0.18387963 0.70080757
-0.17110699 0.078311056 0.73532867
-0.19024363 0.12700121 0.7310257
0.61519986 0.19345531 0.69647217
0.67189324 0.16403699 0.68764687
0.59046078 0.23932043 0.7316761
0.53879386 -0.27756432 0.79539776
-0.17579311 0.10949455 0.79620266
0 0 0 1 0 0 0 1 0 0 0 1 0 0 0 0 0 269 1 0 0
