ply
format ascii 1.0
comment PCL generated
element vertex 202
property float x
property float y
property float z
element camera 1
property float view_px
property float view_py
property float view_pz
property float x_axisx
property float x_axisy
property float x_axisz
property float y_axisx
property float y_axisy
property float y_axisz
property float z_axisx
property float z_axisy
property float z_axisz
property float focal
property float scalex
property float scaley
property float centerx
property float centery
property int viewportx
property int viewporty
property float k1
property float k2
end_header
-0.29168069 -0.18497044 -0.24884701
-0.20586726 -0.20839676 -0.26270485
-0.091600358 -0.2223883 -0.2642746
0.022782139 -0.20531911 -0.2544117
-0.31163147 -0.081540033 -0.25835991
-0.20941171 -0.093809932 -0.28431892
-0.087277293 -0.095761217 -0.30124092
0.029285677 -0.094005823 -0.27919388
0.1115962 -0.086439908 -0.24825954
-0.30184275 0.034398079 -0.26630688
-0.20527393 0.036566406 -0.29069328
-0.087157115 0.033855639 -0.30281639
0.032760464 0.036882631 -0.27905464
0.11058936 0.024202183 -0.25148106
-0.28232783 0.11221505 -0.25937748
-0.1994006 0.15251499 -0.2713728
-0.089315727 0.15989846 -0.26821136
0.017520458 0.14796001 -0.25391865
-0.17554715 0.23387671 -0.24293327
-0.11523992 0.23405996 -0.24076939
-0.17809102 -0.41293535 -0.12954617
-0.069713235 -0.41825411 -0.13658142
0.031749181 -0.42373344 -0.13711452
0.1866858 -0.4323481 -0.19147301
0.29795533 -0.43527222 -0.21002007
0.41993713 -0.44725671 -0.21225071
0.53751761 -0.44255167 -0.20113087
0.64350843 -0.42989433 -0.15378761
-0.40755531 -0.29132265 -0.12540531
-0.32725087 -0.32700735 -0.14779472
-0.2152954 -0.33835384 -0.18299675
-0.093308419 -0.33821967 -0.20474911
0.032334313 -0.34440866 -0.19820309
0.16189204 -0.35032994 -0.17745209
0.29478228 -0.38529029 -0.18918419
0.42176995 -0.38812143 -0.19412708
0.54830873 -0.38590139 -0.18358612
0.64306617 -0.37073725 -0.14866638
-0.43062058 -0.22377363 -0.13782501
-0.33178341 -0.22915053 -0.20882034
-0.22388229 -0.26819503 -0.22711754
-0.042773336 -0.27428353 -0.23808956
0.043199379 -0.26157111 -0.2279911
0.14887281 -0.2250374 -0.18336105
0.22773881 -0.18241224 -0.13110256
-0.43560168 -0.089118034 -0.17366695
-0.36922532 -0.1119004 -0.21935749
0.17822938 -0.093836121 -0.20097351
0.24869645 -0.0905561 -0.12969589
-0.43816605 0.034313269 -0.18064976
-0.36691776 0.047201507 -0.21638203
0.17623332 0.041350603 -0.20170212
0.24259552 0.032844804 -0.13611412
-0.42188546 0.14283207 -0.13970566
-0.33405998 0.16289485 -0.20058155
-0.25279877 0.19185343 -0.22262383
0.056988455 0.1896362 -0.22803879
0.14878704 0.16049084 -0.18854713
0.22767378 0.11810648 -0.13279152
-0.39856598 0.23096141 -0.12932396
-0.3194581 0.27419633 -0.14627075
-0.21146309 0.28330716 -0.19268036
-0.092189118 0.2910296 -0.20394897
0.028817065 0.27586624 -0.18532181
0.13207239 0.26280305 -0.1433115
-0.2745851 0.34501016 -0.11811924
-0.20199794 0.36001095 -0.13283348
-0.06161955 0.36045307 -0.1391592
0.02747605 0.34345439 -0.13159466
-0.29190609 -0.4138011 -0.078489304
-0.19902948 -0.4464336 -0.079867363
-0.078441292 -0.47555438 -0.067401886
0.030421734 -0.47587109 -0.032763481
0.1025326 -0.44377947 -0.041694641
-0.45370474 -0.28494245 -0.09963131
-0.32668301 -0.37718916 -0.10416412
0.24163547 -0.31016821 -0.040058136
0.66537452 -0.31345838 -0.080370903
-0.94191408 -0.19806889 -0.026744843
-0.47779939 -0.20875478 -0.10634518
0.26815993 -0.20729816 -0.058914185
0.65525901 -0.24136171 -0.022655487
0.81699491 -0.17503452 -0.0090274811
-0.93322444 -0.083321698 -0.061238289
-0.87686431 -0.074449018 -0.0025253296
-0.53549469 -0.10871697 -0.068767548
-0.49578735 -0.069895037 -0.11147499
0.30169749 -0.081348732 -0.04867363
0.70192647 -0.045149218 0.0013170242
0.77734435 -0.081604198 -0.017799377
-0.93349361 0.031899959 -0.060354233
-0.87818825 0.024332613 -0.0017023087
0.30446759 0.027063351 -0.045243263
0.69121909 0.036423124 -0.0053815842
0.77843249 0.029433053 -0.035132408
-0.942487 0.13007495 -0.028031349
0.26908791 0.1470584 -0.059821129
0.69340956 0.10692953 0.002366066
0.78100216 0.11918148 -0.023669243
-0.40366253 0.28430441 -0.09622097
-0.35871151 0.31539735 -0.10113907
0.17893389 0.28864485 -0.078434944
0.24188939 0.24655125 -0.033361435
-0.31615806 0.38202292 -0.06063652
-0.20259413 0.42133287 -0.060557365
-0.080126822 0.42658541 -0.062099457
0.038751841 0.39563903 -0.06833744
0.11967552 0.37026379 -0.048640251
-0.055148453 -0.53158748 0.030913353
0.0091100857 -0.53956485 0.085453987
0.049985144 -0.50651693 0.039700508
0.11140311 -0.4926818 0.066893578
-0.93696737 -0.31208053 0.078854561
0.27910453 -0.32339129 0.055821419
0.80062807 -0.3006368 0.10424519
-0.91142726 -0.23088986 0.032414436
-0.84576344 -0.20085442 0.086549759
-0.73190463 -0.16670346 0.11284828
0.32215765 -0.22523162 0.0583601
0.40617657 -0.18402198 0.096449852
0.53406513 -0.18485966 0.067012787
0.64642382 -0.19334346 0.026866913
0.77811992 -0.22234383 0.044344902
-0.81541395 -0.094211534 0.043026924
-0.72420835 -0.089280784 0.072762489
0.33815938 -0.12375663 0.016925812
0.4201746 -0.085118495 0.05347538
0.53916281 -0.085049219 0.053706169
0.65086174 -0.090691075 0.030674934
0.74289703 -0.13665716 0.011296272
-0.81630707 0.035281539 0.037511826
-0.72148359 0.02105568 0.062470436
0.33794409 0.072519965 0.013816833
0.41970092 0.033999957 0.047939301
0.53952056 0.034171276 0.056588173
0.62534297 0.029138699 0.026239395
-0.91690326 0.17004183 0.052099228
-0.83752906 0.12132616 0.080893517
-0.73880565 0.10927283 0.11353016
0.32960823 0.15729776 0.057067871
0.40665042 0.12611026 0.091698647
0.53804153 0.12207031 0.097492218
0.65954912 0.15080911 0.062210083
0.76792097 0.18365324 0.032483101
-0.95176411 0.23482388 0.083483696
0.20719135 0.33419862 0.014838219
0.26865995 0.27309456 0.065219879
0.72298229 0.23765308 0.12023926
0.78701258 0.24068156 0.089588165
-0.42372122 0.37702668 0.067520142
-0.34771305 0.43572688 0.055821419
-0.02815561 0.46450761 0.011323929
0.076340511 0.43935025 0.018396378
0.15926769 0.39878401 0.052517891
0.23634295 0.34256133 0.092439651
-0.29705429 0.47403583 0.076468468
-0.22099769 0.4912518 0.072090149
-0.096937835 0.50001001 0.072147369
0.023340762 0.47025731 0.050634384
-0.17518729 -0.53200305 0.22363186
-0.93140745 -0.33140141 0.15051079
0.80998266 -0.33144289 0.15092945
-0.82732916 -0.23995376 0.16921806
-0.71951747 -0.19001395 0.15208054
0.34662789 -0.24908131 0.1391573
0.43320382 -0.22491735 0.19405365
0.51780409 -0.225885 0.21201229
0.60341632 -0.25472263 0.23076153
-0.91021037 0.21423563 0.17159843
-0.85442674 0.16839901 0.16803265
-0.72071493 0.13258356 0.18160725
0.34865773 0.21401787 0.16845512
0.42512345 0.18114272 0.16676044
0.52917337 0.17618415 0.16319084
0.64757562 0.20411569 0.15596485
-0.93715215 0.2414937 0.17012978
0.29404396 0.28255171 0.17015076
0.67404604 0.2352345 0.20846558
0.78553033 0.26841211 0.16490555
-0.41969791 0.43515149 0.18645668
-0.39211962 0.46254471 0.18579006
0.12973052 0.45745561 0.14906025
-0.032978982 0.50993919 0.13663864
0.033357553 0.50453866 0.19006824
-0.53171515 -0.34923124 0.36099911
-0.68797719 -0.17326957 0.28345394
-0.73171532 -0.1038965 0.35290909
-0.73384738 -0.0033817906 0.36246014
-0.72283983 0.11019807 0.31315327
0.60783255 0.22054285 0.26263332
0.77107215 0.28794903 0.31194401
-0.50095654 -0.37067279 0.44021034
0.57848608 0.23561645 0.48020554
0.63282561 0.2592012 0.49664116
-0.50108993 -0.25855067 0.53658772
0.5826087 0.3110697 0.57626724
0.64014518 0.31227702 0.5397377
0.57983685 0.36824185 0.61647129
0.62247097 0.36549249 0.58900261
0.31022227 0.39360103 0.66259861
0.39307043 0.39900887 0.67429638
0.50741816 0.38840717 0.66228771
0 0 0 1 0 0 0 1 0 0 0 1 0 0 0 0 0 202 1 0 0
