ply
format ascii 1.0
comment PCL generated
element vertex 190
property float x
property float y
property float z
element camera 1
property float view_px
property float view_py
property float view_pz
property float x_axisx
property float x_axisy
property float x_axisz
property float y_axisx
property float y_axisy
property float y_axisz
property float z_axisx
property float z_axisy
property float z_axisz
property float focal
property float scalex
property float scaley
property float centerx
property float centery
property int viewportx
property int viewporty
property float k1
property float k2
end_header
-0.044395104 -0.20446937 -0.26073933
0.060253434 -0.19993751 -0.26768494
-0.17837064 -0.041559692 -0.27788544
-0.04214415 -0.091151126 -0.2993679
0.072992362 -0.093310565 -0.29166889
0.15676893 -0.087515473 -0.26236725
-0.26778787 0.096192159 -0.26038551
-0.16749986 0.059195563 -0.29077721
-0.051402599 0.042009622 -0.31576347
0.069502406 0.04243926 -0.29588318
0.16024664 0.043920964 -0.26474476
0.72219688 0.096261911 -0.25857735
-0.25558466 0.12137435 -0.25762272
-0.17294313 0.16234072 -0.27299118
-0.053289562 0.16994525 -0.28554535
0.071131676 0.16963795 -0.28986168
0.20718682 0.16821904 -0.30898762
0.33873415 0.17560206 -0.34004688
0.46220762 0.17778923 -0.3513813
0.59372187 0.16634972 -0.33813477
0.69999039 0.15039678 -0.30828476
-0.03988713 0.25169006 -0.2585907
0.070429653 0.24649762 -0.26063538
0.15814325 0.24606715 -0.26571941
0.47523284 0.23946463 -0.34368992
0.53736216 0.24023981 -0.33454323
-0.062959507 -0.42018014 -0.12801456
-0.24484052 -0.34145245 -0.13350773
-0.17209585 -0.34523702 -0.16365242
-0.052913398 -0.3496007 -0.18611908
0.067113936 -0.34378076 -0.17548466
0.1790821 -0.31475598 -0.14146614
-0.15097626 -0.2663579 -0.21342278
-0.064430326 -0.26016545 -0.24082756
0.079580337 -0.258555 -0.23185825
0.19091465 -0.22525765 -0.19315529
0.27528802 -0.17173861 -0.1463213
0.22624519 -0.092590339 -0.21612453
0.30135939 -0.089589603 -0.14439106
-0.28235847 0.084217153 -0.24487114
0.23666611 0.044407919 -0.21790695
0.30080301 0.022667645 -0.15535831
0.73511446 0.077564359 -0.19807053
-0.41328365 0.18306167 -0.15392399
-0.30853915 0.17613861 -0.22186947
-0.21306796 0.21633351 -0.24537182
0.30161673 0.10091319 -0.137743
0.76448071 0.14767691 -0.23389149
-0.38213575 0.23913835 -0.14348125
-0.30247897 0.29029894 -0.17061329
-0.18222977 0.29780817 -0.20644093
-0.061381757 0.31281641 -0.21504021
0.064721279 0.30834448 -0.20511055
0.17477757 0.28752109 -0.15793324
-0.25309587 0.3696731 -0.13706875
-0.16220801 0.38902512 -0.14715385
-0.041673109 0.39745879 -0.14590359
0.078174978 0.37051117 -0.144557
-0.28603679 -0.43838039 -0.047689438
-0.16859184 -0.45130631 -0.073082924
-0.032859743 -0.45885256 -0.080602646
0.073906638 -0.44936341 -0.061127663
0.15909649 -0.4312526 -0.032124519
-0.42473793 -0.330809 -0.025607109
-0.31053257 -0.35404399 -0.079474449
-0.20777352 -0.39553723 -0.11474323
0.10635953 -0.3958531 -0.11181068
0.20486663 -0.35932299 -0.073076248
0.28005469 -0.31144202 -0.022479057
-0.93911439 -0.18152542 -0.021161079
-0.50283545 -0.25875181 -0.0051469803
-0.45768797 -0.27039614 -0.031938553
0.25030354 -0.26460454 -0.11553574
0.30944318 -0.21046227 -0.067720413
0.76728779 -0.16422352 -0.0039043427
0.84361959 -0.19924092 -0.026992798
-0.92866987 -0.088140346 -0.068540573
-0.87023121 -0.060580276 -0.011507034
0.35901469 -0.086794116 -0.053743362
0.75773871 -0.077525802 -0.016684532
0.86376178 -0.084669068 -0.065145493
-0.92489666 0.029725945 -0.080823898
-0.86667138 0.032527454 -0.014896393
0.35868675 0.032396689 -0.059276581
0.63385981 0.059333295 -0.018574715
0.7312085 0.022226581 -0.046359062
0.85500872 0.025783187 -0.051846504
-0.93459135 0.14759885 -0.041160583
-0.88247603 0.10619736 -0.00045776367
-0.50251216 0.21397223 -0.006896019
-0.45742607 0.20689732 -0.10901451
0.34582412 0.11767723 -0.049359322
0.65544486 0.10508335 -0.029390335
0.66815704 0.101553 -0.12110615
0.87647623 0.12926859 -0.0147295
-0.96290439 0.2412935 -0.0027942657
-0.40877497 0.28455582 -0.085442543
-0.35642695 0.34085405 -0.082489967
0.22493836 0.31406263 -0.087005615
0.28640127 0.28601602 -0.032530785
-0.30326414 0.40886167 -0.051066399
-0.17469956 0.44111785 -0.080010414
-0.034804627 0.45708573 -0.076767921
0.079235308 0.43584889 -0.065690994
0.17536348 0.39136052 -0.054429054
-0.070449486 0.51118201 -0.0059432983
-0.37094861 -0.43690127 0.016795158
-0.29432589 -0.49144134 0.05873394
-0.18381523 -0.51786989 0.051650047
-0.045187175 -0.51991564 0.027257919
0.081198566 -0.50758541 0.070837021
0.17320415 -0.46009389 0.058683395
-0.51091117 -0.3164188 0.038564682
-0.44042438 -0.39013207 0.025322914
0.24071169 -0.39583638 0.014081955
0.30047622 -0.32966325 0.034344673
0.78998542 -0.3092359 0.12429237
0.84419554 -0.31747854 0.085942268
-0.92665845 -0.22168972 0.056680679
-0.86307687 -0.17519172 0.10005665
-0.40845692 -0.26464006 0.083826065
0.36898631 -0.22149345 0.054588318
0.45713621 -0.17371391 0.097523689
0.60336381 -0.17639393 0.10447598
0.73355448 -0.21301679 0.065796852
0.83303148 -0.26915249 0.028778076
-0.81260341 -0.089773558 0.046412468
-0.70941275 -0.079204164 0.09154129
0.39015809 -0.13776034 0.014474869
0.46976292 -0.084013931 0.044259071
0.59559357 -0.086771406 0.053767204
0.69021267 -0.093311429 0.022543907
-0.80074275 0.04166621 0.033671379
-0.70427537 0.038818151 0.064389229
0.47593349 0.035977654 0.031919479
0.58602685 0.029968286 0.024048805
0.67508513 -0.0019266047 0.012192726
-0.90094739 0.18487453 0.031672478
-0.83146948 0.15381761 0.081253052
-0.71641344 0.12802695 0.11209869
0.39100474 0.12091533 0.026695251
0.46419019 0.12328877 0.082267761
0.57448757 0.11665753 0.0648489
0.78900278 0.22267686 0.11874294
0.85689646 0.1962854 0.053417206
-0.93044394 0.26926187 0.080170631
-0.50847101 0.24346082 0.025356293
-0.47592378 0.30933842 0.047447205
0.31109154 0.31554303 0.066302299
0.87161881 0.25014913 0.11223316
-0.40257788 0.39576885 0.045280457
-0.3172946 0.46107137 0.022314072
0.20031777 0.43049785 0.03822422
-0.26401991 0.48980489 0.032589912
-0.18304108 0.50500005 0.042490959
-0.0052919388 0.51993561 0.050912857
0.081457525 0.50210196 0.053732872
0.25980249 -0.42869812 0.19295311
0.34619653 -0.31560951 0.2070837
0.75697178 -0.31346428 0.1792202
0.81380773 -0.34188804 0.17904663
-0.92553097 -0.25455341 0.14686871
-0.83441752 -0.18536207 0.17508507
0.46861023 -0.21058275 0.1667347
0.59113359 -0.21813026 0.18944073
0.69908297 -0.2609835 0.17315769
-0.72381634 -0.14312848 0.18879509
-0.80382288 0.20476902 0.16670513
-0.69331509 0.16646142 0.18894958
-0.93385237 0.31180072 0.17521381
-0.88132209 0.2561838 0.19063377
0.34493369 0.31259131 0.18364906
0.77634448 0.27207515 0.2091713
0.84364784 0.28058732 0.17778015
0.059362404 0.54600948 0.2202673
0.14562576 0.51790661 0.22471905
-0.71542066 -0.058770847 0.34196186
-0.71626425 0.041458488 0.41338348
-0.2681933 -0.31556994 0.6200819
-0.23890986 -0.28543654 0.64767456
-0.26490551 -0.20723553 0.69651318
-0.20445438 -0.23009413 0.69872189
-0.28183681 -0.072993033 0.75662804
-0.21548824 -0.061908074 0.7495079
-0.37614858 0.068753116 0.72123432
-0.31295431 0.02237455 0.740242
-0.21636988 -0.029078981 0.75991917
-0.40567541 0.10063843 0.69766712
-0.19828333 -0.17327476 0.80825329
-0.20164375 -0.10253598 0.82273388
0 0 0 1 0 0 0 1 0 0 0 1 0 0 0 0 0 190 1 0 0
