ply
format ascii 1.0
comment PCL generated
element vertex 226
property float x
property float y
property float z
element camera 1
property float view_px
property float view_py
property float view_pz
property float x_axisx
property float x_axisy
property float x_axisz
property float y_axisx
property float y_axisy
property float y_axisz
property float z_axisx
property float z_axisy
property float z_axisz
property float focal
property float scalex
property float scaley
property float centerx
property float centery
property int viewportx
property int viewporty
property float k1
property float k2
end_header
-0.092719659 -0.16864111 -0.24366665
-0.0046534538 -0.17596006 -0.24968529
0.098062783 -0.17996219 -0.25169468
0.17363966 -0.16859549 -0.2447319
-0.1216488 -0.087896645 -0.25415897
-0.0080307871 -0.085038871 -0.27129841
0.10352509 -0.084961332 -0.27519989
0.19805992 -0.086832032 -0.25314045
-0.13448967 0.021097902 -0.25554466
-0.0074762851 0.026261546 -0.28119469
0.10358318 0.026308846 -0.27892017
0.20595115 0.022106793 -0.2589674
-0.11585565 0.12115794 -0.25154686
-0.0083931983 0.1383507 -0.26404762
0.10328011 0.13831668 -0.26423359
0.21491665 0.13819064 -0.26514816
0.33877814 0.14706235 -0.28677654
0.47196615 0.14959763 -0.29979229
0.60160702 0.14597304 -0.31310177
0.71728969 0.13615493 -0.30103302
0.79600507 0.12042339 -0.26576996
0.10285196 0.21440794 -0.24169254
0.20272268 0.21403359 -0.24655819
0.60917109 0.2111484 -0.28403568
-0.2235855 -0.29471976 -0.11951542
-0.1375588 -0.31455258 -0.14570522
-0.011260867 -0.33280346 -0.16583443
0.099078968 -0.33376873 -0.16307163
0.20651397 -0.32171109 -0.14883041
0.294696 -0.29421672 -0.12604904
-0.34008598 -0.17798364 -0.12074089
-0.2516973 -0.1971733 -0.17180538
-0.14314391 -0.21787812 -0.21134377
-0.014093384 -0.23820966 -0.22507954
0.10753818 -0.24147488 -0.22447681
0.2217268 -0.21824421 -0.20451355
0.31933731 -0.20596759 -0.15490818
-0.84773457 -0.068558529 -0.14953899
-0.36050111 -0.077382989 -0.13538074
-0.26750654 -0.088383391 -0.19008827
-0.18522336 -0.098071948 -0.23490238
0.2573688 -0.10659303 -0.22663784
0.33708778 -0.082961753 -0.17602825
-0.83303553 0.016182911 -0.13594818
-0.34980887 0.016115412 -0.1416626
-0.26484972 0.024979573 -0.19330788
0.26551133 0.00211595 -0.23348904
0.34404117 0.028232824 -0.17777348
0.77728975 0.066542596 -0.17507172
0.82781166 0.053577732 -0.17763901
-0.84408736 0.13279791 -0.12530327
-0.32595754 0.093828872 -0.12864017
-0.25458705 0.13121144 -0.17628002
-0.11956234 0.19762716 -0.12325478
0.35626435 0.091609761 -0.18629169
0.84748423 0.10352257 -0.20539379
-0.12987445 0.29201445 -0.15635872
-0.0080965906 0.26553416 -0.20858097
0.10205808 0.28129005 -0.19781494
0.21503194 0.27607161 -0.17605019
0.30032316 0.24107118 -0.14728737
-0.094112441 0.35368696 -0.1174345
-0.0044021904 0.35932273 -0.1327858
0.092194416 0.36037141 -0.13437557
0.16531421 0.35337088 -0.12016678
-0.12418862 -0.42772311 -0.024988174
-0.014678061 -0.45690796 -0.033622742
0.09383034 -0.4535841 -0.051223755
0.21177372 -0.43329501 -0.042509079
0.29933286 -0.41070569 -0.0055789948
-0.86717451 -0.31342849 -0.04840374
-0.25593472 -0.32809982 -0.032150269
-0.14443804 -0.37127298 -0.079778671
-0.030365214 -0.40061998 -0.099161148
0.11329612 -0.39975238 -0.10721207
0.22740886 -0.37836382 -0.093828201
0.32892722 -0.33609572 -0.052025795
-0.84441078 -0.22267018 -0.057840347
-0.78406924 -0.18933198 -0.029209137
-0.37611294 -0.22146016 -0.037453651
-0.29026991 -0.25445166 -0.073950768
0.38302439 -0.23167539 -0.070854187
0.43188864 -0.18211655 -0.024581909
0.93606079 -0.18964776 -0.0049619675
-0.82911098 -0.10838437 -0.10577202
-0.75670612 -0.087260723 -0.051868439
-0.69374496 -0.035453562 -0.00014019012
-0.45283556 -0.11608167 0.003818512
-0.40693533 -0.099310145 -0.064595222
0.39959896 -0.11358553 -0.10587692
0.44401842 -0.088634878 -0.040704727
0.87364507 -0.06227845 -0.0057249069
0.93212688 -0.088720717 -0.034127235
-0.75523484 0.028082374 -0.064827919
-0.69331783 0.0047928095 -0.00187397
-0.45299047 -0.0085700881 0.0046930313
-0.38402414 0.02191012 -0.090288162
0.44310576 0.030678499 -0.051877975
0.74899626 0.057395834 -0.039755821
0.8366375 0.011770278 -0.029858589
0.9362219 0.025794588 -0.043230057
-0.83242548 0.15640937 -0.091570854
-0.77491528 0.14299075 -0.048754692
-0.33953142 0.12126049 -0.095344543
-0.30056256 0.19309683 -0.062501907
0.44425732 0.097327039 -0.037752151
0.94533682 0.10881431 -0.017270088
-0.84216905 0.25153631 -0.020590782
-0.79974866 0.23261987 -0.005115509
-0.25768238 0.2744157 -0.05322361
-0.15843187 0.31491455 -0.051768303
0.25653297 0.3292526 -0.10343838
0.34974921 0.26725772 -0.068433762
-0.20646514 0.33632633 -0.037802696
-0.13435568 0.38191265 -0.038109779
-0.018989891 0.40968463 -0.066971779
0.10456584 0.41897812 -0.056835175
0.21604033 0.38482082 -0.058483124
0.30681586 0.34482202 -0.041449547
0.00048643351 -0.52974987 0.079792023
0.08308012 -0.5292238 0.075994492
-0.22214366 -0.42296195 0.02418232
-0.15369554 -0.45745397 0.025647163
-0.064399764 -0.49479884 0.022556305
0.12489247 -0.49367809 0.013993263
0.22757304 -0.47888169 0.048890114
0.31521085 -0.43074024 0.053586006
-0.8599453 -0.33624169 0.064512253
-0.7856791 -0.28356141 0.093649864
-0.35704231 -0.31466076 0.022289276
-0.27777374 -0.3596513 0.021619797
0.38313812 -0.34863558 0.04950428
0.44223702 -0.28468436 0.10984707
0.92408395 -0.28378144 0.09681797
-0.83388311 -0.27850091 0.020608902
-0.7496233 -0.21935287 0.052659988
-0.67741674 -0.17361532 0.10206413
-0.4599061 -0.17137052 0.043753624
0.47401214 -0.203338 0.074611664
0.77394408 -0.17377812 0.10630226
0.8519237 -0.20649615 0.072999001
0.92532599 -0.23643544 0.038772583
-0.70516139 -0.12319773 0.018889427
-0.6315729 -0.096516356 0.060675621
-0.51222336 -0.076404184 0.050058365
0.50579304 -0.090075448 0.050213814
0.59251428 -0.090750627 0.092396736
0.71886492 -0.085838959 0.085338593
0.82756561 -0.1002367 0.032548904
-0.69603378 0.072215691 0.0091514587
-0.63282835 0.028294463 0.030938148
-0.52318084 0.026626334 0.050735474
-0.42790741 0.018476184 0.015319824
0.50364482 0.032237116 0.028138161
0.60076225 0.032607 0.048085213
0.71139473 0.023176149 0.030351639
0.79951394 -0.0084649082 0.018372536
-0.72051835 0.16034403 0.043031693
-0.63565087 0.12485079 0.072433472
-0.53035235 0.11366118 0.099002838
-0.38306648 0.19727266 0.071992874
0.50628537 0.10090625 0.055246353
0.59231544 0.10229982 0.091438293
0.69940513 0.10150367 0.07075882
0.89169639 0.17026517 0.07379055
0.93595767 0.16221447 0.034671783
-0.83162111 0.28187588 0.044801712
-0.77001947 0.24794216 0.075393677
-0.38384521 0.2542375 0.078119278
-0.31218672 0.28446078 0.023468971
0.39539391 0.28947616 0.029273033
0.42584729 0.26620498 0.075016975
0.94016713 0.21362942 0.10771084
-0.33510965 0.35376525 0.12401295
-0.25040394 0.36468387 0.044589996
-0.14731182 0.41305572 0.042322159
-0.051048875 0.45117947 0.024481773
0.21987483 0.43965992 0.03974247
0.32768548 0.37064588 0.029013634
-0.1388178 0.46221703 0.10414219
-0.013701499 0.48725861 0.086318016
0.082890265 0.48739445 0.087244987
0.2205338 0.46152306 0.099131584
-0.28289235 -0.42763424 0.15149784
-0.14334165 -0.51246732 0.15756607
-0.8427279 -0.32944229 0.15037251
-0.77086347 -0.29077414 0.19775772
0.42083353 -0.34775466 0.20061874
0.86653948 -0.29909602 0.18148613
0.9267906 -0.33169824 0.1761694
-0.74245095 -0.25076964 0.15990448
-0.63517261 -0.18292853 0.16154385
-0.45140982 -0.23168419 0.15409565
0.5024178 -0.23211417 0.16188526
0.59020114 -0.19886245 0.16858101
0.724994 -0.19914033 0.16493511
0.80436701 -0.25320572 0.16229725
-0.54867148 -0.14745951 0.15002251
0.68048608 -0.14684197 0.12995815
-0.62875593 0.17010042 0.15253639
-0.49395436 0.15512712 0.17659569
-0.76893711 0.27596363 0.19017506
-0.46220309 0.24978222 0.21782684
-0.41364688 0.28917086 0.18061352
0.44794679 0.2754423 0.18401909
0.86584163 0.21676542 0.15297985
0.93830931 0.24565463 0.16421413
-0.86968112 0.33829457 0.24723244
-0.28338385 0.39894992 0.15398121
0.1371866 0.49897164 0.16639805
0.65812534 -0.23837543 0.27828217
-0.50465983 -0.093711585 0.29652214
-0.52611512 0.079785317 0.25498581
-0.42721862 0.20155959 0.36112785
-0.41218263 0.22442065 0.26346588
-0.27598602 0.28412995 0.46617985
-0.20068 0.33054093 0.47451687
-0.26175684 0.17812051 0.59250164
-0.32703763 0.27226645 0.50991154
-0.24716099 0.26084882 0.53138924
-0.15900905 0.30431798 0.52502346
-0.25356811 0.33695063 0.54390812
-0.1413493 0.36570713 0.59983349
-0.21892913 0.2207088 0.6720705
-0.18477099 0.28280631 0.64682388
-0.15087999 0.3439801 0.61999702
0 0 0 1 0 0 0 1 0 0 0 1 0 0 0 0 0 226 1 0 0
