# .PCD v0.7 - Point Cloud Data file format
VERSION 0.7
FIELDS x y z normal_x normal_y normal_z curvature
SIZE 4 4 4 4 4 4 4
TYPE F F F F F F F
COUNT 1 1 1 1 1 1 1
WIDTH 572
HEIGHT 1
VIEWPOINT 0 0 0 1 0 0 0
POINTS 572
DATA ascii
-0.38565254 -0.34078634 -0.0081686676 0.71623582 0.69785535 0.0020233928 0
0.38954878 -0.3449899 -0.00031419098 -0.69776005 0.71632856 0.0020737262 7.2700197e-05
0.39277962 -0.34183094 -0.0043150783 -0.69780207 0.71628761 0.0020765159 2.9919162e-05
0.39861614 -0.33614564 -0.0041572452 -0.69789106 0.71620107 0.0020504703 0
0.40812743 -0.32688272 -0.0032245815 -0.73042953 0.68298215 0.0028498841 0.0024478703
0.41421986 -0.32093257 -0.0084422082 -0.79731005 0.6028952 -0.028533129 0.0044128611
-0.41046479 -0.3153331 -0.0037095994 0.75448823 0.6563108 -0.001912964 0.0024417324
-0.40815604 -0.31770208 -0.0039037839 0.74569207 0.66625202 0.0071820095 0.0020791499
-0.41992915 -0.30562881 -0.00042655272 0.84447473 0.53392953 -0.04221027 0.0039822105
0.42303944 -0.30605042 -0.0071146321 -0.88189495 0.47143716 0.0028927906 0.0069447723
-0.42498189 -0.29396218 -0.0049988776 0.89428735 0.4466213 -0.027920712 0.0055147442
0.42616987 -0.29598269 -0.0039965361 -0.94479948 0.32756466 0.0074368124 0.0015032591
0.43221787 -0.27650976 -0.0056187883 -0.95497757 0.29667684 0.00085763785 8.9534202e-05
-0.44004345 -0.25115252 -0.006716013 0.94329959 0.33194116 0.00096163491 7.0395472e-05
0.4384076 -0.25658625 -0.0052307993 -0.95493978 0.29679832 0.00083302805 0
-0.44151419 -0.24697565 -0.0056888908 0.94330597 0.33192313 0.00096149446 0.00010048756
0.44148749 -0.24667338 -0.0048314184 -0.9549613 0.29672894 0.00085802894 0
-0.44429392 -0.2390793 -0.0044802427 0.94329071 0.3319664 0.00096193701 0.000104755
-0.45068029 -0.22092849 -0.0052608252 0.94332063 0.33188158 0.00094236177 0.0001039314
0.4481028 -0.22538094 -0.0041479021 -0.95498657 0.29664794 0.00086542527 0
-0.45236894 -0.21613318 -0.0041037276 0.94330686 0.33192062 0.00095633458 5.191602e-05
0.45119306 -0.21543935 -0.0021536797 -0.95990312 0.28033134 -0.00067835319 0
-0.45758843 -0.2012949 -0.0060914904 0.9432894 0.33197039 0.00095953065 0.00011200576
-0.043401808 -0.20127763 -0.0068954229 0.22812983 0.973616 -0.0053548543 0.00039596585
-0.037519705 -0.20279612 -0.0080365986 0.20945989 0.97775543 -0.01098984 0.0010589604
-0.010487231 -0.20621809 -0.0046676695 0.028517578 0.99955285 -0.0089919781 0.0012957287
0.004323347 -0.20606238 -0.0053632185 -0.0093740067 0.99992597 -0.0077613243 0
0.018889518 -0.20590463 -0.0054484308 -0.030936398 0.99943656 -0.013021978 0.00049836247
0.024621796 -0.20585367 -0.0069235712 -0.036107786 0.9992559 -0.013563884 0.00045566473
0.033839755 -0.20576465 -0.0083821341 -0.10625408 0.99430263 -0.0085017793 0.0020204009
-0.081079096 -0.19150606 -0.0049944296 0.34794548 0.93747884 -0.0082088113 0.0026077789
-0.063841388 -0.19600697 -0.0037007332 0.26614881 0.96390456 -0.0072690821 0.00029474511
0.066058904 -0.19722754 -0.0080100149 -0.27236789 0.96216184 -0.0077694687 1.5948703e-05
0.075528204 -0.19454965 -0.0039265454 -0.28303212 0.95903707 -0.011863009 0.00020820247
0.091650315 -0.1900285 -0.0019270629 -0.37561259 0.92673558 0.0087394826 0.0028086505
0.45758802 -0.19229893 -0.0022969805 -0.98129082 0.19213736 -0.012304482 0.0014790068
-0.097807899 -0.18207556 -0.0035852715 0.49022514 0.87156695 -0.0070939064 4.2922193e-06
-0.084983043 -0.18933558 -0.0086022466 0.40404829 0.91473109 -0.0034651293 0.0035553786
0.093758583 -0.18905143 -0.0010326356 -0.38949096 0.92089289 0.015906455 0.0031356013
0.10445604 -0.18273281 -0.0022836626 -0.47184864 0.88167924 0.0007287981 0.0014388283
0.45841986 -0.18403377 -0.0016281996 -0.99262547 0.12094465 -0.0081827715 0.00043388442
-0.46742606 -0.17132795 -0.002200502 0.98430687 0.17644542 -0.0026420818 0.0027970495
0.11785869 -0.1747987 -0.0015691966 -0.50913453 0.86066145 -0.006619412 8.5833162e-06
0.4593828 -0.1744438 -0.0084812418 -0.99497592 0.10011367 0.00028995652 0
-0.13035831 -0.1637817 -0.0080922395 0.58119798 0.81376213 -0.00015877983 0.0029538502
0.12982401 -0.16772842 -0.002613917 -0.52071059 0.85370737 -0.0066462173 0.00018895305
0.46016124 -0.16673076 -0.0004780218 -0.99497551 0.100118 0.00029122003 0
-0.46797585 -0.15736918 -0.0039078929 0.99752599 0.069728956 0.0089310128 0.0007248972
-0.14052023 -0.15464386 -0.007174924 0.66170394 0.74970859 0.0092218723 0.001266239
0.14524162 -0.15787002 -0.0080699055 -0.64654624 0.76269698 -0.016470041 0.0018987496
0.46155131 -0.15290986 -0.0023876876 -0.99497461 0.10012719 0.00029017223 3.3969391e-05
-0.46843746 -0.14564188 -0.0081447139 0.99922454 0.039374642 0.00011321692 5.5191929e-05
0.16212267 -0.1405704 -0.0010660663 -0.71457148 0.69954163 -0.0054012365 0
0.46203309 -0.1481165 -0.0042499751 -0.9949764 0.10010956 0.0002884565 1.4475417e-05
0.16983098 -0.13275 -0.0081406981 -0.7146017 0.69951081 -0.0053793024 0
-0.17358756 -0.12226801 -0.0055347085 0.79637843 0.60386926 0.033517126 0.002208156
0.18035829 -0.12197222 -0.0051480867 -0.77004606 0.63783413 -0.014026559 0.0016032803
0.46442431 -0.12434634 -0.0060486868 -0.99497813 0.10009169 0.00028853331 0
-0.46976343 -0.11200356 -0.0043528625 0.99922436 0.039378595 0.00011331777 0.00010979838
0.46542633 -0.11440342 -0.00071632862 -0.99497581 0.10011524 0.0002903532 0
-0.46994653 -0.10735887 -0.0035031736 0.9992249 0.0393641 0.00011402827 0.00023115313
-0.18283698 -0.10736944 -0.0092488527 0.85071117 0.52561653 -0.0042339042 0.00040894598
0.46616942 -0.10701835 -0.00066772103 -0.99497366 0.100137 0.00028969857 0
-0.19180828 -0.09220244 -0.0088200048 0.86064076 0.50919759 -0.0039168252 0
0.19668363 -0.096302368 -0.0030603036 -0.86857772 0.49554563 -0.0027121853 6.5297281e-05
0.46741825 -0.094597027 -0.0041257516 -0.99497622 0.10011127 0.00028852891 1.1546767e-05
-0.19569235 -0.085634075 -0.0083853584 0.87219638 0.48909751 -0.0075565721 0.00040432077
0.20239675 -0.086152144 -0.0026874766 -0.87721455 0.48005649 -0.006355721 0.0002326315
-0.2003466 -0.077737115 -0.004473336 0.90545368 0.42435548 -0.0087164976 0.0020694903
0.20678118 -0.07839705 -0.00689511 -0.88403517 0.46740586 -0.0036969148 0.00048447546
0.21093741 -0.07101886 -0.0074028671 -0.90805864 0.4186725 0.011948123 0.0021917233
0.4693805 -0.075084224 -0.007952732 -0.99628162 0.085949086 0.0059862658 0.00022870363
-0.20682667 -0.062744468 -0.0052454583 0.93865973 0.34484485 -0.0001529835 0.0016793613
0.21491362 -0.061568793 -0.0047793323 -0.93223935 0.36169612 0.010284266 0.0020807991
0.47040984 -0.064506799 -0.0048385994 -0.99841762 0.056220435 0.0012197498 0.00011242993
-0.47186905 -0.05855751 -0.0062295422 0.99949676 0.031715438 -0.00054839824 8.737186e-05
-0.20956339 -0.052985787 -0.0097615272 0.95729554 0.28908518 -0.0038809315 0.00042991035
-0.47229183 -0.047832973 -0.0043484895 0.99983823 0.017987104 -7.5975608e-05 0
-0.21048549 -0.049662277 -0.0066797137 0.95768201 0.28779131 -0.0046132738 0.00041629636
0.47089905 -0.04140874 -0.00069154799 -0.99989349 0.014593367 -0.00018000827 8.0619166e-06
-0.47232792 -0.036109902 -0.00085485168 0.99998397 0.0046636881 0.0032071597 0.00015251839
0.22131479 -0.036620442 -0.004721418 -0.96862054 0.24853694 -0.0019128561 1.3926409e-05
-0.47221127 -0.027190087 -0.0099712647 0.99998307 -0.0052780774 0.0024714656 0
-0.21611479 -0.029500313 -0.0044178069 0.97263801 0.23219372 0.007836624 0.00062595395
0.47111157 -0.025186844 -0.0064780116 -0.99991393 0.013118162 3.7659727e-05 0
0.47119677 -0.018698011 -0.003509149 -0.99991381 0.013129504 3.7344322e-05 5.4218599e-06
-0.47186342 -0.00067575835 -0.0067474991 0.99991405 -0.013113694 -3.7185891e-05 2.9614539e-05
-0.22070435 -0.0037789536 -0.0096707121 0.99674892 0.080551282 0.0017618587 0.0017515076
-0.22083256 0.0080741234 -0.0018100441 0.99994081 0.01087584 -8.392999e-05 5.608315e-05
0.22837287 0.0024775455 -0.0065588597 -0.99575603 0.091305599 0.011542995 0.00074355589
0.47152463 0.0063073523 -0.0059009939 -0.99991399 0.013113841 3.7905767e-05 2.9940261e-06
-0.47160453 0.019075667 -0.0098092556 0.99991393 -0.013116103 -3.8127226e-05 4.6713718e-05
-0.22085765 0.010383759 -0.0017055273 0.99994087 0.010875345 -8.3671104e-05 3.4908393e-05
-0.22098511 0.022111107 -0.0011594743 0.99996197 0.0086292801 0.0012379256 0
0.47173357 0.022229631 -0.0030048192 -0.99991387 0.013125265 4.0274095e-05 0.00020647564
0.47184154 0.030477259 -0.0073800832 -0.99991387 0.013120188 4.2595679e-05 0
-0.47132695 0.040239431 -0.0094647855 0.99991405 -0.013110915 -3.9795857e-05 0
-0.22090381 0.044507015 -0.0079772007 0.99254203 -0.12148287 -0.010114191 0.0029603315
0.47202009 0.044076473 -0.003141623 -0.99991411 0.013102381 4.1507948e-05 0
0.22575292 0.057967696 -0.0081027783 -0.97717541 -0.2124341 -8.728019e-05 0.0015534038
0.4721989 0.05770253 -0.00065428764 -0.99999207 0.0038964348 0.00075800065 2.0082409e-05
-0.47102654 0.063147739 -0.0097216442 0.99991369 -0.013139386 -3.4859859e-05 0
-0.47090968 0.072039373 -0.0029673055 0.99990672 -0.013651474 -0.00028715446 0
-0.21437395 0.072455622 -0.0022436876 0.96947539 -0.24517623 0.002457923 2.9729315e-05
0.47236219 0.076646939 -0.0064166444 -0.99939263 -0.034582395 0.0043006111 0.00024904031
-0.21195945 0.081839457 -0.0056675822 0.96779376 -0.25172317 0.0032572977 2.7343398e-05
0.47160542 0.086870819 -0.0031790771 -0.99846858 -0.055311285 -0.0010957192 0.00014191844
-0.20977604 0.090344071 -0.0063190125 0.95725334 -0.28925043 0.00039411438 0.00064615428
0.21615991 0.092307672 -0.0057675093 -0.95536476 -0.29541776 -0.00256367 0.00061009091
0.21318865 0.10290636 -0.0099279042 -0.93855685 -0.34510744 0.0034385512 0.0013366651
0.47058743 0.10064064 -0.0046536885 -0.99727756 -0.073739 -0.00021408974 2.7381751e-05
0.469603 0.11395216 -0.004486911 -0.99727881 -0.073721945 -0.00021210886 4.3413835e-05
-0.46894118 0.12124932 -0.0078663826 0.99807727 -0.06198163 -0.00018980849 0.00010741167
-0.19381374 0.12555492 -0.0049160272 0.8713218 -0.4906975 0.0037779186 1.6728263e-05
0.20441251 0.12011375 -0.0089878887 -0.86806762 -0.49641943 0.0051304116 0.00017365567
0.4691101 0.12062946 -0.0087068826 -0.99727863 -0.073723644 -0.00021228212 0.00014251882
-0.46805796 0.13546006 -0.0075765401 0.99807793 -0.061971307 -0.00019325975 3.0593867e-05
0.46772295 0.13936849 -0.0020833164 -0.99727809 -0.073732086 -0.0002144367 9.5308395e-05
-0.46722102 0.14890708 -0.00079783797 0.99807453 -0.062026784 -0.00018009383 2.8851622e-05
0.19229352 0.14062318 -0.0062790364 -0.84898442 -0.528413 0.0022845638 0.00062513497
0.46739763 0.14376986 -0.0028948933 -0.99727362 -0.07379175 -0.00021557834 0.00014235389
-0.4668833 0.15435296 -0.0048941076 0.99807465 -0.062023953 -0.00018070335 4.558812e-05
-0.17214492 0.15996501 -0.0055034943 0.75012541 -0.66129452 0.0012158714 0.0013296189
0.18026695 0.159853 -0.0046718121 -0.79434848 -0.60746229 -0.00012935243 0.0020107175
0.46693474 0.1500389 -0.0060260892 -0.99727982 -0.073708259 -0.00020522832 0
-0.16289528 0.16942199 -0.0048591248 0.71924007 -0.6947552 0.0029851843 7.7566678e-05
0.17543775 0.164581 -0.004460983 -0.76473612 -0.64424574 -0.011234251 0.0025453458
0.46561301 0.16791123 -0.0055161566 -0.9972747 -0.073777974 -0.00022201629 4.7037334e-05
-0.15683125 0.17561615 -0.0051860288 0.71470875 -0.6994015 0.0053799767 2.4969664e-05
0.16534048 0.17445314 -0.0057757348 -0.70681089 -0.7073999 0.0019344523 0.00010191317
0.46488455 0.17777339 -0.009158738 -0.99727184 -0.073816657 -0.00021685174 0
-0.14552352 0.18719554 -0.0020292141 0.68335855 -0.73006588 0.0049946425 0.0010780232
0.1566963 0.18291704 -0.005284518 -0.69585329 -0.71816659 0.0049938085 8.2227882e-05
-0.4641996 0.19752124 -0.0002791211 0.99807346 -0.062043522 -0.00017893792 0
0.14340012 0.19589794 -0.0094674975 -0.61169446 -0.79096001 -0.014565382 0.0022960678
0.4637866 0.19262351 -0.0097507462 -0.99584657 -0.090924412 -0.0047334298 0.00024178966
-0.46372569 0.20515431 -0.0031355321 0.99806857 -0.062122207 -0.00019012915 0
-0.12351806 0.20425022 -0.00012767315 0.54552412 -0.83804452 -0.0092064328 0.001027042
-0.11550672 0.20893364 -0.0073851123 0.5112232 -0.85941052 0.0080247363 1.9191259e-05
0.1284811 0.20595057 -0.00160335 -0.51688474 -0.85602701 0.0069239391 0.00036026267
0.1372062 0.20099968 -0.0065363422 -0.60794592 -0.79373205 -0.019776819 0.0019841173
-0.4634065 0.21029624 -0.0052841753 0.99783623 -0.065698393 0.0025640165 0
-0.10544962 0.21490832 -0.0041060746 0.50602603 -0.86248004 0.0081113726 3.4185348e-05
0.10660727 0.21825212 -0.0035766363 -0.48451051 -0.87474501 0.0084055997 8.7753891e-05
-0.46265244 0.22242011 -0.0019741207 0.99130332 -0.13136902 0.0077377991 0.0024523248
-0.078633666 0.22867149 -0.007268697 0.33952102 -0.94058895 -0.0042340858 0.0013066249
0.084733039 0.22954297 -0.0048026331 -0.32398814 -0.94605118 0.004334054 0.0018628663
-0.072010495 0.2305491 -0.0038150102 0.30380017 -0.95273 0.00332268 0.00057108031
-0.049512312 0.23679987 -0.0086209327 0.26381075 -0.96456736 0.003699068 6.534854e-05
0.046390794 0.23937538 -0.0049431026 -0.22878525 -0.97347683 -0.00051978091 0.00038844705
0.055600576 0.23699096 -0.0078579634 -0.24842322 -0.96862292 0.0074529625 0
0.062126257 0.23534086 -0.0048021674 -0.24991201 -0.96823943 0.007509653 7.9219053e-06
0.070998579 0.23303595 -0.0086305514 -0.25003317 -0.96820986 0.0072896266 3.0233114e-06
0.45589828 0.23349643 -0.0055592507 -0.96300083 -0.26949739 -0.00072778395 0
-0.036147043 0.24058156 -0.0025898814 0.18585493 -0.98254532 -0.0079165511 0.0027358145
-0.028647617 0.24266046 -0.0048031211 0.15304266 -0.98821956 -0.00037530382 0.0030826991
-0.007208772 0.24296586 -0.0056897155 0.036128622 -0.99933738 0.0044244649 0.00053355115
0.0095478846 0.24314284 -0.0059559345 -0.0019644841 -0.99988496 0.01504091 0.00015977432
0.014136806 0.24322075 -0.0022027045 -0.013977773 -0.99985975 0.0092282025 0.00039694188
0.45063704 0.25227711 -0.0032043457 -0.96291417 -0.26980695 -0.00074413675 0
-0.44903904 0.26132613 -0.0028599948 0.9124006 -0.40929666 -0.0011870724 0.00010326839
-0.4431951 0.27434701 -0.00065852702 0.91233408 -0.40944478 -0.0012073106 0
0.44497108 0.27251452 -0.0049390569 -0.96293133 -0.26974523 -0.00079535402 0
-0.43314686 0.29675642 -0.0040516444 0.91237235 -0.40935954 -0.0012009896 0
0.43859297 0.29529473 -0.0072109699 -0.962919 -0.2697894 -0.00078293763 0
-0.4315322 0.30037069 -0.0091803372 0.9124099 -0.40927592 -0.0011792091 5.9964634e-05
-0.42823058 0.30773166 -0.0095195472 0.91236961 -0.4093658 -0.0011899597 3.1263937e-06
-0.42452279 0.31599626 -0.0092520192 0.91238683 -0.40932733 -0.0011890581 8.7179033e-06
0.43198791 0.31887802 -0.007003922 -0.94054127 -0.33916578 0.018669145 0.0048455922
0.42970201 0.32704285 -0.0079704048 -0.90492809 -0.42548671 0.00814059 0.0092451833
0.43130693 0.32130215 -0.0044521689 -0.93951696 -0.34119254 0.029926648 0.0041192193
-0.41508073 0.33704257 -0.0085583907 0.84026915 -0.54214793 0.0048321011 0.0044011846
0.42767078 0.33174193 -0.0059196586 -0.84358805 -0.53555727 -0.039212886 0.0094190584
0.40980288 0.35009056 -0.0093251467 -0.71694082 -0.69713312 -0.0011107846 0
-0.38462245 0.36933571 -0.0048147887 0.69788957 -0.71620238 -0.0020384782 3.6654536e-05
0.39553007 0.36472288 -0.0035865407 -0.7161687 -0.69792432 -0.0020232778 0.00012569458
-0.38110405 0.37275201 -0.00094261765 0.69784206 -0.71624863 -0.0020771441 0
-0.37393278 0.37975118 -0.0054698735 0.69781888 -0.71627128 -0.0020787944 3.1675612e-05
0.37725335 0.3834978 -0.0092950016 -0.71622437 -0.6978671 -0.0020197716 5.901371e-05
-0.35356033 0.39959836 -0.0058227628 0.69780296 -0.71628672 -0.0020771294 0.00011931969
0.36294708 0.39818037 -0.0090143234 -0.71629322 -0.6977964 -0.0020511998 1.7100172e-05
0.35150257 0.40990427 -0.001370497 -0.71624321 -0.69784784 -0.0020224233 5.346975e-05
-0.34226191 0.41059214 -0.0013992637 0.69782996 -0.71626055 -0.0020677524 3.5619953e-05
-0.33979625 0.41301268 -0.0078141838 0.6980623 -0.71603405 -0.0020529542 0
0.34539667 0.41618386 -0.0057889535 -0.70628977 -0.7078563 -0.0097094411 0.0005078002
0.35036254 0.41108486 -0.0049859434 -0.71621644 -0.69787526 -0.0020250031 0.00012818277
0.33279723 0.42911124 -0.0043465411 -0.56903487 -0.8219462 -0.024570083 0.0090992507
-0.31439975 0.43768334 -0.0075649321 0.52311778 -0.85102272 -0.0459144 0.009577089
0.30408669 0.4389742 -0.0050710142 -0.30876806 -0.95113319 -0.0028331291 9.0036665e-05
0.31308642 0.43604004 -0.0013160706 -0.35274842 -0.9354825 0.021001782 0.0009128612
-0.30768734 0.44046521 -0.0051562265 0.37581185 -0.92659599 0.013610037 0.0015368655
-0.28797331 0.44731081 -0.0011639893 0.33207005 -0.94325048 -0.0028541607 6.1861894e-05
0.28325734 0.44573689 -0.0040079355 -0.30886668 -0.95110142 -0.0027386723 4.2326257e-05
0.29762381 0.44106197 -0.0011024028 -0.30895856 -0.95107156 -0.0027518312 0.00015801915
-0.26476014 0.45539892 -0.0059623197 0.32849523 -0.9445017 -0.0027323486 0
-0.2552748 0.45869708 -0.0055719316 0.32851174 -0.94449592 -0.0027384646 0
0.25383154 0.45530257 -0.0066334009 -0.30887768 -0.95109773 -0.0027531483 6.6565604e-05
0.26633486 0.45122749 -0.0018791556 -0.30910754 -0.95102304 -0.0027631612 6.2263607e-05
-0.25082672 0.46025312 -0.0086221993 0.3286154 -0.94445992 -0.0027287591 0
-0.24724674 0.46148497 -0.0040019155 0.32861882 -0.94445854 -0.0027430009 0
-0.23468184 0.46585312 -0.0032243133 0.32866129 -0.94444382 -0.0027368777 0
0.21412823 0.46819332 -0.0046957955 -0.27475628 -0.96148133 -0.0079159653 0.0012997945
0.23806304 0.46042222 -0.0058579445 -0.30891952 -0.95108414 -0.0027540335 2.9797511e-05
-0.21439087 0.4729169 -0.005283393 0.2900905 -0.95698684 -0.0048740115 0.0013149136
-0.19608743 0.47750151 -0.0060132365 0.14740188 -0.98891681 0.017782971 0.0019148665
-0.17306824 0.47923684 -0.0073994496 0.075039431 -0.99717641 -0.0028859931 5.5116059e-05
0.1344994 0.47851062 -0.0072362572 -0.09838739 -0.99514395 -0.0028940765 0
0.15921177 0.47606498 -0.0067426562 -0.09841612 -0.99514115 -0.0028856248 3.2088701e-06
0.16737732 0.47524327 -0.0018702596 -0.098392136 -0.99514353 -0.0028747623 0
0.18822749 0.47317731 -0.00057502091 -0.12042534 -0.99270946 -0.0050706137 0.00034371906
0.19895265 0.47211695 -0.00071957707 -0.15953116 -0.98707569 -0.015209564 0.00083824358
0.20605949 0.47081855 -0.0061978251 -0.20237415 -0.97916293 0.01687081 0.0018768426
-0.14116101 0.48161954 -0.0014764667 0.07500492 -0.99717903 -0.0028838371 0
-0.13425882 0.48214784 -0.0045706518 0.075087823 -0.99717277 -0.0028804205 0
-0.11011228 0.48396376 -0.0037915111 0.075083129 -0.99717313 -0.0028806352 1.45669e-05
-0.068311214 0.48689279 -0.0050435662 0.021963645 -0.99973607 -0.0067357407 0.00029950929
-0.046126854 0.4865981 -0.0031048059 -0.013033818 -0.99991089 -0.0028873673 7.8594967e-05
-0.031698503 0.48640996 -0.0030617565 -0.013018542 -0.99991107 -0.0028893107 3.1140677e-05
-0.023963287 0.48630315 -0.00098027289 -0.013034777 -0.99991089 -0.0028849856 5.3403826e-05
-0.012196634 0.48615953 -0.0043429285 -0.013053181 -0.99991065 -0.0028847519 0
0.0043904586 0.48593977 -0.0032652244 -0.013083846 -0.99991018 -0.0028988721 3.4933473e-05
0.017540986 0.48578027 -0.0077241957 -0.013090065 -0.99991012 -0.0029073898 3.1595857e-05
0.021660339 0.48571181 -0.002746135 -0.013117723 -0.99990976 -0.0028979413 3.2308679e-05
0.032854289 0.4855727 -0.0053940364 -0.013108999 -0.99990982 -0.0028969834 0
0.043996081 0.48541868 -0.0026645958 -0.017191688 -0.99984485 -0.0038352117 9.2106029e-06
0.077041447 0.48417801 -0.0018969327 -0.089066267 -0.99602562 -0.00051096687 0
0.094872192 0.48241198 -0.0010432452 -0.098398447 -0.99514288 -0.0028816739 3.3704773e-06
0.11770388 0.48015258 -0.00061770529 -0.098440684 -0.99513876 -0.0028861465 3.2570981e-05
-0.12411787 -0.48084435 0.0051165819 0.082200304 0.99661165 0.0028840436 0
-0.093847759 -0.48335099 0.0083329678 0.080030426 0.99679065 0.0018632725 0
-0.070969924 -0.48512349 0.004910022 0.055485308 0.99845326 0.0035274171 0
-0.061470833 -0.485241 0.0024812818 0.022724852 0.99971992 0.0066096429 5.8899448e-05
-0.034755178 -0.485605 0.0071748346 0.013129435 0.99990964 0.0028979017 0
-0.011093523 -0.48591763 0.0079773515 0.013116438 0.99990976 0.0028966942 0
0.0093240179 -0.48618412 0.0075508207 0.013111986 0.99990988 0.0028995522 3.0959858e-05
0.028811742 -0.48643881 0.0072398186 0.013116927 0.99990976 0.002899335 0.00012937386
0.034527034 -0.48651269 0.0068791956 0.013131194 0.99990958 0.0028947638 0.00015487964
0.046955731 -0.48667753 0.0075243711 0.0073097777 0.99997002 0.0025395048 0.00010970282
0.053599343 -0.48675913 0.0056076609 0.0010865907 0.99999827 0.0014718296 3.3021137e-05
0.061395109 -0.48686224 0.0059109181 -0.0052120974 0.99998343 0.0024156815 4.9184004e-05
0.072100468 -0.48657969 0.0056762397 -0.024578784 0.99967414 0.0068964432 0.00023194983
0.10581069 -0.48469746 0.0070750155 -0.055851545 0.99843496 0.0028919212 4.1674662e-05
0.11437228 -0.48422191 0.0082942443 -0.05582843 0.99843615 0.0029006607 0
0.13716924 -0.48293814 0.0054736682 -0.05587396 0.99843365 0.0028927664 0
0.1641116 -0.48142344 0.0030274093 -0.055897694 0.99843234 0.002898406 0
0.17275548 -0.48095861 0.0095318556 -0.055900387 0.9984321 0.0028948577 0
-0.18809271 -0.47557464 0.0079937875 0.13963553 0.9899528 0.022260915 0.0014572372
-0.1728536 -0.47681487 0.0021269023 0.082318328 0.99660194 0.0028988917 2.3484101e-05
-0.15302308 -0.47846824 0.0080985501 0.082176685 0.9966135 0.0028983925 0
0.19365817 -0.47977158 0.003531903 -0.20643422 0.97845745 -0.0024354649 0.0081353774
0.21411879 -0.47161889 0.0032948703 -0.45732558 0.88925582 -0.0087918872 0.00093213981
0.21802042 -0.4694376 0.0045701712 -0.46692765 0.88429552 0.0002789656 0.00068868324
0.22426975 -0.4659301 0.0018974245 -0.48672146 0.87355167 0.0030920971 0
0.23265663 -0.4612484 0.0071283579 -0.48859867 0.87250495 0.0025347138 6.0589253e-05
-0.23951578 -0.45402911 0.0051211864 0.51144874 0.85931009 0.0025306179 0
0.23790407 -0.45829839 0.0032320693 -0.48858535 0.8725124 0.0025399802 0
0.24518259 -0.45423228 0.0066835955 -0.48865184 0.87247521 0.0025266716 4.1470677e-05
-0.2586627 -0.4426505 0.0095800459 0.51139075 0.85934478 0.002441966 5.1439583e-05
-0.27550191 -0.4326238 0.0067827255 0.51123387 0.859438 0.0024862029 1.0417313e-05
-0.26943463 -0.4362264 0.0043140352 0.51138914 0.85934567 0.0024758033 0
0.27255142 -0.43888593 7.994473e-05 -0.48860314 0.87250245 0.0025248076 0
-0.29390389 -0.42167935 0.0081269145 0.51136369 0.85936081 0.0024965371 6.2672538e-05
-0.28195328 -0.42876691 0.00034696609 0.51133674 0.85937685 0.0024913754 0
0.28898436 -0.42969322 0.0035794377 -0.48873681 0.87242764 0.0025056512 3.8381426e-05
0.29689735 -0.42526311 0.0040369481 -0.4886438 0.87247968 0.0025301939 0
-0.31040359 -0.4118512 0.0041311085 0.52314681 0.85216123 0.011777204 0.00020022115
-0.29880711 -0.41876435 0.0088859946 0.51134878 0.85936964 0.002502345 9.9615521e-05
0.32681918 -0.40612376 0.0081979483 -0.65328652 0.75711024 0.00090945867 0.0010944221
0.33883333 -0.39440894 0.0043956488 -0.69788253 0.71620923 0.0021011152 0
-0.3445352 -0.38302782 0.0058264807 0.71616995 0.69792312 0.0019989728 0
-0.35451803 -0.37277335 0.0028784946 0.71627057 0.69781977 0.0020003919 0.00011103134
-0.34810907 -0.37936255 0.0067835674 0.71623981 0.69785124 0.0020281598 1.8251971e-05
0.35630196 -0.37739623 0.0060083494 -0.69780827 0.71628165 0.0020753283 3.1098578e-05
-0.36363393 -0.36342007 0.0038506836 0.71614802 0.69794554 0.0020496098 0
-0.35863942 -0.36856186 0.009249717 0.71622604 0.69786543 0.0020310786 3.4762925e-05
0.36434388 -0.36956558 0.0072286576 -0.69772273 0.71636498 0.0020752891 1.9556412e-05
0.37621775 -0.35798839 0.0037653036 -0.69785094 0.71624005 0.0020876201 7.6018783e-05
0.38261619 -0.35177332 0.0099995136 -0.6977424 0.71634567 0.0020876084 1.6745822e-05
-0.38125706 -0.34532726 0.0020583048 0.71623993 0.69785118 0.0020235926 2.3291686e-05
-0.37773889 -0.34894389 0.0040292144 0.71615249 0.69794083 0.0020514866 0
0.38897741 -0.34556332 0.0054727942 -0.69786072 0.71623057 0.0020727415 0
-0.38714051 -0.3393116 0.0099292547 0.71627665 0.69781351 0.0020211635 0
0.39902443 -0.33577192 0.0041407049 -0.69768804 0.71639872 0.0020897014 0.00011635161
0.40186319 -0.33300781 0.0045897365 -0.69787991 0.71621174 0.0020822647 0
-0.39686596 -0.32930326 0.00078564882 0.71633148 0.69775712 0.0020417471 4.2019719e-06
0.40944487 -0.32561052 0.0006287694 -0.73895156 0.67372954 -0.0062540835 0.0025617946
0.41133368 -0.32377213 0.0012005568 -0.74699128 0.66481465 -0.0050610146 0.0024176992
-0.41139355 -0.31441382 0.0080270022 0.76766104 0.64083767 0.0048657358 0.0028718319
-0.40946996 -0.31639159 0.0092299171 0.74721783 0.66457689 0.0017563878 0.001791744
0.41946113 -0.31587678 0.0088403076 -0.81738412 0.57603759 0.0079881679 0.0063644438
-0.41676977 -0.30888754 0.0051255692 0.812289 0.58225667 -0.034111701 0.0055239582
0.42317653 -0.30565047 0.0071679875 -0.85497707 0.51860934 0.0076512634 0.0049942327
-0.42797169 -0.28549013 0.0035653312 0.93222231 0.36186394 -0.0040019965 0.00098141166
-0.43135396 -0.27587873 0.0039275996 0.94329989 0.33194047 0.00095761206 4.9392758e-05
0.4350276 -0.26749605 0.005024299 -0.95496446 0.29671919 0.00085385848 0
-0.4376772 -0.25791448 0.0061399639 0.9433133 0.33190224 0.00096209842 0
0.43834221 -0.25683656 0.0084849894 -0.95498264 0.29666048 0.00086243462 8.5706606e-06
-0.44046956 -0.24998611 0.0086991936 0.94331241 0.33190495 0.00095808617 0
0.44231346 -0.2440459 0.0059546679 -0.95497459 0.29668629 0.00085910712 0
-0.4456495 -0.23526818 0.0097803026 0.94327796 0.33200249 0.00096097827 7.9114623e-05
0.44447654 -0.23709011 0.0084220394 -0.95494157 0.29679254 0.00083545485 0
-0.45057291 -0.22126302 0.0048772395 0.94332558 0.33186722 0.0009584559 0.00010219393
-0.44924298 -0.22505414 0.0089894682 0.94329917 0.33194238 0.00095791009 4.6845284e-06
0.45135385 -0.21493334 0.0018016957 -0.95960623 0.28134018 0.0018660758 0.00014956173
-0.039180342 -0.20225377 0.0070575476 0.24631508 0.96915728 -0.0079381447 2.7114083e-06
0.012551559 -0.2058851 0.0060491115 -0.010872863 0.99991125 -0.0076930053 1.6125468e-05
0.029978154 -0.20568462 0.0074806064 -0.10278859 0.99459022 -0.01499498 0.0018263446
0.043570697 -0.20340411 0.0060788789 -0.19386818 0.98102677 0.0012716848 0.0015399507
0.053763263 -0.20056298 0.0051079094 -0.25672731 0.96647727 -0.0035773728 0.00020192927
0.45446575 -0.20492581 0.0051427223 -0.96718568 0.25375593 0.012641893 0.00040003381
-0.46033829 -0.19351757 0.0067322478 0.94745338 0.3198908 0.0013928056 0.00024512262
-0.4580673 -0.19995743 0.0019710511 0.94328797 0.3319743 0.00095979421 0
-0.056956585 -0.19773576 0.0012771636 0.24937336 0.96837902 -0.0074167904 0
0.067018509 -0.19686118 0.0047512352 -0.27168286 0.96236062 -0.0071064713 1.4799656e-05
0.079562776 -0.19337888 0.0016893297 -0.31400558 0.94941485 -0.0034563872 0.0014968273
-0.093998939 -0.18416962 0.0030008852 0.48865151 0.87244183 -0.0080575142 6.880467e-06
0.10834654 -0.18036467 0.0063777715 -0.49601027 0.86829025 -0.0067741941 0.00047362142
0.45828778 -0.1853628 0.0040151328 -0.98882717 0.14726287 -0.023118135 0.00082498946
-0.46616501 -0.17696114 0.0072412109 0.97309941 0.23001063 0.01314235 0.0027855991
-0.1169403 -0.17119989 0.0097459406 0.49197933 0.87057787 -0.0071122306 0
0.45951304 -0.17319423 0.0069802874 -0.99497324 0.10014091 0.0002889387 0
-0.46754172 -0.168405 0.0026312019 0.98898506 0.14756638 -0.011519052 0.0024182363
-0.13133913 -0.16306788 0.005361639 0.5970999 0.80213684 -0.0069511384 0.0021314786
-0.12299075 -0.16783284 0.0045675635 0.53056335 0.84762627 -0.0056744968 0.0010349073
0.13522343 -0.16450095 0.0017187744 -0.561584 0.82741863 -0.0013524599 0.0013267283
0.14666457 -0.15631102 0.004179812 -0.6434738 0.76544267 -0.0062462478 0.0012943002
0.46093756 -0.15902653 0.003468439 -0.99497682 0.10010493 0.00029564212 8.9312227e-05
-0.15077493 -0.14455187 5.6043267e-05 0.69547904 0.7185263 -0.005372637 3.537361e-05
0.15342957 -0.14940383 0.0051067732 -0.69703072 0.71697336 -0.0098653603 0.00057533622
0.46270114 -0.14150625 0.0059185326 -0.99497974 0.10007593 0.00029915044 0
-0.46876931 -0.1372557 0.0041422192 0.9992252 0.039356787 0.00010874042 0.00012248663
0.17076845 -0.13168707 0.0055333823 -0.72717524 0.686409 -0.007682655 0.00053546351
0.46347776 -0.13378248 0.0039863586 -0.99498272 0.10004664 0.0002847249 5.9368718e-05
-0.17408374 -0.12167022 0.0090459436 0.79831779 0.60214436 -0.010527798 0.0016704354
-0.16922152 -0.12647837 0.002617538 0.76101601 0.64861351 0.012458374 0.0020228385
0.17434335 -0.12806119 0.0021225959 -0.7330811 0.68005443 -0.010870665 0.00060601719
0.46521398 -0.11654046 0.0083975196 -0.99497569 0.1001167 0.00028805542 0
-0.47000396 -0.10592819 0.0057523847 0.99922371 0.039395675 0.00011877177 3.6645059e-05
-0.18365377 -0.10590099 0.0021713674 0.85307199 0.52179074 0.001588435 0.00038227518
0.18922442 -0.1094541 0.009543512 -0.82808071 0.56060511 -0.0020676928 0.0017801536
0.46669775 -0.10177192 0.00085492432 -0.99497443 0.10012833 0.00029127768 0
-0.47042415 -0.095261633 0.0049024224 0.99922299 0.039412934 0.00010467646 3.5178393e-05
0.46714419 -0.097352229 0.0067006536 -0.99497688 0.10010437 0.0002924267 6.2943304e-06
-0.47087589 -0.083790988 0.0031425506 0.99922389 0.03938961 0.0001154839 0
-0.19558425 -0.085716903 0.0045962557 0.8736518 0.48651809 -0.0057093324 0.00036344785
0.46835822 -0.085282505 0.0052590333 -0.99521214 0.09773659 0.00053110142 0
-0.47122163 -0.075030342 0.0079012699 0.99922562 0.039345581 0.00010570324 7.0743881e-05
0.46922565 -0.07665915 0.0044944659 -0.99564672 0.093188107 -0.001884071 9.3657167e-05
0.21496744 -0.061314262 0.0010382812 -0.93521345 0.35401753 0.0068774195 0.0018398419
0.47049344 -0.063591152 0.0044665742 -0.99812067 0.061212249 0.0028722812 0.00021837879
-0.47197559 -0.055874668 0.0011908337 0.99963766 0.026710249 -0.003339208 2.1741451e-05
-0.20955522 -0.052882012 0.0075276345 0.95833105 0.28539574 0.012279662 0.00047925368
0.47068077 -0.058073338 0.0082008168 -0.99877548 0.04938598 0.0029298943 0.00030948053
-0.47236538 -0.045939982 0.0049156821 0.9997946 0.020153152 -0.0021613571 0.0001841997
-0.21410489 -0.036623411 0.0046071485 0.96483654 0.26284376 -0.0018730119 6.2968815e-05
-0.4722048 -0.026730213 0.0015284494 0.99997747 -0.0067043151 -0.00041736176 0
-0.21705624 -0.026061162 0.004700426 0.97462475 0.22346465 0.013045263 0.00077992654
0.2253349 -0.020906605 0.0012389868 -0.9863435 0.16468461 -0.0023045389 0.0012445409
0.47116977 -0.020793673 0.0099440515 -0.99991405 0.013111985 4.0593692e-05 0
-0.22062469 -0.011024535 0.00069221109 0.9918288 0.1266623 0.01524192 0.0023355621
0.22602491 -0.01821767 0.0011919215 -0.98589218 0.16735287 0.003119827 0.0010916598
0.47125545 -0.014244311 0.0045060865 -0.99991405 0.01311193 3.7842532e-05 0
0.2284414 -0.0037542742 0.0025640193 -0.99451995 0.10454477 0.00069384731 0.00092485658
0.47134155 -0.0076804766 0.003335394 -0.99991399 0.013120112 3.8130784e-05 0.00016192277
-0.4717913 0.0047770217 0.0098526329 0.99991411 -0.013112187 -3.4729845e-05 0.00016825926
0.22833309 0.0062194951 0.0042489953 -0.99868762 0.051094078 0.0035331431 0.00088285882
0.47152692 0.0064450456 0.006514661 -0.99991399 0.01311378 3.7869064e-05 0
-0.47161686 0.018088052 0.0061957389 0.99991405 -0.013110493 -3.8249178e-05 1.326652e-05
-0.22090018 0.014348973 0.0053453445 0.99994093 0.010870162 -8.2753402e-05 1.6704309e-05
-0.22103861 0.027082954 0.0055886097 0.99985862 -0.016761422 0.0012949194 0.00058742781
-0.22113545 0.03598436 0.0049714381 0.99933451 -0.036448423 0.0013805474 0.0010923358
0.4718959 0.034589246 0.0031342283 -0.99991411 0.013105507 3.8830487e-05 0
-0.22116151 0.045763448 0.0040630428 0.99246323 -0.11980805 -0.025745951 0.0026445289
0.22787753 0.048128538 0.0054125758 -0.99074149 -0.13404436 0.021525288 0.001908945
0.47203106 0.044898897 0.0018168576 -0.99991387 0.013120092 3.821477e-05 0
-0.21891385 0.054780424 0.00017896667 0.98169512 -0.18747585 -0.033577792 0.001931014
0.47211105 0.051002953 3.9160252e-05 -0.99993235 0.011626709 -0.00011935757 0
-0.21752027 0.060244508 0.0044331551 0.97788596 -0.20897162 -0.0083614187 0.0009109464
0.2229529 0.068092234 0.0057490654 -0.96463281 -0.26357388 0.0035147045 7.3701209e-05
0.47230047 0.065434918 0.0037382329 -0.9999913 -0.004185047 -0.00015694495 5.44867e-05
0.22173426 0.072443441 0.0045973659 -0.96435755 -0.26458856 0.0027258233 6.4848507e-05
-0.47072768 0.085889801 0.0070193456 0.99962443 -0.027404804 -2.6040831e-05 0
-0.20764166 0.098721266 0.0013067164 0.94853991 -0.31661808 -0.0050088218 0.0010207135
-0.47023621 0.10036739 0.0076121725 0.99858284 -0.053218424 -0.00030134589 3.2747183e-05
-0.20336233 0.10868423 0.0061773695 0.89751548 -0.44088662 0.0092177857 0.001148248
0.47046685 0.10223779 0.0069230422 -0.99735308 -0.07270921 -0.00038440179 0
-0.46963331 0.11008426 0.0021146499 0.9983477 -0.057409994 -0.0024423695 0.00011819913
0.20672089 0.11631529 0.0045519071 -0.89229345 -0.45144615 -0.0029455107 0.0012424003
0.46977463 0.11161317 0.001847893 -0.99727553 -0.073766164 -0.00022075523 4.6190115e-05
0.46850032 0.12883571 0.0050691813 -0.99727821 -0.07372997 -0.00021872137 3.1606571e-05
-0.18806714 0.1358421 0.0058115777 0.87019855 -0.49268687 0.0037680748 2.4557801e-05
-0.46754164 0.14373606 0.0034352243 0.99807882 -0.061957341 -0.00018149674 9.6358832e-05
-0.18522212 0.14092374 0.0096581951 0.8477264 -0.5301609 0.017012246 0.00086648064
0.18770118 0.14847712 0.0054205284 -0.82257938 -0.56865025 -6.1244546e-06 0.0010193686
0.19153675 0.14199454 0.0056720823 -0.85134673 -0.52453864 0.0082397657 0.00046121905
-0.46690521 0.1539661 0.0069128871 0.99807328 -0.062045898 -0.00017887408 0
-0.17924152 0.15151645 0.006087142 0.81862319 -0.57431549 -0.0042152302 0.0025527542
0.18370834 0.15522471 0.0050594863 -0.79994988 -0.59997261 0.010627996 0.0018603365
0.46646318 0.15637966 0.0067448118 -0.99727571 -0.073764317 -0.0002155174 0
-0.46616817 0.16584349 0.00051893294 0.9980728 -0.062053699 -0.00018007083 0
-0.17088626 0.16132502 0.0040932 0.76124269 -0.64843827 -0.0061115436 0.0020962302
-0.16816857 0.16412514 0.0070760548 0.75317264 -0.65766835 0.01426003 0.0016486794
0.1671913 0.17271245 0.0034150779 -0.70699012 -0.70721024 0.0043158308 0.00013775504
-0.14777936 0.18496874 0.0081596151 0.69906253 -0.71499157 0.0099357041 0.00053050113
0.46433923 0.18511002 0.004262405 -0.99727654 -0.073752776 -0.00021614882 0
-0.46441919 0.19396129 0.0090663135 0.99807018 -0.062095083 -0.00016951324 0
-0.13341248 0.19841212 0.0018370897 0.59625345 -0.80278009 0.0050911242 0.0017933077
0.46356773 0.19553377 0.0075168982 -0.99491161 -0.10048876 -0.0072659487 0.00015604059
-0.46359813 0.20718299 0.0052916557 0.99777341 -0.066644728 -0.0025940791 5.8901001e-05
-0.12755024 0.20189941 0.0043554977 0.56425172 -0.82560235 0.00080870732 0.0016640312
0.12382266 0.20860353 0.002281934 -0.51050597 -0.85985702 0.0054461639 0.00034158234
-0.46302027 0.21648601 0.0034289956 0.995107 -0.098008744 -0.01250195 0.00087966898
-0.099747367 0.21833822 0.0032539219 0.48075107 -0.87684953 0.0036629182 0.00042931701
0.46045813 0.21718363 0.0047952179 -0.97826755 -0.20714603 0.0091153486 0.0010980529
-0.46238935 0.22664721 0.0001358334 0.9896065 -0.14366916 -0.006174834 0.0028888544
-0.056016114 0.2351094 0.0079147816 0.26916641 -0.96306521 0.007409723 1.9904868e-05
0.047208741 0.23923367 0.0039033741 -0.22011158 -0.97546345 0.004679258 0.00055692083
0.056666017 0.23679686 0.0024300218 -0.24843405 -0.96862006 0.007456664 5.874244e-05
0.069573492 0.23351631 0.0063035488 -0.25684044 -0.96642518 0.0074370056 7.6122065e-05
0.07701835 0.23157126 0.0016604066 -0.26953876 -0.96298629 -0.0025120876 0.00033087723
-0.4582172 0.24085595 0.00068549439 0.94487178 -0.32723954 0.011470032 0.0034974837
-0.03534577 0.24084261 0.0022336692 0.18259236 -0.98282981 0.026561053 0.0024124517
-0.024731584 0.24284881 0.0034328252 0.10647152 -0.9940387 0.023472868 0.0025196485
-0.0041884282 0.24304451 0.00034064054 0.011343123 -0.99990487 0.0078495936 2.1823394e-07
0.01212851 0.24324837 0.0041776448 -0.0068937568 -0.99994123 0.0083689969 0.00032832476
0.027131569 0.24343306 0.0073492974 -0.088852778 -0.99570912 0.025854228 0.0016606057
0.037331712 0.24180624 0.0090323389 -0.17141245 -0.98483753 0.026696788 0.0016892483
0.45229852 0.24631017 0.0084962994 -0.96294236 -0.26970616 -0.00077836931 0
-0.45063645 0.25772917 0.0095623881 0.91238534 -0.4093307 -0.0011846314 8.6364471e-06
-0.44515812 0.26995805 0.0038433075 0.91236734 -0.40937087 -0.0011722583 2.8434517e-05
0.44695172 0.26542136 0.0022200942 -0.96294349 -0.26970229 -0.00078191003 0
-0.44254941 0.27577645 0.0027984381 0.91235632 -0.40939519 -0.0012079626 6.7067587e-05
0.4442237 0.27514225 0.0091854334 -0.96294361 -0.26970163 -0.0007880737 0
-0.4403097 0.2807554 0.0075254291 0.91242272 -0.40924719 -0.0011826694 0
0.44045734 0.28860989 0.0024217069 -0.96294481 -0.26969719 -0.00077940139 4.9281949e-05
-0.43519232 0.29216656 0.0063486993 0.91242385 -0.40924469 -0.0011680238 4.0549608e-06
0.43765429 0.29861435 0.0038513839 -0.96295154 -0.26967335 -0.00078099209 0
-0.42786831 0.30849689 0.0050591528 0.91232795 -0.40945864 -0.0012042749 0
0.43505993 0.30787197 0.0057823583 -0.96160942 -0.27442068 0.00080234709 2.5633577e-05
-0.42580438 0.31309593 0.0057509467 0.91233277 -0.40944788 -0.001154614 6.2099905e-05
0.43419361 0.3109611 0.0072550997 -0.96177989 -0.27382129 0.001169181 6.7894522e-05
-0.42183656 0.32194084 0.0057967976 0.90299314 -0.4296307 0.0045712162 0.00068960793
-0.41647163 0.33389556 0.0074579641 0.85825354 -0.51322562 0.0005333962 0.0039569591
0.42827311 0.33108598 0.0070869909 -0.859864 -0.51006609 -0.021597553 0.011110137
-0.40730375 0.34722224 0.0014190674 0.78641021 -0.61760825 -0.010907194 0.0038407394
0.40993845 0.34990436 0.006907329 -0.7172578 -0.69680136 -0.0030266261 2.2997332e-05
-0.39764488 0.35661915 0.0057210177 0.71419555 -0.69994545 -0.001020967 0.00070266839
0.40595371 0.35399756 0.0057265311 -0.71590561 -0.69819409 -0.0020324956 0
-0.38525087 0.36869738 0.0042045563 0.69797254 -0.71612149 -0.0020916804 0
-0.36443096 0.38897532 0.0056431144 0.69777107 -0.71631783 -0.0020723119 7.553945e-05
-0.36013126 0.39317739 0.0010046065 0.69773698 -0.71635103 -0.0020777767 6.4552747e-05
-0.34779528 0.40518022 0.0059993267 0.69786507 -0.71622628 -0.0020300639 2.6360975e-05
-0.34057057 0.41221493 0.0071644336 0.69803298 -0.71606284 -0.0020044947 0
0.34734115 0.4141463 0.0086324513 -0.70672852 -0.70747757 -0.0032101497 0.00038652724
0.35130841 0.41007417 0.0087971538 -0.71616298 -0.6979301 -0.0020446784 1.790354e-05
0.33588144 0.4259215 0.0039986577 -0.58189374 -0.81326467 -0.0003945858 0.0093072997
0.30923986 0.43727446 0.0038729757 -0.33549491 -0.94199765 0.0091452841 0.00080054393
0.31605262 0.43506464 0.0028008223 -0.37409776 -0.92716622 0.020334402 0.0015835607
-0.28804165 0.44727507 0.0029441044 0.33232167 -0.94316429 -0.0018441678 0
0.27223742 0.44929105 0.0047280937 -0.30891922 -0.95108426 -0.0027536936 5.3227235e-05
-0.25627702 0.45830512 0.0093898177 0.32859531 -0.94446683 -0.0027548037 0
0.24751383 0.45731539 0.0069268346 -0.30897003 -0.95106781 -0.0027491529 1.1465959e-05
-0.23432536 0.46595234 0.0053218156 0.32849783 -0.94450068 -0.0027404274 6.3503598e-05
-0.20070979 0.47712705 0.0032314546 0.14453687 -0.98910457 0.027950302 0.0022452476
-0.18741789 0.47812349 0.004365867 0.098838225 -0.99506879 0.0083125168 0.0010431205
-0.16411638 0.47986788 0.007200256 0.07495781 -0.99718255 -0.0028841442 0.00012407528
0.12013833 0.47988796 0.0075985044 -0.098408289 -0.99514186 -0.0028831128 0
0.15336639 0.476614 0.0033191517 -0.098688565 -0.9951148 -0.0026689356 0
0.1630816 0.47565913 0.0012257546 -0.098500669 -0.99513274 -0.0028797069 0
0.17664953 0.47429961 0.0073098689 -0.10278141 -0.99470085 -0.0025114736 0
0.20567663 0.47089657 0.009795174 -0.20440085 -0.97831547 -0.033450238 0.0018232011
-0.1447317 0.48133072 0.0055131814 0.074979968 -0.99718088 -0.002895734 9.1440423e-05
-0.13212836 0.48227572 0.0066940188 0.075033732 -0.99717677 -0.0028836131 0
-0.1285899 0.48253649 0.0086522698 0.074973613 -0.9971813 -0.0028870632 0
-0.11451359 0.48360628 0.0052431524 0.075117044 -0.99717045 -0.0028890974 0
-0.094977573 0.48507702 0.0053308606 0.073130511 -0.99732178 -0.0011417224 0
-0.08423996 0.48589891 0.00070415437 0.06560614 -0.99782813 -0.0059063355 0
-0.07557857 0.48653415 0.0065686107 0.038176011 -0.9992367 -0.0082777645 0.00026423941
-0.063097715 0.4867965 0.0047767609 0.0077139521 -0.99992388 -0.0096273432 0.00018555009
-0.052340083 0.48665923 0.0037666708 -0.0088641951 -0.99995345 -0.0038134374 0
-0.030914124 0.48638859 0.00079801679 -0.013030977 -0.99991089 -0.0028868611 1.440933e-05
-0.021422332 0.48626059 0.0023018792 -0.013039019 -0.99991089 -0.002879766 0.00012917406
-0.014826283 0.4861747 0.0022626892 -0.013057358 -0.99991059 -0.0028857158 0
0.014333012 0.48578623 0.0047224537 -0.013093235 -0.99991012 -0.0029000142 6.8550245e-05
0.073642567 0.48450792 0.0002592504 -0.067441925 -0.99771738 -0.0034098029 0.00014045165
0.10831033 0.48105618 0.00816679 -0.098426737 -0.99514008 -0.0028842299 0
-0.13415638 -0.48004785 0.016062006 0.082256399 0.99660701 0.0028855698 0
-0.11818843 -0.48136324 0.015372843 0.082220748 0.99660999 0.0028832317 0
-0.10792196 -0.48221725 0.017791495 0.082223885 0.99660975 0.0028844639 0
-0.070911497 -0.48514193 0.01099968 0.043459535 0.99905515 0.00031373123 0.00020296742
-0.057730719 -0.48532468 0.014412254 0.016107047 0.99986112 0.0042807437 6.145447e-05
-0.020111479 -0.48580801 0.010961771 0.013102773 0.99990994 0.0028953776 5.7908237e-05
0.00013378263 -0.48607296 0.010780454 0.013112004 0.99990982 0.0028956896 0
0.019795515 -0.48633772 0.01316756 0.013107073 0.99990982 0.0028998698 3.5222401e-05
0.036555503 -0.48656693 0.0164157 0.013115766 0.99990982 0.0028954197 2.2100359e-05
0.04483347 -0.48666313 0.012158647 0.0072487257 0.9999693 0.0029649918 3.837403e-05
0.072553724 -0.48658657 0.016809195 -0.022217086 0.99965918 0.013709788 0.00011503033
0.10661261 -0.48467013 0.013139643 -0.055981643 0.99842745 0.0029238409 0
0.11861986 -0.48400486 0.015408769 -0.055892177 0.99843258 0.0029021904 7.4667165e-05
0.18341169 -0.48037738 0.014726922 -0.082132906 0.99661422 -0.0037852323 0.0009492971
-0.21109079 -0.47095937 0.011567496 0.35194442 0.93561536 0.027550893 0.0049317027
-0.2004247 -0.47458458 0.017426983 0.21526487 0.97650611 0.0098367874 0.0063825324
-0.18966661 -0.47546703 0.015657961 0.16523531 0.98592037 0.025657833 0.0042867633
-0.14407407 -0.47922379 0.014037944 0.082187183 0.99661273 0.0028930684 0
0.20637888 -0.4759973 0.018423364 -0.368339 0.92954278 -0.016632175 0.0045148437
-0.22725444 -0.46134955 0.013919339 0.5063917 0.86230278 0.0011396933 9.5742405e-05
-0.21800989 -0.46685207 0.014756396 0.43764123 0.89912236 -0.0070094266 0.0032296474
0.23316568 -0.46098405 0.014286786 -0.48850906 0.87255526 0.0025141279 1.571529e-05
-0.24910666 -0.4483549 0.016141966 0.51136756 0.85935855 0.0024817868 0
0.26677686 -0.44217342 0.018583462 -0.48859605 0.87250644 0.0025245773 6.7483408e-05
-0.28345272 -0.42790392 0.010404795 0.51135677 0.85936487 0.0025042084 0
0.29466611 -0.42653513 0.011785954 -0.48862526 0.87249005 0.0025303846 0
0.30313447 -0.42181131 0.018237188 -0.49393061 0.86949176 0.0041026752 0.00012440383
-0.32254598 -0.40467292 0.019971728 0.58922648 0.80796784 0.00044582196 0.002072009
-0.31512177 -0.40907538 0.014942184 0.54704005 0.83706361 0.0084580733 0.0010246356
0.33065343 -0.4024013 0.012589678 -0.67346841 0.73920661 -0.0037071113 0.00081466505
-0.33513287 -0.39269021 0.010037716 0.69507521 0.71892965 -0.0032550008 0.00067248894
-0.34404525 -0.3835679 0.018665858 0.71625906 0.69783163 0.0020117937 6.1708532e-05
-0.33841512 -0.38932154 0.010083754 0.70840615 0.70580429 -0.0010378964 2.2280317e-05
0.34511358 -0.38832754 0.017023891 -0.69775325 0.71633512 0.0020713906 0.00010440953
0.35162103 -0.38197041 0.010898709 -0.69774485 0.7163434 0.0020649519 0
-0.34885943 -0.37861979 0.016229451 0.71605277 0.69804299 0.0021132706 0
0.35597628 -0.37774664 0.017446965 -0.69786143 0.71622986 0.0020647042 0
-0.36379969 -0.36327896 0.013871234 0.71620369 0.69788837 0.0020203902 6.1695624e-05
-0.36886403 -0.35808742 0.016022213 0.71625173 0.69783908 0.0020303123 5.8829311e-05
0.37868658 -0.35562938 0.01965116 -0.69795287 0.71614075 0.0020350923 0
0.38873276 -0.34582707 0.014242674 -0.69778651 0.71630269 0.0020784975 0
0.39444438 -0.34027821 0.019512847 -0.69795907 0.71613473 0.0020419257 0
-0.38689941 -0.33957222 0.014469683 0.71613544 0.69795835 0.0020487213 8.7844121e-05
0.3966063 -0.33815727 0.0143586 -0.69795263 0.71614081 0.0021096934 0
0.40223205 -0.33267206 0.012711257 -0.69796604 0.71612769 0.0021263235 0
-0.40365726 -0.32236156 0.010616139 0.71620703 0.69788492 0.0020348839 1.6987925e-06
0.40745521 -0.32759735 0.017387077 -0.73037034 0.68300807 0.007693273 0.0020353841
-0.41264018 -0.31315604 0.015504147 0.74800193 0.66367555 0.0052870233 0.0017657633
-0.42429441 -0.29596841 0.013091291 0.88034946 0.47421512 -0.01023919 0.0033037658
0.42605579 -0.29640374 0.014607158 -0.94234985 0.33456996 -0.0063027353 0.0014182641
-0.43918023 -0.25366259 0.012891035 0.9433257 0.3318671 0.00097559119 1.6475295e-05
0.44004136 -0.25139329 0.017567441 -0.95495981 0.29673386 0.00086446124 0
-0.44172949 -0.24642777 0.016399965 0.94330412 0.33192822 0.00095664308 0
0.44049811 -0.24991986 0.016474262 -0.95495981 0.29673386 0.00086446124 0
-0.44817942 -0.2280972 0.016139306 0.94329947 0.3319416 0.00096190517 7.4119358e-05
0.44852576 -0.22406393 0.01118359 -0.95496255 0.296725 0.00085395464 0
0.45229053 -0.21195695 0.015235227 -0.96163148 0.27402347 0.013265719 0.00032223199
-0.042814739 -0.2012479 0.016554892 0.24556836 0.96935391 -0.0070112785 0
-0.025627177 -0.20542972 0.016375579 0.15887193 0.98723602 -0.011168385 0.0010012217
0.0086985976 -0.20588383 0.011659533 -0.010872494 0.99991131 -0.007692833 2.207827e-06
0.042767864 -0.20353633 0.018054441 -0.19692409 0.98041737 -0.0016024964 0.0023165364
-0.080490291 -0.19161677 0.011513084 0.36646858 0.93034399 -0.012675129 0.0031300038
-0.05627697 -0.19778657 0.017343625 0.24860227 0.96857697 -0.0074509121 2.5374588e-06
0.056460217 -0.19971952 0.016769677 -0.25784022 0.96618712 -0.00099121605 0.00023259109
0.072966471 -0.19512731 0.014051571 -0.28406984 0.95876849 -0.0082028285 0.00036979659
0.08486373 -0.19178283 0.01657781 -0.34321898 0.93924898 -0.0034744951 0.0020898762
0.45760244 -0.19220245 0.013842945 -0.98229492 0.18717211 0.0079552019 0.0010514685
-0.09235353 -0.18503709 0.010675125 0.48764914 0.87299842 -0.0084907748 4.0122566e-05
0.097691074 -0.18662669 0.011760488 -0.42114949 0.90696532 0.0068596532 0.0028707732
0.10201727 -0.18402904 0.016754717 -0.45871189 0.88857883 0.0033305017 0.0018296435
-0.11411037 -0.17278634 0.010662362 0.49199149 0.87057096 -0.0071133431 0
-0.10607616 -0.1772778 0.014877856 0.49017802 0.87159806 -0.0065192631 0
0.11513448 -0.1763159 0.01069653 -0.507855 0.8614291 -0.0048176497 3.3758515e-05
-0.46778649 -0.16222672 0.014174674 0.99685776 0.078687251 -0.0091029033 0.0012466554
-0.13276249 -0.16208911 0.011971906 0.60405803 0.79689008 -0.0089519685 0.0020862743
-0.12266444 -0.16791537 0.017721862 0.53074551 0.84718728 -0.024142375 0.0014120647
0.1307321 -0.16703463 0.017742462 -0.52940339 0.848355 -0.005083831 0.00035755325
-0.4680585 -0.15532778 0.015649274 0.99861598 0.052393503 -0.00459101 0.00012363827
0.46171373 -0.15134452 0.014400959 -0.99497849 0.10008935 0.00030320301 5.6006861e-06
0.15825194 -0.14438727 0.016802676 -0.70870751 0.70548248 -0.0052992287 0.00012985022
-0.4688783 -0.1345091 0.010664284 0.99922448 0.039374888 0.00011268391 0
-0.46917185 -0.12707384 0.015204276 0.99922407 0.039385609 0.00012468036 0
-0.17450298 -0.12123168 0.012713403 0.79448092 0.6072185 -0.0092581781 0.0018451588
-0.16916497 -0.12640366 0.019523203 0.76292002 0.64524776 -0.040104009 0.0021201873
0.17335118 -0.12898856 0.013328284 -0.72887117 0.68465036 -0.00084465567 0.00064960297
-0.46948537 -0.11910816 0.01238215 0.99922431 0.039379731 0.00012135797 5.5188691e-05
