# .PCD v0.7 - Point Cloud Data file format
VERSION 0.7
FIELDS x y z normal_x normal_y normal_z curvature
SIZE 4 4 4 4 4 4 4
TYPE F F F F F F F
COUNT 1 1 1 1 1 1 1
WIDTH 582
HEIGHT 1
VIEWPOINT 0 0 0 1 0 0 0
POINTS 582
DATA ascii
0.23567702 -0.34275812 -0.20013463 -0.51528871 0.85701662 7.1096201e-06 1.9387271e-05
-0.25450888 -0.33273876 -0.20643993 0.49523219 0.86875272 0.0037216675 0.00010798754
-0.16036257 -0.31195685 -0.20197096 0.8366586 0.50300574 0.21676636 1.0615305e-05
-0.15908988 -0.31481928 -0.20024002 0.83664906 0.50302881 0.21674968 6.9140342e-06
0.27649668 -0.31821454 -0.20490748 -0.58143872 0.81353766 -0.0092516169 0.0020466894
0.28602228 -0.31208086 -0.20802349 -0.65909433 0.75205094 0.0037578424 0.0019395523
-0.29317984 -0.30268914 -0.20550044 0.69455123 0.71944332 7.2779963e-05 0
-0.28850639 -0.30719951 -0.20207493 0.69441658 0.7195732 1.1651114e-05 0
-0.16363202 -0.30313939 -0.20981592 0.83667153 0.50301933 0.21668471 3.4427983e-05
0.29526916 -0.30249971 -0.20844935 -0.69765353 0.71643192 -0.0022007558 0.00077430031
-0.29835892 -0.29769072 -0.20895475 0.69438761 0.71960109 2.0636364e-05 1.5383637e-05
0.29892296 -0.29871386 -0.20187443 -0.70879781 0.70541131 0.00079964462 0.0003939601
0.30714178 -0.29019791 -0.20194314 -0.71956646 0.69442356 3.4639077e-05 1.4069712e-05
-0.30774233 -0.28863475 -0.20318256 0.69460827 0.71938819 4.6799419e-06 0
-0.17748407 -0.28190207 -0.20563608 0.83659297 0.5031268 0.21673888 0
0.31660259 -0.28039512 -0.2025059 -0.71953976 0.69445127 -9.2696246e-05 6.1239356e-05
-0.32406929 -0.27287737 -0.2041668 0.69455194 0.71944261 1.5356274e-05 0
-0.18026318 -0.27660871 -0.20719413 0.83655483 0.50317001 0.21678515 0
0.32244226 -0.27434435 -0.20517842 -0.71950018 0.69449234 4.8675003e-05 5.1004017e-06
-0.18889785 -0.26367509 -0.20388149 0.83663625 0.50304639 0.21675804 2.5128606e-05
-0.34301722 -0.25459051 -0.20966253 0.70410436 0.71008372 -0.0042745806 0.00021621521
-0.19543946 -0.25417033 -0.20069011 0.83667409 0.50298911 0.21674486 7.0734146e-05
0.33842868 -0.25778005 -0.20093498 -0.71960574 0.69438285 -4.100562e-05 6.2181462e-05
0.34540874 -0.25054765 -0.20948595 -0.71953285 0.69445843 -6.871068e-05 2.8936523e-05
-0.3493768 -0.24845284 -0.20778279 0.73536474 0.67765605 -0.0045887125 0.0011797202
-0.20144242 -0.24435404 -0.20030114 0.83662462 0.50305676 0.21677926 7.5754788e-06
-0.19960818 -0.24465112 -0.20669228 0.83666939 0.50299138 0.21675801 1.52864e-06
0.34722674 -0.24866393 -0.20810474 -0.7195617 0.69442856 -4.3724453e-05 0
-0.36170936 -0.23409082 -0.20866795 0.80408061 0.59429282 0.01644435 0.0020514333
-0.20684625 -0.23348756 -0.20466253 0.83664238 0.50304538 0.21673681 5.024928e-05
-0.36563492 -0.22756195 -0.20061918 0.82974118 0.55808717 0.0082674753 0.00086332817
-0.21214366 -0.22506246 -0.20376816 0.83663791 0.50305796 0.21672499 2.3111899e-05
-0.2096184 -0.22719391 -0.20856921 0.83665371 0.50302547 0.21673901 2.5200712e-05
0.36691859 -0.22826025 -0.20551546 -0.80202848 0.59726441 -0.0050404579 0.0032229186
-0.37274384 -0.21573859 -0.2027528 0.85698265 0.51534522 4.2125077e-05 0
0.37459379 -0.2152968 -0.20494461 -0.86725301 0.49782014 0.0068715271 0.00046511306
-0.37817982 -0.20669779 -0.20143561 0.85699677 0.51532173 3.2896114e-05 5.7934576e-05
0.37817788 -0.20882641 -0.20474616 -0.87199825 0.48949769 -0.0033399975 6.0126196e-05
-0.38496482 -0.19541325 -0.20804885 0.85699058 0.5153321 -7.1914743e-05 3.345423e-06
-0.22954163 -0.19624859 -0.20348567 0.83662659 0.50306571 0.21675044 2.2352033e-06
0.38784462 -0.19137488 -0.20907776 -0.87474501 0.48458356 -9.147128e-05 6.4565931e-05
-0.39274281 -0.18247724 -0.20175734 0.85700727 0.51530433 -3.3353908e-06 2.5237981e-05
0.38885725 -0.18954682 -0.20372388 -0.87474263 0.48458782 -7.1550153e-06 0
0.3929221 -0.18220848 -0.20494911 -0.87473834 0.48459545 -5.3663625e-05 0
-0.39660737 -0.17604983 -0.2057341 0.85700899 0.51530135 -1.832172e-05 2.7612816e-05
-0.24297258 -0.17312577 -0.20530784 0.83661634 0.50307572 0.21676709 0
0.39692181 -0.17498779 -0.20770481 -0.87475169 0.48457161 2.4772949e-05 6.1728533e-05
-0.40474695 -0.16251241 -0.2013588 0.85703588 0.5152567 4.4904147e-05 0
-0.2475795 -0.16463363 -0.20723447 0.83663684 0.50305021 0.21674691 0
0.39980575 -0.16978136 -0.20101731 -0.87472212 0.48462483 -5.0805214e-05 0
-0.41109872 -0.15194836 -0.20307493 0.86840034 0.49586111 -0.0016343864 0.00060608902
-0.25541678 -0.15291861 -0.20417152 0.83664423 0.50306582 0.216682 0
0.40579164 -0.15897498 -0.20790838 -0.87475598 0.48456368 -6.5268287e-05 1.7250391e-05
-0.41612053 -0.14359628 -0.20846657 0.88769543 0.46039286 -0.005934733 0.0014351157
-0.26077616 -0.14547914 -0.20075028 0.83661187 0.50308216 0.21676931 0
-0.42152756 -0.13139857 -0.20386773 0.93705541 0.34746623 -0.034560677 0.0013766271
-0.26631153 -0.13398734 -0.2060554 0.83664757 0.50304025 0.2167289 0
0.41819018 -0.13659167 -0.20274764 -0.89021456 0.45552585 -0.003776374 0.0010767797
-0.42298284 -0.12632908 -0.20322247 0.93852067 0.34424496 -0.025968213 0.0011859334
-0.27190238 -0.12375317 -0.20822704 0.83666575 0.50300819 0.21673307 3.1182481e-05
-0.26995876 -0.12961224 -0.20213073 0.83662903 0.50306934 0.21673299 0
0.42509699 -0.12412273 -0.20585471 -0.92870408 0.37081733 0.0017814997 0.0021844802
-0.42653367 -0.11395986 -0.207461 0.96039516 0.27863944 0.0010618351 0
-0.42876291 -0.10619435 -0.20357615 0.96116221 0.27598411 -6.3169259e-06 6.0758797e-05
-0.43307722 -0.091165572 -0.20638672 0.96116984 0.27595738 3.9426719e-05 0
-0.0081153307 -0.091000214 -0.20275611 0.064659245 0.99790651 -0.0013308544 0.001886964
0.43337148 -0.092859358 -0.2075474 -0.97036844 0.24163005 1.0663379e-05 2.7294931e-05
-0.43494821 -0.084648006 -0.20328262 0.96117169 0.27595085 -1.1251819e-05 3.7493333e-05
-0.031867739 -0.086556882 -0.20385392 0.23463883 0.97208095 0.0018337169 0.00061770127
-0.026817983 -0.087591499 -0.20461302 0.21507344 0.97659671 -0.0015117938 0.00043782304
0.010440116 -0.089890845 -0.20562749 -0.084477566 0.99641746 -0.0039708437 0.00088617194
0.033333287 -0.086484283 -0.20240788 -0.23340347 0.97236645 0.0051239207 0.0021878725
0.044154264 -0.082880087 -0.20748153 -0.31364408 0.94953883 -0.0018192328 0.00026703542
0.43527162 -0.085228622 -0.20946378 -0.97036004 0.24166383 -7.5056145e-05 0
-0.43886143 -0.071016327 -0.20678519 0.96116132 0.27598721 -5.8283636e-05 0.00010127151
-0.070175037 -0.071165681 -0.20035905 0.51770854 0.85545409 -0.013275105 0.0016033051
-0.062266175 -0.075122468 -0.2063033 0.47897598 0.87782735 0.0010449006 0.00053399504
0.058024514 -0.07826025 -0.2050904 -0.42753267 0.90393889 -0.010501756 0.0029123882
0.062611543 -0.075782031 -0.20411764 -0.48847529 0.87253624 0.00850375 0.0019205929
-0.43941253 -0.06909655 -0.20347145 0.96116906 0.27596021 2.2850485e-05 1.2751096e-05
0.081815273 -0.063109279 -0.20383005 -0.6124506 0.79047745 -0.0070440127 0.0021381285
0.43995512 -0.066420138 -0.20714174 -0.97036582 0.24164046 6.9123835e-06 0
0.44081536 -0.062965602 -0.20340165 -0.97036362 0.2416497 -3.5799709e-05 0
-0.44293588 -0.056823131 -0.20483285 0.96118224 0.27591446 1.6408179e-05 1.9447414e-05
-0.094242021 -0.052272223 -0.2067246 0.70891047 0.70506817 0.018026933 0.0013294942
-0.089198843 -0.056746393 -0.20097335 0.66138697 0.75001544 -0.0066431947 0.0010390368
0.4425014 -0.056194663 -0.20477724 -0.97036135 0.24165833 -5.5288612e-05 0
-0.44577694 -0.046926402 -0.2070947 0.96116418 0.27597716 0.0001336242 0
-0.098644704 -0.048366301 -0.20711559 0.73145616 0.68138236 0.026269076 0.0015510151
-0.44824517 -0.038328316 -0.20726115 0.96851778 0.2488685 -0.006138464 0.00057370303
0.10659808 -0.038747702 -0.20162877 -0.7802332 0.62543631 0.0080903796 0.000793927
0.11143593 -0.033294559 -0.20564228 -0.78594017 0.61827922 0.0053750481 0.00078475889
0.44818178 -0.033382818 -0.20400792 -0.97036606 0.24163981 -6.5466818e-05 1.8764367e-05
-0.45121413 -0.027985981 -0.20627871 0.97697186 0.21297932 -0.012878313 0.0017292567
-0.11852171 -0.021107331 -0.20607676 0.87225372 0.48904696 -0.0025521074 0.00231627
0.11470541 -0.028230697 -0.2063635 -0.84256649 0.53850299 -0.0098127527 0.0025598027
0.44947398 -0.028193552 -0.20036095 -0.97401971 0.22644731 0.0026634731 0.00026251507
0.45062542 -0.023569394 -0.20977581 -0.97452503 0.22424126 -0.0040959618 0.00059177051
-0.45282567 -0.017946918 -0.20076975 0.99222636 0.12370811 -0.013532422 0.002229654
-0.12137304 -0.016786627 -0.20114718 0.89185137 0.45221823 0.0099957427 0.002724393
0.11904699 -0.019552691 -0.20594198 -0.87859732 0.47740048 -0.012472101 0.0015085947
0.45352128 -0.011940126 -0.20371889 -0.98774624 0.15602845 0.003532595 0.0024881859
-0.45308524 -0.0033257641 -0.20886299 0.99960804 0.027868064 -0.0026643204 6.2423278e-05
-0.12639952 -0.0038734053 -0.20570807 0.93582815 0.35212764 0.015227446 0.00047387523
0.12664028 -0.0043751984 -0.20113437 -0.93560988 0.35155636 -0.032282788 0.0030457228
0.45475316 -0.00035345135 -0.20084165 -0.99714208 0.075486474 0.0030846605 0.0024122864
-0.453208 0.0035920134 -0.20749582 0.99980241 0.01987322 -0.00024263744 4.2412459e-05
-0.12888201 0.0035800699 -0.20624225 0.94164312 0.33621803 0.01629971 0.00097255956
0.1294639 0.0023854556 -0.20459093 -0.95739162 0.28769654 -0.025141319 0.0021848066
0.45474583 5.9685204e-05 -0.20630044 -0.99758595 0.069408052 -0.0022060825 0.0022931623
-0.45338076 0.01331961 -0.20718554 0.99984252 0.017745283 -3.8447841e-05 0
-0.1321699 0.013451668 -0.20937017 0.96876305 0.24798702 -0.00080563757 0.0011360026
0.45449436 0.01422406 -0.2049353 -0.99999374 -0.0030426548 0.0017762235 0.00019377875
-0.45354778 0.022729386 -0.20660636 0.99984235 0.017753497 -2.1024382e-05 0
0.13389674 0.024021756 -0.20195346 -0.98249948 0.18625383 -0.0020647575 0.001103836
-0.45380205 0.037052386 -0.20864402 0.99984258 0.017742889 3.5167595e-05 0
0.13583544 0.03442999 -0.2057223 -0.99869418 0.050969083 0.0034853998 0.0021475302
0.45407373 0.037917364 -0.20372979 -0.99984252 -0.017746832 9.8902638e-06 3.0340017e-05
-0.45386812 0.040771827 -0.20270748 0.99984282 0.017726796 0.00011351199 0
-0.13553537 0.043192025 -0.20670794 0.99991596 0.0067208256 0.011088433 0.0011379905
0.13569967 0.044336438 -0.20751961 -0.9998824 -0.015214488 -0.0019459705 0.0010026188
0.45391718 0.04673465 -0.20272379 -0.99984235 -0.017752111 1.3661638e-05 0
-0.45416784 0.057656061 -0.20513746 0.99984241 0.017750571 9.6933589e-05 6.4945445e-05
-0.13589002 0.055349287 -0.20458056 0.99414325 -0.10805268 0.0019317342 0.0019916624
0.45376515 0.055299696 -0.2022803 -0.99984229 -0.017759854 3.9614315e-05 0
-0.13420673 0.064737931 -0.20488572 0.98882365 -0.14908873 0.00057580508 0.00080953568
0.45363274 0.062757261 -0.2065562 -0.99984252 -0.017748803 -0.00017763909 0.00014003333
-0.45455444 0.079432592 -0.20256527 0.9998669 -0.016062139 0.0028474552 0.00087908487
-0.13173988 0.076778218 -0.20989478 0.97592473 -0.21797018 -0.0077360421 0.00074746489
0.13328804 0.073465474 -0.20454465 -0.98171294 -0.18864335 -0.025563469 0.0018938008
0.45340762 0.075439222 -0.20437986 -0.99984235 -0.017753066 3.1418483e-06 0
-0.45462355 0.083325677 -0.20676512 0.99933624 -0.036388148 -0.0017395111 0.0014321489
0.12950604 0.084820352 -0.20463707 -0.95521408 -0.29561856 0.013260638 0.0018273988
0.13019776 0.082743555 -0.20965245 -0.9605515 -0.27808234 -0.0033157479 0.0012558697
0.45328119 0.082558617 -0.2081769 -0.99984199 -0.017773435 8.9795714e-05 0
-0.45472348 0.094408467 -0.20631856 0.99620527 -0.086853832 0.005616535 0.0017800801
-0.12474746 0.098431736 -0.20207167 0.92213255 -0.38686043 -0.0032507838 0.0012754839
0.45313472 0.090809375 -0.2036818 -0.99974567 -0.022551185 0.00034973878 0.00025807589
-0.45188224 0.10879572 -0.20250149 0.9839617 -0.17799027 0.011784395 0.001223894
0.12151572 0.106844 -0.20535581 -0.90590429 -0.42333713 0.011094199 0.003031444
0.45289445 0.10434227 -0.20140046 -0.9969539 -0.07736399 -0.0098860785 0.0013420781
-0.45124793 0.111343 -0.20613088 0.98229778 -0.18732388 -0.00089769083 0.001013352
-0.11649238 0.11493238 -0.20639367 0.84320456 -0.53714067 -0.022045037 0.0015972803
0.11785264 0.11239485 -0.20473818 -0.86780268 -0.49671173 -0.013998308 0.0022302517
-0.44757009 0.12611276 -0.20341317 0.97037154 -0.24161741 -1.3020231e-05 2.8768451e-05
-0.11016925 0.12499588 -0.20658211 0.81372058 -0.58113527 -0.011859838 0.0018447927
-0.10720576 0.12833628 -0.20841703 0.78958488 -0.61362028 -0.0050853682 0.0018621276
0.44828039 0.12847891 -0.2065928 -0.9685784 -0.24870825 0.00015832359 0.00045982
-0.44507143 0.13614701 -0.20466773 0.97036362 -0.24164955 -2.9605326e-05 0
-0.1007862 0.13557224 -0.2004279 0.73709691 -0.67576796 -0.0050813048 0.0010046519
-0.099006161 0.13757867 -0.20170614 0.73782355 -0.67496204 -0.0065304763 0.0011088805
0.098590359 0.13868836 -0.20256963 -0.69103575 -0.72280759 0.004339579 0.00094392226
0.1029672 0.13467552 -0.20308228 -0.75762182 -0.65264595 0.0079054898 0.0035163632
0.44544503 0.13835606 -0.20386752 -0.96117026 -0.27595598 9.271584e-05 0
-0.44339371 0.1428844 -0.20092022 0.97036213 -0.24165525 3.0405785e-05 5.0565468e-05
-0.088589922 0.14891207 -0.206212 0.65105301 -0.75902981 -0.0019466378 0.002576398
0.089678742 0.14659449 -0.20016766 -0.64376044 -0.76522321 -0.0024359026 0.00061263336
0.09053386 0.14583585 -0.20210487 -0.64288723 -0.76591247 -0.0086092195 0.00063068687
-0.44141749 0.15082078 -0.20440936 0.97036552 -0.24164166 -6.0663406e-05 3.288727e-05
-0.43973044 0.15759569 -0.20460293 0.97035789 -0.24167261 2.9725781e-05 0
-0.082461089 0.15295662 -0.20334755 0.60464877 -0.79649216 0.00021747785 0.0023155874
-0.074468412 0.15823117 -0.20681992 0.54572415 -0.83789897 -0.010506785 0.00089726312
0.079811312 0.1553486 -0.20406768 -0.56800348 -0.82297212 -0.0094324751 0.0018430448
0.082400955 0.15305115 -0.20421396 -0.59084725 -0.80631894 -0.027371494 0.0017194569
-0.4380089 0.16450912 -0.20176885 0.97037077 -0.24162063 -6.8389119e-05 1.132834e-06
-0.066393055 0.16356027 -0.20430776 0.4934372 -0.869762 -0.0058153127 0.0021365858
-0.058126908 0.16849989 -0.20218909 0.43334207 -0.90120465 -0.0066992566 0.0029875042
0.058611095 0.16722476 -0.20450771 -0.4305574 -0.90256292 0.00072737457 0.0024558066
0.068788052 0.16213334 -0.20695871 -0.52445477 -0.85138339 -0.0096789673 0.0018542114
0.071463414 0.16079488 -0.20524326 -0.53361803 -0.84572393 0.0016833042 0.0019649833
0.43723738 0.16694747 -0.20375611 -0.96116781 -0.27596453 4.3652271e-05 0
-0.43498284 0.17666146 -0.20317498 0.97037607 -0.24159934 3.8475704e-05 0
-0.052326046 0.17043194 -0.20100401 0.38637236 -0.92231727 -0.0068670595 0.0022184413
-0.034296852 0.17643689 -0.2025068 0.24068519 -0.97051018 0.013442076 0.002209686
-0.026251385 0.17911656 -0.20345551 0.18412335 -0.98284018 -0.011126122 0.0028795325
-0.015008284 0.17989117 -0.20236467 0.10485001 -0.99446923 0.0061219176 0.0015882088
0.019966424 0.17926869 -0.20657027 -0.1331972 -0.99106395 0.0071158134 0.0015621104
0.025927857 0.17804733 -0.20339814 -0.2091365 -0.97785568 -0.0077515766 0.0007955535
0.033792518 0.17643599 -0.20619296 -0.26288646 -0.96481949 -0.0037424217 0.0014167448
0.43534517 0.17353885 -0.20396334 -0.96118742 -0.27589631 0.00011072165 0
-0.011424988 0.1801054 -0.20597306 0.10325798 -0.99464947 -0.0032073457 0.0017216634
-0.0052278615 0.18047589 -0.20612773 0.038557012 -0.99924266 -0.0052440264 0.0015277563
0.011080491 0.18108925 -0.20451152 -0.064589188 -0.99781388 -0.013981744 0.0027899914
0.43233928 0.18401009 -0.20697935 -0.96115971 -0.27599266 1.182649e-05 0
-0.42956856 0.19840421 -0.20823176 0.9616996 -0.27397853 0.0083427895 0.00052315055
0.42918733 0.19498983 -0.20107621 -0.96115673 -0.27600309 6.6651319e-07 0
-0.42276049 0.21861403 -0.20808271 0.91981941 -0.39233255 -0.0027239057 0.0018874467
0.42353928 0.21466488 -0.20330894 -0.94657087 -0.32233974 -0.010029547 0.0014934875
0.41996264 0.22712409 -0.20956442 -0.92028707 -0.39124197 0.0011562915 0.0031012886
0.42008027 0.2267143 -0.201456 -0.91892278 -0.39423043 -0.012779366 0.00289388
0.41468215 0.23626238 -0.20881633 -0.89185059 -0.452328 0.0013721425 0.0018602035
-0.41076475 0.24027006 -0.20178227 0.87475359 -0.48456803 1.7702461e-05 5.8412752e-05
-0.40736315 0.24641103 -0.20694812 0.87479615 -0.48449114 -3.4668636e-05 7.2627096e-05
0.41177076 0.2411045 -0.20745519 -0.87867481 -0.47736779 -0.0071087992 0.0013270542
-0.40250477 0.25518194 -0.20891233 0.87471753 -0.48463309 2.8516413e-05 6.1720661e-05
0.40521348 0.25201026 -0.20013206 -0.85770226 -0.51414686 0.00019622459 0.00011109553
-0.3978658 0.26355675 -0.20228946 0.87477821 -0.48452348 -0.00013078608 5.418306e-05
0.39676154 0.26606703 -0.20026842 -0.85694057 -0.51541525 0.00018917183 0
-0.3926183 0.2730301 -0.20741662 0.87472546 -0.48461881 3.134214e-06 0
-0.38912132 0.27934325 -0.20591763 0.87473953 -0.4845933 0.00011550888 0
0.38971773 0.27778202 -0.20266487 -0.85697377 -0.51536006 -0.00019335721 9.1460664e-05
0.39115095 0.27539834 -0.20163228 -0.85696179 -0.51537991 -6.6969769e-05 0
0.38634673 0.28338853 -0.20271863 -0.85697269 -0.51536179 -0.0001536911 0.00012978216
-0.38020363 0.29544246 -0.20926276 0.87408549 -0.48577169 -0.00064183085 2.9976067e-05
0.37752983 0.29805234 -0.20603424 -0.85699135 -0.51533073 -2.3413651e-05 2.4686966e-05
0.38011509 0.2937527 -0.20023823 -0.85697234 -0.51536232 -2.5326319e-05 0
-0.37679869 0.30158946 -0.20859018 0.86204958 -0.50682187 -0.0014305392 0.0004877387
0.37172824 0.30770129 -0.20861727 -0.85702223 -0.51527953 -7.0463693e-06 3.3031502e-06
-0.37108329 0.31190759 -0.20473865 0.83268613 -0.55374372 0.0012934337 0.0021520786
0.364968 0.3189446 -0.20184216 -0.82919896 -0.55892867 0.0052903858 0.0015981855
-0.360847 0.32482463 -0.20135203 0.76453197 -0.64454806 0.0069842697 0.0015082901
0.36337626 0.32159188 -0.20204009 -0.82292497 -0.5681107 -0.0066872644 0.0017820785
-0.35036051 0.33569026 -0.20347923 0.72116476 -0.69276041 0.0021073925 0
0.35173544 0.33644986 -0.20275243 -0.73092771 -0.68242139 -0.0067657293 0.0012085633
-0.34520969 0.34102729 -0.20203938 0.71959394 -0.69439512 7.2095436e-06 2.3901193e-05
0.34762076 0.34042102 -0.20968604 -0.72144127 -0.69240385 -0.0099670123 0.0010430526
-0.33491173 0.35169753 -0.20539618 0.7194218 -0.6945734 2.6142972e-05 0
-0.32931125 0.35750049 -0.20587954 0.71951997 -0.6944716 -7.7530007e-05 7.7116463e-05
-0.32484424 0.36212897 -0.20818064 0.71952587 -0.6944657 9.3348972e-06 0
0.3269304 0.36038953 -0.20168771 -0.69452238 -0.7194711 -0.00013805927 7.7467026e-05
-0.31354672 0.37383488 -0.20094441 0.71953434 -0.69445688 1.0659213e-05 8.4305488e-05
0.31614423 0.37079945 -0.20667058 -0.69443196 -0.71955842 -1.9705891e-05 3.3439515e-05
-0.30108941 0.38674253 -0.20091698 0.71793038 -0.69611466 -0.00057226705 0
0.29835874 0.38796449 -0.20058931 -0.69450247 -0.71949041 -6.3943546e-05 0.00010658605
0.30622599 0.38037166 -0.20166594 -0.69430846 -0.71967751 -5.0562281e-05 6.1905797e-05
-0.29358789 0.39451522 -0.20553574 0.70483476 -0.70937103 -0.00088188495 0.00052484992
0.29120681 0.39486688 -0.20148341 -0.69451642 -0.71947676 3.334957e-05 1.018677e-05
0.27702367 0.40855527 -0.20576769 -0.63483214 -0.77262509 -0.0062179067 0.0020086716
-0.26808536 0.41354552 -0.20492952 0.5334971 -0.84579736 0.0027581668 0.00025410971
-0.25681323 0.42032307 -0.20465624 0.51533782 -0.85698718 -5.3752032e-05 0.0001995187
0.24627925 0.42757088 -0.20414659 -0.48463717 -0.87471533 7.6941404e-05 2.0300996e-07
0.25127491 0.4248037 -0.2059474 -0.48474658 -0.87465459 5.9914892e-05 0
-0.23127727 0.43567693 -0.20611426 0.51524693 -0.85704172 -5.4821932e-05 4.161599e-06
0.22873916 0.43728667 -0.20351167 -0.48455602 -0.87476021 -0.00014585612 0.00012220863
0.2396825 0.43122494 -0.20967567 -0.484541 -0.87476861 4.7458529e-05 0
-0.223621 0.44028035 -0.20533723 0.51530069 -0.85700947 -3.5598339e-05 7.3863011e-05
0.20740294 0.44910526 -0.20581171 -0.4846108 -0.87472987 -4.1303625e-05 0
0.21616662 0.44425091 -0.20533834 -0.48461938 -0.87472516 6.3091276e-05 3.0528885e-05
0.22337498 0.440258 -0.20147055 -0.48457059 -0.8747521 -0.00010165948 5.0400115e-05
-0.20061739 0.45411164 -0.20990908 0.51535356 -0.8569777 4.026046e-05 0
0.19512433 0.45590663 -0.20434551 -0.48455262 -0.87476212 5.0755193e-06 0
0.20469019 0.4506079 -0.20934649 -0.48451355 -0.87478375 5.4626609e-05 1.4196228e-05
-0.18609178 0.46284536 -0.20864856 0.41576549 -0.90943962 0.0076525994 0.0015620901
-0.17252432 0.46781576 -0.20401646 0.34670681 -0.93796122 -0.0048175994 0.0010495973
-0.16105486 0.47110826 -0.20562872 0.28312919 -0.95908153 -0.00071721687 0.00016384086
-0.15753482 0.47211879 -0.20306653 0.2759265 -0.96117872 -6.1009701e-05 0.00016869546
-0.1456109 0.47554174 -0.20640564 0.27589571 -0.9611876 2.2455457e-05 0
-0.13695176 0.47802749 -0.20499295 0.2759684 -0.9611668 1.882417e-05 0
0.13810201 0.47848186 -0.20070086 -0.24190147 -0.97030079 -0.00017871849 1.8308285e-05
0.14562523 0.47660843 -0.20545256 -0.24343053 -0.96991795 0.00086249836 0
0.15569703 0.47410047 -0.20689231 -0.27806488 -0.9605608 0.0016991956 0.0011553613
0.16405047 0.47202039 -0.20480508 -0.34318051 -0.93926543 0.0027577749 0.0021056668
-0.12431446 0.4816553 -0.2063496 0.27599075 -0.96116036 -4.7444268e-05 1.3387676e-06
-0.1150308 0.48432037 -0.20450544 0.27603805 -0.96114665 -4.5566267e-05 0.00022199244
-0.10342129 0.48765308 -0.20564562 0.27591404 -0.96118236 3.2060285e-05 0
-0.095791712 0.48984337 -0.20579727 0.27514181 -0.96140361 -0.00025151155 8.2048828e-05
0.093774244 0.48951995 -0.20171347 -0.24165604 -0.97036201 6.8552836e-05 0
0.10634772 0.48638904 -0.20246691 -0.24164446 -0.97036487 -6.0037371e-05 0
0.11226 0.48491678 -0.20519982 -0.2416801 -0.97035599 9.6762116e-05 0
0.1222288 0.48243445 -0.20009828 -0.24166466 -0.9703598 -3.2734486e-05 0.00010819826
-0.095097125 0.49004269 -0.2030077 0.27488896 -0.96147591 -0.00021499283 0.00017128739
-0.070182987 0.49719483 -0.20055836 0.17780903 -0.98406464 0.00084537821 0.0023539993
-0.067197882 0.49788943 -0.20467946 0.17743336 -0.98410273 -0.0076893289 0.0027261579
-0.054379731 0.498117 -0.20241958 0.036523473 -0.99933213 -0.0011829892 0.00037893647
-0.046658151 0.49825406 -0.202097 0.031800326 -0.99949372 0.00096591009 0.0003211454
-0.02851448 0.49857616 -0.20237032 0.017752377 -0.99984241 -3.068092e-05 3.7317175e-06
-0.017150406 0.4987779 -0.20858151 0.017762234 -0.99984223 -4.4167582e-06 3.0301813e-05
0.017313067 0.49938977 -0.20449126 0.01774211 -0.99984258 8.2566185e-06 0
0.034982126 0.49970344 -0.20270824 0.0012585067 -0.99999607 0.0025164401 0.00063743
0.043201555 0.49984935 -0.20572041 -0.052898865 -0.99859869 0.0015644138 0.0016131378
0.073117651 0.49466372 -0.20228684 -0.22719868 -0.97384661 0.0018698953 0.0002167869
-0.090006597 -0.43129098 -0.19658335 0.83649033 0.50330782 0.21671453 0
-0.10085721 -0.41555208 -0.19122775 0.89437264 0.39845058 0.20330952 0.16925609
-0.084868938 -0.40146387 -0.19297507 0.089502834 0.98581612 -0.14197116 0.12969132
-0.0638358 -0.40670133 -0.19596368 0.18082027 0.98351616 0.00027796594 0.0013389572
-0.051672082 -0.40972602 -0.19526541 0.11600883 0.99321491 0.0081253471 0.0029044079
-0.045351394 -0.40961385 -0.19315726 0.04731201 0.99878722 0.013624689 0.0014554169
-0.022173619 -0.40920234 -0.19299681 -0.017750602 0.99984246 -1.2020278e-05 0
-0.015802475 -0.40908927 -0.19686654 -0.017744558 0.99984258 -3.4889308e-05 3.5320321e-05
0.0024596327 -0.40876508 -0.19359255 -0.017749097 0.99984246 -2.5976084e-05 1.4531997e-05
0.013088174 -0.40857637 -0.19980174 -0.017742775 0.99984258 -2.1149659e-05 5.5220135e-05
0.025052132 -0.408364 -0.191394 -0.017750192 0.99984246 -2.2609755e-05 5.7855568e-06
0.036554646 -0.40815976 -0.19582927 -0.017758509 0.99984229 7.9082987e-05 0
0.04215179 -0.4080604 -0.19511718 -0.017767172 0.99984217 4.2148327e-05 0
0.053790256 -0.40785378 -0.19153057 -0.045373246 0.99896991 -0.00060988421 0.0006827524
0.093706809 -0.4001683 -0.19680518 -0.27594501 0.96117342 2.552419e-05 0
-0.11158943 -0.39434031 -0.19519119 0.65998554 0.74823558 0.067547955 0.084159203
-0.093217567 -0.39938498 -0.1955741 0.45900321 0.88560522 0.07084772 0.16487798
0.096135654 -0.39947107 -0.19978184 -0.2759124 0.96118277 -2.3581342e-05 0
0.10365041 -0.3973138 -0.19480482 -0.27600265 0.9611569 -1.1438059e-05 0.00013133348
0.11542001 -0.39393511 -0.19252801 -0.27595073 0.96117181 2.4163797e-05 0
-0.16503759 -0.38150102 -0.19724107 0.34709719 0.93769443 -0.015895512 0.001923066
-0.1330194 -0.38947392 -0.1946283 0.33229965 0.94137722 -0.058188908 0.15366496
-0.12146258 -0.380229 -0.19367236 0.78473759 0.60950267 0.11266505 0.11002081
-0.11681958 -0.38808686 -0.19335707 0.67130172 0.74031824 0.035816584 0.079186499
0.13723853 -0.38767177 -0.193434 -0.2759538 0.96117091 -1.5541294e-05 4.7670434e-05
0.15641382 -0.38216716 -0.19446123 -0.27591273 0.96118265 3.0075862e-05 4.8397145e-05
-0.18638813 -0.37047222 -0.19692993 0.47776368 0.87848794 -0.0009073189 4.7910744e-05
-0.1768702 -0.3757444 -0.19865382 0.4487662 0.89363158 -0.0056124292 0.0012246091
-0.12460962 -0.3743245 -0.19522859 0.87902838 0.44478467 0.17168459 0.10388915
0.16857874 -0.37867501 -0.19429553 -0.31307882 0.94972563 0.0017275013 0.0013188899
0.18622527 -0.37249181 -0.19537115 -0.4518303 0.8920663 0.0081877215 0.0009716365
-0.20243397 -0.36158413 -0.19335294 0.48459542 0.87473834 -0.00012190227 3.1056759e-05
-0.19306064 -0.3667762 -0.19564125 0.48450959 0.87478584 2.7842932e-05 2.5582689e-05
-0.13223749 -0.36131755 -0.19597276 0.90702236 0.38219562 0.17673935 0.041497335
0.19551356 -0.36690706 -0.19404933 -0.47166303 0.88176525 0.0049113175 0.0010866593
0.20211303 -0.36293903 -0.19842899 -0.51097775 0.85959393 0.00020833386 0.0001143531
-0.21894938 -0.35243592 -0.19873086 0.48467025 0.87469697 -3.4963768e-06 0
-0.13712575 -0.35524622 -0.19119446 0.83660555 0.50311089 0.21672714 0
0.21310152 -0.356332 -0.19173881 -0.51531547 0.85700053 1.4802727e-05 2.5687916e-05
0.22276504 -0.35052168 -0.19643137 -0.51532221 0.85699654 -2.7920023e-05 2.3432567e-05
-0.23285052 -0.34473577 -0.19700533 0.48448601 0.87479907 -5.8049816e-05 1.754599e-05
-0.22517967 -0.34898484 -0.19564538 0.48454934 0.87476391 -1.3042637e-05 8.2678355e-07
-0.14301133 -0.34450793 -0.19339873 0.83665127 0.50303531 0.21672575 0
0.23311687 -0.34429744 -0.19505781 -0.51544738 0.85692126 4.4402652e-05 0
-0.25137189 -0.33447641 -0.19645816 0.48801935 0.87283128 0.001605961 1.5221964e-05
-0.24212012 -0.33960113 -0.19526073 0.48450911 0.8747862 8.5323036e-06 0
0.25321582 -0.33221257 -0.19149138 -0.51527423 0.85702533 -4.7247235e-05 2.0045805e-05
-0.27391288 -0.32128385 -0.198865 0.61182922 0.7909897 -0.00059098139 0.0021232578
-0.26485786 -0.32700622 -0.19234678 0.54521978 0.83827353 0.0057410458 0.0020345198
-0.15686221 -0.32217702 -0.19176158 0.83661342 0.50309509 0.21673308 0
0.25929448 -0.32855767 -0.19334553 -0.51529229 0.85701454 -1.1027159e-05 1.1665326e-05
-0.28463113 -0.31093952 -0.19743228 0.68237865 0.73099416 -0.0026313832 0.00044478325
0.27522615 -0.31897849 -0.19658877 -0.56481606 0.8252033 0.0047277627 0.001512546
0.28652328 -0.31156176 -0.1908199 -0.64127964 0.76713836 -0.016099978 0.0026102068
-0.29315916 -0.30270907 -0.19623372 0.69436932 0.71961886 3.2501732e-05 0
-0.28882349 -0.30689347 -0.19173871 0.69316262 0.72078085 -0.00068481319 8.9436026e-06
0.28810182 -0.30992612 -0.19142288 -0.66981572 0.74230248 -0.018273128 0.0020199863
0.29250616 -0.30536258 -0.19385822 -0.68893749 0.72472996 -0.011479779 0.001312375
-0.30299947 -0.29321209 -0.19400355 0.69445789 0.71953326 -4.5367236e-05 3.3993896e-05
-0.17345795 -0.29427493 -0.19245982 0.83665836 0.50301176 0.21675326 1.5155319e-05
0.30531228 -0.29209358 -0.19200879 -0.71876371 0.69525439 -0.0003702305 5.9388294e-05
-0.17784373 -0.28788823 -0.19035338 0.83664197 0.50305456 0.2167172 1.3937392e-05
0.30766332 -0.28965753 -0.19429864 -0.71951056 0.69448149 -2.6036507e-06 0
0.31158224 -0.28559697 -0.19649388 -0.71946806 0.69452548 2.0990828e-05 0
-0.32430536 -0.27264956 -0.1952993 0.69443893 0.71955156 -6.2021036e-06 5.7624184e-06
-0.18673903 -0.27019608 -0.19707955 0.83662248 0.5030694 0.21675785 1.3277624e-05
0.32390589 -0.27282783 -0.19988428 -0.71943349 0.69456142 1.5486101e-05 0
-0.33446914 -0.26284033 -0.19215763 0.69437861 0.71960998 -2.6679974e-05 1.192811e-05
0.33151495 -0.26494372 -0.19379203 -0.71957153 0.69441837 2.5900403e-05 5.9746097e-05
-0.34456331 -0.25309837 -0.19600514 0.71124619 0.70292419 0.0051377076 0.00053869205
-0.19330797 -0.25893047 -0.19786961 0.83663428 0.50303775 0.21678562 0
0.3448821 -0.25109333 -0.19260246 -0.71957231 0.69441748 -6.2185682e-05 0
-0.3493647 -0.24846454 -0.19102764 0.7434985 0.66869015 -0.0079677422 0.0013160143
0.34665531 -0.24925601 -0.19270575 -0.71957028 0.69441968 1.1792839e-05 0
-0.36290371 -0.23210439 -0.19468465 0.81198084 0.58366585 0.0046072421 0.0012391477
-0.21011262 -0.23159941 -0.19643581 0.8366493 0.50303704 0.21672973 0
-0.20921877 -0.2343258 -0.19355825 0.83664578 0.50306642 0.21667495 3.786655e-05
-0.3666707 -0.22583927 -0.19238168 0.83855677 0.54480839 0.0025039485 0.00077172305
-0.21543393 -0.22288704 -0.19611603 0.83665872 0.503016 0.21674234 1.7777531e-06
0.36768758 -0.22746351 -0.19277537 -0.83304268 0.55316734 0.0067606084 0.0018154894
0.37033731 -0.22298104 -0.19163761 -0.83755839 0.54634768 0.00035410552 0.0019492665
-0.37044957 -0.21955439 -0.199268 0.85698253 0.51534539 4.4904664e-05 1.1422831e-05
-0.21956116 -0.2143743 -0.19994229 0.83664948 0.50303268 0.216739 2.9579856e-05
0.3725794 -0.2189334 -0.19226828 -0.86894965 0.49489775 0.0016517568 0.0001800153
-0.22540002 -0.20622346 -0.19632117 0.8366189 0.50309992 0.21670072 0
0.37831864 -0.20857233 -0.19963996 -0.87204683 0.48942184 -0.00078479265 0.00010760167
0.38187739 -0.20214765 -0.19640151 -0.87431449 0.48535982 -7.0556554e-05 0
-0.23478758 -0.19243702 -0.19208154 0.83665115 0.50303912 0.21671726 1.4431354e-05
-0.22979532 -0.19764538 -0.19926433 0.83665782 0.50304908 0.21666868 5.099709e-07
0.38776457 -0.19151942 -0.1930985 -0.874753 0.48456907 1.1688399e-05 0
-0.23966074 -0.18455157 -0.1915724 0.8366183 0.50309259 0.21672018 0
0.38953796 -0.18831794 -0.19452016 -0.8747617 0.48455343 -4.3590746e-05 0
0.39188856 -0.18407437 -0.19839483 -0.87475175 0.48457137 5.9480579e-05 0
-0.39698893 -0.17541525 -0.19522841 0.8569783 0.51535249 -4.7964591e-06 0
0.39722371 -0.17444263 -0.19624023 -0.87476838 0.48454139 1.4723484e-05 0
-0.40142068 -0.16804449 -0.19526844 0.8569892 0.51533431 -1.550267e-05 0
0.40350175 -0.16310894 -0.19489864 -0.87478507 0.4845112 5.4085685e-06 0
-0.40735725 -0.15817101 -0.19761913 0.85701716 0.51528788 7.9428639e-05 0
-0.25428993 -0.15720457 -0.1985735 0.83664441 0.50305271 0.21671188 0
0.40767485 -0.15557517 -0.19830564 -0.87473255 0.48460606 -1.4913685e-05 5.2744617e-05
-0.41321808 -0.14842351 -0.19600189 0.87337905 0.48703676 0.0020643985 0.00081827771
-0.26437956 -0.14169873 -0.19561464 0.83662826 0.50306749 0.21674009 0
0.41481626 -0.14268266 -0.19383667 -0.8748998 0.48430401 -4.5037857e-05 1.368643e-05
-0.41863754 -0.13941014 -0.19059265 0.90998495 0.41454312 -0.0090199858 0.0023112567
-0.26957673 -0.13187863 -0.19834518 0.83663958 0.5030579 0.21671882 0
0.41870001 -0.1356713 -0.19842941 -0.8900736 0.45581681 -0.00016826624 0.0011296333
0.42439115 -0.12526403 -0.1947453 -0.93398499 0.35676703 -0.019730924 0.0015366264
-0.4266018 -0.11372246 -0.19431648 0.96007288 0.27974996 -0.00024174374 0
0.42903006 -0.11029404 -0.1960046 -0.95561492 0.29461581 -0.0012777526 0.0010504416
0.43139499 -0.10079665 -0.19685327 -0.96681124 0.25547376 -0.0030119314 0.00010617124
-0.00774437 -0.090978034 -0.19432057 0.06535849 0.99785453 -0.0038195902 0.0026325432
0.43336803 -0.092873305 -0.19238129 -0.9703669 0.24163638 -8.7470231e-05 9.7396798e-05
-0.43397835 -0.088026486 -0.1942243 0.96115702 0.27600217 4.0995717e-05 0
-0.047349408 -0.082585283 -0.19482654 0.34301525 0.93926972 -0.010624755 0.0022154872
-0.029980006 -0.086943649 -0.19446409 0.23225856 0.97265095 0.0024630805 0.0010406704
-0.015369909 -0.089937009 -0.19756991 0.10304675 0.99467468 -0.0019030537 0.0016575583
0.017929688 -0.089443065 -0.19326532 -0.12624148 0.9919607 0.0087771416 0.0016852235
0.022283843 -0.089182742 -0.19599304 -0.17286457 0.98491359 0.007943402 0.0020805055
0.035162244 -0.085875094 -0.19211434 -0.26372936 0.96451378 0.012652781 0.001580063
0.044548459 -0.082748786 -0.19972664 -0.31099787 0.95041054 -5.470671e-05 0.00080678385
-0.43839848 -0.072628915 -0.19033681 0.96118468 0.27590582 4.1549261e-05 0
-0.054477237 -0.079019248 -0.19279054 0.3784889 0.92557865 -0.0070976634 0.0015200421
0.43901625 -0.070190556 -0.1905015 -0.97036439 0.24164641 4.5976605e-05 0
-0.43999654 -0.067062289 -0.19144233 0.96118081 0.2759192 4.0436778e-05 0
0.078132674 -0.065539472 -0.19572008 -0.58242077 0.81288701 -0.00083618471 0.0011271166
0.084705666 -0.061201878 -0.19835658 -0.61942899 0.78503942 0.004546863 0.0017374115
0.44095841 -0.062391032 -0.19933593 -0.97036213 0.24165529 1.115976e-06 0
-0.44354481 -0.054701831 -0.19177577 0.96117741 0.27593112 -3.6296962e-05 0
-0.096491694 -0.050276384 -0.1953274 0.72712725 0.6864835 -0.0051313741 0.0020428263
-0.089921467 -0.056105286 -0.19515999 0.66312087 0.74850786 0.0026107631 0.00072237023
0.094555452 -0.052321933 -0.19151981 -0.68758893 0.72604066 0.0092925914 0.0018174186
-0.44589335 -0.046520814 -0.1956823 0.96316516 0.26891026 -0.00037701442 0
-0.10227741 -0.045143474 -0.19909309 0.75938487 0.65045774 0.015468198 0.0020108661
0.10250525 -0.043361053 -0.19989267 -0.75118613 0.66002285 0.009440585 0.0017394212
0.4452951 -0.044975329 -0.19531411 -0.9703685 0.24162954 -3.942745e-05 0
-0.44876218 -0.036527362 -0.19478013 0.96700799 0.25474563 -0.0003405367 0.00032870873
-0.11214639 -0.030768042 -0.19466734 0.82811499 0.5605576 -0.00090535363 0.0011725387
-0.10725009 -0.038187549 -0.19411381 0.79033762 0.61246169 0.016038379 0.001602045
0.44798011 -0.034192819 -0.19614372 -0.97036868 0.2416292 -3.2433334e-05 0
-0.45284384 -0.016923435 -0.19801973 0.99534416 0.095959626 -0.0090461988 0.0021121069
-0.12128945 -0.016913287 -0.19770086 0.88849193 0.45889172 -0.00072151487 0.0024887286
0.45364171 -0.011456319 -0.19637977 -0.98759115 0.15688665 0.007082826 0.002144913
-0.12547256 -0.006656494 -0.1952014 0.9202466 0.39130399 0.0052300971 0.0017867114
0.12666586 -0.0043240557 -0.19263713 -0.9421671 0.33477688 -0.015672673 0.0031081606
0.45446846 -0.0049007679 -0.19381092 -0.99409819 0.10843047 0.0034003363 0.0021905021
-0.45327035 0.0071036723 -0.1942417 0.99984235 0.017754363 -3.5726665e-05 7.769699e-05
-0.12835616 0.0020012311 -0.19034541 0.94270337 0.33357614 0.0061089434 0.00040676899
0.45466593 0.0045601889 -0.19717485 -0.99993801 0.010230733 0.0043867328 0.00057859207
-0.45334941 0.011555167 -0.1909149 0.99984252 0.017746529 2.5803643e-05 0
-0.13277486 0.015268005 -0.19427043 0.97334653 0.22908975 -0.010699159 0.0014988625
0.13237509 0.016594723 -0.19564578 -0.97541183 0.22035779 0.0037657826 0.00031073703
0.45440775 0.019103747 -0.1947128 -0.99986863 -0.016205246 2.1165715e-05 0
0.13366498 0.022890594 -0.19381224 -0.98321807 0.1824269 0.0016197017 0.0015275114
0.45427859 0.02637887 -0.19826208 -0.99984258 -0.017743526 -9.364367e-05 0.00011863103
0.13514997 0.030138697 -0.19506632 -0.98919183 0.14658935 -0.0033386983 0.0010628878
0.4541696 0.032517605 -0.19466433 -0.99984288 -0.017729638 7.7344906e-05 0
-0.45385727 0.040162947 -0.19744508 0.99984235 0.017756222 -3.3877026e-05 8.1429956e-05
-0.13573876 0.046594054 -0.19574732 0.99902207 -0.044211473 -0.000582796 0.0018712244
0.45392728 0.04616607 -0.1947054 -0.99984229 -0.017758438 -5.133446e-05 0
-0.45416528 0.057511941 -0.19373809 0.99984223 0.017760219 4.3745153e-05 0
-0.13602711 0.051416829 -0.19742322 0.99832398 -0.057709441 0.0043531302 0.0021029036
0.45383736 0.051232036 -0.19644937 -0.9998427 -0.017735345 3.6729954e-05 0
-0.45434099 0.067409158 -0.19827318 0.99984998 0.017319916 0.00015231813 0
0.13469312 0.061172586 -0.19870302 -0.99214023 -0.12512726 -0.00098527514 0.0014715061
-0.45446131 0.074186191 -0.19525874 0.99985057 0.017282011 0.00021702975 0
-0.13256998 0.072726592 -0.19305931 0.97778988 -0.20948543 -0.0065477327 0.0012674429
0.13183406 0.077830881 -0.19302917 -0.96832961 -0.24963529 0.004483954 0.001096669
0.45348912 0.070849106 -0.1944965 -0.99984193 -0.017779671 1.5795569e-05 0
-0.4546659 0.085712478 -0.19728898 0.99923086 -0.038335215 0.0082492139 0.0014351213
-0.13059586 0.082361989 -0.19646785 0.95444435 -0.29829589 0.0074561369 0.0026616245
-0.12673958 0.094449796 -0.19338672 0.93007571 -0.36719203 0.011361989 0.0012641477
0.12592924 0.095559143 -0.1936738 -0.92618567 -0.37704015 0.0045729303 0.0011411899
0.45305806 0.095126703 -0.19876847 -0.99848062 -0.054180402 -0.01004831 0.0005623466
-0.12234763 0.10322861 -0.19823775 0.90145391 -0.43287513 0.0001112359 0.00098596502
-0.11932562 0.10926914 -0.19917358 0.88826156 -0.45933622 0.0012746716 0.0010123642
0.1230949 0.10406871 -0.19366553 -0.91151285 -0.41126451 -0.0024105127 0.0024262452
0.45286235 0.10615327 -0.19156067 -0.99485636 -0.10098334 -0.0079421438 0.0017516813
0.11813946 0.11196023 -0.19753471 -0.85765958 -0.51409608 -0.011186572 0.0012619626
-0.44857264 0.12208687 -0.19236898 0.97036946 -0.24162583 -0.00012625454 0.00022296947
-0.10879911 0.12654027 -0.19924 0.81026506 -0.5859555 -0.011258764 0.0016010333
0.44997066 0.12259113 -0.19088644 -0.98003882 -0.19880557 -0.00043507788 0.0016602486
0.45039415 0.12111577 -0.19485965 -0.97934872 -0.2020746 -0.0064712013 0.0014982329
-0.44643781 0.1306598 -0.19967465 0.97036362 -0.24164946 2.1395332e-05 0
-0.099366874 0.13717209 -0.19434448 0.7271328 -0.68649393 0.0019945065 0.00058099587
0.10430703 0.13292119 -0.19536686 -0.77800208 -0.62808996 0.01468941 0.0026348114
0.44502586 0.13981624 -0.19141939 -0.96117496 -0.27593961 -4.9141428e-05 2.5794361e-05
-0.44282669 0.14516163 -0.19418707 0.97036803 -0.24163167 -8.4963918e-05 0.00019224043
-0.094428599 0.1427384 -0.19654864 0.68497533 -0.72853917 0.0062815058 0.0019641339
0.089353077 0.14688341 -0.19533204 -0.65325177 -0.75712478 -0.0049138097 0.0010698364
0.44395351 0.14355168 -0.1974355 -0.96117586 -0.27593645 -9.0053054e-06 3.0124756e-05
-0.44095373 0.15268311 -0.19788484 0.97035795 -0.24167219 -6.561492e-05 0.00021510269
-0.082232408 0.15310754 -0.19230793 0.6181708 -0.78568661 0.023694042 0.0018263974
-0.076453626 0.15692109 -0.19613031 0.54568958 -0.83797824 -0.0039144852 0.00089907064
0.082137726 0.15328468 -0.19030128 -0.60266751 -0.79799092 -0.0015266052 0.0014534509
0.44174406 0.15124841 -0.19479319 -0.96117198 -0.27595025 -1.301564e-05 0
-0.43736339 0.16710134 -0.19909173 0.97036201 -0.24165589 9.3657436e-05 0
-0.070819855 0.16063893 -0.19997187 0.53193885 -0.84639764 -0.025536047 0.0013726928
-0.065805338 0.16394812 -0.19728607 0.51973808 -0.85422754 -0.012951361 0.00088925892
-0.058532424 0.16836482 -0.19988674 0.43597177 -0.89969033 -0.022042587 0.0026109747
0.058285538 0.16738763 -0.19473654 -0.43641323 -0.89965463 0.012847827 0.0024636523
0.062708378 0.16517493 -0.19371359 -0.48136204 -0.87648302 -0.0082528684 0.00060549245
0.43711281 0.16738151 -0.19693853 -0.96117127 -0.27595255 0.00016548045 0
-0.43524349 0.1756146 -0.19996588 0.97035384 -0.24168873 6.7307164e-06 0
-0.035400461 0.17606932 -0.19625241 0.26136711 -0.96523851 -0.0013721716 0.0013744413
-0.024647605 0.17931487 -0.19588459 0.18588366 -0.98255819 -0.005162803 0.0026314715
-0.01637575 0.17980942 -0.19361581 0.10104997 -0.99487579 -0.0033287311 0.0013402554
0.018878885 0.17949149 -0.19784549 -0.15134372 -0.98822427 -0.022533368 0.0020732759
0.026476704 0.17793486 -0.19453603 -0.21368949 -0.97689569 0.0033980461 0.0007005533
0.03278048 0.17664334 -0.19705634 -0.25024098 -0.96802968 0.017260887 0.0019423796
0.047961824 0.17255248 -0.1979548 -0.33731827 -0.9413451 0.0092616566 0.002243855
0.050737146 0.17116402 -0.19598794 -0.35426232 -0.9351427 0.0025315569 0.0020491648
0.43548864 0.17303923 -0.19812149 -0.9611789 -0.27592593 4.1346197e-05 2.9805127e-05
-0.4318732 0.18914923 -0.19253623 0.969396 -0.2454989 -0.0013388405 0.000107794
0.0034378078 0.18099399 -0.19967985 -0.029168572 -0.99935031 -0.021170022 0.0023061885
0.43190271 0.18553081 -0.19081824 -0.96118963 -0.27588859 3.8997001e-05 8.8951992e-06
-0.42800221 0.20469467 -0.19360749 0.95122766 -0.30848601 -0.0015265441 0.0011972227
0.42582282 0.20671012 -0.19562101 -0.95848155 -0.28510374 -0.0053847386 1.3364815e-05
0.42258772 0.21797968 -0.19459575 -0.93988878 -0.34144554 -0.0049081282 0.0023177925
0.41906276 0.22897676 -0.19796561 -0.90820879 -0.4184472 -0.0076682577 0.0031790759
0.41734982 0.23182569 -0.19244467 -0.90201056 -0.43171388 -0.00036019317 0.0026576268
-0.40791288 0.24541861 -0.19714755 0.87475383 -0.48456761 5.0207931e-05 8.2010711e-06
0.40964878 0.24463363 -0.19601052 -0.86519498 -0.50143522 0.00064068357 0.00073043682
-0.40506083 0.25056744 -0.19871938 0.87477386 -0.48453152 4.919996e-05 0
-0.39986667 0.25994453 -0.19703874 0.87478065 -0.48451915 -1.4346349e-05 9.1579343e-05
0.40369239 0.25454003 -0.1951763 -0.85697675 -0.51535499 -4.7119902e-05 0
-0.39718422 0.2647872 -0.19841613 0.87475216 -0.4845705 3.1122992e-05 6.4598396e-05
0.39737424 0.26504809 -0.19896112 -0.85695821 -0.51538587 8.5253094e-05 0
-0.39305621 0.27223957 -0.19051386 0.87474626 -0.4845812 7.9382422e-05 1.2593277e-05
0.39321619 0.27196354 -0.1991716 -0.85693151 -0.51543039 0.00016643328 0
-0.38543919 0.28599066 -0.19637872 0.87474537 -0.48458287 1.5055307e-05 4.8176356e-05
0.38329932 0.2884568 -0.19873536 -0.85700846 -0.51530236 9.6699769e-05 0
-0.38170558 0.29273099 -0.19222945 0.87420309 -0.48556057 0.00024959346 0
-0.37804303 0.29934305 -0.19823611 0.8702206 -0.49265891 -0.0018294613 0.00023288689
0.37684661 0.29918861 -0.1993309 -0.85697359 -0.5153603 -7.6854973e-05 4.502734e-05
0.38136089 0.29168075 -0.19809844 -0.85695416 -0.5153926 6.1375176e-05 0
-0.37265983 0.30906141 -0.19537109 0.84803194 -0.52994448 0.00076184684 0.0009601193
-0.3674286 0.31800514 -0.19727109 0.80368942 -0.59504527 0.0021070566 0.00260659
0.3693932 0.31158483 -0.19896197 -0.85377866 -0.52063465 -0.0013009812 9.9513083e-05
-0.36402106 0.32153586 -0.19673723 0.77729774 -0.62910217 0.0062205731 0.0022847387
-0.35971659 0.32599592 -0.19714917 0.75099933 -0.66030228 0.0009864975 0.001075751
0.35833377 0.32997838 -0.19739433 -0.78051025 -0.62514186 0.001178512 0.0023315775
0.36113837 0.32531384 -0.19667721 -0.80459237 -0.59373391 -0.010545307 0.0017974471
-0.34872526 0.33738464 -0.1943962 0.71962166 -0.6943664 8.0493937e-06 5.4254724e-05
-0.33662504 0.34992224 -0.19275737 0.7193923 -0.69460398 0.00014249478 0
0.33872855 0.34900302 -0.19184726 -0.69465983 -0.71933842 6.4764245e-05 3.871505e-05
0.34631103 0.341685 -0.19635606 -0.72052193 -0.69342327 0.0035095813 0.00086873269
-0.33196592 0.3547498 -0.19299458 0.71954042 -0.69445056 -1.1705843e-05 0
-0.32769981 0.35917014 -0.19621766 0.71964598 -0.69434124 2.1010332e-05 4.381684e-06
0.32969803 0.35771847 -0.19380039 -0.69448417 -0.71950799 5.3741107e-05 0
0.333033 0.35449979 -0.19418275 -0.6944133 -0.71957636 -9.2704859e-06 1.6562262e-06
0.32631385 0.36098456 -0.19267966 -0.69450563 -0.71948725 -6.7954243e-06 3.9998849e-05
-0.31279349 0.37461531 -0.1960703 0.71953082 -0.69446057 9.1365337e-06 1.2094911e-05
0.30834326 0.37832826 -0.19267625 -0.69450372 -0.7194891 1.1572612e-05 0
0.31415033 0.37272376 -0.19076937 -0.69447231 -0.71951944 -3.8518988e-06 1.4631943e-05
-0.3059074 0.38175035 -0.19442166 0.71960777 -0.69438082 2.5614116e-05 4.0956096e-05
0.29751316 0.38878053 -0.19975567 -0.69449264 -0.71949977 2.2282649e-05 0
0.30572146 0.3808586 -0.19750981 -0.69441962 -0.71957034 -7.6001939e-05 7.7702871e-06
-0.29337046 0.39474052 -0.19227314 0.70275468 -0.7114237 -0.0034894345 0.00071966089
0.2957024 0.39052814 -0.19421034 -0.69450366 -0.71948922 -0.00010365203 9.4971088e-05
-0.28603646 0.40233967 -0.19289389 0.62814379 -0.77785361 -0.019473674 0.0023370404
-0.27678552 0.40831444 -0.19502044 0.56845933 -0.82270592 0.002990189 0.00075551646
0.27844414 0.4071843 -0.19915396 -0.64060563 -0.76786739 0.0020009619 0.002026007
0.28026548 0.4054265 -0.19924664 -0.67865151 -0.73445964 -0.00102975 0.00039897172
-0.26378849 0.41612911 -0.19009167 0.52124918 -0.85340434 0.00059267558 2.0857564e-05
0.26961434 0.41464508 -0.19450209 -0.55144691 -0.83418554 -0.0063849729 0.001406593
-0.24434544 0.42781949 -0.19433743 0.51527989 -0.85702199 -3.2182641e-06 3.601834e-05
0.24504893 0.42825237 -0.19276544 -0.48458126 -0.8747462 5.3972984e-05 0
0.25525808 0.42259729 -0.19473019 -0.51240045 -0.85873073 0.0052199694 0.00052204239
-0.24028552 0.4302606 -0.19854563 0.51528138 -0.85702109 -1.0433598e-05 4.3416057e-05
-0.23051487 0.43613535 -0.19257677 0.51531392 -0.85700148 9.3468298e-06 0
0.23767143 0.43233892 -0.19013868 -0.48459926 -0.87473631 3.7770598e-05 0
0.2403436 0.43085876 -0.19048391 -0.48453525 -0.87477177 3.0989988e-05 0
-0.21515572 0.44537026 -0.19829985 0.51525331 -0.8570379 0.00010676534 0
0.21061547 0.44732577 -0.19889021 -0.48460257 -0.87473446 1.6156748e-05 0
0.2201357 0.44205236 -0.19342947 -0.48462579 -0.87472147 -1.9083118e-05 0
-0.20405334 0.45204571 -0.19501394 0.51530725 -0.85700548 1.9622712e-05 0
-0.19743213 0.45602682 -0.19782874 0.480786 -0.87681007 0.0070016887 0.00082674035
0.19195439 0.45766252 -0.19695903 -0.48454049 -0.87476879 0.00012944792 0
0.20489515 0.45049435 -0.19059317 -0.48454845 -0.87476444 -1.0320126e-05 6.1168088e-05
-0.18749677 0.46200061 -0.19077808 0.4410125 -0.89734197 0.016891517 0.0013942972
-0.17274246 0.46775311 -0.19924694 0.33959648 -0.94057083 -0.00078765699 0.0010612543
-0.16629389 0.46960431 -0.19195914 0.31141925 -0.95025998 -0.0049056592 0.00041423173
0.17661154 0.46616128 -0.19553807 -0.43342635 -0.90118396 -0.0030271476 0.0015229798
0.18230219 0.46300906 -0.19824183 -0.47704172 -0.87887973 0.0012914812 0
-0.15876064 0.47176689 -0.19990368 0.27581245 -0.9612115 4.9134255e-06 1.4092586e-05
-0.14392176 0.47602668 -0.19549379 0.27601308 -0.96115392 1.0636248e-05 7.0160509e-05
-0.1343731 0.47876775 -0.19060807 0.27597484 -0.96116489 3.0889663e-05 0
0.15258306 0.47487587 -0.19879121 -0.27265069 -0.96211094 -0.0020289773 0.00079217245
0.16537404 0.47163415 -0.1953804 -0.35568911 -0.9346025 -0.0018529542 0.0025410987
-0.1103265 0.48567086 -0.19853759 0.27593571 -0.9611761 -5.3326803e-05 0
0.10511896 0.48669499 -0.19661677 -0.24167687 -0.97035682 6.2584579e-05 0
0.11595868 0.4839958 -0.1940887 -0.24167827 -0.97035646 -6.6330256e-05 0
0.12836324 0.4809069 -0.19819263 -0.24171428 -0.97034746 -5.8440019e-05 4.1421656e-05
0.13145623 0.48013669 -0.19656403 -0.24172832 -0.97034395 -0.00010461343 0
-0.084998667 0.49294168 -0.1918171 0.26981351 -0.96291107 -0.001736314 0
-0.013640465 0.49884024 -0.19848245 0.017742686 -0.99984258 -8.7494329e-05 0.00015836657
0.0075845458 0.49921703 -0.19512296 0.017749246 -0.99984252 -5.2014671e-05 2.4161038e-05
0.010657448 0.49927157 -0.19007355 0.017751073 -0.99984246 1.3711667e-05 0
0.031409588 0.49964002 -0.19593543 0.017190577 -0.99985212 -0.00041404291 2.255885e-05
0.044466689 0.49987179 -0.19130877 -0.096433848 -0.99533933 -0.00018763439 0.0014792716
0.070082843 0.49541941 -0.19088648 -0.20918085 -0.97786838 0.0040834849 0.00044314779
0.088057056 0.49094361 -0.19541661 -0.24165705 -0.97036171 3.1008494e-05 0
-0.096347064 -0.42513272 -0.18640098 0.97330225 -0.11361388 0.19943598 0.13076851
-0.10347165 -0.41299933 -0.18706033 0.79698122 0.56834209 0.20447055 0.16072313
-0.10691907 -0.4065448 -0.18873377 0.65458667 0.70171869 0.28126007 0.12826729
-0.083070792 -0.40191168 -0.1847309 -0.05863227 0.99006474 -0.12780504 0.11309393
-0.079133682 -0.40289205 -0.18766569 -0.015797552 0.99263579 -0.12010287 0.084024988
-0.068325073 -0.4055835 -0.18825477 0.21503006 0.97660208 -0.0032135719 0.00078786258
-0.054750167 -0.40896377 -0.18179078 0.13812898 0.99037296 -0.009041572 0.0021538602
-0.040152051 -0.40952155 -0.18714729 0.037147317 0.99929708 0.0050391154 0.0015303604
-0.027904272 -0.40930411 -0.1880196 -0.012765724 0.9999184 -0.00047374898 7.3335825e-05
