# .PCD v0.7 - Point Cloud Data file format
VERSION 0.7
FIELDS x y z normal_x normal_y normal_z curvature
SIZE 4 4 4 4 4 4 4
TYPE F F F F F F F
COUNT 1 1 1 1 1 1 1
WIDTH 580
HEIGHT 1
VIEWPOINT 0 0 0 1 0 0 0
POINTS 580
DATA ascii
-0.4522562 0.20354208 -0.24547218 0.92386377 -0.3827216 -3.5664649e-05 9.2613052e-05
-0.053874329 0.2009334 -0.24461314 0.26539674 -0.96410602 0.0080039706 0.0020629105
-0.047611929 0.20206507 -0.24329436 0.21617782 -0.97634763 -0.003537741 0.0021417509
-0.030298671 0.20434441 -0.2434386 0.13522844 -0.99081039 0.0028639862 5.2855416e-05
-0.0028431802 0.20795903 -0.24282551 0.017346052 -0.99973786 -0.01494398 0.0034574762
0.030864649 0.2042699 -0.24664032 -0.13052516 -0.991445 -3.4625802e-05 2.3361228e-05
0.052618623 0.20140593 -0.24944568 -0.20022981 -0.97973675 -0.0048885653 0.0013017766
0.45104873 0.20645708 -0.24267191 -0.92383516 -0.38279071 8.4299638e-05 0
0.44736263 0.21535614 -0.2496649 -0.92388356 -0.38267377 1.1168134e-05 0
-0.43944904 0.23446123 -0.24368612 0.90587944 -0.42353553 0.00022119214 0.00075628283
0.43865868 0.23636934 -0.24450661 -0.90227437 -0.43114057 0.0043309322 0.00078296993
-0.43652153 0.24152893 -0.24733317 0.88753963 -0.46073127 0.00028061832 0.00088427641
0.43588573 0.24306393 -0.24915999 -0.89672303 -0.4425849 0.0025351599 0.0014062494
-0.42619646 0.25888306 -0.2455332 0.83140725 -0.55555421 0.01102112 0.0015401935
0.42561367 0.25964257 -0.24490982 -0.82782888 -0.56094676 0.0061729159 0.0015572885
0.42323375 0.26274413 -0.24558987 -0.80360508 -0.59515905 0.0021264502 0.00025044003
0.41564757 0.2726306 -0.24947107 -0.79329604 -0.608836 4.2659205e-05 0
0.40756407 0.28316519 -0.24271946 -0.79336989 -0.60873991 -1.7215609e-05 2.8176628e-05
-0.4006651 0.2921561 -0.24487096 0.79326123 -0.60888147 -2.581722e-05 0
-0.39781183 0.2958746 -0.24531709 0.79325128 -0.60889441 -6.6185741e-05 0
0.3989237 0.29442561 -0.24015166 -0.79336852 -0.60874152 5.1395356e-05 0
0.38771388 0.30903447 -0.24916743 -0.79334289 -0.60877514 -4.3507265e-05 0
0.38113636 0.31760642 -0.24994332 -0.79323661 -0.6089136 5.538046e-05 0.00011240596
0.37804064 0.32164094 -0.24665728 -0.79345393 -0.6086303 -1.2366929e-05 0.00010308595
-0.36318958 0.34099507 -0.24403664 0.76824617 -0.64015281 0.001461047 0.00098674034
-0.35891819 0.3465617 -0.24462597 0.71714377 -0.69692427 -0.001183225 0.0010384219
0.35951865 0.34577918 -0.24436942 -0.75966311 -0.65028703 0.0062328391 0.0013971314
0.36257696 0.34179348 -0.24260801 -0.77352244 -0.63376522 -0.0021378109 0.00090831966
-0.34324259 0.36146504 -0.24773058 0.6509288 -0.75912595 0.0044175023 0.0012036182
-0.3347922 0.36794925 -0.24173641 0.61246896 -0.79049373 -0.0011477354 0
0.33615071 0.36690685 -0.24588074 -0.61169374 -0.79109377 -0.0011858015 0
0.34324399 0.36146396 -0.24914874 -0.67071545 -0.74171317 0.0015493808 0.0013791589
-0.32241637 0.37744558 -0.24012387 0.60884124 -0.79329211 4.8789479e-05 0
-0.30205572 0.39306885 -0.24579862 0.60888445 -0.79325897 3.2035743e-05 0
0.29870075 0.39564323 -0.24763352 -0.60870808 -0.79339421 1.776998e-05 9.4721261e-05
-0.29280603 0.40016642 -0.24143368 0.60875601 -0.79335755 8.2928773e-06 0
-0.2869027 0.4046962 -0.24511302 0.60905993 -0.7931242 0.00019162515 0
0.28709006 0.40455246 -0.2442894 -0.6087935 -0.7933287 -2.4468096e-05 4.9959392e-05
0.27536348 0.41355059 -0.24598181 -0.60872436 -0.79338181 -2.0710211e-05 0
-0.25544345 0.42883578 -0.24015512 0.54298413 -0.83971018 -0.0074155536 0.0017191643
-0.25375229 0.43013346 -0.24911882 0.50634348 -0.86224538 0.012215339 0.0024649764
0.24200071 0.43632612 -0.240964 -0.46369424 -0.88599503 -0.00058031571 0.0014023476
-0.215919 0.44712949 -0.2475199 0.38280034 -0.92383111 9.3639821e-05 0
0.21145079 0.44898027 -0.24186987 -0.38271216 -0.92386758 -5.3987274e-05 9.8501678e-06
-0.18716627 0.45903927 -0.24356079 0.38269231 -0.92387587 7.4717645e-06 0
0.19669744 0.4550913 -0.24703169 -0.38285202 -0.92380965 1.3252395e-05 0
-0.18154973 0.4613657 -0.24179572 0.38276237 -0.92384678 2.122541e-06 0
-0.17818338 0.46276006 -0.24427664 0.38269809 -0.92387342 -1.4571302e-05 0.00014606571
0.16427557 0.46852088 -0.24784207 -0.38271919 -0.92386478 -3.7040775e-06 4.3687476e-05
0.18458603 0.46010798 -0.24440396 -0.38270718 -0.92386967 0.00010871886 0
-0.14824243 0.475162 -0.24389233 0.36968789 -0.92915553 -0.00091187679 0.00012295303
0.13795257 0.47942418 -0.24330491 -0.30675745 -0.95168632 -0.013895295 0.0016203737
0.14564836 0.47623652 -0.24518025 -0.3524799 -0.93578953 -0.0074687577 0.00068222551
-0.11079097 0.48541403 -0.24169827 0.15205671 -0.98836422 0.0038476228 0.00044783831
-0.094827846 0.48751563 -0.24744534 0.13057914 -0.99143791 3.7120513e-05 0
-0.078056559 0.48972362 -0.24898916 0.13056184 -0.99144018 4.5524932e-05 0
0.078062095 0.48972288 -0.2466559 -0.13055755 -0.99144071 6.1824048e-06 9.938889e-06
0.085573062 0.48873407 -0.24187085 -0.13057227 -0.99143881 4.2988722e-05 0.00014195856
0.09246444 0.48782676 -0.24578774 -0.13051094 -0.99144685 4.8687747e-05 0
0.10255026 0.48649895 -0.24611808 -0.13048553 -0.99145019 7.8675599e-05 1.527146e-05
0.11029033 0.48547995 -0.24019708 -0.15583277 -0.98778248 -0.0013997572 0.00047579125
0.13488357 0.48069543 -0.24053955 -0.29636574 -0.9550364 -0.0085329814 0.0014701673
-0.0732008 0.49036291 -0.24304515 0.13061228 -0.9914335 4.9300903e-05 0
-0.064727925 0.49147838 -0.24393822 0.13053681 -0.99144346 4.73584e-05 0
-0.054672517 0.4928022 -0.24085188 0.13053517 -0.99144375 9.3574621e-05 0
-0.040768251 0.49463275 -0.2490533 0.13053882 -0.99144322 -2.4192477e-05 0.00012546789
-0.0051463204 0.49932247 -0.24593876 0.022551 -0.99974209 -0.0026690119 0.00099920714
0.013935282 0.4981654 -0.24482866 -0.086191833 -0.99624926 -0.0076376423 0.00066947535
0.025066599 0.4966999 -0.24439779 -0.13056518 -0.99143976 6.0628976e-05 0
0.038964264 0.49487025 -0.24471977 -0.13057606 -0.99143821 8.7608569e-05 0
0.041652594 0.49451631 -0.24489069 -0.13055925 -0.99144053 6.04995e-05 0
-0.054881703 -0.49277464 -0.23304892 0.1305678 0.99143934 -0.00013618746 6.4596345e-05
-0.038563877 -0.49492297 -0.23412472 0.13053083 0.99144429 -6.8285197e-05 0.00012432942
-0.02466844 -0.49675232 -0.23200589 0.1305768 0.99143815 9.0842375e-05 0
0.021579567 -0.49715897 -0.23792459 -0.13051729 0.99144602 -3.8851493e-05 0
0.034267679 -0.49548855 -0.23412393 -0.13053143 0.99144417 0.0001229019 0
0.048431914 -0.49362379 -0.23153454 -0.13051887 0.99144584 -1.9321449e-05 2.9619036e-05
0.064109154 -0.49155983 -0.23263848 -0.13052681 0.99144477 -8.735602e-05 8.0794587e-07
-0.13191262 -0.48192602 -0.23812658 0.27372125 0.96152955 0.023186363 0.0026990876
-0.12558064 -0.48340464 -0.23545387 0.22046326 0.97518319 -0.020342864 0.0031241898
-0.11950645 -0.48426664 -0.23709276 0.1738233 0.98455685 -0.020813273 0.001350827
0.11200944 -0.48525363 -0.23322725 -0.15877452 0.98725462 -0.010911079 0.00060253806
0.13552836 -0.48042834 -0.23326135 -0.30988389 0.95076162 0.0049344972 0.0019314024
-0.15926397 -0.47059673 -0.23074174 0.38266405 0.92388755 -1.0819761e-05 8.1057682e-05
-0.14142132 -0.47798741 -0.23083144 0.36125621 0.93245935 0.003683625 0.00064907956
0.14354609 -0.47710729 -0.23402339 -0.35756108 0.93388909 -0.0011612535 0.00067046215
0.157699 -0.47124496 -0.23617603 -0.38270214 0.92387176 -0.0001134823 7.3234442e-05
-0.18366635 -0.46048895 -0.23677182 0.38267359 0.92388362 -3.7863709e-05 3.4422254e-05
-0.17641096 -0.46349424 -0.23575294 0.38270703 0.92386979 4.6753219e-05 0
-0.16605464 -0.46778393 -0.23401967 0.38268304 0.92387968 -2.5307636e-05 1.9020859e-05
0.17132071 -0.4656027 -0.23514175 -0.38268191 0.92388016 -0.00013318795 0
0.20707767 -0.45079169 -0.23382336 -0.38279054 0.92383504 3.5010037e-06 0
-0.2219701 -0.44462305 -0.23874928 0.38261518 0.92390788 -2.1123566e-05 9.5593314e-05
0.21949568 -0.44564798 -0.23867798 -0.38275552 0.92384958 -2.6202248e-05 0
0.22066985 -0.44516164 -0.2337485 -0.38270837 0.92386925 -7.3560732e-05 0
-0.24518508 -0.4350071 -0.23275612 0.46922913 0.88271296 -0.025334887 0.0017048534
-0.23717809 -0.43832371 -0.23017906 0.41660178 0.90907836 0.0044070128 0.00073615793
0.24635811 -0.4345212 -0.23659289 -0.45665798 0.88948852 -0.016542327 0.0025137074
0.25321418 -0.43054637 -0.23980242 -0.54981208 0.83528799 -0.00081999059 0.0016510559
-0.26350084 -0.42265311 -0.23610258 0.59519076 0.80356544 -0.0055294861 0.00026205467
0.25402278 -0.42992589 -0.23081376 -0.55756897 0.83010995 0.0058510038 0.0013546812
0.26421425 -0.4221057 -0.23368931 -0.59090191 0.80674332 -0.00036060822 0.00032650516
-0.27920434 -0.41060337 -0.23586965 0.60877186 0.79334539 3.0324429e-05 0
0.27585298 -0.41317499 -0.23486286 -0.60880637 0.79331881 -3.2531672e-05 1.950051e-05
-0.28961462 -0.40261525 -0.2364524 0.60877091 0.79334605 6.4421039e-07 5.1484272e-05
0.28205916 -0.40841281 -0.23438475 -0.60888225 0.79326063 4.7730828e-05 0
-0.29998016 -0.39466152 -0.23668927 0.60899609 0.79317319 -7.4690361e-05 0
0.29862675 -0.39570001 -0.23385429 -0.60881311 0.79331362 -2.4587094e-05 2.3771303e-05
0.30402401 -0.39155853 -0.23362708 -0.60884821 0.79328674 7.5385462e-05 8.7203778e-05
-0.31463265 -0.38341826 -0.23623121 0.60889399 0.79325157 0.00010440692 0
-0.3073808 -0.38898277 -0.23902392 0.60883904 0.79329383 -6.4943139e-05 6.7720423e-05
0.31516975 -0.38300613 -0.23187268 -0.60875762 0.79335624 2.81753e-05 3.6470352e-05
-0.32737106 -0.37364373 -0.23570012 0.60892183 0.79323018 2.2459028e-05 0
0.32751551 -0.37353289 -0.23605549 -0.60880798 0.79331762 -6.6867615e-05 0
0.33192641 -0.37014824 -0.23041815 -0.60879135 0.79333031 2.2165605e-05 1.086975e-05
-0.33397979 -0.36857265 -0.23281968 0.61260039 0.79039276 -0.00037543866 0.00011686212
-0.35501763 -0.35164499 -0.23000753 0.71616679 0.69789195 -0.00720406 0.0030162083
0.34749079 -0.35820526 -0.2369144 -0.66255295 0.74901384 -0.0012959037 0.0016876388
-0.3616662 -0.34298041 -0.23217738 0.77653027 0.63007063 0.0034364567 0.00048688182
-0.37488645 -0.32575142 -0.23403272 0.79328513 0.6088503 -2.3585439e-05 0.00015695875
0.37866816 -0.32082307 -0.23651105 -0.79333603 0.60878408 -5.4090528e-05 1.1627842e-05
-0.38676605 -0.31026971 -0.23142806 0.79334283 0.60877526 4.773046e-05 0
-0.39241642 -0.30290604 -0.23138398 0.79328603 0.60884917 -0.000115943 0.00010253617
-0.38787964 -0.3088184 -0.23354217 0.79335535 0.60875887 1.5478532e-05 0
0.39128274 -0.30438352 -0.23484963 -0.79334086 0.6087777 -1.0826399e-06 5.3036415e-06
-0.39797387 -0.29566342 -0.23162282 0.79333156 0.6087898 -5.2546897e-05 8.9597364e-05
0.3960675 -0.29814786 -0.23061332 -0.79327637 0.6088618 2.8009883e-05 0
0.40165007 -0.29087254 -0.23756513 -0.79336143 0.60875088 0.00015578468 0
0.40446776 -0.28720042 -0.23937747 -0.79336286 0.60874909 -1.4279425e-07 1.0650483e-05
-0.42055663 -0.26623303 -0.23010254 0.80282038 0.59621918 0.0014779951 0.00024310217
0.44123235 -0.23015594 -0.23938602 -0.9131605 0.40745956 0.010703592 0.00022296618
-0.44428918 -0.22277611 -0.23614311 0.92387253 0.3827002 2.0679598e-05 0
0.44309863 -0.22565034 -0.23414567 -0.92388344 0.3826741 -1.606138e-05 0
-0.044175722 -0.20251745 -0.23870197 0.18866536 0.98195374 -0.013124084 0.0010262623
-0.03358959 -0.20391116 -0.2354171 0.13327122 0.99107903 0.0010368545 2.5734264e-05
-0.02805737 -0.20463946 -0.23385024 0.13039485 0.99146211 -6.8904512e-05 2.6269083e-05
-0.012460588 -0.20669286 -0.2355485 0.11888109 0.99284232 -0.011465982 0.00016481824
-0.0027719131 -0.2079684 -0.23685513 0.010409872 0.99994588 -0.00021080143 0.0030221532
5.1684703e-05 -0.20832652 -0.23853058 0.01041233 0.99994576 -0.00024668325 0.0030141785
0.017624615 -0.20601299 -0.23681897 -0.11690781 0.99314243 0.0007686608 0.00020899493
0.026646351 -0.20482525 -0.23967105 -0.12582465 0.99205208 -0.00092611637 4.0696061e-05
0.0309962 -0.20425259 -0.23299998 -0.13053435 0.99144381 2.5444033e-05 0
0.049171109 -0.2018598 -0.23405898 -0.23678714 0.97156149 0.00038373884 0.0022945395
0.45024103 -0.20840707 -0.23479648 -0.92387187 0.3827019 -6.255402e-05 9.7074233e-05
-0.076107621 -0.19204442 -0.23340666 0.38268229 0.92387998 3.3769647e-05 0
-0.067189872 -0.19573824 -0.23390925 0.34725124 0.93777215 -0.0001530914 0.0008400798
0.062553413 -0.19765872 -0.23527168 -0.34890491 0.93714821 -0.0042978283 0.00063001516
0.07377255 -0.19301161 -0.23487988 -0.37042856 0.92886072 0.00058682502 0.00020370717
-0.10005896 -0.18212348 -0.23908991 0.45051315 0.89270985 -0.010345735 0.0015444473
-0.081844144 -0.18966827 -0.23999542 0.38268426 0.92387921 3.6201905e-05 0
0.084206812 -0.18868962 -0.23435459 -0.38545337 0.92272717 0.00053597515 1.6672269e-05
0.091655321 -0.18560435 -0.23078954 -0.42006832 0.90746152 -0.007492899 0.0012066581
0.10234887 -0.18117496 -0.23359007 -0.47781643 0.87827379 -0.018069537 0.0024400551
-0.11583842 -0.1714659 -0.23615056 0.58674884 0.80976731 0.0016634256 0.00094824412
-0.10958211 -0.17626657 -0.2318462 0.53843403 0.84261411 0.0095010474 0.0019134955
0.11276181 -0.17382668 -0.23650289 -0.55617332 0.8308835 -0.017430466 0.0014745798
0.46391433 -0.17539676 -0.23218118 -0.92383409 0.38279316 6.7517581e-06 9.1598326e-05
-0.47007433 -0.16052517 -0.23681536 0.92386752 0.38271254 4.7978774e-05 0
-0.4672831 -0.16726387 -0.2304123 0.92386413 0.38272077 -1.2984169e-05 0
-0.12950498 -0.16097912 -0.23487359 0.61333674 0.78981805 0.0023549907 0.00011228933
0.1200083 -0.16826622 -0.2311421 -0.60615665 0.7953437 -0.0015524552 1.7040276e-05
-0.14364681 -0.15012765 -0.23001766 0.67706162 0.73587632 -0.0085818814 0.0013738495
-0.13361096 -0.15782848 -0.23601145 0.62856501 0.77775556 -0.0015744406 0.00093109958
0.14127994 -0.15194383 -0.23690724 -0.67326319 0.7393949 0.0034432733 0.001996882
0.47431666 -0.15028332 -0.23841098 -0.92388475 0.38267088 6.5811328e-05 0
-0.14588602 -0.14840943 -0.2378034 0.66309911 0.74845225 -0.010902352 0.0019958299
0.15236469 -0.14073147 -0.23276085 -0.74178815 0.67063421 -0.00034883549 0.0018673779
-0.48247114 -0.13059661 -0.23245077 0.9603858 0.2783857 0.01266853 0.001913238
0.48095387 -0.13425967 -0.23891222 -0.96301514 0.2689788 0.015883597 0.0021090945
-0.16757187 -0.12091319 -0.23272143 0.80756652 0.589773 -0.0020402079 0.0004391651
-0.17507553 -0.11113429 -0.23653308 0.84227622 0.5389449 0.010445057 0.0015055145
0.1722187 -0.11485735 -0.23424554 -0.81536263 0.57894474 -0.0025780858 0.00084304233
0.48447502 -0.11792363 -0.23523651 -0.98225302 0.18472706 0.032478429 0.00072925549
-0.17748868 -0.10798943 -0.23488562 0.8422904 0.538921 0.010533588 0.0014707634
0.18165722 -0.10118458 -0.23797274 -0.89083302 0.45424908 -0.0086221229 0.0015925898
0.48557001 -0.10960619 -0.23594861 -0.98850399 0.15094417 0.008701832 0.00019220069
-0.18319289 -0.097477145 -0.23522392 0.88318902 0.46850845 0.021837989 0.0020351913
0.18423326 -0.09496545 -0.23348674 -0.89897907 0.43789288 0.0092894789 0.001542002
-0.49146998 -0.064791732 -0.23142716 0.9914481 0.13050175 5.0612663e-05 1.9830435e-05
-0.19837518 -0.060823746 -0.2352626 0.93473268 0.35534376 -0.0023801981 0.00020900271
0.49208939 -0.060087081 -0.23570687 -0.99144644 0.13051389 -2.7249489e-05 7.2120223e-05
-0.49290162 -0.053917289 -0.2396102 0.99144429 0.13053054 -7.185864e-06 0
-0.20095368 -0.053421691 -0.23217627 0.96962941 0.24456726 0.0023829858 0.0028637685
0.19903666 -0.059226774 -0.23591748 -0.9492082 0.31436616 -0.013330171 0.0021900865
0.20081465 -0.0549343 -0.23571509 -0.96721876 0.25391927 -0.0035799358 0.003071114
0.49322423 -0.051466692 -0.23710634 -0.99144262 0.13054363 -5.2566589e-05 6.5600223e-05
-0.49393803 -0.046045158 -0.23438986 0.9914428 0.13054171 -6.3696934e-06 7.3466817e-06
0.49468592 -0.040364407 -0.23180646 -0.99144727 0.13050759 0.00011091975 0
-0.49557042 -0.033645838 -0.23006114 0.9914453 0.13052292 1.4789218e-05 0
-0.20466359 -0.027874384 -0.23510985 0.99109578 0.13315053 -0.00012601187 4.023067e-06
0.20504959 -0.024942361 -0.23428373 -0.99212599 0.12524013 -0.00094154367 6.3422514e-05
0.49692717 -0.023340294 -0.23193192 -0.99289781 0.11896992 0.00012464511 0.00017797785
-0.49794307 -0.015623839 -0.23999991 0.99348456 0.11389362 -0.0040803594 0.00039549035
-0.2065196 -0.013776612 -0.23225048 0.99580735 0.091118485 0.0080728596 0.001167367
0.20678924 -0.011728506 -0.23385304 -0.99371332 0.11191762 0.0028544294 0.00034596017
0.49770141 -0.017459605 -0.23427153 -0.99316752 0.1166569 -0.0030658385 0.00023918356
-0.2070787 -0.0095298421 -0.23155716 0.99776024 0.064028159 0.01936226 0.0017456834
0.20781136 -0.0039647426 -0.2385443 -0.99713242 0.068892606 0.031317521 0.0019992955
-0.49901792 0.0074596056 -0.2360082 0.99765325 -0.067716748 0.010127072 0.0015523949
0.20798379 0.0026549425 -0.23464757 -0.99960834 -0.027343776 -0.0059555816 0.0032591014
0.49915847 0.0063920985 -0.23479231 -0.99939245 -0.032962568 -0.011319617 0.001291448
-0.49790698 0.015897997 -0.23284933 0.99463749 -0.10340714 -0.0017872506 0.00049446459
-0.20686352 0.011164411 -0.23434882 0.99754167 -0.067232616 0.019760314 0.0012251427
0.49778104 0.016854806 -0.23652539 -0.99684995 -0.079028614 -0.0066858069 0.00065273698
0.20463672 0.028078422 -0.23067613 -0.99144429 -0.13053003 -1.8499577e-05 4.3150462e-06
0.49633688 0.027824167 -0.23677222 -0.99143571 -0.13059545 -3.2395619e-05 0.00019886202
-0.49520183 0.036445811 -0.23822573 0.99144512 -0.13052382 -5.3716203e-06 2.319538e-05
-0.20428818 0.030725732 -0.23757914 0.99015599 -0.13991302 0.0039282381 8.8219618e-05
0.20347917 0.036870837 -0.23286614 -0.98481303 -0.17360036 -0.0025121111 0.00093482289
-0.20272946 0.042565256 -0.23200937 0.98457724 -0.17492676 0.0028836499 0.0010726252
0.20289479 0.041309603 -0.2326441 -0.98440623 -0.17582382 -0.0055117914 0.00086138211
0.49380901 0.047025051 -0.23778352 -0.99144435 -0.13053018 -1.3527072e-05 5.0142313e-05
-0.49246162 0.057259273 -0.23720634 0.99144602 -0.13051768 6.0413055e-05 0
0.49216723 0.059495635 -0.23755088 -0.99144572 -0.13051985 -3.9551407e-05 0
-0.49164444 0.063466474 -0.23937501 0.99144441 -0.13053001 8.2025617e-05 0
0.19735032 0.063297927 -0.23143429 -0.94380569 -0.33043873 -0.0064061815 0.0015913078
0.49171069 0.062963262 -0.23513985 -0.9914434 -0.13053715 -1.3971958e-05 0
-0.49007773 0.075366683 -0.23700851 0.99144179 -0.13054959 -5.819305e-06 5.2405303e-05
-0.19246116 0.075101495 -0.23298605 0.92712945 -0.37472349 -0.0036431279 0.0001508079
0.48966813 0.078478038 -0.23861828 -0.9914453 -0.13052286 -0.00010428847 0.00015163164
-0.18917152 0.083043374 -0.23486257 0.91923922 -0.39365593 0.0058492613 0.0001402655
0.18957329 0.082073465 -0.2349412 -0.92268234 -0.38555619 0.0019235351 1.0419368e-05
0.18615018 0.090337582 -0.23603895 -0.90531474 -0.42468134 -0.0071378932 0.0011816229
-0.48584431 0.1075227 -0.23222572 0.98950583 -0.14437108 0.0059307143 0.00023228067
0.18057318 0.1038017 -0.23303923 -0.86487907 -0.50165939 0.017949523 0.0019691968
0.48617738 0.10499275 -0.23857802 -0.99100292 -0.13382705 0.0019001669 0
-0.48444402 0.11815894 -0.23228809 0.97965771 -0.20045936 0.0093158614 0.0016182655
0.16937192 0.11856735 -0.2322327 -0.8019169 -0.59743327 -0.0016668977 0.00035541595
0.1728932 0.11397834 -0.23228422 -0.8283453 -0.56019002 0.0055896034 0.0016819078
0.48506874 0.11341359 -0.23882544 -0.9900322 -0.14057229 0.0086991815 0.00016117014
-0.48369542 0.12384507 -0.23018278 0.97589439 -0.21823551 -0.0018391234 0.0018421317
-0.16461778 0.12476303 -0.2350263 0.79334319 -0.60877466 -4.8026242e-05 0
0.48369682 0.12383454 -0.2356756 -0.97639441 -0.21599491 -0.00048327955 0.0014637579
-0.48159167 0.13271983 -0.2353369 0.95783281 -0.28729874 0.0039585112 0.0017898045
-0.1549264 0.13739297 -0.23612948 0.76293421 -0.64640266 -0.0097453156 0.00087953609
0.15752631 0.13400474 -0.23292476 -0.77741969 -0.62894392 -0.0069449372 0.00040337269
0.16057673 0.13002938 -0.23974259 -0.7844708 -0.62011886 -0.0076304046 0.00028827597
-0.47648287 0.14505357 -0.23846269 0.9355911 -0.35301486 0.0070581743 0.00088839926
-0.15219435 0.14095347 -0.23595372 0.74328095 -0.66891176 -0.0095171221 0.0016221527
-0.14992531 0.14391053 -0.23328581 0.73244107 -0.68073148 -0.011612533 0.001518752
0.47732043 0.14303152 -0.23912334 -0.93575734 -0.35255572 -0.0079140933 0.00053132023
-0.47342831 0.15242797 -0.23540017 0.9246906 -0.38071814 -0.0010055829 6.3504827e-05
-0.14016964 0.15279581 -0.23075531 0.6487115 -0.76093584 0.012250713 0.0012641537
-0.13775671 0.15464732 -0.2329535 0.64608872 -0.76321077 0.0088718999 0.0012052926
0.13445693 0.15717934 -0.23232502 -0.62974656 -0.776788 -0.0044398177 0.00097873795
0.14134946 0.15189049 -0.23395699 -0.67784536 -0.73519397 0.0039350046 0.0023563353
0.47104302 0.15818651 -0.2321251 -0.92386287 -0.38272375 -8.7875364e-05 8.1631326e-05
-0.46753114 0.16666493 -0.2352486 0.92388391 -0.38267291 -3.0997322e-05 1.7451541e-05
-0.12328251 0.16575383 -0.23362654 0.60733718 -0.79444396 -0.00061242771 1.2284009e-05
-0.11798883 0.16981582 -0.2341091 0.59021115 -0.80724704 0.0017435992 0.00050445466
0.12173957 0.16693777 -0.23068184 -0.6069442 -0.79474431 -0.00043571394 1.3895085e-05
-0.46307319 0.17742738 -0.23312955 0.92389494 -0.3826462 -6.5108838e-06 4.665435e-05
-0.10860322 0.17701769 -0.23335075 0.5304606 -0.84757513 -0.015098047 0.0028804217
0.11715209 0.17045787 -0.23586649 -0.57696092 -0.81675744 0.0048257895 0.0010148009
-0.083913028 0.18881132 -0.2384578 0.39242631 -0.91978258 -0.0012825688 0.00021637246
0.083282828 0.18907236 -0.23179018 -0.38270134 -0.92387211 -2.7682694e-05 0
0.46199831 0.18002243 -0.23740153 -0.92387462 -0.38269529 -6.4071857e-05 0
-0.064407445 0.19689076 -0.23489147 0.31760669 -0.94817585 -0.0094063403 0.0014225903
0.45456457 0.19796903 -0.23706032 -0.92387307 -0.38269907 -6.8449648e-05 0
-0.45046639 0.20786303 -0.23552668 0.92383021 -0.3828024 -2.6709818e-05 0.00018742136
-0.043940838 0.20254838 -0.23432373 0.17006133 -0.98542637 0.0037467787 0.00090269768
-0.035896264 0.20360747 -0.23417103 0.15352158 -0.98814201 0.0025365769 0.00066513213
-0.0081941551 0.20725454 -0.23674774 0.086238496 -0.99627036 -0.0028973119 0.0017541626
0.0010751695 0.20819178 -0.23369497 -0.022354523 -0.99962687 -0.01569395 0.0022923872
0.02230512 0.20539679 -0.23555195 -0.12374628 -0.99231392 0.00013727967 9.4263531e-05
0.03361626 0.20390764 -0.23810714 -0.13054681 -0.99144214 -3.3237091e-05 3.855929e-05
0.048523258 0.2019451 -0.23192966 -0.17166813 -0.98513472 -0.006293253 0.00083751371
0.45080835 0.20703739 -0.23911341 -0.9238717 -0.38270223 -1.325493e-05 0
-0.44752368 0.21496736 -0.23434289 0.92384493 -0.38276675 7.1255228e-05 6.0570637e-05
0.43907464 0.2353652 -0.23919338 -0.906757 -0.42161968 0.0053450353 0.00074771472
-0.43256527 0.25058308 -0.23586537 0.86269903 -0.50566912 -0.0070143491 0.0028477267
-0.4278228 0.25676355 -0.23761839 0.83302003 -0.55287534 0.020159772 0.0017553968
0.42977247 0.25422278 -0.23731473 -0.84402931 -0.53619802 -0.01030289 0.0016622451
-0.42338628 0.26254538 -0.23611516 0.80595756 -0.59193301 0.0069165356 0.00053410721
-0.41451922 0.27410114 -0.23150292 0.79336584 -0.60874522 -3.0964758e-05 0
0.41510195 0.27334172 -0.2395307 -0.79331142 -0.60881609 -6.7981222e-05 0
-0.40367189 0.28823763 -0.23717143 0.79327869 -0.6088587 -2.9063422e-05 0
-0.39753032 0.29624152 -0.23145376 0.79329205 -0.6088413 -4.1236664e-05 2.7318854e-06
0.39286816 0.30231732 -0.23224294 -0.79332691 -0.60879582 4.0226769e-06 0
-0.3804017 0.31856388 -0.23149046 0.79334682 -0.60876989 -8.1144044e-06 6.8115569e-06
0.37991017 0.31920445 -0.23923928 -0.79334867 -0.60876751 -6.7458262e-05 3.046874e-05
0.3812719 0.31742984 -0.23015167 -0.79336095 -0.60875148 -1.0705809e-05 7.0461865e-05
-0.37878233 0.3206743 -0.23790093 0.79330546 -0.60882384 1.4167041e-05 0
0.37493426 0.32568923 -0.23540367 -0.79335237 -0.60876274 1.6576114e-05 5.6012454e-05
-0.36635506 0.33686978 -0.23343025 0.78572869 -0.61856931 0.0015578844 0.00053628528
0.36767441 0.33515042 -0.23216617 -0.78731632 -0.61654758 0.0014572341 0.0002901789
0.37077826 0.33110535 -0.23464882 -0.79262125 -0.60971409 -0.00040441123 5.0051109e-05
0.3599312 0.34524143 -0.23087475 -0.75776327 -0.65252924 0.00070764101 0.0010863261
-0.3546325 0.35214692 -0.2301082 0.7018435 -0.71230549 0.0060504465 0.0023010671
-0.34786335 0.35791942 -0.23209471 0.69035804 -0.72330844 0.015187875 0.0018437629
0.34851679 0.357418 -0.23359527 -0.69709748 -0.71693647 0.007562804 0.0017675038
0.35427698 0.35261023 -0.23493995 -0.72074556 -0.69318777 0.0040829247 0.0020241204
-0.34158367 0.36273795 -0.23083055 0.64191014 -0.76677173 -0.0035288187 0.0011444318
-0.33649075 0.36664596 -0.23379338 0.61443454 -0.78896081 -0.0033325774 0
0.33342373 0.36899933 -0.23176372 -0.61257356 -0.79041165 -0.001739821 5.1884017e-05
0.32218221 0.37762529 -0.2333169 -0.6087147 -0.7933892 -4.7969883e-05 6.5034626e-05
-0.30796418 0.38853514 -0.2333321 0.60863525 -0.79345012 -0.000117805 0
-0.30143157 0.3935478 -0.23349082 0.6089502 -0.79320836 -6.1954386e-05 0
-0.29434252 0.39898744 -0.23870081 0.60858905 -0.79348558 -7.4726355e-05 4.7432226e-05
-0.28693056 0.4046748 -0.23303676 0.6088115 -0.79331487 -7.569584e-05 0
0.27760258 0.41183245 -0.23529273 -0.60878313 -0.79333669 -2.1339732e-05 0
0.25563824 0.42868629 -0.23278522 -0.52908659 -0.84852028 0.0089802099 0.0025497193
0.26468831 0.42174196 -0.23091048 -0.59222066 -0.80576026 0.0050075073 0.00048735284
-0.24620742 0.43458363 -0.23641755 0.45697737 -0.88934439 -0.015438381 0.0011559323
-0.23634088 0.43867049 -0.23460652 0.41100973 -0.91159141 -0.0084950887 0.00062537059
0.24599199 0.43467289 -0.23214626 -0.46354535 -0.88606888 -0.0027628315 0.0017371008
0.25170594 0.43170363 -0.23002148 -0.50167924 -0.86504817 0.0031114926 0.0024375431
-0.20983404 0.44964999 -0.23004454 0.3827765 -0.92384094 4.2835668e-06 0
0.20919809 0.44991338 -0.23760772 -0.38269493 -0.9238748 -8.9833877e-05 0
0.23066168 0.44102287 -0.23264249 -0.39339721 -0.91936648 0.0019809252 0.00021930413
-0.20056699 0.4534885 -0.23790377 0.38276902 -0.92384404 6.6673849e-05 0
0.19224536 0.45693541 -0.2312963 -0.38275525 -0.92384976 -1.6991298e-06 0.00012380326
-0.18417569 0.46027797 -0.23433977 0.38263467 -0.92389977 -0.00010395906 1.5591657e-05
0.17897727 0.46243122 -0.23826593 -0.38272312 -0.92386305 -2.5307249e-05 1.8288742e-05
0.18327494 0.4606511 -0.23870766 -0.38266948 -0.92388529 -2.4240579e-05 1.9580959e-05
-0.14600432 0.47608906 -0.2322399 0.3544043 -0.93509215 0.00052810967 0.0003712363
0.14593779 0.4761166 -0.23916745 -0.35014299 -0.93668693 0.0041765748 0.00066566688
-0.13244349 0.48170614 -0.23549068 0.26413077 -0.96430957 -0.018493108 0.0021544741
-0.12534723 0.48349765 -0.2367335 0.24432805 -0.96966237 -0.007663175 0.0020210494
-0.11631902 0.48468626 -0.23993367 0.15205261 -0.98836493 0.0038501662 0.00055660709
-0.1049244 0.48618639 -0.23411632 0.13698703 -0.99057269 0.00058771262 0.00018530837
-0.08875145 0.48831558 -0.23016787 0.13050944 -0.99144709 -5.7991554e-05 0.00015997927
0.079181068 0.48957556 -0.23027349 -0.13059716 -0.99143547 5.4015169e-07 0
0.094387583 0.48757359 -0.23723654 -0.13055514 -0.99144107 0.00011371607 1.4479247e-05
0.11994175 0.4842093 -0.23528622 -0.20463605 -0.97881848 0.0062025776 0.0016519995
-0.03553272 0.49532199 -0.23702179 0.13050482 -0.99144769 3.4787696e-05 0
-0.013218613 0.49825972 -0.23903431 0.092488684 -0.99571234 -0.0016611189 0.0012150173
-0.0070315683 0.49907428 -0.23159494 0.061963581 -0.99807191 0.0035985892 0.0021891876
0.02973981 0.49608466 -0.2331003 -0.1305083 -0.99144721 3.5200854e-05 0
0.04518839 0.4940508 -0.23592328 -0.13054572 -0.99144226 1.7025519e-05 9.4302501e-05
0.058405284 0.49231076 -0.23199147 -0.13056044 -0.99144036 -5.5739936e-05 0.00011129108
0.064592309 0.49149624 -0.23125684 -0.13052356 -0.99144518 3.4327331e-05 0
-0.058078736 -0.49235374 -0.22555983 0.13048707 0.99145001 -6.4384752e-05 1.7058952e-06
-0.046010535 -0.49394256 -0.2256698 0.13053752 0.9914434 2.1644832e-05 1.4671352e-05
-0.033513933 -0.4955878 -0.22902924 0.13052413 0.99144512 -1.8684454e-05 3.1207033e-05
-0.015765185 -0.49792445 -0.22805607 0.091966361 0.99575514 -0.0037269089 0.00049934967
0.0083519369 -0.49890044 -0.22009557 -0.033975944 0.99940717 0.0055595515 0.0015931053
0.018063674 -0.49762186 -0.2243432 -0.13052307 0.99144524 5.7728783e-05 0
0.045695979 -0.49398398 -0.22370894 -0.13052501 0.991445 8.0580416e-05 0
0.055493519 -0.49269408 -0.22401583 -0.13052389 0.99144518 -1.7811581e-05 6.4796674e-05
0.062291365 -0.49179918 -0.22093037 -0.13050842 0.99144715 7.5076656e-05 4.4685097e-05
0.072914459 -0.49040061 -0.22217202 -0.1304998 0.99144834 -9.7012497e-05 3.9225517e-05
-0.13470396 -0.48076981 -0.22277087 0.35987145 0.9329617 0.0086644599 0.00067818299
-0.129444 -0.48294857 -0.22445899 0.2082119 0.97792113 -0.017835187 0.0024359508
-0.10137577 -0.48665357 -0.22185995 0.13104607 0.99137628 3.1338004e-06 0
-0.099343158 -0.48692119 -0.22825211 0.13100873 0.99138123 1.0518329e-06 0
0.080665827 -0.48938012 -0.22217542 -0.13054144 0.9914428 -3.1610656e-05 0.00012156452
0.091969922 -0.48789185 -0.22205681 -0.13047862 0.99145114 2.7784939e-05 1.6103288e-05
0.12751618 -0.48321211 -0.22458136 -0.26717353 0.9634918 0.01737278 0.0017699816
0.13806897 -0.47937599 -0.22255391 -0.33413976 0.94247794 0.0092761982 0.0014565805
0.15152967 -0.47380042 -0.22045992 -0.37919807 0.92531556 0.00025456381 6.781461e-05
-0.17078716 -0.46582371 -0.22501427 0.38271594 0.92386603 3.4221684e-05 0
-0.16526338 -0.46811169 -0.22296065 0.38265136 0.92389286 -6.0284761e-05 0
0.16376767 -0.46873125 -0.22745121 -0.38267291 0.92388391 -1.8629144e-05 1.4208798e-05
0.17884447 -0.46248624 -0.22737646 -0.38270071 0.92387235 -3.2827906e-05 0
-0.20108104 -0.45327556 -0.22635293 0.38270748 0.92386955 7.5026881e-05 0
0.19623521 -0.45528275 -0.22608453 -0.38273939 0.92385632 1.2589689e-05 0
0.20309681 -0.45244059 -0.22930753 -0.38262811 0.92390245 7.3636351e-05 0
-0.22439033 -0.44362056 -0.22454607 0.38266021 0.92388916 6.9710957e-05 0
-0.21743388 -0.446502 -0.22711307 0.38270691 0.92386985 3.2113152e-05 5.4383017e-05
0.2238242 -0.44385505 -0.22218454 -0.38264349 0.92389601 3.5650672e-05 5.6006458e-05
-0.23703685 -0.43838218 -0.2251537 0.38272119 0.92386389 3.4044177e-05 4.4368473e-05
0.24548995 -0.43488082 -0.2222974 -0.47571158 0.87957197 -0.0071857483 0.0028582914
-0.27380955 -0.41474298 -0.22364274 0.60883987 0.79329312 -3.022205e-06 0
-0.29160598 -0.40108728 -0.22570819 0.60874444 0.79336637 -8.9814173e-05 4.7886599e-05
-0.30533683 -0.39055121 -0.22868723 0.60883409 0.79329759 1.373818e-05 0
-0.29989672 -0.39472553 -0.22381538 0.6087833 0.79333651 8.3965177e-05 0
0.29471779 -0.39869949 -0.22696853 -0.60872799 0.79337901 -3.5506855e-05 5.9849262e-05
0.30755901 -0.38884604 -0.22274801 -0.6088053 0.7933197 1.7434064e-05 7.0749852e-06
-0.32846251 -0.37280625 -0.22913367 0.6088053 0.7933197 -2.6978414e-05 0
0.32825559 -0.37296501 -0.22551122 -0.60875601 0.79335749 1.4678377e-05 2.3055416e-05
-0.34169894 -0.3626495 -0.22085971 0.61543149 0.78819042 0.00023474045 2.9061492e-05
-0.33764255 -0.36576211 -0.22344495 0.61253756 0.79044032 0.0013896098 7.5621014e-05
0.33407745 -0.36849773 -0.22411443 -0.61152071 0.79122835 -0.00039119006 8.1050493e-06
0.34461504 -0.36041191 -0.22136766 -0.64229822 0.76641697 -0.0076150149 0.0010664803
-0.34998673 -0.35629007 -0.22893964 0.64633054 0.76292729 0.014098898 0.0010505533
0.34791636 -0.35787871 -0.22916305 -0.66494238 0.74688572 -0.0036610079 0.002123161
0.35847938 -0.34713358 -0.22391807 -0.76145959 0.64816701 -0.0076741055 0.0009888577
0.36088201 -0.34400243 -0.2237543 -0.76125544 0.64840746 -0.0076204934 0.00096976152
-0.37008485 -0.33200902 -0.22389266 0.79337543 0.60873264 -4.6606416e-05 0
-0.36985844 -0.33230415 -0.22399595 0.79337621 0.60873163 -7.7481862e-05 0
0.36552495 -0.3379516 -0.22129312 -0.77809638 0.62811959 0.005640679 0.00052138668
0.37160596 -0.33002669 -0.22318402 -0.79340166 0.60869849 -3.6339974e-05 0
-0.37381634 -0.32714608 -0.22475103 0.79333323 0.6087876 -1.9482704e-05 6.287115e-05
-0.385167 -0.31235364 -0.22265844 0.79337651 0.60873127 8.8305271e-05 3.1327356e-05
0.38334557 -0.31472737 -0.22411658 -0.79331779 0.60880768 -2.6897649e-05 6.7888752e-05
0.39064401 -0.30521584 -0.2209674 -0.79333842 0.60878092 2.875346e-05 0
-0.39934397 -0.2938779 -0.22850244 0.7932741 0.60886467 -4.3093241e-05 2.5505255e-05
0.39651418 -0.2975657 -0.22871195 -0.79309499 0.60909808 1.4429434e-05 0
-0.40434656 -0.28735837 -0.2235419 0.79337877 0.60872829 -7.951953e-05 2.7897457e-05
0.40595275 -0.28526518 -0.22391191 -0.79334646 0.60877031 6.2647647e-05 8.2422675e-06
-0.41023585 -0.27968329 -0.22115779 0.79335499 0.6087594 -5.5676439e-05 0
0.41654676 -0.2714588 -0.22942942 -0.79330516 0.60882431 4.7977908e-05 0
-0.4186511 -0.26871639 -0.22458778 0.80280524 0.59623086 0.003545891 0.00015650145
0.4200429 -0.26690251 -0.22755688 -0.80335683 0.59549773 -0.00055943581 0.00028477996
-0.42898649 -0.25524706 -0.22441959 0.82904297 0.55914754 -0.006459679 0.0010271085
0.42960966 -0.25443488 -0.22917297 -0.85188144 0.5237 0.0060348338 0.0021854574
-0.43518695 -0.24475089 -0.22458375 0.87412423 0.48517802 0.022563173 0.0021512408
0.43509531 -0.24497211 -0.22918426 -0.88132608 0.47232017 0.013341093 0.0019929754
0.43935534 -0.23468742 -0.22871564 -0.91621333 0.40058878 0.0090411687 0.00038418389
-0.035157479 -0.20370474 -0.22869766 0.16119497 0.98688209 -0.008936814 0.00049345952
-0.018889055 -0.20584652 -0.221789 0.11743896 0.99307936 -0.0012297302 0.00017401091
0.0046791672 -0.2077173 -0.22547996 -0.04887614 0.99880457 0.0007467501 0.0019561106
0.016374299 -0.20617759 -0.22131401 -0.12565118 0.99207145 0.0024356758 4.2299522e-05
0.026880996 -0.20479436 -0.22549772 -0.13054441 0.9914425 -3.7335369e-05 2.4492931e-05
-0.45665544 -0.19292124 -0.22384018 0.92388141 0.38267878 3.7303162e-05 2.6270203e-05
-0.06227766 -0.19777292 -0.22680582 0.31036732 0.95059198 0.0068607163 0.00179497
0.05986334 -0.19877297 -0.22128332 -0.32922155 0.94424027 -0.0048384173 0.0014299408
0.0757882 -0.19217671 -0.22599322 -0.37555391 0.92679811 0.0021122531 0.00013259826
0.4557035 -0.19521946 -0.22557935 -0.92384088 0.38277692 -2.9002627e-05 0
-0.094474658 -0.18443654 -0.22024721 0.44535065 0.89532417 0.0075766449 0.001673963
0.085355669 -0.18821377 -0.2234349 -0.38358018 0.92350751 0.00037412246 1.1112767e-05
-0.46446389 -0.17407003 -0.22593375 0.92386734 0.38271287 4.5246634e-05 0
-0.11175162 -0.17460184 -0.22066997 0.56529474 0.82488614 -0.0021411262 0.0012150172
-0.10774475 -0.17767644 -0.22320241 0.5251345 0.85100818 -0.0043273182 0.0024073687
0.11484177 -0.17223066 -0.22596282 -0.55918694 0.82886285 -0.017213533 0.0016417393
0.46514231 -0.17243209 -0.22432482 -0.92388642 0.38266677 -2.9461627e-05 6.0281574e-05
-0.46640143 -0.16939238 -0.22729816 0.92389858 0.38263744 1.8535769e-05 2.6056452e-05
0.11933525 -0.16878267 -0.22164112 -0.60548872 0.79585379 -0.00037579084 4.0242991e-05
-0.47240064 -0.15490898 -0.22096744 0.92388135 0.38267896 7.0724382e-05 0
-0.14252594 -0.15098773 -0.22029316 0.67359394 0.7390545 -0.0083478801 0.0014797677
0.1337298 -0.15773728 -0.2240504 -0.62966675 0.77683222 0.0071702078 0.0004283821
-0.14720744 -0.14682776 -0.22401145 0.67972279 0.73344231 -0.0062659956 0.0015281662
0.14833193 -0.14598703 -0.22971743 -0.72416323 0.68957645 -0.0084770517 0.0016653718
0.15005709 -0.14373876 -0.22253868 -0.73414332 0.67896551 -0.00627637 0.0020440875
0.47579095 -0.14672409 -0.22730546 -0.9303717 0.36648142 -0.0099932021 0.00041375525
-0.1545531 -0.13787949 -0.22893208 0.76686311 0.64173812 0.0096486229 0.0014295214
0.48160958 -0.13267665 -0.22826433 -0.96147311 0.27489811 0.00069896277 0.0020903107
-0.48367292 -0.12401602 -0.22606032 0.96663147 0.25589567 0.011872757 0.0025034752
0.16338581 -0.12636855 -0.22050783 -0.79447526 0.60729617 0.00058956811 2.011208e-05
-0.48469931 -0.11621982 -0.22490764 0.98804605 0.15415893 0.00031277144 0.00017318348
-0.16977178 -0.11804625 -0.22823004 0.81291848 0.58237433 0.0019323134 0.00065559754
0.48550615 -0.11009141 -0.22109032 -0.98994911 0.14140148 0.002513173 5.060263e-05
-0.1813668 -0.10188571 -0.2202421 0.88116837 0.47212464 0.025311049 0.0021296239
0.17971687 -0.1050856 -0.22142088 -0.85693222 0.51470566 -0.027297823 0.0019639439
0.18088326 -0.10305303 -0.22545619 -0.85344779 0.52068073 -0.022766408 0.0016850624
-0.18364511 -0.09638536 -0.22604421 0.89091843 0.45381442 0.017800827 0.0020101671
0.18444069 -0.094464667 -0.22552326 -0.89500087 0.445858 -0.01356413 0.0014784229
-0.4888064 -0.085023582 -0.22218633 0.99145013 0.13048619 6.4470754e-05 2.6443088e-06
-0.18701112 -0.088259079 -0.22879668 0.91175902 0.41061056 0.0097169522 0.00051927118
0.18833664 -0.085059017 -0.22635452 -0.92330623 0.38406387 -0.00075852178 2.0378418e-05
0.48900554 -0.083510928 -0.22535591 -0.99144179 0.13054915 -4.4036919e-05 3.3210996e-05
-0.4898923 -0.076775253 -0.22362819 0.99145037 0.13048437 8.9582609e-05 2.594362e-05
-0.19258106 -0.07481204 -0.22494736 0.92695928 0.37516168 -0.0003792026 9.6337215e-05
0.49044037 -0.072612375 -0.22182576 -0.99144965 0.13048962 -6.5453918e-05 0
0.49183697 -0.062004253 -0.22514415 -0.99144393 0.13053338 2.6694002e-05 4.5627392e-05
-0.20135427 -0.05293538 -0.2243682 0.96811396 0.25047359 0.004274982 0.0033208202
0.19954275 -0.058004975 -0.22425079 -0.94881511 0.31578186 -0.0056378101 0.0027283402
-0.49430895 -0.043227788 -0.22625795 0.99144328 0.13053814 -8.6323907e-06 3.1795716e-05
0.49441797 -0.042399462 -0.22950202 -0.99144232 0.13054536 -2.9654268e-05 8.9148562e-05
-0.4953841 -0.035061024 -0.22561434 0.9914431 0.13053966 4.4288903e-05 0
0.20373553 -0.034923486 -0.22132376 -0.98787117 0.15522836 0.0038245381 0.00027480553
-0.49682868 -0.024088405 -0.22743174 0.99144477 0.13052668 -1.4071629e-05 0
0.20455012 -0.028736282 -0.22992799 -0.99107397 0.13331111 -0.00070698129 0
0.4963249 -0.027915042 -0.22591433 -0.99144155 0.13055123 6.8485519e-05 0
-0.49919844 -0.006088532 -0.22576033 0.99879181 0.049080193 -0.0024793565 0.0018645438
-0.20819801 -0.0010278284 -0.22187537 0.99885094 0.042580757 0.021991096 0.0016951443
0.20786235 -0.0035776289 -0.22465277 -0.99939865 0.033784285 -0.0078141652 0.002497297
0.49885356 -0.0087079201 -0.22185847 -0.99913085 0.041162647 -0.0065665133 0.0014111713
0.20823042 0.00078163232 -0.22450913 -0.99997312 -0.0064546475 -0.003469602 0.0029957565
-0.49820647 0.013623228 -0.22572029 0.99530309 -0.096714683 -0.0042347894 0.00071235822
0.49835432 0.012500055 -0.2248325 -0.99716431 -0.075203314 -0.0028081192 0.00080940331
-0.49696547 0.023049397 -0.22025406 0.99350226 -0.11374073 0.0040233815 0.00040217201
0.20504975 0.024941094 -0.22637527 -0.9922713 -0.12407436 -0.001829448 9.4398347e-05
0.49649471 0.026625171 -0.22498089 -0.99144554 -0.13052103 -5.2046809e-05 0
-0.20366316 0.035473313 -0.22514294 0.98941064 -0.14509612 0.003687388 0.0002542256
0.49524218 0.03613919 -0.22140703 -0.99144393 -0.1305331 1.3127575e-05 0
-0.49396738 0.045822125 -0.22105643 0.99144208 -0.13054751 5.0716597e-05 0.00013045271
0.20275114 0.04240074 -0.22956352 -0.98431814 -0.17635038 -0.0042813993 0.00069188472
-0.49289039 0.054002509 -0.22420201 0.99144036 -0.1305605 2.4050158e-05 4.3604672e-05
-0.20174828 0.050018162 -0.22036335 0.96991438 -0.24314523 -0.012105563 0.0021922286
-0.19928284 0.058632404 -0.22376899 0.95373851 -0.30062363 0.0028828883 0.0021963178
0.20146796 0.052147381 -0.22235776 -0.9715665 -0.23670764 -0.0053010699 0.0024429946
0.49237686 0.057903334 -0.2275209 -0.99143445 -0.13060491 -0.00012660277 8.210745e-05
-0.49128628 0.066187039 -0.2271073 0.99144125 -0.13055326 9.7516686e-06 0
-0.19593091 0.066724718 -0.22685346 0.93610615 -0.35171622 -0.0010647359 0.00086716656
0.49180198 0.062270019 -0.22573188 -0.99144095 -0.13055564 -4.4775014e-05 0
-0.49063936 0.07110092 -0.22905566 0.99143445 -0.13060509 0.00014253269 0
-0.19365409 0.072221503 -0.2209942 0.92831743 -0.37177271 -0.0034417449 0.00010140558
0.1925557 0.074873269 -0.22124672 -0.92560267 -0.37849644 0.00036551882 1.211769e-05
0.49075466 0.070224948 -0.22515245 -0.9914459 -0.13051808 -2.4074759e-05 0
-0.48849323 0.087402157 -0.2221498 0.99143809 -0.13057759 7.2926428e-05 0
-0.18855944 0.08452113 -0.22753158 0.91904145 -0.39414635 -0.0033856926 0.00015380612
0.18694156 0.088427007 -0.22874478 -0.90897226 -0.41685426 0.0013632438 0.0010597394
0.48915654 0.082363755 -0.22960263 -0.99144578 -0.13051924 -0.00013294225 5.0802973e-06
-0.48693761 0.099218249 -0.221073 0.99144095 -0.13055646 0.0001183616 0
0.18356676 0.096574545 -0.224961 -0.89145875 -0.45310193 4.4980516e-05 0.0017144451
0.48748979 0.095024019 -0.22560081 -0.9914397 -0.13056533 3.5779642e-06 0
-0.4860332 0.10608777 -0.22208396 0.99109209 -0.13316387 -0.0019728958 0
-0.17952509 0.10533555 -0.22150159 0.86143684 -0.50785327 -0.0034212393 0.002270763
0.48626572 0.10432184 -0.2210449 -0.9914366 -0.13058931 0.0001080035 0
-0.48462099 0.11681464 -0.22690214 0.98284233 -0.18439995 0.0041906731 0.0011051516
-0.16921362 0.11877364 -0.22751743 0.7933442 -0.60877335 6.0754819e-06 0
0.17294841 0.11390644 -0.22521205 -0.82468188 -0.5655967 -0.00030032895 0.0016528142
0.48420849 0.11994796 -0.22680569 -0.9812305 -0.19280376 0.0036572982 0.0018564347
-0.48317772 0.12777734 -0.22256184 0.97139812 -0.23738113 0.005991206 0.0024812196
-0.16126281 0.12913527 -0.2266168 0.78197342 -0.62328738 -0.0055067502 0.00040074947
0.16597317 0.12299665 -0.22723202 -0.7937941 -0.6081866 0.00013167756 1.3941192e-05
0.48341921 0.12594306 -0.22394703 -0.96868598 -0.24828769 0.00084010267 0.0025789328
-0.47975442 0.13715535 -0.22584432 0.94624281 -0.32339594 0.0062925396 0.0016163087
-0.15433544 0.13816316 -0.22843474 0.74935102 -0.66199946 -0.01515797 0.0015573334
0.15380262 0.13885753 -0.22281316 -0.75753063 -0.65278345 0.0046021105 0.0011810224
-0.47736794 0.14291677 -0.22853218 0.94340611 -0.33160993 0.0044381078 0.0016496858
-0.1442548 0.14966112 -0.22873496 0.68536335 -0.72815311 -0.0083766719 0.0025646661
0.14602365 0.14830385 -0.22581118 -0.69814348 -0.71595138 0.0030617022 0.002348877
0.47828543 0.14070183 -0.22486627 -0.93696004 -0.34941831 0.0035758074 0.00054910238
-0.47243518 0.15482551 -0.22459428 0.92453235 -0.38110352 -0.00021431892 3.1766052e-07
-0.14190103 0.15146726 -0.22700749 0.67980641 -0.73336828 -0.0058493586 0.0024139413
-0.13373731 0.15773152 -0.22623581 0.6312241 -0.77560049 -4.4357519e-05 0.00073875958
0.14067377 0.15240896 -0.22152871 -0.68446243 -0.72893184 0.013019184 0.0029277278
0.4731563 0.15308467 -0.22244704 -0.92625922 -0.37688637 -0.00080182846 0.00020695617
-0.46995676 0.16080907 -0.22273991 0.92385197 -0.38274992 -2.0306293e-06 3.4586334e-05
-0.12497216 0.16445729 -0.22362551 0.60722554 -0.79452938 -0.00042199489 1.8946159e-05
-0.11879619 0.16919632 -0.22906554 0.59675986 -0.80241984 0.00030430141 0.00038406928
0.12535086 0.16416672 -0.22492278 -0.60739678 -0.79439855 -0.00014387727 3.981093e-06
0.46952954 0.16184041 -0.22613722 -0.92385399 -0.382745 -0.00010817642 1.9394133e-06
-0.46318752 0.17715147 -0.22094047 0.92385453 -0.38274369 7.0346562e-07 7.1006441e-05
-0.11352342 0.17324227 -0.22510344 0.57417697 -0.81871724 -0.0047960221 0.00092185487
0.46338063 0.17668521 -0.22265771 -0.92384291 -0.38277179 5.1201034e-05 0
-0.46164125 0.18088448 -0.22720191 0.92388779 -0.3826634 -8.9896166e-05 0.00012865292
-0.45988572 0.18512276 -0.22806408 0.92389446 -0.38264737 -2.9981889e-05 2.0474017e-05
-0.0966103 0.18355194 -0.22333612 0.4688589 -0.88323355 -0.0083547849 0.0020539698
-0.083839111 0.18884192 -0.22676235 0.39478025 -0.91877449 0.0013617409 0.00019976594
0.45999837 0.18485074 -0.22935279 -0.92386848 -0.38271001 3.3071148e-05 0
-0.45669645 0.19282231 -0.22879045 0.92386568 -0.38271689 -8.6351836e-05 0
-0.07477238 0.19259748 -0.22060609 0.35969189 -0.93306607 -0.0030814235 0.00021038168
0.062234379 0.19779086 -0.22680551 -0.35286111 -0.93566096 -0.0052508176 0.00073635334
-0.45077127 0.20712692 -0.22621456 0.92386001 -0.38273057 2.9126624e-05 0
-0.047383506 0.20209514 -0.22321726 0.21590224 -0.97626418 -0.017164206 0.0026964594
-0.03185619 0.20413935 -0.22285843 0.13052838 -0.99144459 1.3475478e-05 0
-0.024215564 0.20514528 -0.2270571 0.12873016 -0.99167961 0.00027396073 1.5075729e-05
-0.011064924 0.20687661 -0.22276169 0.085436985 -0.99633688 -0.0036556872 0.0013014089
0.031736873 0.20415506 -0.22336715 -0.15009402 -0.98867112 -0.0010933719 0.00027801108
0.45316368 0.20135114 -0.22941151 -0.92385501 -0.3827427 -4.9692204e-05 0.00011117833
-0.44858825 0.21239717 -0.22418556 0.92387581 -0.38269252 7.2902374e-05 3.4668399e-05
0.44726828 0.21558395 -0.22273862 -0.92389244 -0.38265237 -0.00010491149 8.7894921e-05
-0.44189581 0.22855428 -0.22171901 0.9199422 -0.39205343 -0.00073070428 6.5112792e-05
-0.44103366 0.23063566 -0.22059174 0.91667652 -0.39962479 0.0020693163 0.00033250995
0.43883777 0.23593709 -0.22228408 -0.89855993 -0.43839711 -0.019949777 0.0010020286
0.43361026 0.24855733 -0.22240548 -0.86752957 -0.49727762 -0.010361948 0.0012889642
-0.42808795 0.25641805 -0.22876012 0.84861225 -0.52899164 -0.0050078421 0.0023664332
0.42914015 0.25504676 -0.22821218 -0.84612632 -0.53295916 -0.0049707503 0.0017889247
-0.42396164 0.26179549 -0.22359207 0.79314852 -0.60902822 0.00011142754 0
0.41795766 0.26962006 -0.22384813 -0.79507607 -0.60650963 -0.00038586813 0
0.42405909 0.26166856 -0.22518793 -0.81853402 -0.5744043 -0.0078595784 0.0012843233
0.41324922 0.27575618 -0.22542623 -0.79324841 -0.60889816 0.0001269153 0
-0.40803221 0.28255513 -0.22335987 0.79326671 -0.60887438 -9.1822716e-05 0
0.40380415 0.28806522 -0.22143233 -0.79333961 -0.60877937 -2.1912583e-05 0.00011189104
-0.40144727 0.29113677 -0.22221744 0.79330415 -0.60882556 -4.2179308e-06 0
-0.39338857 0.30163908 -0.22632357 0.79330415 -0.6088255 5.0432409e-05 0
-0.38296127 0.31522819 -0.22941011 0.79333866 -0.60878056 -1.5261106e-05 0
0.37359461 0.32743502 -0.22172913 -0.79332405 -0.60879952 -4.7481451e-05 0.00016814347
0.37006101 0.3320401 -0.22889403 -0.79264677 -0.60968107 -0.00018402321 4.8863745e-05
-0.3600097 0.34513921 -0.22037862 0.74256277 -0.66975188 -0.0057365554 0.0012896024
0.36132488 0.34342527 -0.22140425 -0.76463568 -0.64445966 -0.0019798605 0.00088026642
-0.35405433 0.35290039 -0.22576356 0.70169359 -0.71243858 0.0075712283 0.0019271468
0.34842032 0.35749206 -0.22469829 -0.68440437 -0.72904944 -0.0088041881 0.0019203048
0.35391259 0.35267973 -0.22301453 -0.72426713 -0.68950957 -0.003676001 0.0023540827
-0.33591461 0.36708796 -0.22132158 0.61155558 -0.79120016 0.0014203197 0
0.32218647 0.37762201 -0.22585547 -0.60872692 -0.79337972 5.0131152e-05 0
-0.31304029 0.38464013 -0.22667038 0.60878956 -0.79333174 0.00014438455 2.4824071e-06
-0.30833125 0.38825345 -0.22516215 0.6088137 -0.79331326 2.2733026e-05 0
0.31247765 0.38507181 -0.22286248 -0.60880208 -0.79332209 0.00021551822 0
0.29961807 0.39493936 -0.22488344 -0.6087448 -0.79336613 -5.8362715e-05 0
0.30001265 0.3946366 -0.22905749 -0.60878861 -0.79333258 2.0026828e-05 0
-0.29100072 0.40155166 -0.229581 0.60875845 -0.79335558 -0.00012412111 3.4311088e-05
0.28482521 0.40629032 -0.2279619 -0.60871744 -0.79338712 -7.2785035e-05 4.3586351e-05
0.27444696 0.41425386 -0.22512141 -0.60876703 -0.79334897 -6.237701e-05 0
-0.26194334 0.42384824 -0.22700344 0.58138853 -0.81361836 -0.0035497814 0.0012372172
-0.25747252 0.42727885 -0.22562511 0.54675317 -0.83728027 -0.004758562 0.0019508608
0.2558994 0.4284859 -0.2210393 -0.51171422 -0.85915124 0.0027934881 0.0028625322
0.26044416 0.42499858 -0.22354931 -0.5561443 -0.83093494 0.015833313 0.0020543244
-0.25052732 0.43260804 -0.22532989 0.50224364 -0.86453998 -0.017943919 0.0016211058
-0.23825155 0.43787909 -0.22728145 0.44007385 -0.89796036 0.0014645032 0.0013180304
0.2343732 0.43948549 -0.22408189 -0.42716637 -0.90416479 -0.003876436 0.0011758629
0.2460736 0.43463904 -0.22697037 -0.46117321 -0.88727415 -0.0079925787 0.0017478146
-0.2160846 0.44706091 -0.22434035 0.38277483 -0.92384166 1.0286589e-05 0
0.22913107 0.44165689 -0.22888599 -0.39235562 -0.91981196 0.0016973496 0.00047361723
-0.20805082 0.45038861 -0.2225889 0.38273746 -0.92385715 0.00014636607 0
-0.19339371 0.45645976 -0.22590929 0.38272354 -0.92386287 1.4266573e-05 0
