# .PCD v0.7 - Point Cloud Data file format
VERSION 0.7
FIELDS x y z normal_x normal_y normal_z curvature
SIZE 4 4 4 4 4 4 4
TYPE F F F F F F F
COUNT 1 1 1 1 1 1 1
WIDTH 575
HEIGHT 1
VIEWPOINT 0 0 0 1 0 0 0
POINTS 575
DATA ascii
-0.24697787 -0.41165465 -0.35558632 0.60879582 0.79332691 -0.00011009059 0
-0.23723237 -0.41913292 -0.35623884 0.60881746 0.79331034 -6.8895179e-06 4.2724336e-05
0.24879014 -0.41321865 -0.35485184 -0.60879797 0.7933253 1.0749196e-05 0
0.26341558 -0.40199691 -0.3527599 -0.6087684 0.79334807 -0.00013891123 3.0066569e-06
-0.27188641 -0.39254084 -0.35393798 0.6267668 0.77920347 -0.0023253555 0.00041034986
-0.26752761 -0.39588568 -0.35779768 0.60878152 0.79333794 -8.2278428e-05 5.129513e-05
0.2671327 -0.39914489 -0.35837489 -0.60869795 0.79340208 2.3121351e-05 2.6004449e-05
0.27035764 -0.39667046 -0.35579816 -0.60884523 0.79328907 0.00014794315 3.3330118e-05
-0.28060046 -0.3858541 -0.3594619 0.65550381 0.75517434 0.005134936 0.0010916728
0.28664973 -0.38416994 -0.35603741 -0.65450519 0.75603932 -0.005239083 0.0016084712
-0.29367757 -0.37318298 -0.35255218 0.74401283 0.66809827 0.0094613628 0.0014716667
-0.29710966 -0.36871046 -0.35418281 0.764153 0.6449604 0.0098107178 0.00094788457
-0.30847216 -0.35390368 -0.35317272 0.79342306 0.60867053 -8.9940237e-05 6.0821309e-05
0.31201807 -0.35430312 -0.3562935 -0.79333037 0.60879141 -4.6481407e-05 4.9476075e-05
-0.31849614 -0.34084105 -0.35669667 0.79325652 0.60888761 6.407722e-05 0
-0.32284084 -0.33517939 -0.35593995 0.79323083 0.60892099 0.00015531719 0
-0.33379424 -0.32090569 -0.35220078 0.79327327 0.6088658 -9.2560822e-06 4.0793207e-06
0.33338371 -0.32645702 -0.35040081 -0.79338974 0.60871392 -2.2753402e-05 4.3905882e-05
-0.34156078 -0.31078485 -0.35213414 0.79327524 0.60886329 -7.9317018e-05 0.00012837529
0.33880007 -0.31939778 -0.35606259 -0.79342318 0.60867053 -2.1617141e-05 4.0339495e-05
0.34284294 -0.31412867 -0.35605606 -0.79334772 0.60876882 1.8050261e-05 8.0524311e-05
-0.3471812 -0.30346069 -0.3542701 0.83798683 0.54568374 -0.0026946699 0.0014191007
0.35173059 -0.30254525 -0.35725573 -0.8362354 0.54794663 -0.02155968 0.0016935479
-0.048808888 -0.29233825 -0.35181782 0.21733536 0.97609079 0.003489943 0.0021785202
-0.030828096 -0.29470667 -0.35777971 0.13892552 0.99029046 -0.0049431184 0.00017313073
-0.02059876 -0.2960541 -0.35569835 0.11829891 0.99296814 -0.0044341888 0.00014412159
-0.0086412784 -0.29762912 -0.35992464 0.08594989 0.99628139 -0.0059969318 0.0010695748
0.024161326 -0.29609191 -0.35637179 -0.1300544 0.99150687 -0.00017717756 0
0.034170222 -0.29477376 -0.35291803 -0.12982169 0.99153733 -0.00013674682 0
0.046240151 -0.29318419 -0.35441339 -0.2108065 0.97750413 -0.006800863 0.0017928251
-0.35924196 -0.28202227 -0.35722196 0.91077793 0.41288558 -0.0029963348 0.00068291445
-0.067429744 -0.28565699 -0.35853887 0.36836597 0.92967957 0.0015172259 0.00026752037
-0.057401586 -0.28980884 -0.35812107 0.30797267 0.95139074 -0.0029203377 0.0021074095
0.066719532 -0.28754637 -0.35076857 -0.34676564 0.93791258 -0.0085797766 0.00068871008
0.072416067 -0.28518742 -0.35375994 -0.35824624 0.93355179 -0.011860428 0.00050888147
0.36374038 -0.28045031 -0.35328364 -0.90363216 0.42827591 -0.0053572021 0.00088005018
-0.36057788 -0.27879685 -0.35385168 0.913526 0.40676904 0.0030135335 0.00084138784
-0.090508871 -0.27610168 -0.35831735 0.4241271 0.9054423 0.017043993 0.00113624
-0.083324 -0.2790764 -0.35159817 0.393565 0.919294 0.0022693155 0.00029933025
0.096948177 -0.27502877 -0.35488066 -0.43465844 0.90034062 -0.021418393 0.00096302247
0.36656085 -0.27364194 -0.35327229 -0.923392 0.38385725 0.00092101842 0
-0.36592513 -0.26588613 -0.3521381 0.92387998 0.38268232 -0.0001025164 0
-0.10895768 -0.26640579 -0.35680068 0.53557366 0.84447891 0.0040244479 0.0017860305
0.11313889 -0.26614955 -0.35475758 -0.53313047 0.84574848 0.021943847 0.001903149
0.36886835 -0.26807186 -0.3564277 -0.92385465 0.38274339 1.2087311e-05 3.896897e-05
0.37200692 -0.26049551 -0.35384271 -0.92384624 0.38276362 -0.00021734381 0
-0.371966 -0.25130066 -0.35741907 0.92388427 0.38267201 -5.5100172e-05 0
-0.12318728 -0.25548634 -0.35709554 0.60878932 0.79333186 1.363337e-05 2.4438645e-05
-0.11981906 -0.25807106 -0.35027683 0.59861326 0.80103624 -0.0017905919 0.00019086027
0.12900624 -0.25397593 -0.35494539 -0.60872912 0.79337811 -3.0723004e-05 2.2870216e-05
0.37424624 -0.25509 -0.35649896 -0.92383891 0.38278151 8.0028694e-05 0
-0.37295812 -0.24890518 -0.35895014 0.92388809 0.38266262 4.4466757e-05 4.1753814e-05
0.13591112 -0.24867842 -0.3583332 -0.61492896 0.7885825 0.00014843252 9.3498209e-05
0.143966 -0.24249862 -0.35770556 -0.68113369 0.73191333 0.018967284 0.0020954853
0.3802591 -0.24057531 -0.35876489 -0.92384493 0.3827669 7.4349868e-05 0
-0.37665796 -0.23997211 -0.35986966 0.92382979 0.38280341 0.0002145989 0
-0.14632425 -0.23773168 -0.35382971 0.69782817 0.71625501 -0.0038280336 0.0029660098
0.15250339 -0.2348752 -0.35122111 -0.7356317 0.67737865 -0.0020330863 0.0024472848
0.38347629 -0.23280932 -0.35902691 -0.92385334 0.3827467 -5.6529602e-06 0
-0.38339719 -0.22370055 -0.35487786 0.92387557 0.38269314 2.9648258e-05 0
-0.15649353 -0.2246495 -0.35337377 0.77934074 0.62658548 -0.0043072919 0.00027734134
0.16075754 -0.22411659 -0.35833216 -0.77725625 0.62918127 -0.0019083467 0.0005919679
0.38692069 -0.22449479 -0.35845247 -0.92384362 0.38277009 -2.4559306e-05 0
-0.385795 -0.21791106 -0.35140944 0.9250586 0.37982437 -0.0002822965 0
-0.16087171 -0.2189429 -0.35041612 0.78754562 0.616256 0.00065437617 9.1125577e-05
0.16986592 -0.21224454 -0.35607693 -0.80111986 0.59850287 -0.001169518 0.00022379248
-0.39064449 -0.20620219 -0.35881928 0.93997622 0.34103447 0.011837684 0.00059344905
-0.17191195 -0.20455283 -0.35649833 0.81352156 0.58153301 -0.0014661072 0.00067472598
0.39440969 -0.20641686 -0.35363188 -0.93675625 0.34996992 0.0029750573 0.00091585994
0.39945012 -0.19198091 -0.35049278 -0.97375768 0.22756153 -0.0034170728 0.0020147539
-0.39638227 -0.18600565 -0.35644162 0.97957891 0.200901 0.0079955067 0.0013171185
0.18615229 -0.18850616 -0.35086739 -0.88253146 0.46996751 0.016393971 0.0017160492
-0.39780831 -0.17517836 -0.35439751 0.99116969 0.13259797 -0.00068599283 0.00011428424
-0.18924201 -0.17174233 -0.35863894 0.9238537 0.38274592 -4.2946987e-05 0
0.1905814 -0.17781496 -0.3565653 -0.91185856 0.41015944 0.016831759 0.00061376189
-0.19329958 -0.16194804 -0.35271978 0.9238773 0.38268882 -6.0788308e-05 1.3984593e-05
0.19482139 -0.16758034 -0.35208511 -0.92568368 0.37829611 -0.0013276234 9.751825e-06
0.40289581 -0.16580236 -0.3568593 -0.99144942 0.13049117 -9.1893518e-05 0
-0.19622386 -0.15488929 -0.35733616 0.94805133 0.31742555 -0.020969989 0.0016155203
-0.40164942 -0.14601436 -0.3572948 0.99143738 0.13058268 -5.627071e-05 0
-0.19901216 -0.14815876 -0.35817733 0.95408994 0.29893699 -0.018681651 0.0018830687
0.20387115 -0.1451928 -0.35601747 -0.9608137 0.27700257 -0.010322526 0.0020423203
-0.20291904 -0.12894201 -0.35350785 0.98210853 0.18831237 0.001066716 0.00095583283
0.20783941 -0.12082501 -0.35052428 -0.99087197 0.1348061 0.00032374237 7.9349789e-05
0.40832609 -0.12454568 -0.3588706 -0.99144536 0.13052219 -7.4736803e-05 9.3069109e-05
0.40968373 -0.11423083 -0.35740864 -0.99145323 0.13046248 3.0089677e-05 6.8519897e-05
-0.40649393 -0.10923228 -0.35369143 0.99235427 0.12341772 0.0010220153 7.6110023e-06
0.20952068 -0.10804266 -0.35280865 -0.99519241 0.097938396 -0.00026613247 0.00076227647
-0.20800567 -0.090318777 -0.35604537 0.99823904 -0.057868391 0.013042559 0.0020855295
0.21122383 -0.095094003 -0.35579062 -0.99881095 0.048089448 -0.0080004185 0.0020410786
0.41202268 -0.096460707 -0.35770994 -0.9962914 0.085871823 0.0054296306 0.00067378377
-0.40891147 -0.086934924 -0.3582994 0.99974227 0.020531332 0.0096822875 0.003810856
0.2115491 -0.085190877 -0.3548319 -0.99969864 -0.017845828 -0.016858613 0.0022779144
-0.40841466 -0.07646665 -0.3544901 0.99938548 -0.0096873958 0.033688076 0.012921428
-0.20594856 -0.071873337 -0.35809544 0.99340564 -0.11453444 0.0052008396 0.00048763477
0.20997724 -0.073240235 -0.35367787 -0.99578351 -0.091682859 -0.0030856442 0.0010698728
0.21079123 -0.079428971 -0.35211322 -0.99880284 -0.04849869 -0.0063822111 0.0020957231
-0.40633065 -0.067340046 -0.35003096 0.99965906 -0.020167125 -0.016585078 0.014840938
-0.20463553 -0.061903346 -0.35939568 0.99152547 -0.12991218 4.862489e-05 9.6635922e-06
0.20832506 -0.060679071 -0.35128716 -0.99085593 -0.13491541 -0.0015061024 7.3374622e-06
-0.41102797 -0.057355892 -0.35432178 0.99903768 -0.0027442949 -0.043774836 0.021926899
-0.20381397 -0.055665262 -0.35411704 0.98910302 -0.14716727 0.0041256212 0.00035204063
0.20750675 -0.054457698 -0.35241926 -0.9895767 -0.14395013 -0.0040356158 0.00018507884
0.40890506 -0.057664875 -0.3548831 -0.99144828 -0.13049988 8.9398345e-05 0
-0.41190824 -0.042399887 -0.35659733 0.99823672 -0.058763456 -0.0083942469 0.045416303
-0.20269938 -0.047202006 -0.35616565 0.9876768 -0.15648834 0.0024433108 0.00050872884
0.40761775 -0.047884576 -0.35344082 -0.9914425 -0.13054439 6.8317051e-05 5.1696672e-05
-0.20139426 -0.03729213 -0.35594696 0.97866493 -0.2053946 -0.0052995943 0.0021309683
0.20522743 -0.037128437 -0.35548881 -0.97102773 -0.23864926 -0.012317341 0.001905053
0.40554935 -0.032169975 -0.35990104 -0.9914462 -0.13051641 -0.00012084349 0
-0.40055397 -0.023480132 -0.35407531 0.99369115 -0.08929491 0.067855164 0.093822785
-0.19786942 -0.026894711 -0.35957918 0.95781815 -0.28727672 -0.0075160083 0.0029794849
0.20099691 -0.025138283 -0.35095942 -0.93741852 -0.34811208 -0.0080324477 0.0011578684
0.40472025 -0.025870632 -0.35716406 -0.9914512 -0.13047789 2.2027556e-05 0
-0.39914101 -0.012752436 -0.35165539 0.98583555 -0.11799932 0.11918251 0.09584751
0.19559543 -0.01209994 -0.35483649 -0.92522156 -0.37942708 -0.00043339608 3.7589434e-05
0.40336615 -0.015582735 -0.35323793 -0.99144846 -0.13049895 -8.7308479e-05 0
-0.41168416 -0.0022843052 -0.35900918 0.99845433 -0.011320374 0.054412588 0.10505482
-0.19003138 -0.007974958 -0.35865942 0.9221518 -0.38682717 0.00094526861 7.4153562e-05
-0.18696675 -0.00057739392 -0.35035816 0.91359985 -0.40660754 -0.0023451536 0.00073137239
0.19328412 -0.0065208287 -0.35775566 -0.92325282 -0.38419077 0.0012945083 1.9342569e-06
-0.41145647 0.0013499614 -0.35752428 0.99972028 0.021582413 0.0096674198 0.11485715
-0.18473859 0.0048009809 -0.35280761 0.8947348 -0.44655371 -0.0062821275 0.0012260922
0.18728179 0.0079678502 -0.35017827 -0.89034677 -0.45518979 0.0092102746 0.0016656475
0.19025376 0.00079397392 -0.35682139 -0.91192317 -0.41022038 0.010741045 0.00069516909
0.40035751 0.0072751292 -0.35402143 -0.98447359 -0.17514868 0.011603709 0.00085179869
-0.39602023 0.010942584 -0.35916868 0.98523366 -0.13635726 0.10354348 0.11780173
-0.17849582 0.018158993 -0.35322833 0.86871344 -0.49511501 -0.014075675 0.0024718493
0.18537547 0.012569396 -0.35426661 -0.88102382 -0.47305048 0.0045031793 0.0020819902
0.39899385 0.015002675 -0.35613921 -0.97155523 -0.23678271 0.0037876288 0.0029005951
-0.17270677 0.025702996 -0.35497347 0.82141703 -0.57032752 -0.00084023905 0.0016355562
0.17756349 0.024397766 -0.35561669 -0.83093709 -0.55635816 -0.0030149345 0.0014797517
0.39563286 0.025652373 -0.35491866 -0.94237047 -0.33438542 0.011148339 0.0011221884
-0.40913692 0.038375001 -0.35595614 0.97008282 -0.14049628 -0.19799049 0.14958417
-0.16487044 0.035914864 -0.35410336 0.79333329 -0.60878754 -2.6197718e-05 0
-0.407866 0.047450244 -0.35476756 0.96302527 -0.21856074 -0.15752307 0.21922685
-0.38271654 0.047532059 -0.35267481 0.097242989 0.93660331 0.33662736 0.17689638
-0.15749952 0.045520242 -0.35870549 0.78027654 -0.62541014 -0.0055262945 0.00064648793
0.15843794 0.049321167 -0.35994706 -0.75529891 -0.65527403 -0.011809284 0.0014688389
0.16237013 0.044196945 -0.35377553 -0.7816363 -0.62373358 -0.0010695285 0.00037778087
-0.40690479 0.052611828 -0.35237759 0.82907921 0.45748961 -0.32145137 0.24647772
-0.38086605 0.052000009 -0.35475099 0.54982543 -0.79040945 -0.27008325 0.24981214
-0.3799808 0.054137409 -0.35177118 0.44752154 -0.89017785 -0.08548674 0.23310389
-0.15128432 0.053619564 -0.3568854 0.75005156 -0.6612488 -0.013138342 0.0015240153
0.15715051 0.050998881 -0.35288602 -0.76385796 -0.64538425 0.00050134875 0.0015116089
0.38178068 0.059090532 -0.35055959 -0.92385048 -0.38275349 7.0101392e-05 0
-0.40479219 0.063955724 -0.35396838 0.97361022 0.22521253 0.03691097 0.22279261
-0.13912387 0.06543605 -0.35283577 0.65009314 -0.75980973 0.0082529271 0.0012570117
0.14753041 0.061942939 -0.35782009 -0.69264865 -0.72115773 -0.013008927 0.0032372021
0.37726229 0.069997534 -0.35181624 -0.9238562 -0.38273987 2.8897977e-05 0
-0.40274113 0.074969143 -0.35618088 0.98310012 -0.1830686 -2.3502826e-05 0
-0.3708216 0.076251872 -0.35788944 0.92387533 -0.38269365 -0.00013225488 3.2436175e-05
-0.36967963 0.079009131 -0.3505972 0.9238984 -0.38263795 3.7417991e-05 1.0255289e-05
0.12687783 0.077787854 -0.35344902 -0.60267609 -0.79798108 0.0027771029 3.9411636e-05
0.13428549 0.072104603 -0.35546795 -0.60927641 -0.7929579 2.1653837e-05 0
0.37504411 0.07535211 -0.3546105 -0.92384899 -0.38275713 -6.8069814e-05 7.420918e-05
-0.4011488 0.083519451 -0.35652548 0.98288238 -0.18423408 -0.00017569764 0
-0.36648533 0.086721636 -0.35429221 0.92388457 -0.38267133 -0.00010512557 2.0970452e-05
-0.11301875 0.085468411 -0.35409707 0.58679557 -0.80969113 0.0084425807 0.000637119
0.1139877 0.087677322 -0.352597 -0.56618172 -0.82427686 -0.0024384491 0.00096496148
0.12142688 0.081969887 -0.35161874 -0.60051626 -0.79960662 0.0030680459 4.9072154e-05
0.37267661 0.081067048 -0.35497594 -0.92386764 -0.38271207 -6.5855245e-05 0
-0.36325389 0.09452375 -0.35840899 0.92140067 -0.38861009 -0.0017271463 0.00012280846
-0.10453615 0.091977723 -0.35158035 0.49575603 -0.86840123 0.010266794 0.0023103177
0.10511202 0.093827441 -0.35387424 -0.49629122 -0.86815596 -0.00039645095 0.0018093695
-0.39648569 0.10756193 -0.35603654 0.96850216 -0.2489934 -0.0023882901 0.00042230077
-0.36014432 0.10203178 -0.35915768 0.91323555 -0.40742952 -0.0014457118 0.00079844682
-0.35929078 0.10409264 -0.35979295 0.91144007 -0.41141984 -0.0032693574 0.00077897095
-0.084253453 0.10087396 -0.35584545 0.3910611 -0.92036462 0.00039747334 6.1838422e-05
-0.075344875 0.10456392 -0.35635558 0.37611333 -0.92657375 -2.0373305e-05 8.8393528e-05
0.073047176 0.10711122 -0.35376385 -0.34625912 -0.93810475 -0.0080090584 0.00078682776
0.085137099 0.10210261 -0.35958242 -0.3827436 -0.92385453 9.478892e-06 0
0.36435705 0.10114978 -0.35072705 -0.91067535 -0.41311443 -0.002617243 0.00083734235
-0.39387617 0.11583222 -0.35614762 0.95679754 -0.2907522 0.0012757571 0
-0.35187718 0.11952929 -0.35230249 0.85409391 -0.52007806 0.0065078386 0.0023666543
-0.054236092 0.11296452 -0.35718369 0.28387272 -0.95881933 -0.00904328 0.0022485519
-0.04916247 0.1144798 -0.35722575 0.23918083 -0.9709546 -0.0063048033 0.0027239176
-0.020713383 0.11822712 -0.35052258 0.12220877 -0.99250346 0.0013947524 8.9872978e-05
-0.017833641 0.11860645 -0.35311925 0.11522615 -0.99333763 0.0017995135 0.00014895269
-0.0074895713 0.11996897 -0.35585016 0.065575197 -0.9978407 -0.0037283043 0.0022014261
0.025739985 0.11807214 -0.35602546 -0.12206282 -0.99251986 -0.0022514816 0.00016043735
0.036674384 0.1166321 -0.35923025 -0.14214872 -0.98982847 0.0057802512 0.00022230395
0.048087925 0.11512896 -0.35678062 -0.20562911 -0.97843552 0.019509025 0.0016624918
0.054460742 0.11428967 -0.35630369 -0.23321073 -0.97239476 0.0078315046 0.0020403531
0.06565997 0.11017156 -0.35292551 -0.33327559 -0.94282943 -1.9284209e-05 0.00067549973
-0.0035921219 0.12048233 -0.35627815 0.027106775 -0.99958456 -0.0097970683 0.0027994514
0.0056157042 0.12072247 -0.35526538 -0.033255782 -0.99926329 -0.019156681 0.0021500699
0.35289362 0.12321757 -0.35237393 -0.83525461 -0.54980057 0.0083060665 0.001792297
-0.38828191 0.13356215 -0.35217449 0.95363235 -0.30097389 5.0685358e-05 0
0.34483862 0.13371576 -0.35818088 -0.79900879 -0.60129535 0.0053722947 0.00013343936
-0.38210699 0.1531323 -0.35409328 0.94847059 -0.3168278 -0.0048685977 0.00016753221
-0.32581088 0.15349714 -0.35462984 0.79335517 -0.60875905 -7.3821531e-05 0
-0.31529421 0.16720176 -0.35213757 0.79331619 -0.60880989 3.7692913e-05 0
-0.37501004 0.17345479 -0.35873502 0.92393732 -0.3824859 -0.0066511976 0.00027658851
-0.30598325 0.17933521 -0.35342181 0.79334825 -0.60876811 -4.0232582e-05 1.8873745e-05
0.31225586 0.17618138 -0.35440686 -0.79337442 -0.60873389 5.3223768e-05 0
-0.30388439 0.18207029 -0.35659248 0.7933163 -0.60880965 -0.00012598166 2.309416e-05
-0.29843 0.18917808 -0.35724452 0.76868302 -0.63961577 0.0042538508 0.00092717173
0.30416289 0.18672906 -0.35757226 -0.78211582 -0.62313193 -0.0012032965 0.00017210036
-0.36433193 0.19691934 -0.35184783 0.91016328 -0.41424963 0.00011607431 3.795066e-06
-0.29715109 0.19084467 -0.35029063 0.76561129 -0.64328027 0.0054605105 0.00082426169
0.29546922 0.1980596 -0.35378289 -0.72576606 -0.68772143 -0.017401826 0.0026485245
0.3007091 0.1912304 -0.35774902 -0.76689851 -0.6417284 -0.0071729398 0.0010941585
-0.36284781 0.20018059 -0.35337636 0.91016555 -0.41424471 3.7361086e-05 0.00014883641
-0.35880017 0.209075 -0.35653043 0.90597928 -0.4233202 -0.0012307517 1.2645105e-05
-0.28372535 0.20564434 -0.35580489 0.66993707 -0.74241567 0.0017993349 0.0011558976
0.28902173 0.20453811 -0.3503134 -0.68417519 -0.72931767 -0.00015960194 0.0019074944
0.29101598 0.20300798 -0.35711679 -0.68505758 -0.72846591 -0.0057839649 0.0023842461
-0.27008319 0.21611273 -0.35383835 0.60995674 -0.79243392 -0.0011122937 6.6962134e-06
0.26916081 0.2197769 -0.3587158 -0.6087079 -0.79339445 -0.00012754755 1.5094612e-05
0.27363878 0.21634103 -0.35832953 -0.6167503 -0.78715879 0.00033863692 0.00022027585
0.28182098 0.21006304 -0.35989287 -0.64037508 -0.76803976 -0.0058829659 0.00098388921
-0.35381767 0.22002372 -0.35066044 0.89586335 -0.44424757 -0.0085409032 0.00031272473
-0.25478908 0.22784878 -0.35481361 0.60877371 -0.7933439 -3.7006012e-05 0
0.25620899 0.22971448 -0.35427275 -0.60874629 -0.793365 0.00014382147 0
-0.34568802 0.23539329 -0.35811371 0.8739447 -0.48586291 -0.012567035 0.00042836205
-0.25151211 0.23036337 -0.35822234 0.60878021 -0.79333895 -1.2717703e-06 3.6170823e-07
0.24754195 0.2363645 -0.35552827 -0.60870093 -0.79339975 9.873636e-05 1.1698555e-05
-0.34233469 0.24087813 -0.35925698 0.86459982 -0.50242162 -0.0062936507 0.00024124763
-0.23435837 0.24352643 -0.35528097 0.60877895 -0.79333985 5.5771311e-06 0
0.23667768 0.24470036 -0.35037553 -0.60874122 -0.79336876 7.788666e-05 1.8546205e-05
-0.33361211 0.25514504 -0.35341465 0.85315955 -0.52165002 2.6218984e-05 4.2798929e-06
0.21831472 0.25878978 -0.35378188 -0.57503211 -0.81813037 -0.00095158524 0.0013117567
-0.2065596 0.26485801 -0.35400221 0.53649932 -0.84356982 0.023629395 0.0031241158
-0.19833186 0.26930252 -0.35776141 0.46708262 -0.88370281 0.030050308 0.0027577756
0.20690249 0.2673457 -0.35047641 -0.47606382 -0.87933916 -0.011215601 0.0018916972
0.21019576 0.26501924 -0.35994998 -0.48392034 -0.87509459 0.0055323918 0.0021435805
-0.32149291 0.27496767 -0.35697794 0.83418518 -0.55148119 -0.0018743209 0.00036321604
-0.31908634 0.27890393 -0.35022342 0.82757843 -0.56134814 -0.0014859724 0.0004606366
-0.1952755 0.27056837 -0.35562086 0.44229069 -0.89658999 0.022479786 0.0019088411
-0.17570712 0.27867302 -0.3594397 0.38265631 -0.92389077 1.9885694e-05 2.1214341e-06
0.19615278 0.27179793 -0.35921308 -0.41318452 -0.91064733 -0.00025426055 0.0010995581
-0.31747317 0.28154248 -0.3518289 0.81933105 -0.57331461 0.0026447775 0.00039245476
-0.16051978 0.28496319 -0.3591983 0.38269222 -0.92387587 -0.00015394767 2.8823331e-05
-0.15436459 0.28751251 -0.35786524 0.38262504 -0.92390376 -0.00019186157 1.3841134e-05
-0.14971107 0.28943983 -0.35688615 0.38264948 -0.92389357 0.00010242185 0
0.15642755 0.28825098 -0.35368076 -0.38266903 -0.92388541 -0.00018008429 8.3549567e-05
0.16413294 0.28505963 -0.35664693 -0.38269305 -0.92387557 -9.3666931e-05 3.2920834e-05
0.17021903 0.28253889 -0.3594285 -0.38269204 -0.92387599 2.8335013e-05 0
-0.30703127 0.29527801 -0.35030496 0.79507452 -0.60650176 0.003477498 0.00015368205
-0.14262119 0.29237625 -0.35996041 0.38266444 -0.92388737 -0.0001046524 3.0555311e-05
-0.13632177 0.29498532 -0.35599205 0.38265207 -0.92389256 -0.00016312121 2.3114355e-05
-0.12874642 0.29812282 -0.3551228 0.38108528 -0.9245398 0.00048003314 0
0.1367583 0.29639742 -0.35852218 -0.38263243 -0.92390066 -7.5001983e-05 5.6531484e-05
0.1511481 0.29043758 -0.35718626 -0.38269228 -0.92387581 -9.7000948e-06 0
-0.11238217 0.30490038 -0.35834044 0.35471234 -0.93496698 -0.0039951694 0.00072294305
-0.106491 0.30732679 -0.35495466 0.26499808 -0.96420664 0.0090276236 0.0025508499
0.095797658 0.30982408 -0.3556886 -0.18399726 -0.98292643 0.00076498475 0.0017048767
0.12292981 0.30212474 -0.35431105 -0.33404249 -0.94255346 -0.0029343346 0.00085817673
-0.2905232 0.31611159 -0.35897642 0.78226328 -0.62294751 0.00070355041 1.9984394e-05
-0.28854251 0.3186112 -0.35501224 0.78102678 -0.62449759 0.00013764443 0
-0.08147864 0.31120345 -0.35799286 0.14243768 -0.98980343 -0.00077411748 0.00021419747
-0.049576379 0.31540525 -0.35296527 0.1305642 -0.99143982 8.3557294e-05 0
-0.026847862 0.31839877 -0.3540242 0.13058192 -0.99143749 -0.00010536628 1.9730613e-05
-0.018127158 0.31954736 -0.35640302 0.12155324 -0.99258447 0.00097260391 0.00012357143
0.026031962 0.31901276 -0.35882038 -0.11686604 -0.99314749 -0.0006613743 0.00011211954
0.035566878 0.31775692 -0.35109332 -0.1305784 -0.99143791 -5.2826894e-05 1.18616e-06
0.059729215 0.3145746 -0.35987419 -0.13061082 -0.99143374 -4.6460336e-05 0
0.063349657 0.31409776 -0.35993212 -0.13058271 -0.99143744 2.5317328e-05 0
0.075203337 0.31253651 -0.35042381 -0.13058805 -0.99143666 -6.397393e-05 1.1901564e-05
0.091660716 0.31036896 -0.35956898 -0.13582093 -0.99073339 9.665668e-05 0.0001017234
-0.28194508 0.32693738 -0.35208714 0.76587415 -0.64297825 -0.0039584027 0.00022090261
-0.0028912905 0.32155403 -0.35305703 0.026321132 -0.99964225 -0.0047431518 0.0030520253
-0.2765542 0.3336105 -0.3557514 0.75001681 -0.66141456 -0.002363337 0.00058630371
-0.2557089 0.35465726 -0.35356736 0.70381558 -0.71038198 0.0010007329 3.8016067e-05
-0.24540812 0.36482674 -0.35275227 0.69623357 -0.71781427 -0.0012617222 8.8173147e-05
-0.23778345 0.37235421 -0.35491893 0.68639338 -0.7272259 -0.0025645138 0.00029443606
-0.2262923 0.38311112 -0.35492983 0.65266377 -0.75764704 -0.00096559606 0.00055630557
-0.21150208 0.3945947 -0.35289675 0.61173826 -0.79106021 6.0303053e-05 6.8182126e-05
-0.20147976 0.40233544 -0.35564098 0.6115877 -0.79117662 -8.6236316e-05 0.00014653656
-0.19723308 0.40561539 -0.35528195 0.61131442 -0.79138786 -0.00010529891 7.8355988e-05
-0.18328863 0.41638538 -0.35629678 0.58187455 -0.81327826 0.00069182814 0.00053285836
-0.17228456 0.42405444 -0.35784858 0.54870093 -0.83601242 0.0032471668 0.00033624633
-0.16456312 0.42864144 -0.35100701 0.52855998 -0.84889597 0.00013810261 0.00019010423
-0.16173325 0.43032256 -0.35279465 0.52178735 -0.85307455 -0.0012973755 0.00014437364
-0.15506706 0.43428266 -0.35558617 0.51134145 -0.85937756 -0.00035169773 9.3893388e-05
-0.14491513 0.44031355 -0.35818839 0.51070654 -0.8597551 -1.6077385e-05 0
-0.10097951 0.46338397 -0.35911316 0.4067564 -0.91353631 -0.000758624 0.00017723144
-0.093784377 0.46655035 -0.35627854 0.40281168 -0.91528285 2.3851069e-05 0
-0.084493406 0.47063905 -0.3559649 0.40285328 -0.91526461 1.372908e-05 4.2219493e-05
-0.068357497 0.47774002 -0.35832641 0.36727801 -0.93011045 0.0011672786 0.00030400616
-0.05546958 0.48268181 -0.35485378 0.33226034 -0.94318002 0.0038048925 0.00034424997
-0.043250583 0.48636889 -0.35058683 0.29893449 -0.95427001 -0.0026237466 9.5825882e-05
-0.022845229 0.4925262 -0.35747674 0.28885713 -0.95737225 0.00011055927 0
-0.001556344 0.49895012 -0.35282943 0.28889635 -0.95736033 -0.00010473804 0
-0.067032769 -0.49092394 -0.34427157 0.13051227 0.99144673 -9.358528e-05 6.1657047e-05
-0.013551742 -0.49796319 -0.34677076 0.1262718 0.99199474 0.0013341863 0
0.019288393 -0.49771434 -0.34285334 -0.097639836 0.99519914 0.0067146681 0.0003691983
0.037145786 -0.49536389 -0.34210464 -0.1305138 0.9914465 -0.00013004652 0.00010152301
0.065995216 -0.49156672 -0.34458798 -0.13050364 0.99144787 7.6490214e-06 1.4402105e-05
-0.11407705 -0.48201856 -0.3465277 0.31661376 0.94831812 0.021176709 0.0015721685
-0.1012274 -0.48642316 -0.34416047 0.24286583 0.97001314 0.0095265405 0.0021041578
-0.091515929 -0.48770142 -0.34403604 0.16800933 0.98578537 -0.00026383498 0.0010398135
-0.082169384 -0.48893166 -0.34418353 0.13058253 0.99143738 0.00020209861 0
-0.077724032 -0.48951671 -0.34213209 0.13053149 0.99144417 0.00015725376 0
0.089754581 -0.48843944 -0.34368995 -0.13059554 0.99143571 4.6980305e-05 0
0.10230031 -0.48678815 -0.34993687 -0.2221694 0.97495919 0.0097607085 0.0020466046
-0.1404137 -0.47110826 -0.34262797 0.38275644 0.92384928 7.2519426e-05 5.1127532e-05
-0.12412623 -0.47785556 -0.34234074 0.37265155 0.92797112 0.00060377433 0.00019122982
0.13452344 -0.47514164 -0.34624147 -0.38271177 0.92386776 -2.0895168e-05 2.1336768e-05
-0.16345558 -0.46156281 -0.34383914 0.38268039 0.92388076 8.5529864e-06 0
-0.14882497 -0.4676238 -0.34356016 0.3827385 0.92385674 7.1193899e-05 0
0.15567946 -0.46637747 -0.34308437 -0.38273814 0.92385679 6.5263135e-05 0
-0.18481386 -0.45271489 -0.34295836 0.38296968 0.92376089 -0.00016317226 0.00019829176
-0.17621063 -0.45627892 -0.34388056 0.38272232 0.92386341 -0.0001477167 5.5767548e-05
0.18638301 -0.4536581 -0.34990177 -0.40009362 0.91647422 0.00019520381 0.00026594716
0.19215274 -0.45126793 -0.34337217 -0.41644585 0.90914196 0.0058153183 0.00050574879
0.20221686 -0.44709873 -0.34535661 -0.46530843 0.88514179 0.0034828929 0.001747413
0.21298774 -0.44068894 -0.34651306 -0.53920567 0.84212434 0.0091595147 0.0027623596
-0.22190192 -0.43089682 -0.34287459 0.60870492 0.79339671 -7.2308532e-05 0.00011950905
-0.21444201 -0.43662125 -0.3470566 0.57150185 0.82058746 -0.0046648956 0.0011242136
0.21443512 -0.43957838 -0.34192905 -0.55593354 0.83120424 -0.0061319065 0.0017758202
0.22134787 -0.43427444 -0.34838441 -0.58550376 0.8106693 -0.00082339556 0.00069559709
0.22817162 -0.4290387 -0.34742796 -0.60491973 0.79628199 0.0026624457 0.00011433762
0.23547232 -0.42343712 -0.34786901 -0.60872453 0.79338163 9.498607e-05 0
-0.23916824 -0.41764742 -0.34581825 0.60881829 0.79330969 -4.4437696e-05 3.3457614e-05
0.24618918 -0.41521433 -0.34372175 -0.60874403 0.79336661 -3.5091816e-05 5.1593906e-05
-0.25707498 -0.40390655 -0.34899038 0.6087727 0.79334468 5.1531799e-05 9.0658574e-07
0.26584831 -0.40013033 -0.34855181 -0.60873801 0.79337132 7.6387609e-05 0
-0.26884586 -0.3948741 -0.34523267 0.60975003 0.7925936 -0.00056977669 6.2970612e-06
-0.28669649 -0.38117629 -0.34929764 0.67581522 0.73705435 -0.0049733203 0.0018921241
0.28385785 -0.3863121 -0.34969616 -0.64080489 0.76770335 -0.00084851665 0.00096696126
-0.29347494 -0.37344703 -0.34353104 0.76289487 0.64652157 0.0011968083 0.0012147258
-0.3003743 -0.36445627 -0.34532991 0.79077774 0.61210316 0.00039449666 3.2793338e-05
0.30559754 -0.36267114 -0.34419274 -0.79324847 0.60889804 3.6294241e-05 0
-0.3062849 -0.35675398 -0.34792683 0.79331851 0.60880679 -7.0178012e-06 0
-0.31631809 -0.3436794 -0.34222496 0.79337728 0.60873014 3.3731638e-05 4.5651315e-05
0.31695098 -0.34787402 -0.34425664 -0.79340881 0.60868913 7.8012781e-05 8.8127432e-05
-0.32239759 -0.33575699 -0.34754771 0.79333723 0.60878247 -4.54414e-05 9.869707e-05
0.325459 -0.33678538 -0.34718218 -0.7933681 0.60874224 -6.7640445e-05 2.8391285e-05
0.33050692 -0.33020639 -0.34052059 -0.7933659 0.60874504 0.00014210989 3.3996323e-05
0.33518308 -0.32411188 -0.34704363 -0.79339612 0.60870558 5.140818e-05 0.00013594494
-0.33616257 -0.31781939 -0.3402704 0.79329979 0.60883123 -6.229563e-06 2.637893e-06
0.34564418 -0.31047776 -0.34119725 -0.80330807 0.59555888 0.0023925975 0.00056280108
0.34890845 -0.30622339 -0.34953344 -0.82482785 0.56537908 0.0023506552 0.0014673887
0.35248184 -0.30156618 -0.34815621 -0.83679336 0.54747224 0.0071429666 0.0018248707
-0.35298771 -0.29589403 -0.34717345 0.85335398 0.52131343 -0.0043858974 0.0013122836
-0.034939192 -0.29416516 -0.34600866 0.15210764 0.98836273 -0.0015521214 0.00051326724
-0.028545626 -0.29500732 -0.3453967 0.13991508 0.99016303 0.00099086028 0.00016823474
-0.015644087 -0.29670674 -0.34991607 0.1140841 0.99347103 -0.00042863368 0.00017674864
-0.0067914762 -0.29787281 -0.34880361 0.0652408 0.99783176 -0.008680162 0.0012607366
0.005429151 -0.29844677 -0.34737098 -0.037078056 0.99925578 -0.010631938 0.0021376698
0.015633158 -0.29721504 -0.34178668 -0.10116497 0.99486762 -0.0020281931 0.00050328043
0.033213131 -0.29489982 -0.34587014 -0.12972666 0.99154985 -0.00013546785 5.9355832e-05
0.050318021 -0.29264712 -0.34450099 -0.23486257 0.97190994 0.015189025 0.001842369
-0.35889775 -0.28285342 -0.34767237 0.90284246 0.42983276 -0.010924821 0.0010951187
-0.070975319 -0.28418902 -0.34135059 0.36942309 0.92926049 0.0012555558 0.0002005968
-0.05746384 -0.28978309 -0.34447846 0.30365285 0.9527815 -0.0015165595 0.0024695448
0.076417804 -0.28353029 -0.34303048 -0.36771822 0.92993438 -0.0023286052 0.00019478664
0.083826393 -0.28046244 -0.34580413 -0.38257143 0.92392594 -3.1401862e-05 4.9512455e-06
0.36160868 -0.2855961 -0.34591022 -0.8918947 0.45223051 -0.0033831992 0.0015056517
-0.091197208 -0.27581668 -0.34387773 0.43582407 0.9000113 0.006096364 0.0012713459
-0.084291406 -0.27867585 -0.3414197 0.39002219 0.92079788 -0.003731922 0.00013132408
0.092668474 -0.27680096 -0.34748936 -0.42088404 0.90711302 -0.0016065123 0.00065522199
0.3646009 -0.27837306 -0.34558675 -0.90775681 0.41929784 0.012917721 0.00049185962
-0.36546385 -0.26699987 -0.34704354 0.92389035 0.38265708 2.90188e-05 0
-0.1156945 -0.26123613 -0.34727955 0.57297754 0.81954569 0.0064431261 0.0010239849
0.11967059 -0.26113835 -0.34254012 -0.58005422 0.8144936 0.011716437 0.00088062603
0.36920828 -0.26725131 -0.34594646 -0.92387778 0.38268772 3.1034899e-05 1.511137e-05
0.37130612 -0.26218712 -0.3408193 -0.9238652 0.38271803 -0.00010580654 0.00014335179
-0.37206671 -0.25105751 -0.3486701 0.92389882 0.38263687 4.4045039e-05 0
-0.36944747 -0.25738156 -0.34469807 0.92390716 0.38261679 -0.00010132554 3.0723402e-06
-0.12564021 -0.25360405 -0.34029731 0.60884207 0.79329139 -0.00015508739 5.5360979e-05
0.37476435 -0.25383925 -0.34989959 -0.92386252 0.38272455 8.3309518e-05 3.6179671e-07
-0.13238157 -0.24843091 -0.34270343 0.62040645 0.78428042 -0.00033437024 0.00042645753
0.14460824 -0.2420059 -0.34928167 -0.66584849 0.74608064 0.0030876808 0.0014423277
0.37924185 -0.24303094 -0.34103602 -0.92387342 0.38269809 -7.9871548e-05 0.0001141169
0.38008606 -0.24099307 -0.34348354 -0.92386341 0.38272235 2.0671312e-06 7.2360231e-06
-0.38036007 -0.23103356 -0.34686071 0.92390996 0.38261002 0.00014543062 0
-0.37775892 -0.23731393 -0.34716383 0.92390895 0.38261238 9.5076248e-05 3.6691733e-06
-0.15188625 -0.23065469 -0.34662473 0.74664235 0.66465485 -0.027553653 0.0013797884
-0.14490223 -0.23882289 -0.34497193 0.68467671 0.72875118 -0.011814441 0.0020391592
-0.38152075 -0.2282311 -0.3498292 0.92385942 0.38273168 0.00021119349 0
0.38495183 -0.2292475 -0.34112081 -0.92385185 0.38275033 2.2517332e-05 5.5250734e-06
-0.38808587 -0.21237993 -0.34457707 0.9253822 0.3790344 0.00082500593 6.51355e-05
-0.16412461 -0.21470302 -0.34497437 0.79549956 0.60595292 0.0012424744 3.4388806e-05
0.3919968 -0.21224146 -0.34995046 -0.92750281 0.37380832 0.0024410954 0
-0.17358227 -0.20237571 -0.34621808 0.8236962 0.56697422 0.0080519654 0.0015018892
0.17501265 -0.2055362 -0.34497494 -0.81999868 0.57236171 -0.0020377503 0.0007238909
-0.39488411 -0.19465676 -0.34277672 0.96484792 0.26223499 0.017357429 0.0020531493
-0.1805556 -0.19270995 -0.34953874 0.86339062 0.50415748 0.019538863 0.0022814656
-0.17686395 -0.19809829 -0.34372783 0.83664131 0.54765594 0.010214693 0.0017661175
-0.18343706 -0.18575454 -0.34702635 0.90584666 0.42350492 0.0092475209 0.0013539294
0.18773593 -0.18468349 -0.34604436 -0.89221609 0.45090419 0.025216788 0.0014423443
0.40078589 -0.18183242 -0.34709796 -0.98734593 0.15857269 -0.0016731361 0.00069715775
-0.39744347 -0.17794855 -0.34366363 0.98833501 0.15228753 -0.00158127 0.00051712914
-0.1863527 -0.17871669 -0.34940863 0.91549963 0.40231705 0.0011685188 0.00068580837
0.19089149 -0.1770665 -0.3404187 -0.91609275 0.40094754 -0.0038955505 0.00043250926
0.40153387 -0.17614965 -0.34245944 -0.98982632 0.14227118 -0.0016889293 0.00019101452
-0.39886194 -0.16717847 -0.3430202 0.99118686 0.13247149 -3.8378214e-05 0
-0.19196099 -0.16517912 -0.34411192 0.9238497 0.38275534 3.9619732e-05 0
0.19559304 -0.16571771 -0.3466146 -0.92549664 0.37875062 -0.0019817532 2.5477743e-06
-0.40084517 -0.15212086 -0.34301782 0.99144274 0.13054231 -1.5661884e-06 5.8787322e-05
-0.19486326 -0.15817356 -0.34640932 0.93283719 0.3600764 -0.012642857 0.00051500893
0.19985218 -0.1554368 -0.34397477 -0.9392491 0.34318927 -0.0056828954 0.00082036853
0.40414986 -0.1562745 -0.34450316 -0.99145812 0.13042502 -2.787015e-05 5.4585056e-05
-0.40158945 -0.14646962 -0.34601134 0.9914338 0.13061057 -3.7933522e-05 6.2088897e-05
0.20467654 -0.14285251 -0.34199464 -0.96715248 0.25405619 -0.0084572155 0.0022804195
-0.40288055 -0.13666707 -0.34321937 0.99143863 0.13057344 -1.2193022e-05 0
-0.20228122 -0.13378499 -0.34686106 0.97076583 0.23907699 -0.021352645 0.0017666793
0.20624787 -0.13292535 -0.34110522 -0.98721552 0.15939049 -0.00045841222 0.001027837
-0.2036794 -0.12316844 -0.34791446 0.98922223 0.14639549 0.0027810158 0.00018286037
0.20750485 -0.12336874 -0.3465164 -0.99084109 0.13502595 0.00135579 4.7129426e-05
-0.40575886 -0.11481301 -0.3454805 0.99177301 0.12800822 0.00045342121 0
0.20876038 -0.11382309 -0.34724802 -0.99184018 0.12747039 0.0020891367 6.4222433e-05
0.40911976 -0.11851582 -0.34828383 -0.9914487 0.13049696 3.6310197e-05 0
0.20966649 -0.10693417 -0.34629622 -0.9954052 0.095750779 0.00070353789 0.00088220695
0.21031937 -0.10197041 -0.34608409 -0.99734926 0.072504789 0.0061332034 0.0014490224
-0.40826452 -0.095788866 -0.34363893 0.9980334 0.061893903 0.0099247033 0.0021561382
0.21113053 -0.095803365 -0.34355158 -0.99913913 0.040909264 0.0068834522 0.0019007673
0.41201866 -0.096491322 -0.34614751 -0.99460363 0.10373993 0.0012506576 0.00024645319
-0.40904421 -0.087942824 -0.34413016 0.99991149 0.0065202359 -0.01159675 0.0040797289
-0.20799237 -0.087392151 -0.34602374 0.99665076 -0.081775367 0.00016408194 0.0014163606
0.21093662 -0.080534272 -0.34813824 -0.99885964 -0.047698956 -0.0020524024 0.0022318771
0.41257429 -0.085546575 -0.34562814 -0.999286 -0.035743568 -0.012250826 0.0025140999
-0.20697287 -0.079650894 -0.3405298 0.99556452 -0.093958616 0.0047937706 0.00098836725
0.20983443 -0.072154567 -0.34782517 -0.9960652 -0.088559009 -0.0033925623 0.0010406722
0.21065348 -0.078381754 -0.34663707 -0.99803126 -0.061970625 -0.009657654 0.0019966313
-0.40575695 -0.06298425 -0.34796622 0.9985078 -0.042701259 -0.034041371 0.016798105
-0.20507555 -0.065244347 -0.34440231 0.9916392 -0.1290386 0.0008599076 0
0.20937961 -0.068696655 -0.34256834 -0.99404007 -0.10898697 -0.0024948528 0.00046130634
0.40948501 -0.062070992 -0.34608933 -0.99145114 -0.13047837 -3.9247814e-05 0
0.41004366 -0.066315539 -0.34577757 -0.99148166 -0.1302464 7.479478e-06 0
-0.41107613 -0.056537699 -0.34671509 0.99976152 0.018226417 0.012029318 0.027118709
-0.40504408 -0.057571694 -0.34638277 0.99893308 -0.044497527 0.012358258 0.028600615
-0.20331851 -0.051903136 -0.34463814 0.98900706 -0.1478617 0.0014063416 0.00036672823
0.20762065 -0.055323638 -0.34293818 -0.98950845 -0.14447033 -0.001125817 0.00025740929
0.40827125 -0.052849595 -0.34872553 -0.99144816 -0.13050134 -9.2193099e-05 0
-0.40335312 -0.044733122 -0.34434739 0.9984647 -0.048855163 0.026104104 0.039285954
-0.20175658 -0.040043212 -0.34219792 0.97903091 -0.20371149 0.00047511462 0.0024458109
0.407359 -0.045918621 -0.34776747 -0.99144107 -0.13055506 -4.4902277e-05 0.00010852024
-0.4124206 -0.033694699 -0.34677267 0.99136043 -0.12330519 -0.044724911 0.052218214
-0.40256768 -0.038769342 -0.34872338 0.99279743 -0.11874517 -0.015897369 0.040724713
-0.20037305 -0.032938071 -0.34739584 0.9645853 -0.26369581 0.0062965332 0.0029978317
0.20386773 -0.032067932 -0.34673947 -0.96008587 -0.27878615 0.022659361 0.0028278071
0.40646917 -0.039158195 -0.34530962 -0.991445 -0.13052495 4.4457742e-05 7.8370125e-05
-0.41275319 -0.028043585 -0.34533927 0.99825287 -0.058508895 0.0082404483 0.061073031
0.20234098 -0.028382603 -0.34201986 -0.95646238 -0.29149985 0.01440612 0.0023406961
0.40513927 -0.029054217 -0.34909785 -0.99144977 -0.13048913 2.9842702e-05 0
-0.41233024 -0.012596995 -0.34937534 0.99217176 0.0017911795 0.12486825 0.08252041
-0.39910543 -0.012482204 -0.34525996 0.98888046 -0.12062421 0.086977676 0.079563774
-0.1924163 -0.013731745 -0.34512502 0.92919993 -0.36957014 -0.00234602 0.00018907765
-0.39826256 -0.0060823895 -0.34903884 0.98599964 -0.028904771 0.16422336 0.10228626
-0.1877493 -0.0024663508 -0.34093463 0.92155319 -0.38824481 0.00239376 5.77684e-05
0.19382484 -0.007826047 -0.34851849 -0.92371231 -0.38308698 -0.00016748467 0
0.40241745 -0.0083753131 -0.3477484 -0.99117744 -0.13254039 0.00054743595 0
-0.39661455 0.0064301682 -0.34727871 0.98977125 -0.12453292 0.069601603 0.12988454
-0.18443756 0.0055276728 -0.34192815 0.896608 -0.4425053 -0.016826173 0.00097874505
0.19051114 0.0001727175 -0.34956598 -0.91532028 -0.40266669 0.0069572036 0.0006047957
-0.41039437 0.018302949 -0.34980345 0.99819684 0.038445905 -0.046098102 0.14711793
-0.3954376 0.01458578 -0.34516668 0.99896145 0.0021001643 -0.045515399 0.13636735
0.39986676 0.011003815 -0.34765598 -0.97927058 -0.20245275 -0.0064797294 0.0020597968
-0.39089248 0.027791621 -0.34211335 0.84159774 -0.52217078 -0.13802518 0.15373845
-0.17388602 0.024166236 -0.34659031 0.83137 -0.55571908 -0.00027543874 0.0020482973
0.39648309 0.023599997 -0.34355274 -0.94604975 -0.32345751 -0.01910869 0.0018069587
-0.4094736 0.033000614 -0.3436811 0.99994731 -0.0074228318 -0.0070932684 0.15667933
-0.38646793 0.038474508 -0.34332311 0.65285587 -0.70958507 -0.26508167 0.19852147
-0.16498137 0.035770293 -0.34688425 0.79333007 -0.60879183 2.8310807e-05 5.6384324e-06
0.16917306 0.035331711 -0.3436178 -0.79999274 -0.59999877 0.0036271624 7.3373121e-05
-0.40769941 0.048345044 -0.34536982 0.99977863 0.020898065 -0.002456926 0.2316187
-0.38403189 0.04435619 -0.34739143 0.55887449 -0.73621392 -0.381639 0.22247536
0.16383883 0.042282999 -0.34532815 -0.78584224 -0.6184268 0.0005556629 0.00010240061
0.38803664 0.043989062 -0.34855363 -0.92386162 -0.3827267 -4.6829919e-05 0
-0.40595216 0.057726927 -0.3438957 0.8906557 0.4546206 0.007244511 0.21517634
0.38536555 0.050436907 -0.34849232 -0.92386192 -0.38272598 -6.626486e-05 0
-0.4043076 0.066557713 -0.34307417 0.9969191 0.01628192 0.076727636 0.1359058
-0.14105059 0.06395752 -0.34919167 0.65477186 -0.75567824 0.014975719 0.001366062
-0.13419101 0.069221392 -0.34204268 0.62867671 -0.77766383 0.0021237356 0.00039813324
0.37877768 0.06633956 -0.34368497 -0.92386931 -0.38270813 2.6422995e-05 0
-0.40315908 0.072724946 -0.34334952 0.98309034 -0.18312138 9.1017151e-05 0
-0.12071942 0.07955914 -0.34341094 0.60856533 -0.79350376 -9.6647664e-06 0
0.37659088 0.071618319 -0.34700319 -0.92385954 -0.38273165 -1.7923328e-05 0
-0.36588556 0.088169754 -0.34919026 0.92386651 -0.3827149 -2.9497995e-05 9.3509785e-05
-0.11826226 0.081444681 -0.34199479 0.58926493 -0.80793977 0.00043904589 0.00062678795
0.11869425 0.084066391 -0.34664866 -0.57805443 -0.81599027 0.0036206124 0.00093316141
0.12069032 0.082534984 -0.34946725 -0.59411997 -0.80437601 0.00088130485 0.00021742702
0.37279528 0.080780663 -0.34720522 -0.92385346 -0.38274631 7.7096709e-05 0
-0.36314875 0.094777629 -0.34534398 0.92029965 -0.39121416 0.00020326169 9.0547539e-05
-0.10395574 0.092341177 -0.34301481 0.50208473 -0.86468482 0.015201071 0.0024892876
-0.095050365 0.09640184 -0.34574026 0.46104252 -0.88735634 0.0062044193 0.001914684
0.094856024 0.098076276 -0.3439849 -0.43393123 -0.90093106 -0.0051902393 0.0014840375
0.36762139 0.093269952 -0.34537899 -0.92187995 -0.3874754 4.2469735e-05 7.4548429e-05
-0.085643008 0.1002984 -0.34023085 0.39841071 -0.91719985 -0.0036565349 0.00027762863
-0.079428554 0.10287245 -0.34794527 0.38530171 -0.92278963 0.0013380664 3.8170529e-05
-0.064414382 0.10909137 -0.34741366 0.34167105 -0.93981946 0.00047663026 0.0011492107
0.068956628 0.10880584 -0.34742814 -0.33840001 -0.94092792 -0.011832235 0.00099976663
0.077897228 0.10510194 -0.34618682 -0.37053397 -0.92880571 -0.0049603516 0.00010343219
0.082831569 0.10305774 -0.34402376 -0.38274571 -0.92385381 8.7208919e-06 0
0.36108142 0.10905684 -0.34452504 -0.90005398 -0.43577656 0.0012801515 0.00082743977
-0.052527305 0.11401504 -0.34808299 0.27387342 -0.96175772 0.0039202622 0.0026892989
-0.038191631 0.11592488 -0.34464753 0.17719886 -0.98417467 -0.00095179369 0.0013468696
-0.027271785 0.11736325 -0.34721324 0.13506632 -0.99083507 0.0017162262 6.0849768e-05
-0.017792474 0.11861187 -0.34805858 0.12004261 -0.99276853 0.00057509664 0.00010293713
0.015730234 0.11939041 -0.3478182 -0.089529537 -0.99596882 -0.0055336407 0.00073130266
0.026772065 0.11793622 -0.34289348 -0.13057165 -0.99143881 4.9958326e-06 0
0.044898059 0.11554906 -0.34873497 -0.19804989 -0.98010403 0.01313009 0.0018062434
0.052189872 0.11458874 -0.34260786 -0.22650325 -0.97379571 0.020451529 0.0024469066
0.35616818 0.11894979 -0.34540996 -0.85806578 -0.51352513 -0.0038774719 0.0029124098
0.36016759 0.11126288 -0.34007922 -0.9012028 -0.4333795 0.0039767842 0.00074314163
-0.39095032 0.12510514 -0.34683788 0.95491821 -0.29686838 0.00064266426 0
-0.34456992 0.12905157 -0.34239441 0.80530626 -0.59285861 -0.00065556366 0.00059946883
0.35197616 0.12441334 -0.34433758 -0.82753009 -0.5614084 -0.00381979 0.0014807959
-0.3420361 0.13235359 -0.3440353 0.79384595 -0.60811889 -4.6456069e-05 0
-0.33774295 0.1379481 -0.34873477 0.7933532 -0.60876167 -1.8677123e-07 1.6533659e-05
-0.38391304 0.14740843 -0.34273839 0.95217162 -0.30556327 0.00055671594 0
-0.33499819 0.14152485 -0.34294155 0.79332232 -0.60880184 -0.00010417565 0
-0.32928735 0.14896685 -0.34454817 0.79332417 -0.60879952 3.2124005e-06 9.8119135e-06
0.33883452 0.141541 -0.34583992 -0.7933563 -0.6087575 1.7183305e-05 1.0822128e-05
0.32985634 0.15324238 -0.34843752 -0.79336596 -0.60874492 -2.0619218e-05 9.1329821e-06
0.33052611 0.15236948 -0.34919831 -0.79335701 -0.60875666 -1.4180813e-05 8.2030028e-06
-0.32057324 0.16032249 -0.34960186 0.79332596 -0.60879707 3.5167119e-05 4.4629935e-05
-0.31821218 0.16339928 -0.34916699 0.79333586 -0.6087842 1.4462734e-05 8.8754396e-06
-0.37544662 0.17249547 -0.34721369 0.92865813 -0.3709296 -0.002320796 0.00056011172
-0.31149381 0.17215417 -0.34679869 0.79333252 -0.60878849 6.2697e-05 0
-0.3677648 0.18937579 -0.34865436 0.91018814 -0.41419512 9.720774e-05 0
-0.36582425 0.19363999 -0.34426832 0.91018975 -0.41419145 4.9624668e-05 4.4901494e-06
-0.2956216 0.19283779 -0.34795636 0.75738877 -0.65296173 -0.0017855092 0.00082751899
0.299209 0.19318554 -0.3428694 -0.74977887 -0.66159618 -0.01104869 0.0020800109
-0.36238575 0.20119584 -0.34302884 0.91012639 -0.41433087 -5.1962958e-05 4.8997037e-05
-0.35981101 0.20685372 -0.34190559 0.91023839 -0.41408479 2.7904924e-05 3.8792092e-07
-0.26785544 0.21782219 -0.34244612 0.60993272 -0.79245317 -0.00025220824 0
0.27960104 0.21176636 -0.34778479 -0.63245076 -0.7745831 -0.0051954016 0.00073962758
-0.26265153 0.22181545 -0.34642279 0.60883403 -0.79329759 -6.7823756e-05 0
-0.25798413 0.22539702 -0.34498435 0.60875404 -0.79335904 -5.2621017e-05 2.7408061e-05
0.26001957 0.22679073 -0.34911042 -0.60874236 -0.79336798 3.5496873e-06 2.7953149e-05
-0.34607577 0.23475909 -0.34607872 0.86076605 -0.50899106 0.0031535446 0.00012956887
-0.25137401 0.23046936 -0.34295741 0.60876453 -0.79335093 0.00010142155 2.99441e-05
-0.2413497 0.23816158 -0.34668213 0.60879678 -0.79332626 -3.5838813e-05 0
-0.23997737 0.23921463 -0.34503129 0.60883963 -0.79329336 0.00013436642 0
0.24377127 0.23925765 -0.34650889 -0.60877782 -0.79334074 -4.9960701e-05 3.3322387e-05
0.25061625 0.23400566 -0.3462359 -0.60877079 -0.79334611 2.4487258e-06 0
-0.34213787 0.24120006 -0.34563994 0.85894644 -0.51206249 0.0017320205 0.00012480332
-0.33823574 0.24758253 -0.34193373 0.85316855 -0.52163541 3.4931385e-05 0
-0.23354085 0.24415377 -0.34113815 0.60876131 -0.79335344 5.9861828e-05 0
0.23430938 0.24651749 -0.34846199 -0.60869771 -0.79340219 4.5447672e-05 5.9648726e-05
-0.33612198 0.25103986 -0.34019631 0.85316634 -0.52163887 -1.3530466e-05 0.00014528577
-0.20250249 0.26757514 -0.34010166 0.51309049 -0.8583051 -0.0071053561 0.0025884893
-0.19719665 0.26977268 -0.34676129 0.40144682 -0.91581583 0.011028579 0.00028744602
0.20504448 0.26811522 -0.34456035 -0.47834826 -0.8781293 -0.0084856264 0.002060815
-0.32356822 0.27157319 -0.34700024 0.84320509 -0.53758085 -0.0034540631 0.00022001186
-0.17993142 0.27692342 -0.34642515 0.38375387 -0.92343509 -0.00076673389 0
0.18974562 0.27445158 -0.34315547 -0.38806126 -0.92163128 0.0020584974 3.9239731e-05
0.19396287 0.27270493 -0.34306356 -0.42638719 -0.90453988 -0.0012336681 0.0012235278
-0.31574991 0.28401545 -0.34301937 0.81329811 -0.58181834 -0.0057866573 0.00037131063
-0.15932505 0.285458 -0.34069186 0.38272649 -0.92386174 3.2049345e-05 5.4725106e-06
-0.14957148 0.28949764 -0.34310466 0.38272196 -0.92386359 7.0070913e-05 0
0.15575929 0.28852773 -0.34194818 -0.38265157 -0.92389274 6.9141402e-05 1.5022349e-05
-0.31071347 0.290631 -0.34758314 0.80437434 -0.59412253 -0.0006404926 0.00021775927
-0.30390072 0.29922885 -0.34516448 0.78704137 -0.61689913 0.0012203654 5.4244603e-05
-0.14433135 0.29166794 -0.34632742 0.38267359 -0.92388362 -5.194667e-05 4.0547634e-06
-0.13531873 0.29540074 -0.34952691 0.38266623 -0.9238866 -2.4873278e-05 0
0.1509513 0.29051906 -0.34385997 -0.3826313 -0.92390114 -1.8843738e-06 3.5170171e-05
-0.30292422 0.30046123 -0.34402171 0.78705281 -0.61688262 0.0019466094 9.2284696e-05
-0.10652512 0.3073262 -0.34294537 0.27226344 -0.96217787 -0.0092974128 0.002753159
0.10129309 0.3091003 -0.34580979 -0.22034058 -0.97533387 -0.013185619 0.0015701154
0.1260431 0.30083534 -0.34696755 -0.36545983 -0.93082458 0.0021804762 0.00029047098
-0.28843251 0.31875008 -0.34878871 0.78135836 -0.62408262 7.0469025e-05 0
-0.08385957 0.31088987 -0.34219608 0.14217156 -0.98983848 -0.0026466844 2.6445445e-05
-0.074586235 0.31211126 -0.34175554 0.130586 -0.99143696 3.1680065e-05 0
-0.062506378 0.31370229 -0.34606871 0.13059917 -0.99143529 3.0096047e-05 0
-0.043741755 0.31617373 -0.34029427 0.13056983 -0.9914391 -4.4987464e-05 8.4437579e-06
-0.033862233 0.31747493 -0.34322011 0.13058077 -0.99143767 -1.7037528e-05 3.1309359e-05
0.026063215 0.31900865 -0.34768569 -0.11740783 -0.99308354 -0.00065308565 0.00016578272
0.035733171 0.31773505 -0.34522042 -0.13059315 -0.991436 -2.7200644e-05 0
0.04895087 0.31599417 -0.34554693 -0.13059092 -0.9914363 8.6419299e-05 0
0.084964171 0.31125093 -0.34325674 -0.1305763 -0.99143821 1.5335412e-06 2.5132251e-05
-0.012290103 0.32031617 -0.34417847 0.089723572 -0.99596441 -0.0021112997 0.0010545113
-0.0031615864 0.32151842 -0.34614718 0.026671393 -0.9996438 -0.0009236745 0.002411508
0.0030906559 0.32189327 -0.34512362 -0.002379494 -0.9999693 0.0074605653 0.0026714031
0.014680978 0.32050776 -0.34402925 -0.085999049 -0.9962917 0.0026700499 0.0011846047
-0.27485102 0.33575916 -0.34294191 0.75213414 -0.65900892 -0.0011836977 0.00056395982
-0.2640408 0.34643158 -0.34060815 0.71035904 -0.70382708 0.0041790623 0.00014843815
-0.25048852 0.3598111 -0.34458128 0.7025792 -0.71160555 -6.973044e-06 2.0257796e-06
-0.24445012 0.36577252 -0.34770104 0.6971783 -0.71689767 0.00031930764 1.5254486e-05
-0.23674998 0.37337452 -0.34368178 0.68324125 -0.73019242 0.00064227212 0.00029707389
