# .PCD v0.7 - Point Cloud Data file format
VERSION 0.7
FIELDS x y z normal_x normal_y normal_z curvature
SIZE 4 4 4 4 4 4 4
TYPE F F F F F F F
COUNT 1 1 1 1 1 1 1
WIDTH 580
HEIGHT 1
VIEWPOINT 0 0 0 1 0 0 0
POINTS 580
DATA ascii
-0.17495763 0.10881747 -0.30267391 0.86107796 -0.50846958 -0.001872312 0.00056422193
0.1783936 0.10272624 -0.30512476 -0.86228734 -0.50641936 -0.00023380824 3.6791065e-05
-0.46949899 0.11140889 -0.30089775 0.96245754 -0.27143249 -3.2616885e-05 6.6439708e-05
-0.17378248 0.11090423 -0.3084614 0.85936451 -0.51135778 -0.0023884643 0.00059617608
0.17216904 0.11324546 -0.30648994 -0.86061388 -0.50925797 -3.019289e-05 0
0.46760625 0.11738461 -0.30915126 -0.96922904 -0.24616058 2.3287034e-06 0
-0.46426088 0.1299832 -0.30469328 0.96243495 -0.27151242 3.268374e-05 0
-0.16443233 0.1262802 -0.30001649 0.78094137 -0.62455767 -0.0076374742 0.0024533137
0.16778162 0.12065998 -0.30502576 -0.81823826 -0.57478589 0.010362829 0.0017607055
-0.45888808 0.14903525 -0.30770224 0.96246225 -0.27141589 -0.00017538024 8.3359599e-05
0.14109226 0.1499345 -0.30295193 -0.69860184 -0.71551055 -0.00018132773 5.0601425e-06
-0.457917 0.15247865 -0.30057818 0.96244502 -0.27147663 0.00010137069 0
0.13686161 0.1540754 -0.30742505 -0.66835946 -0.74383181 0.0031515686 0.00080684409
0.45751491 0.15711576 -0.30192685 -0.96921664 -0.24620934 3.023034e-05 0
-0.45501843 0.16275704 -0.30413321 0.96245056 -0.27145681 4.0002476e-05 0
-0.12008115 0.16812414 -0.30329144 0.56152517 -0.82743233 -0.0067266915 0.0019420222
-0.11821362 0.16922922 -0.30046088 0.54583883 -0.8378889 -0.0014689744 0.0011865953
0.11779326 0.16990297 -0.30674133 -0.57744575 -0.81639779 0.0071423952 0.0017882022
0.12549552 0.16503303 -0.30185008 -0.61618346 -0.78756768 -0.0074154451 0.0022576826
0.45616657 0.16242445 -0.30759186 -0.96922725 -0.24616757 -2.8798557e-05 5.1779796e-05
-0.1118398 0.17300081 -0.30905765 0.51861024 -0.85500389 -0.0034339889 0.00023162724
-0.10637617 0.17623383 -0.30484092 0.50946224 -0.86049294 -0.000256222 2.7801651e-05
0.45383617 0.17159963 -0.30729005 -0.94390661 -0.33020914 0.0014486823 0.0020138379
-0.44825208 0.18675058 -0.30437255 0.93297851 -0.35992777 0.0017046157 0.0023092243
-0.096566588 0.18203847 -0.30173746 0.49756795 -0.86740273 -0.0062190252 0.00041321953
-0.084415473 0.1892287 -0.30585977 0.43921956 -0.89811736 0.021708939 0.0026335188
0.091011375 0.18498504 -0.30749875 -0.46177685 -0.88697183 -0.0065766149 0.00076185504
-0.081043795 0.19108018 -0.30998647 0.41591734 -0.90934098 0.010574067 0.0027759934
-0.064795613 0.19562112 -0.30678385 0.29330596 -0.95597744 0.0088661881 0.00082703133
-0.054148126 0.19859681 -0.30880544 0.26318192 -0.96474558 -0.0011231627 0.00010233671
0.067680836 0.19514576 -0.3027457 -0.3178609 -0.94745511 0.035961047 0.0014914637
0.079788774 0.19130498 -0.30265713 -0.3698827 -0.92899787 0.012236841 0.0029517647
0.4426055 0.19635323 -0.30515522 -0.89559942 -0.44472107 -0.011176954 0.00026389532
-0.43768668 0.20724192 -0.30061415 0.87668043 -0.48104936 -0.0047886763 0.00042167571
-0.040591657 0.20238546 -0.3017126 0.24087688 -0.97055423 0.0016759285 0.00041117932
-0.025487164 0.20555453 -0.30694404 0.10917121 -0.99357224 0.02993338 0.0022133491
-0.0096195526 0.2057509 -0.30356067 0.014093926 -0.99990058 -0.00055435603 1.8413837e-05
0.0031894594 0.20588821 -0.30580193 -0.0075547863 -0.9999702 -0.0016083545 0.00038317742
0.016246192 0.20602819 -0.30720302 -0.068992041 -0.99761707 -0.00062813429 0.0018152975
0.032253459 0.20423257 -0.30769956 -0.17338046 -0.98462927 -0.021079028 0.0027275216
0.043379046 0.20137897 -0.30948925 -0.22851536 -0.97353822 -0.0019979037 0.00058518484
0.4373413 0.2057527 -0.30911309 -0.87250561 -0.48860413 -5.0290764e-05 5.6749923e-05
0.44014919 0.20073913 -0.30485958 -0.87795722 -0.47873759 -0.0011328483 0.00010025025
-0.42719007 0.224886 -0.30507711 0.85941398 -0.51128042 1.7143515e-05 0
0.42553169 0.22683933 -0.30659261 -0.87250769 -0.48860043 -1.3937437e-05 0
-0.42069924 0.23579657 -0.30294174 0.85940892 -0.51128882 -8.0942678e-05 3.6742742e-05
0.42019024 0.23637667 -0.30512279 -0.87248725 -0.48863685 1.8333012e-05 4.30115e-05
-0.40718472 0.25851348 -0.30893573 0.85943288 -0.51124859 0.0001619692 0
0.41073185 0.25326505 -0.30768415 -0.87247401 -0.48866048 -3.4627999e-05 6.9701913e-05
-0.40153989 0.26800203 -0.30216593 0.85930771 -0.51145887 0.00020739844 0
0.40329084 0.26655129 -0.30167708 -0.87246346 -0.48867935 -5.1680563e-05 0
-0.39847276 0.27315769 -0.30318668 0.85950768 -0.51112288 -9.4537172e-05 2.0290907e-05
0.39584893 0.27983916 -0.30643478 -0.8411445 -0.54076022 0.0073751193 0.0011482189
-0.39170033 0.28454164 -0.30118215 0.84694654 -0.53148282 -0.014405995 0.00054317201
0.39215177 0.28644061 -0.30308717 -0.82876998 -0.55948848 0.010621361 0.00129004
-0.38564849 0.2947143 -0.30465874 0.83064711 -0.55638289 -0.021528807 0.0014197915
0.38132763 0.29947144 -0.30753314 -0.74933106 -0.66211277 0.010466204 0.0010647203
-0.38091594 0.30198473 -0.30662337 0.78517681 -0.61924464 -0.0057795821 0.0028103006
-0.3786054 0.30423564 -0.30350554 0.76476675 -0.64419377 -0.012089681 0.0021598497
0.37778845 0.30310437 -0.30798933 -0.7419278 -0.67042953 -0.0082123354 0.0010148431
-0.37167108 0.31099102 -0.30427733 0.71355605 -0.7005555 0.0077237883 0.00066408928
-0.36502326 0.31746733 -0.30341941 0.70184231 -0.71232784 -0.0025072766 0.00010156022
-0.35703933 0.32524517 -0.30932355 0.6980896 -0.71601051 2.2761751e-06 0
0.35660404 0.3248499 -0.30877042 -0.71621919 -0.69787538 0.00015212364 0
0.36085686 0.32048443 -0.303132 -0.71627802 -0.69781506 8.1443461e-05 4.3672993e-05
-0.35044694 0.33166748 -0.3046698 0.69784927 -0.71624464 3.8384904e-05 0
0.34501195 0.33674899 -0.30777586 -0.71626836 -0.6978249 8.6248889e-05 1.7355711e-06
-0.33228502 0.34936082 -0.30846524 0.69794244 -0.71615386 3.1312487e-05 0
0.33413213 0.34791708 -0.30001494 -0.71624738 -0.69784647 -0.00012093467 9.5977965e-05
0.34131128 0.34054774 -0.30138248 -0.71600586 -0.69809413 0.00030909895 0
-0.32683402 0.35467112 -0.30916142 0.69795603 -0.71614051 0.00014760562 0
-0.31488445 0.36631235 -0.30013382 0.69776279 -0.71632898 5.5279419e-05 0
-0.31059635 0.37048978 -0.30317479 0.69775963 -0.71633202 -4.5623979e-06 1.8880723e-05
-0.30312514 0.37776825 -0.30584913 0.68628335 -0.72730339 -0.0066974489 0.00017828388
0.30572081 0.37708089 -0.30264571 -0.62894374 -0.77744627 0.002639482 0.0019297138
0.31096789 0.3716948 -0.30427131 -0.69390339 -0.71998632 0.010853183 0.001012188
0.27083033 0.39985731 -0.30860436 -0.51135778 -0.85936797 6.1449799e-05 0
0.28315529 0.39252505 -0.3036311 -0.53197646 -0.846735 0.0063876994 0.00027658578
0.2572962 0.40790889 -0.30436778 -0.51132321 -0.85938841 3.9520382e-05 0
0.26664522 0.40234706 -0.30786991 -0.51123285 -0.85944229 7.0712733e-05 0
-0.2428689 0.41655424 -0.30437312 0.48862311 -0.872495 3.6695157e-05 8.965953e-05
-0.2374943 0.41956434 -0.30285406 0.48876256 -0.87241685 6.6316352e-05 0
0.24221569 0.41688043 -0.30311567 -0.51134074 -0.85937804 -8.7521898e-05 0
-0.23056808 0.42344338 -0.30422229 0.48869151 -0.87245661 -3.4137738e-05 2.7684302e-05
-0.22460209 0.42678463 -0.3057901 0.48864129 -0.8724848 1.5194852e-05 0
0.22599386 0.42653099 -0.30493557 -0.51131415 -0.85939389 2.648298e-05 0
0.23008744 0.42409566 -0.30271316 -0.51127917 -0.85941476 -5.6160796e-05 4.3217187e-05
-0.21497309 0.43217739 -0.3046779 0.48866975 -0.87246889 8.0046782e-05 0
-0.19531813 0.44318524 -0.30573332 0.46036753 -0.88772225 -0.0032995543 0.0008461434
-0.18635429 0.44820547 -0.30569264 0.39023724 -0.92071193 0.0020943624 0.0018951823
0.18635848 0.44836262 -0.30082119 -0.33739001 -0.94114184 -0.02049573 0.002758055
-0.17168641 0.45381415 -0.3044073 0.33632147 -0.94173479 0.0048434823 0.0025569524
-0.16571778 0.4553301 -0.30594966 0.25973272 -0.96567976 0.0011738038 0.00047060219
-0.15895545 0.4570477 -0.30501521 0.25924909 -0.96581006 0.00091295823 0.00033815441
0.14640225 0.45963058 -0.30511716 -0.27145612 -0.9624508 -1.4388804e-05 0.00014310818
0.1519756 0.45805889 -0.304355 -0.27139798 -0.96246719 -0.00010833293 8.3178973e-05
0.16486625 0.45442364 -0.30533615 -0.27145135 -0.96245217 8.6039843e-05 0
-0.14021318 0.46180803 -0.30033886 0.2461842 -0.96922302 -0.00010214315 0.00014332625
-0.13696921 0.46263194 -0.30372843 0.24621072 -0.96921635 -6.8825793e-06 3.3102875e-05
0.11316846 0.46900275 -0.30048609 -0.27144024 -0.96245521 2.7196793e-05 0
-0.10795322 0.47000173 -0.30062401 0.24617638 -0.96922505 -5.4794498e-05 5.021624e-05
-0.09059798 0.47440976 -0.30365878 0.24618678 -0.96922243 1.5402024e-05 0
-0.075792626 0.47817016 -0.30790108 0.24619918 -0.96921927 -4.1754884e-06 4.3440145e-05
0.075652167 0.47958264 -0.30863506 -0.22173028 -0.97510433 -0.0027007489 0.0015499308
0.080792494 0.47813302 -0.30741817 -0.2277634 -0.97371531 -0.0015363609 0.0012972142
0.093720227 0.4744873 -0.30323893 -0.27095944 -0.96259075 -8.4562453e-05 3.678229e-05
0.10848016 0.47032487 -0.30250874 -0.27142844 -0.96245867 0.00013102891 0
-0.01547647 0.48235646 -0.30281058 -0.013070126 -0.99991453 3.606005e-05 4.7262001e-05
-0.0020843248 0.48218143 -0.3019855 -0.013069851 -0.99991459 -0.00010781977 1.7007802e-05
0.0094893742 0.48203018 -0.30953264 -0.013062553 -0.99991465 1.2387925e-05 0
0.028652547 0.48177972 -0.30650663 -0.01304111 -0.999915 -8.7099244e-05 0.00012606152
0.042005099 0.48160517 -0.30339718 -0.013045696 -0.99991482 -4.500338e-05 0.00010544775
0.059463885 0.48137701 -0.30862039 -0.065068103 -0.99786329 -0.005923334 0.0012173366
0.069343694 0.48124784 -0.30840182 -0.13748035 -0.99050337 0.0015244938 0.0033562167
-0.043374617 -0.48158726 -0.29059321 0.01307351 0.99991459 6.9007896e-05 0
-0.023956101 -0.48184109 -0.29202873 0.013041557 0.99991494 -0.00015168427 0
-0.0074073104 -0.48205739 -0.29391086 0.013070944 0.99991459 0.00017551244 0
0.0029696915 -0.48219302 -0.29925543 0.013068784 0.99991465 -4.4281946e-06 0
0.015440929 -0.48235598 -0.29527846 0.013061012 0.99991471 -7.7710334e-05 8.6424901e-05
0.038719773 -0.48266026 -0.29452735 -0.02049673 0.9997825 -0.0038432244 0.00047974498
0.058626167 -0.4825303 -0.29945624 -0.11844766 0.99255317 -0.028431693 0.0021459875
0.063735642 -0.48123252 -0.29306054 -0.1522038 0.98834676 0.0021676777 0.0026228174
-0.10613173 -0.47098714 -0.29343355 0.27145261 0.96245182 0.00014010354 0
0.074769266 -0.47843009 -0.29807389 -0.24612945 0.96923697 0.00011755441 0
0.082380131 -0.47649699 -0.2953949 -0.24616995 0.96922666 0.00010002976 1.9724419e-05
-0.12439948 -0.46583551 -0.29694191 0.2714054 0.96246511 4.5347202e-05 5.5347973e-05
0.11352703 -0.46858603 -0.29753596 -0.24620701 0.9692173 -5.164403e-05 1.7941773e-05
0.12040792 -0.46683836 -0.29794878 -0.2461846 0.96922296 -0.00014858095 4.6169655e-05
0.13473336 -0.46319985 -0.29222935 -0.24620192 0.96921855 -2.1295087e-05 8.8853711e-05
-0.15644965 -0.45679712 -0.29731947 0.27147493 0.9624455 9.3792987e-05 0
0.18202831 -0.45062825 -0.296368 -0.39554492 0.91838366 -0.010755121 0.00147973
-0.21594113 -0.43251145 -0.29989755 0.5112797 0.85941434 7.6167351e-05 6.5329587e-06
-0.20528352 -0.43885174 -0.29642463 0.48532811 0.87432736 0.0028840085 0.00041637625
0.20828727 -0.43592182 -0.29972428 -0.4888069 0.87239206 9.5742289e-05 0
-0.22444355 -0.42745328 -0.29515308 0.51131159 0.85939544 3.2320444e-05 0
0.22422299 -0.42699698 -0.29643142 -0.48871988 0.87244081 -0.00015033448 4.8586713e-05
0.23362106 -0.4217335 -0.29180872 -0.48869106 0.87245697 -8.0458689e-05 0
-0.2371552 -0.419891 -0.2927528 0.51129663 0.85940427 -5.1258387e-05 0
-0.27028647 -0.40018082 -0.29014468 0.51137877 0.85935545 8.7943423e-05 0
0.25520837 -0.40964347 -0.29136741 -0.4887715 0.87241185 -3.1427269e-05 6.4402695e-05
0.26244307 -0.40559167 -0.29502478 -0.48866892 0.87246937 -2.2225799e-05 0
-0.28109595 -0.39375013 -0.29780817 0.5112983 0.85940337 3.1695785e-05 3.2084861e-06
-0.29315904 -0.3865737 -0.29670054 0.56425887 0.82559687 0.0013318089 0.0010367106
0.2941308 -0.38653049 -0.29405653 -0.63193733 0.77498484 -0.0073254732 0.0011436841
-0.30654252 -0.37623739 -0.29404956 0.6623162 0.74898446 0.018958952 0.0016950971
-0.31615156 -0.36637387 -0.2922332 0.71628052 0.69781244 -8.900807e-05 8.4068015e-05
-0.32759526 -0.35462704 -0.29733357 0.7162587 0.69783491 -7.1178969e-05 3.6229325e-05
0.32400948 -0.35742274 -0.29913396 -0.69780451 0.71628821 -7.6264929e-05 8.9581663e-05
-0.34104362 -0.34082246 -0.29589096 0.71621299 0.69788182 -3.3893011e-05 1.115993e-05
-0.33346567 -0.34860113 -0.29488575 0.71599466 0.69810569 5.3773791e-05 0
-0.34569964 -0.33604312 -0.2954922 0.71608329 0.69801486 -1.5029749e-05 0
0.34377998 -0.33816242 -0.29515052 -0.69778955 0.71630269 -0.0001798997 0.00011457463
0.3510513 -0.33107874 -0.29466796 -0.69785935 0.71623474 -0.00016444034 0.00011834679
0.36191511 -0.32049522 -0.29553419 -0.69792742 0.71616846 4.2265779e-05 0
0.36871952 -0.31386638 -0.29796475 -0.69804054 0.71605814 2.3490191e-05 0
-0.37493005 -0.30603847 -0.29496029 0.72433931 0.68944371 -1.0729297e-05 0.00023239992
0.37700543 -0.30579433 -0.29338914 -0.76214176 0.64729267 0.01233427 0.0018248201
-0.38255394 -0.29821271 -0.2902419 0.77168846 0.63598782 0.0040598307 0.0019248853
0.38795894 -0.29083058 -0.29463834 -0.82613981 0.56346005 -0.0023852037 0.00063130527
-0.39154649 -0.28752142 -0.29266945 0.81761801 0.57565939 -0.010818424 0.0030749242
-0.39658821 -0.27851918 -0.29885405 0.85695362 0.51538694 0.0026105193 0.00079631474
-0.40149689 -0.2697545 -0.29370663 0.87012243 0.49283552 0.00031103397 0
-0.41162866 -0.25166377 -0.29101938 0.87247908 0.48865151 -3.7670157e-05 7.3018906e-05
-0.42344686 -0.23056184 -0.29151142 0.87246627 0.48867431 -2.2998187e-05 1.8396418e-05
0.42345327 -0.23116723 -0.29803398 -0.85935354 0.51138198 -7.9940815e-05 5.1547722e-05
-0.42829722 -0.22190134 -0.29274157 0.87244797 0.48870695 1.6634509e-05 0
-0.43363953 -0.21236241 -0.2965945 0.87245059 0.4887023 8.655995e-05 3.5018984e-05
0.43253875 -0.21589524 -0.29678851 -0.85942912 0.51125503 6.7877183e-05 0
-0.029057631 -0.20505229 -0.29328227 0.14152382 0.98990506 0.0076757031 0.0023915546
-0.012580811 -0.20598888 -0.29890159 0.044275537 0.99891859 -0.014181392 0.0010193834
-0.0057865493 -0.20591606 -0.29827949 0.010836006 0.99994111 0.0006134549 0.00046837513
0.015541487 -0.20568742 -0.29687291 -0.042449813 0.99904215 -0.010620838 0.00061168458
0.020749763 -0.20563157 -0.29786506 -0.085767128 0.99615252 -0.018003991 0.0016516846
0.035962157 -0.20367929 -0.29496059 -0.20963226 0.97776693 -0.0051041911 0.0011584618
0.048398469 -0.20020367 -0.29819077 -0.23838834 0.97115165 0.0059555792 0.00059065968
0.43810287 -0.20654234 -0.29126713 -0.87193739 0.4892233 0.019638443 0.00053924235
-0.074157387 -0.1934658 -0.29361075 0.35853097 0.93351471 0.0024210876 0.0020391289
-0.064598896 -0.19593625 -0.29509938 0.30821455 0.95122796 -0.013005361 0.00143176
-0.054442812 -0.19854121 -0.29408962 0.24936476 0.9684093 -0.00083082332 6.8133818e-06
0.053800438 -0.19869398 -0.29745099 -0.26916116 0.96309513 -1.7201344e-05 0
0.063422479 -0.19600487 -0.29383823 -0.30206636 0.95327342 -0.0050681937 0.00077201059
0.079328373 -0.1915596 -0.29805526 -0.37579715 0.92666274 0.0085259182 0.0024758913
0.444509 -0.19577415 -0.29266733 -0.90867192 0.41750097 0.0028813991 0.0015638142
-0.09491165 -0.18278861 -0.29580569 0.47467434 0.88016123 0.00073285715 0.00018707468
-0.088743888 -0.18626195 -0.29647583 0.44456252 0.89574486 0.0023187846 0.0011873204
0.091064289 -0.18529437 -0.2932933 -0.44270721 0.89664567 -0.006068836 0.002762134
0.44954455 -0.18216744 -0.29167032 -0.94353294 0.33122671 -0.005873125 0.0015444719
-0.10564899 -0.17674193 -0.29447111 0.4951632 0.86879784 -0.0019326828 0.00010828616
-0.12219144 -0.16742615 -0.2946468 0.60803127 0.79364461 -0.02064467 0.0021649215
-0.11989465 -0.16871957 -0.29483905 0.57559711 0.81725681 -0.027917072 0.0022639981
0.12617855 -0.16450746 -0.29360303 -0.61594838 0.787655 0.014397596 0.002661498
-0.45797789 -0.15529308 -0.29605502 0.96884751 0.24765678 0.00076685211 0
-0.13825394 -0.15271261 -0.29549965 0.68818271 0.72553676 0.00096784782 0.00020950771
0.45743448 -0.15418978 -0.29525566 -0.96245027 0.27145833 3.6526239e-05 3.4786823e-05
-0.14954978 -0.1416564 -0.29236573 0.71391994 0.7002241 0.0021280758 0.00026007064
0.14482278 -0.14631477 -0.2940754 -0.70530641 0.70890242 0.00045675054 8.8541521e-05
-0.46243796 -0.13773306 -0.29649684 0.96921545 0.24621405 -8.3096616e-05 3.4658868e-05
-0.15389201 -0.13740626 -0.29143161 0.72525299 0.6884653 0.0048633362 0.00073786709
-0.16590609 -0.12382954 -0.29428586 0.80814916 0.5889768 0.001152155 0.0017433558
0.46702546 -0.12017992 -0.29656205 -0.96246433 0.27140835 -1.3991577e-05 0
-0.46860749 -0.11344257 -0.29691279 0.96922708 0.24616854 0.00016823418 0
-0.17305756 -0.11174391 -0.29951277 0.85090476 0.52531618 0.0020126752 0.00053948042
-0.1695195 -0.11772306 -0.29369408 0.82952064 0.55847573 0.00058831036 0.0012029196
-0.46961829 -0.10946292 -0.29731366 0.96921486 0.24621639 0.00015756393 0
-0.17904907 -0.10161854 -0.29367119 0.86458403 0.50248575 0.0016393003 0.00016002639
0.17847146 -0.10257782 -0.29978916 -0.87133247 0.49069318 2.8710672e-05 0
-0.18159804 -0.097310893 -0.29656902 0.8695277 0.49388242 0.001277943 0.00029496782
0.47428402 -0.094441041 -0.29548031 -0.96336651 0.26818752 -0.00067853701 0
-0.47594064 -0.084570616 -0.29359233 0.96921957 0.24619804 -1.3491908e-05 5.70517e-05
0.18781738 -0.085981838 -0.29794466 -0.90182149 0.43207335 0.0055360165 0.0016202158
0.47677952 -0.085592002 -0.2987428 -0.96674103 0.25570834 0.005020061 9.6454212e-05
-0.47829986 -0.07528206 -0.29420099 0.97238696 0.23336129 0.002464623 0.00013412624
-0.19244814 -0.076149091 -0.29895443 0.93206894 0.36227086 0.0027235199 0.0019073255
0.19442223 -0.07050164 -0.29508537 -0.94966561 0.31297258 -0.013539977 0.001304629
-0.48039061 -0.067050442 -0.29536885 0.97296906 0.23093307 0.0011294018 0.00016089268
0.19469517 -0.069437481 -0.29637975 -0.94966036 0.3127858 -0.017610544 0.0011461545
-0.48286757 -0.054579221 -0.29717481 0.99709034 0.075400352 -0.011208754 0.0016001529
0.19948791 -0.050751753 -0.29421681 -0.96849531 0.24903128 -0.00036951402 1.681229e-05
0.48149455 -0.050472189 -0.29547426 -0.99967802 0.025275536 0.0022355372 0.00041410411
-0.2010797 -0.045263954 -0.29640809 0.96511424 0.26182911 -0.00012373301 5.9130947e-05
-0.4826158 -0.035316512 -0.29549953 0.999982 -0.0059490297 -0.00081864919 0.00014692076
-0.20257092 -0.03992806 -0.29429197 0.97538751 0.22049637 0.00075814337 0.0013220386
0.48167223 -0.03687267 -0.2900385 -0.99991441 0.013082268 -9.6459798e-06 4.8869253e-05
-0.48244312 -0.022104876 -0.29690102 0.99991453 -0.013077168 -1.7209513e-05 1.3984995e-05
-0.20555785 -0.027627209 -0.29402602 0.99109918 0.12951319 0.030803071 0.001969073
0.48184794 -0.023431294 -0.29246598 -0.99991429 0.013091349 8.1444872e-05 1.2236261e-06
-0.48231211 -0.012079682 -0.2917403 0.99991435 -0.013087529 -8.6429231e-05 0.0001793478
-0.20570517 -0.013884509 -0.29130584 0.99911237 0.041671865 0.0061620693 0.00076469296
0.20605776 -0.019006647 -0.29301095 -0.99461657 0.10304287 -0.010953227 0.0011732569
0.48194504 -0.01600131 -0.29183245 -0.99991441 0.013084146 -9.8879005e-05 4.5305089e-05
-0.48218709 -0.0025149621 -0.29441693 0.99991548 -0.012995196 0.00023037284 0
-0.2057851 -0.0064298091 -0.29276985 0.99968272 0.025182314 -0.0006366556 0.00028821614
-0.48206645 0.0067137871 -0.29974231 0.99991596 -0.012959823 0.00021232033 0
-0.20591819 0.0059859818 -0.29714161 0.99994266 0.010712305 1.6438116e-05 0
0.48218253 0.0021652114 -0.29538098 -0.99991459 0.013068384 -1.6663093e-05 2.1316864e-05
-0.48197246 0.013904663 -0.29529011 0.99991506 -0.013035057 -0.00011508126 1.9393136e-05
0.20570232 0.014151773 -0.29472828 -0.99872714 -0.050074033 -0.0060631409 0.0014145939
0.48235869 0.015644381 -0.29260102 -0.99991465 0.013061821 2.6347878e-05 0
-0.20265277 0.038412742 -0.29276198 0.976502 -0.21542454 0.0060179955 0.00052088517
0.48257947 0.032538351 -0.29225415 -0.99991453 0.013069721 5.5974211e-05 0
-0.19978087 0.049609609 -0.29314655 0.96864253 -0.24845853 1.3385687e-05 7.8893954e-06
0.20148009 0.043831211 -0.2941975 -0.97392178 -0.22688293 -0.00074714923 0.0012567404
0.48278844 0.048522286 -0.29906607 -0.99781018 -0.065719806 -0.0074692182 0.0013337096
0.19743137 0.058318213 -0.29537439 -0.96276134 -0.27035257 0.00026834037 3.566028e-05
0.48285079 0.053295039 -0.29376012 -0.99736351 -0.072177731 -0.0075101694 0.0010605542
-0.48133275 0.062848367 -0.29930061 0.99542391 -0.095547795 -0.0013650521 0.00153866
-0.1946044 0.069791369 -0.29477352 0.94626039 -0.32339838 0.0021568807 0.0017787564
-0.19377473 0.073026054 -0.29104334 0.94591135 -0.32442525 2.3767556e-05 0.0015576718
0.19305561 0.073975414 -0.29720679 -0.94235688 -0.33427918 -0.014866968 0.0024293843
-0.47635135 0.087110236 -0.29177985 0.97001195 -0.24300973 -0.0047933217 0.00043997503
-0.19085148 0.08059407 -0.29948777 0.92461479 -0.38061318 -0.01486579 0.0022237531
-0.18649122 0.088336781 -0.29586309 0.89455354 -0.44691184 -0.0066189542 0.0017714652
-0.18348038 0.093683228 -0.29797786 0.88310671 -0.46882764 -0.017978318 0.0007986555
0.17674211 0.10551719 -0.2972697 -0.86061686 -0.50925314 -5.6687627e-06 0
0.47050202 0.10598326 -0.29533851 -0.96923351 -0.24614315 7.7600271e-05 3.1666183e-05
-0.16908146 0.11925201 -0.29907051 0.85430074 -0.51976806 0.0033879518 0.00060282095
0.16720936 0.12162706 -0.29349655 -0.81949764 -0.57288176 0.015171289 0.0015410506
0.4664228 0.12204394 -0.29284415 -0.96924168 -0.24611095 -0.00012011268 4.7853278e-05
0.15187129 0.13938412 -0.29004282 -0.73406875 -0.67904311 0.0065865605 0.00053383084
0.46239355 0.13790779 -0.29632735 -0.96923637 -0.24613181 3.0054159e-06 7.428274e-05
0.14499743 0.14611216 -0.29386312 -0.69831061 -0.7157948 0.00023171332 5.0266317e-06
0.45956278 0.14905301 -0.29507694 -0.96922481 -0.24617723 5.0303752e-05 0
-0.14091259 0.1503097 -0.29324251 0.67793936 -0.73509955 -0.0051817168 0.00099641748
-0.13216785 0.15924396 -0.2946288 0.63211513 -0.77448744 -0.024489816 0.0019261752
0.45788574 0.15565589 -0.29875225 -0.96922451 -0.24617858 -5.1126903e-05 1.1147474e-05
-0.12863858 0.16284972 -0.29166639 0.60862684 -0.79336262 -0.012207661 0.0024196883
-0.11961773 0.16839837 -0.29330608 0.56096727 -0.82774544 -0.01237666 0.0014470996
0.12891892 0.16184959 -0.29880792 -0.63296854 -0.77412564 -0.0089691272 0.0017771141
0.4550052 0.16699699 -0.29961249 -0.96919262 -0.24630399 -1.0877306e-05 8.6305354e-06
-0.45177209 0.1742686 -0.29384273 0.95816785 -0.28619534 -0.0025779966 0.00046848034
-0.11224004 0.17276397 -0.29238272 0.53116286 -0.84725153 -0.00555471 0.00052682287
-0.10509447 0.17699224 -0.2997115 0.50952458 -0.86045617 -3.3492564e-05 2.8003054e-05
0.10567934 0.17672485 -0.29537848 -0.50371414 -0.86386478 0.0031054192 0.00024953979
0.11163635 0.17337018 -0.29502311 -0.50697488 -0.86194891 0.0045398022 0.00023441178
0.45318514 0.17416304 -0.29625064 -0.94429994 -0.32878402 0.014093287 0.0017348201
-0.44913608 0.18361598 -0.29365826 0.9360882 -0.35175827 -0.0022383553 0.0020093338
-0.09600877 0.18236855 -0.29400086 0.48780301 -0.87294823 0.0031114307 0.0009439498
-0.084908888 0.18893671 -0.294633 0.4323599 -0.90157717 0.014948655 0.0025516408
-0.44698808 0.19123268 -0.29373837 0.92071778 -0.39022905 -2.799721e-05 0.0013598636
-0.081907764 0.19071257 -0.29993701 0.43206909 -0.90179622 0.0089395754 0.0025021788
-0.074224323 0.19298606 -0.29521009 0.35258639 -0.93574429 0.0081026433 0.0025626055
-0.068636827 0.19454759 -0.29483238 0.30451503 -0.95250517 0.0020892546 0.0015608695
0.055073403 0.19837946 -0.29411417 -0.26446745 -0.9643743 0.0062558511 0.00016883087
0.068685427 0.19488809 -0.29678589 -0.30784547 -0.951217 0.020428101 0.0012970119
0.075221121 0.1928854 -0.29455829 -0.3653602 -0.93059713 0.022381999 0.0023858743
0.08194939 0.19008824 -0.29961562 -0.41775155 -0.90856129 -0.00034435489 0.0031108602
-0.43722212 0.20802283 -0.29940218 0.87441391 -0.48511508 -0.007976912 0.00044166931
-0.031033898 0.20505659 -0.29132232 0.15739834 -0.9874863 0.0098291086 0.001574704
-0.022704322 0.20561062 -0.29494834 0.094058216 -0.99553251 0.0082479119 0.001977308
-0.0092815859 0.20575452 -0.29691404 0.020359399 -0.99979228 -0.0010201439 0.0001567204
0.00052094366 0.2058596 -0.29671517 0.0088228956 -0.99996102 0.00023476013 2.2465645e-05
0.026049342 0.2058239 -0.2969532 -0.091618709 -0.99542868 0.026978666 0.0017941628
0.43819648 0.20422575 -0.29493034 -0.87252247 -0.48857397 2.0853575e-05 0
-0.43139637 0.21781549 -0.2982426 0.85943079 -0.51125211 -1.511269e-05 1.5859428e-06
-0.4289633 0.22190532 -0.29562202 0.8594144 -0.5112797 6.8452428e-05 5.1422921e-05
-0.42074633 0.2357174 -0.2990903 0.85940021 -0.51130342 6.6108569e-06 0
-0.41831499 0.23980428 -0.29773679 0.85939097 -0.51131904 -0.00014572572 0
0.42113423 0.23469111 -0.29512385 -0.87244976 -0.48870385 6.6628447e-05 0
0.41199499 0.25100967 -0.29325682 -0.8725009 -0.48861253 6.3810236e-05 3.7410118e-06
-0.40323901 0.2651459 -0.29479605 0.85942256 -0.51126599 2.9785131e-05 0
0.40611535 0.26150802 -0.29507124 -0.87252706 -0.48856577 -8.0124672e-05 6.8839276e-05
-0.39988887 0.27077726 -0.29793647 0.859366 -0.51136088 3.9738683e-05 0
-0.38444802 0.29673216 -0.29474044 0.80135119 -0.59791028 -0.018428206 0.002654122
0.38433015 0.2963894 -0.29702011 -0.7673288 -0.64124119 0.004016757 0.0014283301
-0.38002235 0.30285525 -0.2978214 0.76878852 -0.63932371 -0.015147211 0.0023617749
-0.37571874 0.30704778 -0.29276925 0.75863278 -0.65147591 -0.0074571548 0.0021368905
0.37769228 0.30320308 -0.29507715 -0.73024207 -0.68318647 -0.0016675666 0.00048149764
-0.37165236 0.31100923 -0.29889774 0.72096264 -0.69297004 -0.0023127743 0.0011310773
0.36213875 0.31916863 -0.29132313 -0.71629393 -0.69779867 -1.1246691e-05 0
-0.35285327 0.32932329 -0.29219419 0.69791526 -0.71618032 -4.1694977e-05 0
0.35412008 0.32739967 -0.29649985 -0.71629214 -0.69780052 -2.3257186e-05 0
-0.34745046 0.33458668 -0.29643989 0.6978634 -0.71623087 -9.5916868e-05 5.7056481e-05
0.34549698 0.33625114 -0.29598173 -0.71616906 -0.69792682 0.00015708436 0
0.35157412 0.33001307 -0.2913903 -0.71619397 -0.69790131 -1.2067926e-05 0
-0.33641854 0.34533396 -0.29466039 0.69792289 -0.71617293 3.0234101e-05 0
0.34152514 0.34032822 -0.29871354 -0.71612322 -0.69797385 0.00019196958 0
-0.33079335 0.35081393 -0.29828072 0.69794571 -0.71615064 0.00017148264 0
-0.32740867 0.35411131 -0.29693615 0.69786763 -0.7162267 0.00014267789 6.0254247e-06
0.32784009 0.35437572 -0.29471779 -0.71619844 -0.69789678 1.8936267e-05 0
0.33099753 0.35113469 -0.2989518 -0.71626753 -0.69782585 3.7044545e-06 0
-0.32033038 0.36100692 -0.29116261 0.69784349 -0.7162503 -8.0245816e-05 3.1609427e-05
-0.31276739 0.36837479 -0.29251122 0.69778132 -0.71631086 8.6454522e-05 2.3685878e-05
0.31606108 0.36646673 -0.29389045 -0.70920801 -0.70499885 0.00085893198 0.00024641166
0.30464786 0.37818226 -0.29932836 -0.61983579 -0.78469002 -0.0080721779 0.001815879
0.29644188 0.38462073 -0.29682952 -0.60004896 -0.79955012 -0.025706459 0.0019678934
-0.27628469 0.39783964 -0.29952961 0.48877648 -0.87240905 -4.9873241e-05 5.0904608e-05
0.28375384 0.39216894 -0.29270238 -0.53160715 -0.846991 0.00027435491 0.0003337113
0.25426561 0.40971184 -0.29757175 -0.51134604 -0.85937488 9.5617419e-05 0
0.26634887 0.40252334 -0.29385915 -0.5113216 -0.85938942 2.2833443e-05 0
-0.25276893 0.41100967 -0.29151672 0.48863754 -0.87248695 -4.10389e-05 4.9216436e-05
-0.23906489 0.41868472 -0.2998116 0.48869079 -0.87245703 3.8825809e-05 0
0.25116289 0.41155764 -0.29593027 -0.51137364 -0.85935849 8.5054118e-05 0
-0.23553106 0.42066383 -0.29779899 0.4887836 -0.87240499 -2.4389457e-05 7.4536292e-05
-0.22333646 0.42749345 -0.29514173 0.48864129 -0.87248474 -9.7686079e-06 0
0.22808677 0.42528588 -0.29620153 -0.51132619 -0.85938668 -1.2110695e-06 0
0.18860239 0.44772986 -0.29089713 -0.36817577 -0.92975599 -0.00054566242 0.0032089585
0.19319963 0.4460406 -0.2990886 -0.401721 -0.9157365 0.0068519376 0.0041617905
-0.17924401 0.45189461 -0.29172063 0.36023778 -0.93286031 -0.00062763173 0.0017547368
-0.16636527 0.45516568 -0.29505295 0.26405039 -0.964477 0.007843391 0.00030836035
0.1513471 0.4582361 -0.2955879 -0.27145234 -0.96245188 6.4938169e-05 0
0.16523203 0.45432046 -0.29898831 -0.27301916 -0.96200848 0.00055883534 6.8969697e-05
0.17238882 0.45230219 -0.29537779 -0.27335131 -0.96191382 0.00093732367 0
0.18002218 0.45014954 -0.29759908 -0.29422814 -0.95572704 -0.0039548371 0.0011876273
-0.12384051 0.46596652 -0.29529387 0.24615791 -0.9692297 -0.00025959627 0
-0.11239503 0.46887356 -0.29779655 0.24616249 -0.96922857 -7.5403252e-05 0
0.11660686 0.46803311 -0.29690897 -0.27146795 -0.96244746 6.2191379e-05 2.2200678e-05
0.12530053 0.46558145 -0.29447338 -0.27141318 -0.96246296 9.5951837e-05 0
0.13922009 0.46165603 -0.29731083 -0.2714614 -0.96244937 -6.5438294e-06 3.8533552e-05
-0.075090617 0.47834846 -0.29527572 0.24258235 -0.97013026 -0.0010861909 8.412153e-05
0.080746718 0.47814593 -0.29404306 -0.23524757 -0.97192532 0.0044320491 0.00094462844
-0.062507793 0.48154438 -0.29565799 0.18477398 -0.98271853 -0.011088639 0.0012023054
-0.011825726 0.48230878 -0.2961632 -0.013056896 -0.99991471 -5.9514066e-05 0
-0.0097324587 0.48228142 -0.29802859 -0.013065084 -0.99991465 -2.7669059e-06 0
0.050440017 0.48149496 -0.2919814 -0.021723172 -0.99976093 -0.0024792035 0.00021262582
0.060504444 0.48136339 -0.29994714 -0.061744116 -0.99808389 0.0040313494 0.001020051
0.073752403 0.48011836 -0.29288346 -0.16562673 -0.98615724 -0.0078459261 0.0018921011
-0.066444919 -0.48128575 -0.28758514 0.13650116 0.99062479 -0.0054785362 0.0017379109
-0.035604618 -0.48168883 -0.28708515 0.013091084 0.99991435 7.5799493e-05 0
-0.015056822 -0.48195744 -0.28238115 0.013071236 0.99991453 2.1118125e-05 0
-0.0051199077 -0.48208728 -0.28266153 0.013057512 0.99991477 5.4682409e-05 0
0.013464886 -0.4823302 -0.28565037 0.013063245 0.99991465 4.2572996e-05 0
0.066294059 -0.48058271 -0.287963 -0.16779552 0.98581034 0.0047663194 0.0021596518
-0.087987185 -0.47610408 -0.28704065 0.26034421 0.96551436 -0.0017168581 5.5239165e-05
-0.078006707 -0.47891861 -0.2828756 0.1726879 0.98497224 -0.0029124995 0.00145707
-0.13254002 -0.46353984 -0.28372753 0.27143377 0.96245712 2.5922856e-05 7.7795363e-07
-0.1216056 -0.46662343 -0.28951836 0.27152464 0.96243149 5.3484282e-06 5.7432706e-05
-0.11900003 -0.46735817 -0.28152817 0.27144578 0.96245372 3.377274e-05 0
0.12914617 -0.46461892 -0.28577912 -0.24625818 0.96920425 7.3891999e-05 2.7231014e-05
-0.17656153 -0.45112547 -0.28217936 0.31439891 0.94927669 0.0052115796 0.00074428332
-0.16336836 -0.45484602 -0.28610167 0.27146286 0.96244901 -3.3299344e-05 0
0.14877248 -0.45963404 -0.28332239 -0.24621086 0.96921629 -4.2195632e-05 4.0205472e-05
0.15092722 -0.45908678 -0.28149813 -0.24614424 0.96923321 -0.00016545315 7.9879203e-05
0.16513079 -0.4554792 -0.28566989 -0.27619505 0.96109921 0.0021599303 0.00044232392
0.17145869 -0.45387197 -0.28272343 -0.32175383 0.94643623 -0.027070101 0.0022646908
0.18053058 -0.45146704 -0.28471202 -0.39890999 0.91688651 -0.013781852 0.0021981634
-0.19867945 -0.44278058 -0.28078312 0.42514864 0.90458137 0.031324912 0.0015026319
-0.18546641 -0.44861424 -0.28794724 0.34364206 0.93908739 0.005006595 0.0011832962
0.18664321 -0.44804364 -0.28503036 -0.43440971 0.90071547 -0.00013151408 0.0020444691
0.19752364 -0.44195005 -0.28297898 -0.47483593 0.88007373 0.0010475992 0.00050820847
-0.21851498 -0.43098024 -0.28660131 0.51125574 0.85942858 -1.525122e-05 4.4469103e-05
0.20422971 -0.43819427 -0.28424579 -0.4887037 0.87244982 -9.2731963e-05 0
0.21238282 -0.43362808 -0.2889393 -0.48861894 0.87249732 2.0413556e-05 0
0.22472131 -0.42671788 -0.28673521 -0.48871157 0.8724454 -3.8992108e-05 0
0.23508145 -0.4209156 -0.28966528 -0.48868784 0.8724587 -0.00019222112 1.936538e-05
-0.25199223 -0.4110643 -0.28762487 0.51137877 0.85935539 0.0001893086 0
-0.24659044 -0.41427785 -0.28894922 0.51131785 0.85939163 -3.8640278e-06 1.3746148e-06
0.23795488 -0.41930634 -0.28713822 -0.48876241 0.87241691 -4.9167411e-05 0
0.25119701 -0.41189009 -0.28485325 -0.48881957 0.87238491 1.3133027e-05 7.556966e-05
-0.26486939 -0.40340352 -0.28400099 0.51135433 0.85936999 2.6036883e-05 0
-0.25505835 -0.40924022 -0.28627831 0.5112536 0.8594299 2.9032963e-05 3.1555388e-05
-0.27571079 -0.39695385 -0.28310856 0.51128054 0.85941386 -8.1066783e-06 2.4693794e-05
0.29534647 -0.3853462 -0.2862013 -0.66357136 0.74808669 -0.0062848064 0.0015636287
-0.3050195 -0.37780079 -0.28672969 0.64936966 0.76044261 0.0067849969 0.0017402911
0.30474678 -0.37618846 -0.28801426 -0.69000417 0.72378403 0.0055604745 0.00020133029
0.31640038 -0.36483556 -0.28850442 -0.69779372 0.71629882 -2.6418411e-05 0
-0.3244344 -0.35787165 -0.2827273 0.71616894 0.69792688 -2.8179256e-05 0
0.32756472 -0.35395932 -0.28272161 -0.69787955 0.71621513 3.146955e-05 0
-0.3321912 -0.34990937 -0.28702742 0.71615136 0.69794494 1.2343549e-05 0
0.33946711 -0.34236401 -0.28902632 -0.69784623 0.71624756 -7.0730777e-05 4.3569348e-06
0.34800813 -0.33404338 -0.28364444 -0.69772995 0.71636093 -3.420105e-05 4.0456576e-05
0.35036752 -0.33174488 -0.28057861 -0.69792002 0.71617568 6.5530985e-05 0
0.35414371 -0.32806611 -0.2818374 -0.69782525 0.71626806 -3.3622571e-05 0
-0.37617981 -0.30475563 -0.28906199 0.72426623 0.68951994 0.00090603466 0.00018725106
0.37420774 -0.30851978 -0.28749722 -0.72315699 0.69067895 0.0025457842 0.0010125064
-0.38785255 -0.29276332 -0.28446227 0.80296063 0.59603053 -0.0013094144 0.002335089
0.39307827 -0.28222537 -0.28679794 -0.84733921 0.53102291 0.0055596754 0.00050171104
-0.4009254 -0.27077496 -0.2885974 0.87067777 0.49185386 -7.882341e-05 0
0.3974258 -0.27491748 -0.2800647 -0.85940707 0.51129192 -7.6290991e-05 5.9355942e-05
-0.40568614 -0.26227441 -0.2897419 0.87247026 0.48866722 7.9804624e-05 0
0.40296322 -0.2656095 -0.28421241 -0.8594451 0.51122808 1.4301037e-05 0.00010191287
0.40867811 -0.2560032 -0.28552178 -0.85936391 0.51136452 2.5581565e-05 3.571438e-05
-0.41643131 -0.24308839 -0.28325629 0.87241703 0.48876223 0.00010251164 0
0.41852722 -0.23944762 -0.28624037 -0.85942143 0.51126772 -0.00010696056 0.00010214099
0.42402166 -0.23021185 -0.28836536 -0.85938686 0.51132596 -0.00010136861 9.5838543e-05
0.42548066 -0.22775933 -0.28031042 -0.85945135 0.51121742 -0.00012565471 2.8843509e-05
-0.43027967 -0.21836153 -0.28404662 0.87244803 0.48870695 0.00013047701 0
-0.43636942 -0.20748806 -0.28165585 0.8724944 0.48862404 7.112982e-05 4.9816925e-05
-0.045581952 -0.20081392 -0.28641409 0.24472785 0.96958911 0.0023017544 4.6927475e-05
-0.033324074 -0.20395796 -0.2826809 0.21200271 0.97718537 0.012791721 0.00076741993
-0.0022739945 -0.20587841 -0.28196308 -0.0026923281 0.99999231 0.0028284893 0.00012103991
0.0038659542 -0.20581257 -0.28752583 -0.010736257 0.99994236 5.2398354e-05 0
0.039641101 -0.20265111 -0.28227642 -0.20495632 0.97859859 0.018376529 0.00099550094
0.045495916 -0.20101486 -0.28471461 -0.23403159 0.97217286 0.010446912 0.00064139772
0.43863097 -0.20565471 -0.28972304 -0.87231153 0.48858693 0.018851724 0.00059023721
-0.44533584 -0.19147812 -0.28860891 0.88391292 0.46763861 0.0034801604 0.00038414847
-0.073734261 -0.19359308 -0.2889449 0.34645984 0.93795198 0.014546536 0.0020365249
-0.065339789 -0.19574621 -0.28704834 0.29325041 0.95603067 -0.0030961242 0.0010211157
-0.055166364 -0.1983556 -0.28447989 0.25491878 0.96695489 -0.0038357684 9.5768155e-05
0.053683273 -0.19872671 -0.28389668 -0.26916656 0.96309364 -6.4462212e-05 0
0.063806832 -0.19589746 -0.28886378 -0.30017206 0.9538843 -0.001223274 0.00072119583
0.081494063 -0.19095436 -0.28162581 -0.34884161 0.93700939 0.017967779 0.001573119
0.44519591 -0.19461948 -0.28239977 -0.89708036 0.4418664 0.00095821248 0.001957102
-0.4503437 -0.18253639 -0.28065732 0.9264791 0.37617919 -0.011212741 0.0027642434
-0.44862467 -0.18560579 -0.2868349 0.91581607 0.40158588 0.0031131008 0.0027066411
-0.093175054 -0.18376657 -0.28954872 0.47436628 0.88032597 0.001669385 0.00019715339
0.086567424 -0.1879553 -0.28486446 -0.42597985 0.90470153 -0.0075023305 0.0027986267
0.090792872 -0.18545498 -0.28861052 -0.44776359 0.89413583 0.0053691878 0.002672432
0.44817862 -0.18701109 -0.28668189 -0.92909151 0.36984676 0.0015434684 0.0021094265
-0.45183492 -0.17947891 -0.28044525 0.93727601 0.34838814 -0.011803131 0.0028821914
-0.11104934 -0.17370076 -0.28692555 0.49553055 0.86858773 -0.0021935587 7.5823133e-05
-0.1072604 -0.17583449 -0.28278163 0.4955951 0.86855251 -0.0014302388 8.1955535e-05
0.1142026 -0.17160267 -0.28942755 -0.52564311 0.85070229 -0.0022439794 0.00066754228
-0.45596746 -0.16320851 -0.28398934 0.9649694 0.26234466 -0.0030540575 0.00046559557
-0.12674962 -0.16397288 -0.28495347 0.6093415 0.79290235 -0.0029626498 0.0023019074
0.11958278 -0.16841905 -0.2831637 -0.5444032 0.83882111 -0.002063751 0.0011580193
0.12128527 -0.16741163 -0.28466356 -0.5444032 0.83882111 -0.002063751 0.0011580193
-0.45786402 -0.15574141 -0.28265613 0.96814847 0.25037673 0.00034885309 0
-0.13580848 -0.15510619 -0.28206357 0.6815154 0.73179901 0.0026453456 0.00041519894
0.13567309 -0.15566273 -0.28325519 -0.67129725 0.74118787 -0.00074430101 0.0013855518
0.45641351 -0.15781006 -0.28384402 -0.96243793 0.27150172 6.6350794e-06 0
-0.46074855 -0.14438438 -0.2863425 0.96923971 0.24611855 -0.00014761796 5.3197848e-05
-0.45995694 -0.1475012 -0.2863121 0.96921313 0.24622357 -0.00021223354 3.1942451e-05
-0.15047815 -0.1407477 -0.28842491 0.7139256 0.70021862 0.0020252606 0.00026491098
-0.14354323 -0.1475355 -0.28347552 0.69949549 0.7146371 5.313721e-05 0
-0.46369529 -0.13278273 -0.28424537 0.96923387 0.24614164 -0.00017512334 7.0152601e-05
-0.15703544 -0.13432953 -0.28616115 0.74692017 0.66490573 -0.0032289473 0.0020194219
0.15133667 -0.13965967 -0.28361058 -0.73343557 0.67973006 0.0062768077 0.00045543595
-0.46667311 -0.12105846 -0.28316653 0.96922106 0.24619208 -6.6536806e-05 0
-0.1661078 -0.12348865 -0.28627276 0.80404639 0.59439874 0.014126583 0.0023746314
0.16414739 -0.12657133 -0.28389621 -0.78147221 0.62359869 0.020636996 0.0024858261
0.46500957 -0.12732825 -0.28052264 -0.96244258 0.27148521 -4.2274805e-06 0
-0.46817791 -0.11513376 -0.28721064 0.96921843 0.24620242 6.9268266e-05 0
-0.17157441 -0.11425035 -0.28083003 0.84721166 0.53124613 -0.0031641044 0.00062724593
0.16908681 -0.11924255 -0.28545982 -0.81960076 0.57278609 0.013064542 0.0021381264
0.17003253 -0.11756318 -0.28648934 -0.81959212 0.57279849 0.013063701 0.0021385103
0.46879324 -0.11391144 -0.28629702 -0.96246547 0.27140409 1.1519217e-05 3.1825261e-05
-0.47302985 -0.096030921 -0.28305039 0.96922243 0.24618664 3.0477102e-05 0
-0.18395834 -0.093322106 -0.28316963 0.8738029 0.48626584 0.0037436157 0.00050534523
0.47552386 -0.090044618 -0.2879056 -0.96397263 0.26599693 -0.0015651351 0
-0.4758904 -0.084768534 -0.28124699 0.9692297 0.24615802 1.1476246e-05 5.4366134e-05
-0.18648373 -0.089054331 -0.28962147 0.88831812 0.45921239 0.0038757096 0.0013439686
0.18609755 -0.089035839 -0.28239399 -0.89569968 0.44458136 0.0083402013 0.0010743097
0.47634065 -0.087148361 -0.2885817 -0.96515489 0.26164538 0.004225933 7.0654845e-05
0.19302395 -0.075649001 -0.28626484 -0.93467152 0.35542884 -0.0077137086 0.0015472103
-0.19627735 -0.062447459 -0.28488746 0.95854491 0.28494138 -0.00024096077 0.00033593399
0.19624802 -0.063383296 -0.28380215 -0.95538867 0.29486644 -0.016920343 0.0011023743
0.48126465 -0.06805902 -0.28366154 -0.9898504 0.1414281 0.013938013 0.0022020678
-0.19756441 -0.05784221 -0.28565985 0.96309531 0.26916063 2.1915855e-06 1.5719534e-05
0.19721362 -0.059618689 -0.28544614 -0.96541101 0.26065341 -0.0064341314 0.00021064357
0.20120366 -0.04406251 -0.28684488 -0.97195011 0.23513499 0.004950773 0.00019900106
0.48154163 -0.046867065 -0.28078696 -0.99985588 0.016974356 -0.00030058855 7.8651654e-05
-0.48257858 -0.032468092 -0.28493661 0.99991471 -0.013060813 -3.8293242e-06 0
-0.20385759 -0.035324141 -0.28767234 0.98200041 0.18883099 -0.0042474959 0.0021013115
0.2033288 -0.035777077 -0.2863434 -0.9837479 0.17952283 0.0033943225 0.0012443486
-0.48245883 -0.023306761 -0.28321734 0.99991441 -0.013079769 7.1547402e-07 0
0.48179078 -0.02780587 -0.28449857 -0.99991441 0.013081748 -5.1498091e-06 0.00012362
-0.48240942 -0.019527331 -0.28630286 0.99991435 -0.013091139 -0.00012280438 0.00012212503
0.48196766 -0.014272876 -0.28326404 -0.99991447 0.013077025 -7.0760267e-05 1.0855806e-05
-0.48221207 -0.00442788 -0.28578094 0.99991447 -0.013078532 -2.6318237e-05 0
0.20592239 -0.0063778246 -0.28445876 -0.99951822 0.031009855 0.0013041395 0.00076792488
-0.48197365 0.0138152 -0.28848845 0.99991459 -0.013070556 -6.4056476e-06 2.2828375e-05
-0.20606291 0.019485438 -0.28169084 0.9944132 -0.10404591 0.017797917 0.0018908345
0.20557597 0.025936596 -0.28261936 -0.99185592 -0.12734534 0.0021980016 0.0019060641
-0.20297353 0.037162203 -0.28751838 0.98092282 -0.19435515 -0.0040564961 0.00098094193
-0.4816218 0.040733449 -0.28367937 0.99991459 -0.013071886 -4.3426411e-05 0
-0.20040065 0.047193188 -0.2894474 0.97095358 -0.23926707 -0.00046232887 0.00013649606
0.19990537 0.049465783 -0.2897993 -0.96625918 -0.2575632 0.0021022831 0.00010471075
0.20183718 0.04255344 -0.28533646 -0.96714193 -0.2542246 0.0025137041 0.00015347468
-0.4814603 0.053089894 -0.28345472 0.99974298 -0.021616317 0.0068286271 0.00023368758
-0.19798246 0.056621175 -0.28058326 0.96864498 -0.24844895 8.4050916e-06 0
-0.48136184 0.060623061 -0.28777161 0.99510437 -0.098781377 0.0030942007 0.0017997624
0.19517297 0.066399142 -0.2800138 -0.95459616 -0.29782286 -0.0069059259 0.0010654317
0.48038551 0.06707041 -0.28191078 -0.97895586 -0.20396468 0.0066203671 0.00088148267
-0.48089042 0.071014635 -0.28098035 0.98593569 -0.16693041 -0.0080678547 0.0021261559
-0.47670996 0.085838586 -0.28493553 0.97059542 -0.24070202 0.0026574521 0.00055340934
-0.1859521 0.089294106 -0.28589934 0.89679658 -0.44243506 -0.0026533674 0.0012311375
-0.47343835 0.097439885 -0.28155664 0.96244144 -0.2714895 -7.2560528e-05 0.00012641805
0.18436015 0.092643097 -0.28300735 -0.8918305 -0.45235157 0.0040525994 0.0014017561
0.4738301 0.092880219 -0.2825264 -0.96923816 -0.24612491 -0.00010182357 0
-0.47078523 0.10684793 -0.28680646 0.96245205 -0.27145156 -7.7859215e-05 3.0684296e-05
0.47180557 0.10085124 -0.28758863 -0.96923482 -0.24613796 -2.3889021e-05 0
0.16896927 0.1186529 -0.28367907 -0.81446451 -0.58004129 0.014129872 0.0011539095
-0.46591955 0.12410159 -0.28426969 0.96245027 -0.27145797 4.233309e-06 0
-0.16566153 0.12487479 -0.28589711 0.78989482 -0.61313909 -0.011253042 0.0017782341
0.46497136 0.12775843 -0.2846995 -0.96922892 -0.24616107 -0.00015209826 7.1186245e-05
-0.46236593 0.13670282 -0.28551289 0.96244651 -0.27147111 -7.7755074e-05 5.2433239e-05
0.46302271 0.13543071 -0.28533715 -0.96920234 -0.24626596 -0.00019178019 0.00019002889
-0.46100542 0.14152706 -0.28286141 0.96245348 -0.2714467 1.5327876e-05 7.1263421e-05
-0.14729694 0.14378697 -0.28561687 0.71517301 -0.69894725 0.00048313045 6.1558612e-06
0.14650118 0.1446403 -0.28495666 -0.70686573 -0.70734394 -0.0023328012 5.9038113e-05
0.46049568 0.14538008 -0.28499469 -0.96922141 -0.24619068 -8.3254177e-05 0.00010112427
-0.45818508 0.15152815 -0.28949723 0.96246934 -0.27139041 2.9250352e-05 4.4326189e-05
-0.13491884 0.15643334 -0.28455991 0.65644675 -0.75417048 0.017451277 0.0024101089
0.13785526 0.15310284 -0.28485307 -0.67927915 -0.73381585 -0.0097054504 0.00034281352
0.45814025 0.15465376 -0.28096694 -0.96923083 -0.24615376 1.6565042e-05 0
-0.45516324 0.16224349 -0.28369731 0.96245903 -0.27142686 -3.5801495e-05 0
-0.12144552 0.16731679 -0.28118289 0.5819844 -0.81318796 -0.0044279676 0.0018222407
0.12100124 0.16809639 -0.28963366 -0.58352721 -0.81206977 -0.0062196003 0.0020710593
0.45570153 0.1642554 -0.28266698 -0.96290654 -0.26973346 -0.0074094511 0.00081431092
-0.45258629 0.17138149 -0.28516644 0.96244121 -0.2714901 -4.1771593e-05 0.00010542059
-0.1109723 0.17351414 -0.28925091 0.53120625 -0.84722203 -0.0058901734 0.000577258
0.11111271 0.17366508 -0.28398436 -0.50916654 -0.8606652 0.0021878751 0.00033812397
0.45240504 0.17723438 -0.28359923 -0.93396097 -0.35735068 -0.0041870964 0.0019291241
-0.44894001 0.18431115 -0.28708225 0.93446308 -0.35599595 0.006759556 0.001828692
-0.087137252 0.18761812 -0.28726304 0.46932763 -0.88302052 -0.0025335122 0.0015424577
0.09905155 0.18045726 -0.28271651 -0.48406157 -0.87503237 0.0016519813 0.00010723178
-0.081281684 0.19101371 -0.2853201 0.37642959 -0.92642528 -0.0060856468 0.002097297
-0.076332971 0.19239673 -0.28525388 0.37379763 -0.92747205 -0.0084224064 0.0020761266
0.074216463 0.19346941 -0.28331223 -0.36109748 -0.93251979 -0.0039298409 0.0023738239
-0.44190648 0.20014878 -0.28678188 0.89149261 -0.45300624 0.0051280265 0.00176802
-0.044579968 0.20127083 -0.28218034 0.23282917 -0.97251463 -0.0024516752 0.00091926643
-0.033569321 0.204348 -0.28231186 0.16842151 -0.98569095 -0.0068946751 0.0020469686
-0.024191359 0.20559469 -0.28232577 0.10750056 -0.99415118 -0.010348902 0.0019644278
0.017563339 0.20604232 -0.2806066 -0.050870724 -0.998698 -0.0037975453 0.00073522975
0.43916294 0.20250006 -0.28388479 -0.87617832 -0.48198706 -0.00039115577 7.7619094e-05
-0.43031108 0.21963972 -0.28103945 0.85939252 -0.51131642 -2.1968101e-05 0
0.43156958 0.21605833 -0.28430414 -0.87248528 -0.4886404 2.5966167e-05 4.6886151e-05
-0.42478603 0.22892694 -0.28295329 0.85938001 -0.51133752 -4.8692738e-05 9.7695316e-05
0.42463088 0.22844774 -0.28464156 -0.87247801 -0.48865333 0.00010664123 4.4146641e-06
-0.42357656 0.23096001 -0.28674781 0.85935664 -0.51137674 -0.00013303924 0.0001163919
0.41507873 0.24550354 -0.28638986 -0.87247747 -0.48865435 -9.5275973e-05 5.5653327e-05
0.41090935 0.25294808 -0.28939742 -0.87242973 -0.48873967 2.8765024e-05 0
-0.40431976 0.2633293 -0.28385699 0.85944754 -0.51122391 -9.0234244e-05 7.7389617e-05
0.40582091 0.26203382 -0.28584588 -0.8724364 -0.48872763 4.0946768e-05 8.0806538e-05
-0.3953788 0.27835831 -0.28819102 0.85944325 -0.51123124 3.8004895e-05 0.00014458819
0.40088505 0.27084699 -0.28523749 -0.86901355 -0.49476913 -0.0043594008 0.00017892505
0.39339417 0.28422233 -0.28130877 -0.83594084 -0.54867327 0.01267214 0.002148096
-0.3875905 0.29144987 -0.28565532 0.82813263 -0.56042105 -0.011161496 0.0010829461
0.38942385 0.29116079 -0.28248221 -0.79623908 -0.6049214 0.0085705621 0.0020720714
-0.37735543 0.30545336 -0.28002125 0.74741089 -0.66432536 -0.006978306 0.00097025163
-0.36792362 0.3146418 -0.2874561 0.70163894 -0.7125327 -0.00011543747 0.00017415923
-0.36088386 0.32149991 -0.28665864 0.69786096 -0.71623331 9.8017357e-05 8.158504e-07
0.35802677 0.32338947 -0.28934902 -0.71618032 -0.6979152 -3.8539467e-05 0
-0.35012326 0.33198279 -0.28729558 0.69783026 -0.71626323 4.9177455e-05 0
0.34509814 0.33666056 -0.28340417 -0.71623719 -0.69785696 3.7644186e-05 0
-0.33411252 0.34758046 -0.28022683 0.69777107 -0.71632075 -0.00013713258 1.8201512e-05
0.3359381 0.34606323 -0.28997487 -0.71621853 -0.69787598 5.8665115e-05 0
-0.33097774 0.35063434 -0.28011078 0.69795603 -0.71614063 4.8186055e-05 0
-0.32149506 0.35987231 -0.28712934 0.69798654 -0.71611077 -0.00016429272 0
0.3148998 0.36765873 -0.28459579 -0.7087937 -0.70541358 0.001801493 0.00024179136
0.30483216 0.37799305 -0.28421685 -0.62423301 -0.78107083 -0.016173052 0.0019073257
0.29176021 0.3874059 -0.2803852 -0.54643464 -0.83750153 0.00063397438 0.00032068635
-0.28203225 0.39462066 -0.28829032 0.51768118 -0.8555088 -0.010531091 0.00024832613
0.27355862 0.39823425 -0.28478676 -0.51139164 -0.85934776 9.7342592e-05 0
0.28316265 0.39252067 -0.28900582 -0.52755696 -0.84951824 0.0015801768 0.00031768513
-0.26730874 0.40286666 -0.28533477 0.48867965 -0.87246323 -3.8366812e-05 0
0.25909856 0.40683666 -0.28860432 -0.51129377 -0.85940599 0.00014165384 0
0.24406399 0.41578087 -0.28351018 -0.5114032 -0.85934091 3.0411265e-06 0
-0.23366529 0.42170876 -0.28898621 0.4886393 -0.87248588 3.8500002e-05 5.1950406e-05
0.22428736 0.42754614 -0.28042865 -0.51130813 -0.85939747 -4.2298645e-05 0
