# .PCD v0.7 - Point Cloud Data file format
VERSION 0.7
FIELDS x y z normal_x normal_y normal_z curvature
SIZE 4 4 4 4 4 4 4
TYPE F F F F F F F
COUNT 1 1 1 1 1 1 1
WIDTH 575
HEIGHT 1
VIEWPOINT 0 0 0 1 0 0 0
POINTS 575
DATA ascii
0.14705533 -0.1240216 -0.2063953 -0.77321833 0.63391566 0.016859597 0.0026323565
0.43327618 -0.12998247 -0.20802122 -0.99783742 0.06572976 -2.486437e-05 0.00010925446
-0.18155953 -0.11182441 -0.20838746 0.83571839 0.54913312 -0.0052549876 0.00087789167
-0.17884843 -0.1164069 -0.20674866 0.82018483 0.57207388 0.0053246329 0.0018162669
0.1513502 -0.11963367 -0.20000699 -0.81464148 0.57990891 0.0080575496 0.0024041398
0.43433297 -0.11394028 -0.20482548 -0.99783736 0.065731876 -1.3753496e-06 0.00010594074
-0.4381693 -0.10857461 -0.20508999 0.99983317 0.018264733 6.0341106e-05 0
0.43461815 -0.10961206 -0.20387188 -0.99783623 0.065747648 -6.449088e-05 6.2334206e-05
-0.43846464 -0.092450291 -0.20184569 0.99983215 0.018319586 -3.6077086e-05 3.7469588e-05
-0.19155511 -0.094929069 -0.202252 0.86310089 0.50503075 -0.00094728108 5.2368159e-05
-0.18948013 -0.098436363 -0.2053557 0.86292088 0.50533819 -0.00093175384 4.4121247e-05
0.16535361 -0.094834402 -0.20445985 -0.87373728 0.4863981 -0.00012556817 5.664962e-05
-0.43866205 -0.081668817 -0.20614934 0.99983281 0.018283544 7.510282e-05 0
-0.19662094 -0.08636643 -0.20519418 0.88577819 0.46410441 -0.0020316124 0.0016923613
0.16931272 -0.087803394 -0.20390134 -0.88949019 0.45692703 -0.0049813311 0.00071248319
0.17273258 -0.081730023 -0.2046783 -0.90147495 0.43274662 -0.0085636638 0.0010291981
-0.43878984 -0.074689448 -0.20917977 0.999856 0.016969843 5.319896e-06 0
-0.20255502 -0.07513538 -0.20701395 0.9155072 0.40229756 -0.0017805963 0.0031371799
0.17668511 -0.074710667 -0.20312171 -0.92371041 0.38251668 -0.020978132 0.0016244148
0.43693581 -0.074430674 -0.20091763 -0.99895799 0.045635659 0.0004595971 0
-0.43891042 -0.068104818 -0.20468102 0.99990791 0.013523372 -0.0011284759 3.1560368e-05
0.17864072 -0.069425121 -0.20338981 -0.92804593 0.37221217 -0.013745828 0.0014888339
0.18064421 -0.061613843 -0.20646939 -0.94053316 0.33962318 -0.0073114303 0.0013811813
0.43755704 -0.064193048 -0.20503655 -0.99944973 0.033114709 0.0019136327 0.00018018404
-0.43915179 -0.054925732 -0.20435295 0.99996954 0.0076256595 0.0016569743 0
0.18293777 -0.052671611 -0.20863336 -0.96784371 0.25155032 -0.0010107756 2.4849196e-05
0.43773037 -0.050967939 -0.20263442 -0.99982202 0.018868713 -4.5342902e-05 0
-0.43909726 -0.045422137 -0.20937775 0.99999756 -0.0013902234 -0.0017361759 3.8998911e-05
-0.21096218 -0.0457168 -0.20592739 0.96592814 0.25880906 0.00081695686 8.4582629e-05
0.43782598 -0.043675739 -0.20252192 -0.99990737 0.013610062 5.1663323e-05 0.00011436293
-0.21384785 -0.035393797 -0.20728377 0.97644192 0.21576945 -0.0021780708 0.00077913486
0.43796983 -0.032697469 -0.20506091 -0.99991423 0.013096488 -3.7492511e-05 5.911773e-05
-0.43883145 -0.025018023 -0.20704278 0.99991518 -0.013025388 3.5468212e-05 0
-0.21676387 -0.021180941 -0.20265719 0.99481142 0.099582769 0.020821884 0.0018722247
0.18972147 -0.026223078 -0.20256944 -0.9880712 0.15393044 0.0045614676 0.0023223967
0.43809578 -0.023090677 -0.2090593 -0.99991411 0.013110854 9.573112e-05 0
-0.43867585 -0.013072584 -0.20704447 0.99991506 -0.013027814 2.0409476e-05 0
0.19102351 -0.010899423 -0.20598109 -0.99921948 0.039486971 0.0010600504 0.00060715579
0.43820521 -0.014742946 -0.20222038 -0.99991423 0.013094068 5.4686781e-05 3.0786534e-05
-0.21693523 -0.0052314829 -0.20383072 0.99994242 0.010732076 -5.5872883e-05 2.0931773e-05
0.19095109 -0.0041613271 -0.20535776 -0.99980026 0.019943539 -0.0012605473 0.00059293414
0.43836659 -0.0024330616 -0.20837018 -0.99991405 0.01310589 1.4286383e-06 6.1579201e-05
-0.43846148 0.0033811731 -0.20123523 0.99991506 -0.013035334 3.7775681e-05 2.8167484e-05
-0.21701258 0.0019686795 -0.2079957 0.99995142 0.0098646348 -0.00012331616 1.0121252e-05
0.43848392 0.0065170322 -0.20349228 -0.99991417 0.013099191 4.09641e-05 0
-0.43835306 0.011706308 -0.20052221 0.99991494 -0.013037722 3.7229798e-05 2.9549443e-05
-0.21715328 0.01506245 -0.20651227 0.99972111 -0.02263679 0.0067282198 0.00054830249
0.19075444 0.01413686 -0.20498723 -0.99905843 -0.043324713 -0.0023016448 0.00077595626
-0.43817538 0.025346572 -0.20449728 0.99991536 -0.013007022 0.00010925914 0
-0.21716785 0.028013008 -0.20353055 0.99320418 -0.11437474 0.021536751 0.0024792352
0.19063634 0.025126509 -0.20499626 -0.99779904 -0.062437117 -0.022332534 0.0013947319
0.43878895 0.029787613 -0.20805699 -0.99991417 0.013103388 -7.2819166e-05 7.2000612e-06
-0.43806767 0.033616122 -0.20614505 0.9999153 -0.013012587 -3.3000088e-05 8.352541e-05
-0.21558426 0.035267856 -0.20060357 0.98267037 -0.18513487 0.0091687087 0.0013271871
0.18870753 0.039558992 -0.20559046 -0.98595726 -0.16568401 -0.020905143 0.002406491
0.19055665 0.032543957 -0.20579834 -0.99320322 -0.11584286 -0.01130564 0.0020858578
0.43889073 0.037553862 -0.20195216 -0.99993247 0.011610708 -0.00054714922 0
0.18821973 0.041305624 -0.20424339 -0.98331195 -0.1805604 -0.022260718 0.0025611499
-0.43778852 0.055045083 -0.20277572 0.99987257 -0.015957385 0.00046728968 0.00010043276
-0.21136719 0.051706344 -0.20501247 0.96903908 -0.24690749 7.9057208e-05 1.6007467e-05
0.43910921 0.054215968 -0.20989297 -0.99999022 -0.0031258035 -0.0031302136 9.3777438e-05
-0.43769521 0.062207591 -0.20301481 0.99986666 -0.016299974 0.00095308875 0.00015429534
0.18258649 0.061476026 -0.20185004 -0.96314347 -0.26898825 -5.4525055e-05 8.7444023e-06
0.43908083 0.063103497 -0.20373133 -0.99985218 -0.016941691 -0.0029124396 8.9164067e-05
-0.43756062 0.072539024 -0.20522867 0.9994843 -0.03198855 -0.0028009426 0
-0.20549345 0.074602619 -0.20378447 0.94851416 -0.31649867 -0.012225979 0.0018535132
0.17788665 0.078304268 -0.2045874 -0.928321 -0.37157193 -0.012427122 0.0022213834
0.43878752 0.070832185 -0.20969738 -0.99949557 -0.031753715 0.00047049459 3.5980531e-05
-0.43708065 0.083948836 -0.20465721 0.99935889 -0.035785612 -0.0010864208 0
-0.19923203 0.088982955 -0.20886111 0.89056861 -0.45484093 -0.0027201218 0.00052568375
0.17711307 0.081074134 -0.20089015 -0.92913371 -0.36970916 -0.0050683096 0.0019845092
0.43813014 0.087523066 -0.20341375 -0.99922925 -0.039254948 -2.691332e-05 0.00012259974
-0.43660849 0.094827347 -0.20964563 0.99912214 -0.041890156 -2.2728279e-06 0
-0.19505411 0.096401319 -0.20670931 0.88381308 -0.46781003 -0.0053246506 0.00041678897
0.16870826 0.09717381 -0.20077243 -0.87061536 -0.49194685 -0.0041510547 0.0002841331
0.17026924 0.094536893 -0.20167315 -0.88007712 -0.47480473 -0.0049570855 0.00078681257
0.43784377 0.094795048 -0.20212129 -0.99922305 -0.039411683 6.8998706e-05 0
0.16676021 0.10046461 -0.20054692 -0.87043911 -0.49225429 -0.0046284487 0.00024419851
0.43736178 0.10703155 -0.20093644 -0.99922329 -0.039405011 1.1283062e-05 0
-0.43588543 0.11148459 -0.20646976 0.99905878 -0.043375764 -2.7384469e-05 0
0.15914096 0.11333551 -0.20681801 -0.85959256 -0.51097834 -0.0013550946 0
0.16042642 0.11116403 -0.20216884 -0.85950565 -0.51112604 -0.00043341389 0
-0.17523146 0.12981166 -0.20974952 0.78253019 -0.62238175 0.016949162 0.0021498965
0.43649632 0.12900722 -0.20740318 -0.99922699 -0.039310869 -6.2251471e-05 0
-0.43478629 0.1368074 -0.20146744 0.99905854 -0.043382704 -5.5301552e-05 0
0.14879929 0.13080533 -0.2074744 -0.80224162 -0.59699798 -0.0013592663 0.0024600925
-0.16443248 0.14084467 -0.20899191 0.71728814 -0.69676685 -0.0036958614 2.0149782e-05
-0.15802631 0.14738968 -0.20748951 0.71048462 -0.70370442 -0.0034123641 8.4768544e-05
0.43589151 0.14436385 -0.20301741 -0.99922484 -0.039366681 -5.968905e-05 0
0.12572299 0.15343094 -0.20567706 -0.69698149 -0.71708906 0.00036118712 2.1438016e-05
-0.43335587 0.16976205 -0.20890577 0.99854875 -0.053849667 0.00076095248 4.3122291e-05
-0.14423172 0.16148326 -0.205843 0.66027951 -0.75100857 0.0041453987 0.0020084865
-0.13737255 0.16734076 -0.20589842 0.59570158 -0.8032043 -0.0015671201 0.0028939678
0.10896757 0.16924548 -0.20773986 -0.58663177 -0.80982089 0.0073030158 0.0026744693
0.11461852 0.16430281 -0.20275494 -0.62544858 -0.78021199 0.0091208629 0.0024569384
-0.43297422 0.17855407 -0.20177834 0.99717689 -0.075053245 -0.0022830814 0.0004579433
-0.13195282 0.17054716 -0.2007004 0.53340346 -0.8458122 -0.0090834023 0.00046662492
-0.12742046 0.17322859 -0.20401418 0.52280825 -0.85244107 -0.0039753565 0.00024867541
0.09672299 0.17613882 -0.20241386 -0.51824999 -0.85520017 -0.007039506 0.00074712752
0.10210646 0.17310809 -0.20205159 -0.53779149 -0.84307677 -0.0013782465 0.0010319959
0.43451875 0.17921856 -0.20176926 -0.97261918 -0.23014624 -0.032322373 0.0063976436
0.085257947 0.18259326 -0.20613444 -0.4905636 -0.87140536 -2.6194954e-05 1.274542e-05
0.43118605 0.18818164 -0.20626068 -0.91672158 -0.39949769 0.0048061763 0.0030585653
-0.43168271 0.19801125 -0.20160635 0.98232841 -0.18714699 -0.0026247515 0.0049340497
-0.097632021 0.190852 -0.20592484 0.43317682 -0.90130848 -0.00093446643 0.0015156218
-0.075733751 0.19816038 -0.20634045 0.28715205 -0.95788497 0.00040443527 0.00017208022
0.044753253 0.19962409 -0.20212629 -0.2586621 -0.9659676 -0.00068083056 9.551517e-05
0.057084795 0.19646059 -0.20263107 -0.30849132 -0.95114803 -0.012274333 0.00079444447
-0.43079633 0.20030493 -0.20848036 0.97312373 -0.23023757 -0.0045734239 0.004683346
-0.063072503 0.20169969 -0.20201746 0.25239107 -0.96762139 -0.0027584697 0.00039122134
-0.054845579 0.20399942 -0.20621684 0.21828249 -0.97587794 0.003871599 0.0010634598
-0.03140498 0.20767227 -0.20005244 0.063820079 -0.99795568 -0.0034008916 0.0012555053
-0.029936578 0.20768806 -0.20899552 0.055148121 -0.99846727 -0.0046689473 0.0012215667
-0.017596418 0.20782064 -0.20969701 0.010743072 -0.99994224 4.460643e-05 0
-0.0068936916 0.20793563 -0.20943029 -0.00047536186 -0.99999982 -0.00036648833 0.00013021317
0.0038459753 0.20805103 -0.20224571 -0.075514615 -0.99713337 -0.0047453176 0.0013863803
0.025723778 0.20450586 -0.20001119 -0.2182824 -0.9758808 -0.0030682539 0.00053435971
0.042243972 0.20026781 -0.20555893 -0.25701249 -0.96640766 -0.00099105586 9.2353956e-05
0.4141126 0.21866481 -0.20411089 -0.87239152 -0.48880762 0.00012466227 0
-0.42197421 0.22313401 -0.20037186 0.93276131 -0.36049461 -6.9583552e-06 7.9394604e-06
0.40904838 0.22770655 -0.20566121 -0.87245381 -0.48869666 -4.532906e-05 3.0422951e-05
0.41253826 0.22147568 -0.20733024 -0.87243295 -0.48873383 4.3512377e-05 0
-0.41806874 0.23324031 -0.20519592 0.93277597 -0.36045665 -0.00010441056 9.4873321e-05
0.3956849 0.25156587 -0.20800266 -0.87245405 -0.48869613 6.0744092e-05 0
-0.40747797 0.26064622 -0.20042077 0.93278569 -0.3604314 4.6427213e-05 0
-0.40263245 0.27318507 -0.20837371 0.93278271 -0.36043927 1.2353647e-05 5.1278148e-05
0.38389826 0.27260992 -0.20982009 -0.86855286 -0.49559233 -0.0020669245 8.3868741e-05
-0.39855054 0.28374791 -0.20534369 0.92067724 -0.39030093 -0.004320445 0.0012576996
-0.39327317 0.29740426 -0.20551252 0.85739774 -0.51464152 0.0036366817 0.0045246105
0.36766046 0.29759896 -0.20631394 -0.76681596 -0.6417731 0.010984385 0.0022358573
0.37240449 0.29272902 -0.20350295 -0.79136938 -0.61129326 0.0074180714 0.0023889714
0.35301486 0.31263313 -0.20670262 -0.71631491 -0.69777709 3.2336979e-05 1.6683711e-05
-0.36553371 0.32740691 -0.20267689 0.69785225 -0.71624172 -3.7934064e-05 5.5135195e-05
0.33627999 0.32981199 -0.20914975 -0.7163322 -0.69775939 5.3083826e-05 5.3383824e-06
0.32878011 0.33751088 -0.20794638 -0.71625817 -0.69783527 -0.00010203935 5.6961784e-05
0.33403361 0.33211797 -0.20091282 -0.71621406 -0.69788069 -0.00012892937 4.5642937e-05
-0.35141194 0.34116527 -0.20765147 0.69779497 -0.71629757 -6.639387e-05 4.6387768e-06
-0.34756336 0.34491482 -0.20534407 0.69797724 -0.71611983 7.6518743e-05 0
0.31812817 0.34844545 -0.20291269 -0.7162292 -0.69786519 -7.7505203e-05 4.7483496e-05
0.32322377 0.34321463 -0.20960668 -0.7162782 -0.69781488 -7.4563439e-05 0.00011612254
-0.33512288 0.3570351 -0.20414028 0.6979149 -0.71618074 -3.5009565e-05 0.00012074509
0.30923313 0.35757646 -0.20019007 -0.71629471 -0.69779789 4.3095763e-05 3.2390188e-05
0.31292716 0.35378444 -0.20376278 -0.71625853 -0.69783503 7.7193603e-05 0
-0.32900465 0.36299592 -0.20652196 0.6978749 -0.71621966 -8.7348817e-06 5.2597847e-05
0.30514818 0.3617698 -0.20613673 -0.71626264 -0.69783074 -9.819775e-05 0.0001013759
-0.31541628 0.37623456 -0.20394053 0.68861461 -0.72506762 0.0093151769 0.00040330159
0.28843212 0.37892932 -0.2039893 -0.5989421 -0.80031306 0.027703155 0.0047582276
0.29327551 0.37395748 -0.205356 -0.66725332 -0.74469 0.014485123 0.0027761415
-0.30416423 0.38719708 -0.20288037 0.49802494 -0.86705232 0.013832188 0.0062487917
0.26518911 0.38900512 -0.20658244 -0.33529955 -0.94207412 -0.0084062591 0.00039083124
0.27375939 0.38611847 -0.20459627 -0.40742564 -0.91316235 -0.011783103 0.0036779544
0.24827659 0.39470154 -0.20720097 -0.31918949 -0.9476909 -5.0407507e-05 1.0938198e-05
0.25959179 0.39089042 -0.20474012 -0.31916115 -0.9477005 -1.8855766e-05 0.00010664087
-0.23558296 0.40906918 -0.20858589 0.27933532 -0.96019357 -2.267996e-05 0.0001110923
0.22603838 0.40219179 -0.20528197 -0.31922624 -0.94767857 4.351771e-05 0
0.23003036 0.4008472 -0.20126821 -0.31920174 -0.94768685 5.5806609e-05 4.6492543e-05
-0.21783811 0.4142307 -0.20454451 0.27921313 -0.96022916 -9.1581351e-05 6.4150834e-07
0.1670536 0.4191213 -0.20676875 -0.14442818 -0.98949164 0.0068443399 0.00049365778
0.18543015 0.41586933 -0.20154028 -0.23885445 -0.97099048 0.011227327 0.0014163812
0.20198105 0.41029471 -0.2050273 -0.31293941 -0.94977272 0.00087961665 7.3823896e-05
-0.1935751 0.42128822 -0.20622939 0.21788423 -0.97596121 -0.0051172138 0.0010206909
-0.18553822 0.42291746 -0.20187557 0.15613692 -0.98773342 0.0019498855 0.0010757236
-0.17337942 0.42396343 -0.20969348 0.11179022 -0.99372315 0.0041506654 0.00030140794
-0.15083879 0.42590237 -0.20061156 0.085694239 -0.99632144 -4.1626066e-05 0.00011162044
-0.14908102 0.42605352 -0.20840757 0.085732341 -0.99631822 1.4025347e-05 3.7881771e-05
-0.12545553 0.4280858 -0.20601958 0.08569061 -0.99632174 -0.00010362839 3.2715765e-05
-0.11059532 0.42936406 -0.2046012 0.085665807 -0.99632394 -2.4466246e-05 0
0.068222329 0.42945841 -0.20926316 -0.098977879 -0.9950878 0.0019016601 0
0.076283805 0.42861521 -0.20999603 -0.10402557 -0.99457461 -2.4036379e-05 4.8489896e-05
0.085799143 0.42761999 -0.20323369 -0.10403996 -0.99457312 -3.0100246e-05 7.056602e-05
0.10496643 0.42561522 -0.20432703 -0.10402943 -0.99457425 -5.9539343e-05 4.2288626e-05
0.14673084 0.42124695 -0.20217384 -0.10396533 -0.99458092 -2.2838707e-05 0.00011272549
0.15578133 0.42030033 -0.20539331 -0.10418795 -0.99455768 0.00013000115 7.4100921e-05
-0.094753146 0.43072677 -0.20532688 0.078482293 -0.99690926 0.0035382169 4.8743244e-05
-0.073112965 0.43248457 -0.20241974 0.04127913 -0.99912888 0.0061305165 0.0002836331
-0.067053005 0.43258581 -0.20426917 0.040936027 -0.99913818 0.0068594273 0.00011525644
-0.05278727 0.43239883 -0.20417826 -0.0083324499 -0.99996418 -0.0014349991 0
-0.032032505 0.43212676 -0.20869225 -0.013101242 -0.99991423 -2.9345831e-05 9.025271e-05
-0.014376963 0.43189529 -0.20293993 -0.013116924 -0.99991393 -1.8813173e-05 0.00011072728
-0.0088113286 0.43182236 -0.20512332 -0.013102114 -0.99991417 -4.3578399e-05 3.4876895e-05
0.0047936505 0.43164402 -0.20723042 -0.013107049 -0.99991405 0.00011265973 5.9505732e-05
0.023251761 0.43140203 -0.20677571 -0.013103468 -0.99991411 8.9083378e-06 4.5290085e-06
0.033229578 0.43127123 -0.20724742 -0.01438351 -0.99989653 0.00031264589 1.432048e-05
0.0534182 0.43100661 -0.20175853 -0.051730577 -0.99865842 0.0022952759 0.00042120274
-0.082305409 -0.4310396 -0.19710307 0.053855311 0.99854743 0.0015948624 0.00032778556
-0.070309699 -0.43119684 -0.19442941 0.029646266 0.99955958 0.0012999838 0.0001393773
-0.064595588 -0.43127176 -0.19522829 0.014487204 0.99989486 0.00065249269 2.8205068e-05
-0.058306351 -0.43135417 -0.19751073 0.013137921 0.99991369 8.3941755e-05 0
-0.034750216 -0.43166298 -0.19400799 0.01311417 0.99991405 -1.7955595e-05 1.3732676e-05
-0.026794368 -0.43176728 -0.19539234 0.013108391 0.99991411 -6.6952263e-05 0
-0.0021699709 -0.43209004 -0.1919747 0.013104946 0.99991411 -2.3855055e-05 0
0.011917979 -0.4322747 -0.19742315 0.013110732 0.99991405 -6.2614195e-06 0
0.026139131 -0.43246114 -0.19520049 -0.0021527389 0.99999166 0.0034701836 0.0001045203
0.033900961 -0.43256289 -0.19372812 -0.020494977 0.99975598 0.0082374439 0.00027312365
0.048625469 -0.43202186 -0.19713272 -0.046545517 0.99890703 0.0042734435 0.00030908245
0.055911303 -0.43142211 -0.19144811 -0.069219679 0.99759257 0.0042119208 2.6883034e-05
0.062794074 -0.43085551 -0.19535223 -0.071939409 0.99740839 0.0010672398 2.0201232e-05
-0.17210445 -0.42148948 -0.19064122 0.10849453 0.99409705 5.5514371e-05 0
-0.16546911 -0.42221302 -0.19726926 0.10840493 0.99410677 -6.7748719e-05 3.1279367e-05
-0.14148317 -0.42482847 -0.1946685 0.10839643 0.99410778 5.0682731e-05 0
-0.12731832 -0.42637298 -0.19359103 0.10840344 0.99410701 5.3626005e-05 0
-0.11581585 -0.42762724 -0.19172335 0.10839928 0.99410743 -2.0538586e-05 0
-0.099869564 -0.42936599 -0.19901615 0.088423371 0.99607289 -0.0044897608 0.00018649931
0.10699297 -0.42721713 -0.19423829 -0.082033806 0.9966296 4.6345529e-05 0
0.11285704 -0.42673436 -0.19470786 -0.081999734 0.99663234 3.2815919e-06 4.1650488e-05
0.12333821 -0.42587158 -0.19600388 -0.082022414 0.99663049 -4.3610573e-05 0
0.14909773 -0.42375109 -0.19885156 -0.14109196 0.98998266 0.0052334671 0.0014009711
-0.20368333 -0.41804615 -0.19550195 0.21983862 0.97541863 0.015150363 0.0040246388
-0.1949802 -0.41899514 -0.19915788 0.15450437 0.98798227 0.0044006063 0.0023644178
-0.18797575 -0.41975892 -0.19453184 0.11284801 0.99360919 0.0024604208 4.6373029e-06
0.17323378 -0.41887012 -0.19333561 -0.30394182 0.95268285 -0.0038489325 0.00099605403
0.18467645 -0.41474283 -0.1917384 -0.32858956 0.94446433 -0.0040055332 0.00020014455
0.19410175 -0.41134319 -0.19913504 -0.33929142 0.94068128 0.00016086636 0
-0.24598125 -0.40130952 -0.19947839 0.3803561 0.92484015 2.7260612e-05 1.4420911e-05
-0.22665767 -0.40925643 -0.19973969 0.37327588 0.92769885 -0.0063188076 0
0.19914079 -0.40952566 -0.19816539 -0.33932287 0.94067001 -1.1847235e-05 2.9005956e-05
0.20778906 -0.40640628 -0.19657868 -0.33934376 0.94066244 9.0879817e-05 9.7329021e-06
0.21927714 -0.4022626 -0.1949479 -0.33936575 0.94065452 -2.0833919e-05 0
-0.2639116 -0.39393562 -0.19119465 0.38034552 0.92484438 8.4285974e-05 6.1351675e-05
0.23424597 -0.39686343 -0.19396479 -0.33932176 0.94067037 2.3837094e-05 0
0.24213214 -0.39401895 -0.19378218 -0.33928993 0.94068182 7.3353149e-06 0
0.25040928 -0.39103344 -0.19019994 -0.33933622 0.94066519 1.986467e-05 0
-0.29478237 -0.38123992 -0.19011889 0.40781939 0.91305298 -0.0042063836 0.0005539456
-0.28269145 -0.38621235 -0.19416654 0.38043991 0.92480558 5.1726074e-05 0
0.25418442 -0.38967174 -0.19698051 -0.3604894 0.93274617 -0.0056486465 0.00067788264
-0.29861504 -0.37966374 -0.19998391 0.42977214 0.90275729 -0.018034097 0.0021342146
-0.32233334 -0.36314267 -0.19470292 0.66937464 0.74290603 0.0053104525 0.0022904661
0.29331008 -0.36443752 -0.19486141 -0.69782108 0.71627206 3.218964e-05 0
-0.33131427 -0.35392457 -0.19769019 0.71621954 0.69787502 6.3592401e-05 0
-0.32643116 -0.35893661 -0.19585049 0.70421457 0.70997906 0.0033945881 0.00039112303
0.29989064 -0.35802704 -0.1954506 -0.69797856 0.71611863 4.867512e-05 0
0.30542803 -0.35263276 -0.19553852 -0.69782931 0.71626401 3.3258286e-05 0
0.31414026 -0.34414566 -0.19245902 -0.69782472 0.71626866 5.7163572e-05 0
-0.35246998 -0.33221003 -0.19626786 0.71626204 0.69783133 -1.743322e-05 2.3071541e-05
-0.34987187 -0.33487678 -0.19401285 0.71612227 0.69797486 -2.9677916e-05 0
0.32262516 -0.3358801 -0.1981144 -0.69780487 0.71628791 -5.3514945e-05 2.3100074e-05
-0.37590429 -0.30815682 -0.19687743 0.71634638 0.69774473 2.8309234e-05 1.5797172e-05
0.3571659 -0.30223212 -0.19509113 -0.72955006 0.6839264 -0.0011498183 0.0010523904
-0.38929573 -0.29441172 -0.19590375 0.7395795 0.67304653 -0.0055398694 0.00076241867
0.36324516 -0.29596442 -0.19223835 -0.77825791 0.62794155 0.0020158621 0.0021343385
-0.40014952 -0.28124458 -0.19563146 0.86800718 0.4963311 -0.014799196 0.0056226579
0.37153491 -0.28380549 -0.19504154 -0.8390525 0.54404962 -0.00092448469 0.00074440631
-0.40117979 -0.27819073 -0.19201984 0.88929003 0.45730269 -0.0061146123 0.0053798617
0.38102794 -0.26784784 -0.19270006 -0.85936183 0.51136804 3.9241473e-05 0
0.38887429 -0.25465834 -0.19325387 -0.85938662 0.51132637 3.0166386e-05 0
0.39040685 -0.25208214 -0.19856597 -0.85941887 0.51127213 -2.8016062e-05 0
-0.41092604 -0.24930161 -0.19000377 0.94752055 0.31969494 -4.0216619e-05 0
-0.41692519 -0.23151948 -0.19957384 0.94752431 0.3196837 4.2051721e-05 0
0.39857104 -0.2383583 -0.19707605 -0.85940456 0.51129621 2.2806889e-05 0
0.40218872 -0.23227701 -0.19599733 -0.85945815 0.51120621 -9.7958209e-06 1.1054398e-05
-0.42024493 -0.22167939 -0.19683337 0.94752848 0.31967127 -2.6785498e-05 0.00011233049
-0.41989014 -0.22273104 -0.19290152 0.94753724 0.31964552 -2.5537736e-07 0
-0.42347351 -0.21210948 -0.19621448 0.9475165 0.31970686 3.1939569e-06 1.0806365e-05
-0.42737159 -0.20055509 -0.19718847 0.9476065 0.3194401 1.310775e-05 3.2893965e-06
-0.037183855 -0.20028764 -0.19359334 0.11519785 0.99326688 -0.012255157 0.0017425262
-0.022331534 -0.20012805 -0.19059846 0.025808619 0.99966347 -0.002603617 0.00078044116
-0.42764693 -0.19973888 -0.19407851 0.94761115 0.31942612 1.3359026e-05 0
-0.074639887 -0.19082919 -0.19205339 0.28244877 0.95928097 0.0016335894 0.0007518538
-0.046031032 -0.19816697 -0.19425419 0.17532371 0.98403937 -0.030466896 0.0015692593
-0.0092843622 -0.19998783 -0.19247377 -0.010742456 0.99994224 1.2197302e-05 0
0.0013572834 -0.19987345 -0.19786876 -0.043160979 0.99906516 0.0024268993 0.00075728929
0.035317212 -0.19430357 -0.19745868 -0.25478908 0.96699554 0.0014190536 0.00022379393
0.050615482 -0.19002798 -0.19921911 -0.28396368 0.95883286 -0.0020680814 0.00043759326
-0.43179724 -0.18743694 -0.19509172 0.95482343 0.29712313 0.0054832944 0.0010333088
-0.097700723 -0.18247941 -0.19880131 0.41263035 0.91089433 0.0027790274 0.0017082602
-0.081127688 -0.18916516 -0.19915196 0.34619632 0.93814015 -0.0064106914 0.0014092227
0.052226841 -0.18957764 -0.19309574 -0.30270806 0.95303679 -0.0094204405 0.00096228207
0.061938822 -0.1868633 -0.19949222 -0.34698519 0.93786013 -0.0044385786 0.0018937766
0.075405329 -0.180684 -0.1961796 -0.42648521 0.90449446 -5.7027675e-05 0.0014805527
-0.43615711 -0.17439161 -0.19889355 0.9748053 0.22029716 0.034983262 0.0037451403
-0.10298784 -0.17950225 -0.1940234 0.46622235 0.88466758 -0.00011176139 0.00046157997
0.082434036 -0.17652476 -0.19207323 -0.47899935 0.87771183 0.013473407 0.0005250476
0.43018937 -0.17683919 -0.19847837 -0.97989988 0.1987641 -0.016997663 0.0061188038
-0.43719548 -0.16175601 -0.19791374 0.9957422 0.092170507 0.0014226038 0.002939739
-0.12178349 -0.16891858 -0.19476545 0.51749748 0.85565937 0.006593423 0.000834629
0.097897664 -0.16737416 -0.1908142 -0.52762181 0.84943289 -0.0088865049 0.00040125995
-0.43726689 -0.15785509 -0.19067915 0.99855965 0.053571325 0.0029573406 0.0011319792
-0.14321548 -0.15407725 -0.19905087 0.65261382 0.75768924 -0.0014975107 0.0019989738
-0.13720654 -0.15995875 -0.19199109 0.63057941 0.77612275 0.0017613114 0.0021392887
0.11428091 -0.15744101 -0.19359666 -0.63943285 0.76881182 0.0073494026 0.001799228
0.12143731 -0.15019469 -0.19876149 -0.68038875 0.73283464 0.00495219 0.0011737214
0.43140262 -0.15842234 -0.19108088 -0.9975785 0.069549091 0.00018104643 0.00016428321
-0.15264423 -0.14484845 -0.1959316 0.69382709 0.72014159 -0.00019735472 0.00018246542
0.13104723 -0.14037654 -0.19218361 -0.71398556 0.70016026 -0.00040550699 1.4075626e-05
-0.43771726 -0.13326128 -0.19043387 0.99983239 0.018309776 -3.7586691e-05 4.7445727e-05
-0.16762727 -0.13018318 -0.19336492 0.74299198 0.66921932 0.010412952 0.0013891611
0.13546319 -0.13586491 -0.19484608 -0.71404982 0.70009482 -0.00033018983 0
0.43284476 -0.136531 -0.19452292 -0.99783808 0.065720551 5.7529401e-06 0
-0.43791789 -0.12230657 -0.19295757 0.99983245 0.01830296 3.1366417e-05 0
-0.17511246 -0.12272175 -0.19229144 0.77192044 0.63570648 -0.0040046847 0.0021617159
-0.1691983 -0.12864546 -0.19990161 0.74170572 0.67069685 -0.0061976579 0.0015811054
0.14784685 -0.12321293 -0.19927186 -0.78274733 0.62231368 -0.0056961318 0.0025954598
0.43375325 -0.12274031 -0.19881856 -0.99783951 0.065698043 1.7636898e-05 5.1770767e-05
-0.43811765 -0.11139812 -0.19009878 0.99983281 0.018284773 -4.2541291e-05 0
-0.18002746 -0.11441402 -0.19275767 0.82996905 0.55764687 0.01346443 0.0010416551
0.15118514 -0.11980231 -0.1943807 -0.79719031 0.60363877 -0.010389003 0.0030908699
0.16098072 -0.10260029 -0.19750445 -0.86408424 0.5033412 0.0024456203 0.00024940012
0.43493402 -0.10481706 -0.19130076 -0.99783766 0.065727323 -2.2677027e-06 1.1251329e-05
-0.43833095 -0.099748641 -0.1986312 0.99983209 0.018325256 4.3150543e-05 1.7779117e-05
0.16462077 -0.09613587 -0.19718523 -0.87096101 0.49135226 9.5278469e-05 1.7979853e-06
-0.43860433 -0.084821336 -0.19613615 0.99983209 0.018326947 -1.3484951e-05 0
-0.19886765 -0.082568809 -0.19850972 0.89315879 0.44970065 0.0060571465 0.0015080114
0.17065668 -0.085416637 -0.1935856 -0.89155638 0.45287675 -0.0054684361 0.00092336972
0.43623987 -0.084994562 -0.19515045 -0.99791294 0.064569466 0.00076130003 7.5385738e-05
-0.20242508 -0.076256804 -0.1903924 0.90332586 0.42890003 0.0068604373 0.0016431385
-0.43896738 -0.064992718 -0.19357753 0.99990082 0.014073927 0.00063732656 0
0.17935646 -0.066634595 -0.19483551 -0.93803513 0.34644333 -0.0081992541 0.0017297097
0.18065126 -0.06158632 -0.19157657 -0.94466102 0.32794353 -0.008288051 0.0016527374
0.43748504 -0.066093639 -0.1926655 -0.99944425 0.033249971 -0.0023617649 0.0001282094
0.18263185 -0.053864446 -0.19798708 -0.96778768 0.25176585 -0.00095726049 4.8766728e-05
0.43769801 -0.053438079 -0.19893864 -0.99978364 0.02080198 -0.00025455139 8.0269114e-05
-0.43910533 -0.046040144 -0.19644547 0.99999601 -0.0025729418 0.0011259621 2.8870374e-05
0.43782908 -0.043438174 -0.19614869 -0.99990731 0.013612403 0.0001653184 0.00014149243
0.43787804 -0.039704505 -0.19428176 -0.99991071 0.013364129 2.362986e-05 4.4318645e-06
0.18922478 -0.028159615 -0.19289018 -0.98294914 0.18316479 0.016177712 0.0016778837
-0.21686509 -0.011759926 -0.19143949 0.99850249 0.054466411 0.0051226965 0.001115224
0.43815693 -0.018426895 -0.19858466 -0.99991417 0.013100808 9.9174649e-05 6.6305001e-05
-0.43859279 -0.0066960161 -0.19624995 0.99991518 -0.013028096 -1.4051348e-05 9.9909914e-05
-0.21692103 -0.0065549063 -0.19745821 0.9999423 0.010738652 -2.7227838e-05 1.8133635e-05
0.19094853 -0.0039226469 -0.19077301 -0.99975133 0.022267807 -0.0012035432 0.00035263321
-0.43843961 0.0050629582 -0.19338705 0.99991512 -0.013026592 -1.0540648e-05 0
-0.2170518 0.0056170998 -0.19332185 0.99994951 0.010050265 7.5003656e-05 5.986004e-06
0.19087866 0.0025784634 -0.19861197 -0.99999923 -7.6557997e-05 0.0012545228 0.000204221
0.43852931 0.0099806264 -0.19494891 -0.99991411 0.013105473 -1.8939061e-05 0
-0.43831319 0.014766796 -0.19237474 0.99991506 -0.013033535 5.0970855e-05 0
-0.21720012 0.019421881 -0.19726759 0.99822164 -0.057824813 0.014487622 0.0014071291
-0.43818486 0.024619494 -0.19476426 0.99991506 -0.013032586 -2.7054315e-05 6.1473293e-05
-0.21721554 0.020856958 -0.19315554 0.99852777 -0.053388864 0.0095898956 0.0015756519
0.19068053 0.02101538 -0.19272241 -0.99810445 -0.06120567 0.0064326636 0.0012070844
0.43873465 0.025645625 -0.19413796 -0.99991399 0.013110392 -1.1460648e-05 0.00010220805
-0.43806565 0.03376849 -0.19404091 0.99991512 -0.013030389 -3.1357991e-05 0
-0.21548125 0.035669453 -0.19468066 0.98297656 -0.1831685 0.014364042 0.0012462618
0.18864235 0.039792396 -0.19036384 -0.98106581 -0.19352908 0.0075092446 0.0025702931
0.43882424 0.032478794 -0.19818366 -0.99991381 0.013126107 6.8372574e-05 0
-0.21339178 0.04381438 -0.19458917 0.97942418 -0.20180464 0.0017341916 0.00086862
0.1874167 0.044180978 -0.19333795 -0.97636306 -0.21551885 -0.016333073 0.0018670325
-0.21130833 0.051935762 -0.19498749 0.96920347 -0.24625756 0.0013481077 0
0.18460807 0.054237485 -0.19806749 -0.9636178 -0.26728168 -0.0011006561 0
0.43909985 0.053505786 -0.19643235 -0.9999736 -0.00052490254 -0.0072472743 0.00011896563
-0.20916361 0.060296122 -0.19903755 0.96593022 -0.25864604 -0.00900508 0.00013769761
0.18108264 0.066860721 -0.19573686 -0.96314377 -0.26898712 -1.5550837e-05 0
-0.20581321 0.073356129 -0.19384249 0.94742972 -0.31980747 0.01001251 0.0013085917
0.43853968 0.07712464 -0.19142058 -0.9993993 -0.034631703 0.0012893723 3.560627e-05
-0.19909497 0.089226328 -0.19770885 0.89464891 -0.44676515 0.0020472247 0.00055914465
-0.43652707 0.096702278 -0.19045213 0.99906421 -0.043252181 4.9065311e-05 8.0291347e-06
0.43782961 0.095153898 -0.19565578 -0.99922371 -0.039394502 3.7278176e-06 0
-0.19148217 0.10274367 -0.19594693 0.87131244 -0.49072853 1.7095635e-05 0
0.16568427 0.10228214 -0.19364572 -0.87227285 -0.4890154 0.00203233 0.00026026604
-0.43581992 0.11299339 -0.19104396 0.99905926 -0.043365795 3.7857957e-05 0
-0.18241537 0.11884269 -0.19681776 0.83509511 -0.54989743 0.015130722 0.001348466
0.15861909 0.11421707 -0.19320685 -0.85948813 -0.51115572 -0.00016262532 6.1260621e-06
0.43697247 0.11691707 -0.19235569 -0.99922532 -0.039354954 8.0015498e-06 1.0423411e-05
-0.17854548 0.12571353 -0.19418545 0.80574143 -0.59200275 0.017703991 0.0018198678
0.14967892 0.12931943 -0.1983476 -0.80565846 -0.59229654 0.0099657988 0.0023339032
0.4366225 0.12580308 -0.19618309 -0.99922514 -0.039358485 -2.30624e-06 3.1937634e-05
-0.43467695 0.13932636 -0.19922148 0.99905944 -0.043362856 -2.3299708e-05 0
-0.16579071 0.13945702 -0.19456053 0.73490012 -0.67815745 0.0049222941 0.00054936635
0.14768258 0.1319313 -0.19615233 -0.80166662 -0.59773397 0.0066982629 0.0023725329
-0.4346323 0.14035478 -0.19004108 0.99906015 -0.043345723 1.8776151e-05 0
0.13313308 0.14617604 -0.19521096 -0.70220309 -0.71197641 -0.0005923413 1.4213887e-05
0.43582973 0.14593212 -0.19510354 -0.99922323 -0.039407343 8.5450018e-05 0
0.12578249 0.15337268 -0.19338535 -0.68685406 -0.72679192 0.0022319916 0.00029510082
0.43497661 0.16759278 -0.19305046 -0.99672747 -0.079114541 0.016590046 0.0016237028
-0.43320227 0.17330053 -0.19964901 0.9973107 -0.072990604 0.0066195927 0.00045388332
-0.11843804 0.17854278 -0.19482473 0.51382613 -0.85789299 -0.0015224916 6.8160596e-05
0.096779704 0.17610687 -0.19760713 -0.5245679 -0.85127175 -0.012844715 0.00071387377
0.10459276 0.17170838 -0.1940569 -0.55069423 -0.834638 -0.010735804 0.0017178158
0.43452197 0.1791366 -0.19068936 -0.95849794 -0.28331918 -0.031811986 0.0086953826
-0.43282399 0.1820159 -0.19835314 0.99679726 -0.079928175 0.0025585101 0.00036155246
-0.11348762 0.18147154 -0.19663058 0.50917453 -0.86066329 -6.5805907e-06 0
0.08511287 0.18267493 -0.19373395 -0.49056843 -0.87140268 -2.5152301e-06 4.6678879e-06
0.4321546 0.18645245 -0.19721578 -0.93388516 -0.35743824 -0.0098205702 0.0052877194
-0.096400231 0.19158074 -0.19383539 0.41742685 -0.90870833 0.0020085634 0.0015047218
-0.084314585 0.19576171 -0.19489641 0.33786795 -0.94106925 0.015294054 0.0015959054
0.049476907 0.1984123 -0.19314256 -0.28423166 -0.95875204 -0.0026498691 0.00078860519
0.066712581 0.19303371 -0.19579202 -0.38052318 -0.92471981 -0.0097606508 0.0021502522
0.42647198 0.19659826 -0.19896552 -0.889561 -0.45669404 0.010569448 0.0007207818
-0.42980853 0.20286109 -0.19878568 0.97005212 -0.24289365 0.0012356135 0.0046392144
-0.067372575 0.20049766 -0.19330633 0.26676917 -0.96376002 -0.00088091026 1.0155796e-05
-0.054430995 0.2041153 -0.19220197 0.21633992 -0.97631359 0.0029767144 0.00088824541
-0.046410736 0.20635727 -0.19319063 0.18291159 -0.98312598 -0.0025811649 0.0016735217
-0.034293197 0.20764126 -0.1997461 0.097213209 -0.99525678 -0.0036842613 0.0020627531
-0.021129912 0.20778267 -0.1984555 0.018013453 -0.99983644 -0.0016022971 0.00014882903
-0.013549828 0.20786412 -0.19492328 0.001942677 -0.99999744 0.0011749278 0.00011636605
0.0018782354 0.2080299 -0.19486853 -0.069421314 -0.99735183 0.021678757 0.0013941729
0.014683258 0.20715168 -0.19378197 -0.13939194 -0.99012709 0.014776635 0.0020353522
0.024686376 0.20477197 -0.19866174 -0.21344112 -0.97695565 -0.00074870873 0.00059977116
0.034186561 0.20233482 -0.19399233 -0.23878048 -0.97107291 -0.0011534679 0.00012483571
0.40890348 0.22796524 -0.19379988 -0.87248915 -0.48863345 -3.1259919e-05 5.9120113e-05
0.4124558 0.22162285 -0.19065677 -0.8725248 -0.48856974 4.5749559e-05 4.7437406e-06
-0.41786796 0.23375997 -0.19968757 0.93277484 -0.36045957 3.0279023e-05 2.9789273e-05
0.40680304 0.23171538 -0.19254535 -0.87245685 -0.48869118 -2.4460713e-05 2.6129153e-05
-0.41519886 0.24066672 -0.19867241 0.93278426 -0.36043534 6.8928157e-06 9.5362768e-05
0.39124522 0.25949255 -0.19922081 -0.87247705 -0.488655 -4.671681e-05 0
-0.40488023 0.26736847 -0.19101515 0.93281776 -0.36034864 8.4189975e-05 6.1231302e-05
0.39087379 0.26015568 -0.19810086 -0.87247962 -0.48865059 -6.1090803e-05 0.00015586673
-0.4035843 0.27072197 -0.19265893 0.93277496 -0.36045933 2.9684434e-05 0
0.38302267 0.2741732 -0.19232687 -0.8644923 -0.50264376 -0.0015426546 0.00036590267
0.37771052 0.28365767 -0.19159336 -0.85040444 -0.5260244 0.010525825 0.0015267957
-0.39483812 0.2933546 -0.19624449 0.89867502 -0.43756685 -0.030305138 0.0022776627
0.3706077 0.29457349 -0.19545703 -0.78173649 -0.62307191 0.025871689 0.0023453019
-0.38550782 0.30794686 -0.19686198 0.77433085 -0.63274604 0.006653884 0.0039807316
0.36124414 0.30418548 -0.19657359 -0.73528504 -0.6777544 -0.0021820224 0.00076625071
-0.37382349 0.31933048 -0.19134286 0.69783646 -0.71625721 -3.668369e-05 3.0296946e-05
0.34858525 0.31718028 -0.19135101 -0.71625829 -0.69783533 8.3214809e-06 5.1073974e-05
0.35121897 0.31447667 -0.19906783 -0.71633697 -0.69775444 -7.2610768e-05 6.0492664e-07
-0.3645314 0.32838348 -0.19061816 0.6978181 -0.71627492 -0.00010443753 3.2177111e-05
0.33942053 0.32658815 -0.19509563 -0.71627557 -0.69781756 1.2749481e-06 0
-0.35948697 0.33329806 -0.19541854 0.69783205 -0.71626139 -2.4361894e-05 3.6086578e-05
-0.3442097 0.3481822 -0.19436832 0.69787747 -0.71621722 -5.5187978e-05 0
0.31981242 0.34671649 -0.19197652 -0.71617776 -0.69791794 1.1354839e-05 0
0.32600844 0.34035611 -0.19835162 -0.71620846 -0.69788641 -5.4719931e-05 0
-0.33586255 0.35631448 -0.19592722 0.69789678 -0.71619833 6.1642299e-05 0
0.30814877 0.35868958 -0.19130349 -0.71625501 -0.69783866 4.199149e-05 2.8601266e-05
0.31076765 0.3560012 -0.19461399 -0.71624696 -0.69784695 4.5535344e-05 6.9287431e-05
-0.32553926 0.36637217 -0.19883133 0.6978569 -0.71623725 2.2247707e-06 1.7459221e-05
-0.31215847 0.37940854 -0.19446367 0.64996791 -0.75995421 -0.0033497135 0.0031785616
0.29497927 0.37220851 -0.19358341 -0.67464727 -0.73805416 0.011277193 0.0023758814
-0.30465478 0.38671911 -0.19721158 0.54695368 -0.83699244 0.016890509 0.007576114
0.27985647 0.38406491 -0.19268484 -0.43640959 -0.89953744 0.019465672 0.0043967818
-0.29072616 0.39302933 -0.19784033 0.38172659 -0.9242698 0.003178451 0.0038307332
-0.28436622 0.39487925 -0.19357672 0.31977496 -0.94749075 -0.0022681686 0.00063154695
-0.27416158 0.39784756 -0.19225778 0.27930024 -0.96020383 -1.104106e-05 7.3124116e-05
0.2395162 0.39765221 -0.19281742 -0.31929761 -0.94765449 4.172706e-05 0
0.24221876 0.39674193 -0.1971077 -0.3192583 -0.94766778 -3.0055548e-05 0
0.25038666 0.39399084 -0.19821188 -0.31920585 -0.94768542 -3.819228e-05 0
-0.24059078 0.4076125 -0.19911692 0.27926308 -0.96021456 8.6780601e-05 5.4387121e-05
-0.23720799 0.40859646 -0.19512527 0.27933136 -0.96019477 -1.2727811e-05 7.5653836e-05
0.20562568 0.40906712 -0.19499987 -0.31736133 -0.94830471 -0.00022548687 3.3659784e-05
0.22736421 0.4017452 -0.19779891 -0.3192127 -0.9476831 -1.9800522e-05 1.9574964e-05
-0.22448233 0.41229802 -0.19546443 0.27930877 -0.96020132 2.4220073e-05 0
-0.20657504 0.41750687 -0.19682029 0.26419476 -0.96446544 -0.0027607388 0.00019518942
0.15974109 0.41988617 -0.19322495 -0.1213216 -0.99261278 0.00099218183 0.00013875451
0.16513595 0.41932189 -0.1933974 -0.12372102 -0.99230915 0.0039696721 0.00020693816
0.17792274 0.41798449 -0.1938168 -0.20493624 -0.97872263 0.010154437 0.0017416079
0.19470128 0.41274664 -0.19413707 -0.30336717 -0.95287359 0.00050325511 5.1627248e-05
-0.19423814 0.42109537 -0.19734097 0.20705925 -0.97832823 -0.00061432313 0.00090215495
-0.18481505 0.42297974 -0.193381 0.15804939 -0.98743111 -0.00029224591 0.0010928685
-0.17377082 0.42392969 -0.19363645 0.09780176 -0.9951973 0.0041391603 0.0002117078
-0.16058476 0.425064 -0.19350749 0.085732788 -0.99631822 1.9718404e-05 1.1133098e-05
-0.15968552 0.42514133 -0.19592285 0.085718676 -0.99631935 1.0222614e-05 9.7255557e-05
-0.12583634 0.42805302 -0.19256645 0.085721932 -0.99631912 -2.273159e-05 6.3835869e-05
-0.10365102 0.42996144 -0.19750789 0.085719168 -0.99631935 1.2310145e-05 0
0.076563597 0.42858598 -0.19115715 -0.1022551 -0.99475831 -0.00016176497 0
0.087216154 0.42747176 -0.19546625 -0.10401586 -0.99457562 5.9938316e-07 0
0.10452998 0.42566088 -0.1905385 -0.10402656 -0.99457449 -0.00010433794 0
0.12018284 0.42402369 -0.1970302 -0.1040059 -0.99457663 9.106484e-06 0
0.15319741 0.42057061 -0.19154581 -0.10397756 -0.99457961 3.3159802e-05 6.5488668e-05
-0.086895719 0.43140271 -0.19147065 0.071634628 -0.99741888 0.0048999889 4.1398536e-05
-0.078017212 0.4321664 -0.19552089 0.048267655 -0.99881905 0.0055404203 0.00031292811
-0.063391045 0.43253779 -0.19472328 0.023357086 -0.99972719 4.542133e-06 0.00012798829
-0.021052267 0.43198282 -0.19079731 -0.013113462 -0.99991399 -2.3565766e-05 0
-0.013102301 0.4318786 -0.19323137 -0.013133104 -0.99991381 -4.4201632e-05 7.8644953e-05
-0.0084343599 0.43181741 -0.19511998 -0.013104982 -0.99991411 -2.1703587e-05 5.0837749e-05
0.0049995594 0.43164128 -0.19737273 -0.013106847 -0.99991411 3.1913973e-05 0
0.011726439 0.43155313 -0.19743317 -0.013105283 -0.99991411 -1.2484162e-05 0.00012120105
0.031004198 0.43130046 -0.19455864 -0.013099683 -0.99991423 -9.7343591e-06 4.0716262e-05
0.051184759 0.43103588 -0.192698 -0.046876699 -0.99889594 0.0030558596 0.00019887692
-0.084285319 -0.43100074 -0.18243194 0.059594922 0.99819404 0.0075549763 0.00017648473
-0.07406272 -0.43114763 -0.18270984 0.034099527 0.99941522 -0.0025559154 0.00029181506
-0.064619832 -0.4312714 -0.18690652 0.01323675 0.99991244 -1.656588e-05 0
-0.04711163 -0.43150094 -0.18642646 0.013106296 0.99991411 -8.5203516e-07 0
-0.024565527 -0.43179646 -0.188586 0.013112646 0.99991405 5.2957325e-06 7.7994554e-07
-0.017345164 -0.43189114 -0.18435097 0.01310687 0.99991405 9.6507283e-06 0
0.016957864 -0.4323408 -0.18769822 0.011034119 0.99993861 -0.0010339012 0
0.0224151 -0.43241233 -0.18347129 0.0043716268 0.99998766 0.002356923 1.7554556e-05
0.036829002 -0.43260127 -0.18762277 -0.022825954 0.9997232 0.0057049589 0.00031736837
0.049177937 -0.43197638 -0.18845806 -0.050594684 0.99871236 0.0037181724 0.00018765959
0.07307227 -0.43000942 -0.18438902 -0.081976995 0.99663424 6.5905374e-06 0
-0.1610606 -0.42269373 -0.18499593 0.10839123 0.99410832 1.3612437e-05 0
-0.15870866 -0.42295021 -0.18135719 0.10836688 0.994111 -7.848229e-06 4.588969e-05
-0.14566097 -0.42437291 -0.18943852 0.10838751 0.99410874 8.0980635e-06 0
-0.13463724 -0.42557496 -0.18424636 0.10844373 0.9941026 6.6446805e-06 0
-0.11589129 -0.42761898 -0.18705334 0.10836227 0.99411148 -3.4899986e-05 4.1233081e-05
-0.10385863 -0.42893106 -0.18013676 0.09869612 0.9951176 0.00012582005 0.00011779564
0.11513205 -0.42654711 -0.18306668 -0.082046345 0.99662852 -5.2287029e-05 0.00011208473
0.13757484 -0.4246996 -0.18647096 -0.084961027 0.99638426 -0.00022382004 0
0.15666866 -0.42312783 -0.18590137 -0.20369591 0.97900838 0.0071197315 0.0026434152
0.16302745 -0.42216581 -0.1856911 -0.20355819 0.97903889 0.0068425345 0.0024019792
-0.20379624 -0.41803384 -0.18396387 0.23409556 0.97220349 -0.0044162362 0.003333227
-0.18877466 -0.41967183 -0.18254443 0.10843398 0.99410367 -3.644171e-05 4.212237e-05
0.18515182 -0.41457137 -0.18684675 -0.32630458 0.94526166 -0.0023367594 0.00025114449
0.19267319 -0.41185847 -0.18384473 -0.33927792 0.94068617 2.1791599e-05 0
-0.24452254 -0.40190944 -0.18603206 0.38031206 0.92485827 7.0587979e-05 0
-0.23442394 -0.40606251 -0.18567473 0.38037187 0.92483366 -2.6942025e-05 5.8447371e-05
0.21493375 -0.40382922 -0.18187933 -0.33923015 0.94070345 -1.1657437e-05 4.1091338e-05
0.22089685 -0.40167838 -0.1841493 -0.33923805 0.94070059 -2.8807831e-06 4.7227977e-06
0.23670444 -0.39597672 -0.18428606 -0.33934057 0.94066358 3.5283691e-05 4.1636747e-05
-0.29351798 -0.38175988 -0.18103069 0.4107981 0.91171169 -0.0051773684 0.00085519272
-0.28153673 -0.38668722 -0.18314703 0.380395 0.92482412 1.3049724e-05 0
-0.27973738 -0.38742721 -0.18550885 0.38037553 0.92483211 7.2652761e-06 0
0.25580919 -0.38908574 -0.18440253 -0.37701616 0.92608887 -0.014766777 0.00090049894
-0.31500477 -0.37066475 -0.1896435 0.59337324 0.8047142 0.018527621 0.0043009664
0.28584445 -0.37171015 -0.18366694 -0.67618936 0.73650658 -0.018053241 0.0012531348
-0.32304537 -0.3624118 -0.18701398 0.69161439 0.72224879 0.0051105954 0.00080626528
-0.31580156 -0.36984694 -0.18345471 0.611139 0.79110521 0.025722079 0.0038064881
0.29712969 -0.36071661 -0.18782359 -0.6978479 0.71624601 -1.7726026e-05 0
0.30330831 -0.35469764 -0.18843451 -0.69780874 0.7162841 9.3076014e-05 0
-0.33608583 -0.34902692 -0.18967912 0.71623856 0.69785553 5.1269792e-05 0
0.31143707 -0.34677899 -0.18452629 -0.69791543 0.71618021 3.2918015e-05 0
-0.35277748 -0.33189443 -0.18132299 0.71605092 0.69804806 -8.0157828e-05 0
0.31944734 -0.33897579 -0.18463388 -0.69774872 0.71634257 -4.3605523e-05 5.7867706e-05
0.32077432 -0.33768314 -0.18568364 -0.69772971 0.71636111 7.9360552e-06 0.00012910608
0.33959788 -0.31934607 -0.18960339 -0.69775927 0.71633232 2.3101809e-05 1.4921426e-05
-0.37838784 -0.30560768 -0.1844949 0.7173062 0.69675791 -0.00050308957 0
0.34930596 -0.3098889 -0.18083087 -0.69980329 0.71433508 0.00087082863 5.4896787e-05
0.36350441 -0.29586101 -0.18786949 -0.78566235 0.61856318 -0.010695426 0.0017068847
-0.3997539 -0.2824173 -0.18663634 0.85684705 0.51534593 -0.015222006 0.0046666465
0.36965218 -0.28697032 -0.18827489 -0.82383132 0.56683058 -0.0022509629 0.0012296516
-0.40368181 -0.27077448 -0.18153358 0.9326902 0.36004716 -0.021330133 0.0019782516
0.37527844 -0.2775127 -0.1898464 -0.85128456 0.52468282 0.0047357329 0.00012637145
-0.40529728 -0.26598608 -0.18554789 0.94154465 0.3365759 -0.014495874 0.00051431177
0.38655123 -0.25856334 -0.18716626 -0.85945684 0.51120818 -3.5814017e-05 2.4333233e-06
-0.41509852 -0.23693399 -0.18685259 0.94750494 0.31974122 8.249715e-05 4.0075345e-05
-0.41919824 -0.22478198 -0.18252951 0.94751483 0.31971151 4.1884694e-05 1.1664976e-05
0.40452719 -0.22834606 -0.18246016 -0.85941613 0.51127672 -9.1437549e-05 6.1677521e-05
0.41397679 -0.21246153 -0.18349168 -0.85939723 0.51130855 0.000108464 0
-0.42446232 -0.20917854 -0.18627401 0.94749719 0.31976408 7.9342768e-05 0
-0.023196962 -0.20013735 -0.18134271 0.043163043 0.99906403 0.0028253996 0.0010484521
0.41853404 -0.20480087 -0.18173635 -0.87042022 0.49227893 -0.0054907487 0.00070137769
0.42016035 -0.20206708 -0.18600729 -0.89207286 0.45151407 0.018465865 0.0017899699
-0.43072322 -0.19062048 -0.1826397 0.94997978 0.31229258 -0.003440263 8.0489946e-05
-0.074000888 -0.19099307 -0.1839823 0.27855039 0.96040148 0.0062252614 0.00075928122
-0.063262187 -0.19374742 -0.18255764 0.2475311 0.96888 6.1277962e-05 1.3652341e-05
-0.053416938 -0.19627258 -0.18424523 0.22996549 0.97307712 -0.01538736 0.00029393085
-0.048567381 -0.19751644 -0.18522802 0.17890316 0.98310041 -0.038822077 0.0015500821
-0.0087810559 -0.19998243 -0.18162468 -0.010762366 0.99994206 -4.1901509e-05 2.0350253e-05
0.029627245 -0.19589381 -0.18186666 -0.24706173 0.96898258 -0.0057595298 0.00046998356
0.03028103 -0.19571109 -0.1862382 -0.24707872 0.96897793 -0.0058218916 0.0004173386
0.044421036 -0.19175921 -0.18203384 -0.26916456 0.96309423 1.8816317e-07 0
0.42731524 -0.19003992 -0.1881603 -0.92311227 0.3844074 -0.0097298715 0.0057166535
-0.43368298 -0.18184733 -0.18626225 0.96212614 0.27258676 0.0031272441 0.0018632316
-0.097111247 -0.18281133 -0.18467653 0.4179332 0.90845335 -0.006663207 0.0015423455
-0.085621931 -0.18801245 -0.18135704 0.32115424 0.94696474 0.010854018 0.0010599615
0.056973364 -0.18825108 -0.1802249 -0.32223493 0.94663662 -0.0066117872 0.0013906364
0.064272553 -0.18621108 -0.18681079 -0.37437558 0.92700869 -0.022310108 0.0018948211
0.074692786 -0.18110564 -0.18015641 -0.43796077 0.89899176 0.002019217 0.0013371763
0.42892587 -0.18519679 -0.18688324 -0.9561494 0.29264662 -0.011671164 0.0091057178
-0.43528494 -0.177099 -0.1867023 0.96571451 0.25947553 0.0082404837 0.0021785668
0.077917323 -0.17919752 -0.18554109 -0.43776155 0.89904106 -0.009483817 0.0015920583
-0.43705645 -0.16934811 -0.18699113 0.98525459 0.17059855 -0.013022319 0.003342909
-0.13187197 -0.16323784 -0.18543832 0.59050059 0.80697989 -0.0096156439 0.0021224108
-0.12304481 -0.16820835 -0.18525279 0.51606554 0.85654908 0.00017697482 0.00058538723
0.43127215 -0.16040269 -0.18099359 -0.99752778 0.070273034 -0.00021133776 0
-0.1427951 -0.15448871 -0.18139434 0.64182174 0.76685232 0.0015722142 0.0019094566
-0.1385444 -0.15864925 -0.18587783 0.6365236 0.77124977 -0.0033940449 0.002097907
0.11575548 -0.15575987 -0.18531427 -0.6640169 0.74768853 0.0066002388 0.0022711477
0.12046547 -0.15118758 -0.18575558 -0.67030174 0.74208826 -0.00080958393 0.0021353827
0.43164396 -0.15475893 -0.18070559 -0.99783206 0.065812625 4.4077893e-05 5.3024025e-05
-0.15539315 -0.14215782 -0.18249857 0.70092165 0.7132383 0.0001196461 8.5916736e-06
0.43206203 -0.1484127 -0.18397687 -0.9978379 0.065723225 2.6591064e-05 0.00010421524
-0.437666 -0.13606001 -0.18254256 0.99983215 0.018320447 -4.8664006e-05 6.2020714e-05
-0.15903303 -0.13859512 -0.18956847 0.70107186 0.7130897 -0.0011418775 3.013547e-05
0.13392165 -0.13743985 -0.18218091 -0.71382993 0.70031905 0.00016569351 1.3863881e-06
0.43301755 -0.13390763 -0.18216124 -0.99783921 0.06570296 -2.1395275e-05 3.0039755e-05
-0.17399296 -0.12340137 -0.18111992 0.78983295 0.61314601 -0.014693946 0.0021379872
0.14486982 -0.12625445 -0.18519302 -0.75799143 0.65219939 -0.009213822 0.0018798448
0.15063076 -0.1203687 -0.18534687 -0.79294574 0.60917366 -0.012016313 0.0024865014
0.43351752 -0.12631859 -0.18129323 -0.99783683 0.065739013 2.988185e-05 8.4222165e-06
-0.18087584 -0.11298002 -0.18234719 0.83418238 0.55143392 0.0077686603 0.00090992835
0.1567301 -0.110149 -0.18023506 -0.84447587 0.5355913 -0.0015758394 0.0012431794
0.43431658 -0.11418971 -0.18371709 -0.99784124 0.065671541 -1.9840591e-05 7.9236823e-05
-0.43827313 -0.10290543 -0.18004714 0.99983251 0.018303491 -2.7141567e-05 0
-0.18485788 -0.10624929 -0.18179277 0.84714663 0.53135538 -0.0019784672 0.00071682024
0.15985696 -0.10459597 -0.18268239 -0.85515296 0.51836622 0.0031270145 0.00067102874
0.16161151 -0.10148004 -0.18842313 -0.86664647 0.49891356 0.0030196004 0.00012185525
0.43481767 -0.10658266 -0.18817939 -0.99783659 0.065742746 1.580248e-05 0
-0.43850195 -0.090409927 -0.18609649 0.99983287 0.018285299 -2.7721135e-05 5.0501054e-05
-0.19032222 -0.097013026 -0.18626752 0.86197317 0.50695312 -0.0008559851 5.7204297e-06
0.16555113 -0.094483644 -0.18213722 -0.87141746 0.49054208 -5.2348041e-05 4.9648888e-06
-0.43866548 -0.081481993 -0.18822905 0.99983203 0.018326038 -3.0353733e-06 7.4055642e-05
0.17018777 -0.086249359 -0.18408571 -0.89219916 0.45160425 -0.0058565754 0.00092049665
0.43699104 -0.073592156 -0.18345928 -0.99920923 0.039595135 -0.0036078077 0
-0.43898827 -0.063852951 -0.18476266 0.9998979 0.014287226 -3.268056e-05 0
-0.20534424 -0.065813974 -0.1883637 0.94855851 0.31656376 0.004908673 0.0012213901
