# .PCD v0.7 - Point Cloud Data file format
VERSION 0.7
FIELDS x y z normal_x normal_y normal_z curvature
SIZE 4 4 4 4 4 4 4
TYPE F F F F F F F
COUNT 1 1 1 1 1 1 1
WIDTH 585
HEIGHT 1
VIEWPOINT 0 0 0 1 0 0 0
POINTS 585
DATA ascii
0.092374951 0.034613177 0.46175167 -0.13377364 -0.00034773987 -0.9910118 2.1994598e-05
-0.10246988 0.047768734 0.46042264 0.18206166 -0.0038358239 -0.98327965 0.0011347629
-0.091633275 0.047034457 0.4618493 0.13395642 -0.00011290669 -0.99098724 5.3661934e-05
-0.072518922 0.047168881 0.46436578 0.13050072 -8.7914295e-06 -0.99144828 0
-0.061408423 0.043364029 0.46582848 0.13052997 -1.0522757e-05 -0.99144435 0
-0.050901785 0.041432008 0.46721169 0.13053511 -3.650006e-06 -0.99144369 0
-0.03625064 0.041830122 0.46914062 0.13052687 -1.0111185e-06 -0.99144477 0
0.03299316 0.040755466 0.46956944 -0.13052811 1.7984275e-05 -0.99144459 0
0.051280767 0.04362607 0.46716183 -0.13053694 1.0694731e-05 -0.9914434 4.834147e-05
0.078588136 0.045938116 0.46356675 -0.13053523 8.1966855e-06 -0.99144363 5.0675262e-06
0.083781883 0.045050234 0.46288297 -0.13053013 -4.578229e-06 -0.99144435 0
-0.078462549 0.055708796 0.46358329 0.13048625 9.2641703e-06 -0.99145013 0
-0.066439077 0.055686653 0.46516621 0.13052188 1.6516404e-05 -0.99144536 3.6156351e-05
0.06281466 0.059874192 0.46564335 -0.13053504 -3.561773e-05 -0.99144369 0
0.077111878 0.050575055 0.46376109 -0.13056821 -1.5292833e-05 -0.99143934 0
0.088197291 0.055166662 0.46230167 -0.13057743 1.5732754e-05 -0.99143809 5.4163862e-05
0.10328531 0.051648766 0.46031529 -0.1699522 0.0092835343 -0.9854086 0.0011432722
-0.096745804 0.061280057 0.46117625 0.14771749 -0.0074668778 -0.98900139 8.5112675e-05
-0.086905003 0.065072529 0.46247178 0.13051625 1.4927163e-05 -0.99144614 9.0890164e-05
-0.07707461 0.064274788 0.46376604 0.13052362 -3.8136777e-06 -0.99144524 7.2459348e-05
-0.054632902 0.063101783 0.46672052 0.13051681 -1.663078e-05 -0.99144614 0
-0.046887029 0.06734544 0.4677403 0.13054332 4.2334741e-06 -0.99144256 6.4406093e-05
-0.030021576 0.069223799 0.46996063 0.13054159 8.1623593e-06 -0.9914428 1.707322e-05
0.033236105 0.066731863 0.46953747 -0.13051854 -3.6528112e-05 -0.99144584 0
0.044215564 0.065599173 0.46809196 -0.13053972 8.271365e-06 -0.9914431 0
0.05799894 0.065690294 0.46627736 -0.13055509 -2.7857288e-06 -0.99144101 0.00013816016
0.079545133 0.065844707 0.46344075 -0.13055013 -3.8184811e-05 -0.99144173 0
0.085843578 0.065025821 0.46261156 -0.13053179 2.2343831e-05 -0.99144411 7.1592654e-06
0.093344085 0.064360246 0.46162406 -0.13289407 -0.00062031799 -0.99113005 0
-0.093708083 0.070598036 0.46157616 0.14492962 -0.0025687313 -0.98943859 0.00020692912
-0.085665844 0.073696807 0.46263495 0.13053927 1.9653718e-05 -0.99144316 0.00014607623
-0.073421255 0.079156227 0.46424696 0.13056302 4.333516e-05 -0.99144006 0.00013894028
-0.068391301 0.077676207 0.46490917 0.13050571 1.7013801e-05 -0.99144751 0
-0.04337268 0.079078615 0.46820295 0.1305279 -1.3332066e-05 -0.99144465 2.401842e-06
0.0383517 0.078480691 0.46886396 -0.1305245 2.916445e-05 -0.99144512 2.7576232e-06
0.043974452 0.074332759 0.4681237 -0.13051832 3.8535018e-05 -0.9914459 0
0.060030468 0.07459569 0.46600989 -0.13054602 -3.3326282e-07 -0.9914422 0
0.10549921 0.071036004 0.46002382 -0.19442625 -0.0028352542 -0.98091304 0.0017100127
-0.084232524 0.085404098 0.46282366 0.13052264 -1.4440076e-05 -0.9914453 4.7028618e-05
-0.071033791 0.089753725 0.46456128 0.13050114 4.3037264e-05 -0.99144816 0
-0.061773822 0.080266379 0.46578038 0.1305633 -2.8379891e-06 -0.99144 0
-0.058680706 0.084776863 0.4661876 0.13053456 -4.3413613e-05 -0.99144375 0
0.035396077 0.085982993 0.46925306 -0.13054442 -1.1037972e-05 -0.9914425 7.9311474e-05
0.054760456 0.085514009 0.46670371 -0.13051537 -3.4347825e-06 -0.99144626 2.1293841e-05
0.070666499 0.082998157 0.46460965 -0.13055629 1.6154914e-05 -0.99144089 2.274586e-05
0.087068282 0.086808324 0.4624503 -0.13126825 -0.00010282444 -0.99134684 0
0.096613809 0.083605006 0.46119362 -0.13781203 -0.0019427129 -0.99045646 7.2071613e-05
-0.10437092 0.095057592 0.46017238 0.15559795 0.0067995675 -0.98779702 0.00033969033
-0.093093127 0.097903036 0.46165714 0.13300048 0.0014195188 -0.99111491 0
-0.083486713 0.092941374 0.46292183 0.13051637 7.8017165e-06 -0.99144614 0
-0.046899974 0.092476785 0.46773854 0.13053368 3.9182793e-05 -0.99144381 6.046972e-05
0.045437671 0.093896538 0.46793109 -0.13053748 -4.5847864e-05 -0.99144334 0
0.068977125 0.095303528 0.46483207 -0.13053203 -3.6916834e-05 -0.99144411 2.2362361e-05
0.091854513 0.096878983 0.46182019 -0.13665384 -0.0018179779 -0.99061722 0.00018941874
0.10362679 0.092360698 0.46027035 -0.18283606 0.0013850401 -0.98314244 0.0013233124
-0.074004129 0.10726631 0.46417022 0.13054253 1.1711101e-05 -0.99144268 0
-0.064205602 0.10202822 0.46546021 0.13052437 4.6717259e-06 -0.99144506 2.6819409e-05
-0.045945957 0.10101978 0.46786419 0.13052581 6.5772612e-05 -0.99144489 4.684188e-05
-0.030258784 0.10099623 0.46992943 0.13052775 -2.5927055e-05 -0.99144465 0
0.077449754 0.10189236 0.46371663 -0.1305342 -1.6481124e-05 -0.99144375 0
0.099346094 0.10988468 0.46083391 -0.15299901 -0.0013558976 -0.9882254 0.00066107034
-0.084754445 0.11692381 0.46275491 0.13051789 -1.2912712e-05 -0.99144596 0
-0.071216598 0.11342756 0.46453723 0.13052896 2.0243382e-05 -0.99144453 8.5800406e-05
-0.032748554 0.11649374 0.46960163 0.13052912 -1.8412271e-06 -0.99144447 0
0.044918548 0.11244534 0.46799943 -0.1305396 7.3501369e-06 -0.9914431 0
0.056075379 0.11351094 0.46653059 -0.1305763 -7.4143885e-05 -0.99143827 0
0.070944436 0.11164526 0.46457306 -0.13054447 -2.2415668e-05 -0.99144244 0
0.086439498 0.11898883 0.46253306 -0.13053182 1.0227997e-05 -0.99144417 2.1537744e-05
0.10331931 0.11313192 0.46031082 -0.1895701 -0.007283078 -0.98184019 0.0016659973
-0.096401282 0.12901744 0.46122161 0.14475808 0.0092608472 -0.98942375 0.00026827355
-0.065327607 0.12725593 0.46531248 0.13055941 -7.4506264e-05 -0.99144047 0
-0.059425458 0.12712796 0.46608955 0.13052061 1.3107361e-06 -0.9914456 3.5610299e-06
-0.040228244 0.12258264 0.4686169 0.13054179 1.9555502e-05 -0.99144286 3.8674763e-05
-0.039734643 0.12436493 0.4686819 0.13053566 2.9774581e-05 -0.99144363 6.2455016e-05
0.042148706 0.12708682 0.46836412 -0.13054237 -0.00013020153 -0.99144274 0
0.050682131 0.12370536 0.46724063 -0.13053794 0.00010100765 -0.99144334 5.6818768e-05
0.064228028 0.12005134 0.46545729 -0.13050646 3.2490596e-05 -0.99144745 2.958378e-05
0.073384993 0.12124576 0.46425176 -0.13053277 -2.9659008e-05 -0.99144399 0
0.090443559 0.1284335 0.46200594 -0.13242224 5.1380146e-05 -0.99119341 4.2697931e-05
-0.10501787 0.13212901 0.46008721 0.21445192 0.0049874387 -0.97672176 0.0016241774
-0.096042514 0.13551712 0.46126881 0.13056897 -3.2591332e-05 -0.99143928 0
-0.070845604 0.13537028 0.46458605 0.13052981 -1.3253846e-05 -0.99144441 1.1811384e-05
-0.069682434 0.13597301 0.4647392 0.1305024 5.3025618e-05 -0.99144799 1.3899567e-05
-0.046408888 0.13286321 0.46780321 0.13053031 3.4696764e-05 -0.99144429 0
-0.037591666 0.13564661 0.46896404 0.13054463 7.0207636e-05 -0.99144244 8.9291192e-05
-0.029733101 0.13693438 0.46999863 0.13055111 -9.1490147e-06 -0.99144161 9.1088499e-05
0.043925814 0.13194962 0.46813014 -0.1305238 -4.2287382e-05 -0.99144518 0
0.053937729 0.13468361 0.46681201 -0.13054259 3.1846066e-05 -0.99144268 0.00013013856
0.060252964 0.13692674 0.46598062 -0.13054411 -2.5863141e-05 -0.9914425 0
0.075475849 0.13665825 0.46397644 -0.13052657 -1.6858364e-06 -0.99144477 0
0.08981695 0.13694847 0.46208841 -0.13243057 7.3856507e-05 -0.99119228 0
-0.096079707 0.14590891 0.46126392 0.1305109 -8.3664498e-05 -0.99144685 0
-0.056225158 0.1460264 0.46651089 0.13058212 5.9726503e-05 -0.99143749 0.00016254245
-0.033363998 0.14564025 0.46952063 0.13057002 5.9005575e-05 -0.9914391 0.00015235656
0.029974116 0.14790995 0.46996692 -0.13052326 -1.7891283e-05 -0.99144524 0
0.036737431 0.14618644 0.46907648 -0.13051368 -8.367213e-05 -0.9914465 0
0.058355816 0.14387499 0.46623039 -0.13051058 3.9423168e-07 -0.99144691 0
0.062301651 0.14607517 0.46571088 -0.13052985 1.6323655e-05 -0.99144441 2.1467511e-05
0.089338496 0.1444595 0.46215141 -0.13276771 0.0010877886 -0.99114656 0
-0.10283823 0.15402639 0.46037418 0.19164263 0.0067569409 -0.98144156 0.0013218786
-0.098230466 0.15560624 0.46098077 0.13057522 2.3281604e-05 -0.99143845 0
-0.073616549 0.15560471 0.4642213 0.13054666 -6.0762624e-05 -0.9914422 0
-0.064904802 0.15968956 0.46536818 0.13052405 9.6737145e-05 -0.99144512 0
-0.059872534 0.15957862 0.46603069 0.1305242 9.1293714e-07 -0.99144512 0
-0.044574257 0.15725544 0.46804476 0.13053636 4.0350576e-05 -0.99144351 5.0284223e-05
-0.034982178 0.15559587 0.4693076 0.13052252 -1.2321156e-05 -0.9914453 0
0.03504318 0.15257154 0.46929955 -0.13053793 -5.9059152e-05 -0.99144334 0
0.050864432 0.15303189 0.46721664 -0.13053162 -4.0450203e-05 -0.99144417 0
0.067106858 0.15231195 0.46507829 -0.13052164 3.971269e-05 -0.99144548 0
0.07093066 0.15774912 0.46457487 -0.1305306 -1.4898775e-05 -0.99144429 9.2138379e-07
0.081582233 0.15532565 0.46317255 -0.1305629 8.3868443e-05 -0.99144 0.00010679552
0.096182056 0.15248209 0.46125042 -0.14845335 -0.00042832625 -0.98891932 0.0005009892
-0.10232046 0.1646619 0.46044233 0.18104498 -0.0033112192 -0.98346919 0.0012915052
-0.091145761 0.16309437 0.46191347 0.13051748 -6.2786938e-05 -0.99144602 0
-0.061171208 0.16799019 0.46585971 0.13053162 4.0952447e-05 -0.99144417 0
-0.055005752 0.16506737 0.46667141 0.13051829 1.9658293e-05 -0.99144596 2.0271229e-05
-0.046336867 0.16477531 0.46781272 0.13052933 3.620001e-05 -0.99144447 3.2188418e-05
0.049755946 0.16092348 0.46736255 -0.13053727 2.237543e-05 -0.99144334 0
0.056248382 0.16568458 0.46650779 -0.13054132 5.9438567e-05 -0.99144292 7.3173054e-05
0.082887337 0.16910397 0.46300074 -0.13052896 1.4658127e-06 -0.99144453 0
0.096591897 0.16614716 0.46119651 -0.15522939 0.0039938698 -0.9878704 0.00062067795
0.10492098 0.16016835 0.46009994 -0.18786864 0.002462168 -0.98219103 0.0016327311
-0.10295483 0.17358963 0.4603588 0.17648368 -0.0067686378 -0.98428029 0.0010187608
-0.097875141 0.17949682 0.46102753 0.15256013 -0.0044545778 -0.98828423 0.0006929774
-0.076838702 0.17688006 0.46379706 0.13053024 -8.1384984e-05 -0.99144429 0
-0.059438873 0.17811589 0.46608782 0.13053569 -3.3122978e-05 -0.99144363 0
-0.042136755 0.17674175 0.46836567 0.13051321 8.1008824e-05 -0.9914465 0
-0.03749815 0.17553987 0.46897638 0.13056052 -3.752561e-05 -0.99144036 0
0.035490215 0.17362611 0.4692407 -0.13053134 2.0048381e-05 -0.99144423 0
0.047133427 0.17589335 0.46770784 -0.13051355 -3.213172e-05 -0.99144655 4.4136614e-05
0.05794682 0.17740339 0.46628422 -0.13053274 2.4813493e-05 -0.99144399 5.9133203e-05
0.084615007 0.17793441 0.46277326 -0.13052127 4.1637642e-05 -0.99144554 0.00010915047
0.092315987 0.17020148 0.46175942 -0.1415571 0.0011265012 -0.98992944 0
0.10291671 0.17209972 0.46036384 -0.17501356 0.0043245126 -0.9845565 0.00069024123
-0.096150488 0.18204892 0.46125463 0.13051629 1.306926e-05 -0.99144614 0
-0.082148962 0.18056482 0.46309796 0.13054888 -3.0835974e-05 -0.99144185 0
-0.074804798 0.18459587 0.46406484 0.13054395 -1.7221786e-05 -0.9914425 0
-0.066221483 0.18972784 0.46519482 0.13053659 -4.6535981e-05 -0.99144351 0
-0.056171916 0.1839875 0.4665179 0.13053825 2.3878967e-05 -0.99144334 0
-0.03539931 0.18403527 0.46925268 0.13054135 1.8276345e-05 -0.99144286 6.4235763e-05
0.059611078 0.18742998 0.46606514 -0.13050525 0.00010711137 -0.99144763 0.00013605112
0.064964779 0.18458618 0.46536028 -0.13053057 5.4727312e-05 -0.99144429 9.6664429e-05
0.075558186 0.18668535 0.46396565 -0.1305242 7.7686695e-05 -0.99144512 0
0.088642471 0.18433651 0.46224305 -0.13214223 -0.00014892199 -0.99123079 0
0.10328589 0.18039629 0.4603152 -0.16521087 0.001562567 -0.98625702 0.00080675725
-0.082314745 0.19646546 0.46307611 0.13054207 -6.4507508e-06 -0.9914428 0
-0.077820353 0.1967876 0.46366781 0.13052972 -1.0712033e-05 -0.99144441 0
-0.042466696 0.19070029 0.46832222 0.13057753 -2.5221028e-05 -0.99143815 8.9620429e-05
-0.036731251 0.19570303 0.46907729 0.1305363 -2.3525365e-05 -0.99144351 0
0.033286855 0.19056082 0.46953076 -0.13057224 0.00012508614 -0.99143881 0.00020395828
0.04653107 0.19645017 0.46778712 -0.1305303 -2.4400397e-05 -0.99144429 5.0142244e-05
0.055210918 0.19507097 0.46664441 -0.13053404 4.5291232e-05 -0.99144381 0.00010511801
0.091766901 0.19939467 0.46183169 -0.13269813 4.8535483e-05 -0.99115652 0
-0.080075733 0.20861982 0.46337092 0.13053304 2.1920019e-05 -0.99144393 2.8568438e-05
-0.036817167 0.20023826 0.46906602 0.13053817 2.3563047e-05 -0.99144322 0
0.029996 0.20371549 0.469964 -0.13052882 -0.00010148148 -0.99144447 0
0.039364733 0.20166352 0.4687306 -0.13051449 -4.2364023e-05 -0.99144638 1.5955776e-06
0.052701764 0.20274599 0.46697474 -0.1305294 1.2362448e-05 -0.99144441 0.00011101045
0.061375447 0.20417419 0.46583283 -0.13054258 1.4028359e-05 -0.99144268 0.00015645727
-0.105413 0.21616516 0.46003515 0.17036459 0.0081910184 -0.98534697 0.00078088429
-0.09543436 0.21722277 0.46134889 0.13311151 -0.0012107467 -0.99110037 0.00020195007
-0.085987799 0.2148435 0.46259257 0.13050777 -3.8298143e-07 -0.99144733 4.0150822e-05
-0.062152442 0.21448073 0.46573055 0.13052487 4.8021684e-05 -0.991445 0
-0.040639829 0.21118574 0.46856272 0.13052429 -3.7427646e-05 -0.99144506 0
-0.037687659 0.21370609 0.46895143 0.13053483 4.2403761e-05 -0.99144375 0
0.030257922 0.2187764 0.46992952 -0.13056119 4.0408936e-06 -0.9914403 0.00016619907
0.054232907 0.21578552 0.46677315 -0.13052742 -9.6990589e-05 -0.99144471 2.3201717e-06
0.065172747 0.21583703 0.4653329 -0.13054509 3.8847393e-05 -0.99144238 6.1279403e-05
0.072055854 0.21685502 0.4644267 -0.13054334 3.3077678e-05 -0.99144256 0.00012833328
0.087695949 0.21264711 0.46236765 -0.13121898 -0.00041288746 -0.99135333 1.2995672e-05
0.092983112 0.21021032 0.46167159 -0.13345997 -0.00092519802 -0.99105376 0
0.10529302 0.21025939 0.46005094 -0.19049202 -0.01152166 -0.98162109 0.001050271
-0.09282954 0.22816247 0.46169186 0.13984662 -0.0028376123 -0.99016911 4.8246267e-05
-0.080444425 0.2228418 0.46332234 0.13054688 2.1043881e-05 -0.99144214 0
-0.074552126 0.22316685 0.4640981 0.1304727 8.8580739e-05 -0.99145192 1.6809101e-05
-0.066935241 0.22716184 0.46510088 0.13049956 0.00014999609 -0.99144834 0.00010347293
-0.052167222 0.22571182 0.46704513 0.13054712 7.557145e-05 -0.99144208 0.00010850776
-0.044512022 0.22388004 0.46805295 0.1305327 1.0460917e-05 -0.99144399 1.9492025e-05
-0.034535892 0.22880201 0.46936634 0.13052863 -5.405333e-06 -0.99144453 1.9754289e-06
0.032471564 0.2258684 0.46963811 -0.13053498 1.007953e-05 -0.99144375 5.0195114e-05
0.043002363 0.22303076 0.46825168 -0.13052464 8.158182e-05 -0.99144506 0
0.055413265 0.22564073 0.46661773 -0.13054319 3.1702257e-05 -0.99144262 1.2104038e-05
0.0671378 0.22378901 0.46507421 -0.13055366 -5.0080074e-05 -0.99144125 4.3205509e-05
0.073800541 0.22035655 0.46419704 -0.1305235 7.4483789e-05 -0.99144524 5.4759592e-05
0.086025096 0.22441259 0.46258765 -0.13127767 -2.7298684e-05 -0.99134558 3.9449056e-05
0.094845846 0.22319353 0.46142638 -0.13386609 0.00043132133 -0.9909994 0.00018263728
-0.10010414 0.23915169 0.4607341 0.15291753 -0.0086442921 -0.98820114 0.0003273605
-0.090629496 0.23214516 0.46198148 0.13502 -0.0018942682 -0.99084109 0
-0.089098044 0.23077452 0.46218309 0.13348319 -0.00067860616 -0.99105078 5.0898285e-05
-0.077034883 0.23179968 0.46377122 0.13051838 9.3253824e-05 -0.99144596 0
-0.046052605 0.23345008 0.46785009 0.13053156 5.5921446e-05 -0.99144411 5.1515621e-05
-0.03122762 0.2364125 0.4698019 0.13053595 -7.5098236e-05 -0.99144357 0
0.046445541 0.23217797 0.46779838 -0.1305252 -6.7068722e-05 -0.991445 0
0.076107696 0.23906107 0.46389329 -0.13051462 1.9553701e-05 -0.99144638 0
-0.10296825 0.24748915 0.46035701 0.16358465 -0.010563654 -0.98647273 0.00046838555
-0.097220846 0.2433973 0.46111369 0.15452857 -0.0042534447 -0.98797911 0.00039198715
-0.073987655 0.2458047 0.46417239 0.13050769 0.00014557641 -0.99144733 7.9637291e-05
-0.060987853 0.24238087 0.46588385 0.13052291 3.9713948e-05 -0.9914453 8.8837196e-06
-0.05458473 0.24421325 0.46672684 0.13054745 -0.00010128085 -0.99144208 3.2064661e-05
-0.046272926 0.24468261 0.46782112 0.13054036 3.3809408e-06 -0.99144298 0
-0.03658108 0.24604532 0.46909708 0.13051911 -8.6610933e-05 -0.99144578 3.6125712e-05
0.050504576 0.24669814 0.467264 -0.13052784 -7.9637553e-05 -0.99144465 2.3423702e-06
0.066718563 0.24552794 0.46512938 -0.1305398 -4.4404736e-05 -0.99144304 5.8596906e-05
0.076788828 0.24287471 0.46380362 -0.13053752 -1.3758709e-05 -0.9914434 4.2328909e-05
0.095073842 0.24652706 0.46139637 -0.13564152 0.0015918304 -0.99075669 0.00010491095
0.10006221 0.24622668 0.46073961 -0.15316407 -0.00090777955 -0.98820031 0.0006182479
-0.080522001 0.25639611 0.46331215 0.13052104 -3.2478601e-05 -0.99144548 4.1249401e-05
-0.064625099 0.25784412 0.46540502 0.13052861 -2.278555e-06 -0.99144453 0
-0.052711613 0.25789851 0.46697348 0.13055581 -0.00015377523 -0.99144095 0
-0.049833562 0.2502352 0.46735233 0.13053803 -1.2955237e-05 -0.99144334 0
-0.036395926 0.25619861 0.46912146 0.13054451 -2.0899888e-06 -0.99144244 0
0.035600968 0.25269672 0.46922612 -0.13053693 -6.7564315e-06 -0.99144346 7.3001218e-05
0.057389583 0.25524566 0.46635759 -0.13051018 8.3314146e-05 -0.99144697 9.4766816e-05
0.075269543 0.25473535 0.46400365 -0.13053034 -0.00016803248 -0.99144423 0
0.086641647 0.25318041 0.46250647 -0.13051747 -5.2472125e-05 -0.99144602 2.5108822e-05
0.094898246 0.2554498 0.46141946 -0.1367259 0.0030103475 -0.99060428 6.5278946e-05
-0.093418844 0.26772708 0.46161422 0.1480937 9.3453433e-05 -0.98897332 0.00031207872
-0.041096427 0.26483446 0.46850264 0.13052382 -4.1381187e-05 -0.99144512 0
-0.035640102 0.26263463 0.46922094 0.13051109 0.00010550776 -0.99144685 0
0.036187246 0.26578525 0.4691489 -0.13056225 -0.00015167786 -0.99144012 0
0.048045918 0.26075715 0.46758774 -0.13054384 4.135517e-06 -0.9914425 7.3041789e-05
0.053624049 0.26416445 0.46685329 -0.13052037 -2.2857543e-05 -0.99144566 0
0.10133664 0.26420337 0.46057186 -0.16724271 0.002795266 -0.98591179 0.00062001037
-0.098373547 0.27240151 0.46096194 0.16634056 0.0052265138 -0.98605448 0.00056904129
-0.087576091 0.27035511 0.46238345 0.13052052 -2.0216798e-05 -0.9914456 0
-0.07893008 0.27291054 0.46352172 0.13051166 -3.0057094e-05 -0.99144679 0
-0.063836128 0.27938765 0.46550888 0.13054237 -4.047832e-05 -0.99144274 0.0001405982
-0.05191803 0.27109659 0.46707794 0.13053399 -4.233907e-05 -0.99144387 0
-0.033544339 0.27628529 0.46949688 0.13052878 -3.5568592e-05 -0.99144459 0
0.037326794 0.27504593 0.46899891 -0.13056283 -1.1274328e-05 -0.99144006 0.00014147945
0.055820081 0.27689195 0.46656421 -0.13052852 -1.8591703e-05 -0.99144453 0
0.086003251 0.27611125 0.46259049 -0.13058202 -2.7036878e-05 -0.99143749 0.00012138587
0.090680957 0.27288079 0.46197468 -0.13049963 -1.5932985e-06 -0.9914484 8.3557396e-05
0.10327075 0.27439448 0.46031719 -0.17072457 -0.0039780405 -0.98531079 0.00066067383
-0.093535028 0.28805694 0.46159899 0.13173129 -0.00016766161 -0.99128538 1.5800626e-05
-0.084878549 0.28490484 0.4627386 0.13053349 -0.00014628904 -0.99144393 0.00014739449
-0.067331836 0.28750464 0.46504867 0.13052925 8.1894992e-05 -0.99144447 0.00010172004
-0.057454981 0.28376913 0.46634898 0.13055082 3.4062046e-05 -0.99144161 1.8446412e-05
-0.035660669 0.28239325 0.46921825 0.13051686 8.6983513e-05 -0.99144608 3.8577615e-05
0.053248405 0.28097165 0.46690279 -0.13049282 -8.6674205e-05 -0.9914493 0
0.074830055 0.28700927 0.4640615 -0.13056159 -1.6124886e-05 -0.99144024 2.1555772e-05
0.089805186 0.28778535 0.46208999 -0.13573802 -0.0023025661 -0.99074203 0.00012529406
0.094579309 0.28956974 0.46146145 -0.14457557 -0.0019890892 -0.98949182 0.00031774023
0.10194527 0.28804582 0.46049169 -0.16239105 -0.0030806928 -0.98672163 0.00070037018
-0.10112403 0.29187602 0.46059984 0.17142551 -0.0023234463 -0.98519433 0.001022183
-0.098918468 0.29351673 0.46089017 0.16130899 -0.0080631673 -0.986871 0.0010093119
-0.088471167 0.29699433 0.46226561 0.13130599 -3.5234094e-05 -0.99134195 0
-0.076049678 0.29293439 0.46390092 0.13055792 -5.2835923e-05 -0.99144065 0
-0.060907058 0.2951608 0.46589446 0.13054164 -0.00010075933 -0.9914428 3.7771162e-05
-0.0579217 0.29326999 0.46628752 0.13052647 -0.00028032454 -0.99144477 5.8922058e-05
-0.04094021 0.29573229 0.4685232 0.13055687 -9.6580501e-05 -0.99144083 5.9863014e-05
-0.037024133 0.29598501 0.46903875 0.13054374 -2.0276379e-06 -0.99144256 2.4911329e-05
-0.029969292 0.2925618 0.46996754 0.13053694 -9.6565629e-05 -0.99144346 8.1661683e-06
0.033698484 0.29506606 0.46947658 -0.13054128 -5.1963059e-05 -0.99144292 0
0.044550832 0.29570341 0.46804783 -0.13054402 6.992049e-05 -0.99144256 5.2544998e-05
0.054962985 0.2941339 0.46667707 -0.13055614 -4.5826313e-05 -0.99144083 0
0.074544951 0.2933616 0.46409905 -0.13052471 0.00014850507 -0.99144512 0
0.087735198 0.29719585 0.46236247 -0.13059767 -6.6076638e-05 -0.99143541 5.7632995e-05
0.094340064 0.29537475 0.46149293 -0.14404917 0.0018084551 -0.98956883 0.00015222325
-0.096149892 0.30120149 0.46125466 0.13192122 -0.00025003936 -0.99126017 2.5214154e-05
-0.074464642 0.30177024 0.46410963 0.13055933 -0.0001543305 -0.99144047 0
-0.060604028 0.30547696 0.4659344 0.13055767 -7.7758603e-05 -0.99144071 0
-0.058225684 0.30041945 0.4662475 0.13052684 -0.00016587968 -0.99144477 0
-0.036876544 0.30387732 0.46905816 0.13053805 0.00017608871 -0.99144328 0.00010235725
0.052756246 0.30339998 0.46696758 -0.13056627 -0.00013081342 -0.99143958 0
0.066588752 0.30770695 0.46514648 -0.13054354 2.2402695e-05 -0.99144256 0.00012719163
0.087689526 0.30901241 0.46236849 -0.1305647 7.7391051e-06 -0.99143982 0
-0.089419119 0.31763572 0.46214083 0.13051787 -3.518497e-05 -0.99144596 0
-0.073386699 0.31186235 0.46425152 0.13052267 -5.8377937e-05 -0.9914453 5.1356219e-05
-0.048484914 0.3157528 0.46752992 0.13053997 -1.6392665e-05 -0.99144304 7.5140248e-05
-0.039152361 0.31812054 0.46875858 0.13054442 1.3319273e-05 -0.9914425 5.8413945e-05
0.033611991 0.31165552 0.46948799 -0.13052225 -0.00010424513 -0.99144542 3.9498718e-05
0.043406144 0.31245792 0.46819854 -0.1305427 7.5378601e-05 -0.99144268 5.3981603e-05
0.056927141 0.31530255 0.46641847 -0.13052543 4.3418072e-06 -0.991445 6.9844733e-05
0.08462581 0.31943008 0.46277183 -0.13051991 -1.4810631e-06 -0.99144566 5.083685e-05
0.09761478 0.31974345 0.46106184 -0.15340936 -0.0015724245 -0.98816144 0.00015930137
-0.095953606 0.32449016 0.46128052 0.14391597 0.0049816924 -0.98957735 0.00031692052
-0.076398775 0.32092679 0.46385497 0.13051365 2.0957748e-05 -0.99144655 0
-0.062447317 0.32331502 0.46569172 0.13051449 -3.5642835e-05 -0.99144638 4.8330396e-05
-0.030806674 0.32665381 0.46985731 0.13054389 -2.7863722e-05 -0.9914425 0
0.040675893 0.32875758 0.46855795 -0.13052034 -4.0231473e-05 -0.9914456 2.461266e-07
0.055454709 0.32284251 0.46661234 -0.1305556 0.00011538113 -0.99144101 3.7212856e-05
0.087325834 0.32114112 0.46241638 -0.13048315 -0.00010230785 -0.99145055 3.1790514e-05
0.10323423 0.32284921 0.46032202 -0.17215535 0.0045924303 -0.98505914 0.00086741376
-0.098053843 0.33887577 0.46100402 0.14398707 0.011410445 -0.98951381 0.00023146228
-0.07255353 0.33574364 0.46436119 0.13052 -1.3352505e-05 -0.99144566 3.4115515e-06
-0.068778872 0.33307266 0.46485814 0.13057409 0.00014292571 -0.99143851 8.9564164e-05
-0.043041479 0.33497578 0.46824652 0.13055679 0.00020123545 -0.99144077 4.3366072e-05
0.046405535 0.33533135 0.46780363 -0.13052726 -0.00012261776 -0.99144471 0
0.051876023 0.33428848 0.46708345 -0.13052836 -9.409493e-06 -0.99144459 0
0.077809468 0.3364574 0.46366924 -0.13054113 -9.1520473e-05 -0.99144292 2.3791041e-05
0.10191004 0.33245549 0.46049634 -0.19084996 0.019626858 -0.98142296 0.001093857
-0.1032047 0.34181219 0.46032593 0.14549769 0.011444344 -0.98929238 0.00026811872
-0.088279612 0.34763536 0.46229082 0.13053456 -7.4115058e-05 -0.99144369 0
-0.076925479 0.34352174 0.46378565 0.13053855 2.7083122e-05 -0.99144322 0
-0.038722355 0.34268951 0.46881521 0.13060164 0.00010928592 -0.99143493 0.00013286663
0.038288414 0.34582078 0.46887231 -0.13051321 7.0890223e-05 -0.99144661 0
0.054257065 0.34005213 0.46676993 -0.13049302 -0.00010907401 -0.99144924 0
0.064298972 0.34454367 0.46544793 -0.13049263 -0.00021467825 -0.99144924 0
0.099992223 0.34825152 0.46074882 -0.17175908 -0.00032481333 -0.98513889 0.00098578993
0.10497473 0.34619081 0.46009287 -0.19947304 0.0013555986 -0.97990233 0.0018756972
-0.10466058 0.35277748 0.46013421 0.1565039 -0.0086966883 -0.98763907 0.00089172937
-0.081362061 0.35841331 0.46320152 0.13053958 7.6030687e-05 -0.99144316 0.00010731036
-0.051288743 0.35786855 0.46716076 0.13051306 2.6075913e-05 -0.99144655 5.0439789e-06
-0.04109462 0.35563549 0.46850288 0.13050054 4.2836818e-05 -0.99144822 1.0352303e-05
0.037989877 0.35233375 0.46891159 -0.13054404 -7.1528666e-06 -0.9914425 5.8827973e-05
0.054729745 0.3543883 0.46670777 -0.1305273 -4.8529735e-05 -0.99144477 0
0.06683135 0.35045302 0.46511453 -0.13052078 1.9047004e-05 -0.9914456 0
0.074700788 0.3564584 0.46407852 -0.13054764 -7.8996818e-06 -0.99144202 0
-0.10494456 0.3666915 0.46009687 0.17909919 -0.0022942882 -0.98382831 0.0013380685
-0.057015985 0.36635181 0.46640676 0.13052887 -1.7696595e-05 -0.99144453 0
-0.035984933 0.36542049 0.46917558 0.13053997 -7.3882315e-05 -0.99144298 0
0.036027461 0.36529529 0.46916997 -0.13059443 0.00016947872 -0.99143583 4.1398176e-05
0.045705408 0.36613828 0.46789584 -0.13054962 1.7183536e-05 -0.99144179 0
0.068518743 0.3672086 0.46489239 -0.1305375 0.00014873117 -0.99144334 8.2850449e-05
0.088604748 0.36594951 0.46224803 -0.1320134 -0.00050989201 -0.99124777 2.4538384e-05
0.094376326 0.36424515 0.46148819 -0.14474154 -0.0023929735 -0.98946661 0.00044003758
-0.093286395 0.37635681 0.46163169 0.13332619 -0.0011324644 -0.99107152 4.0425439e-05
-0.075169556 0.37590554 0.46401682 0.13052246 6.3912077e-05 -0.99144536 0.00013284573
-0.042758558 0.3797496 0.46828377 0.13052392 7.4355098e-06 -0.99144512 0
-0.034965437 0.37829778 0.46930981 0.13055475 -0.00025736794 -0.99144101 0
0.03673362 0.37271377 0.46907699 -0.13058105 0.00016689162 -0.99143767 6.2654326e-05
0.045485884 0.37654817 0.46792471 -0.13055909 8.6120517e-06 -0.99144047 0.0001232238
0.051533788 0.37473065 0.46712852 -0.13051376 9.9051103e-05 -0.99144644 5.0875173e-05
0.061111949 0.37726644 0.46586752 -0.13053188 -1.0422904e-05 -0.99144411 6.2363455e-05
0.081989601 0.37515414 0.46311891 -0.13052776 0.00017081387 -0.99144465 3.7665566e-05
0.097214013 0.37931326 0.46111459 -0.14827365 0.00027076629 -0.98894632 0.00039996428
-0.081430301 0.38604549 0.46319252 0.13051714 2.8236462e-05 -0.99144602 9.7048405e-06
-0.065664895 0.38578868 0.46526814 0.13053814 0.0001444176 -0.99144334 0
-0.042289805 0.38836217 0.46834552 0.13053508 3.941013e-05 -0.99144369 7.0386495e-06
-0.03403385 0.38348401 0.46943241 0.1305321 -9.3645882e-05 -0.99144411 0
0.03560653 0.38592234 0.46922541 -0.13051757 -8.5060956e-06 -0.99144596 0
0.061140344 0.38664204 0.46586376 -0.13052508 -0.00012189431 -0.991445 0
0.078194313 0.38107401 0.46361858 -0.13052513 8.1784485e-05 -0.99144495 6.4044798e-05
0.089774475 0.38610721 0.46209401 -0.13437665 0.00057182746 -0.99093014 2.9926647e-05
0.092997 0.38651979 0.46166977 -0.13696256 -0.0027222519 -0.99057251 0.00018322738
0.101927 0.38186717 0.4604941 -0.17060365 0.0038709859 -0.98533213 0.0010893208
-0.093496643 0.39981577 0.461604 0.14423886 0.0024218874 -0.98953992 0.00028306563
-0.08641395 0.39305425 0.46253645 0.13180993 0.00048435645 -0.99127489 0
-0.062862262 0.39282241 0.46563709 0.13051473 6.430495e-05 -0.99144638 0
-0.055927053 0.39395419 0.46655011 0.1305294 8.2621409e-05 -0.99144447 0
-0.036513012 0.39377576 0.46910602 0.13055852 0.00013353895 -0.99144059 0
0.035101846 0.39390346 0.46929181 -0.1305614 0.00012583738 -0.99144024 0.00020669577
0.047798689 0.3926369 0.46762025 -0.13053876 4.4425167e-05 -0.99144316 2.0134363e-05
0.05546407 0.39159209 0.46661109 -0.13054176 5.8422378e-05 -0.9914428 2.6633904e-06
0.070299447 0.39900589 0.46465796 -0.13056612 -0.00025076669 -0.99143958 0
0.094644912 0.39487678 0.46145281 -0.13678333 -0.00020789485 -0.99060094 3.1794305e-05
-0.064710997 0.40286246 0.46539372 0.13053593 -2.7097625e-05 -0.99144357 0
-0.057562809 0.40779519 0.46633476 0.13052246 -0.00017017366 -0.99144536 0
-0.041468047 0.40544909 0.46845371 0.13053481 1.2270592e-05 -0.99144375 7.0464521e-05
-0.032117788 0.40834853 0.46968466 0.13046901 0.00018796127 -0.9914524 0
0.035879325 0.40556404 0.46918947 -0.13046806 0.00036415987 -0.9914524 0.00015827792
0.052796412 0.40384901 0.46696228 -0.13056497 1.768925e-05 -0.99143976 0
0.063217908 0.40316558 0.46559027 -0.13055074 3.3234555e-05 -0.99144161 0
0.078884751 0.40228593 0.46352768 -0.13054433 3.1773525e-05 -0.99144244 0
0.10002685 0.40453959 0.46074426 -0.13930757 0.0004221726 -0.9902491 6.4198211e-05
-0.086017087 0.41738251 0.4625887 0.13051303 -1.1063834e-05 -0.99144655 0
-0.072828718 0.41354576 0.46432501 0.13057084 -5.7771322e-05 -0.99143898 0.00010666534
-0.064922266 0.41454569 0.46536589 0.1304936 -6.6127039e-05 -0.99144918 0
-0.057296094 0.41868925 0.4663699 0.13053398 -5.4972097e-05 -0.99144381 7.9809448e-05
-0.044359963 0.41339409 0.46807301 0.13055912 -0.00010529532 -0.99144053 0
-0.03783397 0.41098776 0.46893215 0.13051239 9.857813e-05 -0.99144667 0
0.037438177 0.4106414 0.46898425 -0.13048375 0.00019816292 -0.99145043 6.414888e-06
0.042827111 0.41442108 0.46827477 -0.13053671 3.227912e-05 -0.99144351 7.9817532e-05
0.054000922 0.41803986 0.4668037 -0.13055485 -6.2799161e-05 -0.99144107 2.7272436e-05
0.062215604 0.4178049 0.4657222 -0.13053989 -2.7112717e-06 -0.99144304 6.7196437e-05
0.075404875 0.41795701 0.4639858 -0.13051021 -5.0270122e-05 -0.99144697 0
0.08765395 0.41734505 0.4623732 -0.1305206 -0.00021513151 -0.99144554 7.137897e-05
0.10096188 0.41100764 0.46062118 -0.14675018 -0.0033130862 -0.98916805 0.00017340836
-0.10189997 0.42484501 0.46049768 0.18096825 0.0050049601 -0.98347622 0.0012902674
-0.086699843 0.42717811 0.46249881 0.13053931 9.2331902e-05 -0.9914431 5.4985492e-05
-0.076061063 0.42557651 0.46389943 0.13049896 -0.00013681254 -0.99144846 0
0.044755086 0.42573363 0.46802098 -0.13054703 -2.0976482e-05 -0.99144214 6.0263777e-05
0.054273129 0.42077452 0.46676788 -0.13056624 5.0254752e-05 -0.99143958 0.00010955858
0.074376769 0.42879406 0.46412119 -0.13051349 -1.4006285e-05 -0.9914465 1.4170158e-05
0.085840613 0.42365068 0.46261191 -0.13050902 -6.4381624e-05 -0.99144709 3.4279616e-05
0.10307984 0.4277432 0.46034232 -0.15250283 -0.0036335636 -0.98829639 0.00045437436
-0.10382687 0.43340141 0.460244 0.17146815 0.015405959 -0.98506916 0.0012028615
-0.09236107 0.43140188 0.46175349 0.13055423 -9.117819e-05 -0.99144119 2.1224329e-05
-0.081112474 0.4318237 0.46323439 0.13052519 -7.2156174e-05 -0.99144495 0
-0.075022385 0.43779695 0.4640362 0.13049014 2.2809098e-05 -0.99144965 0
-0.064616725 0.43788767 0.46540612 0.13055488 6.1344304e-05 -0.99144101 4.0139341e-05
-0.045223981 0.43639499 0.4679592 0.13048665 0.00012942811 -0.99145007 5.5919332e-05
-0.034574829 0.43882817 0.46936122 0.13056318 0.00016824012 -0.99143994 0.00017886667
0.036597323 0.43311924 0.46909493 -0.13052748 1.1364516e-05 -0.99144465 0
0.052075312 0.43732828 0.46705723 -0.13050103 0.00012133098 -0.99144822 0
0.067903459 0.43808413 0.46497339 -0.13052763 0.00025163789 -0.99144465 3.4991117e-05
0.079482228 0.43074298 0.46344903 -0.13054931 0.00025451122 -0.99144173 6.8404122e-05
0.083031297 0.43809628 0.46298176 -0.13054793 -4.6287048e-05 -0.99144202 0
0.094503701 0.43755931 0.46147141 -0.14887571 0.0014867547 -0.98885477 0.00047938383
0.10513883 0.43509215 0.46007127 -0.1841144 -0.0099524632 -0.98285443 0.0014504559
-0.10395263 0.44567668 0.46022743 0.17542654 0.013886412 -0.98439461 0.0013263951
-0.099002168 0.44639081 0.46087921 0.14219378 -0.0063430723 -0.98981851 0.00036814483
-0.085307129 0.446587 0.46268219 0.13048798 0.00013193408 -0.99144989 9.096555e-05
-0.074484885 0.44319317 0.46410692 0.13053757 -9.9971912e-05 -0.9914434 0
-0.053606171 0.44975531 0.46685567 0.13051255 -0.00011081652 -0.99144661 2.7192635e-05
-0.033760041 0.44440201 0.46946847 0.13062322 0.00031915301 -0.99143207 8.5652471e-05
0.030322844 0.44702202 0.46992096 -0.13053918 -0.00014667757 -0.99144316 0
0.054679282 0.44734371 0.46671441 -0.13052908 6.6914996e-05 -0.99144447 2.4278093e-05
0.086585581 0.4471691 0.46251383 -0.13054334 -0.00019050443 -0.99144262 0
0.093925878 0.44730902 0.46154746 -0.14334452 0.0030082623 -0.98966825 0.00039214545
-0.10354086 0.45016825 0.46028167 0.148073 -0.002645222 -0.9889729 0.00053441705
-0.071408115 0.45179892 0.46451199 0.13063952 -0.00016046721 -0.99142992 0
-0.038660035 0.4511084 0.46882337 0.13052391 -1.4371879e-05 -0.99144518 0
0.034098383 0.45598304 0.46942392 -0.13055284 9.5830525e-05 -0.99144131 7.3483759e-05
0.04538627 0.45512223 0.46793783 -0.13054477 0.00015442885 -0.99144244 0.00012609163
0.062975198 0.45303452 0.46562225 -0.1304955 8.3982748e-05 -0.99144888 4.2897605e-05
0.1010487 0.45549566 0.46060973 -0.18923444 0.0027966767 -0.98192799 0.00081583339
-0.096233897 0.46155289 0.46124363 0.14232215 -0.00084574247 -0.98982006 0.00049208925
-0.082153708 0.46627578 0.46309733 0.13050246 0.00021611855 -0.99144799 4.7692727e-05
-0.075596124 0.46389318 0.46396065 0.13048841 -8.3091072e-06 -0.99144983 2.2778675e-05
-0.067326821 0.46564206 0.4650493 0.13053189 -2.5838806e-05 -0.99144417 0
-0.045305982 0.46687073 0.46794844 0.13058569 6.8967311e-05 -0.99143708 0
-0.035461143 0.46410802 0.46924454 0.13051453 -0.00010838789 -0.99144632 0
0.043861028 0.46459007 0.46813861 -0.1305242 4.883184e-05 -0.99144512 0
0.052954026 0.46843618 0.46694154 -0.13054907 0.00010009378 -0.99144185 3.8383307e-05
0.099591859 0.46320438 0.46080154 -0.17314713 0.0020323128 -0.98489386 0.0010876531
-0.074935317 0.47765955 0.46404767 0.19521528 -0.22005396 -0.95575482 0.036245197
-0.068250686 0.47410235 0.46492767 0.14703564 -0.059787512 -0.98732263 0.0055189123
-0.058514953 0.4780497 0.46620941 0.14577983 -0.17067705 -0.97448319 0.038418829
-0.042427156 0.47904831 0.4683274 -0.0010092269 -0.24148196 -0.97040486 0.03536785
0.033083528 0.47465837 0.46955752 -0.12126365 -0.060160361 -0.99079549 0.010412625
0.057053912 0.47497022 0.46640179 -0.09792655 -0.091504201 -0.99097794 0.014956299
0.073323667 0.47453797 0.4642598 -0.12477951 -0.10744353 -0.98634982 0.023100043
-0.10038822 0.48056117 0.4606967 0.17098804 -0.21657316 -0.96117592 0.01961866
-0.096589141 0.48506242 0.46119687 0.15647383 -0.23284918 -0.95984226 0.023290442
-0.075058348 0.48580456 0.46403146 0.22288518 -0.42331234 -0.87813944 0.074759178
-0.065296292 0.48903915 0.46531665 0.18766603 -0.41710261 -0.88927317 0.079729624
-0.05255441 0.48398325 0.46699417 -0.051590346 -0.37277311 -0.92648733 0.056361221
-0.042857356 0.48510653 0.46827078 0.024183884 -0.40166426 -0.91546756 0.064739034
0.03311659 0.48698634 0.46955317 -0.11944626 -0.39287332 -0.91180211 0.075694166
0.065367386 0.48076418 0.46530727 -0.057396978 -0.21228822 -0.97552001 0.052595943
0.083428033 0.48768884 0.46292955 -0.1864177 -0.31055513 -0.9320966 0.05098623
0.094462216 0.48653424 0.46147686 -0.17326662 -0.31900579 -0.93177998 0.045671809
-0.067527086 0.49621752 0.46502295 0.17212154 -0.69832236 -0.69478059 0.096340202
-0.053759851 0.49271116 0.46683544 -0.016129082 -0.49295947 -0.86990279 0.068831645
0.031344049 0.49386662 0.46978655 0.014510168 -0.79334962 -0.60859334 0.081111863
0.045891684 0.49857569 0.46787128 -0.12906697 -0.68276 -0.71915263 0.076673776
0.0537397 0.49522558 0.46683809 -0.13465625 -0.59878057 -0.78951216 0.080289111
0.060277559 0.49689621 0.46597737 -0.063101999 -0.62822831 -0.77546597 0.089386649
0.073797449 0.49431422 0.46419746 -0.15305021 -0.70275235 -0.69477683 0.10617058
0.083902836 0.49610212 0.46286702 -0.092894293 -0.59428895 -0.79886872 0.056218375
-0.06133445 0.5 0.46457845 0.086869225 -0.70546031 -0.70340556 0.081216104
-0.058792122 0.5 0.46094269 0.055269118 -0.77338004 -0.63152885 0.089944586
-0.022406572 0.5 0.4600234 0.17972448 -0.90940827 -0.3750678 0.06047203
0.00022444315 0.5 0.46829146 0.0068462398 -0.4957206 -0.86845505 0.059359148
0.015706636 0.5 0.46206689 -0.049272288 -0.90000892 -0.43307757 0.078916095
0.025850086 0.5 0.46325681 -0.075339213 -0.75627917 -0.64989686 0.083190434
0.031354804 0.5 0.46091229 0.098025471 -0.93188518 -0.34925786 0.06795381
0.054404289 0.5 0.46264711 -0.070798434 -0.86200804 -0.50192595 0.061629366
0.081765905 0.5 0.46208751 -0.13935916 -0.62110037 -0.77124149 0.07307554
-0.028156655 -0.49943128 0.47020617 0.090449393 0.71617234 -0.69203758 0.06869214
-0.015751245 -0.49861425 0.47165519 0.080818765 0.69523901 -0.71422064 0.090264551
-0.0050644157 -0.49415028 0.47324631 -0.11935093 0.51685423 -0.84771287 0.060323462
0.0054954053 -0.49396846 0.47318959 -0.056587461 0.48375985 -0.87336946 0.056265805
0.014855974 -0.49270505 0.47195724 -0.0039594229 0.61663318 -0.78724068 0.083824024
0.025206946 -0.49806845 0.4705945 -2.3880566e-06 0.7128163 -0.70135075 0.081937894
-0.02603836 -0.48443222 0.47048506 0.16117489 0.27134365 -0.94889158 0.046985019
-0.015651839 -0.48868281 0.47185248 0.10467599 0.35507888 -0.9289574 0.051620346
-0.0063948878 -0.48240694 0.47307116 0.014373667 0.22597413 -0.97402734 0.029205788
0.017695464 -0.48518962 0.47158343 -0.042618454 0.35094324 -0.93542635 0.043549929
-0.004054225 -0.47413802 0.47337931 0.017407287 0.10665828 -0.99414337 0.018921116
0.007476781 -0.47712982 0.47292873 -0.049878169 0.2108333 -0.97624868 0.037876207
0.017346835 -0.47842339 0.47162932 -0.14068356 0.19162466 -0.97133315 0.033640407
-0.024800137 -0.46754766 0.47064808 0.13052852 5.3685399e-05 -0.99144453 0
-0.0013972227 -0.46789357 0.47372913 0.0071880491 0.00018249148 -0.99997413 0.0019274533
0.020315794 -0.46962163 0.47123843 -0.11067433 0.0027538307 -0.99385285 0.00042414438
-0.014763558 -0.45532918 0.47196943 0.084276982 0.00010723244 -0.99644238 0.00091194606
0.0042416719 -0.45288375 0.47335464 -0.022112623 -0.0078597283 -0.99972457 0.001708025
0.011886816 -0.45404589 0.47234815 -0.093111366 0.0032724037 -0.99565035 0.0014101947
0.022727368 -0.45311216 0.47092095 -0.12786388 0.0011347044 -0.99179107 0.00017080255
-0.02092376 -0.44058412 0.47115844 0.11136508 0.0023325302 -0.99377692 0.00018578836
-0.015837347 -0.44247913 0.47182804 0.087897055 -0.00093575363 -0.99612916 0.00076166342
0.0040215896 -0.44317698 0.47338364 -0.013129305 -0.005458917 -0.99989885 0.0023972369
0.011540193 -0.44325382 0.47239375 -0.059455123 -0.0022018293 -0.99822855 0.0017589047
0.02618812 -0.44369087 0.4704653 -0.13053484 9.5975629e-06 -0.99144369 0
-0.024064155 -0.4303771 0.47074494 0.12260339 0.00021338757 -0.99245572 0.00016052133
-0.015250914 -0.4315193 0.47190526 0.092997566 0.0071280221 -0.99564081 0.00066611409
0.016067512 -0.43631512 0.47179776 -0.10447397 -0.0039180331 -0.99451995 0.00078320771
-0.021814505 -0.42625284 0.47104114 0.12033644 -0.0021678093 -0.99273074 9.4807139e-05
-0.011498641 -0.42751938 0.47239923 0.058848873 -0.0066774539 -0.99824452 0.0014908942
-0.0054566674 -0.42760119 0.47319466 0.03749257 -0.0066754157 -0.99927461 0.0011665205
0.0040325006 -0.42629057 0.47338217 -0.021856703 -0.010306551 -0.999708 0.0019347443
0.013972728 -0.42376822 0.47207353 -0.080958039 -0.0030390222 -0.99671292 0.0010605695
-0.011544816 -0.41046202 0.47239318 0.05168616 0.012578654 -0.99858421 0.0014923736
0.014527073 -0.41446579 0.47200054 -0.067484699 -0.00084913662 -0.99771994 0.001003254
0.027403703 -0.41106302 0.47030529 -0.13051991 2.9800996e-05 -0.99144572 0
-0.010804649 -0.40389541 0.47249061 0.068451419 0.0029488716 -0.99765015 0.0011857263
0.0053602294 -0.40814725 0.47320738 -0.069685146 0.0148164 -0.99745899 0.00097700872
0.014987087 -0.40770009 0.47193998 -0.077378087 0.0030264393 -0.9969973 0.00084041385
0.026229752 -0.40747711 0.47045985 -0.1305332 -4.1188523e-05 -0.99144393 0
-0.022894729 -0.3904708 0.4708989 0.13052225 -5.369943e-05 -0.99144536 0
-0.0046601975 -0.39321175 0.47329956 0.0052913707 -0.0056213774 -0.9999702 0.0016409605
0.0073872693 -0.39175832 0.47294053 -0.064498901 0.017248373 -0.9977687 0.0007275333
0.019254632 -0.397416 0.47137815 -0.1157604 -0.0010614431 -0.9932766 0.00029631212
0.02227594 -0.39904186 0.47098041 -0.11729182 -0.0042043161 -0.9930886 0.0001208071
-0.0027395787 -0.38550812 0.47355241 -0.003442134 -0.013739917 -0.99989969 0.0020728356
0.012823897 -0.38402465 0.4722248 -0.10394657 -0.00012270028 -0.99458289 0.00049099169
0.023976432 -0.38335243 0.47075653 -0.12512045 -0.00050324819 -0.99214143 0
-0.022793055 -0.37666312 0.47091231 0.12207843 -0.0045200302 -0.9925102 2.2292663e-06
-0.0072755623 -0.37768462 0.47295523 0.05922522 -0.020045206 -0.99804336 0.0017062991
0.0030603011 -0.37274748 0.47351018 -0.022978239 -0.0015639506 -0.99973476 0.0024220701
0.017908879 -0.37490672 0.47155535 -0.11203796 0.0048425775 -0.99369216 0.00019047082
-0.022791231 -0.36955807 0.47091255 0.12283697 -0.0023565223 -0.99242407 9.2939204e-05
-0.016460728 -0.36587641 0.471746 0.11325123 -0.0048945746 -0.99355435 0.00023292158
0.016276883 -0.36171192 0.47177017 -0.11257994 0.0084646624 -0.99360657 0.00029794895
0.025257172 -0.36487877 0.47058791 -0.13062137 -0.00025113425 -0.99143237 0.00019279736
-0.021107771 -0.35250989 0.47113419 0.10238187 0.00096490566 -0.99474466 0.00031222697
0.0066242926 -0.35488957 0.47304097 -0.021922179 0.00079984823 -0.99975938 0.0016537406
0.019635791 -0.35221326 0.47132796 -0.13054627 2.2587363e-05 -0.99144226 0
0.025546884 -0.35277593 0.47054976 -0.1305849 -3.2663203e-05 -0.99143714 0.0001935566
-0.020953178 -0.34373617 0.47115454 0.10563198 0.0042945854 -0.99439603 0.00043571283
0.0070072478 -0.34709269 0.47299057 -0.038940165 0.0044605439 -0.99923164 0.0019952434
0.011812293 -0.34424746 0.47235796 -0.10557089 -0.0016807738 -0.9944104 0.00054973189
0.026563847 -0.34689209 0.47041586 -0.13051203 8.392123e-05 -0.99144673 0
-0.026151273 -0.3366237 0.47047019 0.13052252 0.00014231438 -0.99144536 0
-0.0091915019 -0.33751935 0.47270298 0.068361454 0.01039445 -0.9976064 0.0011072103
0.014811938 -0.33428428 0.47196305 -0.089122303 -0.0043778662 -0.99601102 0.0010908089
0.027526032 -0.3304998 0.47028917 -0.12808758 -2.7708782e-05 -0.99176288 0.00010868008
-0.024138754 -0.32236505 0.47073513 0.12382028 -0.00093975733 -0.99230415 3.3809758e-06
-0.013026074 -0.32406965 0.47219813 0.087411143 0.01371397 -0.9960779 0.00084079849
-0.0019154137 -0.32782266 0.47366089 0.016769573 0.0063220016 -0.99983937 0.0022449861
0.0027887635 -0.3235907 0.47354594 -0.016058335 0.003063445 -0.99986637 0.0021024034
0.011123301 -0.32887107 0.47244865 -0.088283606 0.0029215913 -0.99609113 0.00077778404
0.020149162 -0.32869375 0.47126037 -0.12746955 -7.2609044e-05 -0.99184245 6.3717831e-05
-0.018261794 -0.31359005 0.47150889 0.11877973 -0.00020258312 -0.99292064 0
0.0021205063 -0.31286776 0.47363389 -0.010184922 0.010090553 -0.99989724 0.0026463254
0.016779013 -0.31992275 0.47170407 -0.11937588 -0.0039350353 -0.9928413 0.00018332957
0.021339577 -0.3179062 0.47110367 -0.12785377 0.00062455185 -0.99179286 0.000195773
-0.023795733 -0.30567899 0.47078031 0.12083863 0.0011704965 -0.99267149 8.0855694e-05
-0.016914623 -0.3058143 0.47168621 0.10812198 -0.0027666178 -0.99413383 0.00042837919
-0.0060945475 -0.30579203 0.47311071 0.038571682 -0.0025861254 -0.9992525 0.0022221718
0.0044014538 -0.30609569 0.4733336 -0.019742353 0.0088802055 -0.99976569 0.0030132295
0.015640365 -0.30402845 0.47185397 -0.11581063 -0.0017956705 -0.99326974 0.00034953578
0.020712236 -0.3033759 0.47118625 -0.11686075 -0.0035660139 -0.99314189 0.00018933103
-0.0042311754 -0.2959249 0.47335601 0.045804311 0.0061842022 -0.99893129 0.0020162237
0.008634042 -0.2998127 0.47277638 -0.072831787 -0.013122366 -0.99725789 0.0014553794
-0.021886757 -0.28735855 0.47103164 0.12038732 -0.0024615745 -0.99272394 6.9100766e-05
-0.01672494 -0.28431231 0.47171116 0.10961685 0.0017211859 -0.99397242 0.00027220251
0.0026444937 -0.28305382 0.47356492 -0.033610087 -0.020772655 -0.99921912 0.0022806698
0.02677732 -0.28407079 0.47038776 -0.13054083 0.00014924497 -0.99144292 0
-0.014262985 -0.27649859 0.47203532 0.11752006 0.0018725629 -0.99306875 6.2227591e-05
-0.004977141 -0.27405334 0.47325781 0.072469316 -0.0049757562 -0.9973582 0.0012136633
0.0051305634 -0.27598581 0.4732376 -0.027336964 0.012875085 -0.99954337 0.0022518483
0.025553815 -0.27571574 0.47054884 -0.13054736 3.7885791e-05 -0.99144208 4.9420181e-05
-0.024091568 -0.26956943 0.47074136 0.13053246 2.1068892e-05 -0.99144405 0
-0.017491471 -0.2681672 0.47161025 0.11932506 0.0048831096 -0.99284327 5.3450061e-05
-0.0051198201 -0.26438764 0.47323903 0.062817991 -0.010432469 -0.9979704 0.0016441355
0.014533922 -0.26200706 0.47199965 -0.10333233 -0.0013059847 -0.99464607 0.00040330138
-0.027186356 -0.25587451 0.47033393 0.1305501 -0.00012858864 -0.99144167 5.7262514e-05
-0.0069250008 -0.25282753 0.47300136 0.031266738 -0.010744891 -0.99945331 0.00135118
-0.011354271 -0.24007255 0.47241825 0.061775446 -0.00069329381 -0.99808985 0.0016119214
0.0046783485 -0.24691384 0.47329715 -0.029873876 -0.037611082 -0.99884582 0.00053768005
0.015166575 -0.24670716 0.47191635 -0.08727435 -0.0024436291 -0.99618131 0.00063555979
-0.016674202 -0.2348813 0.47171789 0.11904047 0.0054231123 -0.99287456 0.00010596259
0.016557036 -0.23536193 0.4717333 -0.092492089 0.0097204493 -0.99566591 0.00067353051
0.02433756 -0.23794077 0.47070897 -0.13054937 4.247883e-05 -0.99144173 0
-0.021651894 -0.22092038 0.47106254 0.12190907 -0.0021172219 -0.99253905 0.00018986403
-0.01484634 -0.22391231 0.47195852 0.12006567 -0.0034004704 -0.99276018 0.00024557437
0.023000307 -0.22890197 0.47088501 -0.12847859 -0.00064633321 -0.99171209 0
-0.027524792 -0.21984737 0.47028935 0.1305263 -1.3782766e-05 -0.99144489 0
-0.01649682 -0.21679518 0.47174123 0.11215618 -0.0066941292 -0.99366802 0.00027321762
-0.0012840226 -0.21237001 0.47374403 0.0099431714 0.018974481 -0.99977046 0.001812511
0.0046918513 -0.21077661 0.47329539 -0.0019007509 0.036897708 -0.99931729 0.0018806126
0.024439091 -0.21705957 0.47069559 -0.12796891 0.0001927702 -0.99177814 0
-0.024067797 -0.20311394 0.47074449 0.12288544 0.00096360489 -0.99242038 9.82563e-05
-0.015877657 -0.20428996 0.47182274 0.095149666 0.0040520621 -0.99545473 0.00096409413
-0.0079848683 -0.20276599 0.47286183 0.051758017 0.0059566051 -0.99864185 0.002123734
0.013820666 -0.20147452 0.47209355 -0.078551583 0.010679771 -0.99685287 0.0015502875
0.021204799 -0.2066064 0.4711214 -0.1144818 -0.0012809138 -0.99342453 0.00022786904
-0.026673295 -0.19750194 0.47040144 0.13053124 -2.8308055e-05 -0.99144417 0
0.0058626332 -0.19994903 0.47314125 -0.032671001 0.0050863391 -0.99945319 0.001809846
0.015252355 -0.19740351 0.47190505 -0.11003071 0.0041164663 -0.99391967 0.00040202367
-0.022917021 -0.18557835 0.47089598 0.13050839 3.7389233e-05 -0.99144721 0
-0.015436033 -0.18149021 0.47188085 0.099130183 0.0033787589 -0.99506879 0.00040803268
-0.0010411737 -0.18272254 0.47377598 0.0070272898 -0.0088123363 -0.99993646 0.0020498692
0.019582156 -0.18252343 0.47133502 -0.11705139 -0.0032791302 -0.99312049 0.00037429036
0.025064154 -0.18016991 0.4706133 -0.12874237 4.2707921e-05 -0.99167806 1.4103523e-05
-0.022624932 -0.17650217 0.47093442 0.13053414 -1.2095891e-06 -0.99144387 2.9257983e-05
0.0081244344 -0.17174509 0.47284347 -0.05429225 0.0038923104 -0.99851751 0.001510559
0.014257634 -0.17587489 0.47203603 -0.10783447 -0.0017949799 -0.99416721 0.00023980484
0.026762228 -0.17340793 0.47038975 -0.12856969 0.00068731164 -0.99170023 0.00010366893
-0.023978716 -0.16430846 0.47075623 0.13053063 2.0824416e-05 -0.99144429 0
-0.01562576 -0.16292256 0.47185588 0.10478075 -0.0004955224 -0.99449527 0.00054564473
-0.0063425321 -0.16814406 0.47307807 0.037972115 0.018510232 -0.99910736 0.0018692688
