# .PCD v0.7 - Point Cloud Data file format
VERSION 0.7
FIELDS x y z normal_x normal_y normal_z curvature
SIZE 4 4 4 4 4 4 4
TYPE F F F F F F F
COUNT 1 1 1 1 1 1 1
WIDTH 576
HEIGHT 1
VIEWPOINT 0 0 0 1 0 0 0
POINTS 576
DATA ascii
0.46309084 -0.14238212 -0.27498341 -0.9948675 0.10118502 0.00050858263 4.1182448e-05
-0.46936116 -0.13434538 -0.2778092 0.99883014 0.048259921 -0.0030881665 2.9454311e-06
-0.163995 -0.13377708 -0.27560312 0.74870574 0.66282803 -0.0099373963 0.00061597838
-0.15944484 -0.13834262 -0.2760182 0.70224291 0.71192503 -0.0041912491 5.4475011e-05
-0.46980342 -0.12330717 -0.27696699 0.99916559 0.040840022 0.00046681258 0
0.17639837 -0.12811472 -0.27980506 -0.77276605 0.63467532 -0.0044638859 0.0011075368
0.46455038 -0.12794486 -0.27597934 -0.99493098 0.10055979 0.00040125637 0.00012658576
-0.18013488 -0.11386369 -0.2780925 0.81363624 0.58137411 0.00041238256 0.00080713112
0.1899662 -0.11019252 -0.27916169 -0.83124614 0.55588186 0.0050197858 0.00080713973
-0.47040686 -0.10824998 -0.27465078 0.9991979 0.04004465 0.00018827211 0
-0.18465784 -0.10654284 -0.27621934 0.84855831 0.52906346 -0.0063744318 0.00038404006
0.19491258 -0.10176927 -0.27283657 -0.85945523 0.51120961 0.0011736616 0.00026308684
0.46699306 -0.10379484 -0.27335817 -0.99511868 0.098684065 0.000481575 2.0931924e-05
-0.47101068 -0.093192205 -0.2720871 0.99922764 0.039295148 0.00021921629 0
-0.19118762 -0.095666222 -0.27679682 0.86162663 0.50753534 -0.002734594 6.0844581e-05
0.19919437 -0.094424121 -0.27915344 -0.87076676 0.49168655 -0.003087251 0.00016848922
-0.47118357 -0.088862091 -0.27519622 0.99923152 0.039196596 0.00023634915 0
0.20337993 -0.086827427 -0.27591154 -0.8824026 0.47041708 -0.0085632699 0.0002673126
-0.47169983 -0.075795799 -0.27562541 0.99930233 0.037343945 0.00050944847 0
-0.20088318 -0.077997014 -0.27674121 0.91584498 0.40153116 0.00088985014 0.00089947198
0.20988265 -0.074522845 -0.27128956 -0.91099775 0.41227952 -0.01042992 0.001059144
0.4695875 -0.076879323 -0.27528912 -0.99688411 0.078632832 0.006242496 0
0.4701615 -0.070113868 -0.27861828 -0.99768531 0.067453012 0.0086091058 0
-0.47198224 -0.067935638 -0.27463779 0.99936593 0.035589989 0.00098852732 0
-0.20583481 -0.066653647 -0.27505249 0.93463492 0.35557196 -0.0051130699 0.0010073084
0.21390809 -0.064865999 -0.27881983 -0.93711221 0.3487744 0.013310548 0.0012636794
-0.47244006 -0.053905878 -0.27497467 0.99971569 0.023807658 -0.0013090607 3.8429521e-06
-0.21083795 -0.050994888 -0.27532989 0.95521384 0.29579681 -0.0084131369 0.00052510074
0.47131872 -0.046527892 -0.27464253 -0.99954587 0.030130364 0.00049997424 0.000182573
-0.21638735 -0.030932069 -0.27614102 0.97591597 0.21809688 0.0046629999 0.00058863102
0.22128752 -0.039762091 -0.27828777 -0.96840215 0.24937426 -0.0031264895 0.00028002681
-0.21768475 -0.025622889 -0.2776742 0.97578353 0.21873507 -0.0011865458 0.00063699827
0.47165298 -0.026126336 -0.2782318 -0.99987936 0.015535938 8.0826311e-07 0
-0.47242188 -0.0020870725 -0.27319849 0.99992067 -0.012593436 -0.00026355535 0.00016418782
-0.22049716 -0.0067406748 -0.27112335 0.99637073 0.085108347 -0.0013973753 0.00096003845
0.47193974 -0.0057433755 -0.27117011 -0.99990791 0.013568357 0.00031866541 0
-0.22096534 0.0074460409 -0.2776722 0.99976444 0.021669295 0.0012535886 0.00013930142
0.47211647 0.0075251567 -0.27896434 -0.9999246 0.01228362 0.00014532715 0
-0.47217661 0.016859282 -0.27397785 0.99991608 -0.012953351 6.3737141e-05 0
-0.22109573 0.013128292 -0.27032387 0.99990493 0.013735368 0.0012114167 0.00011615396
0.22845805 0.014739046 -0.27104759 -0.99991214 0.0062756892 -0.011673287 0.00041859236
0.47219118 0.013342972 -0.27670673 -0.9999302 0.011821349 0.00010730614 3.4570569e-06
-0.47207701 0.024550995 -0.27603614 0.9999159 -0.012964145 -9.8493358e-05 2.7644883e-06
0.22840065 0.020226972 -0.27109715 -0.99989539 -0.014115899 -0.0031487783 0.00021926068
-0.22105348 0.034508873 -0.2788946 0.99886614 -0.04759096 -0.0012731059 0.00084990251
0.22814164 0.032808445 -0.2726647 -0.99863768 -0.052043863 0.003782477 0.00034912481
0.47243491 0.035201892 -0.27730358 -0.999937 0.011214561 0.00043767094 2.7899452e-05
0.47250065 0.041161843 -0.27827832 -0.99995065 0.0098433578 0.0013476838 0
-0.47169194 0.054291606 -0.27493137 0.99991322 -0.013173781 -5.1508967e-05 0
-0.21810001 0.05602318 -0.27402523 0.977525 -0.21013042 0.017032571 0.00052914611
0.22649571 0.051218063 -0.27292681 -0.98327577 -0.18211645 0.0015280778 0.0007679573
-0.47150028 0.069094762 -0.27562761 0.99986714 -0.016294053 -0.00046721025 5.0722589e-05
0.47273552 0.062352464 -0.27937061 -0.99998778 -0.0049211117 0.00039570007 0
-0.21340001 0.074937657 -0.27192783 0.9674648 -0.25276756 0.010966117 0.00018338222
-0.4711886 0.086931802 -0.27933776 0.9994927 -0.031830549 0.0011007959 9.4048322e-05
-0.21019964 0.086962245 -0.27034217 0.95394331 -0.29993007 -0.0058319564 0.00069715292
-0.20957017 0.089027673 -0.27496409 0.94500792 -0.32704046 0.002128589 0.0003985959
0.21706405 0.087569773 -0.27568513 -0.94609123 -0.32373101 -0.01046368 0.00054696656
0.47202754 0.087314628 -0.27327886 -0.99881303 -0.048666991 -0.0020314814 8.0144368e-05
-0.47104189 0.091183528 -0.27805153 0.99925381 -0.038618624 0.00048652262 3.1153158e-05
-0.20568946 0.10068709 -0.27803713 0.93142837 -0.36390021 -0.0042171371 0.00092900562
0.20895137 0.10976251 -0.27217537 -0.9083364 -0.41822973 -0.0029843545 0.00080742477
0.47121114 0.10034702 -0.27974156 -0.99801594 -0.06296137 -0.0001747323 5.2570813e-05
-0.47004807 0.11154376 -0.27127218 0.99871266 -0.05072419 1.0919767e-05 0
-0.19785234 0.11656445 -0.27116668 0.88159859 -0.47196326 0.0058843475 6.7783061e-05
0.4705019 0.11010137 -0.27815685 -0.9974696 -0.071092136 -0.0005976595 4.5062847e-05
-0.18948671 0.13152634 -0.27915201 0.85858244 -0.51262742 0.0070264707 0.00026805123
0.46877199 0.13388634 -0.27116024 -0.99732149 -0.073142558 5.6887152e-06 8.5962522e-05
-0.18085772 0.14594439 -0.27482185 0.82548708 -0.56438839 0.0060659437 0.001065554
0.18769211 0.14631873 -0.27850297 -0.83125305 -0.55585712 0.0064127403 0.00052217656
-0.46757475 0.15269716 -0.27502519 0.99808836 -0.061802536 -0.00024653174 7.4123309e-05
-0.17504776 0.15400255 -0.27779031 0.79930937 -0.60086858 0.0078428425 0.0018195121
0.18092561 0.15616095 -0.27007324 -0.75984877 -0.65009981 0.00027990606 0.00067253329
0.46722746 0.1547273 -0.27973434 -0.99724162 -0.074223928 -6.8590831e-05 0
-0.46705365 0.16108459 -0.27328441 0.99805802 -0.062290404 9.8202006e-05 1.565863e-05
-0.16828099 0.16191497 -0.27453971 0.74837673 -0.66326457 0.003506311 0.00039751106
0.17427692 0.16350174 -0.27952883 -0.74196678 -0.67040312 0.0067005428 0.00053850719
0.46667504 0.16215521 -0.27755955 -0.99713951 -0.07558246 -0.00013668145 0
-0.46591124 0.17925514 -0.27120209 0.99803215 -0.062704563 1.6972004e-05 0
-0.15712355 0.17356507 -0.27343345 0.72181439 -0.69208294 0.0022705137 0.00011504715
0.14865363 0.1888172 -0.2763879 -0.64648485 -0.76278085 0.014922876 0.0010453131
0.46470737 0.18687394 -0.27546456 -0.99559838 -0.09371762 -0.00090923446 6.0958027e-05
-0.46493763 0.19472328 -0.27715939 0.99792045 -0.064457834 3.9490606e-05 0.00016580537
0.14119323 0.1953519 -0.27306455 -0.61726332 -0.78675133 -0.0028919624 0.0013342111
0.46364862 0.1973629 -0.27568609 -0.99066591 -0.13631119 -0.0005250501 0.0001962985
-0.12440807 0.20178916 -0.27936524 0.55645913 -0.83083075 0.008574523 0.00089721644
-0.11926049 0.20494264 -0.27142638 0.5299359 -0.84800547 0.0073946696 0.00030460692
0.12484705 0.20603031 -0.27646542 -0.53633231 -0.84396839 0.0080604758 0.00051679002
0.46268022 0.20603728 -0.27607408 -0.98670852 -0.16249052 -0.001781959 0.00054978358
-0.10691453 0.21222179 -0.2786966 0.49381772 -0.86950874 0.0099257706 0.00024718459
-0.097058788 0.21790501 -0.27289319 0.45959586 -0.88805187 0.011644978 0.00043569802
0.1045659 0.21748079 -0.27741092 -0.47004703 -0.88258255 0.010190119 0.00016252598
-0.078422606 0.22632696 -0.27820739 0.35202172 -0.93598187 0.0043316348 0.00072804856
0.095321834 0.22228043 -0.27598861 -0.42203099 -0.90658092 0.00089402584 0.00084792386
-0.063814841 0.23095295 -0.27286279 0.2798534 -0.96001393 0.0074340394 0.00010254469
-0.042194974 0.23689942 -0.27094021 0.20606609 -0.97827458 0.022705795 0.00093253714
0.4564029 0.23432329 -0.27623671 -0.9698047 -0.24385513 0.0036678878 6.4675369e-05
-0.45619136 0.24665213 -0.27109221 0.93722689 -0.34871703 0.0014631115 0.00058806693
-0.013830639 0.24093463 -0.27811593 0.078649253 -0.99679029 0.014946158 0.00097253325
-0.0078541078 0.24104458 -0.27996734 0.016322469 -0.99984264 0.0069431025 7.9326666e-05
0.00752375 0.24124148 -0.27850205 -0.01004694 -0.99989712 0.010236083 0.00012019937
0.026218884 0.24082729 -0.27805015 -0.10469791 -0.99428016 0.021102821 0.0011648127
-0.45401442 0.2518858 -0.27236676 0.93073708 -0.36568379 -0.0019619921 0.00052474806
0.45022941 0.25673091 -0.27385792 -0.96339715 -0.26807833 -0.0002237937 0
-0.44975328 0.26189026 -0.27134937 0.92226309 -0.38656136 -0.0010932732 1.6938631e-05
0.44797903 0.26476759 -0.27398694 -0.96299493 -0.26951957 2.7903012e-05 0
-0.44470167 0.27316695 -0.2788333 0.91475755 -0.4040032 -7.0246952e-06 6.0071256e-05
0.44258505 0.28403103 -0.27156675 -0.96255279 -0.27109414 -0.00038402376 9.9078534e-06
0.43921882 0.29596093 -0.27066612 -0.95860213 -0.28474844 0.00060458144 0
-0.43171149 0.30213383 -0.27885458 0.9109453 -0.41252702 -0.00016278416 0
-0.42405328 0.31900519 -0.2738145 0.90272152 -0.43020329 -0.0043594884 8.0361424e-05
-0.41541621 0.3358486 -0.27333799 0.85281485 -0.52220893 0.0021696161 0.0020569188
0.42132947 0.33874542 -0.27114174 -0.81919336 -0.5734396 -0.0094487676 0.0030963479
-0.40446842 0.35096848 -0.27489269 0.75131637 -0.65993398 -0.003290535 0.00080207794
-0.39776659 0.35800239 -0.27937755 0.72959107 -0.68375826 -0.013092776 0.0008614792
0.40976909 0.35181379 -0.2784999 -0.74054551 -0.67199552 0.0037958433 0.00043483856
-0.39098382 0.36472785 -0.27460206 0.70503002 -0.70917726 -0.00058814022 0.00023541732
-0.38864115 0.36700884 -0.27289224 0.70443791 -0.70976555 -3.0634608e-05 7.928213e-05
-0.38479921 0.37075889 -0.27414492 0.70148981 -0.71267891 -0.00094313978 0.00017793232
0.38456202 0.37766206 -0.27403605 -0.71628207 -0.6978094 -0.0014392922 6.2819548e-05
-0.37315711 0.38211742 -0.27578637 0.69799674 -0.71609902 -0.0016413719 0.00012736212
-0.36848307 0.38666964 -0.27289262 0.6979081 -0.71618563 -0.0015427294 0
0.38024306 0.38210747 -0.27990675 -0.71642119 -0.69766665 -0.0014245644 0
-0.36316338 0.39185461 -0.27526045 0.69772536 -0.71636379 -0.0014969187 0
-0.35851341 0.39639297 -0.2798768 0.69751495 -0.71656901 -0.0013189291 0
0.36839887 0.39424795 -0.27582908 -0.71564478 -0.69846231 -0.0017307191 0
-0.35053432 0.40414447 -0.27815801 0.69713497 -0.71693861 -0.0013698422 0.00014565943
-0.3468411 0.40773237 -0.27778184 0.69658172 -0.71747625 -0.0013010813 0
-0.33981401 0.41455492 -0.2749325 0.69170463 -0.72218025 -0.00064424152 0.00015013029
0.34689599 0.41614082 -0.27810502 -0.65125394 -0.75879556 -0.0098824836 0.0010555239
-0.33229908 0.42184842 -0.27057919 0.66908842 -0.74316424 -0.0052618613 0.00056699163
-0.32806554 0.42582864 -0.27944511 0.65443271 -0.75608701 -0.0070930985 0.0013057224
0.33289167 0.42794126 -0.27875558 -0.57331294 -0.81917071 -0.016482368 0.0032464336
-0.32314962 0.4302994 -0.27327877 0.62797219 -0.77821761 -0.005326238 0.0018538915
0.31311691 0.43724903 -0.27160168 -0.35539675 -0.9345302 0.018615015 0.00040934724
0.32798809 0.43089288 -0.27496681 -0.4868769 -0.87295878 -0.029895997 0.0032235233
-0.30641618 0.44119096 -0.270412 0.47442636 -0.8802644 0.0073575345 0.0023624422
-0.28712153 0.44890422 -0.2798523 0.36459067 -0.93116325 -0.0029260044 3.8615567e-06
0.27979833 0.44821942 -0.27564502 -0.30864358 -0.95117503 -0.0022770222 2.2520591e-05
0.28731915 0.44579175 -0.27995646 -0.30991334 -0.95076072 -0.0027867772 0
0.29775691 0.44240764 -0.27989802 -0.31099001 -0.95040697 -0.0034494188 6.685291e-05
0.30277771 0.44075906 -0.271469 -0.3295359 -0.94412875 0.0051842132 0.00025218626
-0.27226606 0.45415956 -0.27561012 0.33231747 -0.94316733 -0.00065568445 0
0.25779042 0.45536044 -0.27252564 -0.30946162 -0.95090896 -0.0023945908 7.8361496e-05
0.26517975 0.45296389 -0.27555305 -0.30906469 -0.95103872 -0.0021047716 0
0.27085987 0.45111072 -0.27294266 -0.30868882 -0.95116025 -0.0023166423 3.5149125e-05
-0.23579429 0.46680629 -0.2742143 0.32450113 -0.94588482 -0.00096279162 0
-0.2272065 0.46976191 -0.27370065 0.30637461 -0.95191097 0.00019282292 0.00010465952
0.21672377 0.4686017 -0.27139384 -0.26513705 -0.96421069 -0.00019490016 0.00034404706
0.22996712 0.46442699 -0.27368844 -0.30582386 -0.95208782 -0.00075779378 6.6516281e-05
0.2315492 0.46391881 -0.27884153 -0.30686539 -0.95175278 0.00040595199 0
0.24300434 0.46019295 -0.27975422 -0.30772972 -0.95147371 -0.00052150927 0
-0.20191765 0.47691745 -0.27625096 0.21359304 -0.97690529 -0.0058287485 0.00052422
-0.19677034 0.47775206 -0.27397144 0.18746042 -0.98224759 -0.0069490545 0.00052581634
-0.18658233 0.47919416 -0.27554795 0.11049834 -0.99387544 -0.0013016298 0.00015699955
0.14230728 0.47909939 -0.27737868 -0.097762749 -0.99520701 -0.0023290061 9.3022907e-05
0.16166046 0.47720027 -0.27770567 -0.099763475 -0.99500847 -0.0022987791 0
0.17253317 0.47612718 -0.27641147 -0.10921004 -0.99401599 -0.0023343686 0.00015178329
0.19504112 0.47355044 -0.27553904 -0.16032557 -0.9870525 0.0048106369 0.00073316967
0.20044641 0.4726904 -0.27514628 -0.19295086 -0.98120677 0.0017996253 0.00082518673
-0.15876351 0.48162058 -0.27835923 0.080301687 -0.99676961 -0.0014453286 6.6399945e-05
-0.14233811 0.48286042 -0.27564687 0.075548753 -0.99714112 -0.0014034803 1.3696204e-05
-0.13732858 0.48324439 -0.27882418 0.075661093 -0.99713278 -0.0012328172 0
-0.12729719 0.48400438 -0.2778092 0.075738043 -0.997127 -0.0011875652 0
-0.1153243 0.48490861 -0.27422205 0.074865185 -0.99719208 -0.0017854252 1.9150946e-05
-0.10103962 0.48599061 -0.27191898 0.070443518 -0.99751526 -0.00097804924 0.00013669766
-0.097901151 0.48622757 -0.2743305 0.068439715 -0.99765527 2.8279828e-05 6.9371723e-05
-0.069994949 0.48781359 -0.27802253 0.035145644 -0.99935383 -0.0075283884 0
-0.054196678 0.48797339 -0.27428147 0.00382441 -0.99999094 -0.0018527408 9.0494163e-05
-0.025883725 0.48765311 -0.27513498 -0.012293601 -0.99992126 -0.0025391348 0
-0.015693232 0.48753107 -0.27797726 -0.012845771 -0.99991441 -0.0024903603 1.8310897e-05
-0.0068364604 0.48740098 -0.27134007 -0.013007324 -0.9999122 -0.0025228299 1.4435079e-05
0.0090192668 0.48720574 -0.27642432 -0.01320597 -0.99990958 -0.0025029657 5.2553805e-05
0.013302383 0.4871431 -0.27396157 -0.013211906 -0.99990958 -0.0025022323 5.2424253e-05
0.02652951 0.48696548 -0.27401406 -0.013529477 -0.99990547 -0.0024550103 0
0.034424722 0.48685807 -0.27379349 -0.015395505 -0.9998796 -0.0019318337 5.7328492e-05
0.052610882 0.48661199 -0.27383834 -0.026965335 -0.99963635 -0.00018910658 3.5067587e-05
0.062229145 0.48627308 -0.2782858 -0.046094649 -0.99893242 -0.0030525255 3.9767849e-05
0.074062794 0.48563123 -0.27908278 -0.066614419 -0.99777555 -0.002523069 0.00015514133
0.095836662 0.4836334 -0.27316871 -0.093360782 -0.9956308 -0.0017239451 0
0.10688598 0.48257083 -0.27484915 -0.096060775 -0.99537343 -0.0019947235 9.3202856e-05
0.11423406 0.48185328 -0.2765013 -0.097406603 -0.99524206 -0.0022499796 0.00010660721
0.12221 0.48106313 -0.27342275 -0.0974162 -0.99524146 -0.0021112761 0.00015419922
-0.12121497 -0.48086122 -0.26585972 0.082487777 0.99658483 0.0038010415 0
-0.082963184 -0.48384589 -0.2627455 0.062759176 0.99802411 0.0030458227 0
-0.073162131 -0.4844043 -0.26347455 0.046973843 0.99889272 0.00261889 5.3340653e-05
-0.067913011 -0.48464453 -0.26736271 0.043384906 0.99905086 0.0038946932 0
-0.051933318 -0.48513228 -0.26449049 0.025083885 0.99967384 0.0047906572 8.6459164e-05
-0.037446007 -0.48531395 -0.26965225 0.014499223 0.99988717 0.0039174808 8.6308151e-05
0.012545038 -0.48600984 -0.26414564 0.012718963 0.99991328 0.0034026101 0
0.027745387 -0.48619047 -0.26737598 0.011250794 0.99993056 0.003510365 0.00010911516
0.042242266 -0.48633391 -0.2666716 0.0070473938 0.99997091 0.002923077 0
0.072957426 -0.48611879 -0.26097703 -0.036399078 0.99933112 0.0035223931 0
0.094637841 -0.48509416 -0.2645252 -0.051375341 0.99866903 0.0045540282 0.00013622455
0.13453364 -0.48285657 -0.26670268 -0.056336179 0.99840587 0.0034445387 0
-0.20671906 -0.47081673 -0.26974761 0.3256377 0.94540465 0.013044216 0.0026181245
-0.18945977 -0.47471654 -0.26311588 0.16260885 0.98668545 0.00317857 0.0010303576
-0.17438704 -0.4763217 -0.26806504 0.094971702 0.99546021 0.0062748403 1.2237673e-05
-0.16769171 -0.47691828 -0.26519385 0.090319 0.99589843 0.0053689084 4.398455e-05
-0.13757499 -0.47951213 -0.2618255 0.08453995 0.9964121 0.0039984337 7.0936876e-05
0.18021393 -0.47996244 -0.26729724 -0.14694159 0.9891426 0.0022395605 0.0010054811
0.20270532 -0.47577912 -0.26386976 -0.26482832 0.96416628 -0.015792675 0.002467429
-0.22653249 -0.46155348 -0.26574028 0.47008944 0.88258541 0.0076767565 0.00044590299
-0.23590013 -0.45605046 -0.26585627 0.50166267 0.86506283 0.00086539926 0.00021533603
0.23738828 -0.45843154 -0.2661677 -0.48563272 0.87415266 0.0042320667 6.2883855e-06
0.2430166 -0.4552983 -0.26339301 -0.48767322 0.87301964 0.0034151534 0.00014792194
0.2501249 -0.45132872 -0.26305604 -0.48759019 0.87306601 0.0033845955 0.0001767583
-0.2613517 -0.44092101 -0.26347369 0.51117361 0.85947126 0.0032743555 0.00018764898
-0.27150577 -0.43488121 -0.26375443 0.51131064 0.8593899 0.0032331243 3.9450188e-05
-0.26551294 -0.43843067 -0.2684322 0.51089346 0.85963428 0.0040922072 9.4522118e-05
-0.29352784 -0.42178011 -0.26499313 0.51565582 0.85679471 0.0013672517 5.8202251e-05
-0.28409845 -0.42739075 -0.26411736 0.51155221 0.85924548 0.0033968526 0.00010985273
0.30043417 -0.42317253 -0.26206911 -0.51771867 0.85554278 0.0037263948 0.0001410648
-0.31069344 -0.41140577 -0.26329744 0.54038459 0.84140331 0.0049979053 0.00014988011
0.3196303 -0.41127071 -0.26616654 -0.57764506 0.81620514 0.011630169 0.0009078313
-0.32295424 -0.40280336 -0.26852095 0.6374408 0.77049893 -0.00080787495 0.00049636466
0.32312745 -0.4085964 -0.26888493 -0.62115502 0.78356969 0.013600426 0.0016350069
0.33042169 -0.40236339 -0.26294273 -0.66373998 0.74794984 0.0045103813 0.00052129221
0.34499419 -0.38840967 -0.26784816 -0.69112474 0.72272378 0.004122952 0.00013541535
0.35178 -0.38183916 -0.26456982 -0.69556594 0.71845222 0.0038054732 0
-0.35165787 -0.37571022 -0.26615998 0.71156961 0.7026087 0.0030968138 0
0.35735673 -0.37643135 -0.26319247 -0.69712877 0.71693647 0.0036818527 0
0.36776683 -0.36633193 -0.26136199 -0.69792515 0.71616244 0.003434475 0
-0.37460321 -0.35219502 -0.26856199 0.71584028 0.69825768 0.0029881741 0
0.38321677 -0.35120881 -0.26633459 -0.69882083 0.71528918 0.0032757649 0
-0.39450487 -0.33179456 -0.26397586 0.71691442 0.69715405 0.0031785786 0.00011742978
-0.38699737 -0.33948302 -0.26812282 0.71658617 0.69749016 0.0034100818 3.0466031e-06
0.39737231 -0.33737451 -0.26440752 -0.71196568 0.70208234 0.013612711 0.00018986284
-0.4036797 -0.32232192 -0.26660267 0.73656434 0.67636538 0.0016698533 0.00023584455
-0.39947096 -0.32670629 -0.26207107 0.72776842 0.68582237 0.00091514457 0.00016778664
0.40998492 -0.32463467 -0.26069322 -0.7821998 0.62301785 0.0034825676 0.0032464939
0.41090786 -0.32354635 -0.2603803 -0.78215867 0.62307072 0.0032682992 0.0032282544
0.42006218 -0.31029341 -0.26981947 -0.8667475 0.49863231 -0.010706765 0.0018913959
-0.42031607 -0.30254599 -0.26574826 0.85243511 0.52235651 -0.02231786 0.0028797216
-0.41789079 -0.30602354 -0.2668581 0.81961191 0.57282144 -0.010578367 0.0036371446
-0.42242825 -0.29860857 -0.26698056 0.89640969 0.44321367 0.0033624731 0.0014575137
0.42696565 -0.29354736 -0.26697826 -0.93462527 0.35562131 0.0030473191 0.00069129316
-0.4291752 -0.2827256 -0.26546508 0.92048991 0.39059067 0.011712701 0.00094982778
-0.4333314 -0.27095926 -0.26774734 0.93958884 0.34229788 0.0022284735 5.136152e-05
0.43742341 -0.26093078 -0.26988399 -0.95484513 0.29710171 0.0011529439 4.0561215e-05
-0.43881512 -0.25542918 -0.2677168 0.9428882 0.33310494 0.0016699414 9.6186159e-05
0.438187 -0.25849226 -0.26144442 -0.95470172 0.29756349 0.00076326111 0
0.44789714 -0.22717118 -0.26301566 -0.95852387 0.28501165 0.00045517893 0.00013751874
-0.45343772 -0.21400312 -0.26266623 0.94422567 0.32929504 0.0016275358 0
-0.045907468 -0.20279613 -0.26441175 0.22483368 0.97439677 -0.0008400837 0.0001825915
-0.029603666 -0.20651522 -0.26474458 0.15183759 0.98838365 0.0065635084 0.00087391102
-0.01356153 -0.2081054 -0.26137763 0.041078832 0.99912262 -0.0081508243 0.00033194761
-0.0036105807 -0.2082819 -0.26919013 0.024050452 0.9996618 -0.0098917969 0.00024832843
0.003229585 -0.20830192 -0.26889381 0.0055651865 0.99996048 -0.0069336556 0.00014983905
0.010086328 -0.20815951 -0.26342314 -0.019486528 0.99980706 -0.0024796042 9.6555756e-05
0.45530128 -0.20081355 -0.2612834 -0.97487462 0.2227544 -0.00014119879 0.00053071033
-0.080459394 -0.19302036 -0.26372513 0.37021494 0.92893106 -0.0052919174 0.0015955716
-0.059354492 -0.19931087 -0.26337481 0.27040011 0.96271443 -0.0080436086 8.8402223e-05
0.06726142 -0.19909352 -0.26732162 -0.29202834 0.95640635 -0.0025109467 0.00019088766
0.079037867 -0.19560473 -0.26134133 -0.32159948 0.94681525 -0.010709021 0.00052732124
0.093230471 -0.19062757 -0.2692402 -0.33389276 0.94252318 -0.012872169 0.00035930058
0.45627606 -0.19677912 -0.26498324 -0.97903186 0.20351937 0.0087522781 0.00065462117
-0.46352515 -0.18409526 -0.26510039 0.96422386 0.26507956 0.0022900216 0.0014479265
-0.10220626 -0.18177505 -0.2653234 0.47250792 0.88131565 -0.0043645231 0.00011067124
-0.094413623 -0.18605298 -0.26495582 0.46617275 0.88463408 -0.010277011 9.8909652e-05
0.099040881 -0.18771788 -0.26316354 -0.4345448 0.90064895 -0.0015023868 0.0017768273
-0.46634525 -0.17183577 -0.2696045 0.98391527 0.17861089 0.0029707223 0.00058740377
-0.11176331 -0.17638867 -0.26562527 0.50887293 0.86081803 -0.006378965 0.00023364525
0.12256025 -0.17426695 -0.26769456 -0.5107103 0.85972196 -0.0072940192 4.6698704e-05
0.45962599 -0.17516072 -0.26390055 -0.99085033 0.13495423 0.0017536784 0.00010240202
-0.13428544 -0.16189362 -0.26290327 0.5955016 0.80309284 0.020484222 0.00089548709
0.46115714 -0.16156474 -0.26667839 -0.99420607 0.10749032 0.00027807264 0
-0.46839693 -0.15358391 -0.26981199 0.99603927 0.088824764 -0.0039937086 0.0004227882
-0.1455877 -0.15176195 -0.26108953 0.68630815 0.72727042 -0.0076661711 0.00012023391
-0.13887171 -0.15800408 -0.26937479 0.67250866 0.74003297 -0.0091311038 0.00032990274
0.14962213 -0.15513018 -0.26628262 -0.66008162 0.75103796 -0.015306432 0.00086437765
0.15431611 -0.15065452 -0.2619333 -0.67446786 0.73830193 -0.0018450345 0.0007663932
0.46195096 -0.1537187 -0.26426584 -0.99463713 0.10342612 0.00024598776 0
-0.15652706 -0.14115919 -0.26498863 0.69843853 0.71563441 -0.0071497615 5.5981676e-05
0.15703925 -0.14793262 -0.26195833 -0.69490498 0.71909386 -0.0033293418 0.00055297813
0.46256661 -0.14761382 -0.26714647 -0.99472648 0.10256045 0.00074979785 0
0.46365476 -0.13687927 -0.2632091 -0.99493057 0.10056367 0.00037924311 0
-0.1691798 -0.12821001 -0.26297414 0.76856267 0.63955891 0.016608877 0.00075091468
0.17707632 -0.12731405 -0.26281989 -0.76643455 0.6423223 0.0002538214 0.0013177351
-0.47016093 -0.11442769 -0.26645651 0.99919629 0.04008339 0.00037133149 0
-0.18063605 -0.11306971 -0.26234052 0.82952935 0.5583998 0.0083982041 0.00085730455
0.18393563 -0.11922808 -0.26287043 -0.79459679 0.60713756 -0.00016232468 0.00093717745
0.46580023 -0.1156324 -0.26569536 -0.99493057 0.10056359 0.00041134559 0
-0.18289383 -0.10939588 -0.26808733 0.84232819 0.5389092 -0.0077544553 0.00038195268
0.19269133 -0.10558128 -0.26985881 -0.84201598 0.53945136 -0.0010888303 0.00067975285
0.46662953 -0.10742626 -0.26374066 -0.99502283 0.09964671 0.00021199722 3.8559396e-05
-0.47107482 -0.091629848 -0.26537097 0.99923247 0.039172679 5.4162469e-05 0
-0.19818217 -0.083416425 -0.26642415 0.8865515 0.46262345 -0.0024627824 0.00050827255
-0.47179464 -0.073206127 -0.26436999 0.99936235 0.035706129 -2.2295195e-05 0.00013783856
-0.20007955 -0.079727262 -0.26926187 0.89194036 0.45212185 -0.0053107762 0.00036168998
0.4697997 -0.074622467 -0.2616004 -0.99735153 0.072677635 -0.002801239 0.00015097413
-0.47195145 -0.068831101 -0.26674619 0.99938357 0.035104312 0.00032998703 0
-0.20696637 -0.063561454 -0.2627838 0.93481278 0.35513946 -0.00098139292 0.0010724537
0.21370721 -0.065489478 -0.26601005 -0.93733954 0.3482742 0.0099827284 0.0015396083
0.47048956 -0.065406904 -0.26315168 -0.99829119 0.058400754 -0.0020452959 0.00011674204
0.21711962 -0.055240214 -0.26875627 -0.95484388 0.29709461 0.002814 0.00049112376
0.47108853 -0.054302309 -0.26517135 -0.99867576 0.051399555 -0.0022045933 0.00013028986
-0.47261667 -0.045503937 -0.26460746 0.99984437 0.017563423 -0.0016786085 5.2788604e-05
-0.21255073 -0.044799946 -0.26188135 0.96305466 0.26929075 -0.002871105 7.5766351e-05
0.21881668 -0.048936218 -0.26622817 -0.96084356 0.27707171 -0.003313764 0.00034284353
0.22061467 -0.042335629 -0.268188 -0.96657246 0.25637665 -0.0029563683 0.00022994381
0.47130162 -0.047402915 -0.26511133 -0.99928468 0.037772939 -0.0018379547 0.00015413635
-0.47269934 -0.026701149 -0.26463771 0.99999362 -0.0030593108 0.0018463314 0
-0.47257912 -0.014256787 -0.26768225 0.9999364 -0.011277068 6.0011578e-05 0
-0.2190119 -0.019421242 -0.26249173 0.97964585 0.2004808 0.0100745 0.00056129106
0.22704254 -0.013903592 -0.2666201 -0.98802495 0.15378633 0.012506141 0.001356186
0.47180295 -0.015559996 -0.26302636 -0.99990386 0.013865182 0.00016802896 0
-0.47240475 -0.00077418983 -0.26356456 0.9999193 -0.012702616 0.00018912191 0
-0.22042222 -0.0079376549 -0.26694879 0.99615461 0.08688961 -0.011237286 0.00077664101
0.22813909 -0.0044438555 -0.26167947 -0.99682397 0.079600379 -0.0024040835 0.0012672734
0.47195631 -0.004621828 -0.26038739 -0.99990648 0.013673511 0.00015312446 0
-0.47231856 0.0058866702 -0.26703957 0.99991626 -0.012940672 6.582804e-06 0.00014387928
-0.47220734 0.01446861 -0.26203078 0.99991626 -0.012943903 2.3241138e-05 0
-0.22115791 0.018128056 -0.26317149 0.99993628 0.011282311 0.00026840728 3.7250655e-05
-0.47208139 0.024200555 -0.26391399 0.99991632 -0.012939039 5.1303894e-05 0
-0.22119623 0.025704648 -0.26221782 0.99912566 -0.041662924 0.0034721298 0.00066994876
0.47236526 0.028398609 -0.26483479 -0.99993551 0.011346903 0.0003985017 0
-0.4719376 0.03530794 -0.26578119 0.99991608 -0.012954053 0.00011042367 2.100649e-05
-0.22094506 0.037807677 -0.2662029 0.99608296 -0.088147849 -0.0069778711 0.00088603294
0.4724862 0.039200604 -0.2628738 -0.99994224 0.010745608 0.0003005949 3.5173252e-05
-0.47184247 0.042658091 -0.26681432 0.99991626 -0.012940397 -9.7226679e-05 4.9746261e-05
0.22746441 0.044245534 -0.26573527 -0.99627233 -0.086210787 -0.0030301216 0.0014850721
-0.21833335 0.055171758 -0.26321971 0.98448545 -0.17546594 -1.4869553e-06 0.0013526478
0.22535978 0.05711484 -0.26617837 -0.97840953 -0.20667386 -0.00088065071 0.00098922697
0.47266534 0.055218425 -0.26024148 -0.99999321 0.0033243506 0.0015948551 0
-0.47160217 0.0612121 -0.26246789 0.99987948 -0.015521871 -0.00033139205 2.0181964e-05
0.47273991 0.06284631 -0.26042306 -0.99997544 -0.0057875239 0.0039556357 0.00011017021
-0.47134984 0.078356132 -0.26948813 0.9998402 -0.017870042 -0.00051627966 0
-0.21274978 0.077500515 -0.26170379 0.96817732 -0.25022078 0.0047116987 0.00019107235
0.4724288 0.078814328 -0.26998535 -0.99935985 -0.03570509 -0.0022491869 6.2449959e-05
-0.47115272 0.087965876 -0.26444966 0.99944538 -0.033287965 0.0009398582 0.00016430847
-0.21159829 0.081844158 -0.26588792 0.96642357 -0.2568323 0.0079179537 0.00019785215
-0.20962098 0.089037642 -0.2665574 0.95495456 -0.29674819 -0.0015376782 0.00060679676
0.47195822 0.088567741 -0.26955771 -0.99883753 -0.048185203 -0.0013532758 9.3118208e-05
0.21453205 0.096169144 -0.26539758 -0.94137681 -0.3373563 -0.00071013009 0.00052797253
0.47137448 0.098064408 -0.26468533 -0.99782878 -0.065859109 -0.00053641945 3.3740977e-05
0.47102755 0.10284507 -0.2648159 -0.99785423 -0.065459706 -0.001392899 0.00012225626
-0.46998182 0.11271223 -0.26064995 0.99871439 -0.050683971 0.00080134114 0
-0.20132126 0.11032701 -0.26098755 0.90732419 -0.42036194 0.0076559568 0.0011807299
0.20729372 0.11310797 -0.26615444 -0.90194017 -0.43169749 -0.011887792 0.0010115362
0.47011009 0.11546665 -0.26482055 -0.99745131 -0.071350843 4.6876048e-05 4.2766846e-05
-0.46954006 0.1201666 -0.26121491 0.9983288 -0.057789307 0.00031915895 0
0.19895245 0.12780704 -0.26787594 -0.86463368 -0.5023585 0.0066713458 7.978826e-05
0.46954641 0.12321874 -0.26375178 -0.99735343 -0.07270626 -0.00018348917 0.00010545686
-0.19035286 0.13009872 -0.26829457 0.86121184 -0.5082137 0.005744488 0.00013081994
0.46880752 0.13337906 -0.26122898 -0.99732584 -0.073083706 -1.6509897e-07 3.0878469e-05
-0.46789423 0.14752299 -0.26203361 0.99812394 -0.061224684 -0.00014773567 0
-0.1789573 0.14899543 -0.26334476 0.82588619 -0.56377441 0.008392917 0.00097074249
0.18694435 0.14765993 -0.2634221 -0.81553972 -0.57869816 0.0018468935 0.0012818141
0.46828139 0.14052638 -0.2694684 -0.99727845 -0.073726304 -0.00022373302 4.0863713e-05
0.17962737 0.15768859 -0.26556343 -0.77074379 -0.63706517 -0.010097543 0.0013251672
0.18132326 0.15580998 -0.26231924 -0.78043503 -0.62479424 -0.023518944 0.0015028651
-0.46663487 0.16775517 -0.26623419 0.99803948 -0.062587634 -0.0001287748 0
0.17444888 0.16361551 -0.26037866 -0.74939656 -0.66211885 0.0018814059 0.00091043959
0.46621794 0.16823184 -0.26530886 -0.9969067 -0.078593455 7.7957804e-05 3.6479938e-05
-0.46641493 0.17125092 -0.26878592 0.99804169 -0.062551506 -6.6288703e-05 0
0.16165805 0.17638475 -0.26922649 -0.70523715 -0.70891678 0.0088027194 0.00016937898
-0.15030299 0.18046598 -0.26360962 0.69061065 -0.72318411 0.0078547522 0.00056458975
0.15704095 0.18088903 -0.26532686 -0.69436079 -0.71955872 0.0099178106 8.0115169e-05
-0.12784198 0.19973469 -0.26679766 0.57097763 -0.82096541 0.00047821194 0.0014426631
0.14448105 0.19259267 -0.26673871 -0.61854553 -0.78570729 0.008084734 0.001322972
0.46389788 0.19519177 -0.26580796 -0.99257326 -0.12152205 -0.0055456213 0.00036173951
-0.46435192 0.20402174 -0.26606023 0.99610817 -0.088050835 -0.0039383443 0.00029191654
-0.12232095 0.20319109 -0.2619462 0.53285307 -0.84620112 0.0033596535 0.0003353449
0.1227577 0.20734829 -0.26553234 -0.52193463 -0.85295379 0.0073447595 0.00032622
0.46243364 0.20684682 -0.26003647 -0.98697895 -0.16076873 -0.0050961417 0.00048036646
-0.11034115 0.21030527 -0.26400411 0.50483429 -0.86319882 0.0054932255 4.7467322e-05
-0.10656886 0.21252441 -0.26558149 0.49334148 -0.8698045 0.0073630181 0.0002464088
-0.094859898 0.21924789 -0.26140347 0.45702592 -0.88935989 0.012890515 0.00037228793
0.46110544 0.21389401 -0.26162487 -0.98133862 -0.19228715 -0.00048728273 0.00041140002
-0.46166208 0.2284283 -0.26119789 0.96800011 -0.25093648 0.0025650333 0.0019780616
-0.08019197 0.22588706 -0.26424742 0.37594432 -0.92662621 0.0054505086 0.0012582549
-0.07627409 0.22725415 -0.26635125 0.3502956 -0.93661326 0.0069696088 0.00067695457
0.094164133 0.22297741 -0.2653774 -0.41350955 -0.91049957 0.00045260691 0.00096037943
0.45914868 0.22341181 -0.26435956 -0.97916418 -0.2030631 0.0017218366 0.00040996287
-0.46081024 0.23205939 -0.26485074 0.96777695 -0.25167686 -0.0081548616 0.0020537779
-0.45987511 0.23552892 -0.26616797 0.95709461 -0.28977463 -0.00079433329 0.0011020713
-0.063008785 0.23123166 -0.26702353 0.28948009 -0.95718181 0.0020809963 0.00021412548
-0.058041804 0.2326749 -0.26612562 0.27277923 -0.96205842 0.0059140869 0.00011930473
-0.03988497 0.23754996 -0.26652035 0.20073684 -0.97953492 0.014702508 0.00094251224
0.072042942 0.23094943 -0.26448536 -0.29656228 -0.95492959 0.012660555 0.00045557829
0.4570173 0.23193219 -0.26766738 -0.9719106 -0.23533817 0.0023945596 0.00011384521
-0.02517619 0.24032937 -0.26605827 0.11372726 -0.99330914 0.020076334 0.00087723479
-0.013958333 0.24105003 -0.26502925 0.076101057 -0.99677306 0.025533462 0.0010751914
0.012073064 0.24131489 -0.26877838 -0.014381057 -0.99987447 0.006645645 0.00020888676
-0.45208585 0.25639018 -0.26196849 0.93122053 -0.36445519 -0.00089973502 0.00034095283
0.45131409 0.25284553 -0.26245922 -0.96420121 -0.26517004 -0.00095966156 0
-0.44785714 0.26612851 -0.2689679 0.91715693 -0.39852279 -0.0016429469 3.179094e-05
0.44201666 0.28607419 -0.2605074 -0.96153259 -0.27469099 -0.00015621628 9.7453056e-05
-0.43551964 0.29365915 -0.26316342 0.91194886 -0.41030338 -0.00064166007 3.110086e-06
0.43951249 0.29491454 -0.2632286 -0.95924824 -0.28255481 -0.0023660297 1.8239489e-05
0.44035792 0.29195815 -0.2695336 -0.96049684 -0.27828854 -0.0011059119 7.9740639e-05
-0.42870635 0.30877608 -0.2639541 0.9101209 -0.41433966 -0.0015899458 5.4307551e-05
-0.42685381 0.31289262 -0.26789272 0.90680993 -0.42153481 -0.0020171083 0.00013405801
0.43372592 0.31400084 -0.26305962 -0.93968821 -0.34118417 0.024072349 0.0015884981
-0.42128104 0.32478115 -0.26498497 0.89758003 -0.44079462 -0.0070805005 0.00017446661
0.42916274 0.32530445 -0.26329833 -0.88577402 -0.46408072 0.0057838662 0.002854299
-0.41291407 0.33993709 -0.26091409 0.82758254 -0.56130773 0.0063877124 0.0025117318
0.42457026 0.33409572 -0.26155263 -0.84283197 -0.53814715 -0.0056309281 0.0028903135
-0.39598435 0.35977164 -0.26026338 0.72028738 -0.6936202 -0.0087772645 0.00045844394
-0.39466548 0.36110228 -0.26298282 0.71605116 -0.69803238 -0.0046424223 0.00037659667
-0.38712627 0.3684718 -0.26643178 0.70133007 -0.71283543 -0.0013369704 8.9129047e-05
-0.37785232 0.37752339 -0.26929909 0.69849122 -0.71561688 -0.0015498699 5.5227556e-05
0.37740052 0.38498551 -0.26468867 -0.71593225 -0.69816774 -0.0016464527 5.2967091e-05
0.36976337 0.39282 -0.26457101 -0.71581149 -0.69829136 -0.0017594972 0
-0.34599328 0.40852165 -0.2603575 0.696289 -0.71775919 -0.0018567286 0
0.35899797 0.40385991 -0.26554799 -0.71127999 -0.70290685 -0.0016640418 0
0.36226219 0.40050891 -0.26200637 -0.71372902 -0.70042109 -0.0010371014 6.7337991e-05
-0.34261268 0.41180742 -0.26081079 0.69440138 -0.71958709 -0.0010767999 0.00010691176
-0.33925912 0.41506487 -0.26021817 0.68908322 -0.72467285 -0.0036936633 0.00015045259
0.34298462 0.4199205 -0.26752326 -0.65457129 -0.75600028 -0.00031239371 0.00088069605
0.33894297 0.42337376 -0.26070353 -0.59130299 -0.806418 0.0071288673 0.0039758361
-0.32064301 0.43232197 -0.26979613 0.61828768 -0.78594977 0.0018076131 0.0018134231
-0.31185782 0.43821838 -0.266087 0.53408885 -0.84542763 -0.0010760516 0.0015153799
-0.30999172 0.43925273 -0.26933968 0.5162698 -0.85640931 0.0053552105 0.00239773
0.31349528 0.43709993 -0.26146302 -0.37883106 -0.92546582 -0.00022087902 0.0014485315
-0.29355881 0.44651401 -0.26268277 0.37195832 -0.92824847 -0.0013848459 0.00031670736
0.29313019 0.44386244 -0.2615695 -0.31256032 -0.94989365 -0.0028323736 8.8437831e-05
-0.27557567 0.45298862 -0.2629002 0.33338663 -0.94278932 -0.0012978456 4.9864855e-05
-0.26146802 0.45794085 -0.26347554 0.32850245 -0.944502 -0.001456218 0
-0.25725159 0.45941111 -0.26286885 0.32776028 -0.9447605 -0.00091785996 0
0.25469929 0.45634618 -0.2635406 -0.30950153 -0.95089626 -0.0022574267 2.178564e-05
-0.24382618 0.46404409 -0.26348728 0.32499194 -0.94571602 -0.0012287617 0
-0.23579483 0.46680966 -0.26428443 0.3224951 -0.94656831 -0.0023071202 4.4116474e-05
-0.22756229 0.46963367 -0.26077244 0.31157866 -0.95021087 -0.004257652 5.7480669e-05
0.23201312 0.46374047 -0.26270002 -0.30707824 -0.95168269 -0.0017682723 7.161979e-05
0.24198714 0.46049082 -0.26495796 -0.30857688 -0.95119858 -0.001266242 0
-0.22387555 0.47083414 -0.26200604 0.29193714 -0.95643598 0.0017639673 0.00017618356
-0.19681853 0.47772551 -0.26810682 0.1873375 -0.98219138 -0.01431122 0.00080179342
-0.18214025 0.47960454 -0.26492324 0.099217765 -0.9950611 0.0030446241 5.1857496e-05
0.16158147 0.47717139 -0.26266864 -0.098813683 -0.99510163 -0.0029449023 0.00014166237
0.19281769 0.47385752 -0.26299998 -0.14694032 -0.98911405 -0.0078672413 0.00057277369
-0.14944148 0.48230642 -0.26317436 0.075724706 -0.99712729 -0.0016695636 0.00010109586
-0.13615945 0.48332202 -0.26959962 0.075504974 -0.99714434 -0.0015002445 7.0572802e-05
-0.10613921 0.48559463 -0.26508236 0.07319957 -0.99731588 -0.0017040982 2.3119565e-05
-0.094586447 0.48642069 -0.2620891 0.067041621 -0.99774909 -0.0014857065 0
-0.087970421 0.48688459 -0.26372045 0.060429137 -0.99816787 -0.003033495 0
-0.053282976 0.48794246 -0.26530141 -0.00072856201 -0.99999946 -0.00073968049 0.00010704708
-0.048400823 0.48792449 -0.26954776 -0.0041550356 -0.99998581 -0.0033205526 0.00012380008
-0.036005579 0.48775327 -0.2637254 -0.011233621 -0.99993449 -0.0021931415 0
-0.014756617 0.4874891 -0.26572096 -0.012913513 -0.99991328 -0.0025762198 0
-0.0034786793 0.48734283 -0.2659075 -0.013052744 -0.99991131 -0.0026441286 7.7047189e-05
5.5176206e-06 0.48728386 -0.26080471 -0.013100659 -0.99991047 -0.0027093692 0.00010796771
0.012729495 0.48713478 -0.26784191 -0.013237684 -0.99990892 -0.0026437449 1.9338857e-05
0.020811088 0.48703045 -0.26905131 -0.01335009 -0.99990749 -0.0026151878 0
0.046526138 0.48666465 -0.26198035 -0.022796426 -0.99973637 -0.0027419261 0
0.05523371 0.48652425 -0.26184583 -0.036449999 -0.99932379 -0.0048360676 0
0.066120915 0.48609012 -0.26375303 -0.054450873 -0.99848604 -0.0077882493 6.8882495e-05
0.071629442 0.48578203 -0.26617664 -0.063472569 -0.99795097 -0.0080700358 0.00012379234
0.086672753 0.48446721 -0.26225433 -0.086880274 -0.99621826 -0.00099776604 0.00010928699
0.10781564 0.48245347 -0.2636106 -0.096279211 -0.99535137 -0.0024414139 0
0.11017681 0.48223054 -0.2674298 -0.096781388 -0.99530321 -0.0022335704 8.7890894e-06
-0.1180986 -0.481134 -0.25920662 0.081796177 0.99664342 0.003343537 5.2214531e-05
-0.10740763 -0.48202661 -0.25039965 0.079129033 0.99685782 0.0036349809 8.8919624e-05
-0.087992854 -0.48356453 -0.25406271 0.065632604 0.99783766 0.0035016579 4.6437257e-05
-0.07621187 -0.48424435 -0.25948715 0.047393184 0.99887288 0.0026481457 0
-0.067091689 -0.48472086 -0.25371021 0.044267513 0.99901897 -0.0012069386 0.00016275105
-0.053719617 -0.48511249 -0.25607818 0.026127532 0.99965411 0.0029914395 5.6211451e-05
-0.047355283 -0.48522392 -0.25450447 0.02205023 0.99975049 0.0035755108 0.00014865152
-0.020537809 -0.48558921 -0.25427809 0.013591176 0.99990326 0.0029458972 0
-0.00079943903 -0.48586649 -0.25124726 0.013513722 0.9999038 0.0031298173 0
0.0088660624 -0.4859767 -0.25843111 0.013306644 0.99990714 0.0029350747 0.00015992486
0.013438623 -0.48604476 -0.25642923 0.012756636 0.99991471 0.002804755 6.9319402e-05
0.026050668 -0.48620844 -0.25684381 0.011954315 0.99992436 0.0028951277 0.00018793088
0.05048617 -0.48646513 -0.25111669 -0.00048602879 0.9999907 0.0042760298 5.340077e-05
0.066392981 -0.48635536 -0.25214136 -0.025548251 0.99966276 0.0046460289 0.00022039229
0.07307338 -0.48613393 -0.25491405 -0.035784665 0.99934936 0.0045020692 0.00012206261
0.083899796 -0.4856472 -0.2577731 -0.041868377 0.99911064 0.0050070188 6.4130936e-06
0.097044893 -0.48497891 -0.25821215 -0.052672412 0.99860466 0.0037959726 0
0.12668231 -0.48332158 -0.25788522 -0.055911161 0.99843067 0.0031757932 0
0.13506226 -0.48286384 -0.25406468 -0.055790681 0.99843836 0.0029045385 0.00010868462
0.17637748 -0.48027354 -0.25026247 -0.10679634 0.99427789 -0.0024370907 0.00058631564
-0.17509954 -0.47636178 -0.25066009 0.098978654 0.99508923 -0.00074814266 1.3632477e-05
-0.15467334 -0.47808027 -0.25932592 0.086094476 0.99627966 0.0038065002 9.0581307e-05
-0.13427795 -0.47981003 -0.25590017 0.083422571 0.99650842 0.0034085037 0
0.18154415 -0.47985435 -0.25188011 -0.14264674 0.98977029 0.0025952309 0.00027747566
0.1974531 -0.47725216 -0.25275457 -0.24270982 0.97009891 0.00016439983 0.0013384366
-0.21368477 -0.4682866 -0.25584257 0.38856027 0.9214173 0.003338919 0.002208207
0.22500303 -0.46539214 -0.25413477 -0.46760815 0.88389701 0.0082937973 0.00034014424
-0.23615862 -0.45592403 -0.25712779 0.50086433 0.86552566 0.00048678726 9.9954719e-05
0.25178772 -0.45045024 -0.2501182 -0.48776072 0.87297124 0.003277838 0
-0.26107597 -0.44110399 -0.2574155 0.51117879 0.85947013 0.0026962955 4.9469589e-05
0.25547373 -0.44836885 -0.25585118 -0.48784244 0.8729254 0.0033184181 8.6417909e-05
0.26840997 -0.44113839 -0.25687474 -0.48782304 0.87293637 0.0033011578 1.093651e-05
-0.27342898 -0.43376046 -0.25638917 0.51126522 0.85941762 0.0030402245 0
0.28712022 -0.43068749 -0.25636071 -0.49140656 0.87092376 0.003367245 2.2859653e-05
0.2982026 -0.42446691 -0.25421983 -0.5094198 0.86051339 0.0028514273 0.00015036063
0.31123632 -0.41689038 -0.25564119 -0.5369361 0.84361643 0.0033201759 0.00034713428
-0.32216102 -0.40347666 -0.25631833 0.61973691 0.784724 -0.011592099 0.00092331046
-0.31651089 -0.40763983 -0.25195414 0.56663638 0.82392401 0.0085071241 0.0010143394
-0.3407881 -0.38682857 -0.25938666 0.68651474 0.72704202 0.010359926 0.00014841599
0.34610778 -0.38739872 -0.25614685 -0.69549721 0.71852094 0.0033617637 0
0.35342994 -0.38027841 -0.25776464 -0.6967411 0.71731371 0.0035776284 0
-0.35238242 -0.37503675 -0.25121158 0.71404475 0.70009476 0.0027316792 0
0.35715798 -0.37667197 -0.25309652 -0.69716465 0.71690387 0.0031916306 4.3241882e-05
0.36012822 -0.37377903 -0.25493795 -0.6973353 0.71673805 0.0031460214 0
0.36778232 -0.36635002 -0.25067976 -0.69781923 0.716268 0.0029084978 0
-0.37433362 -0.3525168 -0.25341532 0.71582133 0.6982798 0.0022561126 0
-0.36726198 -0.35976267 -0.25604472 0.71579146 0.69830984 0.0024324188 0
0.37769106 -0.35667419 -0.25016603 -0.6986264 0.71548098 0.0028446587 0
-0.38375711 -0.34285668 -0.25138617 0.71602112 0.69807529 0.0021119202 5.8676575e-05
0.38652742 -0.34801644 -0.25466201 -0.69953436 0.71459353 0.0027935961 6.1010702e-05
-0.39006925 -0.33636865 -0.25586188 0.71649581 0.69758695 0.0024804922 0
0.39648801 -0.33828506 -0.25249907 -0.70497125 0.7092278 0.0033996946 0
0.4047505 -0.33006832 -0.25452292 -0.73986363 0.67267966 0.010192151 0.0010292946
-0.39900392 -0.32721224 -0.2530624 0.72531855 0.68840474 0.0034514097 7.3195013e-05
0.40924096 -0.32542035 -0.25959903 -0.78218931 0.62303197 0.0033176106 0.0032470049
0.41174066 -0.32256472 -0.25648338 -0.78216076 0.62306792 0.0033028878 0.0032281468
-0.41702712 -0.30726951 -0.25897044 0.82832873 0.56001776 -0.015864687 0.0044080759
0.42369425 -0.30210635 -0.25157946 -0.90175152 0.43178043 0.020243805 0.0022934217
-0.42545503 -0.2923604 -0.25151864 0.90572262 0.4236553 0.013517777 0.0011167666
0.42762482 -0.29165548 -0.25679106 -0.94094545 0.33855212 -0.0020497309 0.00058222562
-0.42927635 -0.28251863 -0.2519486 0.92345101 0.38356861 0.010652957 0.00085620029
0.43520975 -0.26806045 -0.25337997 -0.9537732 0.30052632 0.00073019805 0
-0.44030899 -0.25127849 -0.25277346 0.94294304 0.33294868 0.0019052791 0
0.44045901 -0.25121483 -0.25936273 -0.95486301 0.29704499 0.00094961072 0.00014931161
0.44287053 -0.24350893 -0.25139678 -0.95501041 0.29656997 0.0011476186 4.4877292e-05
0.44555601 -0.23483896 -0.25566739 -0.95645946 0.29186293 0.0011779539 8.2368038e-05
-0.45096561 -0.22106808 -0.2541593 0.94325447 0.33206782 0.0014043655 0
-0.44833547 -0.22855586 -0.25028783 0.94313204 0.33241442 0.0016058602 0
0.44941831 -0.22219759 -0.25715071 -0.96195191 0.27314869 -0.0061818082 3.3200478e-05
-0.45478636 -0.21020269 -0.25619489 0.94507623 0.32684243 0.002236604 0
-0.45590347 -0.20702691 -0.25596702 0.94556868 0.32542026 0.0012305218 0
-0.047094472 -0.20242015 -0.25487104 0.21753483 0.97604746 -0.0031559835 0.00037514899
-0.021917125 -0.20752172 -0.25849822 0.12162426 0.99253619 -0.008918291 0.0015183478
-0.018257549 -0.20777109 -0.25346336 0.10822993 0.99400216 -0.015682459 0.0015056886
0.016633328 -0.20796172 -0.25228894 -0.059046332 0.99825358 0.0018207727 0.00033207485
0.054856323 -0.20238936 -0.25531918 -0.26132056 0.96521145 -0.008863382 7.3286159e-05
0.45375931 -0.20694506 -0.25357622 -0.96669704 0.25592089 0.0011247793 0.00028368825
0.068581074 -0.19863832 -0.25686845 -0.28823376 0.9575308 -0.0074929316 0.00015024596
0.071882024 -0.19768524 -0.25914335 -0.30095473 0.9536112 -0.0072127809 0.00036088732
0.080974951 -0.19500798 -0.25685287 -0.32395244 0.94600493 -0.011379249 0.00043794481
0.45650557 -0.19548152 -0.25426915 -0.9813773 0.19185342 -0.0095305275 0.00068427745
-0.46276835 -0.1868397 -0.25872853 0.95939016 0.28202835 -0.0055259443 0.00089347275
-0.08860141 -0.18907005 -0.25568336 0.44325688 0.89639235 -0.0020211046 0.00081738149
0.10219297 -0.18604901 -0.25407994 -0.46092373 0.88742834 -0.0044989693 0.0010237375
0.45827606 -0.18495409 -0.2564632 -0.98790109 0.15500627 -0.0049425717 0.0001845201
-0.46568984 -0.17532349 -0.2530911 0.97997779 0.19808406 -0.020157853 0.0010559252
-0.1067154 -0.17920099 -0.25573838 0.50131047 0.86524475 -0.0062817726 0.00010345395
0.11657218 -0.17769778 -0.2536962 -0.50764477 0.86155552 -0.0043494096 6.7907647e-05
0.12358777 -0.17357771 -0.25761276 -0.50984854 0.86025977 -0.0027415454 7.4436786e-05
-0.13212818 -0.16371946 -0.25398377 0.56832576 0.82262456 0.017165177 0.0014598167
0.13683718 -0.16528474 -0.25792477 -0.58984011 0.80738723 -0.014645169 0.0010419934
0.46058074 -0.16680917 -0.25295258 -0.99310583 0.11722117 -0.00020625243 1.3527275e-05
-0.46836486 -0.15374573 -0.2542983 0.99718863 0.074834667 0.0038379512 0.00019308344
-0.14666244 -0.15070724 -0.25669628 0.68420368 0.72922236 -0.0099995006 0.00015249825
-0.13798562 -0.15874699 -0.25233066 0.66047615 0.75082898 -0.0052104262 0.00070659822
-0.15558299 -0.14200205 -0.25361866 0.70621818 0.70790625 -0.011163671 0.00018732328
0.15605271 -0.14889589 -0.25858691 -0.68646872 0.72711843 -0.0077192299 0.00041044632
0.16775227 -0.13708231 -0.25792319 -0.72047991 0.69347578 -5.3696989e-05 8.4423322e-05
0.46413919 -0.13211942 -0.25426584 -0.99493653 0.10050391 0.00040431987 0
-0.46963766 -0.12753701 -0.25680414 0.99901509 0.044368822 0.00048523417 4.7393751e-06
-0.17534055 -0.12100123 -0.25027931 0.79061234 0.61224264 0.0095475754 0.0019359306
0.18219839 -0.12144154 -0.25226396 -0.79101044 0.61179787 0.0024240231 0.0011592123
-0.47025013 -0.11223856 -0.25912076 0.99919832 0.040034726 0.00018747487 0
-0.18194057 -0.11090913 -0.25841892 0.84441841 0.53568268 -0.0012916855 0.00038883049
0.1883612 -0.11271956 -0.25079733 -0.82589 0.56383002 0.0011874269 0.00034389007
0.46605957 -0.11309484 -0.25641999 -0.99493742 0.10049476 0.00040056711 0
0.19264507 -0.10552262 -0.25154313 -0.84796053 0.53000921 -0.0072949496 0.00074421981
-0.47086874 -0.096825086 -0.25553367 0.99920684 0.039819121 0.00022610584 0
-0.18973306 -0.097972013 -0.25573024 0.85816294 0.51336926 -0.0028966081 8.8863613e-05
0.46754074 -0.098438449 -0.25281933 -0.99530721 0.096754029 0.001500831 1.7740271e-05
-0.47136241 -0.084516585 -0.25219274 0.99925727 0.038534138 6.5509739e-05 0
-0.19481458 -0.08934214 -0.25428709 0.87450105 0.48502076 0.0016560438 0.00046691668
0.20348063 -0.08647006 -0.25104359 -0.88171875 0.4717752 0.00053278223 0.00024451563
0.46929502 -0.080171436 -0.25727364 -0.9961741 0.087391026 0.0001503634 0.00011277749
-0.47173053 -0.074892797 -0.25699553 0.99931192 0.037091397 -8.6378372e-05 1.0057441e-05
0.46991652 -0.073371261 -0.2557649 -0.99744254 0.07135547 -0.0040914677 0.00021270939
0.47010696 -0.07087855 -0.2562108 -0.99765784 0.068093725 -0.0064772298 0.00015303871
-0.47206032 -0.065779813 -0.25508517 0.99945283 0.03307635 0.00010313212 7.2575771e-05
0.21447429 -0.063443124 -0.2564593 -0.93621618 0.35142097 -0.001593651 0.001465394
0.47060847 -0.06359452 -0.25790253 -0.99827737 0.058613431 -0.0026087551 0.00017222646
-0.47234946 -0.057575867 -0.25831324 0.99952418 0.030844027 -0.00040782115 0
0.2167684 -0.056431338 -0.25357518 -0.95175397 0.30666915 -0.010879768 0.0010360969
0.4709532 -0.057632051 -0.25264114 -0.99869007 0.051108785 -0.0024621808 2.736848e-05
0.22053644 -0.042513631 -0.25716746 -0.96586114 0.25905094 -0.002234282 7.4910007e-05
