# .PCD v0.7 - Point Cloud Data file format
VERSION 0.7
FIELDS x y z normal_x normal_y normal_z curvature
SIZE 4 4 4 4 4 4 4
TYPE F F F F F F F
COUNT 1 1 1 1 1 1 1
WIDTH 583
HEIGHT 1
VIEWPOINT 0 0 0 1 0 0 0
POINTS 583
DATA ascii
-0.080839269 -0.4947018 -0.32244706 0.05509289 0.99788076 0.034623876 5.1631785e-05
-0.0424155 -0.49599797 -0.32387865 0.019151904 0.99952525 0.02413683 0.00012382799
-0.039449919 -0.49599379 -0.32678992 0.018913331 0.99949968 0.025353536 7.1535862e-05
-0.027158163 -0.49625236 -0.32433289 0.017518384 0.99955726 0.024049081 0
-0.011812136 -0.49640685 -0.32884234 0.011716643 0.99947888 0.03007956 0
0.034130078 -0.49713892 -0.32524383 0.012039252 0.99952918 0.028220559 8.7954424e-05
0.041635815 -0.49728024 -0.32348448 0.0041815517 0.99967831 0.025018822 0.00011195466
0.057366885 -0.49726623 -0.32412595 -0.010557532 0.99968696 0.02268403 0.00014971626
0.071484312 -0.49702656 -0.32318974 -0.024873827 0.99938363 0.024770657 3.861613e-05
0.085051835 -0.49645448 -0.3254081 -0.042423695 0.99874949 0.026454061 0
0.10696673 -0.495289 -0.32664675 -0.053282578 0.99825096 0.025610263 0
0.11285897 -0.49510464 -0.32080173 -0.054103225 0.99825525 0.023650575 0
0.13624609 -0.49366474 -0.32619333 -0.057444587 0.99805957 0.024026103 0
0.14449455 -0.49327019 -0.32262921 -0.057775311 0.99805099 0.023585066 0
0.16629246 -0.4920485 -0.32016808 -0.062627181 0.99778998 0.022202766 5.1643849e-05
0.18208542 -0.49079809 -0.32534263 -0.11196152 0.99344742 0.022952691 0.0004552663
-0.21108045 -0.4805699 -0.32804182 0.33011165 0.94291723 0.043970346 0.0037263306
-0.19562443 -0.4844861 -0.32659042 0.20044789 0.97887826 0.0402257 0.0020865004
-0.18007188 -0.48641244 -0.32796106 0.11912892 0.99222612 0.035993606 0.00036765632
-0.17715524 -0.4866994 -0.3271507 0.10886526 0.99336821 0.03698574 0.00030817295
-0.16801521 -0.48759183 -0.32535529 0.095936105 0.99487329 0.031990953 1.8294534e-06
0.19564879 -0.48907393 -0.32592064 -0.20132126 0.97884798 0.036420535 0.0018158425
0.20367587 -0.4874025 -0.32285312 -0.22684178 0.97306806 0.041002847 0.0019098856
0.21615821 -0.4829877 -0.323596 -0.40671107 0.91278583 0.037525889 0.0011257725
-0.22811437 -0.47272062 -0.32521573 0.46206719 0.88430786 0.067033522 0.00069682358
-0.21921179 -0.47785658 -0.32089692 0.38960266 0.91969246 0.048739109 0.0032330139
0.23127709 -0.47483501 -0.32908612 -0.4718684 0.88113755 0.030608183 5.001526e-05
-0.24259716 -0.46427435 -0.32545379 0.50283515 0.86125207 0.073495604 0.00011943666
-0.23648891 -0.46803337 -0.32337403 0.49306983 0.8674531 0.066386923 0.00026778888
0.25724432 -0.46043003 -0.3282516 -0.48765844 0.87218201 0.038572457 1.3814695e-05
-0.26565537 -0.45069712 -0.32382524 0.5130738 0.85649562 0.0563071 0
-0.25785822 -0.45539582 -0.32281691 0.51164412 0.85730994 0.056921355 0
0.25846288 -0.45975056 -0.32822165 -0.48439199 0.87397838 0.039066739 7.2208633e-05
-0.26826027 -0.44906271 -0.32503241 0.51208925 0.85708672 0.056274455 6.8928704e-05
0.27709192 -0.44946378 -0.32442826 -0.48960236 0.87140131 0.030809538 0
0.28579608 -0.4444136 -0.32943782 -0.49221951 0.86962831 0.038294323 0.00020320501
0.29388005 -0.44009161 -0.32234877 -0.49125344 0.8704288 0.031998828 0.00010629719
-0.29571682 -0.43264014 -0.32678705 0.50951004 0.85784012 0.067154855 9.8853663e-05
-0.28643185 -0.43811652 -0.32703212 0.50837094 0.85828382 0.070056438 2.6582038e-05
0.30428931 -0.43427649 -0.32106903 -0.49686906 0.86736071 0.028397635 0.00013106753
0.31104076 -0.43043542 -0.32143074 -0.51628584 0.85606122 0.024661284 0.00027384603
-0.30870444 -0.42521232 -0.32324836 0.5211997 0.85202301 0.049067546 9.6515723e-05
0.31821445 -0.42599511 -0.32934761 -0.54306245 0.83871019 0.040600177 0.00075217197
-0.33119723 -0.41099167 -0.32379875 0.59513617 0.8027069 0.038399313 0.00083952548
-0.32685378 -0.41375709 -0.32542232 0.5845207 0.8099395 0.048306379 0.00098815013
-0.34187096 -0.40140873 -0.32672358 0.66693223 0.74412936 0.038378794 0.00066112832
0.34211552 -0.4067772 -0.32257706 -0.67542017 0.73650587 0.036969569 2.8885919e-05
-0.34470072 -0.39851752 -0.32957563 0.67814529 0.73314971 0.051092509 0.00044381747
0.34999448 -0.39905998 -0.32603967 -0.69358391 0.71826386 0.055120938 5.6300138e-05
0.3540906 -0.39480719 -0.32933316 -0.69727153 0.71450841 0.057360061 0.00015696402
-0.35662386 -0.38682505 -0.32434493 0.71092838 0.70218146 0.039013088 1.19921e-05
-0.36912939 -0.37420535 -0.32074028 0.71452004 0.69888389 0.031974696 0
0.37605762 -0.37367338 -0.32478827 -0.69647539 0.71507496 0.059915937 0.00026113677
-0.37832627 -0.36464897 -0.32294723 0.71618503 0.69715565 0.032450262 0
0.38603944 -0.36397603 -0.32451326 -0.69639689 0.71472716 0.064780101 8.7705557e-05
-0.39132813 -0.35119933 -0.32502055 0.71828985 0.69441938 0.042911611 0.00011900999
0.40003937 -0.35035023 -0.32225052 -0.70005733 0.71179855 0.057119068 0.00010826945
-0.39434803 -0.34804076 -0.32616723 0.71820384 0.69450587 0.042952195 4.7687477e-05
-0.4058553 -0.33595434 -0.32847703 0.72024792 0.69200379 0.048720244 7.2581926e-05
0.41580495 -0.33462843 -0.32542804 -0.74852854 0.66078591 0.055380803 0.0013980381
-0.41989526 -0.32142553 -0.32593897 0.76984137 0.63620508 0.050867468 0.0010778372
0.42616913 -0.32270086 -0.32200176 -0.85101306 0.52486783 0.017042862 0.003303248
-0.42937595 -0.31020394 -0.32108694 0.82397246 0.5658372 0.029960731 0.0057068989
-0.43251485 -0.30458808 -0.32428569 0.85889775 0.5108664 0.036198497 0.0048236893
-0.42964178 -0.30987042 -0.32009873 0.83813411 0.54397929 0.040221017 0.0049630064
0.43334311 -0.30937916 -0.32525229 -0.91000891 0.41455358 0.0053913719 0.0022020144
-0.43671322 -0.2958262 -0.3230722 0.92019361 0.39146352 1.6965147e-05 0.001065688
0.43779379 -0.29775697 -0.32426766 -0.93544674 0.35333899 0.0095386002 0.00059012353
0.44202518 -0.28501999 -0.32249001 -0.94716406 0.32042575 0.01440689 0.0001853532
-0.44350109 -0.27720618 -0.32910183 0.93725795 0.34836605 0.013734408 7.3812524e-05
-0.44688487 -0.26795202 -0.32239884 0.94195402 0.33551848 0.012245446 1.1477952e-05
-0.44991761 -0.25917545 -0.32873732 0.94271761 0.33331326 0.013628732 0.00012949712
0.45200866 -0.25313461 -0.3208299 -0.95497608 0.29635504 0.013946691 0
-0.45660621 -0.24023813 -0.32824582 0.94324994 0.33179596 0.013819838 0
-0.45854399 -0.23490049 -0.32239324 0.94329327 0.33176318 0.011447296 0
-0.46337122 -0.22119161 -0.32191056 0.94415462 0.32928795 0.011895078 4.0090144e-06
0.46100146 -0.22367781 -0.32367915 -0.96107733 0.27591041 0.01426971 5.991336e-05
-0.46533853 -0.21551847 -0.32466328 0.94456071 0.32806754 0.013295482 0
-0.04020115 -0.21062607 -0.32502186 0.20148948 0.9793157 -0.018515075 0.00072971784
-0.035909954 -0.21163903 -0.3232812 0.20096257 0.97940379 -0.01955127 0.00085584086
-0.022773992 -0.21394943 -0.32108918 0.12181546 0.99228293 -0.023141164 0.00094564352
-0.0035439895 -0.21456581 -0.32700777 0.0023723957 0.99978995 -0.020355893 0.00012566931
0.0071779406 -0.214439 -0.32457206 -0.022310937 0.99926579 -0.031148855 6.4689237e-05
0.023068974 -0.21425158 -0.32408544 -0.049110461 0.99845344 -0.026055321 0.00049382704
0.034709189 -0.21336782 -0.32130241 -0.13428116 0.99056327 -0.027441081 0.001394945
0.46350011 -0.21529418 -0.32494769 -0.9670465 0.25429752 0.01240133 0.00021759754
-0.47067145 -0.20013569 -0.32831141 0.95076776 0.30975914 0.0094792452 0.00012414739
-0.07493405 -0.2014116 -0.32666492 0.33421221 0.9424504 0.0094561819 0.0014136916
-0.046301626 -0.20910035 -0.32909527 0.23885907 0.97092563 -0.015804702 0.00025157334
0.052989215 -0.20931844 -0.32055837 -0.23627718 0.9713906 -0.023945283 0.0002933745
0.066959716 -0.20567657 -0.32093796 -0.26513085 0.96406072 -0.017109288 1.9714489e-05
0.074094981 -0.2036593 -0.32578468 -0.28424343 0.95850748 -0.021658678 0.00013491306
0.46645743 -0.20364986 -0.32514477 -0.96987718 0.24332863 0.011380241 0.00026586792
-0.47270966 -0.19397226 -0.32622656 0.95610422 0.29290792 0.0083405878 0.0003860037
0.10731518 -0.19056128 -0.32780364 -0.46810406 0.88348991 -0.018004809 0.00067653973
-0.47640169 -0.18121038 -0.32463735 0.97365326 0.22778796 0.010585332 0.0013612552
-0.11217363 -0.18306151 -0.32156938 0.5033623 0.86391371 -0.016718326 5.5159555e-05
-0.10088421 -0.18952128 -0.3275525 0.46926668 0.88286197 -0.018533155 0.00049309112
-0.47771537 -0.17512615 -0.32365873 0.98281842 0.18416671 -0.012268089 0.0017598884
-0.12494238 -0.17587566 -0.32293218 0.5294522 0.84798235 -0.024624614 0.00054745207
0.12880255 -0.1778865 -0.32972485 -0.53138334 0.84680271 -0.023597136 0.00037589055
0.13581932 -0.17360453 -0.32749856 -0.554407 0.83192253 -0.023192827 0.00055890542
0.14090763 -0.17030124 -0.32558611 -0.57748699 0.81621331 -0.017452963 0.00095363276
-0.13476475 -0.16953953 -0.32712156 0.59784931 0.8014887 -0.013863835 0.0013671449
0.14385526 -0.16820501 -0.32719857 -0.59684634 0.80213368 -0.018864583 0.0013210973
0.47219497 -0.16599335 -0.32618409 -0.99406976 0.10867839 0.003776724 0
0.15980884 -0.154217 -0.32984081 -0.69365853 0.7201075 -0.016827252 0.00032358526
-0.48043528 -0.14523937 -0.32288888 0.99811292 0.061394453 -0.001176662 0.00012123476
-0.16240703 -0.14376928 -0.32493007 0.71167088 0.70215833 -0.022320801 0.00011170952
0.47480589 -0.14044169 -0.32793814 -0.99484879 0.10130741 0.0035674281 3.3776858e-05
-0.48094073 -0.13276947 -0.32722431 0.99908251 0.042810105 0.0011998159 6.3713858e-05
0.17370459 -0.139631 -0.32010183 -0.73168468 0.68147331 -0.015223368 0.00019701973
-0.17670773 -0.12873779 -0.32574579 0.77184379 0.63505435 -0.031034889 0.0012125879
0.19023347 -0.1209797 -0.32012117 -0.79590386 0.60541975 0.0019716201 0.0011317903
-0.48170409 -0.11453667 -0.32543975 0.99918044 0.0404527 0.0014453387 6.9875394e-05
-0.18549639 -0.11623417 -0.32409987 0.84495521 0.53472596 -0.010904027 0.00020365568
0.19425233 -0.11473773 -0.32511753 -0.84241056 0.53875858 -0.0091508152 0.00048743904
0.47737002 -0.11534551 -0.32205796 -0.99503124 0.09951023 0.0032453549 5.338246e-05
-0.18948662 -0.10986837 -0.32989764 0.85243022 0.52263099 -0.014813266 0.00016319135
0.19789834 -0.10872698 -0.32031101 -0.86001784 0.50996971 -0.017327828 0.00012888967
0.20154071 -0.1026674 -0.32382101 -0.86368644 0.50383377 -0.01404723 6.7638037e-05
0.47837532 -0.10532652 -0.32111692 -0.99514735 0.098348521 0.0030555546 1.604801e-05
-0.20043223 -0.091470413 -0.32621092 0.86960548 0.49353895 -0.014339414 0.00018304602
-0.19848356 -0.094787672 -0.32400316 0.86938745 0.49404883 -0.009006571 0.00015817703
-0.20368335 -0.085576646 -0.3287133 0.88455892 0.46615949 -0.015835674 0.00085138745
0.21167716 -0.084453143 -0.32105032 -0.89316112 0.44957978 -0.011882271 0.00074467907
0.47994792 -0.08930175 -0.32174319 -0.99555039 0.094149575 0.0039183558 0
0.48047066 -0.08389011 -0.3254348 -0.99612153 0.087916143 0.0035673091 7.2884453e-05
-0.48328584 -0.073474981 -0.32696158 0.99941289 0.034224372 0.0015802439 0.00012251901
-0.20704009 -0.079322085 -0.32946488 0.91005319 0.41439328 -0.0090186223 0.0013872418
0.2159507 -0.076310337 -0.32609969 -0.91902512 0.39409044 -0.009249758 0.0014335144
0.48104647 -0.077808708 -0.32820958 -0.9965623 0.082808666 0.00251394 6.0946713e-05
-0.48368278 -0.062142558 -0.3256802 0.99960673 0.027961375 0.0021597825 0
-0.21329835 -0.062837653 -0.32688376 0.94549817 0.32523844 -0.015912073 0.00047206282
0.22021854 -0.065348595 -0.3248038 -0.93702227 0.34926939 0.00035989485 0.0010586085
0.48194128 -0.066578761 -0.32932413 -0.99814153 0.06093628 0.00046955672 0.00019377882
0.22240308 -0.058820143 -0.32597661 -0.94964373 0.31328663 0.0053099776 0.0008388292
0.4824999 -0.055160366 -0.32718831 -0.99907976 0.042838536 -0.0021341054 0.00014922308
-0.48414743 -0.045681715 -0.32501245 0.99985009 0.017235342 0.0016504443 9.997726e-05
-0.21789145 -0.047105975 -0.32802731 0.96442187 0.2642664 -0.0073243515 7.2370269e-05
0.22501688 -0.048828892 -0.3236509 -0.96416873 0.26526138 -0.0038758339 0.00029260977
-0.48423058 -0.035835341 -0.32390741 0.99993026 0.011774698 0.00093399629 2.704852e-05
-0.2216717 -0.0329195 -0.32369131 0.97218025 0.23420937 -0.0033906375 0.00032015025
0.22841856 -0.035270266 -0.32280594 -0.97305781 0.23038597 -0.0089873243 0.00014368605
-0.48421851 -0.026915224 -0.32371914 0.99999946 -0.00063620089 0.00079045445 6.7947927e-05
0.23112826 -0.023999576 -0.32181287 -0.98505092 0.17224327 -0.0026546593 0.0011011262
0.48314667 -0.025999676 -0.32650286 -0.99986005 0.016715745 0.00074283057 0
-0.48414928 -0.019783275 -0.32754397 0.99997151 -0.0074731405 0.0010907406 0
0.48328352 -0.015428631 -0.32819793 -0.99991435 0.012990435 0.0015906957 0
0.23405361 0.0054281829 -0.32177144 -0.99952829 0.030588092 -0.0027546159 0.00065567548
-0.48369515 0.015242215 -0.32728425 0.99991459 -0.013009001 0.0012258249 0
-0.22666112 0.011223657 -0.32483321 0.9996469 0.026420921 -0.0028305755 8.9263129e-05
0.48372617 0.01832235 -0.32688966 -0.99990994 0.013354192 0.0013385452 1.5133249e-06
-0.48360544 0.022626881 -0.32042897 0.99991268 -0.013185713 0.00089864235 3.1595529e-05
-0.22666389 0.024044899 -0.32300264 0.99979246 -0.019377545 -0.0062882607 0.00012847966
0.23400441 0.028028052 -0.3227616 -0.99969703 -0.024051718 -0.0052350587 0.00011266578
-0.48341316 0.036198843 -0.32798231 0.99990886 -0.013403269 0.0016218815 0
0.23369914 0.038511638 -0.321271 -0.99555767 -0.094125211 0.0023174984 0.001025626
-0.48326564 0.04712199 -0.32871819 0.99990839 -0.013444531 0.001587079 0
-0.22596708 0.042447124 -0.32802409 0.99252474 -0.12135323 -0.012965078 0.001247623
0.23311095 0.046218451 -0.32793343 -0.9879787 -0.15417169 0.011366433 0.0010689434
-0.48315865 0.055664577 -0.32318896 0.9999091 -0.013418658 0.0013288138 0
-0.22328278 0.057188243 -0.32952297 0.97960633 -0.20092468 0.00089850475 0.00022340755
0.48417336 0.054348797 -0.32278192 -0.99998033 0.0062641851 -0.00012268993 5.20787e-05
-0.22066838 0.068337761 -0.32893202 0.97197235 -0.23508169 -0.0025016647 0.00018080855
0.23002414 0.061891299 -0.32341957 -0.97424352 -0.22548667 -0.0022981421 0.00044115592
0.4841944 0.061862268 -0.32604828 -0.99999195 -0.0037145247 0.001552993 3.5703077e-05
-0.21915337 0.074629396 -0.32175821 0.96839201 -0.24943043 -0.0011949893 4.0420173e-06
0.22679031 0.073769979 -0.32477286 -0.96630055 -0.25741351 -0.0012718866 0.00022969884
-0.48270068 0.088127151 -0.32601801 0.99947327 -0.032452051 0.0001225482 0.00019137832
0.22467154 0.081498131 -0.32391781 -0.95988679 -0.280191 -0.010507194 0.00011169123
0.48380503 0.084295832 -0.32830504 -0.99940491 -0.034323622 0.003420942 0.00010807551
-0.48258772 0.091653027 -0.32281926 0.99940819 -0.034393661 -0.00059190346 4.8757247e-05
-0.21355487 0.09484484 -0.32393044 0.9449116 -0.3272883 -0.004951322 0.001422383
0.22104976 0.093762025 -0.3217102 -0.9533323 -0.30169043 -0.011842347 0.0003368094
0.48316303 0.095627151 -0.32738265 -0.99814749 -0.060837824 0.00063903484 0
-0.20915656 0.10635299 -0.32100749 0.91084439 -0.41244227 -0.015937967 0.00077311124
0.21735668 0.10459576 -0.32588691 -0.9331845 -0.35882822 -0.02022454 0.0010367581
0.48268801 0.10291106 -0.32472712 -0.99800485 -0.063136891 0.00032526028 2.3737424e-05
-0.48163512 0.11126193 -0.32672775 0.9986375 -0.052072529 0.0034088821 0
-0.20448631 0.11522762 -0.32199734 0.89125067 -0.45349127 0.0042255358 0.00062572723
0.21394533 0.1122383 -0.32318455 -0.92193139 -0.38705382 -0.015231797 0.00084453169
-0.48090711 0.12363868 -0.32522947 0.9982686 -0.058811385 0.0010390558 0
-0.20079589 0.12228896 -0.32135245 0.87488574 -0.48432222 -0.002629054 9.8209865e-05
-0.19225943 0.13716938 -0.32651564 0.86573195 -0.50049341 -0.0038148034 7.9288475e-05
0.48028955 0.13584264 -0.32483882 -0.99728435 -0.073639579 0.0010694931 4.584559e-07
-0.19025914 0.14061588 -0.32376868 0.8555882 -0.51760769 -0.0071529858 0.00051611604
-0.18648714 0.14707665 -0.3261278 0.82400459 -0.56643152 0.013109309 0.001132299
0.19655783 0.14251633 -0.32017744 -0.838965 -0.54414034 -0.0069977245 0.00041510671
0.47942054 0.14746663 -0.32893905 -0.99726474 -0.073879816 0.0021885873 2.52343e-05
-0.47926646 0.15120119 -0.32387269 0.99816263 -0.060579274 0.0012127548 6.9838374e-05
0.18607554 0.15869376 -0.32513401 -0.7846837 -0.61989629 2.3013019e-05 0.0013372594
-0.478163 0.16910715 -0.324689 0.9980824 -0.061888717 0.0011425172 0
-0.17236894 0.16545095 -0.32569182 0.75026977 -0.66112417 -0.0031691333 0.0008639195
-0.16927469 0.16861753 -0.32492572 0.7425648 -0.66977191 -0.0017667579 0.00071980612
-0.47784179 0.17419574 -0.32816255 0.99807048 -0.062075771 0.001362464 0
-0.16124204 0.17683166 -0.32512897 0.71439511 -0.69974262 -2.6258149e-05 0
0.17501742 0.17086014 -0.32612512 -0.71674109 -0.69733739 -0.0016684918 0.00021926654
-0.47745842 0.18042853 -0.32634154 0.99805772 -0.062286332 0.0010953025 0
-0.15727177 0.18090184 -0.32923087 0.70892727 -0.7052744 0.00316649 3.6142454e-05
0.15928689 0.18621667 -0.32790208 -0.68598193 -0.72759664 0.0056346804 0.0001119025
0.16461028 0.18110137 -0.32019728 -0.69850695 -0.7155987 -0.0025543887 8.3802493e-05
0.47690338 0.18128921 -0.32321852 -0.99627101 -0.086238965 0.0026537837 0
-0.47631484 0.19872457 -0.32330498 0.9979701 -0.063680589 0.00071209646 0
-0.14509504 0.19310436 -0.32974574 0.64626676 -0.76310748 -0.002511973 0.0013062182
0.14950372 0.19549194 -0.32597852 -0.64296734 -0.76585549 0.0076448689 0.0011009201
0.15032205 0.19477783 -0.32376578 -0.64294881 -0.76585728 0.0089189075 0.0010043703
0.47533956 0.19867937 -0.32940745 -0.99344432 -0.11430059 0.0019181173 0.00016930468
-0.47564408 0.20934561 -0.32187387 0.99569237 -0.092718191 0.00033605221 0.00023231341
-0.12257266 0.20900899 -0.32024774 0.54134375 -0.84080076 0.00098622369 0.00055028911
0.47435009 0.20612776 -0.32317832 -0.99085593 -0.1349235 -0.0004824624 0.00040833789
-0.47491479 0.21864781 -0.32534301 0.99417639 -0.10774553 0.0020577556 0.00035222355
-0.11127484 0.21567592 -0.32545674 0.50291699 -0.86433083 0.0025878113 6.8961257e-05
0.12672105 0.21134892 -0.32466149 -0.52751189 -0.84954554 0.0018949325 0.00054777984
-0.091629446 0.22670498 -0.3246268 0.43222082 -0.90162939 0.015797814 0.0006809691
0.10324983 0.22453834 -0.32518825 -0.44499603 -0.8955223 -0.0042861896 0.00066353427
-0.47186691 0.23810303 -0.32105166 0.97184116 -0.23539241 0.010733281 0.0028048595
-0.062360227 0.23709679 -0.32632127 0.26937094 -0.9630338 0.0023079477 9.7411481e-05
0.059104774 0.23977913 -0.32582498 -0.23712321 -0.97147793 -0.00175188 9.5429299e-05
0.079063326 0.23445618 -0.32905528 -0.3143988 -0.94920045 -0.013107866 0.0012523286
0.46929663 0.23279522 -0.3241412 -0.9731735 -0.22998722 0.0062679849 0.00031667613
-0.051712949 0.24006353 -0.32651597 0.2556203 -0.96677709 0.00053365628 7.863334e-05
-0.047685381 0.24115518 -0.32294488 0.2497068 -0.9683212 -0.0008010845 0.00024389848
-0.03537982 0.2441172 -0.32070455 0.16290037 -0.98656791 0.012128199 0.0014713698
-0.01607484 0.24616101 -0.32420516 0.085122027 -0.99626982 0.014169215 0.00048338727
0.014318624 0.24649523 -0.32295519 -0.033500638 -0.99942857 0.0045124842 0.00069194916
0.03344994 0.24561203 -0.32444835 -0.15428224 -0.98794562 -0.01266914 0.0013175299
0.042795103 0.24396086 -0.32944658 -0.17336102 -0.98485482 -0.0026348594 0.0016739769
0.46613517 0.24453458 -0.32114676 -0.96628886 -0.25742215 0.0044286856 0.00010917051
0.46117488 0.26222187 -0.32852042 -0.96369594 -0.26689884 0.0074317115 0.00010051822
-0.45938206 0.27030206 -0.3217214 0.91572207 -0.40163898 0.011796587 0
0.45594722 0.28119302 -0.32366061 -0.96274859 -0.27031669 0.0066298577 3.5837442e-05
-0.44766271 0.29665878 -0.32231584 0.91243339 -0.40901971 0.012967182 0
-0.44446135 0.30368161 -0.32394245 0.9109304 -0.4123227 0.013989486 0
0.44911802 0.30534708 -0.3218534 -0.95837301 -0.28546223 0.0056953114 0
-0.43426359 0.32585725 -0.32557964 0.90192175 -0.43172574 0.012244913 0.00017803159
0.44233406 0.32635987 -0.32787558 -0.93259603 -0.36078471 0.0099480366 0.0013569824
-0.43106201 0.33259016 -0.32903743 0.88604558 -0.46303365 0.022868399 0.00061131833
-0.42883971 0.33720666 -0.32602501 0.86872774 -0.49514669 0.011907289 0.00088971091
0.43188214 0.34585467 -0.32318908 -0.81579697 -0.57833332 0.002455784 0.0027999775
0.41931033 0.35985887 -0.32180941 -0.72518599 -0.6881451 0.02369763 0.00017650762
0.4218218 0.35700709 -0.3266899 -0.7447843 -0.6660617 0.040720962 0.00052008976
-0.40638095 0.36673504 -0.32091799 0.72968799 -0.68283927 0.035859488 0.00025789175
0.41614589 0.3629407 -0.3260808 -0.72377634 -0.68940741 0.029416053 0
-0.40057153 0.37234324 -0.32226366 0.70926028 -0.70421821 0.032039545 0.00017076597
0.40011653 0.37933499 -0.32902062 -0.71741009 -0.69576257 0.035173502 1.387812e-05
0.39388472 0.38587946 -0.32521325 -0.71805996 -0.69526523 0.031562656 1.7864142e-05
-0.377891 0.39449281 -0.3246251 0.69882464 -0.71426195 0.038390774 4.684295e-05
0.37319922 0.40723231 -0.32484427 -0.71587896 -0.69748735 0.032072376 0
-0.36154079 0.41018352 -0.32858932 0.69558179 -0.71715683 0.043035615 8.7209657e-05
0.36796436 0.4126142 -0.32567534 -0.70824307 -0.70509648 0.035081856 6.8706388e-05
-0.35086301 0.42101258 -0.32176048 0.69393599 -0.71924877 0.033676304 0
0.3595261 0.42126399 -0.32206166 -0.69933808 -0.71423155 0.02827779 0.00025716287
-0.34091827 0.43031302 -0.32796279 0.68547606 -0.72733498 0.033263095 0.00010651688
-0.33757049 0.43343657 -0.32781437 0.65535051 -0.75384325 0.04728812 0.0008345294
0.34714863 0.43286094 -0.32631943 -0.61804235 -0.7856335 0.02834733 0.0021022966
0.32522291 0.44561779 -0.32961127 -0.4108566 -0.91117167 0.031033169 0.0011829396
0.33648077 0.44058064 -0.32491693 -0.48690021 -0.87317616 0.022169823 0.0031433168
-0.300432 0.45682353 -0.32595235 0.40330911 -0.91453803 0.031014599 0.00046313889
-0.29531306 0.45885006 -0.32564464 0.37301505 -0.92726535 0.032230519 0.00044780396
0.29755741 0.45525903 -0.32093626 -0.31346089 -0.94940102 0.019493056 5.9260925e-05
-0.29239202 0.46009433 -0.32132864 0.36598775 -0.93024021 0.026573755 0.00015864363
-0.28850925 0.46149907 -0.32013696 0.34832183 -0.93704325 0.02493711 0.00018373209
0.26445326 0.46593213 -0.32618397 -0.30847746 -0.95099711 0.021119557 0
0.27606073 0.46233752 -0.32037926 -0.30909717 -0.95084566 0.018746747 9.8515186e-05
0.28049535 0.46080393 -0.32366562 -0.3115209 -0.94989383 0.0256203 3.1689382e-05
-0.23872289 0.47864807 -0.32277936 0.31710058 -0.94814175 0.021779861 0
0.22435841 0.4786936 -0.32707039 -0.27981886 -0.95970929 0.025681464 0.00010269824
0.23779154 0.47456437 -0.32658523 -0.29922369 -0.95394254 0.021419689 0
0.25071213 0.47042745 -0.32481781 -0.30704111 -0.9513998 0.023752725 0
-0.23443907 0.48002282 -0.32581383 0.31697306 -0.94814473 0.023444558 0
-0.22832227 0.48220932 -0.3205761 0.28340745 -0.95881456 0.018834502 8.4453059e-05
0.15539405 0.48964065 -0.32738578 -0.10098586 -0.99472642 0.017923685 2.1376523e-05
0.17320825 0.48789352 -0.32344079 -0.10869142 -0.99395144 0.015708148 1.8265511e-05
0.18901893 0.48617733 -0.32211703 -0.14906836 -0.98862755 0.019854585 0.00031037309
0.20188186 0.48411113 -0.3278583 -0.18163285 -0.98305017 0.024937004 0.00064117566
0.21626906 0.48109987 -0.32436737 -0.23928206 -0.97049361 0.029769845 0.00085494231
-0.17436126 0.49218565 -0.32355165 0.091364197 -0.99571127 0.014547203 5.4400251e-05
-0.13690083 0.49507773 -0.32373834 0.073743507 -0.9971469 0.016124446 0
-0.1201824 0.49624407 -0.32586563 0.071379408 -0.99728709 0.017981656 0
-0.11298565 0.49680424 -0.32341483 0.071528308 -0.99730903 0.016072774 7.4131261e-05
-0.08906994 0.49844906 -0.32461387 0.059593547 -0.99812859 0.013702376 9.7397948e-05
-0.074048765 0.4994874 -0.32135832 0.030681506 -0.99938798 0.016802527 0.00011179555
-0.063268177 0.49970549 -0.32114816 0.019267458 -0.99967504 0.016688952 0.00013129288
-0.045691285 0.49963522 -0.32329333 -0.004077849 -0.99989164 0.014141501 0
-0.033922292 0.49951792 -0.32549849 -0.0097041195 -0.99986058 0.013584628 0
-0.029698443 0.4994927 -0.32503808 -0.011049286 -0.99986118 0.012467409 3.5305438e-05
0.02604901 0.49863181 -0.32526338 -0.015985966 -0.99982458 0.0097630732 4.4905199e-05
0.03494985 0.49848151 -0.32573226 -0.015272629 -0.99983597 0.0097357119 9.6033451e-05
0.043714106 0.49834481 -0.32543656 -0.016223177 -0.99981004 0.010802761 3.3624201e-05
0.062001627 0.49802247 -0.3268173 -0.043913003 -0.99890637 0.016054641 8.2229133e-05
0.084797367 0.49652272 -0.32820076 -0.077235162 -0.99685633 0.01766834 0
0.10332064 0.49479294 -0.32599679 -0.095488697 -0.9953419 0.013281798 0
0.11615093 0.49358362 -0.32366741 -0.097271301 -0.99516451 0.013633934 4.3213345e-06
0.12437579 0.49279839 -0.32248229 -0.097698405 -0.9951368 0.012557218 0.00013475768
0.13401228 0.49187514 -0.32041788 -0.097913951 -0.99512988 0.011372796 6.3717576e-05
0.14060655 0.49109858 -0.32797757 -0.099431843 -0.99488658 0.017718898 0
-0.14048289 -0.49039513 -0.31098396 0.08092802 0.99643296 0.023917332 9.7704658e-05
-0.13489062 -0.49085805 -0.31087935 0.080755107 0.99644476 0.024009835 2.1686734e-05
-0.12804243 -0.49133366 -0.31470007 0.080272675 0.99647713 0.024280956 6.6201337e-06
-0.096906878 -0.49368638 -0.31646833 0.074742511 0.99681377 0.027852288 0
-0.081078336 -0.49498051 -0.31173941 0.059041075 0.99795586 0.024459438 3.0104939e-05
-0.077249534 -0.49514526 -0.3158049 0.053626079 0.99808872 0.030711997 2.710483e-05
-0.05730319 -0.49591571 -0.31433165 0.031071188 0.99926966 0.022245202 0.00010668002
-0.035432987 -0.49629423 -0.31569296 0.01755075 0.9996078 0.021822663 2.2576205e-05
-0.006149054 -0.49679166 -0.31524664 0.015271581 0.99966383 0.020952798 0
0.0074112471 -0.49697036 -0.31581703 0.014066644 0.9997164 0.019214394 2.6581478e-05
0.025116606 -0.49726188 -0.31383276 0.012413039 0.99978471 0.016627876 0
0.031752422 -0.49723214 -0.31951097 0.01184857 0.99962187 0.024814859 0
0.06538137 -0.49745926 -0.3134301 -0.016513765 0.9996962 0.018299196 0
0.084710874 -0.49671745 -0.31521571 -0.043788653 0.9987483 0.024173003 2.514631e-05
0.096231498 -0.49614334 -0.3137843 -0.051506776 0.99848121 0.019554524 0.0001567579
0.11567292 -0.49506816 -0.31564474 -0.055678464 0.99825484 0.019676412 0
0.12686367 -0.4944672 -0.31481367 -0.056065679 0.99821764 0.020449962 2.0252863e-05
0.14489751 -0.4933942 -0.31582314 -0.057278208 0.99816012 0.01988844 0
0.15742156 -0.49271616 -0.31341654 -0.061487123 0.99793017 0.018837659 2.3391676e-05
0.16039857 -0.49252525 -0.31421825 -0.061575059 0.99792492 0.018827172 0
0.17605248 -0.49140731 -0.31875145 -0.095456012 0.99525511 0.018851914 0.00036616175
-0.20670564 -0.48241878 -0.31633201 0.28375989 0.95841628 0.030307056 0.0027565584
-0.19105002 -0.48559037 -0.3145436 0.16538751 0.98570269 0.032204989 0.0011525765
-0.18314055 -0.48650336 -0.31376722 0.12046377 0.99231279 0.028351709 0.00024532981
-0.17580402 -0.48717594 -0.31501985 0.10066924 0.99452186 0.028142573 0
-0.16490121 -0.4881376 -0.31746137 0.0894152 0.99557883 0.028771546 0
-0.15292773 -0.48929033 -0.31438807 0.086371243 0.99587548 0.027785111 0
0.20797291 -0.48650646 -0.31508741 -0.33264133 0.94231474 0.037319962 0.0037284545
-0.22981676 -0.47218391 -0.31797194 0.46840292 0.88194704 0.052611861 0.00073369115
0.22961679 -0.47627676 -0.31028029 -0.46369278 0.88573766 0.021394165 4.0195509e-06
0.23359123 -0.47394097 -0.31537369 -0.46754846 0.88365453 0.023517421 5.8616504e-05
-0.23869666 -0.4675166 -0.31041545 0.49802598 0.86647338 0.034555867 2.785043e-05
0.24815255 -0.46576324 -0.3195177 -0.48591509 0.87358975 0.026971318 0
0.25542176 -0.46175647 -0.31878895 -0.48609164 0.87344426 0.028461602 5.0259281e-05
-0.25180152 -0.45923883 -0.31923884 0.50908661 0.85946262 0.046419904 6.1566425e-05
0.25996721 -0.45929989 -0.31665909 -0.4869017 0.87300259 0.028162939 1.6514015e-05
0.2671504 -0.45522225 -0.31893212 -0.48812693 0.87229288 0.028934387 0.00013850578
-0.28211525 -0.44169202 -0.31107739 0.51059157 0.85893875 0.038993701 2.4026007e-05
-0.27296907 -0.446942 -0.31467593 0.50944948 0.85904086 0.050098643 0.00010126882
-0.26886249 -0.44914299 -0.31876373 0.51042521 0.85831755 0.052508358 0.00018701681
0.28138006 -0.44727644 -0.31755036 -0.4896912 0.87144142 0.02814804 3.3201875e-05
0.29021856 -0.44229531 -0.31783068 -0.48975164 0.87143886 0.027158272 0
-0.29149055 -0.4357807 -0.31793365 0.51021349 0.85833901 0.054188721 0
-0.28798354 -0.43806848 -0.31490529 0.50940311 0.85920531 0.04769399 0
0.31147403 -0.43054202 -0.31017077 -0.52359819 0.85178214 0.017666774 0.00060484989
-0.31425685 -0.42221689 -0.31661016 0.52388209 0.85064226 0.044218574 5.3520565e-05
-0.30838016 -0.42592895 -0.31408051 0.52131987 0.85234421 0.041652691 6.4999891e-05
0.31421468 -0.42891017 -0.31268468 -0.52461272 0.85124749 0.012618153 0.00059488567
0.32415023 -0.42241848 -0.31604621 -0.58299679 0.81234205 0.014668273 0.00098366523
-0.32290748 -0.41664127 -0.31529781 0.57764286 0.81532419 0.039687864 0.00060044683
0.33129305 -0.41703737 -0.31334549 -0.62218338 0.78192067 0.038574684 0.0011518012
0.34479806 -0.40468383 -0.31275207 -0.67590183 0.73621917 0.03373355 0.0001542297
-0.35346216 -0.39061141 -0.31185666 0.70614916 0.7076084 0.025371924 0.00021233123
0.35741812 -0.39246607 -0.31503561 -0.69599026 0.71724939 0.033923939 0
-0.36127287 -0.38249728 -0.31580687 0.71219611 0.70129281 0.031066012 5.2044597e-05
-0.35641384 -0.38760269 -0.31137341 0.70934343 0.70436358 0.026530098 3.3566517e-05
0.36809477 -0.38213572 -0.31379771 -0.69699317 0.71639585 0.031263947 0
-0.36552799 -0.37813342 -0.31601965 0.71402061 0.69942492 0.031294908 0
0.37500387 -0.37545717 -0.31258655 -0.69757533 0.7158038 0.031838153 0
-0.38109857 -0.36216566 -0.31534588 0.71762574 0.69588894 0.027419399 0
-0.37498391 -0.36839423 -0.31687617 0.71716833 0.6963743 0.027063882 8.8808389e-05
0.38482958 -0.36564991 -0.3172572 -0.69780368 0.71496212 0.0435808 8.7397602e-05
0.39577579 -0.35496569 -0.3159368 -0.69911474 0.71416342 0.034772646 2.9568704e-05
-0.40959138 -0.33254087 -0.31923592 0.72866553 0.6838578 0.037216533 0
0.41155225 -0.33951667 -0.31521392 -0.72728777 0.68518388 0.039691672 0.00083578523
-0.41793257 -0.3238816 -0.31786466 0.75493729 0.65486389 0.034971464 0.00065680017
0.42107052 -0.32956874 -0.31370234 -0.79083908 0.61164159 0.021638092 0.0017831703
-0.42559505 -0.31525701 -0.31457067 0.79358459 0.60685384 0.044180468 0.0014774585
0.4323656 -0.31180203 -0.31992352 -0.89166397 0.45269105 0.0025053883 0.003927731
-0.43221191 -0.30595309 -0.31027329 0.86987287 0.49320033 -0.0086368434 0.0035136039
0.43842065 -0.29630068 -0.31496844 -0.9395203 0.34202451 0.017910812 0.00053119211
-0.44112879 -0.28443557 -0.31365275 0.92937088 0.36904338 0.0087608928 0.00049389701
0.44212455 -0.28521717 -0.31051528 -0.94835865 0.31679124 0.016100278 0.00011027803
-0.44519258 -0.2728444 -0.318986 0.94145846 0.33690247 0.012349145 7.6259166e-05
0.44678247 -0.27020684 -0.31306899 -0.95427066 0.29875889 0.010520026 0
-0.44737414 -0.26686671 -0.31464821 0.94281274 0.33314779 0.010797354 0
0.44700611 -0.26926836 -0.31965503 -0.95413899 0.29900244 0.01470474 0
-0.45207971 -0.25358248 -0.31195092 0.94304544 0.33251077 0.010099675 0.00016167022
-0.45573568 -0.24305663 -0.31649041 0.94317377 0.3321327 0.010534464 0
-0.45743102 -0.23827034 -0.31520504 0.94325906 0.33190534 0.010057332 0
0.45770994 -0.23487525 -0.31576437 -0.95636809 0.29196194 0.010874377 0
-0.46100676 -0.22821894 -0.31073216 0.94338864 0.33158818 0.0082016205 0
0.46020436 -0.22672467 -0.3143985 -0.95996118 0.27996156 0.0098056337 0
-0.46498895 -0.21673509 -0.3165735 0.94437116 0.32870626 0.010738146 4.5833414e-05
-0.031975761 -0.21227042 -0.31595671 0.13592987 0.9905045 -0.020587422 0.00086141407
-0.012959557 -0.21434128 -0.31444123 0.077130578 0.99702084 0.0004383944 0.00060673943
-0.0064429734 -0.21443769 -0.31478623 0.043330491 0.999044 -0.005791747 0.00031599947
0.028874457 -0.21373557 -0.31445932 -0.10847989 0.99359542 -0.031626534 0.001119774
0.46400553 -0.21384713 -0.31369647 -0.96733266 0.25344518 0.0057438696 0.00033481853
0.064515233 -0.2063126 -0.31553489 -0.26438159 0.96428162 -0.016230123 3.4026994e-05
0.078052431 -0.20228121 -0.31086001 -0.30646971 0.95159978 -0.023113875 0.00055501203
-0.47318825 -0.19304016 -0.31128252 0.95476317 0.29732528 0.0049906494 0.00028097484
-0.095667176 -0.19232252 -0.31727684 0.44303179 0.89624071 -0.021803314 0.00081032474
-0.085917659 -0.19724847 -0.31774038 0.41064653 0.91160709 -0.01849346 0.00052190956
0.094885193 -0.1964376 -0.31373271 -0.39176959 0.92000782 -0.010107202 0.0011394876
0.46741813 -0.19988453 -0.31720605 -0.97432703 0.22507414 0.0053389403 0.00044999784
-0.47613439 -0.18283921 -0.31696856 0.97798103 0.20841078 0.010864421 0.0012536234
-0.1010653 -0.18927751 -0.31799266 0.48741582 0.87300688 -0.016872158 3.8608199e-05
0.11536022 -0.18561423 -0.31585148 -0.49590042 0.86809701 -0.022140257 0.00017160286
0.4695183 -0.18805009 -0.31416085 -0.98629075 0.16496956 0.0039670654 0.0004088358
-0.47810227 -0.17298466 -0.31460795 0.98872906 0.14913641 0.013159678 0.0013079371
-0.11879957 -0.17928097 -0.31878674 0.51855111 0.85479885 -0.020585883 0.00038992384
0.12776107 -0.17818642 -0.315644 -0.52481925 0.85099024 -0.019502619 0.00021142472
0.13079375 -0.17624202 -0.31180042 -0.53393531 0.84536654 -0.016385147 0.00017933485
-0.14285278 -0.16241159 -0.31534675 0.65030038 0.75960851 -0.010216662 0.0011735081
-0.13686898 -0.1674467 -0.31175065 0.61235726 0.79030538 -0.020878069 0.0013500937
0.14477234 -0.16732201 -0.3185578 -0.61487091 0.78832114 -0.021989141 0.0014025109
0.47235623 -0.16475873 -0.31489554 -0.99375528 0.11153232 0.0033314179 0.00013262179
-0.47984329 -0.15582643 -0.3197532 0.99589986 0.09039212 0.0035673275 0.00024455728
-0.15116128 -0.15452063 -0.311535 0.67796332 0.7349394 -0.015164636 0.00015213237
-0.14869076 -0.15696226 -0.31521121 0.66953897 0.74253869 -0.018808933 0.00046181289
0.16252428 -0.15094617 -0.31598011 -0.69512588 0.7187205 -0.015516984 0.00025578594
-0.48028061 -0.14830756 -0.31579006 0.99765313 0.068099402 0.0071198707 0
-0.16180082 -0.14423805 -0.31500882 0.70956224 0.70456117 -0.010732059 0.00016223647
0.16473174 -0.14869656 -0.31585562 -0.70338744 0.7106666 -0.014110874 0.00014206023
0.47437364 -0.14521776 -0.31262463 -0.99485368 0.10128108 0.0028731141 0
-0.48086706 -0.13556463 -0.31268626 0.99907213 0.043052167 0.0011845554 2.0204638e-05
0.47557935 -0.13334811 -0.31290287 -0.99490386 0.10079561 0.0025681104 0
-0.48126122 -0.12571074 -0.31505927 0.99912816 0.04173775 0.00087824854 0
-0.17904922 -0.12540424 -0.31002474 0.77695346 0.62950879 -0.007875069 0.0012074078
0.19030708 -0.12069589 -0.31528684 -0.81028634 0.58579892 -0.016602211 0.0011300925
0.19619523 -0.11160317 -0.31880873 -0.8488633 0.52848864 -0.011441295 0.00044270325
0.47719514 -0.11736276 -0.31507373 -0.99502093 0.099629775 0.0026991388 8.9509849e-05
-0.48199406 -0.10741429 -0.31433749 0.99920052 0.039971169 0.00071952498 0
0.20609839 -0.094469868 -0.3121767 -0.86896825 0.49473864 -0.011309122 7.0825285e-05
-0.48298293 -0.082209036 -0.31693149 0.99929905 0.037409704 0.0014196089 0
0.21077833 -0.085903026 -0.31231317 -0.88784719 0.46005043 -0.0089998506 0.00035700508
0.4805842 -0.082914241 -0.31493673 -0.99587715 0.090692937 0.001846449 0
-0.20852865 -0.075310238 -0.31400803 0.91917491 0.39383447 -0.0034612629 0.00083051965
0.48092803 -0.079258285 -0.31493783 -0.99657601 0.082655899 0.0020906001 0
-0.48372114 -0.061607536 -0.31136292 0.99958974 0.028611466 0.0013221357 7.8735306e-05
-0.48390985 -0.056158882 -0.31745315 0.99970156 0.024368435 0.0017213097 0
-0.21689661 -0.050335314 -0.31683069 0.95884728 0.28373075 -0.010423102 0.00013862571
-0.48411399 -0.048239287 -0.31736708 0.99982172 0.018842621 0.0012270201 4.6201443e-05
0.48279878 -0.046682052 -0.31626239 -0.99953181 0.030575454 0.0011174398 6.0624778e-05
-0.22216262 -0.030867912 -0.31343865 0.97806478 0.2082794 -0.0030203802 0.00056770031
-0.21999229 -0.038922779 -0.31010923 0.96968782 0.24434468 -0.0010879529 0.0003507389
0.48307991 -0.031196065 -0.31201321 -0.9998548 0.017028566 0.00068273483 0
0.23101239 -0.024479039 -0.31835383 -0.97809571 0.2078955 -0.010400518 0.0003515401
-0.22531725 -0.015253183 -0.31632543 0.99200577 0.12599809 -0.0069946949 0.001366762
0.48329481 -0.015456433 -0.31469873 -0.99990827 0.013531311 0.00053050119 0
-0.48400021 -0.0078011258 -0.31232634 0.9999274 -0.012049609 -2.2958207e-05 0.00017619257
0.23353237 -0.009728469 -0.31072825 -0.99416941 0.10752749 0.0080604646 0.0008304083
-0.4838247 0.0057161329 -0.31848171 0.99991488 -0.013025975 0.00070216501 3.2934577e-06
-0.22645257 0.0042838557 -0.31568804 0.99933201 0.036527701 -0.0011079536 0.00017958632
0.48352146 0.0017089099 -0.31224477 -0.99991423 0.013078126 0.00074384647 8.3621308e-05
-0.48366502 0.018278733 -0.31347769 0.99991506 -0.013011453 0.00076456496 0
-0.22664657 0.013737496 -0.31751925 0.99973977 0.021898374 -0.0063965619 0.00010633032
0.23408487 0.015231797 -0.31309134 -0.99999398 -0.0031527404 -0.0014198358 4.6737779e-05
-0.22664928 0.023791589 -0.31632611 0.99986279 -0.016432101 -0.0020915146 0.00013860795
0.48384386 0.026708635 -0.31770042 -0.99992442 0.012289924 0.00015252533 3.0527994e-05
0.23385297 0.031870004 -0.31188303 -0.99910873 -0.042208802 -0.00050139753 0.00078972668
-0.22550073 0.046159677 -0.31164166 0.99124891 -0.1319958 -0.0016283164 0.0010771562
-0.48319635 0.053626981 -0.3155883 0.99991119 -0.013275283 0.0011799685 0
0.4841615 0.053535867 -0.31765857 -0.99997985 0.0063238777 -0.00041043741 0
-0.22250299 0.060453769 -0.31582949 0.97626609 -0.21657421 9.1569294e-05 0.0001340225
0.23035081 0.060209077 -0.31383377 -0.97944576 -0.20164755 0.0049260845 0.00085798866
0.48420322 0.064671844 -0.31226867 -0.9999299 -0.011346894 -0.0033795869 7.2695002e-05
-0.48294687 0.072613329 -0.31183681 0.99987209 -0.015980111 0.00056591025 3.2411663e-05
0.22536111 0.078990959 -0.31926504 -0.95994282 -0.28014153 -0.0055210087 9.5730189e-05
0.48407093 0.076397985 -0.31378788 -0.99966079 -0.025941685 0.0023344399 0.00014289815
0.22346695 0.085728787 -0.31443462 -0.95646715 -0.29181737 -0.0036407355 0.00029168383
-0.21377078 0.094082318 -0.31710309 0.94418085 -0.32929748 0.0092541836 0.0015692334
-0.48197144 0.10565671 -0.31530577 0.99873632 -0.050240863 -0.0012431791 1.0022693e-06
-0.21025404 0.10382748 -0.31728595 0.91353643 -0.40618405 -0.021579623 0.00082895171
0.21676487 0.10599142 -0.31219947 -0.92850566 -0.3713026 0.0034147524 0.0012736758
-0.20628482 0.11177208 -0.3171781 0.91096932 -0.41225064 -0.013577902 0.00092690875
0.21504328 0.11007109 -0.31698704 -0.92012841 -0.39156809 -0.0061716801 0.00078771956
-0.48072577 0.12678242 -0.31837755 0.99825865 -0.058983032 0.00080637669 0
-0.20141158 0.121096 -0.31609613 0.88477796 -0.46591294 0.009652325 0.00052359176
-0.19798854 0.12743226 -0.31122291 0.87480044 -0.48443919 0.0065466599 8.4174972e-05
0.20529968 0.12792167 -0.31296265 -0.87000209 -0.49302492 0.0047621555 0.00016178204
0.48077565 0.12937897 -0.31118453 -0.99733865 -0.07290674 0.00046432583 0
-0.48035121 0.13318907 -0.31337741 0.9982549 -0.059047312 0.00071728852 4.4514265e-05
0.19905578 0.13838676 -0.31107399 -0.8538478 -0.52052122 -0.0012470786 0.00014864546
-0.18734196 0.14567989 -0.3151142 0.84120607 -0.54069859 0.0041832086 0.00090971746
0.19364813 0.14737043 -0.3133646 -0.83230555 -0.55428725 -0.0057475721 0.00043216659
0.4798072 0.14259399 -0.31427547 -0.99728322 -0.07365828 0.00077890104 0
-0.47821552 0.16850257 -0.31566912 0.99808151 -0.061904706 0.0010317334 0
-0.17462862 0.16311979 -0.31215316 0.7724399 -0.63508391 0.0022589511 0.0012679384
0.17992809 0.16560206 -0.31246054 -0.76915568 -0.63904732 0.0042429143 0.001191854
-0.47807372 0.17077641 -0.31618083 0.9980762 -0.061989337 0.0010756112 0
-0.15873034 0.17944247 -0.31045705 0.71193039 -0.70224959 0.00075035437 0.00010278756
0.16886538 0.17702544 -0.31701934 -0.70453978 -0.70966399 -0.00092499476 0.00013470685
0.47736716 0.17523313 -0.31011456 -0.99699891 -0.077409439 0.00098970369 3.565599e-05
-0.15295704 0.1853524 -0.31422135 0.69106376 -0.72279179 0.0017058207 0.00051526417
-0.14889351 0.18948086 -0.31231093 0.67506737 -0.7377274 -0.0065029226 0.00071826397
0.15755348 0.18792973 -0.31372342 -0.68112314 -0.73216867 -0.00067271839 0.00028781255
0.47657555 0.18503818 -0.31621721 -0.99580413 -0.091510318 0.00025643961 0.00022618449
-0.14577982 0.19246227 -0.31320474 0.6519773 -0.75823617 0.001864736 0.0013867042
0.14863656 0.19628449 -0.31085056 -0.62521249 -0.78044897 0.0029599501 0.0013581006
0.4757444 0.19435361 -0.31616339 -0.99448371 -0.10486784 -0.002201926 0.00014370053
-0.13092938 0.20392931 -0.31924531 0.57395464 -0.81877464 -0.013569284 0.0009283559
-0.12531002 0.20739898 -0.31763914 0.55217314 -0.83372134 0.0036792718 0.00053112191
-0.47534126 0.21379244 -0.31515205 0.99511039 -0.09864261 0.0049912212 0.00019707001
-0.10812756 0.21763605 -0.31199962 0.49850336 -0.86686784 0.005869884 8.8324021e-05
0.11191943 0.21981096 -0.31246108 -0.47205052 -0.88154864 -0.006341259 0.00021331751
0.12056944 0.21486624 -0.31560078 -0.50081921 -0.86553776 0.0049503953 0.00013354466
0.47235066 0.21942972 -0.31637028 -0.98122782 -0.19284643 -0.0014987915 0.00054794835
-0.089069888 0.22800851 -0.31361619 0.40267393 -0.91532654 0.0055731572 0.0011585942
0.097340286 0.22751267 -0.31921542 -0.43583515 -0.90001881 -0.0037027581 0.00043121132
0.10424786 0.22402295 -0.3165229 -0.46091747 -0.88742828 -0.005105088 0.00024613479
-0.47271192 0.23455864 -0.31518537 0.97803849 -0.20776798 0.016526854 0.0016223828
-0.055784065 0.23895341 -0.31642869 0.26164517 -0.96516401 -0.00037020608 0.00014871049
0.46833533 0.23660383 -0.31440493 -0.96786541 -0.25138485 0.0064984402 8.7105116e-05
-0.041050419 0.24278572 -0.31500566 0.20302904 -0.97917265 -0.00026766633 0.00090094598
-0.03661878 0.24383378 -0.31457925 0.17152616 -0.98509836 0.012651812 0.0012556056
-0.019084588 0.24612886 -0.31059754 0.077627525 -0.99696249 0.0063182497 0.00052182062
-0.0074443044 0.24635684 -0.31240666 0.041029431 -0.9991315 0.0072667045 0.00038999508
0.025346702 0.24632078 -0.31991944 -0.076507516 -0.99698895 0.012636323 0.00068262446
0.035048991 0.2453914 -0.31039527 -0.15749095 -0.98751301 -0.0038417638 0.0012441241
0.042777881 0.24394444 -0.31570566 -0.16914813 -0.98558968 -0.0013673296 0.0010538681
0.46558154 0.24666452 -0.31428123 -0.96615887 -0.25791401 0.0041668531 0
-0.46763831 0.25141427 -0.31028971 0.94190377 -0.33566794 0.012011724 0.0011203389
-0.46175951 0.26499239 -0.3183971 0.92145425 -0.38818586 0.015289207 0.00019855938
0.46089098 0.26377201 -0.31099701 -0.96373206 -0.26683044 0.0047028577 0.00013788679
-0.45657286 0.27685392 -0.31518659 0.91519904 -0.40285829 0.010768057 0
0.45688403 0.27794701 -0.31951389 -0.9629395 -0.26964924 0.0060756453 0.00011254605
-0.45184812 0.28755593 -0.312558 0.91321057 -0.40732753 0.01144006 0
-0.4489677 0.2939851 -0.31330287 0.91270798 -0.40845019 0.011511164 0
-0.4441652 0.30451226 -0.31894693 0.9108448 -0.41256765 0.012231955 1.274108e-05
0.44786608 0.30975318 -0.31670785 -0.95587683 -0.29365423 0.0081586502 0.00010761219
0.44496766 0.31940874 -0.3127431 -0.95092404 -0.30928004 0.0094529483 0.00013689522
0.44136286 0.32939249 -0.31255966 -0.90277612 -0.43004683 0.0074096788 0.0027352662
-0.42995659 0.33526236 -0.31979868 0.87012637 -0.49276948 0.0076431278 0.00068205287
-0.4230051 0.34743565 -0.31783167 0.82640278 -0.56296396 0.011405257 0.0031001519
-0.41664398 0.35588229 -0.31451809 0.77324754 -0.63253546 0.044578616 0.0015460069
0.42636046 0.35254622 -0.31377682 -0.7805168 -0.62446761 0.028873114 0.0021473255
-0.40437689 0.36899865 -0.31437993 0.71861231 -0.69484991 0.027929882 0.00026179105
0.41228935 0.36732095 -0.31561854 -0.72049153 -0.69319308 0.019375259 0.00018867163
-0.39753321 0.37572974 -0.31531593 0.70500034 -0.70864749 0.028166804 8.3750718e-05
0.4018181 0.37802532 -0.31755894 -0.71756053 -0.69613892 0.02230389 3.5927522e-05
-0.38340136 0.38951263 -0.31675291 0.69863927 -0.71483797 0.030162266 0
0.3922382 0.38810852 -0.31160012 -0.71782756 -0.69594204 0.019705199 0
-0.37381324 0.398857 -0.31758469 0.6986931 -0.71473783 0.031270083 0
0.38986188 0.3902657 -0.31857467 -0.71636957 -0.69728011 0.024800144 0.00017318146
-0.36928341 0.4032861 -0.31679285 0.69738269 -0.71614045 0.028288584 2.9426503e-05
0.3745544 0.40613711 -0.3178325 -0.71536118 -0.69843525 0.021132106 0
0.38064128 0.40001011 -0.31391606 -0.71580929 -0.69799107 0.020628845 0.00010905415
-0.35983741 0.41240957 -0.31912833 0.69638664 -0.71702963 0.03023611 6.6638357e-05
0.36568928 0.41528076 -0.31730667 -0.70855302 -0.70525867 0.023725558 0.00010019487
-0.333186 0.43806785 -0.31334904 0.65167946 -0.75805241 0.025892401 0.0009065909
0.34294686 0.4365533 -0.31810474 -0.58401358 -0.81107193 0.033021681 0.0020471814
-0.32513633 0.44449091 -0.3142634 0.54771495 -0.83584672 0.03699353 0.0020951664
0.3307451 0.44366783 -0.31184417 -0.43682265 -0.89927739 0.022049403 0.0041570552
-0.30367905 0.45586473 -0.31378645 0.40799707 -0.91281396 0.017578386 0.0010441623
0.30765691 0.45207363 -0.31156522 -0.32475609 -0.94565874 0.016216276 0
0.31129888 0.45064944 -0.31994122 -0.33682594 -0.94130212 0.022331111 0.00019859188
-0.29250786 0.46015412 -0.3153857 0.36420223 -0.93121284 0.014115931 0.00031649222
0.25972438 0.46771127 -0.313232 -0.30799255 -0.95127761 0.014544649 0
0.27570829 0.46250033 -0.31639823 -0.30902377 -0.95091897 0.016041799 0
-0.25844944 0.47213456 -0.31188565 0.32780024 -0.94462413 0.015242538 0
-0.24503571 0.47663656 -0.31739163 0.32098776 -0.94691998 0.017590901 0
0.22326088 0.47930825 -0.31478572 -0.28018749 -0.95979476 0.017002437 0.00028800752
0.24078341 0.47381598 -0.31726331 -0.30112371 -0.95342356 0.0175517 1.042645e-05
0.25069067 0.47062436 -0.31498942 -0.30615219 -0.95184231 0.016339993 4.1828735e-05
-0.20327628 0.4888075 -0.31518745 0.20380871 -0.97896582 0.0093804123 0.00070527481
0.15649132 0.4896884 -0.3145088 -0.10006624 -0.99493372 0.0096722161 0
0.16538534 0.4888193 -0.3125422 -0.10229652 -0.99469638 0.010703059 1.0216357e-05
0.18231666 0.48702899 -0.31403765 -0.11098837 -0.99374992 0.011940417 7.6069817e-05
0.21626879 0.48127666 -0.31576601 -0.24720493 -0.96877468 0.019112682 0.00064088334
0.22088374 0.48008659 -0.31050637 -0.2772764 -0.96062642 0.017741581 0.00026699394
-0.19531468 0.49006426 -0.31149739 0.12904692 -0.99144763 0.019453425 4.5507357e-05
-0.1638675 0.49312949 -0.31697083 0.080015257 -0.99669385 0.014103571 4.761359e-05
-0.15231034 0.49405202 -0.31273893 0.076381564 -0.99700499 0.012118679 0
-0.14491935 0.49458855 -0.3159737 0.075765111 -0.99704397 0.012769447 5.0908593e-06
-0.12317738 0.49625683 -0.31062961 0.072876379 -0.99727023 0.011879297 1.187949e-05
-0.083756745 0.49900526 -0.31734687 0.059503205 -0.99813086 0.013937311 7.090834e-05
-0.064117558 0.49975321 -0.31808811 0.025213674 -0.99957806 0.014422656 7.523704e-05
-0.051834755 0.49978772 -0.31114146 -0.0024859568 -0.99995768 0.008855042 6.6780958e-05
-0.017650997 0.49941999 -0.31903285 -0.013297494 -0.99985188 0.010925759 0
-0.0028304514 0.49918967 -0.31722426 -0.014974314 -0.99984622 0.0091264825 6.4319378e-05
0.0062903836 0.49906936 -0.31318313 -0.015891319 -0.99983841 0.0083987582 0
0.016566787 0.49888945 -0.31508934 -0.015844047 -0.9998349 0.0088893948 0.00011490005
0.023080466 0.4987725 -0.31679174 -0.016035493 -0.99982923 0.0091860555 2.5081354e-05
0.040247697 0.4984968 -0.3157956 -0.015702499 -0.9998402 0.0085438462 0
0.059809078 0.49823213 -0.31207752 -0.036552329 -0.9993028 0.0075989207 9.7540724e-05
0.076249421 0.49729857 -0.31812239 -0.071059458 -0.99739009 0.01279081 0.00017908153
0.083788678 0.49677694 -0.31608883 -0.082145669 -0.99658287 0.0086357417 0
0.10213901 0.49502262 -0.31448156 -0.094580814 -0.99547893 0.008725686 0
0.13357052 0.49195576 -0.31504303 -0.098270573 -0.99512166 0.0087079108 0
-0.12920561 -0.49140614 -0.30648419 0.080709636 0.9964512 0.023894006 0
-0.1163424 -0.4924733 -0.30531687 0.079112291 0.9966011 0.022968108 0
-0.10658158 -0.49325731 -0.30483857 0.077019095 0.99679303 0.02171647 3.8787311e-05
-0.080587104 -0.49512911 -0.30708408 0.061182979 0.99789286 0.021596994 1.8156434e-05
-0.074533105 -0.49549723 -0.30786589 0.05397528 0.99810499 0.029549502 0.0001261568
