ply
format ascii 1.0
comment PCL generated
element vertex 1311
property float x
property float y
property float z
element camera 0
property float view_px
property float view_py
property float view_pz
property float x_axisx
property float x_axisy
property float x_axisz
property float y_axisx
property float y_axisy
property float y_axisz
property float z_axisx
property float z_axisy
property float z_axisz
property float focal
property float scalex
property float scaley
property float centerx
property float centery
property int viewportx
property int viewporty
property float k1
property float k2
end_header
0.11161898 0.65911698 -0.080323219
0.13205668 0.6596908 -0.07825315
0.15252581 0.66026169 -0.076193094
0.17302753 0.66083717 -0.074116468
0.1937608 0.66231066 -0.068799257
-0.11303447 0.68325478 -0.067052841
-0.092420317 0.6823054 -0.07038641
-0.071857817 0.6813584 -0.073711157
-0.051346757 0.68041366 -0.077027798
-0.03088695 0.67947137 -0.080336213
0.11161137 0.67940485 -0.080570221
0.13204716 0.67999429 -0.078500748
0.15251435 0.68058079 -0.076440811
0.17301415 0.68117231 -0.074364781
0.19374382 0.68267882 -0.069074869
-0.11302032 0.7036382 -0.067315578
-0.092408814 0.70266718 -0.070635319
-0.071848251 0.70169461 -0.073959708
-0.051339127 0.70072466 -0.077275515
-0.030881239 0.6997571 -0.080583334
0.11160376 0.69968849 -0.080817461
0.13203713 0.70029008 -0.078761339
0.15250291 0.70089632 -0.076688647
0.17300007 0.7014997 -0.07462585
0.19372685 0.70304292 -0.069350362
-0.092501491 0.72370207 -0.068628669
-0.071906649 0.72255719 -0.072442293
-0.051372461 0.7214312 -0.076193094
-0.030903174 0.72039831 -0.079633474
0.1116326 0.72032392 -0.079880834
0.13207726 0.72097307 -0.077718973
0.15255475 0.72161931 -0.075566411
0.17307755 0.72233325 -0.073188066
0.19387563 0.72421062 -0.066934705
0.030186849 0.74310476 -0.072023511
0.0097367726 0.74423099 -0.06836617
0.050638139 0.7442795 -0.068208575
-0.23616298 -0.50402951 -0.06338191
-0.21673189 -0.50587994 -0.051935554
0.030186849 -0.07377214 -0.049394727
0.030186849 -0.05319085 -0.051310778
0.050784301 -0.05317466 -0.049221754
0.0096035339 -0.032605495 -0.051058173
0.030186849 -0.032638825 -0.053223968
0.050769553 -0.032606687 -0.051137924
-0.011002315 -0.011988338 -0.049594641
0.0096179564 -0.012065455 -0.052931905
0.030186849 -0.012115069 -0.055081487
0.050755229 -0.012066934 -0.052998424
0.07135573 -0.012018755 -0.050911903
-0.010975892 0.0085533708 -0.051310778
0.0096311364 0.0084507093 -0.054643869
0.030186849 0.0083850548 -0.056777477
0.050742153 0.0084490851 -0.054696918
0.071329542 0.0085132569 -0.052613139
0.091949083 0.0085775778 -0.050526142
-0.031594746 0.029197216 -0.049687624
-0.010949502 0.029068671 -0.053024888
0.0096442979 0.028940566 -0.056353688
0.030186849 0.028859146 -0.058471322
0.050729092 0.028939083 -0.056393385
0.071303375 0.029019207 -0.054312348
0.091909781 0.029099427 -0.052227855
0.11254837 0.029179789 -0.050140381
-0.031555422 0.049712427 -0.051390529
-0.010923149 0.049557857 -0.054736733
0.0096574426 0.049404293 -0.058061361
0.030186849 0.049307272 -0.060163021
0.05071605 0.049403101 -0.058087826
0.071277253 0.04949908 -0.056009173
0.091870531 0.049595155 -0.053927541
0.11249596 0.049691513 -0.051842451
0.1331536 0.049787916 -0.049754143
-0.052186154 0.070380621 -0.049767613
-0.031515837 0.070200793 -0.053104401
-0.010896826 0.070020683 -0.056446433
0.0096705724 0.069841869 -0.059766769
0.030186849 0.069730081 -0.061839342
0.050703123 0.069841869 -0.059766769
0.071251154 0.069952928 -0.057704091
0.091831326 0.070065044 -0.055624962
0.1124436 0.070177205 -0.053542733
0.13308807 0.07028956 -0.051456928
0.1537648 0.070402168 -0.049368143
-0.052138634 0.090878882 -0.051310778
-0.031479977 0.090672754 -0.054657102
-0.010873182 0.090467997 -0.057981849
0.0096823629 0.090263717 -0.06129837
0.030186849 0.090136282 -0.063368797
0.050691336 0.090263717 -0.06129837
0.071227744 0.09039142 -0.059224844
0.091796152 0.090519391 -0.057148099
0.11239664 0.090647452 -0.055068254
0.13302925 0.090775691 -0.052985072
0.15369411 0.090904288 -0.050898671
-0.072790675 0.11158738 -0.049474716
-0.052091993 0.11135518 -0.052825689
-0.031445391 0.11112454 -0.056154966
-0.010850178 0.11089449 -0.059476018
0.0096938349 0.11066502 -0.062788725
0.030186849 0.11052265 -0.064843655
0.050679963 0.11066587 -0.062775612
0.071204968 0.11080944 -0.060704589
0.091761932 0.11095313 -0.05862999
0.11235093 0.11109705 -0.056552291
0.13297154 0.11124029 -0.054484725
0.15362473 0.11138465 -0.052400589
0.17431019 0.11152937 -0.050313234
-0.072732292 0.13206616 -0.050991774
-0.052045807 0.13180944 -0.054325461
-0.031410836 0.13155347 -0.057651162
-0.010827204 0.13129809 -0.060968399
0.0097052958 0.13104334 -0.06427753
0.0506685 0.13104442 -0.064264417
0.071182013 0.13120365 -0.062195539
0.091727443 0.13136324 -0.060123444
0.11230487 0.13152301 -0.058048129
0.13291439 0.13168302 -0.055969596
0.15355605 0.13184321 -0.053887606
0.17422922 0.13200265 -0.051815987
-0.072674483 0.15252274 -0.052493453
-0.051999673 0.15224081 -0.055823803
-0.031376325 0.15195948 -0.05914557
-0.010804249 0.15167895 -0.06245923
0.071159281 0.15157628 -0.063671708
0.091693297 0.15175149 -0.061601877
0.11225887 0.15192601 -0.059542179
0.1328568 0.15210181 -0.05746603
0.15348683 0.15227783 -0.055386424
0.17414905 0.15245432 -0.053303719
-0.093335778 0.17327321 -0.050566077
-0.072619796 0.1729638 -0.053914309
-0.051956035 0.17265651 -0.057240844
-0.031343371 0.17234877 -0.060572505
-0.010782341 0.17204297 -0.06388247
0.071137391 0.17193106 -0.065093756
0.09166041 0.17212215 -0.06302619
0.11221536 0.17231339 -0.060955167
0.13280231 0.17250505 -0.058881283
0.15342136 0.17269683 -0.056803942
0.17407253 0.17288905 -0.054723382
-0.093275592 0.19372988 -0.051869154
-0.072570279 0.19339639 -0.055200934
-0.051916108 0.19306251 -0.058537483
-0.031313807 0.19273067 -0.061852694
-0.010762474 0.19239843 -0.065172553
0.091630898 0.19248545 -0.064303875
0.11217595 0.19269237 -0.062234998
0.13275297 0.19289979 -0.060163021
0.15336207 0.19310749 -0.058087826
0.17400326 0.19331551 -0.056009173
-0.11396304 0.21452767 -0.0498209
-0.093216069 0.21416804 -0.053157568
-0.072520293 0.21380779 -0.056499481
-0.051876634 0.21345004 -0.05981946
-0.031283975 0.21309164 -0.063144803
0.11213658 0.21305203 -0.063513517
0.13270369 0.21327496 -0.061443567
0.15330282 0.21349847 -0.059370399
0.17393404 0.2137222 -0.057293892
0.19488366 0.21444732 -0.050566077
-0.11389349 0.23497143 -0.05111146
-0.093156002 0.23458505 -0.054458141
-0.072470874 0.2342011 -0.057783365
-0.051836789 0.23381656 -0.061113715
-0.031254463 0.23343453 -0.064422488
0.11209765 0.23339349 -0.064777851
0.13265495 0.23363221 -0.062709689
0.15324426 0.23387134 -0.060638428
0.1738656 0.23411092 -0.058564067
0.19479771 0.23487329 -0.051962137
-0.11382331 0.25539392 -0.05241406
-0.093096599 0.25498366 -0.05574429
-0.072420985 0.2545729 -0.059079647
-0.051797383 0.25416476 -0.062393308
0.13260576 0.25396845 -0.063987851
0.15318513 0.25422329 -0.061918497
0.1737965 0.25447848 -0.059846044
0.19471182 0.25527781 -0.053356767
-0.11376391 0.27582255 -0.05351615
-0.093045816 0.27538696 -0.056843638
-0.072378777 0.27495092 -0.060176253
-0.051763296 0.27451605 -0.063500524
0.13256371 0.27430928 -0.065080523
0.15313458 0.27457976 -0.063012958
0.17373744 0.27485076 -0.060942054
0.19463907 0.27568889 -0.054537654
-0.13458376 0.29696175 -0.049368143
-0.11370599 0.29623801 -0.054590821
-0.092995696 0.29577556 -0.05792892
-0.072337106 0.29531404 -0.061258793
-0.051730037 0.29485384 -0.064580321
0.15308529 0.29492325 -0.064080119
0.17367986 0.29520983 -0.062010765
0.19456723 0.29608384 -0.055704474
-0.13450997 0.31738278 -0.050565958
-0.11364742 0.31663507 -0.05567801
-0.092945606 0.31614742 -0.059013486
-0.072295465 0.3156606 -0.062340498
0.15303543 0.3152484 -0.065159559
0.17362159 0.31555066 -0.063091993
0.19449626 0.31646264 -0.056856871
-0.13443626 0.33778569 -0.0517627
-0.11358888 0.33701569 -0.056764245
-0.09289556 0.33650252 -0.060096979
-0.072253861 0.33599073 -0.063421369
0.17356411 0.33587724 -0.064159155
0.19442452 0.33682212 -0.058021545
0.2155049 0.33804569 -0.050073743
-0.13437 0.35818952 -0.052839041
-0.11353539 0.35739443 -0.05775702
-0.092849821 0.3568562 -0.061087251
-0.07221584 0.35631919 -0.064409137
0.17351089 0.35620001 -0.065146327
0.19435856 0.3571786 -0.05909276
0.21543208 0.35846668 -0.051124573
-0.1343095 0.37859279 -0.053821325
-0.11348835 0.37777841 -0.058630109
-0.092809603 0.37721488 -0.061958313
0.19430079 0.37754121 -0.060030937
0.21536577 0.3788875 -0.052081704
-0.13424987 0.39898351 -0.054789782
-0.11344062 0.39814657 -0.059515595
-0.092768796 0.3975578 -0.062841535
0.19424306 0.39788958 -0.060968518
0.21530043 0.39929584 -0.053025007
-0.13419028 0.4193593 -0.055757523
-0.11339363 0.41850391 -0.060387492
-0.09272863 0.41788983 -0.063711286
0.19418536 0.41822344 -0.061905384
0.21523513 0.41968992 -0.053967237
-0.1133467 0.43884757 -0.061258912
-0.092688486 0.43820843 -0.064580321
0.19412769 0.43854293 -0.062841535
-0.13413154 0.43972275 -0.056711316
0.2151708 0.44007203 -0.054895759
-0.13408668 0.46011689 -0.057439446
-0.11331114 0.4592202 -0.061918497
0.19408388 0.45889321 -0.063553095
0.21512121 0.46048257 -0.05561173
-0.34017467 0.48177013 -0.05205512
-0.25661305 0.47934201 -0.063737512
-0.23666896 0.48046675 -0.058325887
-0.21682768 0.48201063 -0.050898433
-0.13404189 0.48049983 -0.0581671
-0.1132756 0.47958311 -0.062577844
0.19403927 0.47922978 -0.06427753
0.21507071 0.48087952 -0.056340575
-0.15517363 0.50290477 -0.049461365
-0.13399708 0.5008716 -0.058894396
-0.11323938 0.49993286 -0.063250065
0.19399549 0.499558 -0.064988375
0.21502118 0.50126791 -0.057055473
-0.15512197 0.52333415 -0.0502069
-0.1339515 0.52122939 -0.059634566
-0.11320388 0.52027524 -0.063908935
0.21497074 0.52164268 -0.057783365
0.2361173 0.52342623 -0.049794197
-0.15508233 0.54379189 -0.050778747
-0.1339149 0.54160935 -0.060228944
-0.11317408 0.54063177 -0.064461827
0.2149304 0.54203969 -0.058365464
0.23607326 0.54388708 -0.050366521
-0.15504733 0.56425673 -0.051284194
-0.13388318 0.56199926 -0.060744047
-0.11314926 0.56100214 -0.064922571
0.21489653 0.56245011 -0.058854699
0.23603433 0.56435513 -0.050871968
-0.1338523 0.58238435 -0.061245561
0.21486172 0.58284962 -0.059357166
-0.15501142 0.58471054 -0.051802635
0.23599645 0.58481872 -0.051364064
-0.15497552 0.6051566 -0.052320838
-0.13382059 0.60275859 -0.061760187
0.21482785 0.60324496 -0.059846044
0.23595859 0.60527468 -0.051855803
-0.1549433 0.62560833 -0.052785754
-0.13379055 0.62313181 -0.06224823
0.21479671 0.62364292 -0.060295224
0.23592383 0.62573355 -0.052307606
-0.15492398 0.64610326 -0.053064585
-0.13377348 0.64355427 -0.062525153
0.21477751 0.64408046 -0.060572624
0.23590337 0.6462357 -0.052573204
-0.15490468 0.66659397 -0.053343415
-0.13375643 0.66397262 -0.062801957
0.21475831 0.66451371 -0.060849547
0.23588189 0.66673017 -0.052852154
-0.15488535 0.6870802 -0.053622365
-0.13373859 0.68438303 -0.063091993
0.2147391 0.68494266 -0.061126709
0.23586044 0.68722022 -0.053130984
-0.15486512 0.70755839 -0.053914309
-0.13372155 0.70479274 -0.063368797
0.21472082 0.70537126 -0.061390758
0.23583998 0.70770985 -0.053396702
-0.1339336 0.72631508 -0.059925318
-0.11315565 0.72485024 -0.064804196
0.21497624 0.72698194 -0.057704091
0.071205981 0.74661052 -0.060638428
-0.19731244 -0.50808889 -0.038270712
-0.30030993 -0.48689324 -0.041609645
-0.27968636 -0.48693639 -0.04132843
-0.25923765 -0.4872357 -0.039384723
-0.23890455 -0.48775893 -0.035986423
0.030186849 -0.21874219 -0.034600496
0.0094771534 -0.19803035 -0.034640789
0.030186849 -0.19792406 -0.036940813
0.050894991 -0.19802095 -0.034842849
-0.01125141 -0.17736779 -0.033415318
0.0094938241 -0.17723718 -0.036806583
0.030186849 -0.17714939 -0.039089441
0.050878529 -0.17723057 -0.036981106
0.071602717 -0.17731178 -0.03486979
-0.011218039 -0.15658188 -0.0355829
0.0095103644 -0.15647808 -0.038955331
0.030186849 -0.15640831 -0.041221261
0.050861992 -0.15647273 -0.039129734
0.071569592 -0.15653758 -0.037021637
0.092309713 -0.15660261 -0.034910083
-0.031948768 -0.13590781 -0.034358144
-0.01118472 -0.13582945 -0.037747025
0.0095269829 -0.13575181 -0.041113973
0.030186849 -0.13569976 -0.043362856
0.050845578 -0.13574833 -0.041261435
0.071536712 -0.13579689 -0.039156556
0.092260338 -0.13584565 -0.037048459
0.1130161 -0.13589406 -0.034950376
-0.031898744 -0.1151626 -0.036524296
-0.011151658 -0.11511064 -0.039894223
0.009543471 -0.11505888 -0.043255806
0.030186849 -0.1150246 -0.045487881
0.050829194 -0.11505683 -0.043389678
0.071503691 -0.11508901 -0.041301489
0.092210717 -0.11512144 -0.039196849
0.11295026 -0.11515386 -0.037088633
0.13372238 -0.11518633 -0.034977317
-0.052635774 -0.094477683 -0.035165906
-0.031852216 -0.094451852 -0.038539052
-0.011120716 -0.094425969 -0.041904092
0.0095589049 -0.094400041 -0.045260787
0.030186849 -0.094382949 -0.047489285
0.050813764 -0.094399035 -0.045394301
0.071472988 -0.094415277 -0.043295979
0.092164591 -0.094431363 -0.041194439
0.11288865 -0.094447553 -0.039089561
0.13364473 -0.094463646 -0.036994696
0.15443385 -0.094479926 -0.034883142
0.0095738042 -0.07377214 -0.04719615
0.050798971 -0.073772192 -0.047316074
0.071443357 -0.073772192 -0.045220733
0.092120066 -0.07377214 -0.043122172
0.1128292 -0.07377214 -0.041020036
0.15434438 -0.07377214 -0.036820054
-0.073396362 -0.073772095 -0.033738494
-0.05257573 -0.07377205 -0.037115693
-0.031807289 -0.073772095 -0.04048419
-0.011090847 -0.073772095 -0.043844342
0.13357082 -0.073772095 -0.038915038
0.17518519 -0.073772095 -0.03407526
-0.073321752 -0.053070426 -0.035677075
-0.052515782 -0.05309654 -0.039062619
-0.031762443 -0.053122375 -0.042426348
-0.011061018 -0.05314821 -0.045781612
0.0095886774 -0.053173944 -0.049128532
0.071413763 -0.053158663 -0.047142625
0.092075609 -0.053142477 -0.045047164
0.11276983 -0.053126432 -0.042948246
0.13349649 -0.053110249 -0.04084599
0.15425567 -0.053093962 -0.038740635
0.17507207 -0.053074241 -0.036174536
-0.094089366 -0.03234674 -0.034250379
-0.073246725 -0.03239869 -0.037626147
-0.052456327 -0.032450546 -0.040993452
-0.031717651 -0.032502498 -0.044365644
-0.011031238 -0.032554019 -0.047716141
0.071384415 -0.032574601 -0.049048662
0.092031226 -0.032542512 -0.046969414
0.11271055 -0.032510329 -0.044873357
0.13342227 -0.032478005 -0.04277432
0.15416646 -0.03244558 -0.040671825
0.17495984 -0.032408431 -0.038257241
-0.094001718 -0.011677824 -0.036147952
-0.073173881 -0.011755656 -0.039518833
-0.052397788 -0.011833727 -0.042894602
-0.031674169 -0.011911079 -0.046248794
0.091988131 -0.011970863 -0.048835516
0.11265299 -0.011922494 -0.046742558
0.13335022 -0.011874169 -0.044646263
0.15407987 -0.01182561 -0.042546868
0.17484996 -0.011773657 -0.040296435
-0.11478828 0.0090707839 -0.034506321
-0.093921654 0.0089668855 -0.037881374
-0.073107317 0.0088631734 -0.041247964
-0.052345082 0.0087597892 -0.044606209
-0.031634435 0.0086562708 -0.04796946
0.11260045 0.0086414665 -0.048449159
0.13328443 0.0087059289 -0.046355605
0.1540008 0.0087704882 -0.044258714
0.17475033 0.008835569 -0.042145133
0.19589591 0.0090824366 -0.034129262
-0.11469474 0.029714726 -0.036241889
-0.093841687 0.029584996 -0.039612651
-0.07304085 0.029455543 -0.042974949
-0.052292041 0.029326521 -0.046328902
0.13321924 0.029260293 -0.048049331
0.15392181 0.029340327 -0.045968533
0.17465734 0.029421113 -0.043871045
0.19578156 0.029724568 -0.035986304
-0.11460207 0.050332695 -0.03796196
-0.093761824 0.050176553 -0.041341782
-0.072974466 0.050021462 -0.044699788
-0.05223906 0.049866706 -0.048049331
0.15384357 0.04988461 -0.047662735
0.1745659 0.049981304 -0.045567989
0.19566651 0.050337568 -0.037854433
-0.11450878 0.0709235 -0.039692998
-0.093682073 0.070741616 -0.043068528
-0.072908163 0.07056088 -0.046422362
0.17447385 0.070514895 -0.047276139
0.19555245 0.07092277 -0.039706469
-0.1354899 0.091904543 -0.03465426
-0.11442499 0.091498621 -0.041248083
-0.093611047 0.091291673 -0.044606209
-0.072848625 0.091084547 -0.047969341
0.17439125 0.09103287 -0.048808932
0.1954501 0.091491126 -0.041368484
0.2166637 0.091985054 -0.033347845
-0.13538632 0.11249768 -0.036336064
-0.11434346 0.11205257 -0.04276073
-0.093540736 0.11181922 -0.046128631
0.19534951 0.11203589 -0.043001652
0.21655081 0.1125918 -0.034977317
-0.13528372 0.13306609 -0.038002253
-0.11426131 0.1325824 -0.044285417
-0.093471102 0.13232449 -0.047636151
0.1952499 0.13255671 -0.044619679
0.21643712 0.13317263 -0.036618352
-0.1351804 0.1536079 -0.039679646
-0.11417997 0.15309 -0.045794964
-0.093401551 0.15280664 -0.049141884
0.19514954 0.15305161 -0.046248913
0.21632448 0.15372938 -0.038244009
-0.13508382 0.1741339 -0.041247845
-0.11410303 0.17358199 -0.047222733
0.19505589 0.17353138 -0.047769308
0.21621756 0.17426884 -0.039787054
-0.13499558 0.19464934 -0.042680502
-0.11403336 0.19406551 -0.048515797
0.19496974 0.19400004 -0.049168468
0.21612099 0.19479936 -0.041180968
-0.15620229 0.21616638 -0.034613848
-0.13490747 0.21514297 -0.044111729
0.21602358 0.21530727 -0.042586803
0.23729001 0.21617234 -0.034559965
-0.15610254 0.23671016 -0.036053538
-0.13481943 0.23561472 -0.045541286
0.21592629 0.23579365 -0.043991327
0.23718126 0.23671946 -0.035973072
-0.15600382 0.25723356 -0.037478328
-0.13473149 0.25606447 -0.046969414
0.21582909 0.25625849 -0.045394421
0.23707262 0.25724506 -0.037384391
-0.15591916 0.2777614 -0.038700342
-0.13465759 0.27652231 -0.048169255
0.2157477 0.27673161 -0.046569109
0.23698267 0.27778074 -0.038552523
-0.15583552 0.29827258 -0.039907813
0.21566731 0.29718882 -0.047729373
0.2368928 0.2982986 -0.03971982
-0.15575196 0.31876528 -0.041113973
0.21558607 0.31762618 -0.048901916
0.23680201 0.31879672 -0.040899634
-0.15566844 0.3392396 -0.042319179
0.23671126 0.33927664 -0.042078376
0.25804481 0.34051499 -0.034034967
-0.17697023 0.36125776 -0.033859849
-0.1555952 0.35971937 -0.043376207
0.23663093 0.35976037 -0.043122172
0.25795704 0.3610619 -0.035071611
-0.1768956 0.38180926 -0.034829378
-0.15552759 0.38019648 -0.044352412
0.2365568 0.38024187 -0.044084907
0.25787503 0.38160419 -0.036040187
-0.17681897 0.40234128 -0.035825014
-0.15545909 0.40065649 -0.045341015
0.23648377 0.40071082 -0.045033693
0.2577942 0.40213418 -0.036994457
-0.1767434 0.42286041 -0.036806464
-0.15539156 0.42110369 -0.04631567
0.23641078 0.4211652 -0.045981765
0.25771344 0.42264935 -0.037948489
-0.17667204 0.44337502 -0.037733555
-0.15532689 0.44154367 -0.047249436
0.2363399 0.44161043 -0.046902537
0.25763613 0.443158 -0.038861513
-0.2806032 0.46493074 -0.033388257
-0.25962126 0.46444306 -0.035824895
-0.23879828 0.46419802 -0.037048578
-0.21833572 0.46469352 -0.034573555
-0.17661519 0.46391317 -0.038472056
-0.15527512 0.4620069 -0.047996044
0.23628445 0.46208158 -0.0476228
0.25757477 0.46369019 -0.039585948
-0.19712389 0.48417237 -0.040497541
-0.17655836 0.48443994 -0.03921032
-0.15522437 0.48246154 -0.048728943
0.23622905 0.48254171 -0.048342466
0.25751346 0.48421142 -0.040309906
0.23617265 0.5029881 -0.049075246
-0.17649952 0.50494981 -0.039974809
0.25745106 0.5047186 -0.041046977
-0.17644274 0.52545375 -0.04071188
0.25738981 0.52521747 -0.04177022
0.27879027 0.5270195 -0.033698201
-0.17640045 0.54598981 -0.041261435
0.25734219 0.54574245 -0.04233253
0.27874053 0.54761207 -0.034236908
-0.17636128 0.56652713 -0.041770458
0.25730026 0.56627476 -0.042827845
0.27869326 0.56820285 -0.034748554
-0.1763211 0.58705336 -0.042292476
0.25725722 0.58679622 -0.043336272
0.27864602 0.58878571 -0.035259962
-0.19773842 0.61000371 -0.03324008
-0.17628092 0.60757154 -0.042814493
0.25721532 0.60731322 -0.043830991
0.27860004 0.60936421 -0.03575778
-0.19770306 0.63061482 -0.033657789
-0.17624693 0.62810278 -0.043255925
0.25717908 0.62784022 -0.044258714
0.27856275 0.62995958 -0.036161184
-0.19767909 0.65125579 -0.033940673
-0.17622532 0.64867049 -0.043536782
0.25715646 0.64840388 -0.044525981
0.27853793 0.65058511 -0.036430001
-0.19765514 0.67189258 -0.034223437
-0.17620368 0.66923386 -0.04381752
0.25713271 0.66895968 -0.0448066
0.27851185 0.67120284 -0.036712646
-0.1976312 0.69252497 -0.034506321
-0.17618208 0.68979299 -0.044098377
0.25711006 0.68951499 -0.045073986
0.27848703 0.69181997 -0.036981106
-0.17616047 0.71034771 -0.044379115
0.25708631 0.71006238 -0.045354247
-0.19762096 0.71320033 -0.034627438
0.27846467 0.71244097 -0.037222981
-0.17676307 0.73333246 -0.036550999
-0.1552133 0.7296285 -0.048888922
0.23622291 0.7297684 -0.048422337
0.25770092 0.73286873 -0.038096189
-0.32279646 -0.48904666 -0.027622223
-0.21873058 -0.48863453 -0.030299067
-0.19856647 -0.48968726 -0.023461461
0.030186849 -0.36558869 -0.017189026
0.0093438588 -0.344731 -0.017325401
0.030186849 -0.34448418 -0.019791365
0.05102732 -0.34469819 -0.01765275
0.0093640983 -0.32364514 -0.019954562
0.030186849 -0.32341903 -0.022402048
0.051007189 -0.32361621 -0.020267606
0.071860448 -0.32381371 -0.018129826
-0.01147102 -0.30289039 -0.019151449
0.0093841944 -0.30260134 -0.022565126
0.030186849 -0.30239564 -0.024994373
0.050987203 -0.30257604 -0.022863984
0.071820408 -0.30275673 -0.020730138
0.092686549 -0.30293763 -0.018592954
-0.032320403 -0.28212965 -0.018265963
0.11350761 -0.28207403 -0.018988013
-0.011431849 -0.28186566 -0.021695495
0.0094037298 -0.28160334 -0.025102854
0.030186849 -0.2814188 -0.027500391
0.050967775 -0.28158146 -0.025387526
0.071781494 -0.28174534 -0.023257852
0.092628084 -0.28190958 -0.021124601
-0.053187214 -0.2613638 -0.017257094
-0.032264747 -0.26112691 -0.020675778
-0.011395054 -0.26089072 -0.024085641
0.0094221868 -0.26065406 -0.02750051
0.030186849 -0.26048923 -0.029880404
0.050949533 -0.26063627 -0.027757525
0.071744949 -0.26078358 -0.025631547
0.092573173 -0.26093107 -0.023502111
0.11343428 -0.26107886 -0.021369219
0.13432837 -0.26122689 -0.019233108
-0.053113379 -0.24037257 -0.019655228
-0.032209516 -0.24016246 -0.023067594
-0.01135811 -0.239952 -0.026485085
0.0094405059 -0.23974282 -0.029880285
0.030186849 -0.23959744 -0.032242417
0.05093132 -0.23972785 -0.030123472
0.071708463 -0.23985857 -0.028001189
0.092518367 -0.23998955 -0.02587533
0.1133611 -0.24012065 -0.023746252
0.13423674 -0.24025196 -0.021614075
0.15514536 -0.24038345 -0.019478321
-0.073977739 -0.21960258 -0.018633723
-0.053039253 -0.21941778 -0.02206254
-0.032154053 -0.21923429 -0.025468826
-0.011321442 -0.21905115 -0.028866768
0.0094588976 -0.21886772 -0.032269478
0.05091314 -0.21885619 -0.032485127
0.071672045 -0.21897024 -0.030366659
0.09246365 -0.21908465 -0.028244495
0.11328802 -0.21919915 -0.026119351
0.13414524 -0.21931395 -0.023990512
0.15503542 -0.21942878 -0.021858573
0.1760584 -0.21964365 -0.017870903
-0.094857246 -0.19881627 -0.017625332
-0.073885016 -0.19865845 -0.021042824
-0.052965671 -0.19850098 -0.024451852
-0.032099016 -0.19834381 -0.027852297
-0.011284633 -0.19818655 -0.031257629
0.071635693 -0.19811864 -0.032727838
0.092409037 -0.19821647 -0.030609727
0.11321509 -0.19831449 -0.028487921
0.13405395 -0.19841266 -0.026363134
0.15492566 -0.19851094 -0.024234891
0.1759197 -0.198686 -0.020444393
-0.09475594 -0.17789108 -0.019818664
-0.07380081 -0.17775981 -0.023230553
-0.052898481 -0.17762874 -0.026633978
-0.032048747 -0.1774981 -0.03002882
0.092359178 -0.17739266 -0.032768369
0.11314851 -0.17747413 -0.030650139
0.13397059 -0.17755583 -0.02852881
0.15482548 -0.17763767 -0.026403785
0.17579299 -0.17777653 -0.022796035
-0.11564651 -0.15710546 -0.018579364
-0.094654806 -0.15699989 -0.022008181
-0.073716752 -0.15689498 -0.025414705
-0.052831404 -0.15679041 -0.028812528
-0.03199856 -0.15668598 -0.032202005
0.11308246 -0.15666769 -0.032795191
0.13388789 -0.15673298 -0.030677199
0.15472609 -0.15679829 -0.028555632
0.17566723 -0.15690371 -0.025130033
-0.11552842 -0.13622162 -0.020770907
-0.094554469 -0.13614275 -0.024180532
-0.073633343 -0.13606425 -0.027581692
-0.052764848 -0.13598588 -0.030974269
0.13380481 -0.13594291 -0.032835722
0.15462624 -0.13599186 -0.030717731
0.17554094 -0.13606676 -0.02747333
0.1968049 -0.13625391 -0.019369245
-0.11541051 -0.11537141 -0.022958994
-0.094453663 -0.11531902 -0.026363134
-0.073549539 -0.11526669 -0.029758692
-0.052697979 -0.11521454 -0.033145666
0.15452716 -0.11521889 -0.032862663
0.17541561 -0.11526607 -0.029799223
0.1966608 -0.11539051 -0.021709204
-0.11530083 -0.094556086 -0.024994373
-0.09435989 -0.094529875 -0.028393388
-0.073471598 -0.09450385 -0.031783819
0.17529777 -0.094502322 -0.031986117
0.19652532 -0.094564393 -0.023909211
-0.094269373 -0.07377214 -0.030353069
0.21773408 -0.07377214 -0.017898083
-0.13646223 -0.073772095 -0.018865466
-0.11519496 -0.073772095 -0.026959062
0.19639587 -0.073772095 -0.02601099
-0.13632898 -0.052957639 -0.021029472
-0.11508998 -0.053018328 -0.02890718
-0.094179615 -0.053044353 -0.032296419
0.19626582 -0.05301217 -0.028122902
0.21758687 -0.052949905 -0.02002275
-0.13619509 -0.032176655 -0.023203373
-0.11498442 -0.032294739 -0.030866146
0.19613677 -0.032284711 -0.030218005
0.21744086 -0.032160182 -0.02213037
-0.13606641 -0.011427231 -0.025292635
-0.11488193 -0.011599801 -0.03276825
0.19601047 -0.011588246 -0.032269359
0.21729882 -0.011401497 -0.024180532
-0.15737927 0.0095905885 -0.017625451
-0.13594794 0.0092952549 -0.027216077
0.21716826 0.0093306378 -0.026065111
0.23856847 0.00958056 -0.017952442
-0.15724619 0.030357346 -0.01954627
-0.13583051 0.029988669 -0.029123425
0.21703881 0.030034512 -0.027933359
0.23842378 0.030346312 -0.019832134
-0.1571133 0.051094592 -0.021464467
-0.13571237 0.050652236 -0.031041622
0.21690862 0.050709061 -0.029812694
0.2382793 0.051083371 -0.021709204
-0.15697967 0.071801804 -0.023393393
-0.13559525 0.071287207 -0.032943606
0.21677953 0.071355484 -0.031675816
0.23813395 0.071790822 -0.023597121
-0.15686123 0.092492796 -0.025102854
0.23800552 0.092482753 -0.025265574
-0.17825356 0.11382423 -0.017189026
-0.15674388 0.11315859 -0.02679646
0.23787829 0.11315014 -0.026918411
0.25933397 0.11371192 -0.018810868
-0.15662763 0.13379943 -0.02847445
0.2377512 0.13379222 -0.028569102
0.25919449 0.13441655 -0.020457983
-0.17812242 0.13453707 -0.018892646
-0.17799248 0.15522522 -0.020580649
-0.15651058 0.15441367 -0.030164003
0.23762532 0.15441018 -0.030204535
0.25905401 0.1550951 -0.02211678
-0.17787214 0.17589864 -0.02214396
-0.1564021 0.17501307 -0.031729937
0.23750685 0.17501187 -0.031743288
0.25892407 0.1757594 -0.023651481
-0.17776026 0.19655904 -0.023597121
-0.15630214 0.19560081 -0.033172846
0.23739786 0.19560224 -0.033159018
0.25880346 0.19641107 -0.025075793
-0.17764851 0.21719748 -0.025048614
0.25868297 0.21704102 -0.026498556
0.28020579 0.21791655 -0.01837492
-0.1775369 0.23781344 -0.026498675
0.25856376 0.2376509 -0.027906537
0.2800737 0.23858643 -0.019804955
-0.19900292 0.2595948 -0.018306971
-0.17742646 0.25840908 -0.027933478
0.25844467 0.25823921 -0.02931273
0.27994552 0.25923944 -0.021192431
-0.19889915 0.28026995 -0.019532681
-0.17733274 0.2790111 -0.029150605
0.25834516 0.27883607 -0.030488014
0.2798363 0.27989778 -0.022374988
-0.19879429 0.3009243 -0.020770907
-0.17723916 0.29959467 -0.030366421
0.25824574 0.29941514 -0.031662464
0.27972588 0.30053645 -0.023569942
-0.19869067 0.32156178 -0.021994352
-0.17714562 0.32015949 -0.03158164
0.25814524 0.31997415 -0.032849193
0.27961686 0.32115865 -0.024750352
-0.19858715 0.3421807 -0.023216963
-0.1770522 0.34070599 -0.032795191
0.27950665 0.34176096 -0.02594316
0.30109796 0.34301421 -0.017802477
-0.19849867 0.36280924 -0.024262071
0.27941158 0.36237121 -0.026972532
0.30099571 0.36368832 -0.018824577
-0.19841485 0.38343132 -0.025252104
0.27932155 0.38297483 -0.027946949
0.3008976 0.38435376 -0.019804835
-0.19833107 0.40403798 -0.026241183
0.27923283 0.40356606 -0.02890718
0.30080092 0.40500659 -0.020770907
-0.21990509 0.42641172 -0.017584443
-0.19824736 0.42462981 -0.027229667
0.27914295 0.4241401 -0.029880166
0.30070296 0.42564222 -0.021749973
-0.21982326 0.44708231 -0.018470287
-0.1981706 0.44522205 -0.028136373
0.27906063 0.44471487 -0.030771732
0.30061457 0.44628116 -0.022632957
-0.30227795 0.46648315 -0.025631547
-0.19810647 0.4658303 -0.028893709
0.27899331 0.46530852 -0.031500459
0.30054119 0.4669365 -0.023366332
0.27892601 0.48589107 -0.032228947
0.30046788 0.48758075 -0.024099112
-0.19797832 0.50701207 -0.03040719
0.27885875 0.50646234 -0.032957077
0.30039454 0.50821364 -0.024831533
-0.19791543 0.52758843 -0.031149507
0.30031994 0.52883244 -0.025577307
0.32198137 0.53065944 -0.017393589
-0.21949522 0.55043316 -0.022021651
-0.19787088 0.54820359 -0.031675816
0.30026841 0.54949301 -0.026092052
0.32192701 0.5513854 -0.017898083
-0.21944752 0.57111669 -0.022538066
-0.19782747 0.56881368 -0.032188535
0.30021688 0.57014573 -0.026606917
0.32187119 0.57210034 -0.018415928
-0.2193986 0.59178907 -0.023067594
-0.19778295 0.58941275 -0.032714367
0.30016539 0.59079051 -0.027121425
0.32181543 0.59280747 -0.018933415
-0.21934968 0.61245346 -0.023597121
0.30011529 0.6114307 -0.027622223
0.32175964 0.61350673 -0.019451022
-0.21931334 0.63314503 -0.023990512
0.30007604 0.63209176 -0.02801466
0.32172003 0.63423705 -0.019818544
-0.21928701 0.65385997 -0.024275541
0.30004895 0.6527797 -0.028285146
0.32169071 0.65498739 -0.020090699
-0.21926069 0.6745705 -0.024560332
0.30002052 0.67345959 -0.028569102
0.32165989 0.67572993 -0.020376444
-0.21923439 0.69527674 -0.024845243
0.29999349 0.694139 -0.028839588
0.3216306 0.69647199 -0.020648479
-0.21926571 0.71616095 -0.024505973
0.30000836 0.71493685 -0.028690815
0.32168925 0.71744859 -0.020104289
-0.19855611 0.73722571 -0.023583293
0.2793878 0.73613119 -0.027229786
-0.17867328 -0.49149245 -0.011736751
-0.26300743 -0.47167864 -0.0044051409
-0.24161525 -0.47102138 -0.0088994503
-0.22068076 -0.47097927 -0.0091875792
-0.20000887 -0.47138295 -0.0064274073
0.030186849 -0.47183976 -0.003303647
0.0092398413 -0.4508183 -0.0038131475
0.030186849 -0.45045793 -0.0064136982
0.051130466 -0.45075715 -0.0042538643
0.072107598 -0.45105889 -0.002076745
-0.011715228 -0.42993972 -0.0032898188
0.0092625041 -0.42948598 -0.0067573786
0.030186849 -0.42914993 -0.0093249083
0.051108018 -0.42943209 -0.0071694851
0.072062425 -0.4297145 -0.0050109625
0.093050458 -0.42999929 -0.0028349161
-0.03268218 -0.40907368 -0.0026006699
-0.011672629 -0.40864801 -0.0060563087
0.0092836414 -0.40822342 -0.0095031261
0.030186849 -0.40791124 -0.012037992
0.0510871 -0.40817618 -0.0098870993
0.072020516 -0.40844145 -0.007732749
0.09298718 -0.40870732 -0.0055749416
0.11398718 -0.40897346 -0.0034136772
0.13502057 -0.4092401 -0.0012490749
-0.053665265 -0.38821766 -0.0017318726
-0.032622382 -0.38781828 -0.0051897764
-0.01163266 -0.38741842 -0.0086524487
0.0093035772 -0.38702121 -0.01209271
0.030186849 -0.38673216 -0.014595509
0.051067382 -0.38698015 -0.012448668
0.07198102 -0.38722843 -0.010298371
0.092927843 -0.38747704 -0.0081446171
0.1139075 -0.38772464 -0.0060012341
0.13492082 -0.38797414 -0.0038406849
0.15596758 -0.38822401 -0.0016769171
-0.053584225 -0.3669709 -0.0043640137
-0.032561757 -0.36659887 -0.0078151226
-0.011592554 -0.36622792 -0.011257529
0.0093236845 -0.3658565 -0.014704823
0.051047385 -0.36581966 -0.015046239
0.071940966 -0.36605093 -0.012900114
0.092867658 -0.36628258 -0.010750532
0.11382756 -0.36651462 -0.0085976124
0.13482073 -0.36674705 -0.0064412355
0.15584727 -0.36697981 -0.0042812824
0.17693251 -0.34629977 -0.0016491413
-0.074558266 -0.34610942 -0.0035514832
-0.05350291 -0.34576383 -0.0070047379
-0.032500923 -0.34541914 -0.010449171
-0.011551892 -0.34507397 -0.013898373
0.07190077 -0.34491256 -0.015510678
0.092806958 -0.34512597 -0.013378859
0.11374649 -0.34534103 -0.011229992
0.13471925 -0.34555638 -0.0090779066
0.15572529 -0.34577203 -0.006922245
-0.095545471 -0.32523677 -0.0027248859
-0.074456558 -0.3249163 -0.0061937571
-0.053421758 -0.32459801 -0.0096402168
-0.032439902 -0.32427904 -0.013091683
-0.011511521 -0.32396242 -0.016520619
0.09274669 -0.32401153 -0.015988588
0.11366601 -0.32420963 -0.013843894
0.13461849 -0.32440814 -0.011695743
0.15560418 -0.32460684 -0.0095441341
0.17677954 -0.3250739 -0.0044878721
-0.095423356 -0.30405757 -0.0053687096
-0.074355058 -0.30376434 -0.008830905
-0.053340338 -0.30347186 -0.012284398
-0.032379307 -0.30318138 -0.015715361
0.11358569 -0.30311891 -0.016452551
0.13451792 -0.3033005 -0.014308453
0.15548332 -0.30348235 -0.012161136
0.17662616 -0.30389109 -0.0073343515
-0.11644369 -0.28324437 -0.0037857294
-0.095304012 -0.28292364 -0.0079523325
-0.074255854 -0.28265759 -0.011408091
-0.0532616 -0.28239319 -0.014841437
0.13442017 -0.28223872 -0.016848087
0.15536582 -0.28240383 -0.014704823
0.17647679 -0.28275779 -0.010106444
0.19788174 -0.28339076 -0.001883626
-0.11629985 -0.2621122 -0.0064549446
-0.095191866 -0.26184022 -0.010380507
-0.074163161 -0.26160219 -0.013816595
0.1552555 -0.26137513 -0.017093539
0.1763373 -0.26167992 -0.012694836
0.19772135 -0.26224849 -0.0044877529
-0.11615556 -0.24102059 -0.0091328621
-0.095079914 -0.24079451 -0.01280427
-0.074070111 -0.24058327 -0.016234279
0.17619808 -0.24064204 -0.015278578
0.19756043 -0.24114579 -0.0071009398
-0.13749613 -0.22049484 -0.002076745
-0.11601302 -0.21997195 -0.011777878
-0.094968796 -0.21978697 -0.015210271
0.19740067 -0.22008425 -0.0096950531
0.21887226 -0.22052753 -0.0014698505
-0.13733156 -0.199411 -0.0047494173
-0.11588328 -0.19897503 -0.014185548
0.19724122 -0.19906285 -0.012284398
0.21869083 -0.19944137 -0.0040886402
-0.13718082 -0.17837694 -0.0071970224
-0.11576407 -0.17802277 -0.016397953
0.19709468 -0.17808953 -0.014663696
0.21852498 -0.17840439 -0.0064823627
-0.13703205 -0.15738155 -0.0096129179
0.19694924 -0.1571534 -0.017025352
0.21836036 -0.15740475 -0.0088584423
-0.15844028 -0.13664775 -0.0023112297
-0.13688356 -0.13642362 -0.012024283
0.218197 -0.13644212 -0.011216402
0.23971842 -0.13663165 -0.0030140877
-0.1582723 -0.11565189 -0.0047357082
-0.13673529 -0.11550267 -0.014431596
0.21803392 -0.11551595 -0.013570428
0.23953506 -0.11564176 -0.0053961277
-0.15811321 -0.094694324 -0.007032156
-0.13659573 -0.09461993 -0.016698122
0.21788058 -0.094626993 -0.015783668
0.23936471 -0.094689883 -0.0076092482
-0.15796196 -0.07377214 -0.0092149973
0.23920096 -0.07377214 -0.0097361803
0.26079652 -0.073772095 -0.0015389919
-0.17944664 -0.052808754 -0.0016907454
-0.15781097 -0.052883435 -0.011394382
0.23903641 -0.052887209 -0.011873722
0.26061559 -0.05282408 -0.0036754608
-0.17927793 -0.03187922 -0.0038820505
-0.15766023 -0.032028344 -0.013570309
0.23887318 -0.032034837 -0.013994217
0.26043496 -0.031908873 -0.0058087111
-0.17911479 -0.010981582 -0.0060012341
-0.1575135 -0.011205338 -0.015688062
0.23871441 -0.011213884 -0.016056657
0.26025924 -0.011025086 -0.0078837872
-0.1789646 0.0098885 -0.0079523325
0.26009774 0.0098318234 -0.0097911358
0.28175852 0.010085084 -0.0015664101
-0.17881462 0.030728646 -0.0099009275
0.25993761 0.030660078 -0.011681914
0.28158149 0.030975655 -0.0034825802
-0.20037261 0.051987611 -0.0021320581
-0.17866589 0.051539473 -0.011832595
0.25977772 0.051459201 -0.013570189
0.28140599 0.051837482 -0.0053822994
-0.20020808 0.072842889 -0.0040749311
-0.17851634 0.072320081 -0.013775468
0.25961688 0.072228782 -0.01546967
0.2812295 0.072669469 -0.0072932243
-0.20006126 0.09368103 -0.0058088303
-0.17838381 0.093084507 -0.015496969
0.25947475 0.092982732 -0.017148137
0.28107348 0.093485706 -0.0089818239
-0.19991696 0.11449463 -0.0075130463
0.28092024 0.11427789 -0.01064086
0.30263585 0.11484634 -0.0024350882
-0.19977166 0.13528106 -0.0092288256
0.28076589 0.13504368 -0.012311697
0.30246902 0.1356757 -0.0041024685
-0.22141664 0.15686443 -0.0012215376
-0.19962771 0.15604246 -0.010928631
0.28061298 0.15578514 -0.013966918
0.30230099 0.1564784 -0.0057812929
-0.22127269 0.17768744 -0.0027798414
-0.19949438 0.1767891 -0.012503266
0.28047037 0.17651135 -0.015510678
0.30214697 0.17726794 -0.0073206425
-0.22113656 0.19849491 -0.0042538643
-0.19937161 0.19752419 -0.01395309
0.28033802 0.197225 -0.016943574
0.3020027 0.19804373 -0.0087621212
-0.22100179 0.21928135 -0.0057125092
-0.19924781 0.21823561 -0.015415072
0.30185857 0.21879736 -0.010202289
0.32370791 0.2197488 -0.0013731718
-0.22086592 0.24004379 -0.0071833134
-0.19912417 0.23892468 -0.016875386
0.3017146 0.23952904 -0.011640906
0.32352069 0.24051413 -0.0031106472
-0.22073402 0.26078901 -0.0086114407
0.30157629 0.26024553 -0.013023138
0.3233411 0.26126125 -0.0047768354
-0.22061996 0.28153741 -0.0098458529
0.30145586 0.28096431 -0.014226437
0.32320768 0.28203887 -0.0060150623
-0.24237119 0.30361587 -0.0013456345
-0.22050475 0.30226529 -0.011092901
0.30133691 0.30166638 -0.015415192
0.32307881 0.30280325 -0.0072107315
-0.24224697 0.32440037 -0.0025868416
-0.2203909 0.32297605 -0.012325406
0.30121809 0.32235047 -0.016602516
0.32295007 0.32354936 -0.0084055662
-0.2421215 0.34516379 -0.0038406849
-0.22027718 0.34366781 -0.0135566
0.32281995 0.34427509 -0.0096127987
-0.24201955 0.36594594 -0.0048594475
-0.22018121 0.36437196 -0.014595509
0.3227106 0.36501348 -0.010627151
-0.24191903 0.38671461 -0.0058637857
-0.22008909 0.38506719 -0.015592337
0.32260579 0.38574326 -0.011599898
-0.21999706 0.405747 -0.016588926
0.32249957 0.40645596 -0.012585402
-0.24181862 0.40746826 -0.0068672895
-0.24171828 0.42820659 -0.0078699589
0.32239342 0.42715338 -0.013570428
-0.28402621 0.44991627 -0.003744483
-0.26213911 0.44823852 -0.012462258
-0.24086349 0.44747844 -0.016411543
0.32229912 0.44785681 -0.014445186
-0.3254227 0.47010139 -0.0075540543
0.32221964 0.46857437 -0.015182734
0.32214016 0.48928079 -0.015920162
0.34462431 0.49221525 -0.0018010139
0.32206073 0.50997561 -0.016657114
0.34452084 0.51298469 -0.0026971102
0.34442538 0.53375578 -0.0035239458
-0.24127652 0.55268162 -0.012284398
0.34435222 0.55455875 -0.004157424
-0.26315588 0.57577252 -0.003027916
-0.24122311 0.5734362 -0.012817979
0.34427911 0.57535177 -0.0047907829
-0.26309794 0.59659326 -0.0035653114
-0.24116971 0.59418243 -0.01335144
0.34420761 0.59613878 -0.0054097176
-0.24111633 0.61492068 -0.013884783
-0.26304007 0.61740565 -0.0041023493
0.34413454 0.61691272 -0.0060424805
-0.26300296 0.63826036 -0.0044465065
-0.2410794 0.63569343 -0.014253736
0.34408852 0.63773835 -0.0064412355
-0.26297182 0.65912467 -0.0047354698
-0.24105068 0.65648288 -0.014540792
0.34405044 0.65857631 -0.0067709684
-0.24102198 0.67726773 -0.014827728
-0.26294068 0.67998451 -0.0050246716
0.34401077 0.67940509 -0.0071146488
-0.26291102 0.70084369 -0.0052996874
-0.24099325 0.69804817 -0.015114546
0.3439711 0.70022899 -0.0074579716
-0.26306084 0.72218597 -0.0039095879
-0.24107532 0.71914804 -0.014294744
0.34413773 0.72157001 -0.0060150623
-0.22083674 0.74205464 -0.0074993372
0.30135742 0.73973954 -0.015210152
0.0091043245 -0.55867016 0.013791084
0.030186849 -0.55817914 0.011017561
0.051264971 -0.55856895 0.013218999
-0.01197133 -0.537512 0.013344646
0.0091348868 -0.5369153 0.0098205805
0.030186849 -0.53645158 0.0070830584
0.051234633 -0.53682345 0.0092782974
0.072316274 -0.5371958 0.011476994
0.093431845 -0.53756875 0.013679385
-0.033047199 -0.51641047 0.013205171
-0.011914929 -0.51584077 0.0096815825
0.0091630127 -0.51527274 0.0061670542
0.030186849 -0.51483572 0.0034643412
0.05120673 -0.51518971 0.0056536198
0.07226038 -0.51554418 0.0078467131
0.09334787 -0.5158993 0.010043263
0.11446929 -0.5162549 0.012243271
0.13562526 -0.51661336 0.014460683
-0.054123066 -0.49532172 0.013135433
-0.032964215 -0.49477929 0.0096120834
-0.011859966 -0.49424034 0.0061113834
0.0091903191 -0.49370277 0.0026198626
0.030186849 -0.49329197 -4.8160553e-05
0.051179651 -0.49362814 0.0021356344
0.072206132 -0.49396497 0.0043231249
0.09326636 -0.49430227 0.0065139532
0.11436 -0.49463797 0.0086944103
0.1354879 -0.4949764 0.010892153
0.15664978 -0.49531528 0.013093591
-0.28512901 -0.47317225 0.0058062077
-0.17951567 -0.47220689 -0.00079357624
-0.15940908 -0.47403017 0.01167202
-0.07520806 -0.47427279 0.013330698
-0.054021001 -0.47375932 0.0098206997
-0.032887869 -0.47324535 0.0063056946
-0.011809194 -0.47273448 0.0028135777
0.0092156399 -0.47222504 -0.00066947937
0.05115455 -0.47215843 -0.0011249781
0.072155848 -0.47247761 0.001057148
0.093190499 -0.47279525 0.003229022
0.11425912 -0.47311547 0.0054180622
0.13536106 -0.47343412 0.0075967312
0.15649733 -0.47375533 0.0097928047
-0.22251509 -0.45282504 0.010669351
-0.20133644 -0.45262849 0.0092505217
-0.18050209 -0.45301226 0.01202035
-0.096301213 -0.45323631 0.013637662
-0.075084746 -0.45274985 0.010126829
-0.053922594 -0.45226461 0.0066249371
-0.032814883 -0.45178255 0.0031458139
-0.011760669 -0.45129979 -0.00033819675
0.093118012 -0.45135906 9.0003014e-05
0.11416189 -0.4516598 0.0022602081
0.13523932 -0.45196095 0.0044337511
0.15635037 -0.45226267 0.0066111088
0.17772543 -0.45315701 0.013065815
-0.096164122 -0.43176657 0.01066947
-0.074970789 -0.43130812 0.0071662664
-0.053831667 -0.43085086 0.0036720037
-0.032746546 -0.43039474 0.00018668175
0.11407167 -0.43028265 -0.00066947937
0.13512638 -0.43056652 0.0014996529
0.15621527 -0.43085262 0.003685832
0.17755356 -0.4316628 0.0098763704
-0.11738256 -0.41107365 0.013637662
-0.096033752 -0.4103604 0.0078467131
-0.074862421 -0.40992984 0.0043507814
-0.05374562 -0.40950209 0.00087749958
0.15608746 -0.40950707 0.00091898441
0.17739034 -0.41023731 0.006847024
-0.11722638 -0.38965759 0.010739207
-0.095911965 -0.38901919 0.0052101612
-0.074761726 -0.38861787 0.0017346144
0.17723864 -0.38888308 0.004032135
0.19875774 -0.38984251 0.012340784
-0.11706901 -0.36828381 0.0078188181
-0.095790416 -0.36771911 0.0025783777
-0.074660167 -0.36734375 -0.00090408325
0.17708655 -0.36757156 0.001209259
0.19858284 -0.36846507 0.009500742
-0.13853179 -0.34793988 0.01473999
-0.11691125 -0.34695435 0.0048911572
-0.095667824 -0.34645724 -7.5817108e-05
0.19840573 -0.3471278 0.0066250563
-0.13835058 -0.32657829 0.011797309
-0.11675456 -0.32567167 0.0019836426
0.19822985 -0.32583669 0.0037690401
0.21981075 -0.32660404 0.01207602
-0.13816975 -0.30526251 0.0088613033
-0.11659749 -0.30443326 -0.0009316206
0.19805348 -0.30458876 0.00090527534
0.21961114 -0.3052907 0.0091948509
-0.13799272 -0.28399658 0.0059865713
0.21941674 -0.28402761 0.0063890219
0.24108192 -0.28466725 0.014698148
-0.15950951 -0.2634685 0.013121605
-0.13782716 -0.26278788 0.0032981634
0.21923427 -0.26281953 0.0037550926
0.24087901 -0.26339498 0.012062073
-0.15932225 -0.24222463 0.010418892
-0.13766192 -0.24162087 0.00061488152
0.21905307 -0.24165323 0.0011402369
0.24067648 -0.24216378 0.0094311237
-0.15913442 -0.22102198 0.0077078342
0.24047329 -0.2209726 0.0067914724
-0.18072005 -0.20031628 0.014851809
-0.15894791 -0.19986203 0.0050159693
0.24027151 -0.19982293 0.0041706562
0.26198363 -0.20020664 0.01248014
-0.18052891 -0.17912999 0.012368679
-0.15877713 -0.17875206 0.0025507212
0.24008505 -0.17872125 0.0017485619
0.26177728 -0.17904046 0.010043263
-0.18034026 -0.15798301 0.0099179745
-0.15860854 -0.15768118 0.00011754036
0.23990105 -0.15765788 -0.00064170361
0.26157364 -0.15791276 0.0076384544
-0.18015087 -0.13687341 0.0074577332
0.26137036 -0.13682216 0.0052378178
0.28315398 -0.13701394 0.01353991
-0.20181073 -0.11595352 0.014851809
-0.1799629 -0.11580206 0.0050159693
0.26116744 -0.11576854 0.0028413534
0.28293124 -0.11589622 0.011128902
-0.20161465 -0.094844975 0.01253593
-0.17978592 -0.094769433 0.0027168989
0.26097772 -0.094753154 0.00060105324
0.28272304 -0.094816849 0.0088750124
-0.20142597 -0.073772095 0.01030755
-0.17961667 -0.073772095 0.00051820278
0.28252414 -0.073772095 0.0067219734
-0.20123874 -0.052733406 0.0080968142
0.28232557 -0.052760527 0.0045723915
0.30416757 -0.052696686 0.012870669
-0.20105185 -0.031728666 0.0058894157
0.28212732 -0.03178205 0.0024263859
0.30395147 -0.031654414 0.010711193
-0.22278284 -0.010529682 0.013567805
-0.20086992 -0.010756589 0.0037411451
0.2819345 -0.010835186 0.00033855438
0.30374131 -0.010644235 0.0086109638
-0.22259997 0.010490149 0.011588454
-0.20070353 0.010188036 0.00177598
0.3035495 0.010339357 0.0066944361
-0.2224174 0.031479657 0.0096120834
-0.20053853 0.031103007 -0.00017237663
0.30335656 0.031293094 0.0047664642
-0.2222351 0.052438892 0.0076383352
0.30316529 0.052217804 0.0028553009
0.32540387 0.052749507 0.01436317
-0.22205432 0.073368572 0.0056815147
0.30297428 0.073113345 0.00094664097
0.32515436 0.073711656 0.012048244
-0.24388318 0.094886281 0.01376307
-0.22189428 0.094281964 0.0039489269
0.30280429 0.093992405 -0.00075221062
0.32493529 0.094655551 0.010015368
-0.24371018 0.11584889 0.012034297
-0.22173445 0.11516886 0.0022186041
0.32471657 0.11556839 0.0079857111
-0.24353738 0.13678497 0.010307789
-0.22157608 0.13603026 0.00050449371
0.32449812 0.13645026 0.0059589148
-0.24336343 0.15769356 0.0085692406
0.32428151 0.15730223 0.0039490461
-0.24320634 0.17859089 0.0069996119
0.32408163 0.17813766 0.0020942688
-0.24305914 0.19947383 0.0055289268
0.32389539 0.19895723 0.00036633015
-0.264979 0.22139379 0.013888597
-0.24291076 0.22033289 0.0040460825
-0.26481819 0.24230468 0.012396574
-0.24276389 0.24117103 0.0025783777
0.34636354 0.24240455 0.013260961
-0.24262135 0.26199174 0.0011539459
-0.26466659 0.26320323 0.010989666
0.346172 0.26327878 0.011602402
-0.26453012 0.28409851 0.0097233057
-0.24249552 0.28281254 -0.00010323524
0.34600323 0.28415301 0.010140777
-0.26439524 0.30497625 0.0084719658
0.34583622 0.30500701 0.0086944103
-0.26425901 0.32583296 0.0072079897
0.34566778 0.32583714 0.0072357655
-0.26412439 0.34667242 0.005959034
0.34550115 0.3466469 0.0057924986
-0.26401532 0.36753124 0.0049465895
0.34536186 0.36747277 0.004586339
-0.2639063 0.38837418 0.0039352179
0.34522432 0.38828281 0.0033949614
-0.26379737 0.40920186 0.0029244423
0.34508687 0.40907449 0.002204895
-0.2636885 0.43001428 0.0019145012
0.34494957 0.4298481 0.0010156631
-0.30694291 0.45299312 0.012243271
0.34482992 0.4506329 -2.0384789e-05
0.34472787 0.4714323 -0.00090396404
0.36761725 0.49564156 0.0146842
0.36750552 0.51653552 0.013777018
0.36740589 0.53743744 0.012968183
0.36733034 0.55837208 0.012354732
-0.28570825 0.57907778 0.010822654
0.36725143 0.57929051 0.011713862
-0.28563112 0.5999729 0.010154605
0.36717251 0.60019922 0.011073232
-0.28555399 0.62085778 0.0094867945
0.36709362 0.62109828 0.010432959
-0.28551227 0.64181256 0.0091252327
0.3670525 0.64206749 0.010098934
-0.28547052 0.66276187 0.0087639093
0.3670114 0.66303164 0.009765029
-0.2854304 0.68370926 0.0084165335
0.36696854 0.6839866 0.0094172955
-0.28538868 0.70464754 0.0080552101
0.36692575 0.70493656 0.0090698004
-0.28591898 0.72702932 0.01264751
0.36748493 0.72731072 0.013609767
0.32477495 0.74686617 0.0085276365
0.030186849 -0.64607298 0.028574944
0.051400457 -0.64653951 0.030819178
-0.012233188 -0.62523258 0.030353069
0.0090045109 -0.62451291 0.026756883
0.030186849 -0.62392724 0.023830771
0.051363982 -0.62437755 0.026081085
0.072575606 -0.62482601 0.028321385
0.093822122 -0.62527788 0.03057909
-0.033421695 -0.60384333 0.029421449
-0.012163518 -0.60315174 0.025827885
0.072506689 -0.60276997 0.023844719
0.093718253 -0.60320038 0.026081085
0.11496392 -0.60362881 0.02830708
0.13624457 -0.60406065 0.030550838
0.0090392567 -0.60246193 0.022243619
0.030186849 -0.60191137 0.019382834
0.051329579 -0.6023404 0.021612048
-0.05459848 -0.58248413 0.028575063
-0.033319205 -0.58182055 0.024983525
-0.012095375 -0.58115876 0.021401405
0.0090732407 -0.58049875 0.017828941
0.030186849 -0.57997966 0.015019298
0.051295936 -0.5803901 0.017241359
0.072439067 -0.58079886 0.019452929
0.093616664 -0.58121061 0.021682262
0.11482868 -0.5816232 0.023915052
0.13607524 -0.58203638 0.026151657
0.15735637 -0.58245021 0.0283916
-0.075773656 -0.56119043 0.02802515
-0.054471441 -0.56055719 0.02444911
-0.033224501 -0.55992579 0.020882726
-0.012032611 -0.55929589 0.017325163
0.072377041 -0.55895948 0.015424371
0.093523473 -0.55935293 0.017646909
0.1147038 -0.55974454 0.019859195
0.13591887 -0.56013936 0.022089124
0.15716779 -0.56053245 0.024308681
-0.096942961 -0.53991473 0.027531862
-0.075617619 -0.53931177 0.0239712
-0.054347366 -0.5387103 0.020419955
0.15698364 -0.53869373 0.020321846
0.17853078 -0.53999591 0.028011084
-0.033132009 -0.53811038 0.016877651
0.11458144 -0.53794235 0.015885353
