ply
format ascii 1.0
comment PCL generated
element vertex 1379
property float x
property float y
property float z
element camera 0
property float view_px
property float view_py
property float view_pz
property float x_axisx
property float x_axisy
property float x_axisz
property float y_axisx
property float y_axisy
property float y_axisz
property float z_axisx
property float z_axisy
property float z_axisz
property float focal
property float scalex
property float scaley
property float centerx
property float centery
property int viewportx
property int viewporty
property float k1
property float k2
end_header
-0.5883497 -0.21430504 0.0067996979
-0.56467462 -0.082199916 -0.0014818907
0.684802 0.0052438341 0.0060782433
-0.52165645 0.13682212 0.0024766922
0.63966113 0.15865889 0.00030493736
-0.49964547 0.20255713 0.0019870996
0.62003732 0.24703395 0.011274219
-0.47763395 0.26826605 0.0014517307
0.59744251 0.31271866 0.0082435608
-0.45563334 0.33395171 0.0009316206
0.57527661 0.35653582 0.0071988106
0.55312693 0.40032089 0.0061547756
-0.41163495 0.42143214 -0.00024521351
0.53099608 0.44407612 0.0051271915
-0.39035532 0.46585104 0.0039927959
0.50887871 0.48779744 0.0040848255
-0.36901212 0.51040268 0.0082435608
0.48679233 0.53150231 0.0031352043
0.46434161 0.5528239 -0.00027573109
-0.3476072 0.55508995 0.01252234
-0.32392398 0.57455963 -0.0011613369
0.42201331 0.62064546 0.010335207
0.3995817 0.64191085 0.0068918467
0.37720415 0.66312486 0.003456831
0.35488042 0.68428791 2.9921532e-05
0.33299854 0.70623195 0.00021326542
0.28892589 0.72744644 -0.002671957
0.3117792 0.72976542 0.0070453882
-0.63406682 -0.43516973 0.014635563
-0.7024973 -0.41467538 0.024036646
-0.74418718 -0.36915457 0.014820933
-0.72216761 -0.36915237 0.014805317
-0.70015615 -0.36915457 0.014820933
-0.67814064 -0.36915457 0.014820933
-0.65612513 -0.36915457 0.014820933
-0.6341061 -0.36915237 0.014805317
-0.61209071 -0.36915237 0.014805317
-0.76967061 -0.34887305 0.027334809
-0.74755877 -0.34887305 0.027334809
-0.72544283 -0.34887084 0.027319074
-0.70333117 -0.34887084 0.027319074
-0.6812194 -0.34887084 0.027319074
-0.65910769 -0.34887084 0.027319074
-0.63699597 -0.34887084 0.027319074
-0.61488426 -0.34887084 0.027319074
0.66531253 0.093206108 0.017092228
-0.52581763 0.1595749 0.024098873
0.6456753 0.18185148 0.028207183
-0.5036388 0.22580498 0.023601651
-0.48146224 0.29200956 0.023073673
0.60142571 0.33667514 0.028144717
-0.45929116 0.35818815 0.022530079
0.57910681 0.38079077 0.027101159
-0.43574551 0.40121728 0.013432026
0.5568012 0.42487228 0.026042581
-0.41440183 0.445822 0.017726302
0.53451198 0.46892145 0.024984956
-0.39299166 0.4905583 0.022018075
0.51223928 0.51293808 0.023927927
-0.37151724 0.53542924 0.026322722
0.4899829 0.5569222 0.022871852
0.46704176 0.57796329 0.01726234
-0.32613605 0.59990859 0.016798258
0.44450137 0.59933186 0.013802171
-0.30364716 0.62114501 0.012830496
-0.28164032 0.64313239 0.012768984
0.42446381 0.64630228 0.028020144
-0.25963444 0.66511881 0.012707233
0.40189049 0.66766804 0.024533987
-0.23762946 0.68710434 0.012645721
0.37936994 0.68897843 0.021040797
-0.21562549 0.70908886 0.012583852
0.35690597 0.71024072 0.017571568
-0.6595875 -0.43765825 0.029329658
0.64846236 -0.4396579 0.041137457
0.64867258 -0.41759759 0.042112589
0.64887947 -0.39551967 0.043072701
0.64908999 -0.37342951 0.044049382
-0.79536915 -0.32840914 0.039927006
-0.7731691 -0.32841322 0.039958596
-0.75095576 -0.32841113 0.039942861
-0.72874689 -0.32841113 0.039942861
-0.70653403 -0.32840914 0.039927006
-0.68432909 -0.32841113 0.039942861
-0.66212016 -0.32841113 0.039942861
-0.63991129 -0.32841113 0.039942861
-0.61769891 -0.32840914 0.039927006
-0.55188817 0.071380332 0.044002056
0.62588167 0.2711868 0.039392948
-0.43867886 0.42559659 0.031577229
-0.41720149 0.47051942 0.035910726
-0.39566168 0.51558048 0.040272832
0.51564962 0.53843397 0.044065118
-0.34997824 0.58043498 0.030640364
0.49323583 0.58271754 0.042994022
0.46977544 0.60341477 0.035017729
-0.32837623 0.62557954 0.034986615
0.44709206 0.62488461 0.031514764
-0.30559912 0.64665878 0.029735208
-0.28346208 0.66877574 0.029672742
-0.26132599 0.69089156 0.029610276
0.40422592 0.69374222 0.042380095
-0.23919086 0.71300656 0.029548049
-0.62192482 -0.46501336 0.058856964
-0.59847772 -0.46411589 0.053787827
-0.57576686 -0.463779 0.051885486
-0.55346602 -0.463779 0.051885486
-0.53140616 -0.46400079 0.05313766
0.65078932 -0.46378747 0.051933169
0.67309052 -0.46378747 0.051933169
0.69538808 -0.46378466 0.051917315
0.71768534 -0.46378192 0.051901579
-0.68824011 -0.44214445 0.05581975
-0.53114384 -0.44145942 0.05177474
-0.53088486 -0.41894194 0.050428867
-0.53062302 -0.39644283 0.049068451
-0.53036451 -0.37396717 0.047725201
-0.53010321 -0.35151029 0.046367407
0.64929724 -0.35132232 0.045010805
-0.79899186 -0.30776688 0.05264616
-0.77669835 -0.30777282 0.052693844
-0.75438273 -0.30776885 0.052662015
-0.73208004 -0.30777088 0.052678108
-0.70976913 -0.30776885 0.052662015
-0.68746233 -0.30776885 0.052662015
-0.66515547 -0.30776885 0.052662015
-0.64284867 -0.30776885 0.052662015
-0.62054187 -0.30776885 0.052662015
-0.57592821 -0.062393952 0.052662134
0.6716156 0.11589113 0.045326114
-0.53004551 0.18267643 0.046067595
0.65180856 0.20550333 0.056661844
-0.50769621 0.24940969 0.045562744
-0.48534912 0.31611651 0.045026541
0.60593337 0.36122048 0.050666332
-0.46300763 0.38279691 0.04447484
0.58298779 0.40538475 0.047267318
-0.44164962 0.45028758 0.049954295
0.56052709 0.4497686 0.046209574
-0.42003939 0.49553517 0.054343343
0.53807998 0.49411774 0.045137048
-0.39836353 0.54092026 0.058745623
-0.37405431 0.56077504 0.044632435
-0.35238159 0.6061067 0.049005389
0.47254321 0.62918395 0.052994967
-0.33064315 0.65157562 0.053391457
0.44971505 0.65075606 0.049448013
-0.30757251 0.67247272 0.046825051
0.42694271 0.67227548 0.045909762
-0.2853038 0.69472057 0.04676199
-0.64742982 -0.46742883 0.072499037
-0.75849116 -0.39934385 0.06791079
-0.82506156 -0.28694564 0.065510035
-0.80265123 -0.28694376 0.065494061
-0.78025448 -0.28694752 0.065526128
-0.75784433 -0.28694564 0.065510035
-0.73543864 -0.28694564 0.065510035
-0.71302891 -0.28694376 0.065494061
-0.69062722 -0.28694564 0.065510035
-0.66821766 -0.28694376 0.065494061
-0.64581579 -0.28694564 0.065510035
-0.62341005 -0.28694564 0.065510035
0.67804414 0.13902828 0.074122787
-0.53433865 0.20613457 0.068375349
-0.51181614 0.27337843 0.06786263
0.63184226 0.29581982 0.068070769
-0.48929596 0.34059533 0.067318201
-0.46678138 0.4077853 0.066757917
0.5869267 0.43032849 0.06773448
-0.44465861 0.47529584 0.068567514
0.56430268 0.4750149 0.066645861
-0.42291382 0.52087331 0.073013186
0.54169565 0.51966786 0.065558076
0.51910818 0.56429052 0.06448698
-0.37662396 0.58644634 0.063177228
0.49653473 0.60887706 0.063400745
-0.35481584 0.63210839 0.067606449
0.4753482 0.65527999 0.07121408
-0.33294117 0.67790967 0.07204926
0.45237088 0.67695194 0.067606449
-0.73900026 -0.42357969 0.079117775
-0.78667349 -0.37995851 0.088688493
-0.82884866 -0.26593512 0.078456283
-0.8063432 -0.26593512 0.078456283
-0.78384233 -0.26593694 0.078472376
-0.76133251 -0.26593512 0.078456283
-0.73883134 -0.26593694 0.078472376
-0.71632171 -0.26593512 0.078456283
-0.69381636 -0.26593512 0.078456283
-0.67131102 -0.26593512 0.078456283
-0.64880931 -0.26593694 0.078472376
-0.53869849 0.22995745 0.091029763
0.65806454 0.22962837 0.085685968
-0.51600015 0.29771996 0.090509295
-0.49330407 0.36545476 0.089956284
0.61172158 0.38685119 0.079586029
-0.47061384 0.43316206 0.089387298
0.59092176 0.45562771 0.088493466
-0.44793233 0.50084299 0.08881855
0.56813508 0.50062305 0.08738935
0.54536563 0.54558438 0.08628583
-0.40110254 0.56658959 0.077472448
0.52261323 0.59051198 0.085183382
-0.37922454 0.61244601 0.081945419
0.49988058 0.635409 0.084097981
-0.35728157 0.65844631 0.086448193
-0.56385875 -0.49567315 0.10381067
-0.54115504 -0.49567011 0.10379422
-0.51845461 -0.49567011 0.10379422
0.63928431 -0.49568531 0.10387647
0.6619783 -0.49567917 0.10384345
0.6846754 -0.49567619 0.10382712
0.70737237 -0.49567315 0.10381067
-0.67510849 -0.47130105 0.094369769
-0.72144306 -0.44939241 0.098616481
-0.83266473 -0.24473521 0.091501832
-0.8100636 -0.24473697 0.091518164
-0.78746217 -0.24473858 0.091534495
-0.76485616 -0.24473858 0.091534495
-0.74225008 -0.24473858 0.091534495
-0.71964407 -0.24473858 0.091534495
-0.697034 -0.24473697 0.091518164
-0.67442805 -0.24473697 0.091518164
-0.83652478 -0.22334841 0.10469735
-0.81382209 -0.22334999 0.10471392
-0.79111451 -0.22334999 0.10471392
-0.76840705 -0.22334999 0.10471392
-0.74570382 -0.22335145 0.10473013
-0.72299623 -0.22335145 0.10473013
-0.70028454 -0.22334999 0.10471392
-0.56309748 0.094482712 0.1000073
0.68460214 0.16263101 0.10349882
0.63792259 0.32094774 0.097324729
-0.42582554 0.54653931 0.091925263
-0.40387714 0.59259212 0.09644258
0.52617133 0.6171124 0.10619295
-0.38186118 0.63878667 0.10097349
0.50327176 0.66231793 0.10507524
-0.51958811 -0.47405604 0.10992968
0.64015216 -0.47372362 0.10805178
-0.52090687 -0.45251724 0.11706758
0.64163387 -0.45219758 0.11518061
0.64312273 -0.43056753 0.1223439
-0.84041959 -0.20176846 0.11801195
-0.8176145 -0.20176989 0.11802852
-0.7947998 -0.20176846 0.11801195
-0.77199447 -0.20176989 0.11802852
-0.74918443 -0.20176989 0.11802852
-0.72637862 -0.20177135 0.11804509
-0.70356441 -0.20176989 0.11802852
-0.58761877 -0.041819099 0.10890806
0.66444331 0.25423968 0.11527991
-0.52024668 0.32244125 0.1134944
-0.49737507 0.39070374 0.11294925
0.61762333 0.41299722 0.1090728
-0.47450632 0.45893627 0.11237121
0.59497106 0.48128784 0.10953438
-0.45164642 0.52714229 0.11179352
0.57202256 0.52659863 0.10843062
-0.42877266 0.57253784 0.11106741
0.54908824 0.57187265 0.10731125
-0.406688 0.61893445 0.11566043
-0.522232 -0.43087408 0.12424004
-0.5235666 -0.40912846 0.13146389
0.64461881 -0.40883258 0.12954211
-0.52490467 -0.38727435 0.13870645
0.64612567 -0.38699436 0.13679171
-0.84434974 -0.17999281 0.13144708
-0.82144117 -0.17999418 0.131464
-0.79851848 -0.17999159 0.13143051
-0.77561438 -0.17999418 0.131464
-0.75269657 -0.17999281 0.13144708
-0.72979176 -0.17999549 0.13148069
-0.52456337 0.34755462 0.13685882
0.64412624 0.34658521 0.12717211
-0.5015074 0.41634923 0.1362884
-0.47846019 0.48511752 0.13571787
0.59908199 0.50732112 0.1308955
-0.45541918 0.55385667 0.135131
0.57596302 0.55294693 0.12975907
-0.43176103 0.59888029 0.13047767
0.55286169 0.59853774 0.1286236
-0.40953338 0.64561987 0.13511431
0.52978075 0.64409697 0.12750566
0.62549478 -0.50391138 0.14840102
-0.52625239 -0.36531594 0.14600098
0.64716697 -0.36473405 0.14180183
-0.52760351 -0.34324768 0.15331435
0.64738405 -0.34187773 0.14284635
-0.84831566 -0.15801893 0.14500499
-0.82529801 -0.15801893 0.14500499
-0.80227566 -0.15801765 0.14498806
-0.77926266 -0.15801893 0.14500499
-0.75624061 -0.15801765 0.14498806
-0.73323166 -0.15802 0.1450218
-0.54979819 0.2565555 0.14870548
0.6709559 0.27935442 0.14549446
0.62364525 0.43967566 0.13916016
0.60325289 0.53373379 0.15256786
0.57996398 0.57968134 0.15141487
-0.43478894 0.62557083 0.1501441
0.55669296 0.62559372 0.15026295
-0.55152577 -0.52874136 0.15768218
-0.52840108 -0.52873147 0.15763104
-0.5052802 -0.52872497 0.15759695
0.62735581 -0.52874464 0.15769923
0.65046763 -0.52874136 0.15768218
0.67357922 -0.52873808 0.15766525
-0.50542486 -0.50576138 0.15841424
-0.50673354 -0.48394904 0.1658057
0.62696087 -0.48216447 0.15572619
0.62843418 -0.46031091 0.16308725
-0.85231799 -0.13584375 0.15868676
-0.82919014 -0.13584277 0.15866971
-0.80606252 -0.13584173 0.15865266
-0.78294438 -0.13584277 0.15866971
-0.75981712 -0.13584173 0.15865266
-0.57473296 0.11849658 0.15814185
-0.52894872 0.37306774 0.16059542
0.65045702 0.37274832 0.15763128
-0.5057084 0.44240496 0.16001582
0.62979108 0.46690306 0.1698668
-0.48247707 0.51171535 0.15943635
-0.45925191 0.58099598 0.15884006
-0.50804567 -0.46202633 0.17321634
-0.50936419 -0.43999544 0.1806637
0.62991476 -0.43834987 0.17048454
0.63140261 -0.4162806 0.17791831
0.63289785 -0.39410219 0.18538892
-0.83311796 -0.11346301 0.17245996
-0.80988896 -0.11346301 0.17245996
-0.78665984 -0.11346301 0.17245996
-0.76343083 -0.11346301 0.17245996
0.67760277 0.30498731 0.17633212
-0.53340447 0.39899012 0.18471289
-0.50997686 0.46887869 0.18412399
-0.4865554 0.538737 0.18351781
0.6089527 0.56182557 0.18218517
-0.46314612 0.60857069 0.18292928
0.58402044 0.60680497 0.1733712
-0.48957276 -0.53714228 0.20133448
0.61043125 -0.53493553 0.18986809
0.61188042 -0.51296359 0.19739783
-0.51069236 -0.41785815 0.18816507
-0.51202404 -0.39560837 0.19568646
0.63440394 -0.37181628 0.19291365
0.63591403 -0.34941724 0.20045865
-0.83708197 -0.090876698 0.18637729
-0.81375068 -0.090877637 0.18639469
-0.79041427 -0.090877637 0.18639469
-0.76707804 -0.090877637 0.18639469
-0.84108776 -0.06808199 0.20044124
-0.81764334 -0.06808199 0.20044124
-0.79419887 -0.06808199 0.20044124
-0.77075911 -0.06808269 0.20045888
0.65691888 0.39945307 0.18872094
0.63606125 0.49469426 0.20119429
-0.5387305 -0.56303662 0.21354091
-0.51517904 -0.56302959 0.21350563
-0.49162507 -0.56301904 0.21345282
0.61499053 -0.56304014 0.21355879
0.63853598 -0.56304014 0.21355879
0.66207767 -0.56303662 0.21354091
-0.49124551 -0.51551569 0.21121168
0.61333674 -0.49088243 0.204965
0.61480027 -0.46869108 0.21256995
-0.51336545 -0.37325025 0.20326257
-0.51471043 -0.35077831 0.21085918
0.63743168 -0.32690656 0.20804119
-0.8451308 -0.04507466 0.21463633
-0.82157719 -0.04507466 0.21463633
-0.7980234 -0.04507466 0.21463633
-0.56137991 0.2842344 0.20888603
0.68438822 0.33115411 0.20781255
-0.53792906 0.42532995 0.209203
-0.51431435 0.49578053 0.20862198
-0.49070263 0.56619841 0.20800602
0.6150347 0.59072477 0.21378815
-0.47004074 -0.56544602 0.22557878
0.59263849 -0.5643329 0.22001779
0.5944463 -0.5426209 0.22980273
-0.49292624 -0.49374542 0.2211355
-0.49461782 -0.47183326 0.23112392
0.6162712 -0.44638884 0.22021294
0.61774945 -0.42397478 0.22789419
-0.51606214 -0.32819408 0.2184937
-0.77662164 -0.045327749 0.22285795
-0.84921181 -0.021851879 0.22896421
-0.82554787 -0.021851879 0.22896421
-0.80187905 -0.021851402 0.22894633
-0.77863556 -0.021888431 0.23055255
-0.5868336 0.14347689 0.2185998
0.66351604 0.42671663 0.22046137
-0.51872253 0.52312118 0.23351967
0.6424666 0.52307171 0.23319757
-0.47166017 -0.54373586 0.23559618
-0.4732931 -0.521887 0.24569714
0.59626895 -0.52077323 0.23966837
-0.49600095 -0.44947299 0.23929107
-0.49731809 -0.426927 0.24706841
0.61923856 -0.40145087 0.23563218
0.62073177 -0.37881058 0.2433908
-0.85333121 0.001589559 0.24342692
-0.82955086 0.0015896522 0.24340892
-0.80577087 0.0015899353 0.24339104
-0.78200048 0.0015896522 0.24340892
-0.45176256 -0.57241356 0.26039112
0.57454634 -0.57055366 0.25109839
0.57631415 -0.54864085 0.26108313
-0.4749338 -0.49989125 0.25584698
0.5981034 -0.49878481 0.24959719
0.59994626 -0.47665116 0.25957215
-0.49864191 -0.40426686 0.25488508
-0.49997544 -0.38149446 0.26275957
0.6222325 -0.35605609 0.25118899
0.62374085 -0.33318636 0.25902653
-0.76234525 -0.14206009 0.25962675
-0.83359176 0.025252745 0.25799012
-0.80969942 0.025252933 0.257972
-0.78581685 0.025252745 0.25799012
-0.54755104 0.45565742 0.26128352
0.67025262 0.45455667 0.25287294
-0.52320325 0.55091125 0.25882649
-0.50144315 -0.59861296 0.27142572
-0.47744936 -0.59860909 0.27140725
-0.45345297 -0.59860152 0.27137077
0.55436575 -0.59887224 0.27267289
0.57816154 -0.59863204 0.2715174
0.60215312 -0.59863204 0.2715174
0.62614113 -0.59862816 0.27149904
-0.45334008 -0.55047959 0.27063751
0.57809669 -0.52658957 0.27115071
-0.47658539 -0.47775045 0.26606321
-0.4782508 -0.45546648 0.27636528
0.60180449 -0.45437756 0.26963007
0.60364068 -0.4319306 0.27956879
-0.50131279 -0.35860369 0.27065587
-0.50265688 -0.33559629 0.27859235
0.62525684 -0.31020057 0.26690376
-0.83767092 0.049140133 0.27270949
-0.81367022 0.049140133 0.27270949
-0.78967428 0.049140088 0.27272797
-0.57343334 0.31304714 0.2715174
0.64900804 0.55205154 0.26588047
-0.43154204 -0.60155672 0.2855885
-0.43306515 -0.57954097 0.29600203
0.5560835 -0.57690185 0.28281581
0.55780929 -0.5547846 0.29300666
-0.45493087 -0.5284037 0.28096998
-0.45652941 -0.50617778 0.29135299
0.57989079 -0.50439519 0.28128386
0.58169657 -0.48205552 0.29148281
-0.47992432 -0.43303132 0.28671741
0.60511535 -0.40904459 0.28755081
0.60659766 -0.38604125 0.29557383
-0.50401098 -0.31247345 0.28658783
-0.84179407 0.073255397 0.287588
-0.81767881 0.073255397 0.287588
-0.79356354 0.073255397 0.287588
0.67712939 0.48298931 0.28595877
0.53556472 -0.60555714 0.30483592
-0.43460116 -0.55738205 0.30650389
0.55954963 -0.53252602 0.3032825
-0.45814151 -0.48380688 0.30182362
-0.45976144 -0.46128288 0.31234562
0.58351415 -0.45956984 0.30174899
0.58534044 -0.43693361 0.31206346
-0.48161203 -0.41044962 0.29715717
-0.4833079 -0.38771439 0.30764794
0.60808748 -0.36291984 0.30363774
0.60958499 -0.33967945 0.3117435
-0.77223921 -0.12025869 0.29857421
-0.77332592 0.073372841 0.30285203
-0.84595686 0.09760192 0.30260873
-0.82172596 0.09760192 0.30260873
-0.79749501 0.09760192 0.30260873
-0.77327365 0.097602576 0.3026464
-0.41170585 -0.6079523 0.31635892
-0.4133195 -0.5859462 0.3280046
0.53723848 -0.58338147 0.31518972
0.53892016 -0.56105578 0.32559288
-0.43614474 -0.53507096 0.31705737
-0.43769866 -0.51260996 0.32768166
0.56130135 -0.51012111 0.31362557
0.56306463 -0.48756883 0.32403755
-0.46139231 -0.4386079 0.3229382
0.58718199 -0.41415122 0.32246494
-0.48501515 -0.3648268 0.31820893
0.6110903 -0.31631896 0.31989098
0.61260331 -0.29283768 0.32808077
-0.77747667 -0.097011253 0.31919146
-0.77954179 -0.072965547 0.32732046
-0.77946937 0.00030222163 0.32703567
-0.77797633 0.024766371 0.32115841
-0.77648884 0.04914023 0.31530285
-0.85016501 0.12218341 0.31779337
-0.82581204 0.12218308 0.31777477
-0.80145943 0.12218261 0.31775582
-0.77712154 0.12218341 0.31779337
-0.5595305 0.48855484 0.32612419
-0.4627201 -0.63556606 0.33156264
-0.43826354 -0.63556188 0.33154345
-0.41380993 -0.63556188 0.33154345
-0.38935375 -0.63555771 0.33152449
0.4926666 -0.63805485 0.34310973
0.51545203 -0.6355949 0.33169603
0.53990376 -0.63559073 0.33167684
0.56435519 -0.63558656 0.33165789
0.58880633 -0.63558251 0.33163869
-0.39039332 -0.61275542 0.33946848
0.51572788 -0.6115123 0.33348763
-0.4149451 -0.56377769 0.33973634
0.5406161 -0.5385862 0.33608353
-0.43926588 -0.49000058 0.33839643
0.56483954 -0.46486732 0.33451807
-0.46303704 -0.41578299 0.33362103
0.58903581 -0.39121827 0.33293486
0.59089845 -0.36813053 0.34345508
-0.48673701 -0.3417877 0.32886016
-0.4884674 -0.31859061 0.33956409
-0.78162229 -0.048796501 0.33551049
-0.78092921 -0.024249446 0.33278227
-0.75767004 0.12264255 0.33766997
-0.8544032 0.14700224 0.33308709
-0.82993263 0.14700167 0.33306813
-0.80546224 0.14700106 0.33304906
-0.78100669 0.14700224 0.33308709
-0.75654113 0.14700224 0.33308709
-0.58598781 0.34306505 0.3367523
-0.36730325 -0.63976312 0.35103452
0.49437344 -0.61593771 0.35477948
-0.39194226 -0.59060967 0.35130429
0.51751369 -0.5893653 0.34508705
0.51931262 -0.56705606 0.35677135
-0.41658545 -0.54144806 0.3515743
0.54232329 -0.51596743 0.34664404
0.54404181 -0.49319771 0.35727477
-0.44084087 -0.46723494 0.34916496
0.56662303 -0.44201186 0.34504843
0.5684216 -0.41900772 0.35566878
-0.46468997 -0.39280096 0.34435737
-0.4663541 -0.36966312 0.35516608
0.5927735 -0.34488955 0.35404515
-0.76152784 0.098382786 0.35333073
-0.83409315 0.1720615 0.34851027
-0.80950385 0.17206061 0.34849107
-0.78492957 0.17206225 0.34852958
-0.76034993 0.17206296 0.34854889
-0.7363953 0.17216454 0.35118854
-0.34542707 -0.64485443 0.37465525
0.47108945 -0.64266795 0.36451173
-0.36876932 -0.61763334 0.36293757
-0.37024871 -0.59534204 0.3749485
0.49608999 -0.59365416 0.36651552
-0.39350021 -0.56829494 0.36320913
-0.3950724 -0.54581708 0.3752228
0.52112186 -0.54457927 0.36852241
-0.41823533 -0.5189485 0.3634814
-0.41990024 -0.49628368 0.37549698
0.5457719 -0.47027621 0.36797655
-0.44242656 -0.44431499 0.36000657
-0.44402596 -0.42124146 0.3709414
0.57023221 -0.39584959 0.36635983
-0.46803254 -0.34637055 0.36606812
0.59466445 -0.32149601 0.36472547
0.59656465 -0.29794344 0.37545764
-0.76499164 0.073869847 0.36739206
-0.7409693 0.14814974 0.37035573
-0.83829439 0.19736576 0.36410332
-0.81359011 0.19736576 0.36410332
-0.78889078 0.19736685 0.36412263
-0.76419115 0.19736755 0.36414206
-0.73947722 0.19736576 0.36410332
-0.7170788 0.19782706 0.37408769
0.44922322 -0.64734763 0.38622248
-0.3468242 -0.62258369 0.38675463
0.47272831 -0.62041873 0.37633884
0.47437927 -0.59800518 0.38825381
-0.37173688 -0.57287943 0.38703072
0.49782205 -0.57121038 0.37835777
0.49956691 -0.54860038 0.39028764
-0.39665374 -0.52316678 0.38730681
0.52294427 -0.52193683 0.38035989
0.52461582 -0.49894586 0.39121664
-0.42147386 -0.47332767 0.38685334
0.54751033 -0.44719759 0.37873054
0.54926366 -0.42396712 0.38957655
-0.44563338 -0.39800751 0.38193154
0.57205492 -0.37253666 0.37712264
0.57388657 -0.3490642 0.38793826
-0.46971947 -0.32291621 0.37702465
-0.4714179 -0.29930145 0.38805664
-0.76848608 0.04914004 0.38157761
-0.74559855 0.12384538 0.38975441
-0.84254211 0.22291982 0.37986887
-0.81771129 0.2229186 0.37984931
-0.79289085 0.22291982 0.37986887
-0.76806998 0.22292072 0.37988842
-0.74323946 0.22291982 0.37986887
-0.71841383 0.22291982 0.37986887
-0.39753833 -0.67397314 0.3940661
-0.37260339 -0.67397314 0.3940661
-0.34766844 -0.67397314 0.3940661
-0.32273349 -0.67397314 0.3940661
-0.29888433 -0.6763953 0.40491581
0.42557102 -0.67443764 0.39614689
0.45026785 -0.67400432 0.39420497
0.47520384 -0.67400432 0.39420497
0.50013697 -0.67399973 0.39418495
0.52507281 -0.67399973 0.39418495
-0.32322726 -0.6500259 0.39864779
0.45078948 -0.62496066 0.39819062
-0.34822956 -0.60014111 0.39892578
0.47603971 -0.57542104 0.4002372
-0.37323618 -0.55024761 0.39920378
0.50132477 -0.52582246 0.40230608
-0.39824706 -0.50034589 0.39948189
0.52629864 -0.47580007 0.40214705
-0.42301178 -0.45015714 0.39795256
0.55102885 -0.40057966 0.40049553
-0.44725475 -0.37461656 0.39301693
-0.44888434 -0.35106188 0.40415847
0.5757339 -0.32543609 0.39884627
-0.77200669 0.024191352 0.39586949
-0.72245264 0.17394151 0.39735723
-0.69651455 0.22362612 0.39297724
-0.8468371 0.24872707 0.39581001
-0.82187837 0.24872471 0.39577031
-0.79693532 0.2487258 0.39579022
-0.77199203 0.24872707 0.39581001
-0.7470389 0.2487258 0.39579022
-0.72208613 0.24872471 0.39577031
-0.69714248 0.2487258 0.39579022
-0.67362028 0.24913312 0.40240574
-0.27522945 -0.67969078 0.4196775
0.40282208 -0.67869478 0.41521657
-0.30017039 -0.65414697 0.41776693
0.42705676 -0.65208668 0.40820909
-0.32454863 -0.62760407 0.41090846
0.42855352 -0.62956864 0.4203614
0.45236999 -0.60241115 0.41026807
-0.34964791 -0.57753253 0.41120851
0.45396233 -0.5796932 0.42243588
0.47771531 -0.5526728 0.41233003
-0.3747493 -0.52744842 0.41148889
0.50309283 -0.50287133 0.41439414
-0.39985508 -0.47735539 0.41176903
0.5279898 -0.45249394 0.41313124
-0.42456314 -0.42682967 0.40914822
-0.42612243 -0.40333802 0.42040181
0.55280602 -0.37703401 0.41148889
0.55459195 -0.35332561 0.42253649
-0.45052522 -0.32734486 0.41537726
0.5775938 -0.30164772 0.40982819
0.57946295 -0.27769592 0.4208647
-0.77555853 -0.00097951666 0.41028833
-0.75030303 0.099247269 0.40946829
-0.72789538 0.14970692 0.42092526
-0.7017706 0.1997869 0.41652143
-0.85116935 0.27478945 0.41188931
-0.82608682 0.27478674 0.41184938
-0.80101496 0.27478674 0.41184938
-0.77594805 0.27478799 0.41186953
-0.7508713 0.27478674 0.41184938
-0.72579938 0.27478674 0.41184938
-0.70072758 0.27478674 0.41184938
-0.67566001 0.27478799 0.41186953
-0.65058386 0.27478674 0.41184938
-0.25135702 -0.68301165 0.43455303
0.37917042 -0.68169051 0.428635
-0.27642742 -0.65735394 0.43264544
0.40429908 -0.65635425 0.42800784
-0.30146664 -0.63172168 0.43071973
-0.3258822 -0.60501593 0.42328238
0.43005899 -0.6068778 0.43258452
-0.32722381 -0.58225173 0.43573058
-0.35107467 -0.55474848 0.42356503
0.45556659 -0.55680478 0.43469489
-0.35251233 -0.53179079 0.43601513
0.4794035 -0.52975422 0.42451286
-0.37627149 -0.50447232 0.42384732
0.48110428 -0.50666374 0.43678761
-0.37780523 -0.48132101 0.43629968
0.50487703 -0.47975186 0.42659295
-0.4014726 -0.4541873 0.42412972
-0.40310252 -0.43084261 0.43658447
0.52969557 -0.42903262 0.42421019
0.5314129 -0.4054113 0.43536508
-0.42769536 -0.37968576 0.43175316
0.55639333 -0.32945815 0.4336797
-0.45218042 -0.30346531 0.4266938
-0.75507486 0.074347563 0.42946458
-0.67934352 0.22556499 0.42895854
-0.65576726 0.25125068 0.43678772
-0.63088208 0.27664551 0.43867958
-0.83033717 0.3011086 0.42808867
-0.80513513 0.30110714 0.42806852
-0.77994841 0.30111024 0.42810893
-0.75474662 0.3011086 0.42808867
-0.72954977 0.3011086 0.42808867
-0.70435286 0.3011086 0.42808867
-0.67915606 0.3011086 0.42808867
-0.65395921 0.3011086 0.42808867
-0.62876236 0.3011086 0.42808867
-0.22726758 -0.68636745 0.44958508
0.35532528 -0.68471533 0.44218445
-0.25246516 -0.66058582 0.44763982
0.38056031 -0.65926927 0.4415319
-0.27763304 -0.63483453 0.44569635
0.38196123 -0.63667053 0.45453036
0.40578771 -0.63383752 0.44089949
-0.30277121 -0.60911363 0.44375551
0.40728807 -0.61114264 0.4538933
0.43157834 -0.58402032 0.44491994
-0.32857782 -0.55931735 0.44829452
0.45718029 -0.5337401 0.44702566
-0.35396329 -0.50866109 0.44858122
0.48281509 -0.48339584 0.44913411
-0.37935323 -0.45799598 0.44886804
0.50667465 -0.45645866 0.43888307
0.50848281 -0.43298686 0.45124543
-0.40474755 -0.40732217 0.44915485
0.53314203 -0.38162842 0.44659638
-0.42927641 -0.35586616 0.44316363
0.55820709 -0.30542749 0.44489944
-0.73312545 0.12508824 0.44357204
-0.70710367 0.17559867 0.44041049
-0.80929667 0.32769093 0.44445002
-0.78398395 0.32769451 0.44449067
-0.75865591 0.32769266 0.44447041
-0.73333299 0.32769266 0.44447041
-0.70800996 0.32769266 0.44447041
-0.6826914 0.32769451 0.44449067
-0.65736836 0.32769451 0.44449067
-0.63204521 0.32769451 0.44449067
-0.3043108 -0.71393645 0.45914054
-0.2788749 -0.71393645 0.45914054
-0.25343728 -0.71393168 0.45912004
-0.22800155 -0.71393168 0.45912004
-0.20256582 -0.71393168 0.45912004
-0.17754596 -0.71549124 0.46587288
0.28156933 -0.71650082 0.47024453
0.30616611 -0.71397924 0.45932591
0.33160344 -0.71397924 0.45932591
0.35704073 -0.71397924 0.45932591
0.38247585 -0.7139746 0.45930541
0.40791297 -0.7139746 0.45930541
0.43335015 -0.7139746 0.45930541
-0.20295629 -0.68975425 0.46475565
0.30703625 -0.69083589 0.46960151
0.33128008 -0.68776059 0.45582581
-0.22828425 -0.66385186 0.46279252
0.33249137 -0.66517657 0.46893823
0.35662669 -0.66221279 0.45518816
-0.25358221 -0.63798028 0.4608314
0.35793835 -0.63953161 0.46829569
-0.2788502 -0.6121394 0.45887268
0.38337326 -0.61389267 0.46763265
-0.30408823 -0.5863288 0.45691609
0.40879801 -0.58826381 0.46696997
-0.30541584 -0.56336123 0.47018242
0.4331091 -0.56099015 0.45734847
-0.32994002 -0.53620285 0.46093452
0.43465152 -0.53778517 0.46987116
0.4588089 -0.51050514 0.45947003
-0.35542309 -0.48535016 0.46122348
0.48454168 -0.45995548 0.46159482
-0.38091061 -0.43448856 0.46151209
0.51030761 -0.40934056 0.46372187
-0.40640256 -0.383618 0.46180105
0.53487992 -0.35767931 0.45788372
-0.43086854 -0.33187997 0.45465374
0.53663284 -0.3335678 0.46926987
-0.4324747 -0.30772799 0.46624517
0.56003326 -0.28123167 0.45619607
-0.73782182 0.10008541 0.46390796
-0.71251082 0.15105264 0.46463144
-0.68515676 0.20160706 0.45592856
-0.66139984 0.22744714 0.46388733
-0.63678062 0.25318211 0.46815062
-0.81349999 0.3545422 0.46099627
-0.78805995 0.35454595 0.46103752
-0.76260942 0.35454595 0.46103752
-0.73715419 0.35454401 0.46101677
-0.71170849 0.35454595 0.46103752
-0.68625796 0.35454595 0.46103752
-0.66080749 0.35454595 0.46103752
-0.63535702 0.35454595 0.46103752
-0.15245947 -0.71721059 0.47331822
-0.1272599 -0.71893781 0.48079693
0.23144044 -0.71992779 0.48508334
0.25663307 -0.7184512 0.47868979
-0.17838283 -0.69303721 0.47946167
0.28258756 -0.69393241 0.48347199
-0.20387833 -0.66714358 0.47806418
0.30815589 -0.6681695 0.48282397
-0.22930755 -0.64115065 0.47608507
0.33371228 -0.64241236 0.48215508
-0.25470647 -0.61518866 0.4741081
0.35926053 -0.61666965 0.48150742
-0.28007519 -0.58925766 0.47213376
0.38479656 -0.59093302 0.48083937
-0.28131202 -0.56619531 0.48552287
0.41032234 -0.56520659 0.48017097
-0.30675206 -0.54020435 0.48353481
-0.33131275 -0.51291031 0.47367167
0.43620309 -0.51440018 0.48246861
0.46044978 -0.48709384 0.47200918
-0.35689411 -0.46185949 0.47396255
0.46210048 -0.46350077 0.48462284
0.48628134 -0.43633693 0.4741497
-0.3824825 -0.41080284 0.47427452
0.51214635 -0.38551453 0.47629321
-0.40807298 -0.35973385 0.47456586
0.53839803 -0.30928943 0.48073447
-0.43408927 -0.2834034 0.47789741
-0.69106656 0.17725122 0.48334646
-0.76659799 0.3816691 0.47775173
-0.74101889 0.3816691 0.47775173
-0.71543974 0.3816691 0.47775173
-0.68986505 0.38167107 0.47777247
-0.66428578 0.38167107 0.47777247
-0.63870645 0.38167107 0.47777247
-0.61312717 0.38167107 0.47777247
-0.10194646 -0.72067291 0.48831022
-0.076518424 -0.72241569 0.49585712
0.18076327 -0.72289777 0.49794412
0.20615068 -0.72140992 0.49150145
-0.15319502 -0.69471306 0.48696852
-0.12789321 -0.69639635 0.49450922
0.23228313 -0.69734704 0.49876738
0.25757745 -0.69590783 0.4923209
-0.17922527 -0.67039335 0.49314129
-0.15393552 -0.67202473 0.50071001
0.28361398 -0.67118329 0.49680555
-0.20480928 -0.644355 0.49150157
0.30928269 -0.6453172 0.49613094
-0.2303407 -0.61827052 0.48950624
0.334943 -0.61946577 0.49547791
-0.25584161 -0.5922175 0.48751354
0.36059117 -0.59362042 0.49480391
-0.2569859 -0.56905979 0.50102699
0.38623124 -0.56778955 0.49415135
-0.28255889 -0.54294622 0.49902034
0.41180304 -0.54187918 0.49299407
-0.30810121 -0.51686388 0.49701631
-0.33269835 -0.48944083 0.48652804
0.43776911 -0.49083993 0.49518299
-0.33409244 -0.46578571 0.49946368
-0.35837892 -0.43819049 0.48682189
0.46376655 -0.43973079 0.49735355
-0.35987285 -0.41433412 0.49975955
0.48803142 -0.41253552 0.48677945
-0.38406402 -0.38693082 0.48711491
0.48979774 -0.38855514 0.4995271
-0.38565785 -0.36287341 0.50005507
0.51399904 -0.36150697 0.48896062
-0.40975368 -0.33566231 0.48740864
0.51586288 -0.33731288 0.50170338
-0.41144741 -0.31140354 0.50035071
0.54017538 -0.28484267 0.49227905
-0.71799356 0.1261417 0.48919141
-0.66712618 0.20324719 0.49143839
-0.64277756 0.22929132 0.49811292
-0.7192136 0.40907022 0.49465656
-0.69350433 0.40907022 0.49465656
-0.66779941 0.40907243 0.49467766
-0.64208579 0.40907022 0.49465656
-0.61638051 0.40907243 0.49467766
-0.025289809 -0.7255426 0.5093962
0.00052901916 -0.72566032 0.50990617
0.026355697 -0.72578299 0.51043749
0.052190393 -0.72590077 0.51094735
0.078032948 -0.72601867 0.5114578
0.10388385 -0.72614133 0.51198971
0.12969317 -0.72589105 0.51090527
-0.050974965 -0.72416657 0.50343823
0.15527762 -0.72439152 0.50441229
-0.10247663 -0.69808745 0.50208437
-0.076944478 -0.69978613 0.50969374
-0.051295958 -0.70149267 0.51733792
0.18140021 -0.7002418 0.51173449
0.20689091 -0.6987915 0.50523829
-0.1285308 -0.67366368 0.50831342
-0.10301036 -0.67531002 0.5159514
0.2331315 -0.67457527 0.51254284
0.2585282 -0.67317444 0.50604367
-0.18007602 -0.64756703 0.50695527
-0.15468329 -0.64915317 0.51458716
0.28464866 -0.64825088 0.51024616
-0.2057478 -0.6213811 0.50504744
0.31042036 -0.62228554 0.50956631
-0.23138221 -0.59520489 0.50303626
0.33618361 -0.59633476 0.50890779
-0.23243059 -0.57194704 0.51665497
0.3619346 -0.57039028 0.50822854
-0.25813776 -0.54570985 0.5146296
0.38767746 -0.54446012 0.50757074
-0.28381392 -0.51950419 0.51260662
0.41328049 -0.51834971 0.50578916
-0.30946133 -0.49333355 0.51060748
0.43934715 -0.46709922 0.50799477
-0.33549967 -0.44194922 0.51252151
0.46544534 -0.41577828 0.51018214
-0.3613809 -0.39029461 0.51281929
0.49157768 -0.36439052 0.51237261
-0.3872667 -0.33863083 0.51311743
0.51774406 -0.31293541 0.51456547
-0.41315714 -0.28695792 0.51341558
-0.15535395 -0.75557405 0.52703321
-0.12939544 -0.75557405 0.52703321
-0.10343608 -0.75556904 0.52701175
-0.077477738 -0.75556904 0.52701175
-0.051519372 -0.75556904 0.52701175
-0.025561022 -0.75556904 0.52701175
0.00039750338 -0.75556397 0.52699029
0.026355697 -0.75556397 0.52699029
0.05231389 -0.75556397 0.52699029
0.078272082 -0.75556397 0.52699029
0.10422979 -0.75555897 0.52696908
0.13018779 -0.75555897 0.52696908
0.15614502 -0.75555372 0.52694738
0.18210287 -0.75555372 0.52694738
0.20805958 -0.75554854 0.52692592
0.23401728 -0.75554854 0.52692592
0.25997496 -0.75554854 0.52692592
0.28593433 -0.75555372 0.52694738
-0.025505228 -0.70284337 0.52338827
0.00042127632 -0.70295811 0.52390242
0.026355697 -0.70307779 0.52443802
0.052298203 -0.70319259 0.52495265
0.078248627 -0.70330739 0.52546716
0.10420748 -0.70342714 0.52600336
0.1301211 -0.70315909 0.52480245
0.15581046 -0.70169771 0.51825559
-0.051619135 -0.67862511 0.53133166
0.1563469 -0.67881072 0.53219271
0.18204144 -0.67739344 0.5256176
-0.077373408 -0.67696381 0.52362382
0.2076361 -0.67598164 0.51906741
-0.12917466 -0.65074664 0.52225351
-0.10354938 -0.65234721 0.52995503
0.20838748 -0.65298265 0.53301108
0.23398688 -0.65161526 0.52643251
0.25948676 -0.65025312 0.51987934
-0.18092325 -0.62451667 0.52071321
-0.15543613 -0.62608665 0.5285579
0.28569165 -0.62513363 0.52379549
-0.20669247 -0.59821606 0.51868272
0.31156722 -0.59906781 0.52310967
-0.20764636 -0.57486546 0.53245103
0.33743423 -0.57301712 0.52244627
-0.23348923 -0.54850322 0.53040648
0.36328891 -0.54697251 0.52176142
-0.2593008 -0.52217299 0.52836478
0.38913307 -0.52093863 0.52107668
-0.28508118 -0.49587443 0.52632499
0.41476932 -0.49463907 0.51868284
-0.31083038 -0.46960762 0.52428806
0.41626713 -0.47074172 0.53165436
0.44093466 -0.4431724 0.52088416
-0.33691567 -0.41792309 0.52566028
0.46713716 -0.39164123 0.52310967
-0.36289829 -0.36606407 0.52596045
0.49337128 -0.34003958 0.52531695
-0.38888556 -0.31419587 0.52626061
0.51963985 -0.28837013 0.52752733
-0.67294866 0.17864099 0.51945186
-0.64869916 0.20492195 0.52769876
-0.025722457 -0.67995399 0.53749752
0.00031263009 -0.68006593 0.53801584
0.026355697 -0.68018222 0.5385561
0.052406915 -0.6802941 0.5390749
0.078466125 -0.68040597 0.53959405
0.10453383 -0.68052238 0.54013455
0.13055192 -0.68023354 0.5387938
-0.077806592 -0.65395534 0.53769159
-0.051945515 -0.65557075 0.54546416
0.1568878 -0.65573323 0.54624557
0.18268798 -0.65435523 0.53961563
0.2091451 -0.62979203 0.54707086
-0.12982291 -0.62763393 0.53628838
-0.10409206 -0.62918824 0.54405451
0.23484936 -0.62846428 0.54043734
0.26045325 -0.62714189 0.53382993
-0.18177219 -0.60125947 0.53449798
-0.15619643 -0.60283172 0.54266739
0.26142785 -0.60383826 0.54789662
0.28674313 -0.60182858 0.53745449
-0.18262811 -0.5778113 0.54839647
0.31272337 -0.57566208 0.53676331
-0.20860809 -0.55132294 0.54633236
0.33869299 -0.54950649 0.53607261
-0.23455651 -0.52486682 0.54427111
0.36465415 -0.52336496 0.53540361
-0.2604734 -0.49844274 0.54221272
0.36603051 -0.49956539 0.54915714
0.39060274 -0.4972305 0.53471363
-0.28635883 -0.4720507 0.54015601
0.39208439 -0.47332957 0.54846179
-0.31221285 -0.44569075 0.53810203
0.41777909 -0.44666284 0.54474819
0.4425371 -0.41906399 0.53389454
-0.33834508 -0.39371091 0.53892362
0.44415203 -0.39476863 0.54700577
0.46883914 -0.36731493 0.53611577
-0.3644276 -0.34164315 0.5392046
0.47055724 -0.34280246 0.54924428
0.49517581 -0.3154977 0.53833973
-0.39051709 -0.28956908 0.53950727
0.52154714 -0.26361239 0.54056704
-0.025941512 -0.65687221 0.55172527
0.0002030693 -0.65698099 0.55224836
0.026355697 -0.65709412 0.55279303
0.052516546 -0.6572029 0.55331624
0.078685455 -0.65731156 0.55383921
0.10486292 -0.65742505 0.55438483
0.13098635 -0.65711689 0.5529021
-0.078242742 -0.63074982 0.55185604
-0.05227413 -0.63231844 0.55969381
0.15743323 -0.63246298 0.56041598
0.18333992 -0.63112497 0.55373061
-0.13047759 -0.60433203 0.55046272
-0.10464014 -0.60583901 0.55829394
0.20990905 -0.60640776 0.56124818
0.23571904 -0.60512048 0.55455935
-0.15696192 -0.57937765 0.55687344
-0.13113678 -0.58082986 0.56473434
0.26241055 -0.58033955 0.56208062
0.28780317 -0.5783338 0.55122447
-0.18348974 -0.5541656 0.56238759
0.28887019 -0.55464327 0.56508529
0.31388894 -0.55206579 0.55052793
-0.20957626 -0.52758247 0.56030655
0.31506401 -0.52827674 0.5644052
0.33996397 -0.52580845 0.54983151
-0.23563091 -0.50103194 0.55822837
0.34124538 -0.50191689 0.56370294
-0.26165384 -0.47451356 0.55615246
0.36741814 -0.4755713 0.56302321
-0.28764498 -0.44802752 0.55407917
0.39357811 -0.44923326 0.56232166
-0.31360233 -0.42157096 0.55198693
0.41930279 -0.42239654 0.55794418
-0.33978343 -0.36930454 0.5522697
0.44577676 -0.37028104 0.56019723
-0.36597148 -0.31703177 0.55257487
0.4722887 -0.31809893 0.56247509
0.49699733 -0.29076767 0.55148566
0.49883312 -0.26584491 0.56473434
-0.026162414 -0.63359535 0.56607366
9.2582777e-05 -0.63370097 0.5666008
0.026355697 -0.63381082 0.56715012
0.052627102 -0.6339165 0.56767786
0.078906633 -0.63402206 0.5682056
0.1051948 -0.63413215 0.56875539
0.1314244 -0.63380647 0.56712818
-0.078683227 -0.60735333 0.56616151
-0.052606031 -0.60887432 0.57406533
-0.02638519 -0.61012101 0.5805434
0.15798323 -0.60899764 0.5747056
0.18399733 -0.60770011 0.5679636
-0.07912676 -0.58375484 0.58056557
0.21067944 -0.58282703 0.57554436
-0.10519201 -0.58228898 0.57263172
0.236596 -0.58158088 0.56879926
-0.15773506 -0.55572969 0.57122111
-0.13180253 -0.55713308 0.57914841
0.26340154 -0.55664366 0.57638383
-0.18435986 -0.53032774 0.57651651
0.28994763 -0.53076214 0.57908177
-0.21055394 -0.50364918 0.57441854
0.31624874 -0.50429219 0.57839608
-0.23671593 -0.47700313 0.57232285
0.34253728 -0.47782925 0.57768822
-0.26284587 -0.45038986 0.57022977
0.36881492 -0.45137718 0.57698059
0.39508411 -0.42493939 0.57629585
-0.28894383 -0.42380917 0.56813943
-0.31494829 -0.39718041 0.56543648
0.42083842 -0.39794025 0.57124293
-0.31630719 -0.37259877 0.57901549
0.44741693 -0.34560493 0.57351387
-0.34123322 -0.34470505 0.56572199
-0.34269691 -0.31991234 0.57930326
-0.36752507 -0.29222307 0.56602955
0.47403085 -0.29319972 0.57578754
-0.369091 -0.26721716 0.57959104
-1.8840656e-05 -0.61022347 0.58107519
0.026355697 -0.6103301 0.58162928
0.052738596 -0.61043245 0.58216119
0.079129688 -0.61053491 0.58269346
0.10552949 -0.61064154 0.58324814
0.13186613 -0.61030006 0.58147407
-0.052940227 -0.58522737 0.5885365
-0.02660987 -0.5864467 0.5951364
-0.00013121217 -0.58654571 0.59567261
0.026355697 -0.58664894 0.59623158
0.13231158 -0.58659542 0.59594095
0.15853785 -0.58533436 0.58911526
0.18466027 -0.58407819 0.58231628
-0.10574937 -0.55854326 0.58711278
-0.079574741 -0.55995995 0.59511399
0.21145751 -0.55905157 0.58998382
0.23748173 -0.55784726 0.58318162
-0.15851355 -0.53187764 0.58566809
-0.1324729 -0.53323162 0.59366274
0.26440239 -0.53275198 0.59083033
-0.18523587 -0.50628793 0.59074116
0.29103398 -0.50668442 0.59319413
-0.21153978 -0.47951648 0.58864772
0.31744134 -0.48010674 0.59248018
-0.23780997 -0.45277473 0.58653474
0.34383982 -0.45354322 0.59178889
-0.2640478 -0.42606553 0.58442414
0.37022543 -0.4269872 0.59107518
-0.29025343 -0.39938954 0.5823164
0.39660251 -0.40044543 0.59038472
-0.29157394 -0.37476605 0.5966115
0.42238358 -0.3732895 0.58462393
-0.31767473 -0.34781799 0.59268081
0.44907001 -0.32073489 0.58693469
-0.34416988 -0.29491934 0.59297085
0.47578955 -0.2681073 0.58922648
0.05285104 -0.58674812 0.5967679
0.079354644 -0.58684731 0.59730506
0.10586652 -0.58694649 0.59784186
-0.053277783 -0.56138331 0.60315311
-0.026836464 -0.56256992 0.60985458
-0.00024454854 -0.5626657 0.61039543
0.026355697 -0.56276131 0.6109364
0.052964449 -0.56286108 0.61150002
0.079581529 -0.56295705 0.61204171
0.13276084 -0.56268966 0.61053073
0.15909804 -0.56147468 0.60366929
0.18532982 -0.56026077 0.59681273
-0.080025852 -0.53595841 0.60976422
0.18600404 -0.53623706 0.61140966
0.21224095 -0.53507078 0.60452282
-0.10631064 -0.53459179 0.60169482
0.23837355 -0.53390902 0.59766293
-0.15929987 -0.50782669 0.60026026
-0.13315006 -0.50913 0.6083231
0.23927294 -0.50976765 0.61226714
0.26541018 -0.5086537 0.60537636
-0.18612057 -0.48205063 0.60510707
0.29212928 -0.48240706 0.60742271
-0.21253231 -0.45517918 0.60297346
0.31864569 -0.45572463 0.60670304
-0.23891141 -0.42834073 0.60084283
0.34515315 -0.42905611 0.60600591
-0.26525792 -0.40153548 0.59871459
0.3716476 -0.40239552 0.6052866
0.39813346 -0.37574878 0.60459018
-0.29290348 -0.34993374 0.61100388
0.42394337 -0.34844756 0.59813261
-0.31905323 -0.32283863 0.60645556
0.42551556 -0.32340917 0.61174846
0.45073333 -0.29566678 0.60043943
-0.34565708 -0.26972803 0.6067704
0.10620695 -0.56305295 0.61258316
-0.053617701 -0.53733152 0.617872
-0.027065014 -0.53848767 0.624699
-0.00035885721 -0.53858006 0.62524438
0.026355697 -0.53867245 0.62579
0.053078827 -0.53876895 0.62635875
0.079810366 -0.53886133 0.62690485
0.10655031 -0.5389539 0.62745118
0.13321391 -0.53858006 0.62524438
0.15966213 -0.53740823 0.618325
-0.10687757 -0.51043957 0.61642373
-0.080481522 -0.51175535 0.62456274
0.18668398 -0.51200902 0.62613142
0.21303107 -0.51088601 0.61918533
-0.16009289 -0.48357013 0.61497676
-0.13383193 -0.48481873 0.62308621
0.24017997 -0.48542067 0.62699568
0.26642653 -0.48435071 0.6200465
-0.1870127 -0.45760986 0.61959314
0.29323375 -0.45792827 0.62176979
-0.2135347 -0.4306407 0.61744189
0.31986007 -0.43113989 0.62104404
-0.24002381 -0.40370503 0.61529338
0.34647736 -0.40436563 0.62034106
0.37308159 -0.37759948 0.61961567
-0.26648003 -0.37680292 0.61314738
-0.26771244 -0.35186201 0.62770164
0.39967468 -0.35084459 0.61889088
-0.29424626 -0.32489535 0.6255399
-0.32044506 -0.29766062 0.62036371
0.42709762 -0.29816952 0.62544906
0.45241258 -0.27040243 0.61407304
-0.053961053 -0.51307714 0.63273978
-0.027295532 -0.51419783 0.63967168
-0.00047415122 -0.51428688 0.64022171
0.026355697 -0.51437569 0.6407721
0.053194195 -0.51446855 0.64134574
0.080041178 -0.51455754 0.64189649
0.10689665 -0.51464653 0.64244747
0.13367085 -0.51426446 0.64008415
0.16023102 -0.51313627 0.63310504
-0.10744846 -0.48607662 0.6312567
-0.080940403 -0.48734042 0.63946533
0.18736975 -0.48757342 0.64097857
0.21382792 -0.48649481 0.63397288
-0.1608915 -0.4591023 0.62979698
-0.13452074 -0.46030185 0.63799906
0.2410948 -0.46086529 0.64185047
0.26745158 -0.45984009 0.63484168
-0.18791094 -0.43295988 0.634179
0.29434738 -0.43324497 0.63623643
-0.21454397 -0.40589264 0.63200951
0.32108459 -0.40635008 0.63550496
-0.24114557 -0.37886187 0.62986529
0.34781054 -0.37946627 0.63477302
0.37452754 -0.35259673 0.63406456
-0.26895335 -0.32670781 0.64235568
0.4012312 -0.32573548 0.63333356
-0.29560038 -0.29964572 0.64019895
-0.32184589 -0.27227661 0.63436151
0.4286949 -0.27273121 0.63928163
-0.054306842 -0.48861018 0.64771295
-0.027528046 -0.48969731 0.65477371
-0.00059044734 -0.48978278 0.65532899
0.026355697 -0.48986819 0.65588415
0.053310566 -0.48995736 0.65646267
0.080273993 -0.4900429 0.6570183
0.10724597 -0.49012849 0.6575737
0.13413173 -0.48973998 0.65505135
0.16080479 -0.48865625 0.6480124
-0.10802518 -0.46150735 0.64623964
-0.081403948 -0.4627184 0.65451968
0.18806142 -0.46292797 0.65595365
0.21463162 -0.4618946 0.64888775
-0.16169822 -0.43442714 0.64476788
-0.13521439 -0.43557024 0.65301764
0.24201746 -0.43609899 0.65683317
0.2684854 -0.43511948 0.6497637
-0.16251066 -0.40953535 0.65984476
-0.18881819 -0.40810445 0.64891088
0.2954686 -0.40835199 0.65080166
-0.21556336 -0.38093811 0.64672303
0.32231933 -0.38135245 0.6500864
-0.24227504 -0.35380596 0.64453793
0.34915701 -0.35436153 0.64934886
-0.24341591 -0.32854024 0.65935814
0.37598559 -0.32738441 0.6486342
-0.27020672 -0.30134279 0.65715718
0.40280074 -0.30041596 0.64789724
-0.29696384 -0.27417934 0.65495872
0.43030497 -0.24708942 0.65322554
-0.054656163 -0.46393505 0.66283858
-0.027762225 -0.46498004 0.66998446
-0.00070775487 -0.46506533 0.67056739
0.026355697 -0.46514729 0.67112744
0.05342795 -0.4652327 0.67171109
0.080508836 -0.46531466 0.67227137
0.10759835 -0.46539685 0.67283225
0.13459657 -0.46500412 0.67014778
0.16138352 -0.46396568 0.66304815
-0.10860598 -0.43672201 0.66132975
-0.081870809 -0.43787926 0.66968131
0.18875904 -0.43807006 0.67105782
0.21544224 -0.43708253 0.66393101
-0.13591516 -0.41062725 0.66818953
0.2429481 -0.41111884 0.67194486
0.26952815 -0.41018566 0.66481447
-0.18973318 -0.38303772 0.66376841
-0.1633314 -0.38443044 0.67507637
0.29660103 -0.38325256 0.66551208
-0.21659142 -0.35577181 0.66156185
0.3235645 -0.35614461 0.66479087
0.35051477 -0.32904547 0.66404712
-0.24456467 -0.30305636 0.674281
0.37745592 -0.30196005 0.66332662
-0.27147076 -0.27576146 0.67208469
0.40438351 -0.27488375 0.66258323
0.053546362 -0.44029182 0.68709302
0.080745727 -0.44037023 0.68765843
0.10795381 -0.44044861 0.6882242
-0.055007979 -0.43904203 0.67807305
-0.027998814 -0.4400506 0.68535137
-0.00082608685 -0.44013199 0.68593955
0.026355697 -0.44021034 0.68650448
0.13506617 -0.44005704 0.68539822
0.16196723 -0.43906161 0.6782136
-0.10919274 -0.41172463 0.67657411
-0.082342453 -0.41282713 0.68499827
0.18946269 -0.41299644 0.68629265
0.21625985 -0.41205576 0.67910409
-0.13662204 -0.38546714 0.68349361
0.24388827 -0.38592508 0.68721092
0.27058154 -0.38503921 0.68001878
-0.19065453 -0.35775408 0.67872894
-0.16415808 -0.35910362 0.69041681
0.29774302 -0.35794091 0.6803472
-0.21762663 -0.33038795 0.67650342
0.32482016 -0.33072391 0.67961991
0.35188401 -0.30351555 0.67886972
-0.24572511 -0.27735686 0.68935525
0.37893629 -0.27631897 0.67811954
-0.27274561 -0.24996117 0.68714011
0.40597963 -0.24913588 0.67739344
-0.055363402 -0.41393498 0.69346344
-0.028237479 -0.41490188 0.70085311
-0.00094546191 -0.41497967 0.70144653
0.026355697 -0.41505414 0.70201659
0.053665631 -0.41512886 0.70258665
0.080984712 -0.41520664 0.70318067
0.10831239 -0.41528112 0.70375109
0.13553913 -0.41488951 0.70075798
0.16255604 -0.413941 0.69351053
-0.10978369 -0.38650599 0.69192767
-0.082817502 -0.3875528 0.70042598
0.1901736 -0.38770762 0.70168376
0.21708584 -0.3868145 0.69443274
-0.13733399 -0.36008406 0.69890773
0.24483517 -0.36050886 0.70258641
0.27164245 -0.359671 0.69533122
-0.19158521 -0.33225656 0.69384158
-0.16499323 -0.3335577 0.70591569
0.2988947 -0.33241457 0.69530773
-0.21867234 -0.30478916 0.69159687
0.32608449 -0.30508497 0.69455099
-0.21972702 -0.27897024 0.70682013
0.35326487 -0.27776924 0.69381809
-0.24689551 -0.25143623 0.70455956
0.38043159 -0.25046274 0.69306147
-0.055721402 -0.38860446 0.70896494
-0.028478248 -0.38953152 0.71649158
-0.0010658838 -0.38960531 0.71709025
0.026355697 -0.38967606 0.7176652
0.053786132 -0.38974696 0.71824038
0.081225798 -0.38982069 0.71883965
0.10867414 -0.38989165 0.71941519
0.1360162 -0.38950208 0.71625221
0.16314995 -0.38860148 0.7089411
-0.083297454 -0.36205927 0.71601295
0.19088961 -0.36219487 0.71718621
0.21791779 -0.36135018 0.70987141
-0.11038077 -0.36106929 0.70743978
-0.1380533 -0.33448097 0.71448135
0.24579033 -0.33487052 0.71809661
0.27271262 -0.33408171 0.71077776
-0.19252391 -0.30653942 0.70908451
-0.16583575 -0.30778691 0.72155082
0.30005619 -0.30667067 0.71039629
0.32736158 -0.27923 0.70963275
-0.22078919 -0.25292599 0.72215152
0.3546575 -0.2518034 0.70889342
-0.056083113 -0.36305398 0.72462738
-0.028721156 -0.36393633 0.73226857
-0.0011873785 -0.36400607 0.73287261
0.026355697 -0.36407304 0.7334528
0.053907707 -0.36414012 0.73403299
0.081469022 -0.36420977 0.73463738
0.10903909 -0.36427686 0.73521793
0.1364975 -0.36389163 0.73188221
0.16374907 -0.36304009 0.72450709
-0.11098215 -0.33540598 0.72306454
-0.0837809 -0.33633798 0.73171282
0.19161192 -0.33645773 0.73282433
0.21875699 -0.33566254 0.72544515
-0.13877784 -0.30864933 0.73016822
0.24675389 -0.30900711 0.73374307
0.27379215 -0.3082681 0.72635984
-0.19346926 -0.28059739 0.72443485
-0.16668442 -0.28178585 0.73730028
0.30122766 -0.28070641 0.72561383
0.32864964 -0.25315392 0.72484398
-0.056447446 -0.33727479 0.74040401
-0.028966216 -0.33811334 0.74818623
-0.0013099536 -0.33817911 0.74879563
0.026355697 -0.33824208 0.74938047
0.054030359 -0.33830521 0.74996626
0.081714414 -0.33837095 0.75057614
0.1094073 -0.33843413 0.75116193
0.13698302 -0.33805561 0.74765027
0.16435347 -0.33725378 0.74020994
