ply
format ascii 1.0
comment PCL generated
element vertex 1323
property float x
property float y
property float z
element camera 0
property float view_px
property float view_py
property float view_pz
property float x_axisx
property float x_axisy
property float x_axisz
property float y_axisx
property float y_axisy
property float y_axisz
property float z_axisx
property float z_axisy
property float z_axisz
property float focal
property float scalex
property float scaley
property float centerx
property float centery
property int viewportx
property int viewporty
property float k1
property float k2
end_header
-0.13784516 -0.36067677 -0.10435402
-0.13827622 -0.34262374 -0.098754287
-0.11887241 -0.32280797 -0.10767448
-0.11925671 -0.30468863 -0.10212719
-0.1196428 -0.28648642 -0.096554637
-0.10027225 -0.26683205 -0.10577464
-0.10057928 -0.24852234 -0.10078907
-0.10076196 -0.22998057 -0.097822785
-0.10076196 -0.2111876 -0.097822666
0.33083397 -0.21080193 -0.1033895
-0.1007612 -0.19239379 -0.097835183
-0.10076196 -0.17360161 -0.097822785
-0.10076349 -0.15480974 -0.097797871
-0.10076349 -0.13601656 -0.097797871
-0.10076272 -0.11722299 -0.097810268
-0.10076196 -0.098429598 -0.097822785
0.34992427 -0.09836489 -0.1006279
-0.10076196 -0.079636708 -0.097822785
0.35020548 -0.079628617 -0.098344564
-0.10076272 -0.060843781 -0.097810268
-0.10076272 -0.042050682 -0.097810268
-0.10076196 -0.023257626 -0.097822785
-0.1007612 -0.0044648685 -0.097835302
-0.10076196 0.014328357 -0.097822785
0.33042321 0.014117587 -0.10694683
-0.10076196 0.033121247 -0.097822785
0.33110705 0.033022676 -0.10102463
-0.1007612 0.051913794 -0.097835183
-0.10045873 0.07047984 -0.10274625
0.31223056 0.070513025 -0.10202789
-0.10014842 0.088963389 -0.10778522
-0.11949556 0.10824043 -0.0986799
0.29336962 0.10797258 -0.1030308
-0.119105 0.12663631 -0.10431707
-0.13854617 0.14607748 -0.095247746
0.27452418 0.14540118 -0.10403264
-0.13811004 0.16441053 -0.10091305
-0.13767025 0.18265197 -0.10662615
-0.15698844 0.20207797 -0.099623203
-0.15649998 0.22023542 -0.10539174
-0.17588228 0.23977964 -0.098381758
-0.17535111 0.25786024 -0.10413158
-0.19479781 0.27752283 -0.097114086
0.14348859 0.27723184 -0.099337816
-0.19422182 0.29552379 -0.10286987
-0.19364607 0.31343642 -0.10862303
0.087194733 0.31527084 -0.096081734
-0.21373168 0.31530342 -0.095857739
-0.21310541 0.33321705 -0.10166872
0.049581952 0.33388948 -0.097300768
-0.23181155 0.35190028 -0.10216427
-0.23151448 0.37022409 -0.10473704
-0.21344092 0.39005831 -0.098555684
-0.19372991 0.38842416 -0.10778522
-0.25179622 -0.55062628 -0.092217922
-0.2522952 -0.532601 -0.088166595
-0.23341921 -0.51371932 -0.088241696
-0.23405552 -0.49587062 -0.082731128
-0.21396258 -0.49384132 -0.093715072
-0.21455923 -0.47599682 -0.088179111
-0.21514907 -0.45805657 -0.082705975
-0.19558424 -0.43808833 -0.08925581
-0.19615912 -0.42011386 -0.083510876
-0.17661092 -0.4001894 -0.090494037
-0.17714107 -0.38213521 -0.084755063
0.23791158 -0.38104406 -0.09262991
-0.15765676 -0.36232868 -0.091731071
0.25712782 -0.36280328 -0.08810389
-0.15814331 -0.34419647 -0.085985303
0.27641526 -0.344495 -0.083561182
-0.13870639 -0.32448316 -0.093166232
-0.13913855 -0.30625927 -0.087552786
0.2945742 -0.30588844 -0.090993881
-0.13957363 -0.28795293 -0.081900597
-0.12002978 -0.26819974 -0.090968847
0.31353563 -0.26829672 -0.089918733
-0.12039246 -0.24979724 -0.085734248
-0.12039334 -0.23091213 -0.085721612
0.33251515 -0.23067282 -0.088830113
-0.12039334 -0.21202596 -0.085721612
-0.12039246 -0.193139 -0.085734248
-0.12039421 -0.17425437 -0.085709214
-0.12039507 -0.15536867 -0.085696697
0.35214716 -0.15551265 -0.082580209
-0.12039507 -0.13648236 -0.085696578
0.35140204 -0.13636939 -0.088629961
-0.12039421 -0.1175956 -0.085709214
0.35066211 -0.11732076 -0.094637275
-0.12039334 -0.098709166 -0.085721612
-0.12039334 -0.079822987 -0.085721731
-0.12039421 -0.060936898 -0.085709095
0.35092935 -0.06088493 -0.092467546
-0.12039421 -0.042050641 -0.085709095
0.35165977 -0.042050641 -0.086537123
-0.12039334 -0.023164511 -0.085721731
-0.12039334 -0.0042783357 -0.085721731
-0.12039334 0.014607754 -0.085721612
-0.12039334 0.033493888 -0.085721612
-0.12039334 0.052380059 -0.085721612
0.33329788 0.052521225 -0.082051516
-0.12028211 0.071192071 -0.087327003
-0.11988793 0.089759186 -0.093016624
0.31427363 0.090295196 -0.083070755
-0.1394245 0.10915448 -0.083837748
-0.13898432 0.12765895 -0.08955586
0.2952652 0.12803777 -0.084089041
-0.15846682 0.14708456 -0.082164764
-0.15797237 0.16550371 -0.088003755
-0.17749667 0.1850279 -0.080905676
-0.15747926 0.18383417 -0.093827248
-0.17695558 0.20336504 -0.086762905
-0.17641708 0.22161491 -0.092592478
0.21974787 0.22265179 -0.082970262
-0.19596049 0.24126752 -0.08549571
0.20058843 0.24108653 -0.087063789
-0.19537777 0.25943834 -0.091318846
-0.21494582 0.27916154 -0.084591746
-0.21434882 0.29728881 -0.090131402
-0.23383632 0.31694579 -0.084629416
-0.23319089 0.3349798 -0.090219021
-0.25179622 0.35350814 -0.092217922
-0.25179467 0.37234211 -0.092230439
-0.29298669 -0.55590361 -0.066827536
-0.2722843 -0.55325001 -0.079594612
-0.29298669 -0.53687203 -0.066827655
-0.27228597 -0.53431922 -0.079582095
-0.25363556 -0.51582801 -0.077284217
-0.2543188 -0.49790177 -0.071737051
0.10661028 -0.49827734 -0.069704294
-0.23469177 -0.47793695 -0.077221274
-0.23532939 -0.45992064 -0.071698904
0.16344866 -0.45956197 -0.073817015
-0.21574292 -0.44003791 -0.077195764
-0.21633807 -0.42193633 -0.071673512
-0.196738 -0.40205675 -0.077726483
-0.19731835 -0.38391256 -0.071927428
-0.17767486 -0.36399785 -0.078976393
-0.17821118 -0.34577483 -0.073170662
-0.17875004 -0.32746565 -0.067337275
-0.15863213 -0.3259789 -0.080212474
0.29659027 -0.32706022 -0.070848227
-0.15912327 -0.30767548 -0.074412584
-0.15961564 -0.2892842 -0.068597674
0.31570596 -0.28916585 -0.069780588
-0.14000976 -0.26956072 -0.076235056
-0.1402193 -0.25083202 -0.073512912
0.33484256 -0.25124183 -0.068673968
-0.14022028 -0.2318529 -0.073500156
-0.14022028 -0.21287274 -0.073500156
-0.14022028 -0.19389245 -0.073500276
0.35364538 -0.19408241 -0.070416212
-0.14022127 -0.17491297 -0.073487401
0.35289443 -0.17474996 -0.076513171
-0.14022321 -0.15593375 -0.073462248
-0.14022225 -0.1369528 -0.073474765
-0.14022127 -0.1179719 -0.07348752
-0.14022028 -0.098991364 -0.073500156
-0.14022028 -0.080011189 -0.073500156
-0.14022127 -0.061030999 -0.07348752
-0.14022127 -0.042050727 -0.073487401
-0.14022028 -0.023070455 -0.073500156
0.35239378 -0.02312498 -0.08057797
-0.14022028 -0.0040901825 -0.073500156
0.35313132 -0.0041070096 -0.074589729
-0.14022127 0.014890302 -0.07348752
0.35387248 0.015003778 -0.068572164
-0.14022028 0.033870187 -0.073500156
-0.14022028 0.052850414 -0.073500037
-0.14022028 0.07183069 -0.073500156
-0.13986677 0.090563342 -0.078092694
-0.15946487 0.10998338 -0.070377946
-0.15896466 0.12857845 -0.076285601
-0.1785866 0.14808978 -0.069106698
-0.17804033 0.16660306 -0.075020194
0.27761546 0.16698004 -0.070568681
-0.19772801 0.18623537 -0.067833781
0.25826037 0.1855984 -0.074728966
-0.1971356 0.20466681 -0.073753595
0.23897234 0.20415683 -0.07885015
-0.21675733 0.22428863 -0.067782879
-0.19654602 0.22301017 -0.079645038
-0.21615076 0.24266292 -0.073411465
-0.23577717 0.26233244 -0.067821264
-0.21554691 0.26095372 -0.079014182
0.18230298 0.26131171 -0.076108456
-0.23512727 0.28061983 -0.073449492
-0.25479642 0.30037493 -0.067859411
-0.23448032 0.2988241 -0.079052091
0.12552471 0.2996918 -0.072790146
-0.25410321 0.31857541 -0.07348752
-0.27373675 0.33832428 -0.068495989
-0.25340849 0.33668748 -0.079127669
-0.29298669 0.35761276 -0.066827536
-0.2722843 0.35554877 -0.079594612
-0.2722843 0.3744821 -0.079594612
-0.31390509 -0.53945392 -0.053927302
-0.29453883 -0.51999617 -0.055626035
-0.27403182 -0.51795328 -0.066241264
-0.27476597 -0.49995354 -0.060631156
-0.27549845 -0.48186532 -0.05503428
-0.25500357 -0.47989234 -0.066177368
-0.25568983 -0.46179944 -0.060605645
-0.2563808 -0.44362673 -0.054995775
-0.2359699 -0.44182324 -0.066151977
-0.23661479 -0.42364636 -0.060567141
0.22168332 -0.42449823 -0.05503428
-0.23726258 -0.4053871 -0.054957032
-0.21693724 -0.40375528 -0.06611371
-0.21753913 -0.38549212 -0.060528636
-0.21814516 -0.36714789 -0.054905534
-0.19790271 -0.36568439 -0.0660882
-0.19846547 -0.34733981 -0.06046474
-0.19902694 -0.32890716 -0.054854035
-0.17929146 -0.30906966 -0.061476231
-0.17983428 -0.29058489 -0.055600166
-0.16011143 -0.27080709 -0.06274271
-0.16024578 -0.25187838 -0.061156154
-0.16024685 -0.23280416 -0.061143398
-0.16024685 -0.2137288 -0.061143398
0.35439849 -0.21350999 -0.06430161
-0.16024578 -0.19465262 -0.061156154
-0.16024685 -0.17557812 -0.061143398
-0.16024902 -0.15650392 -0.061117768
-0.16024795 -0.1374279 -0.061130524
-0.16024685 -0.11835203 -0.061143398
0.37463203 -0.11853307 -0.055265665
-0.16024685 -0.099276647 -0.061143398
0.37382263 -0.099269614 -0.061450601
-0.16024578 -0.080201164 -0.061156154
0.37405059 -0.080223486 -0.059708595
-0.16024685 -0.061126031 -0.061143398
0.37484595 -0.061183836 -0.053631067
-0.16024685 -0.042050641 -0.061143398
-0.16024578 -0.022975463 -0.061156154
-0.16024685 -0.0038999878 -0.061143398
-0.16024685 0.015175402 -0.061143517
-0.16024578 0.034250367 -0.061156154
0.35471183 0.034231756 -0.061757803
-0.16024578 0.05332559 -0.061156154
-0.16024578 0.072400853 -0.061156154
0.33552304 0.072325706 -0.062781096
-0.15996751 0.091298997 -0.064442039
-0.17968705 0.11079541 -0.057193875
0.31634873 0.1103875 -0.06381619
-0.1791355 0.12948748 -0.063164473
-0.1988751 0.14907011 -0.05637157
0.29719046 0.14841747 -0.064850688
-0.19830534 0.16770002 -0.062064767
-0.21798164 0.1872896 -0.056423068
-0.21736807 0.20583142 -0.062115908
-0.2370874 0.2255073 -0.056474447
-0.23643002 0.24396132 -0.062167168
-0.25619233 0.26372361 -0.056525826
-0.25549278 0.28209126 -0.062205672
-0.27529818 0.30194017 -0.056564331
-0.27455494 0.32021996 -0.062243938
-0.3140502 0.34071997 -0.052935362
-0.29383108 0.33951941 -0.060733676
-0.31390318 0.35969615 -0.053940177
-0.10344142 0.39789149 -0.05431354
-0.084080137 0.39712483 -0.058644295
-0.10328936 0.41656324 -0.056782722
-0.084080137 0.41621938 -0.058644295
-0.10328936 0.43567216 -0.056782722
-0.084080823 0.4353165 -0.05863142
-0.10328936 0.45478114 -0.056782603
-0.084080823 0.45441097 -0.05863142
-0.10327197 0.47383127 -0.057065248
-0.084080137 0.47350308 -0.058644295
-0.12269788 0.49393103 -0.052458525
-0.10323795 0.49281898 -0.057617545
-0.084080137 0.49259761 -0.058644295
-0.12265948 0.51294953 -0.053012609
-0.10320318 0.51179528 -0.058182359
-0.084080137 0.51169223 -0.058644295
-0.10354217 0.53216481 -0.052677393
-0.084132008 0.53100914 -0.05768168
-0.33504096 -0.54206043 -0.040904641
-0.33504096 -0.52282923 -0.04090476
-0.31474894 -0.52143341 -0.048157692
-0.31616607 -0.50404817 -0.038468838
-0.29539627 -0.50202167 -0.049437761
-0.29618064 -0.48385844 -0.043777227
0.14577475 -0.48453751 -0.03994143
-0.29696673 -0.46561015 -0.038103819
-0.27623588 -0.46369728 -0.049399018
-0.27697498 -0.44544452 -0.04375124
0.20323101 -0.44537953 -0.04415369
-0.27771917 -0.42711079 -0.038064718
-0.25707331 -0.42536968 -0.049373269
-0.25777057 -0.40703177 -0.043712378
0.24116689 -0.40606204 -0.050342202
-0.25847098 -0.38861024 -0.038025498
-0.23791331 -0.38704497 -0.049321532
0.26072201 -0.3875525 -0.04565835
-0.23856702 -0.36861944 -0.043660402
0.28035089 -0.36897334 -0.040956616
-0.23922369 -0.35010999 -0.037973404
-0.21875253 -0.34871861 -0.049269676
-0.21936268 -0.33020562 -0.043608427
-0.21997702 -0.31160972 -0.037908077
-0.19959098 -0.31039071 -0.049218059
0.31791365 -0.3103824 -0.049295664
-0.20015752 -0.29179013 -0.043556571
-0.20072803 -0.27310607 -0.037855983
-0.18038085 -0.27201349 -0.049683332
0.33720711 -0.27215084 -0.048196435
-0.18047279 -0.25293416 -0.048688054
-0.18047398 -0.23376392 -0.04867506
0.3565208 -0.23388743 -0.047070384
-0.18047398 -0.21459262 -0.048675179
-0.18047279 -0.19542056 -0.048687935
-0.18047518 -0.1762507 -0.048662066
-0.18047637 -0.15707979 -0.048649192
0.37626126 -0.15734935 -0.042816043
-0.18047518 -0.13790779 -0.048662186
0.37544376 -0.13789237 -0.049062848
-0.18047398 -0.118736 -0.048674941
-0.18047398 -0.099564686 -0.04867506
-0.18047398 -0.080393322 -0.04867506
-0.18047398 -0.061222002 -0.048675179
0.37564522 -0.042050682 -0.047523618
-0.18047398 -0.042050641 -0.04867506
-0.18047279 -0.02287945 -0.048688054
0.37645012 -0.022823179 -0.041373014
-0.18047398 -0.0037080012 -0.048674941
-0.18047518 0.015463617 -0.048662066
-0.18047279 0.034634251 -0.048687935
-0.18047398 0.053805996 -0.048675179
0.35712647 0.054056983 -0.042153358
-0.18047279 0.072976679 -0.048687935
-0.20059887 0.092662096 -0.039146662
-0.18024006 0.092012107 -0.051207066
0.3377834 0.092443362 -0.043205857
-0.20002118 0.1115513 -0.044919252
-0.21983793 0.13114782 -0.039198875
-0.19944745 0.13035433 -0.050652027
0.31845662 0.13079737 -0.044257522
-0.21921584 0.14994769 -0.044970989
-0.2390762 0.16963202 -0.03925097
-0.21859661 0.16866109 -0.050716519
-0.2384097 0.1883426 -0.045022845
-0.25831363 0.20811449 -0.039303064
-0.23774627 0.20696715 -0.050768256
-0.25760272 0.22673593 -0.045074821
0.24193749 0.2272471 -0.04033196
-0.27755028 0.2465954 -0.03935504
-0.2568967 0.24527316 -0.050807118
0.22240749 0.2459919 -0.044581771
-0.276795 0.26512757 -0.045126677
-0.29678613 0.28507483 -0.039407253
-0.27604488 0.28357613 -0.050858736
0.16459319 0.28381455 -0.04903698
-0.29598823 0.30351964 -0.045165658
-0.31599262 0.32352388 -0.039654851
-0.29519224 0.32187769 -0.050910234
0.1071662 0.32264957 -0.045632243
-0.33504096 0.34257227 -0.04090476
-0.33503896 0.36180127 -0.040917754
-0.12301467 0.39902955 -0.047885776
-0.1429652 0.42006242 -0.037842989
-0.12285612 0.41778424 -0.050174236
-0.14291197 0.43918413 -0.038534045
-0.12281498 0.43682966 -0.050768375
-0.12277652 0.45587385 -0.051323295
-0.1428588 0.45829526 -0.039224863
-0.14280564 0.47739574 -0.039915204
-0.12273719 0.47490677 -0.05189085
-0.14275253 0.4964858 -0.040605307
-0.14270043 0.51556832 -0.041281939
-0.12308014 0.53348964 -0.046940923
-0.1040751 0.55337048 -0.044023752
-0.084595747 0.55216479 -0.049075961
-0.085062705 0.57346773 -0.040410161
-0.35640159 -0.52536446 -0.027731776
-0.35675481 -0.50643551 -0.025546908
-0.33691117 -0.50584245 -0.028756976
-0.33769974 -0.48742461 -0.023635149
-0.3169094 -0.48569807 -0.033386827
-0.31765765 -0.46727553 -0.028270721
-0.29768568 -0.44719627 -0.032915354
-0.29839483 -0.42869157 -0.027797461
-0.27845645 -0.40868181 -0.032430768
-0.27912647 -0.39009494 -0.027310848
-0.25917622 -0.37010619 -0.032299876
-0.25985226 -0.35148481 -0.026810884
0.30005389 -0.35032386 -0.036237359
-0.23988488 -0.33151749 -0.032247305
0.32016113 -0.33195701 -0.028441668
-0.24054912 -0.31283966 -0.02649498
-0.22059414 -0.29292846 -0.03218174
0.33961269 -0.29341066 -0.02736342
-0.22121271 -0.27416039 -0.026442289
-0.20090568 -0.25400171 -0.036080599
0.35908914 -0.25483689 -0.026218534
-0.20090568 -0.23473348 -0.036080718
-0.20090568 -0.21546516 -0.036080718
0.37873167 -0.21630646 -0.023938656
-0.20090568 -0.19619688 -0.036080718
0.37790519 -0.19655573 -0.030254126
-0.20090699 -0.17692938 -0.036067605
0.37708116 -0.17690332 -0.03655076
-0.2009083 -0.15766159 -0.036054492
-0.20090699 -0.13839255 -0.036067724
-0.20090568 -0.1191238 -0.036080599
-0.20090568 -0.099855497 -0.036080599
-0.20090568 -0.080587268 -0.036080718
-0.20090568 -0.061318956 -0.036080599
-0.20090568 -0.042050682 -0.036080599
-0.20090437 -0.022782499 -0.036093712
-0.20090568 -0.0035141408 -0.036080718
0.37725899 -0.003500469 -0.035192013
-0.20090699 0.015754428 -0.036067724
0.37807187 0.015918169 -0.028980374
-0.20090437 0.035022099 -0.036093712
-0.20090568 0.054290753 -0.036080718
-0.20090568 0.073558986 -0.036080718
-0.22109073 0.093285725 -0.027573943
-0.22046289 0.11226062 -0.03339982
-0.24041691 0.13194874 -0.027639627
-0.23974574 0.15083453 -0.033452272
-0.25972751 0.17059961 -0.027823806
0.30092746 0.17062627 -0.027508259
-0.2590262 0.18940535 -0.033517599
0.28119659 0.18956394 -0.031801701
-0.27899399 0.20921324 -0.028323412
0.26153302 0.20843686 -0.036080599
-0.29897338 0.22904797 -0.023622036
-0.27830735 0.2279758 -0.033570051
-0.29825276 0.24781154 -0.02882266
-0.31826428 0.26771453 -0.024123311
-0.29753512 0.26649779 -0.034001946
0.20442152 0.26762852 -0.024822235
-0.31750393 0.28639454 -0.029322028
-0.33754745 0.30636579 -0.024624467
-0.31674671 0.30499756 -0.034499049
-0.35640159 0.32526776 -0.027731657
-0.33643234 0.32466292 -0.031867146
-0.35639948 0.34459823 -0.027744889
-0.16335708 0.40318552 -0.024413466
-0.14309078 0.40109649 -0.036211252
-0.06631989 0.40223974 -0.029755235
-0.1632745 0.42236343 -0.025388598
-0.06631989 0.42155665 -0.029755235
-0.1632154 0.44157964 -0.026086926
-0.066319279 0.44087112 -0.029768348
-0.1631563 0.46078524 -0.026784539
-0.066319279 0.46018794 -0.029768348
-0.16309723 0.47998014 -0.027481914
-0.066319279 0.47950485 -0.029768348
-0.16303825 0.49916431 -0.028178811
-0.066319279 0.49882177 -0.029768348
-0.16297925 0.51833797 -0.028875232
-0.066319279 0.51813859 -0.029768467
-0.14334652 0.53673458 -0.032889128
-0.066319279 0.5374555 -0.029768467
-0.12384524 0.55530965 -0.035897851
-0.066318676 0.55676919 -0.029781461
-0.12461806 0.57732701 -0.02474308
-0.10461176 0.57472414 -0.035309672
-0.066318676 0.57608593 -0.029781461
-0.10515136 0.59622419 -0.026547432
-0.085532226 0.59491611 -0.031696796
-0.066318676 0.59540266 -0.029781461
-0.066570871 0.61614859 -0.024321198
-0.37798646 -0.52792388 -0.01443243
-0.37798873 -0.5084914 -0.014419198
-0.35865253 -0.48916462 -0.013807654
-0.33849353 -0.46893379 -0.018479347
0.18589482 -0.47046259 -0.0094521046
-0.33929062 -0.4503668 -0.013302445
-0.31840706 -0.44877535 -0.023146987
-0.31916144 -0.43020159 -0.017989159
-0.31991705 -0.41154963 -0.012823224
-0.29910508 -0.4101091 -0.022671938
-0.29982188 -0.39145449 -0.017498732
-0.30053979 -0.3727212 -0.012317657
-0.27979922 -0.37143189 -0.022169948
-0.28047475 -0.35269219 -0.017008066
-0.28115481 -0.33387727 -0.011811614
-0.26048571 -0.33273906 -0.021667838
-0.26112175 -0.31391641 -0.01650393
-0.26176041 -0.29501638 -0.011318684
-0.24116448 -0.2940309 -0.021165729
-0.241761 -0.275125 -0.015999675
-0.24235845 -0.25614032 -0.010825753
-0.2215465 -0.25508013 -0.023344994
-0.24239537 -0.23670222 -0.010505795
-0.2215451 -0.23571287 -0.023358226
-0.24239537 -0.21723703 -0.010505676
-0.2215451 -0.21634671 -0.023358107
-0.24239692 -0.19777273 -0.010492325
-0.2215451 -0.19698048 -0.023358107
-0.24239847 -0.17830826 -0.010479093
-0.22154793 -0.17761567 -0.023331761
-0.24239847 -0.15884285 -0.010479093
-0.22154793 -0.15824921 -0.023331761
-0.24239692 -0.13937692 -0.010492563
-0.2215465 -0.13888232 -0.023344994
-0.24239692 -0.11991173 -0.010492444
-0.2215451 -0.11951557 -0.023358226
0.3993867 -0.119785 -0.014605284
-0.24239692 -0.10044645 -0.010492444
-0.2215465 -0.10014968 -0.023344994
0.3985033 -0.10020424 -0.020980716
-0.24239692 -0.080981165 -0.010492444
-0.2215451 -0.080783129 -0.023358107
0.39866459 -0.080837607 -0.019816637
-0.24239537 -0.061515838 -0.010505676
-0.2215451 -0.061416887 -0.023358107
0.39953405 -0.061492451 -0.013541698
-0.24239537 -0.042050682 -0.010505795
-0.2215451 -0.042050727 -0.023358107
-0.24239537 -0.02258553 -0.010505676
-0.2215451 -0.02268444 -0.023358345
-0.24239692 -0.0031201206 -0.010492444
-0.2215465 -0.0033181086 -0.023344994
-0.24239692 0.016345035 -0.010492444
-0.2215465 0.016048305 -0.023344994
-0.24239385 0.03580964 -0.010519147
-0.22154367 0.03541382 -0.023371458
0.37909108 0.035480876 -0.021192193
-0.24239537 0.055275086 -0.010505915
-0.2215451 0.054780405 -0.023358226
-0.24226305 0.074687302 -0.011651754
-0.22154793 0.074147806 -0.023331881
0.35957801 0.074197859 -0.022249341
-0.24165833 0.093861341 -0.016888618
-0.2616587 0.11356966 -0.012144566
-0.24105459 0.11295538 -0.022117138
0.34007978 0.11288148 -0.023318648
-0.26101229 0.13265857 -0.017392516
-0.28104505 0.15243579 -0.012650371
-0.26036856 0.15166841 -0.022619009
0.3207289 0.15162572 -0.023173451
-0.28035852 0.17144026 -0.017896295
-0.30042362 0.19128633 -0.013155937
-0.27967483 0.19036588 -0.023120642
-0.29969701 0.21020634 -0.018399835
-0.31979445 0.23012148 -0.013661265
-0.31902778 0.24895696 -0.018903136
-0.33915755 0.26894096 -0.014166474
-0.35936311 0.28900009 -0.0094121695
-0.33835083 0.28769228 -0.019406319
-0.3788186 0.30845889 -0.0095188618
-0.35851288 0.30774483 -0.014671564
0.1464898 0.30681753 -0.021363854
-0.37798646 0.32721302 -0.014432549
0.010659851 0.36663148 -0.011038899
-0.18385097 0.40536249 -0.012117743
-0.18378583 0.42468488 -0.012823224
-0.18372071 0.44399658 -0.013528466
-0.18365559 0.4632974 -0.014232993
-0.18359175 0.48259035 -0.014924049
-0.18352672 0.50186962 -0.015627861
-0.18352672 0.52129531 -0.01562798
-0.16384274 0.54001665 -0.018678069
-0.14420626 0.55869281 -0.021720648
-0.14507473 0.58085066 -0.010439157
-0.12539688 0.59953845 -0.013501883
-0.10576744 0.61818427 -0.016543746
-0.086005755 0.6165182 -0.022909522
-0.39980355 -0.51097459 -0.00097811222
0.12760878 -0.51021153 -0.0051084757
-0.39980593 -0.49143854 -0.00096464157
-0.37921664 -0.49034008 -0.0071685314
-0.38065669 -0.47228932 0.0013343096
-0.35949257 -0.47060496 -0.0086113214
-0.36033604 -0.45196861 -0.0033935308
-0.36118305 -0.43325543 0.0018457174
-0.34008887 -0.4317216 -0.0081171989
0.24453259 -0.43195197 -0.0066204071
-0.34089252 -0.41300151 -0.0028973818
0.26444063 -0.41317019 -0.0017434359
-0.34169948 -0.39420393 0.0023440123
-0.32067767 -0.39282283 -0.0076229572
0.2844255 -0.39431593 0.0031522512
-0.32144144 -0.37401897 -0.0024009943
-0.32221031 -0.35513887 0.0028557777
-0.30126068 -0.35391074 -0.0071151257
-0.30198452 -0.33502272 -0.0018912554
-0.30270949 -0.31605518 0.0033409595
-0.28183591 -0.31498298 -0.0066070557
0.34206197 -0.31503201 -0.0061522722
-0.28251806 -0.29600957 -0.0013943911
-0.28318715 -0.27694646 0.0037183762
-0.26240003 -0.27603722 -0.0061254501
0.36170074 -0.2761398 -0.005014658
-0.26304397 -0.25698102 -0.00089728832
-0.26346147 -0.23770277 0.0024920702
0.38135895 -0.23721361 -0.0038627386
-0.2634598 -0.21813664 0.0024785995
-0.26346147 -0.19857232 0.0024920702
-0.26346311 -0.17900792 0.0025056601
0.40206584 -0.17912778 0.004729867
-0.26346311 -0.15944262 0.0025055408
0.40116888 -0.15924628 -0.0017434359
-0.26346311 -0.13987727 0.0025056601
0.40027645 -0.13946578 -0.0081839561
-0.26346147 -0.12031159 0.0024921894
-0.26346147 -0.10074633 0.0024921894
-0.26346147 -0.081181034 0.0024920702
-0.2634598 -0.061615814 0.0024785995
-0.2634598 -0.042050727 0.0024785995
0.40040791 -0.042050682 -0.0072352886
-0.26346147 -0.022485426 0.0024920702
0.4012861 -0.022511581 -0.00089752674
-0.26346311 -0.0029201247 0.0025056601
-0.26346147 0.016645007 0.0024921894
-0.2634598 0.036209796 0.0024787188
-0.2634598 0.055774879 0.0024785995
0.38173994 0.055642877 -0.00095117092
-0.26295629 0.075151131 -0.0016093254
-0.28311661 0.094942838 0.0031791925
-0.26230615 0.094400316 -0.0068879128
0.36206895 0.094662458 -0.0020253658
-0.28242496 0.11418778 -0.0021059513
-0.30261987 0.13405018 0.0026942492
-0.28173444 0.13335219 -0.0073822737
0.34241304 0.13364798 -0.0031120777
-0.30188599 0.15320927 -0.0026022196
-0.30115327 0.17228752 -0.0078901052
-0.32211378 0.17314163 0.0021959543
-0.32133746 0.19221422 -0.0031119585
-0.34159794 0.21221621 0.0016841888
-0.32056436 0.21120735 -0.0083975792
-0.34078106 0.23120351 -0.0036213398
0.26490998 0.23200323 0.0037993193
-0.36107209 0.25127357 0.0011594296
-0.33996761 0.25011149 -0.0089049339
0.24503106 0.25112307 -0.00014507771
-0.36021689 0.27017707 -0.0041306019
-0.38054046 0.29031664 0.00064814091
0.18658635 0.29067433 0.0033814907
-0.39980593 0.30964425 -0.00096464157
-0.39980355 0.32918078 -0.00097811222
-0.20450461 0.42703211 -0.00011813641
-0.20443335 0.44644025 -0.0008302927
-0.20436209 0.46583751 -0.0015419722
-0.20429093 0.48522374 -0.0022535324
-0.20421976 0.50459921 -0.0029644966
-0.20439434 0.52451181 -0.0012197495
-0.18457273 0.54333591 -0.0043047667
-0.048143648 0.54430288 -0.00011813641
-0.16479924 0.56211448 -0.0073822737
-0.048142605 0.56384158 -0.0001449585
-0.16576433 0.58441132 0.0040150881
-0.04814209 0.5833832 -0.00015854836
-0.14594996 0.60320467 0.00093078613
-0.048141569 0.60292459 -0.000172019
-0.1261836 0.62195253 -0.0021460056
-0.048141062 0.62246585 -0.00018525124
-0.1069074 0.64259017 0.0019669533
-0.086848207 0.64010012 -0.0072754622
-0.067311279 0.63982648 -0.0082908869
-0.048140541 0.6420067 -0.00019872189
-0.048236854 0.66224468 0.0023036003
-0.42185438 -0.49384382 0.012620449
-0.42186445 -0.47420987 0.012674809
-0.40198776 -0.47398692 0.01135838
-0.40284187 -0.45513329 0.016182423
-0.38154957 -0.45358536 0.006606698
-0.38244393 -0.43480155 0.01188755
-0.38318971 -0.41580796 0.016291261
-0.36203355 -0.41446462 0.0071066618
-0.36282831 -0.39554513 0.012023211
-0.36353591 -0.37647936 0.016400218
-0.34250981 -0.37532863 0.0076069832
0.3044849 -0.37538528 0.0080398321
-0.34320644 -0.35628143 0.01213181
0.32462159 -0.35638171 0.012946367
-0.34388039 -0.33714741 0.016509175
-0.32294282 -0.33614916 0.0078641176
0.344836 -0.33730483 0.017871737
-0.32358092 -0.31701273 0.01222682
-0.32422319 -0.29781207 0.016618013
-0.30334935 -0.29694548 0.0079586506
0.36435685 -0.29780534 0.016550064
-0.30395579 -0.27774251 0.01233542
-0.30456245 -0.25847226 0.0167135
-0.28375623 -0.25774011 0.0080668926
0.38418359 -0.25855762 0.017721653
-0.28432724 -0.23846789 0.012430429
-0.28474167 -0.21904553 0.015597105
0.40403044 -0.21927492 0.018908143
-0.28474525 -0.19938111 0.015624404
0.40296742 -0.19911088 0.011236429
-0.28474703 -0.1797155 0.015637994
-0.28474703 -0.16004916 0.015637994
-0.28474525 -0.14038226 0.015624404
-0.28474346 -0.12071554 0.015610814
-0.28474525 -0.10104962 0.015624404
-0.28474346 -0.08138302 0.015610695
-0.28474346 -0.061716855 0.015610695
-0.28474167 -0.042050682 0.015597224
-0.28474346 -0.02238447 0.015610814
-0.28474525 -0.0027181283 0.015624404
0.4021706 -0.0028741211 0.0054856539
-0.28474346 0.016947869 0.015610814
0.40305954 0.016862292 0.01190114
-0.28474167 0.036613744 0.015597105
-0.28426865 0.05614071 0.011982441
-0.30450773 0.075979218 0.01631856
-0.28369251 0.075575709 0.0075800419
-0.30389374 0.095412046 0.011887431
-0.3032819 0.1147777 0.0074719191
-0.32416344 0.11531587 0.016209722
0.36460024 0.11545852 0.018526196
-0.32351539 0.13467956 0.011778951
-0.3438175 0.15464914 0.016100764
-0.32286963 0.15397649 0.0073637962
-0.34313539 0.17394386 0.01167047
0.32506868 0.17440319 0.01709497
-0.36346987 0.19397897 0.015991807
-0.34241822 0.19314948 0.0070121288
0.30494463 0.19366878 0.012634039
-0.36275372 0.21320482 0.01156199
0.28489324 0.21286984 0.008215785
-0.38312054 0.23330547 0.01588285
-0.36193302 0.23229261 0.0064852238
-0.3823474 0.25244668 0.01131773
-0.38144204 0.27142134 0.0059719086
-0.40276715 0.27262688 0.015760422
-0.42185691 0.2918852 0.012634039
-0.40170938 0.29151243 0.0097862482
-0.42185438 0.31152657 0.012620568
0.069178946 0.34988907 0.0066201687
-0.2258358 0.43009412 0.016454816
-0.22576684 0.44964364 0.0158149
-0.22566715 0.46912625 0.014889836
-0.22556606 0.48859194 0.01395154
-0.22546503 0.50804323 0.013014317
-0.22612962 0.52906621 0.019181132
-0.20554051 0.5466935 0.010233164
-0.18562815 0.56557536 0.0071204901
-0.1866931 0.58801615 0.018648982
-0.16673934 0.60691315 0.015529156
-0.14683419 0.62576413 0.01241672
-0.12763286 0.64711791 0.018771648
-0.087761737 0.6642884 0.0096777678
-0.068051197 0.66374826 0.0077289343
-0.048874393 0.68652636 0.018867254
0.16807018 -0.49625552 0.026241899
-0.44414279 -0.47652844 0.026365399
-0.44414279 -0.45677945 0.026365399
-0.42408976 -0.4565134 0.024719715
0.22700587 -0.45603985 0.021790028
-0.42493954 -0.43748525 0.029319286
-0.40362179 -0.43614087 0.020587444
-0.40440443 -0.41708288 0.025007606
-0.40518731 -0.39795709 0.029429317
-0.38393581 -0.3967469 0.02069664
-0.38468444 -0.37762016 0.025117159
-0.38543335 -0.35842538 0.029539466
-0.36424813 -0.35734969 0.020805955
-0.36496279 -0.33815411 0.025226951
-0.36567771 -0.31889045 0.029649377
-0.34455875 -0.31794912 0.02091527
-0.34523943 -0.2986846 0.025336742
-0.34592038 -0.27935213 0.029759526
-0.3248677 -0.27854523 0.021024704
-0.34652081 -0.25990719 0.03365922
-0.32551244 -0.25921056 0.025432706
-0.32607689 -0.23976587 0.029291749
-0.3051731 -0.23913679 0.02112031
-0.32656032 -0.22022331 0.032597065
-0.30570224 -0.21969272 0.02493906
-0.30616057 -0.20015843 0.02824676
-0.3062501 -0.18042986 0.028892994
-0.3062501 -0.16066132 0.028892994
-0.30624819 -0.1408924 0.028879285
-0.30624819 -0.12112409 0.028879285
0.42496735 -0.12107915 0.027422428
-0.30624819 -0.10135569 0.028879285
0.42400163 -0.10116953 0.020819664
-0.30624819 -0.081587359 0.028879166
0.42408159 -0.081471756 0.021366358
-0.30624628 -0.061818875 0.028865457
0.42502964 -0.061811119 0.027848363
-0.30624437 -0.042050641 0.028851628
-0.30624628 -0.022282409 0.028865457
-0.30624819 -0.0025140457 0.028879285
-0.30613011 0.01723472 0.028026938
-0.3265321 0.037131172 0.032404065
-0.30566806 0.036893774 0.024692297
0.40428206 0.036771569 0.020724058
-0.32604468 0.056798574 0.029071689
-0.30512196 0.056478117 0.020751357
-0.34649321 0.07677196 0.033479929
-0.32546431 0.076384962 0.025103569
0.38443351 0.076132193 0.019631505
-0.34587806 0.096360296 0.029484272
-0.32481375 0.095884532 0.020655751
-0.3451888 0.11585762 0.025007725
-0.36563545 0.13589971 0.02938807
-0.34450194 0.13528717 0.020546436
-0.36491182 0.15532738 0.024911642
0.34526321 0.15507022 0.021571517
-0.38538909 0.17543477 0.029277921
-0.3641907 0.17468736 0.02045083
-0.4059338 0.19560963 0.033645511
-0.38462874 0.19479151 0.02478838
-0.40513858 0.21496539 0.029154301
-0.38387331 0.21408193 0.020327806
-0.42571843 0.23520787 0.033535004
-0.40434614 0.23425348 0.024678707
-0.4248887 0.25449336 0.029044271
-0.4035565 0.2534743 0.020218611
-0.44414279 0.27393317 0.026365399
-0.42392269 0.27361912 0.023815513
0.22747988 0.27421227 0.028631687
-0.44414279 0.29368216 0.026365399
0.16834716 0.31424499 0.032238603
0.12852132 0.3329114 0.024527907
-0.20669705 0.56907606 0.021790147
-0.18776903 0.61066449 0.030296326
-0.029531233 0.61063313 0.030172348
-0.16779181 0.62983185 0.027958274
-0.029530801 0.63040775 0.03015852
-0.029530384 0.65018219 0.03014493
-0.10842181 0.66896617 0.026557684
-0.029529534 0.66995263 0.030117273
-0.068800531 0.68797463 0.023952484
-0.02952911 0.68972671 0.030103564
-0.46667266 -0.45902544 0.040259361
-0.46666986 -0.43916735 0.040245414
-0.44617411 -0.43865547 0.036920428
-0.4472656 -0.41965476 0.042591929
-0.42576179 -0.4183645 0.033769727
-0.44813097 -0.40040395 0.047088504
-0.42658684 -0.39917719 0.038235426
-0.42741224 -0.37992156 0.042703152
-0.40597531 -0.37876692 0.033880115
-0.42824307 -0.36060074 0.047200084
-0.40676609 -0.35951018 0.038346529
-0.40755963 -0.34018648 0.042828321
-0.3861872 -0.33916602 0.033990622
-0.40827194 -0.32074428 0.046851516
-0.38694364 -0.31983966 0.038457274
0.36706364 -0.31984714 0.038526535
-0.38761798 -0.30039603 0.042439103
-0.36639735 -0.29956174 0.034101009
-0.3881835 -0.28083181 0.045778275
-0.36703441 -0.28011724 0.03804183
0.38705677 -0.28026819 0.039676905
-0.36757237 -0.2605601 0.041369557
-0.36811173 -0.24095245 0.044706106
-0.34703141 -0.24035732 0.036975741
0.40707356 -0.24065721 0.040869951
-0.34754553 -0.22075799 0.040314794
-0.34806091 -0.20110783 0.043662548
-0.32704699 -0.20063131 0.035924673
-0.3484017 -0.18134502 0.045875907
-0.3274782 -0.18096764 0.038872957
0.42788863 -0.18142688 0.047395349
-0.34871942 -0.16154112 0.04793942
-0.32777843 -0.16121712 0.040925384
0.42691186 -0.16120745 0.040717244
-0.32797545 -0.14140792 0.042272449
0.4259361 -0.14109124 0.034045815
-0.32797545 -0.12153651 0.042272449
-0.32797545 -0.10166502 0.042272329
-0.32797545 -0.081793621 0.042272329
-0.3279734 -0.061922044 0.042258501
-0.3279734 -0.042050682 0.042258382
0.42598253 -0.042050682 0.034363389
-0.34871081 -0.022136044 0.047883868
-0.32776627 -0.022190228 0.040842056
0.42694232 -0.02218963 0.040925384
-0.34839094 -0.0022533946 0.04580605
-0.32746607 -0.0023614205 0.038789868
0.42790699 -0.0022269003 0.047520876
-0.34804377 0.017593216 0.043551207
-0.32702276 0.017413288 0.035758734
-0.34752414 0.037370522 0.040176153
-0.36809602 0.057396468 0.044608712
-0.34700799 0.057096843 0.03682375
0.40718129 0.057282526 0.041647315
-0.36755216 0.077130541 0.041244507
-0.38816938 0.097233847 0.045694828
-0.36700979 0.096813232 0.037889361
0.38716751 0.096955121 0.040522933
-0.38759917 0.11692417 0.042328
-0.36635941 0.11640319 0.033866405
-0.40825963 0.13710469 0.046781778
-0.38691312 0.13651545 0.03827703
0.36717287 0.13659418 0.039413333
-0.40753502 0.15669577 0.042689323
-0.38614979 0.15600909 0.033769727
-0.42822501 0.1769442 0.047102451
-0.40673175 0.17618635 0.038152456
-0.42738658 0.19643359 0.042564154
-0.44811216 0.21675025 0.046990991
-0.42655101 0.21585466 0.038041711
-0.44723883 0.23616885 0.042453051
-0.46667266 0.25578862 0.040259361
-0.44607028 0.25534058 0.036381006
-0.4666754 0.27564618 0.04027319
-0.22789985 0.55255318 0.035606742
-0.20814615 0.59235692 0.03627038
-0.18913746 0.63432091 0.045109868
-0.14863423 0.65170604 0.035800338
-0.12935829 0.67371035 0.043676376
-0.089094929 0.69095576 0.034418583
-0.069649257 0.71308035 0.042328
-0.049656145 0.71215886 0.039177775
-0.029868752 0.71273094 0.041133642
0.20954531 -0.48194996 0.058377743
-0.48944783 -0.44133198 0.0543046
0.26914749 -0.44126073 0.053841829
-0.48944491 -0.42136589 0.054290533
-0.46846968 -0.42062691 0.049237967
0.2886427 -0.42056352 0.048804998
-0.49083591 -0.40232912 0.060982823
-0.4698208 -0.40163717 0.055988431
0.3090741 -0.40134749 0.053897858
-0.47065121 -0.38220313 0.06013751
-0.44899666 -0.38108408 0.051586747
0.32958457 -0.38205382 0.058996797
-0.44978702 -0.36164674 0.055693626
-0.45043898 -0.34206319 0.059081197
-0.42899406 -0.3411606 0.051264882
-0.42961779 -0.3215839 0.054641128
-0.43024057 -0.30195457 0.058012009
-0.40886518 -0.301173 0.05020225
0.3899816 -0.30235621 0.062026381
-0.43086502 -0.28227419 0.06139183
-0.40945998 -0.28155077 0.053561568
-0.41005635 -0.26187769 0.056929708
-0.38875052 -0.26121688 0.049126148
-0.41065669 -0.24215437 0.060320616
-0.38931897 -0.24155107 0.052482724
-0.38988176 -0.22183135 0.055805922
-0.36865476 -0.22129501 0.048065186
-0.39023393 -0.20198368 0.057885408
-0.36910194 -0.20154932 0.050831318
0.42887253 -0.20175201 0.054122329
-0.39058667 -0.18210439 0.059968352
-0.36943683 -0.18172354 0.052902937
-0.39094001 -0.16219299 0.062054634
-0.36977226 -0.16186614 0.054977894
-0.37003779 -0.14196005 0.056620359
-0.34902689 -0.14170291 0.049936533
-0.3701514 -0.12199992 0.057323098
-0.34913447 -0.12179397 0.050635695
-0.3702673 -0.10202914 0.058040142
-0.3492443 -0.10187472 0.051349044
-0.3702673 -0.082036294 0.058040142
-0.34924218 -0.081933036 0.051334977
-0.3701514 -0.062037997 0.057323217
-0.34913236 -0.061986409 0.050621629
-0.37003553 -0.042050682 0.056606412
-0.34902257 -0.042050682 0.049908519
-0.39094239 -0.022026824 0.062068701
-0.36976999 -0.022081519 0.054963708
-0.39058906 -0.0020351708 0.059982538
-0.36943233 -0.0021446012 0.052874923
-0.39023393 0.017924197 0.057885408
-0.36909518 0.017760284 0.050789475
0.42887458 0.017837599 0.054136276
-0.38987938 0.037851486 0.055791855
-0.36864346 0.037611414 0.04799521
-0.3893142 0.057698529 0.05245471
-0.4106617 0.0580022 0.06034863
-0.4100588 0.077855632 0.056943655
-0.38874108 0.077492058 0.049070358
-0.4308728 0.098081902 0.061434031
-0.4094575 0.097656995 0.053547502
-0.43024316 0.11789095 0.058026075
-0.40885779 0.11740667 0.05016017
0.38994837 0.11812182 0.061772466
-0.4296152 0.13764824 0.05462718
-0.45044166 0.15795869 0.059095383
-0.42898631 0.15735283 0.05122304
-0.44978702 0.17767158 0.055693626
-0.47065967 0.1980608 0.06017971
-0.44898856 0.19726317 0.051544905
0.32955119 0.197923 0.05868721
-0.49085933 0.2181619 0.061095715
-0.4698264 0.21765353 0.056016684
0.30909374 0.21746115 0.054094195
-0.48944491 0.23744471 0.054290533
-0.46843612 0.23688202 0.049070358
0.28870982 0.23693182 0.049531341
-0.48945069 0.25741196 0.054318666
0.2691938 0.25742003 0.054388762
0.20952627 0.29783091 0.058068275
-0.22967488 0.57630366 0.052076817
-0.20979804 0.61637539 0.052776933
-0.16991594 0.65635175 0.053043127
-0.010469355 0.65854806 0.061194301
-0.15057713 0.67852199 0.061039209
-0.010469031 0.67856103 0.061180353
-0.10996664 0.69586164 0.051642895
-0.010468703 0.69857401 0.061166167
-0.090454258 0.71814591 0.059644461
-0.010468379 0.71858686 0.061152101
-0.51247239 -0.42344472 0.068503618
-0.51246929 -0.40336934 0.068489313
-0.51246631 -0.38329419 0.068475246
-0.49229592 -0.38323304 0.06800735
-0.51419812 -0.36421067 0.076509953
-0.49300671 -0.3635847 0.071427345
-0.47133154 -0.36261278 0.063536763
0.35017422 -0.36268243 0.064101815
-0.49371648 -0.34388307 0.074841976
-0.47201371 -0.34297124 0.066944957
0.37084493 -0.34323478 0.069226861
-0.47269481 -0.32327658 0.070347905
-0.45108992 -0.32242694 0.06246376
-0.47338051 -0.30353189 0.07377398
-0.45174527 -0.30274084 0.065869212
-0.45239967 -0.2830019 0.069269419
-0.45305574 -0.26321119 0.072678328
-0.43149102 -0.26254252 0.064780235
0.41017133 -0.26241088 0.063226104
-0.45351326 -0.24328877 0.075055838
-0.43206894 -0.2427385 0.067908168
-0.43245673 -0.22281514 0.070007205
-0.41111112 -0.22232185 0.062887192
0.43038383 -0.22243048 0.064455152
-0.43284777 -0.20286058 0.072123766
-0.41148135 -0.2024205 0.064978242
-0.43323681 -0.1828728 0.074229598
-0.41185215 -0.18248713 0.067072392
-0.43359226 -0.16284417 0.076153398
-0.41222355 -0.16252166 0.069169998
-0.41238686 -0.14247872 0.07009244
-0.39115751 -0.1422188 0.063338995
-0.41251254 -0.12241499 0.070802331
-0.39127713 -0.12220687 0.06404531
0.45141202 -0.12241669 0.070859194
-0.41263834 -0.10234031 0.07151258
-0.39139682 -0.10218419 0.064751983
0.45036075 -0.10216755 0.064031124
-0.41264334 -0.08224421 0.07154119
-0.3913992 -0.082139894 0.064766049
0.45034555 -0.082127027 0.0639323
-0.41251504 -0.062141847 0.070816517
-0.39127952 -0.062089838 0.064059377
0.451377 -0.062140442 0.070631981
-0.4123894 -0.042050727 0.070106626
-0.39115751 -0.042050641 0.063338995
-0.43359753 -0.021918202 0.076182008
-0.41223362 -0.021971704 0.069226742
-0.43324998 -0.0018147305 0.074301004
-0.41185969 -0.001925353 0.067114949
-0.43285826 0.01825441 0.072180629
-0.41148889 0.018089008 0.065020561
-0.43246982 0.038291302 0.070078254
-0.41111615 0.038070735 0.062915444
0.43032596 0.038105961 0.064059377
-0.45353246 0.058572236 0.075155497
-0.4320794 0.058295395 0.067964792
-0.4530831 0.078588933 0.072820663
-0.4315041 0.078220904 0.064850807
0.4101283 0.078131452 0.062915444
-0.4524188 0.098509461 0.06936872
-0.47340614 0.11886877 0.073902249
-0.45175892 0.1183783 0.065939903
-0.47271752 0.13874532 0.070461631
-0.45110077 0.1381951 0.062520146
-0.49374902 0.15918297 0.074998856
-0.4720307 0.15856966 0.067029834
0.37068775 0.1586405 0.067950726
-0.49303329 0.1790148 0.071555376
-0.47134286 0.17834057 0.063593268
0.35008124 0.1783154 0.063296795
-0.51246631 0.19882709 0.068475246
-0.49231946 0.19879441 0.068120956
-0.51246929 0.21890177 0.068489313
-0.51247543 0.2389781 0.068517685
-0.13111866 0.70082963 0.069085002
-0.050744526 0.74049574 0.067454696
-0.030642606 0.74013877 0.066265464
-0.010588754 0.74016845 0.066364527
-0.53574729 -0.38517475 0.082844615
-0.53574407 -0.36498913 0.082830191
-0.5358305 -0.34485015 0.083217263
-0.51555425 -0.34480217 0.0828017
-0.51629978 -0.32499158 0.086260557
-0.49443102 -0.32413143 0.078279972
0.39296126 -0.3248336 0.084795356
-0.51704419 -0.30512702 0.08971417
-0.49514747 -0.30432776 0.081727028
-0.49586284 -0.28447056 0.085168719
-0.47406518 -0.28373399 0.07719481
0.41332325 -0.28454486 0.085973144
-0.49631381 -0.26445267 0.087338805
-0.47465146 -0.26384172 0.080123901
-0.49675959 -0.24439941 0.089483619
-0.47507548 -0.24384207 0.082242727
0.433714 -0.24422544 0.087223649
-0.47550315 -0.22381084 0.084379196
-0.45392215 -0.22331215 0.077180505
-0.4759286 -0.20374626 0.086504817
-0.45432901 -0.20330223 0.079294682
-0.47635466 -0.183649 0.088633895
-0.45473647 -0.18325989 0.081411839
-0.47659397 -0.16347589 0.089829326
-0.455037 -0.16315922 0.08297348
0.45352888 -0.16323474 0.084608793
-0.47673821 -0.14326617 0.090550184
-0.45517504 -0.14300211 0.083690524
-0.43372402 -0.14273942 0.076866627
0.45246655 -0.1427718 0.077708721
-0.45531583 -0.12283435 0.084422231
-0.43385848 -0.12262414 0.077594519
-0.45545393 -0.10265498 0.08513999
-0.43399042 -0.10249716 0.078308463
-0.45546228 -0.082454219 0.085183024
-0.43399569 -0.082348786 0.078337073
-0.45532137 -0.062246718 0.08445096
-0.43386376 -0.062194243 0.077623129
-0.47674686 -0.042050682 0.090593338
-0.43372929 -0.042050682 0.076895118
-0.45518333 -0.042050641 0.083733559
0.4524138 -0.0420506 0.077366114
-0.47660261 -0.021812774 0.089872599
-0.45504254 -0.021865766 0.08300221
0.45345598 -0.021856947 0.084135175
-0.47638351 -0.0015917756 0.0887779
-0.45475858 -0.0017034635 0.081526518
-0.47595733 0.018588502 0.086648583
-0.45434827 0.018420964 0.079394698
-0.47552896 0.038735595 0.084508419
-0.45393866 0.038512554 0.077266097
-0.49679261 0.059129748 0.089642048
-0.47510129 0.058849845 0.082371712
0.43349117 0.058978062 0.085700154
-0.49634671 0.079266742 0.087496996
-0.47467434 0.078931585 0.080238342
-0.49590164 0.099371031 0.085355401
-0.4740966 0.098939732 0.077351928
0.41312423 0.09932676 0.084537029
-0.5171001 0.11985852 0.089973688
-0.49518615 0.11936213 0.081913233
-0.51634938 0.13985588 0.086490393
-0.49446666 0.13929883 0.078451514
0.39277539 0.13963999 0.083375096
-0.53596175 0.15986103 0.083805203
-0.51560062 0.15980025 0.083016515
-0.53574729 0.17997073 0.082844615
-0.51429653 0.17947306 0.076966524
-0.53575045 0.20015585 0.082859039
0.25153995 0.28108224 0.084407926
0.19115701 0.32199955 0.088202
-0.19313675 0.66587883 0.088403463
-0.1720832 0.68339896 0.078637242
-0.15255851 0.70586902 0.086778045
-0.11170124 0.72404456 0.079809308
0.19157782 -0.50860852 0.0960114
0.25207162 -0.46727905 0.091314435
0.31382722 -0.42825526 0.10139382
-0.55927962 -0.34648141 0.097344279
-0.55927962 -0.32618606 0.097344279
-0.53784752 -0.32563731 0.092252374
-0.55927622 -0.30588919 0.097329736
-0.53903919 -0.30591533 0.097590566
-0.5604499 -0.28606337 0.10241187
-0.53952175 -0.28581774 0.099752307
-0.51763493 -0.2851437 0.092454672
-0.54000187 -0.26568592 0.10190284
-0.51809591 -0.26506704 0.094593406
-0.54048276 -0.24552129 0.10405695
-0.51856077 -0.24495885 0.09675014
-0.5190233 -0.22481669 0.098895907
-0.49720311 -0.22431234 0.091617346
-0.51948655 -0.20464167 0.10104513
-0.4976474 -0.20419273 0.093754768
0.45566377 -0.20448336 0.098474979
-0.51988465 -0.18441734 0.10289204
-0.49809235 -0.18404031 0.095895648
0.45459241 -0.18380436 0.091516376
-0.52004468 -0.16411352 0.1036346
-0.49826092 -0.16379358 0.096706748
-0.52020162 -0.14379774 0.10436285
-0.49841452 -0.14353156 0.097445607
-0.52035868 -0.12347077 0.10509145
-0.4985652 -0.12325761 0.0981704
-0.47688258 -0.12304518 0.091271162
-0.49871594 -0.10297263 0.098895788
-0.47702986 -0.10281362 0.092007041
-0.49873102 -0.082666479 0.098968387
-0.47704136 -0.082560197 0.092064857
-0.49858028 -0.062353 0.098243117
-0.47689408 -0.062299669 0.091328859
-0.52022052 -0.042050682 0.10445035
-0.49842656 -0.042050682 0.097503543
-0.52006036 -0.021706281 0.10370719
-0.49827296 -0.021759741 0.096764445
-0.51990032 -0.0013734214 0.10296488
-0.49812245 -0.0014799163 0.096040487
0.4545058 -0.0015582927 0.090953827
-0.51953351 0.018926039 0.10126305
-0.49768347 0.018756632 0.093928337
0.45556107 0.018846169 0.097808123
-0.51906705 0.039184865 0.09909904
-0.49723911 0.038959865 0.091790676
-0.54053479 0.059693653 0.10429001
-0.51860136 0.059410635 0.096938372
-0.54005063 0.079942212 0.102121
-0.51813644 0.07960327 0.094781518
-0.5605877 0.10032222 0.10300851
-0.53956717 0.1001578 0.099955559
-0.5176754 0.099763691 0.092642426
-0.55931306 0.12032133 0.097489238
-0.53908449 0.12034006 0.097793579
-0.5592829 0.14060882 0.097358823
-0.53801841 0.14030804 0.093017936
-0.5592829 0.16090427 0.097358584
0.33418354 0.22222219 0.10167027
0.31337988 0.2420394 0.096923947
0.0090580136 0.68738019 0.093003511
0.0090582334 0.70763808 0.092989087
0.0090584606 0.72789568 0.092974544
-0.13353047 0.73109072 0.10389674
-0.071911849 0.74765909 0.091314554
0.0090586804 0.74815321 0.092960238
-0.031771764 0.7714864 0.10293579
-0.011363164 0.77055079 0.099897385
0.3347252 -0.40866348 0.10669613
0.35570729 -0.38899267 0.11201978
0.3767722 -0.36924088 0.11734998
-0.58307362 -0.30735785 0.11200511
0.41653681 -0.30707365 0.10916519
-0.58307362 -0.28694963 0.11200511
-0.58307362 -0.26654133 0.11200511
-0.56171584 -0.26619321 0.10789359
0.43710083 -0.26640376 0.11037934
-0.58307362 -0.24613316 0.112005
-0.56252664 -0.24608685 0.1114043
-0.58380538 -0.22593738 0.11507142
-0.56302774 -0.22583356 0.11357403
-0.54096442 -0.22532368 0.10621452
0.45769265 -0.22570054 0.11165333
-0.56352961 -0.20554709 0.11574721
-0.54144686 -0.20509319 0.10837579
-0.56378424 -0.18516952 0.11684978
-0.5417766 -0.1847924 0.10985255
-0.56395411 -0.16475789 0.11758542
-0.54193997 -0.16443458 0.1105845
-0.56412411 -0.14433497 0.11832142
-0.54210341 -0.14406538 0.11131644
-0.56429756 -0.12390129 0.11907268
-0.54227018 -0.12368554 0.11206365
0.47876713 -0.12380029 0.11579144
-0.5424338 -0.10329364 0.11279666
-0.52051586 -0.10313254 0.10582066
0.4776274 -0.10320009 0.10874116
-0.54245675 -0.082880996 0.1128993
-0.52053475 -0.082773268 0.10590816
0.47749513 -0.082804278 0.10792267
-0.5643214 -0.062514141 0.11917579
-0.54228985 -0.062460132 0.11215162
-0.52037758 -0.062406376 0.10517907
0.47861516 -0.062480874 0.11485112
-0.56415129 -0.042050727 0.11843932
-0.5421263 -0.042050682 0.11141896
-0.5639779 -0.02159868 0.11768842
-0.54195958 -0.021652693 0.11067212
-0.56380802 -0.0011580922 0.11695278
-0.54179621 -0.0012659915 0.10994041
-0.56360084 0.019267626 0.11605585
-0.54150563 0.0190963 0.10863888
-0.58398771 0.039700251 0.11583543
-0.56309551 0.039639588 0.1138674
-0.5410198 0.039411653 0.10646272
0.45726457 0.039485771 0.10887277
-0.58307707 0.059991103 0.11201966
-0.5625909 0.059978154 0.11168277
-0.58307707 0.080399409 0.11201978
-0.56186432 0.080238685 0.10853648
0.43670943 0.08020018 0.10770357
-0.58307707 0.10080779 0.11201978
-0.58308059 0.12121707 0.11203432
0.41617045 0.12087752 0.10652089
0.39704835 0.16234134 0.11602652
0.37601641 0.18237299 0.11121392
0.35506055 0.20233232 0.10641885
0.29441592 0.26399171 0.1113019
0.23347366 0.30530033 0.11514485
-0.093470268 0.75495458 0.11561513
0.0088339373 0.77290946 0.10755754
0.23449805 -0.49406785 0.1299305
0.29569301 -0.45223579 0.12512684
0.39792001 -0.34940773 0.1226871
0.41980565 -0.3300024 0.13275564
-0.60713744 -0.22675298 0.12684476
-0.60713744 -0.20623052 0.12684476
-0.58511198 -0.20584267 0.1205467
-0.60713744 -0.18570803 0.12684476
-0.58555579 -0.18546884 0.12240636
-0.60713744 -0.16518553 0.12684464
-0.58599669 -0.16506591 0.12425387
0.4810673 -0.16533218 0.13001978
-0.60713744 -0.14466307 0.12684476
-0.58626151 -0.14460611 0.12536371
0.47991535 -0.14451091 0.12289393
-0.60714102 -0.12414099 0.12685943
-0.5864417 -0.12411819 0.1261189
-0.60714102 -0.1036184 0.12685955
-0.58661842 -0.1036184 0.12685955
-0.56446773 -0.10345563 0.11980951
-0.60714102 -0.083095856 0.12685955
-0.58664674 -0.083097689 0.12697816
-0.56449157 -0.082988977 0.11991286
-0.60714102 -0.062573269 0.12685955
-0.58646995 -0.062568501 0.12623727
-0.60714102 -0.042050727 0.12685955
-0.58629328 -0.042050727 0.12549686
0.47974104 -0.042050682 0.12181568
-0.60714102 -0.021528099 0.12685955
-0.58606726 -0.021545818 0.12454963
0.4808729 -0.021512933 0.12881708
-0.60714102 -0.0010055117 0.12685955
-0.58562273 -0.0010697059 0.1226871
-0.60713744 0.019516777 0.12684476
-0.58518237 0.019378208 0.12084174
-0.60713744 0.040039148 0.12684476
0.46071255 0.060731959 0.13126802
0.43998212 0.101781 0.13007927
0.4192681 0.14279243 0.12887645
