ply
format ascii 1.0
comment PCL generated
element vertex 1336
property float x
property float y
property float z
element camera 0
property float view_px
property float view_py
property float view_pz
property float x_axisx
property float x_axisy
property float x_axisz
property float y_axisx
property float y_axisy
property float y_axisz
property float z_axisx
property float z_axisy
property float z_axisz
property float focal
property float scalex
property float scaley
property float centerx
property float centery
property int viewportx
property int viewporty
property float k1
property float k2
end_header
-0.39201832 -0.078852788 -0.40718395
-0.37873745 -0.078941591 -0.40487695
-0.36542088 -0.079030327 -0.4025715
-0.35222358 -0.079170629 -0.39892566
-0.065876752 -0.07898178 -0.40383321
-0.52945489 -0.065499753 -0.39972049
-0.51480174 -0.065349758 -0.40459377
-0.50042194 -0.065230161 -0.40847623
-0.48629874 -0.065142155 -0.41133618
-0.36451274 -0.065184996 -0.4099443
-0.35135153 -0.06529174 -0.40647769
-0.33818829 -0.065413199 -0.40253413
-0.16115421 -0.065442793 -0.4015699
-0.52883393 -0.051793028 -0.40260136
-0.51421547 -0.051681876 -0.40741432
-0.49989992 -0.051597122 -0.41108459
-0.35106337 -0.051645897 -0.40897328
-0.33791414 -0.051735882 -0.40507817
-0.32470742 -0.051826384 -0.40115833
-0.16110528 -0.051670082 -0.4079268
-0.52917236 -0.038199093 -0.40103114
-0.51454628 -0.038125351 -0.40582281
-0.50020522 -0.038067851 -0.40955907
-0.3643887 -0.03804642 -0.41095138
-0.35122794 -0.038098842 -0.40754813
-0.33806682 -0.038158651 -0.40366161
-0.32485056 -0.03821924 -0.399728
-0.16109112 -0.03806467 -0.4097665
-0.5157944 -0.024578329 -0.39981794
-0.50133628 -0.024546891 -0.40390778
-0.48718792 -0.024525257 -0.40671569
-0.47308308 -0.024503622 -0.409522
-0.4592796 -0.024493258 -0.41087002
-0.39161426 -0.02449923 -0.41009986
-0.37834415 -0.024516273 -0.40788227
-0.36504054 -0.024533387 -0.40565908
-0.3518483 -0.02456023 -0.40217537
-0.1610963 -0.024506971 -0.40909189
-0.44743329 -0.010938873 -0.40078419
-0.43364042 -0.010938891 -0.40177917
-0.42010927 -0.010938854 -0.40117329
-0.40657002 -0.010938873 -0.4005596
-0.39311898 -0.01093891 -0.39924061
-0.46125102 -0.010938798 -0.39973551
-0.16110145 -0.010938779 -0.40842432
-0.1611066 0.0026394939 -0.40775603
-0.1611118 0.016228296 -0.40707982
-0.16111696 0.029827368 -0.40641063
-0.16112205 0.043436468 -0.40574837
-0.16112715 0.057055831 -0.40508568
-0.16115583 0.070826851 -0.40136033
-0.065876409 0.084321558 -0.4038257
-0.14752822 0.097657546 -0.40825355
-0.065876409 0.09793023 -0.4038257
-0.14752822 0.1117781 -0.40037227
-0.065876409 0.11153886 -0.4038257
-0.065876409 0.12514745 -0.40382576
-0.13394612 0.13846421 -0.40727317
-0.065876409 0.13875613 -0.4038257
-0.13388538 0.15277515 -0.39938313
-0.065876409 0.15236476 -0.40382576
-0.065876752 0.16597268 -0.40383321
-0.12027426 0.17983885 -0.40144271
-0.065876752 0.17958124 -0.40383327
-0.10680371 0.19268367 -0.40821636
-0.065876752 0.19318976 -0.40383315
-0.065876409 0.20679933 -0.40382576
-0.065876409 0.22040799 -0.40382576
-0.079507142 0.23393698 -0.40439999
-0.065876409 0.23401654 -0.4038257
-0.065876067 0.24762636 -0.40381831
-0.051798336 -0.27077708 -0.39511412
-0.051798746 -0.25710037 -0.39512157
-0.051798336 -0.24342577 -0.39511406
-0.092789441 -0.22989398 -0.39394552
-0.051798336 -0.22975005 -0.39511406
-0.051797926 -0.21607518 -0.39510655
-0.051797926 -0.20239946 -0.39510661
-0.12012836 -0.18903787 -0.39196688
-0.051797524 -0.18872446 -0.39509898
-0.051797524 -0.17504866 -0.39509892
-0.13387954 -0.16107416 -0.39862555
-0.051797926 -0.16137215 -0.39510655
-0.051797926 -0.14769644 -0.39510655
-0.14752822 -0.13422355 -0.39217854
-0.051797926 -0.13402067 -0.39510655
-0.14752822 -0.12013 -0.39859557
-0.46360809 -0.093394481 -0.38642263
-0.44965822 -0.093337961 -0.38764668
-0.43572623 -0.093281187 -0.38887662
-0.4220714 -0.09330184 -0.38842893
-0.4084509 -0.093335509 -0.3876999
-0.16125315 -0.093288459 -0.38871735
-0.53131694 -0.079472534 -0.39108181
-0.51657325 -0.079280593 -0.39607036
-0.33901155 -0.07932578 -0.39489549
-0.32577187 -0.079494119 -0.39052153
-0.1612035 -0.07931529 -0.39516681
-0.55961668 -0.065884016 -0.38724393
-0.54425132 -0.065659292 -0.39454132
-0.32497215 -0.065537021 -0.3985129
-0.31185609 -0.065714821 -0.39273763
-0.29865372 -0.065893538 -0.38693225
-0.55885279 -0.052071344 -0.39055181
-0.54353732 -0.051905297 -0.39773959
-0.31160319 -0.051957626 -0.39547563
-0.29841584 -0.052089985 -0.38974118
-0.55922735 -0.038385492 -0.38892967
-0.54390997 -0.038275532 -0.39607042
-0.31173408 -0.038306504 -0.3940587
-0.29853341 -0.038394384 -0.38835293
-0.17499821 -0.038408782 -0.38741112
-0.54537028 -0.024657559 -0.38952881
-0.53046721 -0.024615295 -0.39502364
-0.33864513 -0.024590068 -0.39829522
-0.32540506 -0.024621638 -0.39418691
-0.31224644 -0.024665337 -0.38851243
-0.17500886 -0.024679121 -0.38671935
-0.51835412 -0.01093891 -0.38750231
-0.50365818 -0.010938891 -0.39230698
-0.48941779 -0.01093891 -0.39512914
-0.47522521 -0.010938835 -0.3979274
-0.3797659 -0.010938835 -0.39701813
-0.36637929 -0.010938873 -0.39478999
-0.35312143 -0.010938873 -0.39114982
-0.33983618 -0.010938817 -0.38724399
-0.16121697 0.084882453 -0.39341724
-0.14752822 0.12602547 -0.39242035
-0.051797926 0.1394944 -0.39510649
-0.051797926 0.15317026 -0.39510661
-0.1338241 0.16721468 -0.39142221
-0.051798336 0.1668452 -0.39511406
-0.051798336 0.18052094 -0.39511406
-0.051798746 0.19419578 -0.39512163
-0.10640031 0.20840999 -0.39074874
-0.051797926 0.20787324 -0.39510661
-0.092902109 0.22122207 -0.39760435
-0.051797926 0.22154902 -0.39510655
-0.051797926 0.23522475 -0.39510661
-0.078832179 0.2501061 -0.38686377
-0.051797524 0.24890158 -0.39509892
-0.065410651 0.26278633 -0.39374179
-0.051797524 0.26257741 -0.39509904
-0.051620595 0.276784 -0.39181548
-0.023220196 -0.30099091 -0.37740755
-0.05078245 -0.2873553 -0.37626177
-0.037580356 -0.28580853 -0.38630849
-0.023220725 -0.28717771 -0.3774153
-0.023220725 -0.27336577 -0.3774153
-0.064750865 -0.27306709 -0.37945712
-0.037580356 -0.27206498 -0.38630855
-0.078669347 -0.25883073 -0.38263345
-0.037580818 -0.25832051 -0.38631612
-0.023220725 -0.25955379 -0.37741524
-0.092314027 -0.2455992 -0.37850589
-0.037580356 -0.24457808 -0.38630849
-0.023220725 -0.24574192 -0.3774153
-0.037579879 -0.2308355 -0.38630098
-0.023220196 -0.23193093 -0.37740761
-0.10627368 -0.21721159 -0.38526541
-0.037579417 -0.21709286 -0.38629335
-0.02321966 -0.21811977 -0.37739986
-0.11989024 -0.2044047 -0.37650025
-0.037579417 -0.20334926 -0.38629329
-0.023219131 -0.20430849 -0.37739223
-0.037579417 -0.18960564 -0.38629335
-0.13376132 -0.17614157 -0.38326734
-0.037579417 -0.17586206 -0.38629335
-0.14752822 -0.16311862 -0.37448245
-0.14752822 -0.1484194 -0.38571477
-0.16135348 -0.12154092 -0.3756845
-0.16130316 -0.10736352 -0.3822208
-0.50688654 -0.093867719 -0.37617707
-0.4922362 -0.093668811 -0.38048393
-0.47784764 -0.093518652 -0.38373303
-0.39492249 -0.09340363 -0.38622481
-0.3815105 -0.09352085 -0.38368714
-0.36806118 -0.093638755 -0.38113469
-0.35478637 -0.093842082 -0.37673104
-0.56186521 -0.079994999 -0.37750745
-0.54638159 -0.079706691 -0.38499874
-0.31260693 -0.07972163 -0.38461018
-0.29935426 -0.079950668 -0.37865937
-0.57510692 -0.066110298 -0.37989414
-0.28543675 -0.066102341 -0.38015455
-0.17513201 -0.066146411 -0.37872082
-0.57429278 -0.052238658 -0.38330549
-0.28520364 -0.052241523 -0.38318342
-0.27197483 -0.052421059 -0.37540722
-0.17503159 -0.052193899 -0.38524264
-0.57467026 -0.03849642 -0.38172376
-0.28531244 -0.038495678 -0.38176966
-0.27207041 -0.038614977 -0.37402743
-0.57633024 -0.024771204 -0.37476772
-0.56073964 -0.024712587 -0.38238126
-0.29900348 -0.024709295 -0.38280153
-0.28576368 -0.024762424 -0.37590778
-0.54837161 -0.010938854 -0.37608469
-0.5331313 -0.010938873 -0.38266402
-0.32654828 -0.010938873 -0.38276333
-0.31330562 -0.010938891 -0.37704629
-0.1750194 -0.010938873 -0.38603455
-0.17502995 0.0028119609 -0.38534921
-0.17504051 0.016573451 -0.38466346
-0.17505096 0.030345254 -0.38398474
-0.17506142 0.044127524 -0.38330555
-0.17507188 0.057920285 -0.38262582
-0.17513803 0.0718906 -0.37832922
-0.16127867 0.099064812 -0.38540256
-0.16134092 0.1133755 -0.37731528
-0.14752822 0.14040135 -0.38439667
-0.14752822 0.15490742 -0.37630022
-0.037579879 0.1677272 -0.38630098
-0.13371219 0.18248551 -0.37688488
-0.037580356 0.18146995 -0.38630849
-0.12000325 0.19549841 -0.38383979
-0.037580356 0.19521339 -0.38630849
-0.023220725 0.19624029 -0.37741524
-0.037579879 0.20895779 -0.38630092
-0.023221254 0.21005121 -0.37742287
-0.037579879 0.22270137 -0.38630092
-0.023220196 0.22386521 -0.37740761
-0.09235771 0.23732845 -0.37992471
-0.037579417 0.23644592 -0.38629329
-0.02321966 0.23767827 -0.37739986
-0.037579417 0.25018957 -0.38629329
-0.02321966 0.25149032 -0.3773998
-0.037579417 0.26393315 -0.38629335
-0.02321966 0.26530242 -0.37739986
-0.037578955 0.27767795 -0.38628566
-0.023219131 0.27911568 -0.37739217
-0.037500635 0.29163691 -0.385014
-0.023219131 0.29292783 -0.37739217
-0.023219131 0.30673987 -0.37739211
-0.0085767657 -0.33052722 -0.36660689
-0.022695675 -0.3160851 -0.36983681
-0.0087167174 -0.31632411 -0.36842519
-0.036764145 -0.30169451 -0.37305504
-0.0087167174 -0.30244297 -0.36842513
-0.0087167174 -0.28856185 -0.36842519
-0.0087173134 -0.27467954 -0.36843294
-0.0087173134 -0.26079848 -0.36843294
-0.0087167174 -0.24691835 -0.36842519
-0.10591361 -0.23288345 -0.36967403
-0.0087161213 -0.23303828 -0.36841738
-0.0087161213 -0.21915701 -0.36841732
-0.13364103 -0.19147225 -0.36764091
-0.16145523 -0.15020904 -0.36246747
-0.16140416 -0.13582243 -0.36910015
-0.52214831 -0.094187759 -0.36924756
-0.34153026 -0.094082616 -0.37152457
-0.32849962 -0.094464138 -0.36326402
-0.17533505 -0.094359316 -0.36553293
-0.57773089 -0.080326334 -0.36889851
-0.28612077 -0.080235124 -0.3712694
-0.27282047 -0.080545656 -0.36320168
-0.17523316 -0.080201194 -0.37215102
-0.59141731 -0.066425025 -0.36967391
-0.27219185 -0.06634488 -0.3722747
-0.25884289 -0.066596188 -0.36411458
-0.60690331 -0.052700214 -0.36331874
-0.59044188 -0.052462004 -0.37363398
-0.25863048 -0.052602176 -0.36756319
-0.18932062 -0.052731298 -0.36197507
-0.60731614 -0.038804781 -0.36169362
-0.59085858 -0.038647011 -0.37194222
-0.25871766 -0.038736194 -0.36614799
-0.18926275 -0.038761865 -0.36448121
-0.59266007 -0.024849188 -0.36462921
-0.27247685 -0.024822082 -0.36816114
-0.18927914 -0.024855867 -0.36377132
-0.56386232 -0.010938835 -0.36885977
-0.29997739 -0.010938835 -0.37130034
-0.28669795 -0.010938835 -0.36377144
-0.18929537 -0.01093891 -0.36306888
-0.18931141 0.002988873 -0.36237377
-0.18932748 0.016927335 -0.36167794
-0.17526352 0.086134776 -0.37017775
-0.17539018 0.10050903 -0.36195165
-0.16140375 0.12781644 -0.36915451
-0.14752822 0.16954479 -0.3681379
-0.1197269 0.21147166 -0.36589116
-0.10598884 0.22445096 -0.37293142
-0.0087167174 0.22504066 -0.36842519
-0.0087167174 0.23892185 -0.36842519
-0.091802359 0.25375897 -0.36188906
-0.0087161213 0.25280413 -0.36841738
-0.078143381 0.26660046 -0.36896831
-0.0087161213 0.26668534 -0.36841744
-0.063983105 0.28146899 -0.36283457
-0.0087155253 0.28056777 -0.36840957
-0.0087155253 0.294449 -0.36840957
-0.0087155253 0.3083303 -0.36840957
-0.0087149292 0.32221299 -0.36840183
0.020731002 -0.34745729 -0.35017991
0.0059333593 -0.33181304 -0.35934454
0.020731732 -0.33343709 -0.35017192
0.0059333593 -0.31786203 -0.35934448
0.020731732 -0.31941545 -0.35017192
0.0059326887 -0.30390969 -0.35935235
0.020731732 -0.30539379 -0.35017192
0.0059326887 -0.28995875 -0.35935235
0.020730257 -0.29136962 -0.35018784
-0.077469565 -0.27716175 -0.35146207
0.0059320182 -0.27600652 -0.35936022
0.020730257 -0.27734813 -0.35018778
-0.091582417 -0.26269495 -0.35474616
0.0059320182 -0.26205558 -0.35936022
0.020730257 -0.26332656 -0.35018784
-0.1055472 -0.24883127 -0.35380793
0.0059326887 -0.2481057 -0.35935235
-0.11964782 -0.2200418 -0.36075479
-0.13351868 -0.20707244 -0.35174674
-0.14752822 -0.1784109 -0.35870141
-0.16155373 -0.16521944 -0.34967285
-0.17554085 -0.12298942 -0.35216558
-0.17543757 -0.10862156 -0.3588739
-0.53834534 -0.094685368 -0.35847378
-0.31544062 -0.094895035 -0.35393411
-0.59424597 -0.080738574 -0.35819119
-0.25945818 -0.080895059 -0.35412335
-0.60801852 -0.066755839 -0.35892886
-0.24548605 -0.066914782 -0.35376841
-0.18947537 -0.06686835 -0.35527402
-0.62425023 -0.053002566 -0.35022736
-0.24529132 -0.052837372 -0.35738224
-0.24536589 -0.03889253 -0.35599822
-0.60937554 -0.024934258 -0.35358703
-0.25910574 -0.024886021 -0.35984623
-0.2457059 -0.024964191 -0.34968877
-0.59642243 -0.010938873 -0.34935582
-0.57994533 -0.010938854 -0.35961884
-0.27332279 -0.010938854 -0.35595113
-0.18934356 0.030876473 -0.3609817
-0.18935965 0.044836421 -0.36028486
-0.18937576 0.058807045 -0.35958755
-0.18948866 0.072981969 -0.35469884
-0.17551787 0.11501456 -0.35365796
-0.16146709 0.14238869 -0.36092687
-0.16153106 0.1570953 -0.35261601
-0.14752822 0.18520744 -0.35162812
-0.13357288 0.19839117 -0.35878766
-0.10556923 0.24081498 -0.3547619
0.0059326887 0.240179 -0.35935235
0.0059333593 0.25413114 -0.35934448
0.020731002 0.25547159 -0.35017997
0.0059333593 0.26808214 -0.35934454
0.020731002 0.2694931 -0.35017985
0.0059333593 0.28203318 -0.35934448
0.020731002 0.2835148 -0.35017985
-0.04968036 0.29658297 -0.35580933
0.0059346855 0.29598695 -0.35932887
0.020732448 0.29753906 -0.35016406
0.0059346855 0.30993819 -0.35932887
0.020732448 0.31156078 -0.350164
0.0059346855 0.32388926 -0.35932875
0.020732448 0.32558247 -0.350164
0.0059346855 0.33784047 -0.35932875
0.020732448 0.33960426 -0.35016394
0.035679057 -0.36326051 -0.34092212
0.0077274144 -0.34967843 -0.33815765
0.035679862 -0.34916925 -0.34091407
0.035679862 -0.33507624 -0.34091407
-0.034823686 -0.32087633 -0.34154588
0.035679862 -0.32098329 -0.34091407
-0.049090229 -0.30625275 -0.34485799
0.035679862 -0.30689031 -0.34091413
-0.063305594 -0.29168099 -0.34816593
0.035679862 -0.29279748 -0.34091407
0.035679057 -0.27870336 -0.34092206
-0.11940111 -0.23595572 -0.34473056
-0.14752822 -0.19397339 -0.34264863
-0.1757496 -0.15204577 -0.33860695
-0.17564477 -0.13746341 -0.34541541
-0.55538362 -0.095322713 -0.34467477
-0.30241305 -0.095421463 -0.34253687
-0.18978761 -0.095457658 -0.34175372
-0.61138064 -0.081219509 -0.34569407
-0.24604525 -0.081308149 -0.343391
-0.18963091 -0.081109993 -0.34853894
-0.6255222 -0.067173414 -0.34536773
-0.23197618 -0.067237519 -0.34328729
-0.2318022 -0.053075861 -0.34705406
-0.20398703 -0.053282946 -0.33808541
-0.62470049 -0.039007794 -0.34850723
-0.23186317 -0.039050505 -0.34573388
-0.2038987 -0.039124116 -0.34095401
-0.62684071 -0.025036313 -0.34032989
-0.23216346 -0.025044739 -0.33923239
-0.20392089 -0.02503702 -0.34023374
-0.6137175 -0.010938835 -0.33649498
-0.20394284 -0.010938854 -0.33952093
-0.25991753 -0.010938817 -0.34666455
-0.2039648 0.0031703254 -0.33880746
-0.20398679 0.017290462 -0.33809352
-0.20400879 0.031421557 -0.33737892
-0.20403081 0.045563698 -0.33666378
-0.18968192 0.087419763 -0.34633058
-0.18987697 0.10199112 -0.33788484
-0.17564686 0.12965439 -0.34528017
-0.17577703 0.14442959 -0.3368246
-0.16159563 0.17193753 -0.34422833
-0.13343073 0.21462095 -0.34032172
-0.11944484 0.22776979 -0.34757048
-0.091131106 0.27104667 -0.34008968
0.035679057 0.27091849 -0.340922
0.035679057 0.28501141 -0.34092212
0.035680652 0.29910693 -0.34090602
-0.035266563 0.31181335 -0.34873724
0.035680652 0.31319985 -0.34090608
-0.020739496 0.32716438 -0.34160185
0.035680652 0.32729286 -0.34090608
0.035680652 0.34138587 -0.34090608
0.035680652 0.35547891 -0.34090608
0.050779864 -0.36506045 -0.33156973
0.050780728 -0.35089704 -0.33156163
-0.020279214 -0.33613074 -0.3349582
0.050780728 -0.33673218 -0.33156163
0.050781608 -0.3225686 -0.33155352
0.050781608 -0.30840361 -0.33155352
0.050781608 -0.29423857 -0.33155358
-0.10490444 -0.26668149 -0.32597572
-0.11915 -0.25215366 -0.32842016
-0.13339409 -0.22295082 -0.33556199
-0.14752822 -0.2098148 -0.32630092
-0.16167854 -0.18074265 -0.33345914
-0.17597176 -0.16737835 -0.32417679
-0.19010453 -0.1244757 -0.32803077
-0.18994547 -0.10991248 -0.3349179
-0.62924778 -0.081779934 -0.33113313
-0.23252746 -0.081771605 -0.33135146
-0.2044113 -0.082042739 -0.32430714
-0.64361435 -0.067634411 -0.33039701
-0.218412 -0.067645855 -0.33002466
-0.20419838 -0.067608997 -0.33122212
-0.64210141 -0.05333085 -0.33601248
-0.21824351 -0.053368073 -0.33440232
-0.64258516 -0.039227791 -0.33421707
-0.21829657 -0.039246209 -0.33302337
-0.64499629 -0.025152301 -0.32526791
-0.21856564 -0.025146369 -0.32603264
-0.24642032 -0.01093891 -0.33643061
-0.23284155 -0.010938835 -0.32455152
-0.2040526 0.059716612 -0.33595616
-0.20422278 0.07410299 -0.33042938
-0.19007382 0.11669793 -0.32936043
-0.17590843 0.15934241 -0.3282904
-0.16173859 0.18800625 -0.32565838
-0.14752822 0.20136619 -0.33302349
-0.11915699 0.24440211 -0.32887423
-0.10514088 0.2575143 -0.33621359
-0.076754577 0.28631043 -0.33288628
0.050779864 0.28652319 -0.33156967
0.050780728 0.30068952 -0.33156163
-0.062264882 0.30169332 -0.32563406
0.050782472 0.31485727 -0.33154547
0.050782472 0.32902229 -0.33154541
-0.0060982704 0.34263599 -0.33441043
0.050782472 0.34318733 -0.33154547
0.022394896 0.35722786 -0.33216769
0.050782472 0.35735238 -0.33154541
0.05157572 0.37304729 -0.32418483
0.066035733 -0.38111639 -0.32212126
0.081449091 -0.38302702 -0.31257528
0.066036671 -0.36688036 -0.3221131
0.081450105 -0.36871746 -0.31256706
0.066036671 -0.35264266 -0.3221131
0.081451118 -0.35440788 -0.31255877
0.06603761 -0.3384065 -0.32210493
0.081451118 -0.34009662 -0.31255883
-0.047338195 -0.32582182 -0.31234431
0.06603761 -0.3241688 -0.32210487
0.081452131 -0.32578683 -0.3125506
-0.061809331 -0.31095496 -0.31577092
0.081452131 -0.31147555 -0.3125506
0.06603761 -0.30993101 -0.32210499
-0.076227218 -0.29614285 -0.31918502
0.06603761 -0.29569331 -0.32210499
-0.090592161 -0.28138518 -0.32258666
-0.13326725 -0.23911412 -0.31908679
-0.16180566 -0.19654553 -0.31694603
-0.19042605 -0.15393162 -0.31410867
-0.19026478 -0.13914859 -0.32109171
-0.20462583 -0.096585311 -0.31734008
-0.64821386 -0.08246538 -0.31332576
-0.21891224 -0.082322918 -0.31702805
-0.66246206 -0.068153746 -0.31353182
-0.6607638 -0.053708486 -0.31966013
-0.66122025 -0.039477311 -0.31801289
-0.63153386 -0.010938873 -0.32239884
-0.21897677 -0.010938891 -0.31535155
-0.21900496 0.0033564847 -0.31461906
-0.21903317 0.017663151 -0.31388623
-0.2190614 0.031981055 -0.31315261
-0.21908966 0.046310343 -0.31241858
-0.21911761 0.060650527 -0.31169206
-0.2044874 0.088739768 -0.32183546
-0.2047545 0.10351373 -0.3131609
-0.19027252 0.13154218 -0.32075649
-0.1904729 0.14652495 -0.31208009
-0.17606325 0.1745389 -0.31823438
-0.14752822 0.2178597 -0.31402624
-0.13328572 0.23118371 -0.32148415
0.066036671 0.30228963 -0.3221131
0.081450105 0.30390626 -0.312567
-0.047660008 0.31719962 -0.31831622
0.066038564 0.3165302 -0.32209671
0.081452131 0.31822047 -0.31255054
0.066038564 0.3307679 -0.32209671
0.081452131 0.33253163 -0.31255054
0.066038564 0.34500584 -0.32209671
0.081452131 0.34684297 -0.31255049
0.066038564 0.35924351 -0.32209671
0.081452131 0.3611542 -0.31255054
0.066038564 0.37348127 -0.32209677
0.081452131 0.37546542 -0.31255054
0.081452131 0.38977677 -0.31255049
0.097023457 -0.39934447 -0.30292195
0.053874478 -0.38497245 -0.30285519
0.097023457 -0.38495907 -0.30292201
0.025409728 -0.37122619 -0.29953128
0.097023457 -0.37057364 -0.30292195
0.09702456 -0.35618988 -0.30291355
0.09702456 -0.34180433 -0.30291367
0.097025648 -0.32742038 -0.30290532
-0.13311858 -0.25590253 -0.29977381
-0.14752822 -0.2259419 -0.30965841
-0.16193508 -0.21263488 -0.30013341
-0.17622858 -0.18314104 -0.30749571
-0.20505978 -0.12600204 -0.30324697
-0.20484199 -0.11123799 -0.31032014
-0.68053436 -0.054155644 -0.3003006
-0.66389591 -0.02528239 -0.30835807
-0.65010446 -0.010938854 -0.30630875
-0.21935585 0.075254284 -0.30550265
-0.20502387 0.11842633 -0.3044129
-0.19067535 0.16164972 -0.30331367
-0.16188601 0.20442791 -0.306508
-0.13313763 0.24809182 -0.30224651
-0.11886318 0.261379 -0.30979073
-0.10452111 0.27577522 -0.3093769
-0.089956336 0.29131353 -0.30193776
0.097025648 0.31992808 -0.3029052
-0.032939382 0.3328276 -0.31094861
0.097025648 0.33431369 -0.30290526
0.097026736 0.34870073 -0.30289698
0.097026736 0.36308631 -0.30289698
0.097025648 0.37747023 -0.30290532
0.097025648 0.39185569 -0.3029052
0.11276041 -0.40137181 -0.29316789
0.11275928 -0.38690966 -0.29317623
0.11276041 -0.37245086 -0.29316783
-0.0031558424 -0.35743257 -0.29618698
0.11276041 -0.35799044 -0.29316783
-0.031824142 -0.34358811 -0.29283929
0.1127616 -0.34353143 -0.29315943
0.1127616 -0.32907087 -0.29315937
-0.089565948 -0.30075023 -0.28925961
-0.10413763 -0.28574589 -0.29277188
-0.11865503 -0.27079752 -0.29627097
-0.14752822 -0.2423615 -0.29272127
-0.17649008 -0.19919103 -0.29051059
-0.19079925 -0.16959926 -0.29794872
-0.20552045 -0.15591942 -0.28828639
-0.20527925 -0.14087865 -0.29611981
-0.21986532 -0.097743407 -0.29226607
-0.66824561 -0.083260737 -0.2926622
-0.68256837 -0.06878107 -0.29315943
-0.68100625 -0.039775494 -0.29864389
-0.6838696 -0.02543458 -0.28859109
-0.66978234 -0.010938854 -0.28711724
-0.23444739 0.0035477392 -0.2897839
-0.23448217 0.018045735 -0.28903115
-0.23451695 0.032555528 -0.28827792
-0.23455177 0.047076907 -0.28752404
-0.23458624 0.061609447 -0.28677791
-0.21969534 0.090095133 -0.29668236
-0.22003838 0.10507742 -0.28776973
-0.20529604 0.13348071 -0.29557377
-0.20557082 0.1486783 -0.28665078
-0.19095288 0.17723474 -0.29129595
-0.17636035 0.19088608 -0.29893702
-0.16203645 0.22119294 -0.28696454
-0.14752822 0.23469758 -0.29463238
-0.075274415 0.30697787 -0.29443061
-0.0604745 0.32276714 -0.28687131
0.11276276 0.33611584 -0.29315102
0.11276276 0.3505764 -0.2931509
-0.017185166 0.35112521 -0.29029942
0.11276276 0.36503705 -0.29315096
0.11276276 0.37949771 -0.29315102
0.1127616 0.39395633 -0.29315943
0.12866129 -0.40341869 -0.28331983
0.12866004 -0.38888067 -0.28332835
0.12866129 -0.37434614 -0.28331983
0.12866254 -0.3598114 -0.28331137
0.12866254 -0.34527507 -0.28331131
-0.06025894 -0.33092624 -0.28220415
-0.074940026 -0.31580934 -0.2857427
-0.1620668 -0.22901766 -0.28302193
-0.19119555 -0.18560818 -0.28078848
-0.2204226 -0.1275699 -0.27778774
-0.22014289 -0.1125994 -0.2850548
-0.70161068 -0.054682232 -0.2774967
-0.7020821 -0.040125862 -0.27588516
-0.2349039 0.076436825 -0.27990031
-0.22038472 0.12020282 -0.27877194
-0.2058482 0.16402113 -0.27764237
-0.17666385 0.2075783 -0.27922523
-0.14752822 0.25189087 -0.27482933
-0.13298635 0.26535654 -0.28259605
-0.11836796 0.28066367 -0.2776252
0.12866379 0.33793521 -0.28330278
-0.045554467 0.33868536 -0.27924228
0.12866379 0.35247168 -0.28330284
0.012487113 0.3672792 -0.28194839
0.12866379 0.36700806 -0.28330278
0.12866379 0.38154453 -0.28330284
0.12866254 0.39607906 -0.28331125
0.14473109 -0.40548885 -0.27335948
0.1609699 -0.40757927 -0.26330221
0.14472975 -0.39087424 -0.27336812
0.1609685 -0.39288718 -0.26331085
0.14472975 -0.37626138 -0.27336806
0.1609685 -0.37819687 -0.26331085
0.14473109 -0.36164999 -0.27335942
0.1609699 -0.36350811 -0.26330221
0.1609713 -0.34881929 -0.26329345
0.14473109 -0.34703708 -0.27335954
-0.11812722 -0.29024833 -0.26198852
-0.13285555 -0.27504703 -0.26560324
-0.14752822 -0.25990194 -0.26921284
-0.16220102 -0.24570377 -0.26558578
-0.17675626 -0.21553525 -0.27322191
-0.19159898 -0.20191215 -0.26331961
-0.20605381 -0.17188421 -0.27096498
-0.22070447 -0.14265612 -0.27046484
-0.23552302 -0.098933637 -0.266496
-0.68983477 -0.084223546 -0.26764774
-0.70419568 -0.069535412 -0.26865971
-0.70544523 -0.025620889 -0.26438826
-0.69074583 -0.010938854 -0.26444912
-0.25030848 0.003744036 -0.26427543
-0.25035015 0.018438868 -0.26350212
-0.25039184 0.033145517 -0.2627281
-0.25043312 0.047863882 -0.26196235
-0.23532298 0.091488332 -0.27082705
-0.23574609 0.10668501 -0.26166642
-0.22073436 0.13547346 -0.26968789
-0.20628174 0.1800101 -0.26356304
-0.19141185 0.19385141 -0.27142203
-0.16219015 0.23831396 -0.26699841
-0.10360992 0.29648927 -0.26992095
-0.088731587 0.31244257 -0.26216257
0.1447324 0.33977386 -0.27335078
0.1609727 0.34163359 -0.26328486
0.14473371 0.35438856 -0.27334219
0.1609727 0.35632402 -0.26328474
0.14473371 0.36900154 -0.27334231
0.1609727 0.37101468 -0.26328474
0.042423978 0.38357723 -0.27352297
0.1447324 0.38361293 -0.27335095
0.1609727 0.3857052 -0.26328474
0.1447324 0.39822605 -0.27335095
0.1609713 0.40039375 -0.2632935
0.1609699 0.41508228 -0.26330215
0.17738317 -0.40969378 -0.25312883
0.17738168 -0.39492324 -0.25313777
0.01470533 -0.37965143 -0.2557525
0.17738168 -0.38015473 -0.25313765
-0.014549017 -0.36555007 -0.2522499
0.17738168 -0.36538607 -0.25313777
0.17738317 -0.35061896 -0.25312889
-0.088502347 -0.32082468 -0.25471789
-0.10334293 -0.30550748 -0.25836015
-0.17702752 -0.23218361 -0.25560355
-0.20659733 -0.18814622 -0.25331354
-0.22106792 -0.15801829 -0.26102167
-0.23620987 -0.12918106 -0.2516253
-0.23586531 -0.11399878 -0.25908524
-0.72469437 -0.055336215 -0.24917573
-0.25047487 0.062594451 -0.26118726
-0.25088498 0.077652633 -0.25357699
-0.2361729 0.12202815 -0.25242579
-0.22108704 0.15089057 -0.26052493
-0.22144383 0.16645853 -0.25125551
-0.19188063 0.21082316 -0.25112355
-0.17697378 0.22462563 -0.25909388
-0.14752822 0.26973203 -0.25268066
-0.07373102 0.32852829 -0.25433183
0.17738466 0.34351155 -0.25312012
0.17738466 0.3582803 -0.25312012
0.17738466 0.37304908 -0.25312012
0.17738466 0.38781777 -0.25312006
0.17738317 0.40258476 -0.25312883
0.17738168 0.41735139 -0.25313771
0.19397239 -0.41183096 -0.24284661
0.19396926 -0.39697951 -0.24286437
0.19396926 -0.38213173 -0.24286431
0.19396926 -0.36728409 -0.24286431
-0.043910988 -0.35139543 -0.24874324
0.19397084 -0.35243791 -0.24285555
-0.073380448 -0.33718908 -0.24522376
-0.16241623 -0.26403522 -0.2376284
-0.17730385 -0.24914396 -0.23765516
-0.19201013 -0.21852107 -0.24551618
-0.22175381 -0.17423512 -0.24320179
-0.23655753 -0.14448279 -0.24409807
-0.25161558 -0.10015664 -0.24001837
-0.7280727 -0.070481867 -0.23792297
-0.72514766 -0.040560331 -0.24766576
-0.26660547 0.0039457846 -0.23806584
-0.2666544 0.018842664 -0.23727107
-0.25138715 0.092920065 -0.24425769
-0.23660426 0.13752115 -0.2430864
-0.20691198 0.19690432 -0.24309528
-0.17729038 0.24203956 -0.2385298
-0.16234714 0.25580171 -0.24660486
-0.13269518 0.28572178 -0.24477184
-0.11773938 0.30184388 -0.23679757
-0.058607332 0.34474465 -0.2464456
-0.028430626 0.36124119 -0.23773551
0.19397394 0.36025921 -0.24283779
0.19397394 0.37510717 -0.24283779
0.19397239 0.38995326 -0.24284661
0.19397084 0.40479913 -0.24285549
0.19396926 0.41964489 -0.24286431
0.21073873 -0.41398919 -0.23246258
0.21073706 -0.39905962 -0.23247147
0.21073543 -0.38413018 -0.23248047
0.21073543 -0.36920249 -0.23248047
0.21073706 -0.35427645 -0.23247147
-0.11757961 -0.31042489 -0.2264204
-0.13258278 -0.29490203 -0.23017073
-0.14752822 -0.279439 -0.23390669
-0.19242902 -0.23544288 -0.22737741
-0.20715132 -0.20471397 -0.23532194
-0.22245365 -0.19075994 -0.22501916
-0.23707215 -0.16017872 -0.23295617
-0.25243992 -0.13083795 -0.2247206
-0.25202614 -0.11543678 -0.2323997
-0.71389806 -0.085461177 -0.23549193
-0.72918427 -0.025853144 -0.23422033
-0.71368086 -0.01093891 -0.23623443
-0.26670337 0.033751819 -0.23647583
-0.26675186 0.048672955 -0.23568887
-0.26680091 0.063606612 -0.23489219
-0.26731652 0.078902394 -0.22651976
-0.25189471 0.10833713 -0.23483849
-0.25240725 0.12390562 -0.22532678
-0.23703983 0.15316574 -0.23365563
-0.23747972 0.16896409 -0.2241323
-0.22206986 0.18286934 -0.23499066
-0.19235931 0.22816035 -0.2303955
-0.10265927 0.31810006 -0.22875708
0.19642235 0.3479661 -0.22900927
0.21091796 0.34750733 -0.23149258
0.21074043 0.36225763 -0.23245358
0.0020231307 0.37789473 -0.22891021
0.21074043 0.37718552 -0.23245353
0.21074043 0.39211327 -0.23245358
0.21073873 0.4070392 -0.23246253
0.21073543 0.42196295 -0.23248047
0.22768833 -0.41617274 -0.22195691
0.22768484 -0.40116042 -0.22197515
0.22768484 -0.38615188 -0.22197509
0.22768484 -0.37114343 -0.22197509
0.22768308 -0.35613325 -0.22198415
-0.10251857 -0.32600638 -0.22266448
-0.20771581 -0.22159545 -0.21698976
-0.2379197 -0.17665659 -0.21460634
-0.25285652 -0.14636101 -0.21698964
-0.26816177 -0.10141404 -0.21279436
-0.26790735 0.094392851 -0.2169258
-0.25292486 0.13962777 -0.21572101
-0.22288156 0.20005047 -0.21390194
-0.20755589 0.21416488 -0.22218376
-0.17761387 0.25983205 -0.21751851
-0.16256011 0.27466705 -0.2189396
-0.087453589 0.33449027 -0.22065836
0.22768833 0.349269 -0.22195697
0.22768833 0.36427769 -0.22195685
0.22768833 0.37928641 -0.22195685
0.03275612 0.39470088 -0.22000396
0.22768833 0.39429501 -0.22195697
0.22768657 0.40930173 -0.22196591
0.24482076 -0.41837817 -0.21134603
0.26214069 -0.42060769 -0.2006191
0.24481891 -0.40328601 -0.21135515
0.26214069 -0.40543488 -0.20061898
0.0034868866 -0.38847664 -0.20989561
0.24481706 -0.38819396 -0.21136445
0.26213872 -0.39026007 -0.20062834
-0.026489399 -0.37405539 -0.20621377
0.24481706 -0.37310377 -0.21136433
0.26213872 -0.37508732 -0.20062828
-0.056578837 -0.3595781 -0.20252758
0.24481706 -0.35801357 -0.21136439
0.26213682 -0.35991275 -0.20063758
-0.16269708 -0.28397822 -0.20114744
-0.17780681 -0.26830694 -0.20498675
-0.19285652 -0.25268984 -0.20886606
-0.22316682 -0.20759925 -0.20649052
-0.25355309 -0.16240293 -0.20406294
-0.26864433 -0.1169154 -0.20495898
-0.75113636 -0.056209505 -0.21136439
-0.7514925 -0.041137036 -0.21020788
-0.28335658 0.0041531678 -0.21112585
-0.28341317 0.019257765 -0.21030885
-0.2834698 0.034375031 -0.20949131
-0.28352588 0.049504593 -0.20868218
-0.28358263 0.0646469 -0.20786303
-0.26850402 0.11003695 -0.20723695
-0.25344762 0.15550588 -0.20602018
-0.23833758 0.18581475 -0.20555896
-0.20821391 0.23180388 -0.20081371
-0.19284867 0.24587706 -0.20920634
-0.14752822 0.29095992 -0.21074963
-0.13236977 0.3073884 -0.20249987
0.24482076 0.3512294 -0.21134591
0.26214069 0.35321125 -0.20061898
0.24482076 0.36631975 -0.21134609
0.2621426 0.36838585 -0.20060974
0.24482258 0.381412 -0.21133685
0.2621426 0.38355896 -0.2006098
0.24482076 0.39650044 -0.21134603
0.26214069 0.39872995 -0.20061904
0.24481891 0.41158882 -0.21135515
0.26213872 0.413901 -0.20062828
0.27965117 -0.4076055 -0.18977386
0.27964914 -0.39234728 -0.18978328
0.27964914 -0.3770909 -0.18978339
0.27964914 -0.36183462 -0.18978333
-0.086781651 -0.34504497 -0.1988368
0.14276652 -0.34706965 -0.18688172
0.26371962 -0.34602964 -0.19302225
0.27964711 -0.34657669 -0.18979269
-0.11701136 -0.33136582 -0.18951142
-0.13229977 -0.31550792 -0.19340533
-0.14752822 -0.29971212 -0.19728398
-0.2082908 -0.23879854 -0.1983164
-0.2238937 -0.22476223 -0.18760562
-0.23878473 -0.19345193 -0.19587785
-0.26962048 -0.14829269 -0.18910795
-0.26913071 -0.13254136 -0.19706076
-0.74341053 -0.087334 -0.18683487
-0.75748152 -0.071934134 -0.19075805
-0.75758249 -0.026190192 -0.1904301
-0.7397598 -0.010938817 -0.1989947
-0.28421894 0.080188252 -0.19867873
-0.28490216 0.095907584 -0.18881702
-0.26910609 0.12583619 -0.19746071
-0.26971474 0.14179434 -0.18757743
-0.25397557 0.17154236 -0.1962226
-0.22371078 0.21760879 -0.19235843
-0.19334903 0.26398596 -0.18753982
-0.1170831 0.32395741 -0.19417089
-0.071308926 0.35491374 -0.19140399
0.27965117 0.35521492 -0.18977386
0.27965319 0.37047309 -0.18976456
0.27965319 0.38572958 -0.18976456
0.27965117 0.40098417 -0.18977398
0.27964914 0.41623849 -0.18978333
0.29735756 -0.40980202 -0.17879939
0.29735547 -0.39445931 -0.17880887
0.29735547 -0.37911841 -0.17880887
0.29735333 -0.36377597 -0.1788184
0.17449103 -0.34829235 -0.17966175
0.19044085 -0.34890792 -0.17602724
0.23666297 -0.34902707 -0.17532361
0.29735333 -0.34843516 -0.1788184
0.15859927 -0.34767917 -0.18328297
0.25025249 -0.3475225 -0.18420756
-0.20900144 -0.25683171 -0.17523783
-0.23966646 -0.21057172 -0.17678756
-0.25457224 -0.17915092 -0.18515003
-0.27053329 -0.16469517 -0.17428601
-0.28573957 -0.11843654 -0.17673057
-0.28518105 -0.10270742 -0.18479198
-0.30058107 0.0043664677 -0.18342459
-0.30064574 0.019684624 -0.18258435
-0.30070972 0.035015583 -0.18175292
-0.30077454 0.050359711 -0.1809113
-0.30083936 0.065716751 -0.18006903
-0.28559291 0.11178529 -0.17884684
-0.27032954 0.15791288 -0.1775946
-0.25510788 0.18885194 -0.17520928
-0.23934162 0.20329235 -0.18382084
-0.20888652 0.24983394 -0.17896986
-0.17813008 0.27977881 -0.18399066
-0.1628944 0.29638475 -0.17551368
-0.10166657 0.34066722 -0.18577152
0.28115404 0.34119299 -0.18280154
0.29735547 0.3418999 -0.17880887
0.29735756 0.35724247 -0.17879939
-0.040322535 0.37193856 -0.18214977
0.29735756 0.3725833 -0.17879933
0.2973597 0.3879261 -0.17878997
0.29735756 0.40326521 -0.17879933
0.31525671 -0.39659297 -0.16772181
0.31525671 -0.38116685 -0.16772175
0.31525671 -0.3657406 -0.16772181
0.2064489 -0.34952572 -0.17237937
0.22251563 -0.35014576 -0.16871816
0.31525451 -0.35031283 -0.1677314
0.30061519 -0.33545646 -0.16420704
0.3152523 -0.33488515 -0.167741
-0.16298877 -0.30468941 -0.1632542
-0.17838778 -0.28867492 -0.16725194
-0.1937256 -0.27272403 -0.17123377
-0.22463432 -0.24225718 -0.16836381
-0.25561219 -0.19622573 -0.16585064
-0.28630263 -0.13429391 -0.1686033
-0.30161148 0.081511103 -0.17003906
-0.28629068 0.12782359 -0.16877568
-0.27101079 0.17428493 -0.1665324
-0.2245588 0.23555908 -0.17032582
-0.14752822 0.31313458 -0.16695464
0.31600398 0.3289848 -0.16448593
0.25457925 0.3447715 -0.16258967
0.26799029 0.34302136 -0.1724748
0.31525892 0.3438645 -0.16771221
0.31525892 0.35929087 -0.16771221
0.31526113 0.37471899 -0.16770267
-0.0090451837 0.38912323 -0.17280871
0.31526113 0.39014521 -0.16770267
0.31525892 0.40556955 -0.16771215
0.33336055 -0.39875239 -0.15650105
-0.039016113 -0.38298038 -0.1579057
0.33335829 -0.38323811 -0.15651071
-0.069870993 -0.36816207 -0.15404546
0.33335829 -0.36772567 -0.15651065
-0.10084417 -0.35328853 -0.15016061
0.33335596 -0.35221151 -0.15652037
0.28711569 -0.33692181 -0.15514284
0.33335596 -0.3366991 -0.15652037
-0.14752822 -0.32076794 -0.15924054
-0.24056497 -0.22802466 -0.15733427
-0.2717337 -0.18172142 -0.15479344
-0.28686962 -0.15028031 -0.16041929
-0.30269468 -0.10403877 -0.15596771
-0.31829926 0.0045857206 -0.15492934
-0.31837246 0.020123765 -0.15406495
-0.31844491 0.035674755 -0.15320927
-0.31851822 0.051239327 -0.15234345
-0.31864029 0.06683939 -0.15090179
-0.30239365 0.097466886 -0.15987849
-0.30318379 0.11358556 -0.14961427
-0.2869955 0.14402483 -0.15860242
-0.25631541 0.20663556 -0.15280086
-0.2403681 0.22116084 -0.16159666
-0.20957808 0.2682856 -0.15651065
-0.13202977 0.33002698 -0.15833145
0.30290323 0.33076778 -0.15395802
0.33335829 0.33033544 -0.15651065
0.19452764 0.34666502 -0.15189546
0.2096004 0.34618971 -0.15457982
0.22463314 0.34571573 -0.15725684
0.23962606 0.34524298 -0.15992677
0.33336055 0.34584951 -0.15650094
0.33336294 0.36136389 -0.15649128
0.33336294 0.37687659 -0.15649128
0.33336294 0.39238924 -0.15649128
0.35166591 -0.38533449 -0.1451636
0.35166353 -0.36973292 -0.14517337
0.35166353 -0.35413319 -0.14517337
-0.13193692 -0.33835605 -0.14627069
0.25974965 -0.33989409 -0.13675684
0.27349579 -0.33840197 -0.1459868
0.35166109 -0.33853185 -0.14518321
0.33536536 -0.32248309 -0.14810038
0.35166591 -0.32293522 -0.14516366
-0.22570923 -0.26111808 -0.14043725
-0.24148163 -0.24582238 -0.13748813
-0.25667202 -0.21363458 -0.14618254
-0.28803533 -0.16705793 -0.14359385
-0.30397671 -0.13609771 -0.13931382
-0.30333269 -0.120002 -0.14767987
-0.78721666 -0.057745371 -0.14485961
-0.78720433 -0.042142555 -0.14489889
-0.31951725 0.082873315 -0.14054555
-0.30398202 0.12986949 -0.13924468
-0.28770754 0.16039142 -0.14832509
-0.27240348 0.19198337 -0.1439178
-0.24141735 0.23943216 -0.1388799
-0.22542632 0.25391456 -0.14778739
-0.1942673 0.28507531 -0.14777774
-0.17882308 0.30200973 -0.13897842
0.35166109 0.31665409 -0.14518315
0.28966218 0.33256784 -0.14332867
0.35166591 0.33225709 -0.14516348
-0.11629171 0.34828097 -0.1427688
0.13300388 0.34751877 -0.14707333
0.14906774 0.34809831 -0.14379996
0.16426151 0.34761935 -0.14650571
0.17941476 0.3471415 -0.14920419
0.35166836 0.3478587 -0.14515382
0.35166836 0.36345857 -0.14515382
0.35166836 0.37905845 -0.14515376
0.35166836 0.39465833 -0.1451537
0.3701784 -0.38745281 -0.13369787
0.3701784 -0.37176472 -0.13369787
0.3701759 -0.35607502 -0.13370776
0.24587955 -0.34140134 -0.12743258
0.37017339 -0.34038538 -0.13371772
0.32277101 -0.32447168 -0.13518399
0.3701784 -0.32470053 -0.13369787
-0.17899147 -0.30983976 -0.12804097
0.35489607 -0.30925336 -0.13205075
0.3701784 -0.30901238 -0.13369787
-0.19462752 -0.29353467 -0.13217986
-0.21020035 -0.27729541 -0.13630217
-0.2577534 -0.23138922 -0.12611496
-0.2729584 -0.19908418 -0.13490683
-0.30462533 -0.15232633 -0.13088822
-0.77622902 -0.010938891 -0.12987369
-0.33653271 0.0048114853 -0.1256054
-0.33661494 0.020575553 -0.12471557
-0.32040325 0.099072538 -0.13008267
-0.3047885 0.1463214 -0.12876844
-0.28863376 0.17720185 -0.13495618
-0.25755084 0.22482395 -0.12987363
0.3701759 0.30282119 -0.13370776
-0.16324389 0.31909043 -0.13011247
0.32529253 0.32003564 -0.12426549
0.33846891 0.31828502 -0.13509482
0.3701759 0.31850916 -0.13370788
0.27628088 0.33438712 -0.1325869
0.37018096 0.33420056 -0.13368791
0.37018096 0.34988877 -0.13368791
-0.084756963 0.36568865 -0.13308305
0.37018347 0.3655788 -0.13367802
0.37018347 0.38126704 -0.13367796
0.38890159 -0.37381792 -0.12210172
0.38889897 -0.35803887 -0.12211168
0.2318799 -0.34292096 -0.11803246
0.38889897 -0.34226158 -0.1221118
-0.16329184 -0.32621124 -0.12388515
0.31001264 -0.32648429 -0.1221118
0.38890159 -0.32648584 -0.12210166
0.34232694 -0.31117269 -0.11892802
0.38890159 -0.31070849 -0.12210166
0.37473917 -0.29581201 -0.11574465
0.38890159 -0.29493111 -0.12210178
-0.27420813 -0.21679372 -0.11461395
-0.28942716 -0.18437088 -0.1235047
-0.30608365 -0.16949435 -0.11194378
-0.32144576 -0.12161364 -0.11777079
-0.33669627 0.036353126 -0.12383509
-0.33677861 0.052144617 -0.1229437
-0.33697224 0.067996189 -0.12084752
-0.32129753 0.11543886 -0.11952138
-0.30560333 0.16294377 -0.11818355
-0.27382794 0.21008563 -0.12078726
-0.24249199 0.25812519 -0.11561346
-0.22652395 0.27344573 -0.11927003
0.38890159 0.28883082 -0.12210172
0.35732216 0.30459255 -0.12220198
0.38889897 0.30460662 -0.1221118
0.3119753 0.32180503 -0.11332023
0.38890159 0.3203854 -0.12210172
-0.14752822 0.33632249 -0.12115866
0.26275909 0.33622739 -0.12172061
0.38890684 0.33616617 -0.12208158
0.38890684 0.35194364 -0.12208164
0.38890684 0.36772123 -0.1220817
-0.052918285 0.38326907 -0.12327421
-0.083833888 -0.37718123 -0.10310543
0.40783906 -0.36002693 -0.11037278
0.21775095 -0.34445462 -0.10854548
0.40783632 -0.34415764 -0.11038297
0.29708725 -0.32852134 -0.1088807
0.40783906 -0.32829162 -0.11037278
0.32959259 -0.31311539 -0.10564566
0.40783906 -0.312424 -0.11037278
0.36219752 -0.29765961 -0.10241055
0.40783906 -0.29655638 -0.11037278
-0.2272611 -0.28203061 -0.10011846
0.39364374 -0.28152484 -0.10398346
0.40783906 -0.2806887 -0.11037296
-0.24300984 -0.26555651 -0.10440183
0.4106819 -0.26612058 -0.099821448
-0.25885642 -0.24949934 -0.1056456
-0.29084894 -0.20203318 -0.10298288
-0.32292837 -0.15444809 -0.10026205
-0.32217535 -0.13795501 -0.109155
-0.33795768 0.084275886 -0.11018008
-0.33895338 0.10072584 -0.099401176
-0.32220203 0.13197604 -0.10884023
-0.30681986 0.18021107 -0.10237986
-0.29024988 0.19521461 -0.11162978
-0.25881469 0.24343017 -0.10641968
0.40783906 0.27467853 -0.11037278
-0.21100375 0.29056999 -0.11021042
0.37610376 0.29054627 -0.11037278
0.40783632 0.29054475 -0.11038297
-0.19534548 0.30784288 -0.10109127
0.34485066 0.30672497 -0.10835254
0.40783906 0.30641389 -0.11037278
0.2985149 0.32359341 -0.10225719
0.4078418 0.32228321 -0.11036271
0.24909051 0.33808556 -0.11074799
0.40784448 0.33815256 -0.11035252
0.23527475 0.33996388 -0.099657416
0.40784448 0.35402033 -0.11035258
-0.11561834 -0.36194751 -0.099032104
-0.14752822 -0.34665531 -0.094932437
0.18909942 -0.34756649 -0.089295983
0.20349257 -0.34600419 -0.09896034
0.4269945 -0.34607711 -0.098509014
-0.17961925 -0.33184931 -0.087264955
0.26971346 -0.33189398 -0.086974561
0.28374588 -0.33040115 -0.096670806
0.4269945 -0.33011821 -0.098508954
-0.19556558 -0.31517553 -0.091560304
0.31669468 -0.31508484 -0.092179835
0.4269945 -0.31415918 -0.098508954
-0.211446 -0.29856896 -0.095848262
0.34948969 -0.29952991 -0.088912785
0.4269945 -0.29820016 -0.098508954
0.38158429 -0.283512 -0.08879894
0.4269945 -0.28224134 -0.098508954
0.4269945 -0.26628232 -0.098508954
0.42779177 -0.25065556 -0.095632255
-0.27548301 -0.23485969 -0.093912721
-0.307679 -0.18710476 -0.091219425
-0.34010226 -0.12327366 -0.086964309
-0.35530427 0.0050439453 -0.095416129
-0.35539597 0.021040771 -0.094499826
-0.35548669 0.037051551 -0.093593061
-0.35557857 0.053076617 -0.092675269
-0.35585874 0.06918826 -0.08987534
-0.33995956 0.11734865 -0.088508844
-0.32311594 0.14868632 -0.098047078
-0.32404035 0.16557325 -0.087130129
-0.29190415 0.21364586 -0.087752342
-0.27528465 0.22860445 -0.09713316
0.42933261 0.24544373 -0.090071857
0.41295505 0.26129588 -0.091384709
0.42700022 0.26036614 -0.09848845
0.39510345 0.27633673 -0.098406255
0.4269945 0.27632251 -0.098508954
0.3636874 0.29259545 -0.096362352
0.4269945 0.29228139 -0.098508894
0.33220941 0.30888623 -0.094314396
0.42699736 0.30824196 -0.098498702
-0.1795482 0.32527101 -0.0918805
0.28491116 0.32540289 -0.091064334
0.42700022 0.32420272 -0.09848845
0.22131135 0.34186414 -0.088436365
0.42700303 0.34016353 -0.098478138
0.12555815 -0.34828082 -0.084876955
0.1421748 -0.34892574 -0.080887914
0.15885355 -0.34957132 -0.076894224
0.17457299 -0.34914517 -0.079530537
0.25554723 -0.33339924 -0.07719785
0.44637179 -0.33196592 -0.086507618
0.30362529 -0.31707883 -0.078547835
0.44637179 -0.31591457 -0.086507618
0.33661741 -0.30142623 -0.07522732
0.44637471 -0.29986459 -0.086497247
0.46597773 -0.30154693 -0.074356198
0.44637471 -0.28381327 -0.086497247
0.46597773 -0.28540206 -0.074356079
0.39872617 -0.26799974 -0.084564984
0.44637179 -0.26776043 -0.086507738
0.46597773 -0.26925716 -0.074356258
0.41593504 -0.25242311 -0.080324352
0.44637179 -0.25170904 -0.086507738
0.46597463 -0.253111 -0.074366748
0.43321687 -0.23678419 -0.076055825
0.44636881 -0.23565663 -0.086518109
0.46597463 -0.23696624 -0.074366689
-0.29229951 -0.22005302 -0.082045555
0.46598387 -0.22082458 -0.074335217
0.46598387 -0.20467958 -0.074335098
-0.32470337 -0.17200723 -0.079300582
-0.34092224 -0.13986821 -0.078087628
-0.35695887 0.085721403 -0.078882456
-0.34097639 0.13414726 -0.077501476
-0.30867457 0.19855145 -0.07828635
0.46598387 0.21509188 -0.074335098
0.44638062 0.22983496 -0.086476505
0.46598387 0.23123693 -0.074335098
0.41753733 0.24737677 -0.074377239
0.44637764 0.24588531 -0.086486936
0.46598077 0.24738076 -0.074345708
-0.26010904 0.26247162 -0.082399964
0.40104657 0.26334858 -0.075699329
0.44637764 0.26193672 -0.086486876
0.46597773 0.26352429 -0.074356258
-0.24410793 0.27880022 -0.080627024
0.38274437 0.27830067 -0.084232211
0.44637179 0.27798548 -0.086507738
0.46597773 0.27966926 -0.074356079
0.3511011 0.29467267 -0.082160115
0.44637471 0.29403836 -0.086497366
0.46598077 0.29581568 -0.074345708
0.31939727 0.31107876 -0.080073655
0.44637764 0.31009126 -0.086486936
0.46598387 0.31196225 -0.074335098
0.27115738 0.32723027 -0.079760313
0.44638062 0.32614458 -0.086476684
-0.16360967 0.34285298 -0.082597911
0.20719413 0.34378356 -0.077103674
-0.13143858 0.35912269 -0.081534624
0.24124946 -0.33492029 -0.067318439
0.2903856 -0.31910044 -0.064725339
-0.24493891 -0.2869359 -0.06263572
0.48581028 -0.28700951 -0.062072814
0.369349 -0.28552991 -0.073379159
-0.26093537 -0.27015525 -0.067064703
0.3865903 -0.26990548 -0.06909287
0.4858135 -0.27077138 -0.062062144
-0.27686286 -0.25344127 -0.071506739
0.40390497 -0.25421825 -0.064778328
0.48581028 -0.25453061 -0.062072873
0.48581672 -0.23829344 -0.062051594
0.44991654 -0.22085185 -0.074062169
0.48581988 -0.22205493 -0.062040865
-0.30930924 -0.20507605 -0.070042193
0.48581988 -0.20581518 -0.062040985
0.46841699 -0.18923882 -0.066017449
0.48581988 -0.18957554 -0.062040865
0.48581672 -0.17333505 -0.062051535
-0.34192485 -0.15673636 -0.06723392
-0.37463805 0.0052832896 -0.06432265
-0.37473863 0.021519758 -0.063389301
-0.37484044 0.037770886 -0.062444568
-0.35807064 0.10243012 -0.067772925
-0.342004 0.15112427 -0.066377223
0.4858135 0.16769603 -0.062062144
-0.32559812 0.18331917 -0.06873399
0.48581672 0.18393651 -0.062051594
0.46684206 0.19924042 -0.071401358
0.48581988 0.20017715 -0.062040865
0.45058447 0.21537405 -0.071717203
0.48581672 0.21641573 -0.062051535
-0.29359722 0.23250945 -0.063315094
0.43404901 0.2313849 -0.0730533
0.4858135 0.23265414 -0.062062263
-0.27677667 0.24755812 -0.072906137
0.4858135 0.24889362 -0.062062144
0.48581028 0.2651318 -0.062072754
0.37021518 0.28029183 -0.069863021
0.4858135 0.28137264 -0.062062144
-0.2283729 0.29627088 -0.071232915
0.33834136 0.29677856 -0.067762196
0.30640602 0.31329992 -0.065646887
0.25725329 0.3290776 -0.068332672
0.16094987 0.34624627 -0.062561333
0.17673497 0.34575069 -0.06548804
0.19247632 0.34525642 -0.068406641
-0.099021167 0.37711751 -0.071222365
-0.09852235 -0.3866505 -0.049623132
0.22681426 -0.33645406 -0.05735594
-0.21274185 -0.32070363 -0.053764403
0.27696776 -0.32114747 -0.050729871
-0.22887418 -0.30378428 -0.05820936
0.32357246 -0.30334616 -0.061371505
0.35686761 -0.287543 -0.057996094
0.3742758 -0.27184093 -0.05337888
0.50588 -0.25596693 -0.04963398
-0.29377902 -0.23844013 -0.06069082
0.42128795 -0.23846538 -0.060456753
0.50588328 -0.23963296 -0.049623191
0.50588655 -0.22329868 -0.049612522
0.43835479 -0.22250779 -0.057516098
0.45341617 -0.20583972 -0.061775327
0.50588655 -0.20696324 -0.049612582
-0.3265155 -0.18992618 -0.057900131
0.45695394 -0.19064978 -0.049354434
0.50588655 -0.19062796 -0.049612522
0.47203892 -0.17398281 -0.053635895
0.50588655 -0.17429262 -0.049612403
0.48705989 -0.15738226 -0.05791086
0.50588328 -0.15795644 -0.049623191
0.50588328 -0.14162119 -0.049623191
-0.35932797 -0.1249849 -0.055208921
0.50588328 -0.12528589 -0.049623311
0.50588328 -0.10895061 -0.049623191
-0.37494236 0.054036558 -0.06149888
-0.37532449 0.070416935 -0.057953477
-0.35919324 0.11931654 -0.05655545
0.50587666 0.11974216 -0.049644768
0.50588 0.13607793 -0.04963392
0.48727131 0.15183024 -0.057206511
0.50588328 0.15241407 -0.049623311
-0.34304261 0.16828257 -0.055134058
0.47288895 0.16865556 -0.050729871
0.50588328 0.16874929 -0.049623311
0.46985382 0.1840239 -0.061105669
0.50588989 0.18508658 -0.049601734
0.45543879 0.20091441 -0.054674149
0.50588655 0.20142093 -0.049612403
-0.31057304 0.21732388 -0.053625107
0.43884605 0.21709555 -0.055743396
0.50588328 0.21775509 -0.049623311
0.42219526 0.23322833 -0.05708909
0.50588 0.2340892 -0.04963398
0.40556288 0.24933922 -0.058443904
0.50587666 0.25042307 -0.049644709
0.38895452 0.26543102 -0.059786141
0.3575123 0.28231043 -0.055294454
0.32540697 0.29891512 -0.053153932
-0.21249583 0.31389919 -0.061754107
0.29323429 0.31555191 -0.051019669
-0.19647457 0.33168563 -0.052199841
0.2431985 0.3309471 -0.056768954
0.12924911 0.34724352 -0.056672871
0.14512087 0.3467434 -0.05962652
-0.06628228 0.39529082 -0.060807824
-0.13115919 -0.37105769 -0.04523921
-0.16393039 -0.35538453 -0.040934503
0.19753172 -0.33956736 -0.037134588
0.21224178 -0.3380025 -0.047298729
0.3103562 -0.30529317 -0.047320426
0.34384966 -0.28938633 -0.043910742
0.36177325 -0.27380413 -0.037439108
0.39169192 -0.25603893 -0.049010336
0.40918291 -0.24017285 -0.044613004
-0.31097299 -0.22341713 -0.04842931
0.42660916 -0.22418991 -0.040706933
0.52619106 -0.22455721 -0.037036717
0.44181091 -0.20738527 -0.045044839
0.52619106 -0.20812503 -0.037036598
0.52619451 -0.19169372 -0.03702575
-0.34392375 -0.17460182 -0.045595229
0.52619451 -0.1752615 -0.037025928
0.47570044 -0.15854563 -0.041118801
0.52619106 -0.15882851 -0.037036717
-0.36024255 -0.14184001 -0.04606998
0.49009705 -0.14173378 -0.047794282
0.52619106 -0.14239627 -0.037036717
0.49201012 -0.1257278 -0.041422069
0.52619106 -0.12596412 -0.037036777
