ply
format ascii 1.0
comment PCL generated
element vertex 1349
property float x
property float y
property float z
element camera 0
property float view_px
property float view_py
property float view_pz
property float x_axisx
property float x_axisy
property float x_axisz
property float y_axisx
property float y_axisy
property float y_axisz
property float z_axisx
property float z_axisy
property float z_axisz
property float focal
property float scalex
property float scaley
property float centerx
property float centery
property int viewportx
property int viewporty
property float k1
property float k2
end_header
0.022712272 0.28817117 -0.089045167
0.28090897 0.28947407 -0.079642773
0.074281238 0.30657351 -0.0804528
0.09138073 0.30586278 -0.085311651
0.1084356 0.30529547 -0.089190245
0.1769646 0.3051796 -0.089982152
0.19443275 0.30587596 -0.085221946
0.21201384 0.30664754 -0.079946637
0.039857831 -0.41793555 -0.071317673
0.22946599 -0.41690236 -0.077152789
-0.011969928 -0.40051913 -0.072110891
-0.046421576 -0.38282239 -0.074713826
0.334317 -0.38419259 -0.066238046
-0.081041858 -0.36587662 -0.072699904
0.33389878 -0.3663795 -0.069433928
0.33389878 -0.34908289 -0.069433928
-0.13336748 -0.33225453 -0.066055834
0.33389878 -0.33178633 -0.069433987
-0.1506418 -0.31485742 -0.066625297
0.33390027 -0.31449139 -0.069422543
-0.16811045 -0.29773992 -0.064995944
0.33389878 -0.29719335 -0.069433928
0.33389878 -0.2798968 -0.069433928
0.33389878 -0.26260024 -0.069433987
-0.20217976 -0.24519804 -0.070489705
0.33389136 -0.24529804 -0.069490612
0.33388391 -0.22799677 -0.069547534
-0.21918941 -0.21041688 -0.072903693
0.33388391 -0.21070108 -0.069547534
0.33389285 -0.19341066 -0.069479287
-0.23667833 -0.17600046 -0.071124911
0.33390027 -0.17611843 -0.069422543
-0.23590809 -0.15833186 -0.077378333
0.33390176 -0.15882257 -0.069411099
0.33390176 -0.14152583 -0.069411278
-0.25447321 -0.12433039 -0.067217171
0.33390027 -0.12422865 -0.069422543
-0.25395143 -0.10686339 -0.071204185
0.33389878 -0.10693157 -0.069433928
-0.25369641 -0.08952044 -0.0731529
0.33389729 -0.089634657 -0.069445312
-0.25345072 -0.072209269 -0.075030327
0.33389729 -0.072338179 -0.069445372
-0.25322759 -0.054929528 -0.076735377
0.33389729 -0.055041775 -0.069445312
-0.25347143 -0.037703522 -0.074872136
0.33389729 -0.03774533 -0.069445372
-0.25371569 -0.020448927 -0.073005795
0.33389729 -0.020448888 -0.069445193
-0.25396925 -0.003165001 -0.071068048
0.33389878 -0.0031523667 -0.069433987
-0.25452384 0.014184229 -0.066830099
0.33389878 0.014144078 -0.069433808
0.33390027 0.031440955 -0.069422603
-0.23596504 0.048506826 -0.07691586
0.33390027 0.048737511 -0.069422603
-0.23676214 0.065994792 -0.070444167
0.33390027 0.066034153 -0.069422543
0.33390027 0.083330758 -0.069422543
-0.21927309 0.10047887 -0.07217896
0.33390027 0.10062736 -0.069422543
0.33389878 0.11792329 -0.069433928
-0.20228496 0.13521436 -0.06951344
0.33389729 0.13521905 -0.069445372
-0.18431489 0.15199167 -0.076250136
0.33389878 0.15251641 -0.069433928
0.33390027 0.16981392 -0.069422603
0.33390027 0.18711044 -0.069422603
0.33390027 0.20440711 -0.069422603
-0.15073247 0.2047942 -0.06555438
-0.13347276 0.22221389 -0.064687908
0.33390027 0.22170363 -0.069422603
-0.098060548 0.23814814 -0.076803088
0.33389878 0.23899902 -0.069433987
-0.081148744 0.25613743 -0.0707165
0.33390027 0.25629681 -0.069422603
-0.046499085 0.27316457 -0.072700024
-0.012021784 0.29082876 -0.069865286
0.039857831 0.30825984 -0.068922639
0.05711145 0.30736983 -0.075007737
0.229775 0.30758989 -0.073503733
0.092156082 -0.43883497 -0.051737726
0.10950971 -0.43836021 -0.054307401
0.12685893 -0.43805426 -0.055963755
0.14419919 -0.43781441 -0.057261705
0.1617108 -0.43823057 -0.055009305
0.022503851 -0.41959047 -0.061970413
0.24791779 -0.41923052 -0.064003408
-0.029618349 -0.40256786 -0.060013652
0.29992619 -0.40188253 -0.064060569
-0.064373896 -0.38525993 -0.059635758
-0.099375084 -0.36853117 -0.05545789
0.35281989 -0.36818451 -0.057709455
-0.11640961 -0.35034686 -0.060792148
0.35281989 -0.35079777 -0.057709455
0.35281989 -0.33341098 -0.057709277
0.3528215 -0.31602567 -0.057697892
0.35281989 -0.29863739 -0.057709455
-0.18564214 -0.2806412 -0.062987328
0.35281989 -0.28125066 -0.057709336
-0.20375021 -0.26405695 -0.055917799
0.35281989 -0.26386389 -0.057709336
0.35281196 -0.24647127 -0.057766855
-0.22033313 -0.22860172 -0.062998831
0.35280401 -0.22907966 -0.057824075
0.35280243 -0.21169284 -0.057835519
-0.23791152 -0.19405481 -0.061112583
0.35281196 -0.1943123 -0.057766795
0.3528215 -0.1769307 -0.057697892
-0.25605425 -0.15970166 -0.055135906
0.3528215 -0.15954383 -0.057698011
-0.25526163 -0.1419687 -0.061192632
0.3528215 -0.14215703 -0.057697892
0.3528215 -0.12477006 -0.057697892
0.35281989 -0.10738277 -0.057709515
0.35281831 -0.089995675 -0.0577209
-0.27385339 -0.072734132 -0.052302718
0.35281673 -0.072608784 -0.057732344
-0.2735852 -0.055275898 -0.054238319
0.35281673 -0.055222124 -0.057732344
-0.2738598 -0.037877712 -0.052256644
0.35281831 -0.037835546 -0.0577209
0.35281831 -0.020448888 -0.0577209
0.35281989 -0.0030621514 -0.057709336
0.35281989 0.014324702 -0.057709277
-0.25530353 0.031638399 -0.060872197
0.35281989 0.031711482 -0.057709455
-0.25608435 0.049184598 -0.054905772
0.3528215 0.049098611 -0.057697833
0.3528215 0.066485465 -0.057698011
-0.23797214 0.083737336 -0.060620487
0.35281989 0.083871767 -0.057709336
0.3528215 0.10125922 -0.057697892
-0.22039381 0.11835192 -0.062473238
0.35281989 0.11864533 -0.057709455
0.35281831 0.13603134 -0.05772078
-0.20380844 0.15359843 -0.055377364
0.35281989 0.15341887 -0.057709277
-0.18571533 0.17042066 -0.062256277
0.35281989 0.17080569 -0.057709455
-0.16821477 0.18762377 -0.063866615
0.35281989 0.18819247 -0.057709455
0.3528215 0.20558038 -0.057697892
0.35281989 0.22296602 -0.057709277
-0.11648816 0.24012779 -0.059658647
0.35281989 0.24035288 -0.057709455
0.35281989 0.25773954 -0.057709455
-0.099427506 0.25812179 -0.054606497
-0.064431071 0.27503633 -0.058397651
0.33466771 0.2743609 -0.0635584
-0.029668804 0.29242098 -0.058374763
0.30023623 0.29200506 -0.061375678
0.022492843 0.30948585 -0.060540438
0.24813835 0.30932868 -0.061615884
0.10955156 0.32801968 -0.052948296
0.12691559 0.32778221 -0.05449152
0.1442634 0.32756972 -0.055871844
0.16179641 0.32794696 -0.053420842
0.057387926 -0.44117117 -0.0390926
0.074789889 -0.43963361 -0.04741472
0.17941654 -0.439125 -0.050167561
0.19720551 -0.44004267 -0.045200646
0.0049702898 -0.42165565 -0.050306201
0.26659334 -0.42159635 -0.05064106
-0.047533434 -0.40497053 -0.045827091
0.32027185 -0.40601814 -0.039640725
-0.082678944 -0.38805926 -0.042319357
0.37193784 -0.37000686 -0.045873463
-0.13539732 -0.35343367 -0.039687395
0.37193954 -0.35253066 -0.045861959
-0.15246384 -0.3351571 -0.045107841
0.37193954 -0.33505261 -0.04586184
-0.16995835 -0.31768852 -0.044991851
0.37193954 -0.31757468 -0.045861781
-0.18760923 -0.30040842 -0.043331027
0.37193784 -0.30009526 -0.045873404
-0.2053512 -0.28317285 -0.041062295
0.37193954 -0.28261864 -0.045861781
0.37193954 -0.26514068 -0.04586184
-0.22199896 -0.24739149 -0.048572242
0.37193105 -0.24765688 -0.045919895
-0.24048725 -0.23070775 -0.040200233
0.37192091 -0.23017296 -0.045989454
-0.23919272 -0.21229616 -0.050710499
0.37191921 -0.21269499 -0.046001017
-0.25831112 -0.19584237 -0.037890434
0.37193105 -0.19522423 -0.045919836
-0.25692984 -0.17757182 -0.048445046
0.37194124 -0.1777516 -0.045850158
0.37194124 -0.16027352 -0.045850277
0.37194124 -0.14279541 -0.045850337
-0.27500319 -0.1254026 -0.044004798
0.37193954 -0.12531683 -0.04586184
-0.27441201 -0.10774608 -0.048271358
0.37193954 -0.10783885 -0.04586184
-0.27413166 -0.090224355 -0.050294697
0.37193784 -0.090360522 -0.045873404
0.37193614 -0.07288231 -0.045885026
0.37193614 -0.055404451 -0.045885086
0.37193614 -0.037926666 -0.045885086
-0.27413806 -0.020448927 -0.050248384
0.37193784 -0.020448888 -0.045873463
-0.27441683 -0.0029891506 -0.048236728
0.37193784 -0.0029709898 -0.045873404
-0.27501124 0.01453656 -0.043946862
0.37193954 0.014507066 -0.04586184
-0.27587149 0.032172661 -0.037738502
0.37193954 0.031985044 -0.04586184
0.37193954 0.049463063 -0.04586184
-0.2569541 0.066848733 -0.048259795
0.37194124 0.066941515 -0.045850337
-0.25830498 0.084785052 -0.037937105
0.37193954 0.084418982 -0.045861781
-0.23922402 0.10164937 -0.050456405
0.37194124 0.10189763 -0.045850277
-0.24049011 0.11972502 -0.040176868
0.37193954 0.11937498 -0.04586184
-0.22203636 0.13668773 -0.048248291
0.37193784 0.13685213 -0.045873523
0.37193954 0.15433097 -0.04586184
-0.20536 0.17222212 -0.040980756
0.37193954 0.17180891 -0.04586184
-0.18762901 0.1895389 -0.043133378
0.37193954 0.18928696 -0.04586184
-0.16997981 0.20687529 -0.044759631
0.37194124 0.20676605 -0.045850277
-0.15248843 0.22435544 -0.044817686
0.37193954 0.22424288 -0.045861721
-0.13539822 0.24243511 -0.039675772
0.37193954 0.24172081 -0.04586184
0.37193954 0.2591989 -0.04586184
-0.082692742 0.27717388 -0.042063415
-0.047554415 0.29423517 -0.045281827
0.32027614 0.29502171 -0.039605558
0.0049589016 0.31109101 -0.049566805
0.26669624 0.31108421 -0.049612939
0.0573873 0.33014053 -0.039174199
0.074800774 0.32898051 -0.046708047
0.092184082 0.32839268 -0.050525546
0.17948702 0.32862401 -0.049023271
0.1972457 0.32930189 -0.044620395
0.039857831 -0.44291985 -0.029627323
0.21551242 -0.44201994 -0.034498572
-0.012781262 -0.42401528 -0.03697902
0.28675649 -0.42606813 -0.025384784
-0.065816998 -0.40792322 -0.028391659
0.35590792 -0.38917392 -0.035423636
-0.11820857 -0.37170762 -0.034826517
0.39126083 -0.35428172 -0.033889472
0.39126083 -0.33671159 -0.033889353
0.39126083 -0.31914139 -0.033889353
0.39125901 -0.30156982 -0.033901155
0.39125901 -0.2839998 -0.033901036
-0.22378916 -0.26651949 -0.033068717
0.39125901 -0.26642975 -0.033900976
-0.24236876 -0.24975803 -0.024924278
0.39125359 -0.24885617 -0.033936262
0.39123914 -0.23127773 -0.03403002
-0.25974384 -0.21430878 -0.026942194
0.39123914 -0.21370861 -0.034029901
0.39124995 -0.19614506 -0.033959627
0.39126083 -0.17858028 -0.033889294
-0.27675599 -0.1611661 -0.031355321
0.39126259 -0.16101077 -0.033877671
-0.27587795 -0.14323503 -0.037691712
0.39126259 -0.14344053 -0.033877671
0.39126083 -0.12586978 -0.033889294
0.39125901 -0.10829921 -0.033901036
-0.29510841 -0.090968139 -0.026140213
0.39125901 -0.090729162 -0.033901036
-0.29480323 -0.07329011 -0.028226733
0.3912572 -0.073158756 -0.033912838
-0.29449689 -0.055644181 -0.030321062
0.3912572 -0.055588789 -0.033912838
-0.29479632 -0.038062327 -0.028273702
0.3912572 -0.038018819 -0.033912718
-0.29510152 -0.020448888 -0.02618742
0.39125901 -0.020448888 -0.033901155
0.39125901 -0.0028788783 -0.033901036
0.39126083 0.014691405 -0.033889353
0.39126083 0.032261614 -0.033889353
-0.27673808 0.049905807 -0.031484485
0.39126083 0.049831703 -0.033889294
-0.277688 0.06775827 -0.024628937
0.39126083 0.067401871 -0.033889353
0.39126083 0.084971994 -0.033889472
-0.25970683 0.10290129 -0.027225137
0.39126083 0.10254209 -0.033889353
0.39126083 0.12011229 -0.033889353
-0.24230769 0.13826916 -0.025420308
0.3912572 0.13768084 -0.033912659
-0.22376478 0.15529945 -0.033279777
0.39125901 0.15525159 -0.033901036
0.39126083 0.17282271 -0.033889353
0.39126083 0.19039288 -0.033889353
0.39126259 0.20796415 -0.033877671
0.39126083 0.22553317 -0.033889353
0.39126083 0.24310334 -0.033889353
-0.11818911 0.26052338 -0.035107434
0.35581878 0.27795857 -0.036067009
-0.065784365 0.29647762 -0.029097915
-0.012778021 0.31291145 -0.037119269
0.2865327 0.31432414 -0.027460873
0.039857831 0.331469 -0.030544519
0.21546915 0.33077383 -0.035060644
0.022168243 -0.44499904 -0.018373907
0.23428249 -0.44464815 -0.02027297
-0.03080846 -0.42678005 -0.021363497
-0.10146308 -0.39141631 -0.021553099
-0.1374744 -0.37511337 -0.012705386
-0.15476285 -0.35661191 -0.017958045
0.4111127 -0.35634619 -0.019774795
-0.17197044 -0.33819127 -0.023210347
0.41078499 -0.33838648 -0.021801829
-0.18970214 -0.32064271 -0.022417486
0.41078693 -0.3207249 -0.021789908
-0.20760834 -0.30326736 -0.020118713
0.41078499 -0.30306011 -0.021801829
-0.22560811 -0.2859149 -0.017316043
0.41078499 -0.28539687 -0.02180177
0.41078499 -0.26773366 -0.02180177
0.41077927 -0.25006697 -0.021837175
-0.26118883 -0.23295249 -0.015900314
0.41076395 -0.23239526 -0.021932006
0.41076201 -0.21473202 -0.021943927
-0.27927899 -0.19774713 -0.013147116
0.41077352 -0.19707546 -0.021872818
-0.27773875 -0.17924713 -0.024262726
0.41078693 -0.17941856 -0.021789908
0.41078883 -0.16175599 -0.021778047
-0.29706469 -0.14457828 -0.012765229
0.41078883 -0.1440926 -0.021778107
-0.2960915 -0.12653816 -0.019418716
0.41078693 -0.12642859 -0.021789908
-0.29541761 -0.10867922 -0.024026275
0.41078499 -0.10876489 -0.021801829
0.41078311 -0.091101356 -0.021813571
0.41078311 -0.073438212 -0.021813571
0.41078311 -0.055775139 -0.021813512
0.41078311 -0.038111955 -0.021813571
0.41078311 -0.020448888 -0.021813691
-0.29540721 -0.00280343 -0.024097085
0.41078499 -0.0027857423 -0.02180177
-0.29604986 0.014909819 -0.019703448
0.41078499 0.014877521 -0.02180177
0.41078693 0.032540984 -0.021789849
-0.29700702 0.032740247 -0.013158977
0.41078693 0.050204284 -0.021789908
0.41078693 0.067867555 -0.021789908
0.41078693 0.085530855 -0.021789968
-0.27918807 0.085899688 -0.013803184
0.41078693 0.10319408 -0.021789908
-0.26111719 0.12118649 -0.016447902
0.41078693 0.12085742 -0.021789908
0.41078311 0.13851906 -0.021813571
0.41078499 0.15618308 -0.02180177
-0.2255134 0.17415664 -0.018136263
0.41078499 0.1738463 -0.02180177
0.41078693 0.19151056 -0.021789908
-0.20750867 0.19157946 -0.021043539
-0.18962398 0.20903303 -0.023198426
0.41078883 0.20917512 -0.021778047
-0.17188743 0.22658721 -0.024109066
0.41078499 0.22683586 -0.02180177
0.41078693 0.24450044 -0.021789908
-0.15466127 0.24480437 -0.019157588
-0.13736142 0.26310194 -0.014172912
0.39451677 0.26327819 -0.012741148
-0.10137631 0.2796737 -0.022961855
-0.030761067 0.31499076 -0.022902668
0.022184324 0.33302122 -0.020462692
0.23407984 0.33268201 -0.022666097
0.11110604 -0.46575016 -0.0024653673
0.12900904 -0.466205 -0.00010216236
0.0042735487 -0.44746029 -0.0050520301
-0.049185272 -0.43004721 -0.0029108524
-0.084585562 -0.41155678 -0.0069370866
-0.12064864 -0.39496404 0.000392735
0.39549536 -0.37608641 -0.0063850284
-0.19203922 -0.34153712 0.00093615055
0.43051913 -0.34008086 -0.0095734596
0.43052116 -0.32232511 -0.0095615387
0.43051913 -0.30456614 -0.0095734596
0.43051714 -0.28680748 -0.0095855594
-0.24437746 -0.26915485 -0.0086154342
0.43051714 -0.2690503 -0.0095855594
-0.26331156 -0.25228438 0.00032025576
0.43051305 -0.25129068 -0.0096094012
0.43049884 -0.23352586 -0.0096931458
-0.28087929 -0.21645495 -0.0015977621
0.43049276 -0.21576634 -0.009729147
0.43050697 -0.19801664 -0.0096453428
-0.29916406 -0.18103823 0.001588583
0.43052116 -0.18026577 -0.0095615387
-0.29804525 -0.16272387 -0.0060609579
0.43052116 -0.16250826 -0.0095614791
0.43052116 -0.14475092 -0.0095615387
0.43052116 -0.12699354 -0.0095614791
-0.3170464 -0.10967498 0.0018423796
0.43051913 -0.10923551 -0.0095735788
-0.3166987 -0.091760255 -0.00041592121
0.43051714 -0.091477886 -0.0095855594
-0.31635907 -0.073881462 -0.0026218295
0.43051714 -0.073720574 -0.0095854998
-0.31602195 -0.056036901 -0.0048114657
0.43051508 -0.055963229 -0.0095974207
-0.31633314 -0.038258433 -0.0027905107
0.43051714 -0.03820616 -0.0095855594
-0.31666896 -0.020448888 -0.00060892105
0.43051714 -0.020448888 -0.0095854402
-0.31701478 -0.0026052333 0.0016368628
0.43051913 -0.00269158 -0.0095734
0.43051913 0.01506573 -0.0095734596
0.43051913 0.032823078 -0.0095735788
-0.29797149 0.050673053 -0.0065650344
0.43052116 0.050580785 -0.0095615387
-0.29901388 0.068727851 0.00056171417
0.43052116 0.06833829 -0.0095615387
0.43052116 0.086095676 -0.0095615387
-0.28074908 0.10423157 -0.0025376081
0.43052116 0.10385306 -0.0095615387
0.43051913 0.1216097 -0.0095735788
-0.26312682 0.13995478 -0.001091361
0.43051714 0.13936625 -0.0095855594
-0.24424472 0.15711528 -0.009693265
0.43051913 0.15712447 -0.0095735788
0.43051913 0.17488174 -0.0095734
0.43052116 0.19264027 -0.0095615387
-0.20978898 0.21136598 0.00011515617
0.43052116 0.21039759 -0.0095615387
-0.19179651 0.22902499 -0.0014893413
0.43051913 0.22815372 -0.0095735788
-0.12044561 0.28234649 -0.0025374889
-0.08444801 0.29919457 -0.0094897151
0.34271947 0.30022812 -0.0020315051
-0.04905941 0.31743664 -0.0061808825
0.30751786 0.31858701 0.0016853213
0.0043302588 0.33482683 -0.0087351203
0.25337905 0.33541977 -0.004883647
0.093300663 0.35365087 -0.0021762848
0.11096281 0.35285217 -0.007117033
0.12878893 0.35306168 -0.0058206916
0.14667232 0.35340178 -0.0037171841
0.16464028 0.35389841 -0.00064516068
0.075674705 -0.46815979 0.010055721
0.093416378 -0.46677005 0.0028341413
0.14694865 -0.46666068 0.0022656322
0.16494849 -0.46720135 0.0050747991
-0.013897587 -0.4504922 0.011359155
0.25412327 -0.44897974 0.0031729341
0.30901685 -0.43315935 0.014666855
-0.10371849 -0.4152838 0.015070379
0.34384945 -0.41384989 0.006603241
-0.15721749 -0.37876767 0.011030138
-0.17466508 -0.36011016 0.0059600472
-0.20999859 -0.32384604 0.0020601153
0.45046476 -0.32394099 0.0027858615
-0.22816139 -0.3063361 0.0047959089
0.45046476 -0.30608851 0.0027857423
0.47062522 -0.30762714 0.01527828
-0.24642247 -0.28883678 0.0079879165
0.45046258 -0.28823465 0.0027737021
0.47062296 -0.28967702 0.015265882
0.45046258 -0.27038229 0.0027737617
0.47062296 -0.27172858 0.015265882
0.45045832 -0.25252748 0.0027494431
0.47061843 -0.25377756 0.015241563
-0.28249574 -0.23535132 0.010067999
0.4504433 -0.23466742 0.0026648045
0.47060263 -0.23582132 0.015155971
0.45043474 -0.21681176 0.0026164055
0.47059134 -0.21786845 0.015094936
-0.3008911 -0.19979046 0.013396442
0.45044973 -0.19896714 0.0027010441
0.47060713 -0.19992778 0.015180528
0.45046687 -0.181122 0.0027977824
0.47062522 -0.18198669 0.01527828
0.45046687 -0.16326948 0.0027980208
-0.3189061 -0.14601634 0.013921559
0.45046687 -0.14541689 0.0027979016
-0.31782049 -0.12775239 0.0068704486
0.45046687 -0.12756431 0.0027979016
0.47062522 -0.12814075 0.01527828
0.45046476 -0.10971122 0.0027857423
0.47062522 -0.11019211 0.015278161
0.45046258 -0.091858372 0.0027735829
0.47062296 -0.092243113 0.01526612
0.45046043 -0.07400579 0.0027616024
0.47062072 -0.074294202 0.015253723
0.45046043 -0.056153491 0.0027615428
0.47062072 -0.056345806 0.015253723
0.45046043 -0.038301148 0.0027615428
0.47062072 -0.038397364 0.015253723
0.47062296 -0.020448888 0.015266001
0.45046258 -0.020448809 0.0027735829
0.45046476 -0.0025964286 0.0027856827
0.47062296 -0.0025003701 0.015266001
-0.31771585 0.015308499 0.0061905384
0.45046476 0.015256029 0.0027858615
0.47062522 0.015448384 0.01527828
-0.31878391 0.033347391 0.013127744
0.45046476 0.033108488 0.0027857423
0.47062522 0.033397019 0.01527828
0.45046476 0.050960988 0.0027856827
0.47062522 0.051345654 0.015278161
0.45046687 0.06881392 0.0027980208
0.47062522 0.069294289 0.01527828
-0.30069298 0.087093487 0.012041867
0.45046687 0.086666495 0.0027980208
0.47062522 0.087242968 0.01527828
0.45046687 0.10451899 0.002797842
-0.28232712 0.12274435 0.0088511109
0.45046476 0.1223709 0.0027856827
0.47062522 0.1231402 0.01527828
0.45046258 0.14022258 0.0027737021
0.47062072 0.1410871 0.015253723
0.45046258 0.15807492 0.0027737021
0.47062296 0.15903668 0.015265882
-0.24621904 0.17622885 0.0063361526
0.45046476 0.17592828 0.0027858615
0.47062522 0.1769861 0.01527828
-0.22792509 0.19377746 0.0027495027
0.45046687 0.19378188 0.0027980208
0.47062522 0.19493482 0.01527828
0.45046687 0.21163446 0.0027979016
-0.17441657 0.2473941 0.0032699108
-0.15696502 0.2658388 0.0080485344
-0.10346667 0.30203122 0.010981381
-0.067742586 0.32028574 0.01329881
-0.01375553 0.33697349 0.0052081347
0.057773769 0.35578579 0.011030138
0.075573586 0.35456645 0.0034878254
0.18298827 0.35526848 0.007829845
0.057836082 -0.46990514 0.019124568
0.18361737 -0.46969748 0.018045366
-0.06800431 -0.43392044 0.018965185
-0.14033364 -0.39885098 0.024437368
-0.21266821 -0.34512526 0.02683109
-0.23087844 -0.32728344 0.028326452
0.49099931 -0.27308816 0.027881205
-0.26557344 -0.27198052 0.017604172
-0.28491607 -0.2550078 0.02753526
0.49099931 -0.25504243 0.027881205
0.49098027 -0.23698772 0.0277825
-0.30267912 -0.21875973 0.025621116
0.49096602 -0.21893652 0.027708113
0.49098507 -0.20089975 0.027807057
0.49100408 -0.18286164 0.027906001
-0.31999832 -0.16439137 0.021015704
0.47062746 -0.16403878 0.015290439
0.49100408 -0.16481569 0.027906001
0.47062746 -0.14609009 0.015290439
0.49100646 -0.14677051 0.027918398
0.49100408 -0.12872401 0.027906001
0.49100167 -0.11067765 0.027893603
-0.33900711 -0.092613608 0.027300417
0.49099931 -0.092631571 0.027881324
-0.33861801 -0.074516922 0.024893463
0.49099931 -0.074585855 0.027881324
-0.33823967 -0.056458209 0.022553027
0.49099693 -0.056540012 0.027868927
-0.33856618 -0.038469106 0.024572909
0.49099931 -0.038494609 0.027881324
-0.33894917 -0.020448888 0.026942074
0.49099931 -0.020448888 0.027881205
0.49100167 -0.002403168 0.027893603
0.49100167 0.015642554 0.027893603
0.49100408 0.033688709 0.027906001
-0.31985834 0.051494345 0.020106614
0.49100408 0.05173447 0.027906001
-0.32100588 0.069766998 0.027559936
0.49100408 0.06978035 0.027906001
0.49100408 0.087826148 0.027906001
-0.3024357 0.10565926 0.023956716
0.47062746 0.10519227 0.015290439
0.49100646 0.10587269 0.027918398
0.49100408 0.12391794 0.027906001
-0.28456882 0.14176443 0.025029123
0.49099931 0.14196205 0.027881205
-0.26530746 0.15906005 0.015571773
0.49100167 0.16000867 0.027893603
0.49100167 0.17805432 0.027893603
-0.24890774 0.19612522 0.028165758
-0.23049486 0.21385676 0.025004447
-0.21222439 0.23163332 0.022713006
-0.19468379 0.25017607 0.027362168
-0.13994923 0.28522307 0.01944381
0.38197303 0.28565419 0.022737563
-0.032168698 0.33968377 0.022811472
0.27395636 0.33970267 0.022934496
0.039857831 0.35728478 0.020303071
0.20180589 0.35742974 0.02120012
0.039857831 -0.4721477 0.030777514
0.20276101 -0.47295779 0.034986198
-0.032443386 -0.45425624 0.031732142
-0.12336826 -0.41944599 0.039646924
-0.17751314 -0.38273388 0.036791027
-0.19512856 -0.36389059 0.031806648
-0.2493394 -0.30964613 0.031670272
-0.26788887 -0.29199016 0.035297215
0.49113974 -0.29121804 0.028610885
0.51159984 -0.25631997 0.040646255
-0.30449697 -0.23793614 0.038049638
0.51157981 -0.23816679 0.040546358
0.51156485 -0.22001724 0.040471256
0.51158237 -0.20188144 0.040558875
-0.32127818 -0.18296011 0.029328525
0.51160234 -0.18374512 0.040658891
0.51160485 -0.16560179 0.040671289
0.51160485 -0.14745772 0.040671289
-0.34028578 -0.12906137 0.035210192
0.51160485 -0.12931362 0.040671289
-0.33939502 -0.11074717 0.029699862
0.51160234 -0.11116896 0.040658772
0.51159984 -0.093024649 0.040646374
0.51159984 -0.074880704 0.040646374
0.51159739 -0.056736514 0.040633857
0.51159984 -0.0385928 0.040646255
0.51159984 -0.020448927 0.040646255
-0.33933496 -0.0023921132 0.029328525
0.51160234 -0.0023048986 0.040658772
-0.3400948 0.015736993 0.034029067
0.51160234 0.015839092 0.040658891
-0.34127775 0.033999071 0.041346252
0.51160234 0.033983119 0.040658772
0.51160485 0.052127585 0.040671289
0.51160485 0.070271693 0.040671289
-0.3228918 0.088375926 0.039809167
0.51160485 0.08841572 0.040671289
0.51160735 0.10656057 0.040683687
-0.30419266 0.12441441 0.035969079
0.51160485 0.12470397 0.040671289
0.51159984 0.14284633 0.040646255
-0.26751974 0.17844237 0.032476604
-0.17707331 0.26879263 0.032029927
-0.12293427 0.30513525 0.033382952
-0.086774305 0.32326686 0.033681095
-0.050882477 0.34251237 0.041183889
0.021782527 0.35913259 0.03173238
0.22118652 0.36034125 0.039209902
0.11219344 0.37739694 0.032848895
0.13052121 0.37846988 0.039185107
0.021670029 -0.47514403 0.046346247
-0.051364329 -0.45831525 0.053702652
0.27606449 -0.4565227 0.044000328
-0.087235212 -0.43804038 0.0422346
-0.16058193 -0.40310663 0.050762236
-0.28745651 -0.27502668 0.045869052
-0.32521576 -0.22123933 0.054903686
0.5323866 -0.22110876 0.053361475
-0.32322282 -0.20198925 0.041959226
0.53240496 -0.20287372 0.053449929
0.532426 -0.18463826 0.053551018
-0.34269804 -0.1661845 0.050132215
0.53243124 -0.16639656 0.05357641
-0.34148806 -0.1475642 0.042647421
0.53243124 -0.14815311 0.05357641
0.53243124 -0.12990971 0.05357641
0.53242862 -0.11166567 0.053563774
0.532426 -0.093421951 0.053551137
-0.36164597 -0.075199395 0.054448545
0.53242338 -0.075178385 0.053538382
-0.36121175 -0.056909796 0.051884592
0.53242338 -0.056935221 0.053538501
-0.36156252 -0.038695291 0.053955495
0.53242338 -0.038692094 0.053538501
0.532426 -0.020448888 0.053551137
0.532426 -0.0022056419 0.053551137
0.53242862 0.016037762 0.053563774
0.53242862 0.034281127 0.053563774
-0.34247211 0.052375801 0.048734486
0.53242862 0.052524567 0.053563774
0.53243124 0.070768327 0.05357641
0.53243124 0.08901193 0.05357641
-0.3248325 0.10719259 0.052414596
0.53243387 0.10725601 0.053589046
-0.30671433 0.14371684 0.05320996
-0.28701183 0.16114537 0.042660177
-0.25183073 0.21654804 0.051897109
-0.23325533 0.23445673 0.048910797
-0.2155329 0.25318402 0.053412259
-0.159951 0.28834647 0.043311179
0.0034599788 0.36172855 0.047791302
0.094363593 0.37926 0.043849885
0.003160987 -0.47915947 0.06721133
-0.14357327 -0.42399734 0.066521347
-0.19842635 -0.38703996 0.064760029
-0.21623325 -0.3680011 0.059910476
-0.23398679 -0.34906238 0.05524534
-0.25243801 -0.33101326 0.056827962
-0.27122799 -0.31323552 0.060812652
-0.29013595 -0.29544377 0.065206349
-0.30726573 -0.25795454 0.056980073
-0.34417412 -0.18503404 0.059262931
0.55348694 -0.16720007 0.066623509
0.55348694 -0.14885615 0.066623509
-0.36354786 -0.13046861 0.065678537
0.5534842 -0.13051176 0.066610873
-0.36251724 -0.11189782 0.059593141
0.5534842 -0.11216787 0.066610634
-0.36208114 -0.09352871 0.057017863
0.5534814 -0.093823671 0.066597998
0.55347866 -0.075479746 0.066585243
0.55347866 -0.057136104 0.066585243
0.55347866 -0.038792536 0.066585243
-0.36199534 -0.020448927 0.056511343
0.5534814 -0.020448927 0.066597998
-0.36242908 -0.0021631606 0.059072554
0.5534814 -0.0021052416 0.066597998
-0.36325842 0.016198017 0.063969553
0.5534842 0.016238723 0.066610754
0.5534842 0.034582488 0.066610754
0.5534842 0.052926295 0.066610634
-0.34374565 0.070885234 0.056612551
0.5534842 0.071270138 0.066610873
-0.32679212 0.12621108 0.06514281
-0.28952011 0.1808376 0.060762107
-0.27055407 0.19866538 0.05566293
-0.19774416 0.27198434 0.057943404
-0.14289244 0.3085016 0.057676971
-0.10626045 0.32658195 0.056346595
-0.069989443 0.34570861 0.061944664
-0.015168551 0.36473572 0.066393673
0.07645753 0.38214779 0.060901701
0.14948224 0.38150722 0.05711931
-0.070787415 -0.46302986 0.079221189
-0.10699885 -0.44266182 0.068336427
-0.18148157 -0.40779281 0.079750597
-0.31011328 -0.2783224 0.076448858
-0.32730746 -0.24074809 0.068489969
-0.34637648 -0.20436995 0.072886527
-0.36488605 -0.14923108 0.073580205
0.57476425 -0.057338998 0.079763472
-0.36457509 0.034701049 0.071744144
-0.36589608 0.053324498 0.079544008
-0.34587058 0.089759119 0.069757283
-0.30944955 0.16339709 0.071910918
-0.27387032 0.21946086 0.081003964
-0.25497052 0.23752595 0.077389538
-0.18051939 0.2917521 0.069334686
-0.12625237 0.33022815 0.081275523
0.058300395 0.38528758 0.079440653
0.16858254 0.3841145 0.072514117
0.11340651 0.40245587 0.072244704
0.22536021 -0.48420483 0.093427956
-0.015705232 -0.48347443 0.089632452
-0.2380974 -0.37252551 0.090844214
-0.25608766 -0.35338759 0.086459458
-0.27477303 -0.33507979 0.08790189
-0.2939451 -0.31716269 0.092696607
-0.33045635 -0.26115313 0.088942587
-0.34860423 -0.22392908 0.08666712
-0.36799976 -0.18729977 0.091965735
-0.36623311 -0.1681183 0.081534207
-0.3865318 -0.11314236 0.091926634
-0.38605186 -0.094520129 0.089215934
-0.38557303 -0.075939909 0.086511433
-0.38509524 -0.057401299 0.083812892
-0.38544887 -0.038940512 0.085810125
-0.38592517 -0.020448927 0.088500202
-0.38640016 -0.001915928 0.091183245
-0.36734897 0.072098024 0.088123024
-0.3480297 0.10884695 0.083113134
-0.32965061 0.14582984 0.08370918
-0.31228745 0.18342473 0.091313541
-0.29293695 0.20141427 0.085420787
-0.23704028 0.25644922 0.081689417
-0.21904969 0.27544546 0.086043894
-0.1634157 0.31218064 0.084227622
-0.089552581 0.34929508 0.085239112
-0.034168158 0.36818749 0.087745845
0.24292193 0.36721897 0.081754029
0.187793 0.3863728 0.085849226
0.09538573 0.40526497 0.08811003
0.13233431 0.40494293 0.086290538
0.095511861 0.42478335 0.093571723
0.1139355 0.42401713 0.089424312
-0.12737988 -0.44783413 0.097549856
-0.16443843 -0.42904145 0.096305311
-0.22005543 -0.39175355 0.095375836
-0.31327242 -0.29923594 0.098047912
-0.35110018 -0.24385349 0.10210699
-0.37045833 -0.20695622 0.10648304
-0.38922834 -0.15104039 0.10715669
-0.38773176 -0.13199408 0.098703921
-0.38731173 0.016696233 0.096331418
-0.38877735 0.03546004 0.10460943
-0.3697373 0.091258816 0.10222524
-0.35024062 0.12815998 0.096789777
-0.3327122 0.16583617 0.1035946
-0.2017353 0.29548061 0.097825229
0.039857831 0.38893902 0.10100216
0.15148541 0.40745687 0.10048968
0.13301758 0.42671776 0.10404247
0.095551714 0.44366682 0.095297515
-0.0350747 -0.48877722 0.11718661
-0.090824097 -0.46850121 0.10883576
-0.20315272 -0.41300446 0.11198884
-0.2791118 -0.35818142 0.12105602
-0.33370456 -0.28194267 0.11004049
-0.39079201 -0.1702401 0.11598819
-0.40997866 -0.057935324 0.11849278
-0.4103362 -0.03920697 0.12042803
-0.39030245 0.054361559 0.11322325
-0.37214926 0.11064434 0.11646742
-0.35349053 0.14812903 0.11689347
-0.31619835 0.20442867 0.11805278
-0.29671574 0.22263205 0.11269206
-0.27749699 0.24090205 0.10871679
-0.25931051 0.26002139 0.11262566
-0.24109146 0.27923036 0.11677366
-0.18457852 0.31620568 0.1132763
-0.14684592 0.33428812 0.10903424
-0.10965772 0.35333991 0.11151141
-0.053596023 0.37205726 0.11168391
0.20787287 0.39025456 0.10876971
0.077198371 0.40896732 0.10902101
0.17086497 0.41000313 0.11487085
0.15233482 0.4294591 0.11887962
0.1145699 0.44650155 0.11002713
0.096031085 0.46638596 0.11605471
-0.14850464 -0.4536826 0.1305818
-0.18608387 -0.4346754 0.12957209
-0.24268433 -0.3971718 0.13056833
-0.26087323 -0.37756705 0.12531334
-0.29798958 -0.33952695 0.12188488
-0.31766877 -0.32152396 0.12810606
-0.33746532 -0.30344129 0.13446707
-0.35464367 -0.26466417 0.1240266
-0.37297845 -0.22686708 0.12136358
-0.39287806 -0.18978028 0.12777001
-0.41159087 -0.11450075 0.12721914
-0.41105303 -0.095600732 0.12430793
-0.41051644 -0.076745719 0.12140363
-0.41087237 -0.020448888 0.12333018
-0.41140732 -0.00164623 0.12622577
-0.41243872 0.017242499 0.1318081
-0.3919687 0.073426411 0.12263411
-0.3746857 0.13029411 0.13144416
-0.33595899 0.18625042 0.1246832
-0.22371617 0.29960519 0.12934333
0.26533553 0.37413704 0.12454909
0.021068538 0.39291567 0.12448221
0.22852148 0.39461106 0.13449413
0.19047569 0.41257739 0.12941068
0.077389836 0.42993528 0.12145704
0.17189036 0.43223411 0.13389963
0.077401578 0.44884795 0.12221938
0.13382183 0.44937116 0.12493783
0.077413529 0.46777511 0.12299544
0.11521693 0.46938521 0.13104004
0.077438891 0.4868955 0.12464291
-0.11164442 -0.47495574 0.14377135
-0.35838437 -0.28594375 0.14716607
-0.3759748 -0.24726668 0.13905615
-0.39566293 -0.20980583 0.14349908
-0.41476968 -0.15304865 0.14442509
-0.4130398 -0.13367331 0.1350618
-0.41413388 0.036300126 0.14098352
-0.3946363 0.09289737 0.13770074
-0.35701635 0.16853887 0.13870353
-0.32052845 0.22613125 0.14765781
-0.30099395 0.24465801 0.14356714
-0.2825323 0.26401305 0.14719349
-0.20651193 0.32067859 0.14555627
-0.16814925 0.33883607 0.1401282
-0.13040601 0.35791516 0.14122802
-0.073545426 0.37646246 0.13893408
0.21032335 0.41518515 0.14413899
0.15331247 0.45227879 0.14004666
0.13465376 0.47248995 0.14655191
0.096590176 0.49014211 0.14026386
-0.055151287 -0.49549454 0.15209073
-0.22580776 -0.41894728 0.14875072
-0.30326295 -0.36356968 0.15994221
-0.32237163 -0.34454894 0.16025943
-0.39857182 -0.23013267 0.15992838
-0.41651288 -0.17257246 0.15386027
-0.43669879 -0.077635705 0.15994221
-0.43608102 -0.058523994 0.15673238
-0.43645203 -0.039501306 0.15865999
-0.41583928 0.055500522 0.15021437
-0.41773593 0.074883118 0.16048044
-0.39742452 0.11263709 0.1534484
-0.37841922 0.15066449 0.15348965
-0.34053141 0.20778464 0.15438181
-0.26401612 0.28342503 0.15083033
0.0018372908 0.39777702 0.15318769
0.19168948 0.43504602 0.14912003
0.058850057 0.45435679 0.15084404
0.17304514 0.4552201 0.15532976
0.058856383 0.47351354 0.15166599
0.05886282 0.49268585 0.152502
0.11598815 0.49343061 0.15608591
0.058869261 0.5118711 0.15333861
0.07782606 0.51110625 0.14979011
-0.17059262 -0.4604817 0.1689828
-0.20900799 -0.44160652 0.17049831
-0.26656884 -0.40348226 0.17155582
-0.28471416 -0.38320577 0.16386598
-0.34255913 -0.32638252 0.16755241
-0.38007107 -0.26858872 0.16324347
-0.41901171 -0.19252503 0.16738588
-0.43793643 -0.11600775 0.16637319
-0.43731546 -0.096796624 0.16314667
-0.43706277 -0.020448968 0.16183347
-0.43768039 -0.0013474356 0.16504282
-0.4388642 0.017848853 0.17119402
-0.40028071 0.13264273 0.1695804
-0.36065724 0.18934481 0.16122574
-0.24665073 0.30426073 0.16491824
-0.094118357 0.38147962 0.16996962
0.21173514 0.43789053 0.16451663
0.19302489 0.45819801 0.17080432
0.15434749 0.47567296 0.16245526
0.13563815 0.49676478 0.17212695
0.097178414 0.51454324 0.16573554
0.058941465 0.53297633 0.162718
-0.13351436 -0.48277479 0.18609339
-0.36297649 -0.30818778 0.17557257
-0.40219909 -0.25108731 0.18041521
-0.42225468 -0.21299584 0.18493873
-0.44163129 -0.15526588 0.18557233
-0.43968531 -0.13553928 0.17546076
-0.44076839 0.037226319 0.18108851
-0.4208445 0.094726622 0.17730588
-0.38247395 0.17152014 0.17743176
-0.34553301 0.23005523 0.18686849
-0.32560906 0.24884243 0.18239397
-0.30684164 0.26846737 0.1857695
-0.2294063 0.32574785 0.18214124
-0.19034225 0.34403455 0.17567033
-0.15201214 0.36329103 0.17614549
-0.017783962 0.40225756 0.17964405
0.17429797 0.47890013 0.17857939
0.039857831 0.4987995 0.18191653
0.039857831 0.51822466 0.18281549
0.11680472 0.51817924 0.18260461
0.039857831 0.53766376 0.18371505
0.07828483 0.53674245 0.17958814
0.039857831 0.55711699 0.18461508
-0.24965158 -0.42576206 0.19090635
-0.38437071 -0.29041255 0.18863171
-0.44366419 -0.17517594 0.19613534
-0.4636738 -0.05918207 0.1994769
-0.44272047 0.05676353 0.19123167
-0.42401391 0.11484705 0.19446081
-0.40473616 0.15352267 0.19474453
-0.36608955 0.21152107 0.19482964
-0.2880235 0.2881453 0.18915397
0.19450971 0.48216969 0.19491476
0.15554415 0.50013953 0.18836349
0.1367007 0.52187115 0.1997332
0.09789294 0.54055703 0.19667512
0.05918429 0.55934489 0.19426233
-0.076407582 -0.50488812 0.20090157
-0.30996457 -0.3897059 0.20830697
-0.3289195 -0.36981696 0.20502776
-0.3480494 -0.35017008 0.20321292
-0.36898345 -0.33194703 0.21273094
-0.40696234 -0.27299947 0.20731813
-0.42558601 -0.23377727 0.20297009
-0.44679156 -0.19564271 0.21238571
-0.46577141 -0.11768528 0.20995694
-0.46506837 -0.098129831 0.20644432
-0.46437016 -0.078629106 0.2029559
-0.46403322 -0.039829396 0.20127231
-0.46472761 -0.020448849 0.2047419
-0.46542677 -0.0010148827 0.20823532
-0.44504547 0.07653182 0.20331281
-0.42751431 0.13534184 0.21340734
-0.38693935 0.19294965 0.20379835
-0.27078137 0.30960518 0.20575744
-0.11553141 0.38744783 0.20688838
0.17571239 0.5035615 0.20482761
0.078793101 0.56358016 0.21260136
0.039857831 0.58337414 0.21396893
-0.19399859 -0.46867377 0.21525139
-0.2335898 -0.45015228 0.22095913
-0.29207012 -0.41095245 0.22007602
-0.39014503 -0.31363273 0.22272724
-0.4679648 -0.13763875 0.22091562
-0.4668282 0.018526986 0.21523708
-0.4690657 0.038272969 0.22641617
-0.44857812 0.096775748 0.2216689
-0.40943396 0.17489529 0.22127777
-0.25347838 0.33155459 0.2240476
-0.21365845 0.35007495 0.21696824
-0.17489214 0.37000555 0.21975762
-0.038409892 0.41002351 0.22550017
0.15687133 0.5256142 0.21709818
0.020379335 0.54442739 0.21401221
0.11777182 0.54442739 0.21401221
0.020371905 0.56412888 0.21497756
0.020364467 0.58384532 0.21594363
-0.41206279 -0.29553109 0.23612541
-0.43017048 -0.25546309 0.2277841
-0.45056891 -0.21661966 0.23201376
-0.47025326 -0.15778653 0.23234981
-0.47131124 0.058192559 0.23763591
-0.37196374 0.23448826 0.23116654
-0.35180998 0.25371861 0.22763854
-0.33259538 0.27359307 0.2301597
-0.31352699 0.29367095 0.2340166
0.17732154 0.52940589 0.23468989
0.13792689 0.54835159 0.23159009
0.09869016 0.56787431 0.23119587
0.059479289 0.5878163 0.23258346
0.020197256 0.60868949 0.23766512
-0.1571282 -0.49321538 0.24260503
-0.27518019 -0.43393636 0.24147135
-0.45450258 -0.23796751 0.25245339
-0.47256252 -0.17811665 0.24388713
-0.49366292 -0.079729013 0.2505843
-0.49288771 -0.059911486 0.24685448
-0.49322888 -0.040192861 0.24849612
-0.49400207 -0.020448968 0.25221592
-0.47402158 0.078374021 0.25117737
-0.45232391 0.11736205 0.24113292
-0.43270734 0.15676299 0.24151546
-0.41496685 0.1970759 0.25252765
-0.39332938 0.21583501 0.24153024
-0.13818702 0.39498907 0.25353736
0.15836325 0.55232733 0.24939924
0.00040611997 0.57132685 0.24614531
0.11888197 0.57223213 0.25006574
0.00038996711 0.59130293 0.24719447
0.079391129 0.59231716 0.2514444
0.00037379935 0.61129564 0.24824446
-0.33705401 -0.39736074 0.26064354
-0.35653758 -0.37720478 0.25834507
-0.37600327 -0.3570984 0.25615484
-0.39740288 -0.33845669 0.26558298
-0.43585801 -0.27812833 0.25856882
-0.47630522 -0.19912079 0.26258713
-0.49531314 -0.11955461 0.258524
-0.49444041 -0.099604227 0.25432509
-0.49477741 -0.0006475877 0.25594658
-0.49630073 0.019266549 0.26327556
-0.45655075 0.13840185 0.26309603
-0.29648218 0.31589115 0.25378996
0.039857831 0.61371404 0.25806183
-0.21976 -0.47977269 0.27793866
-0.41955715 -0.32006747 0.27845365
-0.49770454 -0.13990723 0.27002949
-0.4986476 0.039385043 0.27456695
-0.47793034 0.099040635 0.27070683
-0.4381645 0.17872703 0.27105314
-0.27980238 0.33916885 0.27899903
-0.23866591 0.35754752 0.26805979
-0.19971389 0.37883735 0.27712148
0.13937399 0.57664812 0.26918703
-0.020084757 0.5989579 0.27927166
0.099617228 0.59706491 0.27133936
0.059835076 0.61882305 0.27880186
8.3059072e-05 0.63583475 0.26712841
-0.2608102 -0.4614287 0.28754264
-0.32000154 -0.42029256 0.28074259
-0.44178933 -0.30140984 0.29067332
-0.46002862 -0.26039439 0.28116757
-0.48038277 -0.22054149 0.28295988
-0.5025456 -0.18116097 0.29332083
-0.50011426 -0.16044165 0.28162283
-0.50101829 0.059680849 0.28597265
-0.48189905 0.12002417 0.29053551
-0.46220544 0.1602938 0.29247862
-0.40037668 0.23968957 0.28314215
-0.38003451 0.25947922 0.28109163
-0.36023369 0.27961969 0.28235191
-0.34148195 0.30067939 0.29091781
0.12018229 0.6020658 0.2922948
-0.020110324 0.61921132 0.28037852
-0.020135906 0.63948214 0.28148645
0.01979214 0.64171886 0.29029101
-0.10113442 -0.52399272 0.30017167
-0.48456851 -0.2423216 0.30387312
-0.52479589 -0.10111371 0.30334812
-0.52395856 -0.080857784 0.29946345
-0.52312708 -0.060662109 0.2956056
-0.52343154 -0.040566318 0.29701835
-0.52426064 -0.020448849 0.30086499
-0.52509224 -0.00027211942 0.30472285
-0.50405592 0.080275804 0.30058748
-0.44465926 0.20162147 0.30620724
-0.42243648 0.22074816 0.29471582
0.080137298 0.6240226 0.29990989
-0.30343899 -0.44452155 0.30695015
-0.4660593 -0.28352582 0.31250399
-0.5068754 -0.2026933 0.31415278
-0.52590954 -0.12147881 0.30851454
-0.52675933 0.020023726 0.31245714
-0.48664472 0.14155184 0.31424624
-0.32454041 0.32370502 0.31349927
-0.041116204 0.62734336 0.31339043
-0.04115263 0.64788741 0.31457323
0.039857831 0.64770937 0.31387264
-0.020743635 0.66636771 0.3078019
-0.041189563 0.66845387 0.31577271
-0.36772248 -0.40765023 0.33099312
-0.38671446 -0.38608223 0.32241303
-0.4066934 -0.3655113 0.32044083
-0.42761788 -0.34564936 0.32398039
-0.53108102 -0.16318363 0.33250755
-0.52848351 -0.14223631 0.32045645
-0.52929038 0.040531229 0.32419986
-0.50827336 0.101358 0.32087892
-0.46798739 0.18268912 0.3225227
0.1007725 0.62930763 0.32136387
-0.45028061 -0.32678545 0.3366335
-0.49095759 -0.26544064 0.33579451
-0.51128149 -0.22457464 0.33535165
-0.53401506 -0.18441263 0.3461197
-0.55454254 -0.061441984 0.34626311
-0.53184754 0.061223343 0.33606356
-0.51255345 0.12276876 0.34147149
-0.49275932 0.16391848 0.34479672
-0.43008816 0.24517269 0.33793253
-0.40996999 0.26580518 0.3397879
-0.38982108 0.28646463 0.34163028
-0.26625583 0.36729497 0.33470327
0.060289532 0.65379733 0.3378374
-0.00096681714 0.67357004 0.33532006
-0.35118365 -0.43207151 0.35724872
-0.47316471 -0.30774158 0.34942478
-0.51629096 -0.24702802 0.3594535
-0.55633163 -0.10268188 0.35427719
-0.55542678 -0.082029991 0.3502242
-0.55479544 -0.040954102 0.34739584
-0.55569118 -0.020448849 0.3514083
-0.55657887 0.0001178775 0.35538465
-0.5352689 0.082252324 0.35193664
-0.45264083 0.22580042 0.34940857
-0.37185887 0.30892438 0.35785991
-0.30991831 0.34990239 0.35646099
-0.06271407 0.65652561 0.34857768
-0.062762678 0.67737055 0.34984034
-0.062813789 0.69825238 0.35116822
-0.49749771 -0.28912669 0.36847121
-0.53869307 -0.20641166 0.36782271
-0.56049019 -0.14465889 0.37290531
-0.55771738 -0.12347917 0.36048478
-0.55840909 0.020810865 0.36358303
-0.51795304 0.14482835 0.36745006
-0.4754701 0.20629531 0.36140364
-0.2289612 0.39311886 0.36988276
0.081096731 0.65999293 0.36222667
0.019228684 0.680942 0.36348611
-0.45916757 -0.35313249 0.38473564
-0.56328887 -0.16603602 0.38544172
-0.56113011 0.041722301 0.37577182
-0.5398131 0.10376625 0.37301916
-0.49901763 0.18681085 0.37606519
-0.3546167 0.33250195 0.38072079
-0.084844723 0.66541517 0.38357109
-0.084906861 0.68655097 0.38491625
-0.042988885 0.70445985 0.37420732
-0.29329544 -0.4785347 0.38854879
-0.41826972 -0.39528054 0.38879579
-0.43872964 -0.37418753 0.38673955
-0.4824166 -0.33381349 0.39749891
-0.52321541 -0.27070361 0.39276868
-0.543455 -0.22877491 0.38991553
-0.5872007 -0.06225289 0.39892441
-0.56389064 0.062826723 0.38813752
-0.54442608 0.12562203 0.39442068
-0.52456725 0.16769281 0.39927286
-0.46169093 0.25122339 0.39839393
0.039857831 0.68851978 0.39243859
-0.084969074 0.70770806 0.38626295
-0.40080851 -0.41914701 0.40959734
-0.50598347 -0.31436342 0.41086835
-0.56679159 -0.18780053 0.40113205
-0.58911783 -0.10431226 0.40722579
-0.58815205 -0.083249845 0.40304393
-0.58739614 -0.041357443 0.39977056
-0.58835572 -0.020449007 0.40392584
-0.58930671 0.00052323192 0.40804368
-0.56772763 0.084307171 0.40532476
-0.48413762 0.23106889 0.40644175
-0.44113383 0.27232862 0.40031844
-0.42061794 0.29351187 0.40266126
-0.023117285 0.71426082 0.41058391
-0.33854768 -0.46192205 0.4145878
-0.54938835 -0.25193843 0.41744286
-0.57183981 -0.21028608 0.4237451
-0.59081024 -0.12556024 0.41455418
-0.5913105 0.021628957 0.41672033
-0.55055749 0.14824124 0.42286712
-0.50760233 0.21116886 0.41895682
-0.10764875 0.6960116 0.42106241
-0.10772599 0.71747023 0.4224959
-0.10780333 0.73895127 0.42393106
-0.53030396 -0.29497129 0.42687339
-0.59379601 -0.14717974 0.4274829
-0.59424615 0.042961508 0.42943209
-0.57262129 0.10627086 0.42724591
-0.53133672 0.19110461 0.43184251
-0.40351924 0.31736219 0.42636579
-0.38467437 -0.4449811 0.44109899
-0.55688965 -0.27619785 0.45224458
-0.57697654 -0.23315039 0.44675487
-0.59681016 -0.16900469 0.44053453
-0.59720922 0.064493395 0.44226259
-0.57759827 0.12859222 0.44954008
-0.34206006 0.36146897 0.43993634
-0.45242471 -0.4057135 0.4640891
-0.4724153 -0.38330901 0.45644075
-0.49335757 -0.36170673 0.45434982
-0.51606178 -0.34117174 0.46122259
-0.60095125 -0.19133134 0.45846599
-0.62322628 -0.10600814 0.46229893
-0.62219995 -0.084519014 0.45799822
-0.62117684 -0.06309633 0.45371109
-0.62130046 -0.04177662 0.45422882
-0.62232393 -0.020449007 0.45851785
-0.62334651 0.00094481558 0.46280295
-0.60150373 0.086444654 0.46085829
-0.55770099 0.17162362 0.45600873
-0.4947637 0.25755423 0.46165663
-0.47374478 0.27915269 0.46363717
-0.38771385 0.342987 0.46084088
-0.30126178 0.38463062 0.45322782
-0.13101499 0.70576048 0.45830995
-0.13110676 0.72752124 0.45980018
-0.002850242 0.72694236 0.45765203
-0.1311997 0.7493099 0.46130961
-0.54035443 -0.32129973 0.47522908
-0.58395213 -0.25706649 0.47800153
-0.62526339 -0.12772654 0.47083586
-0.62554294 0.022480179 0.47200722
-0.51700473 0.2365645 0.46593386
-0.45409307 0.30169302 0.47351211
-0.56489342 -0.30122632 0.48937732
-0.60639715 -0.21432546 0.4820475
-0.62848169 -0.14980496 0.48432177
-0.62870073 0.044250257 0.48523945
-0.60678387 0.10887945 0.48372191
-0.58453298 0.15179674 0.48060375
-0.54114622 0.21625651 0.4790383
-0.43591943 -0.43134749 0.49301225
-0.6317271 -0.17209715 0.49792105
-0.6318844 0.06622757 0.4985804
-0.56550854 0.19575338 0.49223119
-0.43684128 0.32624137 0.49845558
-0.15514804 0.73790735 0.49834889
-0.15525676 0.76000953 0.49991804
-0.59207159 -0.281937 0.51437229
-0.61193645 -0.23771369 0.50603324
-0.63658339 -0.19501433 0.51827115
-0.65765238 -0.085840538 0.51521975
-0.65655226 -0.063974515 0.51075381
-0.65659213 -0.042213045 0.51091558
-0.6576879 -0.020449007 0.51536411
-0.6121434 0.1316846 0.50692946
-0.59224874 0.17572211 0.51516575
-0.50788766 -0.39291584 0.5298503
-0.52935648 -0.37073463 0.52764708
-0.55132121 -0.34888172 0.5279929
-0.66117114 -0.12998465 0.52950412
-0.65875596 -0.10777561 0.51969975
-0.65878713 0.0013837293 0.51982647
-0.66118902 0.023366496 0.52957708
-0.63669121 0.088671915 0.51872319
-0.55134392 0.24230741 0.52810198
-0.52941114 0.26418555 0.52792007
-0.50791222 0.28630233 0.52997786
-0.57638693 -0.32857132 0.54270083
-0.6200819 -0.26242679 0.54130393
-0.64245707 -0.21854039 0.54288453
-0.64237368 0.11159579 0.54253536
-0.61997157 0.1555057 0.54082638
-0.57618886 0.22156936 0.54178172
-0.37763697 0.37507236 0.53811103
-0.17989038 0.7486698 0.53829449
-0.18001746 0.77110207 0.53994519
-0.37870666 -0.48307288 0.54542476
-0.42469507 -0.46288019 0.55735725
-0.48987153 -0.41774595 0.55092543
-0.60170913 -0.30804795 0.5575431
-0.60127395 0.20063096 0.55559367
-0.48935607 0.31030983 0.54813558
-0.42368224 0.35479784 0.55109209
-0.18049885 0.72876376 0.54619879
-0.15849769 0.72889405 0.54669648
-0.4719657 0.33560222 0.57445663
-0.20526209 0.73719448 0.57840985
-0.20540583 0.75993544 0.58010727
-0.47416183 -0.44507402 0.58686048
-0.56508166 -0.37893158 0.59419769
-0.56574386 0.27113706 0.59738356
-0.22858408 0.44932443 0.58965033
-0.20591348 0.71686506 0.58610207
-0.18415128 0.71878123 0.59364527
-0.5450086 -0.40286154 0.60584956
-0.54375023 0.29380161 0.59956259
-0.27499777 0.42934483 0.60517734
-0.2071213 0.45105666 0.60036606
-0.16223988 0.72057605 0.60071057
-0.14018865 0.72224271 0.60727185
-0.18610829 0.45407999 0.61906749
-0.23164394 0.47730428 0.62277442
-0.23176607 0.68124616 0.62409645
-0.23121202 0.70240396 0.6180988
-0.20836397 0.70165086 0.61504132
-0.18651488 0.70394379 0.6243493
-0.23136958 0.72542644 0.61980432
-0.11800469 0.72376013 0.61324471
-0.23152193 0.74846041 0.6214537
-0.21029899 0.47986466 0.63789254
-0.23287559 0.50229013 0.63610739
-0.23279226 0.66117638 0.63520521
-0.21012288 0.68404227 0.63581294
-0.16451576 0.70621282 0.63356012
-0.46206358 0.36739939 0.64738625
-0.25622675 0.45784163 0.64233643
-0.21139434 0.50489646 0.65082818
-0.23370957 0.52668595 0.64513534
-0.23422813 0.55056345 0.65074915
-0.23405993 0.61869246 0.64892823
-0.23354018 0.6402629 0.64330167
-0.21109954 0.66398019 0.64734656
-0.18828523 0.68679452 0.64734679
-0.14236018 0.70842314 0.64253336
-0.464012 -0.47851247 0.65889114
-0.18873177 0.48244816 0.65314716
-0.25782767 0.48332649 0.65833384
-0.25777188 0.50612676 0.6577763
-0.25774798 0.52897722 0.65753764
-0.21212432 0.52933031 0.65944868
-0.25773406 0.55184311 0.6573984
-0.25773406 0.57473481 0.6573984
-0.23447168 0.57393163 0.65338534
-0.25777388 0.59770912 0.6577962
-0.23437455 0.59657395 0.65233415
-0.25783563 0.62073696 0.65841323
-0.21233198 0.62148875 0.66190106
-0.25791135 0.64380527 0.65916985
-0.21180928 0.64303702 0.65572828
-0.25800505 0.66692692 0.66010636
-0.18920304 0.66673362 0.65926951
-0.25812477 0.69012493 0.66130251
-0.16619764 0.68929768 0.65783602
-0.12005445 0.71057862 0.6512838
-0.097606301 0.7126931 0.65986723
-0.16694203 0.48506188 0.66858035
-0.1896963 0.5075255 0.66567701
-0.1903294 0.53200042 0.67390114
-0.21256533 0.55324006 0.66465718
-0.21276015 0.57664812 0.6669578
