ply
format ascii 1.0
comment PCL generated
element vertex 1328
property float x
property float y
property float z
element camera 0
property float view_px
property float view_py
property float view_pz
property float x_axisx
property float x_axisy
property float x_axisz
property float y_axisx
property float y_axisy
property float y_axisz
property float z_axisx
property float z_axisy
property float z_axisz
property float focal
property float scalex
property float scaley
property float centerx
property float centery
property int viewportx
property int viewporty
property float k1
property float k2
end_header
0.080175757 -0.15011805 -0.13215429
0.097889453 -0.15056175 -0.12254798
-0.2467417 -0.13299598 -0.13023096
0.097356185 -0.13291085 -0.13244402
0.11514144 -0.13328053 -0.12284029
-0.26392472 -0.11577722 -0.13048905
0.11453216 -0.11570814 -0.13273376
0.13238893 -0.11600372 -0.12313265
-0.28110999 -0.098563649 -0.13069326
0.1317111 -0.098512352 -0.13291615
-0.2986739 -0.081400931 -0.12779796
0.14906414 -0.081354648 -0.13080078
-0.31632718 -0.064196244 -0.12456012
0.16653128 -0.064171962 -0.1277225
-0.31512001 -0.046941765 -0.13378483
0.18404758 -0.046941806 -0.12462503
-0.33274975 -0.029733445 -0.13056439
0.18321827 -0.029756811 -0.13360256
-0.35059926 -0.012457669 -0.12618029
0.20073842 -0.012520336 -0.13025248
-0.3492426 0.0045701154 -0.13545573
0.21862549 0.0048352852 -0.12397635
-0.36741978 0.021942046 -0.12891817
0.21765742 0.021817695 -0.13295901
-0.38577384 0.039432835 -0.12190896
0.23562877 0.039268065 -0.12619108
-0.38443023 0.056323837 -0.13022012
0.2347049 0.056140456 -0.13419205
-0.40299553 0.073965803 -0.12222314
0.25272593 0.073688582 -0.12736678
-0.40159202 0.090727866 -0.13051051
0.25174019 0.090428635 -0.13537019
-0.41932297 0.12537239 -0.12756091
-0.43716869 0.1601423 -0.12423581
-0.43583074 0.1766746 -0.13147765
0.30491579 0.19468081 -0.12400877
-0.45450893 0.21196333 -0.12380332
0.30392867 0.21116024 -0.13075781
-0.4531478 0.22835255 -0.130876
0.32153475 0.26313996 -0.12816441
-0.47099563 0.28043929 -0.12766856
0.32057539 0.2794553 -0.13439554
-0.46981227 0.29675952 -0.1335811
0.33977973 0.31583858 -0.12186575
0.33893749 0.3322314 -0.12707555
-0.48917127 0.35016668 -0.12312162
0.33810091 0.34855026 -0.13225085
-0.48802918 0.36641708 -0.12861675
-0.48689038 0.38258591 -0.13409549
0.37337151 0.43559816 -0.12728059
0.37365237 0.45318595 -0.12569445
-0.506015 0.47057363 -0.1250788
0.35553452 0.4692423 -0.13084376
0.58446044 -0.5502665 -0.11137253
0.5997895 -0.54863375 -0.11868668
0.63568187 -0.54962039 -0.11426681
0.5666554 -0.53254074 -0.11308813
0.55058861 -0.49886048 -0.10806507
0.55032682 -0.4812806 -0.10909563
-0.092464074 -0.27269825 -0.11009222
-0.074979886 -0.27218559 -0.1152153
-0.057713449 -0.27257559 -0.11131787
-0.12715845 -0.25525761 -0.11090213
-0.10960175 -0.25478458 -0.11602163
-0.02300055 -0.25513944 -0.11218148
-0.092124254 -0.25431284 -0.12112874
-0.040311657 -0.25467503 -0.117208
-0.16195865 -0.23800907 -0.10958862
-0.14419881 -0.23739623 -0.11682719
-0.0056960564 -0.23729122 -0.1180672
0.011708982 -0.23784418 -0.11153662
-0.17908065 -0.22036406 -0.11316466
-0.16127533 -0.2197852 -0.12068415
0.028982062 -0.22021706 -0.11507368
-0.21413009 -0.20332052 -0.10885441
-0.1961887 -0.20281106 -0.11620677
0.046218421 -0.20268442 -0.11803472
0.063800633 -0.20318384 -0.1108256
-0.23143566 -0.18589854 -0.1096105
0.081094205 -0.18573481 -0.11226892
-0.213269 -0.18531884 -0.11902344
0.063416183 -0.18520851 -0.12081426
-0.24877895 -0.16851468 -0.10987335
-0.23049091 -0.16797774 -0.11983782
0.098427445 -0.16836973 -0.11256391
-0.26611701 -0.15113454 -0.11014706
-0.24775569 -0.15067485 -0.12009823
0.11575614 -0.15100923 -0.11285883
-0.28345212 -0.13375893 -0.1104098
-0.2650165 -0.13337602 -0.12035871
0.1330803 -0.1336533 -0.1131537
0.15054289 -0.11635913 -0.11159128
-0.28227201 -0.11608085 -0.12062985
-0.29984832 -0.09885072 -0.11826283
0.14977032 -0.098773018 -0.12162727
0.16810857 -0.099062428 -0.10909551
-0.3175444 -0.081594013 -0.11525899
0.16729549 -0.081541047 -0.11869758
-0.3353242 -0.064293094 -0.11198479
0.18488258 -0.064265348 -0.11558586
-0.33403164 -0.046941683 -0.12131304
0.20254795 -0.046941683 -0.11217064
-0.35196725 -0.029627634 -0.11682731
0.20163953 -0.029661734 -0.12124795
-0.3703064 -0.012211118 -0.11016899
0.21960139 -0.012284357 -0.11492109
-0.36885622 0.0049365982 -0.11958814
0.23766355 0.0051910318 -0.10856938
0.23661204 0.022288259 -0.11767584
-0.38722271 0.022433948 -0.11294627
0.25471747 0.039845061 -0.11119759
-0.40441135 0.057079431 -0.11386317
0.25371879 0.056828003 -0.11930591
0.27074397 0.056732845 -0.12136716
-0.42227829 0.091937393 -0.11086935
-0.42079607 0.1087174 -0.11924058
-0.43864202 0.1435606 -0.11626112
-0.4572593 0.17887278 -0.10951191
0.30590728 0.17810042 -0.11722982
0.32307088 0.17800468 -0.11818677
-0.45588082 0.19547126 -0.11667478
0.32361731 0.23035261 -0.11463761
-0.47377843 0.24779755 -0.11376488
0.32257292 0.24679568 -0.12142134
-0.47235015 0.26414639 -0.12090099
0.34149548 0.28284037 -0.11125231
0.34062591 0.29936919 -0.11663127
-0.49147695 0.3174288 -0.11202854
-0.49032128 0.33383805 -0.11758882
0.35922143 0.37002769 -0.10907364
0.35833085 0.38638932 -0.11433232
-0.50951678 0.40482324 -0.10883254
0.3574242 0.40265095 -0.11968583
-0.52595454 0.438669 -0.11303365
-0.52531666 0.45537439 -0.1158908
0.37580317 0.47323701 -0.11354667
0.56993437 -0.55268037 -0.10055995
0.55337721 -0.53598958 -0.09708786
0.55159342 -0.51706403 -0.10410976
0.55131114 -0.46462297 -0.10522074
-0.092807278 -0.29126531 -0.098946869
-0.075236112 -0.29070771 -0.10412067
-0.057882987 -0.29111883 -0.10030597
-0.040481046 -0.29166871 -0.095203578
-0.14539811 -0.27425152 -0.094571054
-0.12767287 -0.27373174 -0.099764824
-0.11002804 -0.27321324 -0.10494584
-0.040395983 -0.27308241 -0.10625386
-0.02300055 -0.27359033 -0.10117805
-0.005526796 -0.27410057 -0.096079528
-0.16264941 -0.25641501 -0.098371804
-0.14479581 -0.25573358 -0.10574853
-0.0056117978 -0.25560677 -0.10712141
0.011878487 -0.25621596 -0.10052675
-0.19787216 -0.2393005 -0.094337881
-0.1798553 -0.23865309 -0.10198337
0.029235769 -0.23847498 -0.10408765
0.046878424 -0.23910899 -0.096600354
-0.21505241 -0.22153437 -0.09796232
-0.19700646 -0.22094764 -0.10558361
0.046538245 -0.22078876 -0.10764819
0.064210206 -0.22136329 -0.10018462
-0.23238906 -0.20398307 -0.099289656
0.081559613 -0.20378202 -0.10219282
-0.24981044 -0.18651707 -0.099565983
0.098970264 -0.18633698 -0.10249048
-0.26722878 -0.16905589 -0.099831104
0.11637634 -0.16889656 -0.10278809
-0.28464302 -0.15159874 -0.10009629
0.13377783 -0.15146075 -0.10308558
-0.30241004 -0.13425724 -0.097464383
0.15132241 -0.13410322 -0.10146493
-0.32022125 -0.11687604 -0.094804108
-0.30112329 -0.11647247 -0.10791141
0.16896793 -0.11674845 -0.098946989
-0.31885231 -0.099150896 -0.10526466
0.18665172 -0.099354848 -0.096434295
-0.33662754 -0.081789121 -0.10257876
0.18572533 -0.081729472 -0.1064626
-0.35473779 -0.064401627 -0.097884893
0.20346373 -0.064362034 -0.10301954
0.22157705 -0.046941806 -0.096589327
-0.35334671 -0.046941724 -0.10739577
-0.37176707 -0.02950345 -0.10068148
0.22058403 -0.029542835 -0.10580331
0.23872487 -0.01204503 -0.099378049
-0.38875267 0.0053086132 -0.10348219
-0.40747008 0.022961814 -0.095802426
0.25583062 0.022766043 -0.10215992
-0.40583777 0.040066715 -0.10544068
0.2911098 0.040311117 -0.099090636
-0.42377153 0.07503207 -0.10243541
-0.44175509 0.11009116 -0.09941107
-0.44019276 0.12688833 -0.10786766
-0.45869759 0.16219279 -0.1020385
0.32572865 0.19716874 -0.10092443
-0.47666681 0.21478876 -0.099333823
0.32466808 0.21380964 -0.10781276
-0.47521803 0.23134595 -0.10657239
0.34361172 0.24983954 -0.098161638
0.34255055 0.26638767 -0.1047259
-0.49390882 0.2844381 -0.10032827
-0.49264064 0.30093977 -0.10642964
0.36101511 0.33707392 -0.098482549
0.36011615 0.35358927 -0.1037904
-0.51186454 0.37208456 -0.097940385
-0.51064873 0.38845831 -0.10358119
0.37705162 0.42268464 -0.1064955
-0.52775759 0.47522071 -0.10495675
-0.5124616 0.49496159 -0.0951702
0.36106569 0.49424252 -0.098183632
0.57434207 -0.57400876 -0.083719611
0.5901438 -0.57249403 -0.090278506
0.60721177 -0.57211858 -0.091904163
0.55616182 -0.55590248 -0.086126328
0.53964072 -0.52167028 -0.081947744
0.53926498 -0.50378251 -0.083473146
0.55459231 -0.44950646 -0.092304468
-0.075763725 -0.32834536 -0.081274152
-0.11089425 -0.3106229 -0.082441449
-0.040567033 -0.31043902 -0.08403337
-0.093153879 -0.31001672 -0.087690771
-0.075494871 -0.30941334 -0.092916071
-0.058054186 -0.30984402 -0.089186192
-0.146007 -0.29295474 -0.083271325
-0.12819186 -0.29238811 -0.088528097
-0.11045901 -0.29182544 -0.093749344
-0.02300055 -0.29222107 -0.090077996
-0.005440874 -0.29277718 -0.084918082
-0.16334641 -0.27500376 -0.087054074
0.012049828 -0.27476919 -0.089398146
0.029750179 -0.27552825 -0.081813037
-0.19874737 -0.25783798 -0.082968652
-0.18063693 -0.25712356 -0.090701878
0.029491719 -0.25691083 -0.093004882
0.047221955 -0.25760919 -0.085444093
-0.21601206 -0.23995326 -0.08662945
0.064638272 -0.23974721 -0.089063466
-0.23343886 -0.222307 -0.087925255
0.08206825 -0.22205648 -0.091180623
0.10013168 -0.22284493 -0.080937266
-0.25087485 -0.20470086 -0.088929653
0.099525139 -0.20447481 -0.092193246
0.11765908 -0.20518376 -0.081959009
-0.26835078 -0.18714188 -0.089420319
0.1170021 -0.18694441 -0.092627048
0.13519256 -0.18755791 -0.082665801
-0.28585389 -0.1696067 -0.089609861
0.13448162 -0.16942793 -0.092927098
0.1529035 -0.17007455 -0.080926061
-0.30370739 -0.15220685 -0.086931229
0.15210895 -0.15200748 -0.09124732
-0.3216044 -0.1347664 -0.084235013
0.16983506 -0.13459432 -0.088706553
-0.33954224 -0.11728431 -0.081543684
0.18760082 -0.11714222 -0.086159885
-0.33807585 -0.099454343 -0.092126548
0.20544785 -0.099660598 -0.083192885
-0.35619617 -0.082014993 -0.087914109
0.20440811 -0.081927672 -0.093582749
-0.37472218 -0.064527795 -0.081487536
0.2225782 -0.064483047 -0.087299883
-0.37323841 -0.046941683 -0.091125071
0.24087371 -0.046941724 -0.080768764
-0.39184964 -0.029377533 -0.084324598
0.2397949 -0.029422037 -0.090111375
-0.39029551 -0.011961345 -0.093938112
0.25811705 -0.01180207 -0.083596349
-0.40911442 0.0057101436 -0.08609283
0.25696915 0.0055526011 -0.092916071
0.27578959 0.023361821 -0.082811713
-0.4269008 0.040862594 -0.084761202
0.27456474 0.040577445 -0.092171013
-0.42527601 0.057999659 -0.093938112
-0.44491306 0.07611607 -0.082318008
-0.44332919 0.093167707 -0.090891123
-0.46197516 0.12864813 -0.085007608
-0.46033129 0.14548378 -0.09354943
-0.47959018 0.18135299 -0.084727764
-0.47812489 0.1981253 -0.092048585
0.34584314 0.21651801 -0.084358096
0.34471682 0.23322392 -0.091325343
-0.49684203 0.2514028 -0.086215734
-0.49537086 0.26797181 -0.093293905
0.36391228 0.28721029 -0.081375301
0.36282948 0.30381271 -0.087768853
-0.51554883 0.32246938 -0.080847263
0.36192015 0.32048252 -0.093138278
-0.51431459 0.33909068 -0.086573601
-0.51308656 0.35562891 -0.092271209
0.38092154 0.40966591 -0.084638178
0.39928338 0.44572282 -0.080308139
0.39694375 0.46049103 -0.092971563
0.3977173 0.47895554 -0.088784635
-0.53264123 0.49784657 -0.08308059
-0.49538475 0.49542525 -0.093227208
0.37982818 0.49600139 -0.09081322
0.55959362 -0.57657278 -0.072616994
0.62810373 -0.57486409 -0.080015898
0.54251683 -0.55944186 -0.070272326
0.54074878 -0.54022241 -0.07744956
0.5402413 -0.48697442 -0.079509854
0.54331392 -0.47167763 -0.067036569
-0.076051071 -0.34756142 -0.068831503
-0.11135827 -0.32968646 -0.070385814
-0.09351851 -0.32901362 -0.075848639
-0.058233496 -0.32880527 -0.077539921
-0.040658318 -0.32946596 -0.072175622
-0.02300055 -0.33012843 -0.066797674
-0.14662138 -0.31184351 -0.071869969
-0.12871656 -0.31123185 -0.077167988
-0.02300055 -0.31103671 -0.078857303
-0.0053541902 -0.31163713 -0.073657513
0.012398306 -0.31243315 -0.066763639
-0.18222453 -0.29462352 -0.067786515
-0.16405039 -0.29377896 -0.075622916
0.012222685 -0.29350442 -0.078170538
0.030011207 -0.29432991 -0.070510507
-0.19963051 -0.27656069 -0.071496248
-0.18142712 -0.27578011 -0.079296172
0.047568876 -0.27629241 -0.074177444
0.065507099 -0.27706158 -0.066490591
-0.2169804 -0.25855613 -0.075193942
0.06507054 -0.25831234 -0.077832699
0.083114132 -0.25917113 -0.068536341
0.10074426 -0.24139793 -0.06956917
-0.23450549 -0.24082129 -0.076378763
0.082588598 -0.2405218 -0.07991457
-0.27079254 -0.22393604 -0.06676352
-0.25202936 -0.22311775 -0.077393353
0.11835852 -0.22364061 -0.070601225
-0.28841713 -0.2061917 -0.067411602
-0.26953772 -0.20542991 -0.07840699
0.13595699 -0.20589928 -0.071632266
-0.28707862 -0.18778342 -0.079003513
0.15370616 -0.18830706 -0.070499182
-0.30501682 -0.17032385 -0.076299787
0.17159498 -0.17077523 -0.067923069
-0.322999 -0.15282357 -0.073578358
0.17071103 -0.15260255 -0.078362048
-0.34102237 -0.13528112 -0.070861876
0.18855856 -0.13509135 -0.075792253
0.20649716 -0.11755642 -0.072707474
-0.3577745 -0.099800758 -0.077122867
0.22479634 -0.10004111 -0.066718102
-0.37635812 -0.082277566 -0.070861757
0.22366042 -0.082179055 -0.07725811
0.24196793 -0.064606279 -0.0712924
-0.39341694 -0.046941724 -0.074629366
0.25927436 -0.029299587 -0.074199975
-0.41077295 -0.011689652 -0.076299787
0.27702305 0.0060035102 -0.073386133
-0.42863673 0.023603704 -0.074956894
-0.44652358 0.058939043 -0.073601127
-0.46530467 0.094595581 -0.067707121
-0.46363363 0.11168623 -0.076390028
-0.48300821 0.1476768 -0.067650318
-0.48127252 0.16456835 -0.076322317
0.34815136 0.18281895 -0.070079625
0.34697637 0.19970959 -0.077348292
-0.49981198 0.21795341 -0.071926534
-0.49832237 0.23473051 -0.079093516
0.3661963 0.25380123 -0.067888916
0.36505094 0.2705549 -0.074651957
-0.51836157 0.28919607 -0.067797899
-0.51681125 0.30578011 -0.07499069
0.38339278 0.35945159 -0.07068038
0.38256568 0.37625775 -0.075352073
0.38174194 0.39299569 -0.080004394
-0.53629917 0.413257 -0.066695273
-0.53516674 0.42990264 -0.071767986
-0.55197132 0.46439663 -0.07547611
-0.55228162 0.48233941 -0.074132264
0.34685615 0.49903724 -0.078091621
0.40098459 0.50070578 -0.071099877
0.580796 -0.59746212 -0.05906111
0.59800303 -0.59697354 -0.061108589
0.54559743 -0.58000231 -0.057766616
0.52828866 -0.54488039 -0.05583936
0.52794915 -0.52680117 -0.057262182
0.52891403 -0.50983781 -0.053218722
-0.076341838 -0.36698952 -0.056241095
-0.058615915 -0.36748013 -0.052700698
-0.11184178 -0.34900194 -0.057823837
-0.093903482 -0.34827921 -0.063346565
-0.058423761 -0.34803906 -0.065181553
-0.040753894 -0.34874868 -0.059759259
-0.02300055 -0.34946012 -0.054322839
-0.14729618 -0.33104602 -0.059347332
-0.12928282 -0.33036107 -0.064908326
-0.0052597895 -0.33079398 -0.061394393
0.012590908 -0.33167338 -0.054253995
-0.18305703 -0.31370252 -0.055770576
-0.16477129 -0.31276193 -0.063916862
0.030281696 -0.31335303 -0.058797717
-0.20052256 -0.29547265 -0.059908032
0.04791924 -0.29516101 -0.062798977
0.065948457 -0.2959989 -0.055023909
-0.23667149 -0.27841863 -0.052930951
-0.21795945 -0.27734771 -0.063631833
0.083644927 -0.27800694 -0.057044208
-0.25437379 -0.26051703 -0.053966284
-0.23558298 -0.25952411 -0.064714611
0.10136297 -0.26013628 -0.058087587
-0.27206022 -0.24263145 -0.055000961
-0.25319558 -0.2417222 -0.065739453
0.11906497 -0.24228182 -0.059129834
-0.28979713 -0.22480619 -0.055460453
0.13675104 -0.22444355 -0.060171187
-0.30783561 -0.20716147 -0.053414226
0.15459901 -0.20678142 -0.058900774
-0.30636099 -0.188622 -0.065386653
0.17252198 -0.18913995 -0.056975424
-0.32440668 -0.17105024 -0.062821746
0.19050041 -0.17148396 -0.054771185
-0.34251639 -0.15344702 -0.060079634
0.18952504 -0.15320456 -0.065329671
-0.36097649 -0.13588281 -0.055230677
0.20755617 -0.13561739 -0.062125444
-0.35936788 -0.11775592 -0.066228926
0.22594278 -0.11806835 -0.056080401
-0.37804282 -0.10019804 -0.059919417
-0.39682233 -0.082543805 -0.053563833
0.24319135 -0.082433946 -0.060697258
-0.39504188 -0.064657964 -0.064577818
0.26168296 -0.064734548 -0.054644704
0.26044127 -0.046941806 -0.064725935
-0.41413304 -0.046941724 -0.056459248
-0.41244575 -0.029239766 -0.066422224
0.27952081 -0.029146381 -0.054299891
-0.43215373 -0.011363216 -0.055092871
0.27826825 -0.011498421 -0.063871205
-0.43038765 0.0061956085 -0.065067708
0.29748672 0.0064728744 -0.053069115
-0.45019785 0.024257857 -0.053713381
0.29615909 0.023982573 -0.062650502
-0.44835275 0.041673299 -0.063700199
-0.46698621 0.07737425 -0.058969557
-0.48475939 0.13065781 -0.058900893
-0.50296724 0.18415333 -0.056746066
-0.50130862 0.20106983 -0.064725935
0.36849961 0.21999022 -0.054288328
0.36734456 0.23694557 -0.061108768
-0.5214842 0.25570899 -0.053310692
-0.51991922 0.27250594 -0.060571313
0.38603672 0.30874285 -0.055747509
0.38505515 0.32563093 -0.061291516
0.38422129 0.34257475 -0.066001415
-0.5385741 0.37973976 -0.056505144
-0.53743416 0.39653549 -0.061611533
-0.55615115 0.50398058 -0.057376921
0.56576937 -0.60002869 -0.048306108
0.53193194 -0.58397311 -0.040572524
0.52942801 -0.56372976 -0.051064849
0.53180981 -0.49436948 -0.04108417
-0.07663554 -0.38663 -0.043523669
-0.058810167 -0.38713315 -0.040083766
-0.13045521 -0.3693057 -0.039524972
-0.1123306 -0.36852995 -0.045123816
-0.094293013 -0.36775792 -0.050695777
-0.040850431 -0.36823964 -0.047219336
-0.02300055 -0.36900273 -0.041711986
-0.14798525 -0.35047603 -0.04655993
-0.1298658 -0.34972659 -0.052286267
-0.0051633045 -0.35017496 -0.048860729
0.012785792 -0.3511256 -0.041595817
-0.18394572 -0.33306649 -0.042943239
-0.16555567 -0.33205199 -0.051180184
0.030572608 -0.33266529 -0.04620105
-0.2200412 -0.31563357 -0.03904742
-0.20147264 -0.31464985 -0.047566354
0.048289429 -0.3142792 -0.050776601
0.066423267 -0.3152132 -0.042687714
-0.23778304 -0.29752135 -0.040898144
-0.21895334 -0.29633617 -0.051894665
0.084181055 -0.29703218 -0.04543668
-0.25556406 -0.27950525 -0.042072356
0.10198851 -0.27906424 -0.046478868
-0.27334094 -0.26151922 -0.043117464
0.11977924 -0.2611115 -0.047531545
-0.29119155 -0.24361515 -0.043384373
0.13755386 -0.24317491 -0.048583388
-0.30932561 -0.22589494 -0.041316628
0.1555009 -0.22544326 -0.047184646
-0.32749048 -0.2081423 -0.039257169
0.17351477 -0.20772704 -0.04525131
-0.32590452 -0.1894848 -0.051376045
0.19155976 -0.18998191 -0.043303192
-0.34402451 -0.17178433 -0.049195707
0.20971772 -0.17225163 -0.040525973
-0.36260056 -0.15418389 -0.044126809
0.20862499 -0.15384588 -0.051445127
0.22709988 -0.1362633 -0.045344114
-0.37974542 -0.11829071 -0.048860669
0.24567242 -0.11858791 -0.039210379
-0.3986181 -0.10060139 -0.042455614
0.24442612 -0.10042712 -0.050003648
0.26300842 -0.082692884 -0.043883204
-0.41599193 -0.064804941 -0.045483112
0.28078687 -0.046941724 -0.044625461
-0.43393725 -0.029074918 -0.045019567
0.29882547 -0.011183258 -0.043407559
-0.452059 0.0066905282 -0.043639541
0.31697819 0.024632718 -0.041537583
-0.47083816 0.042625692 -0.038954198
-0.46885607 0.060063679 -0.049253404
-0.48829976 0.096227258 -0.041212142
-0.48652399 0.11350873 -0.050084472
-0.50664824 0.15009995 -0.039035857
-0.50480068 0.16719161 -0.047924757
0.37105119 0.18590693 -0.0392223
0.36966157 0.20293406 -0.047427475
-0.52305907 0.23880598 -0.046004236
0.38829762 0.27494368 -0.042978048
0.38716409 0.29188985 -0.049380362
-0.54202187 0.32890129 -0.041060925
-0.54086924 0.34592417 -0.046224117
-0.5397191 0.36286962 -0.051375926
0.40665039 0.40061122 -0.040432751
0.40601078 0.41782057 -0.043894887
0.40537089 0.4349761 -0.047358155
0.42335108 0.48868015 -0.046675622
0.42465776 0.50815457 -0.039885819
-0.5404973 0.52408916 -0.047890067
-0.52285457 0.52432007 -0.04695338
0.38664958 0.52300626 -0.052286208
0.40604079 0.5251134 -0.043732405
0.55069113 -0.60270548 -0.037088871
0.51604533 -0.56801939 -0.031849563
0.51532358 -0.54937762 -0.034974933
0.51581264 -0.53187352 -0.032857239
-0.095084727 -0.40736264 -0.024984539
-0.07693249 -0.40648803 -0.030665278
-0.059006732 -0.40700364 -0.027316689
-0.13105117 -0.38910207 -0.026622176
-0.11282484 -0.38827404 -0.032283187
-0.094686508 -0.38745001 -0.037917018
-0.040948018 -0.38794363 -0.034542382
-0.02300055 -0.38875976 -0.028962612
-0.16715147 -0.37128139 -0.025267422
-0.14868262 -0.37012419 -0.033618152
-0.0050657671 -0.36976779 -0.036190033
0.01298264 -0.37079051 -0.028809965
-0.18484434 -0.35264674 -0.029972732
0.030866981 -0.35219103 -0.033454359
0.049075279 -0.35326406 -0.02525562
-0.16634877 -0.35155669 -0.038301647
-0.22115919 -0.33517253 -0.025844812
-0.20246713 -0.3340883 -0.034647465
0.048680019 -0.33366406 -0.038091838
0.066914931 -0.33467132 -0.029914021
-0.23900178 -0.31694329 -0.027704895
0.084773988 -0.31637806 -0.032599628
-0.25681487 -0.29874179 -0.02957356
0.10263675 -0.29821631 -0.034448802
-0.2746349 -0.28060228 -0.031110883
0.12050001 -0.28013015 -0.035827994
0.1391831 -0.28120714 -0.025067031
-0.29260063 -0.26262185 -0.031181395
0.13836478 -0.26209551 -0.036878765
-0.31082988 -0.24482448 -0.029103696
0.15641202 -0.24429557 -0.035348892
-0.32909313 -0.22699623 -0.02701062
0.17451866 -0.2265047 -0.033395827
-0.34738913 -0.20913607 -0.024913669
0.1926557 -0.20868394 -0.031439364
-0.34568918 -0.19035892 -0.037182212
0.21092664 -0.19089694 -0.028445542
-0.36430028 -0.17268384 -0.03250581
-0.38320008 -0.15500166 -0.026421964
0.22826777 -0.15462816 -0.034507334
-0.38146445 -0.13655773 -0.037695408
0.24693175 -0.13691917 -0.028304517
-0.40043309 -0.11883369 -0.031228304
0.2643463 -0.10081929 -0.033021212
-0.41793197 -0.082844563 -0.034027696
0.28222734 -0.064896345 -0.033618152
-0.43579641 -0.046941806 -0.034518898
0.30017707 -0.028987477 -0.033653259
-0.4539386 -0.011030257 -0.033466101
0.31841573 0.0069660582 -0.031709015
-0.47283792 0.025032144 -0.028563082
-0.49018067 0.078837454 -0.031814456
-0.50851238 0.13287744 -0.030066609
-0.5263375 0.20472679 -0.030794322
-0.52464396 0.22179568 -0.038651228
0.39062315 0.24079648 -0.029843628
0.38943744 0.25790378 -0.03654027
-0.54514009 0.29514971 -0.027092934
-0.54357374 0.3120743 -0.034109652
0.40929335 0.34932756 -0.026127517
0.40839428 0.36647829 -0.03099364
0.40750113 0.38355991 -0.035827875
0.42653394 0.47451821 -0.030137241
-0.56221157 0.52821666 -0.031134486
0.37270713 0.528633 -0.029444337
0.53635889 -0.60630119 -0.022021472
0.51806402 -0.58800626 -0.023108482
0.50243592 -0.57237816 -0.012324691
0.50212216 -0.55395675 -0.013730228
0.51773971 -0.51558328 -0.024512827
-0.077252753 -0.42670721 -0.016797245
-0.059219941 -0.42724532 -0.013468385
-0.13166587 -0.40915951 -0.013313472
-0.11332776 -0.40825054 -0.019216835
-0.041046768 -0.40786609 -0.021714151
-0.02300055 -0.40875855 -0.015918374
-0.16796249 -0.39122638 -0.012098253
-0.14938718 -0.38999119 -0.020543039
-0.0049671549 -0.38957629 -0.023379982
0.01318185 -0.39067456 -0.015870869
-0.18575308 -0.37244681 -0.01685679
0.031164333 -0.37193102 -0.020578563
0.049474541 -0.37307972 -0.012288988
-0.2222899 -0.35493436 -0.012491584
-0.20347184 -0.3537429 -0.021595895
0.067412034 -0.35434455 -0.016999125
-0.24023445 -0.33658695 -0.014360964
0.085374594 -0.33594215 -0.019595921
-0.2581481 -0.31826589 -0.016251028
0.10333572 -0.31766239 -0.02147758
-0.2760317 -0.29997295 -0.018150032
0.12126879 -0.29941311 -0.023344517
0.14007832 -0.30062002 -0.012145877
0.15828265 -0.28260991 -0.011048794
-0.29403007 -0.28183398 -0.018802166
-0.3123515 -0.26395494 -0.016749859
0.15733159 -0.26334035 -0.023403585
-0.33071277 -0.24604967 -0.014634609
0.17553189 -0.24547417 -0.021430314
-0.34910709 -0.22811204 -0.012515366
0.1937618 -0.22757696 -0.019465685
0.21214819 -0.20973703 -0.016239226
-0.36614522 -0.19142377 -0.019891977
-0.38511014 -0.17368005 -0.014015913
0.22952171 -0.17320298 -0.02287215
0.24820565 -0.15542428 -0.017272055
-0.4022657 -0.13724302 -0.019891918
0.26571569 -0.11912082 -0.021903217
-0.41989124 -0.10106319 -0.022458732
0.28514814 -0.10132097 -0.011299312
-0.43991178 -0.083194897 -0.011275411
0.28368002 -0.083021834 -0.022517681
-0.43784389 -0.064978458 -0.022954822
0.30318859 -0.065063342 -0.011919439
-0.45794803 -0.046941765 -0.011764348
0.30163658 -0.046941806 -0.023120165
-0.45583257 -0.028907055 -0.023214638
0.32134858 -0.028818086 -0.011657238
0.3198638 -0.010850877 -0.021808565
-0.47485563 0.0072808526 -0.018078804
0.33893692 0.025445696 -0.015133977
-0.49227086 0.061351422 -0.021371245
-0.51228923 0.098032773 -0.011895597
-0.51038855 0.11552091 -0.021039963
-0.53024405 0.17044838 -0.012670279
-0.52828193 0.18765326 -0.02177316
0.3932865 0.20645028 -0.014801025
0.39186791 0.22362465 -0.022813201
-0.54830134 0.26099315 -0.01293236
-0.54671597 0.27812296 -0.020034075
0.41153538 0.31517142 -0.013992012
0.4103229 0.33221623 -0.020554781
-0.56595063 0.44171339 -0.014943719
-0.56504595 0.4589673 -0.018861294
0.42861727 0.53112912 -0.019311428
0.52183723 -0.60994077 -0.0067698359
0.50398892 -0.5921033 -0.0053680539
0.50303787 -0.53670162 -0.0096281767
0.50547582 -0.52074802 0.0012922287
0.52193129 -0.5010516 -0.0063627362
0.54099756 -0.48358539 -0.0025835037
-0.077583507 -0.44721684 -0.0024753213
-0.059438657 -0.44776091 0.00073778629
-0.13232934 -0.42959258 0.0010511875
-0.11387788 -0.42862654 -0.0049244165
-0.095519349 -0.42766547 -0.010869741
-0.041155268 -0.42819083 -0.0076197982
-0.02300055 -0.42914096 -0.0017420053
-0.16883095 -0.41151774 0.0020037889
-0.1501255 -0.41015586 -0.0068417192
-0.0048647858 -0.40965697 -0.010082126
0.013392717 -0.41087437 -0.0021749139
-0.18667287 -0.39247221 -0.0035803914
0.031465258 -0.39189193 -0.007547915
0.049878638 -0.39311793 0.00083428621
-0.22343361 -0.37492323 0.0010150671
-0.2044888 -0.37362066 -0.0083851814
0.06791465 -0.37423646 -0.0039405227
-0.24148013 -0.35645455 -0.00087589025
0.085981935 -0.35572547 -0.0064463615
-0.25949666 -0.33801386 -0.0027757287
0.1040425 -0.33732584 -0.0083613396
-0.27748293 -0.31960145 -0.0046845078
0.12207451 -0.31895754 -0.010261059
0.14099933 -0.32027486 0.0011475682
-0.29561728 -0.30138406 -0.0050563216
0.15931903 -0.30218917 0.0024139881
-0.31395727 -0.28334415 -0.0037123561
-0.33234957 -0.26530576 -0.0021268129
0.17655453 -0.26463816 -0.0093534589
-0.35084334 -0.24729007 1.4960766e-05
0.19488038 -0.24666595 -0.0073564053
0.21338376 -0.22877587 -0.0038925409
-0.36801019 -0.21036738 -0.0071409345
0.23217924 -0.21098599 0.0017866492
-0.38708317 -0.19257483 -0.001200676
0.2308435 -0.1919955 -0.010607302
0.24962868 -0.17416877 -0.004948318
-0.40417033 -0.1558474 -0.0081102252
0.26857561 -0.15628283 0.001316309
-0.4238728 -0.13804905 0.0010511279
0.26709667 -0.13759714 -0.010690749
-0.42187005 -0.11946347 -0.010774374
0.2866272 -0.11979525 2.9206276e-06
-0.44200677 -0.10159478 0.00055712461
0.30475387 -0.083358884 -0.00062304735
-0.46013319 -0.065155648 6.3121319e-05
0.32303816 -0.046941683 -0.00010544062
-0.47689152 -0.010630418 -0.0075000525
0.3404848 0.0075809918 -0.0050802827
-0.4965151 0.025906634 -0.0001655221
-0.49438462 0.043709036 -0.010810137
-0.51456463 0.080500811 -0.00094801188
-0.53222138 0.1531093 -0.0034963489
0.394806 0.18920968 -0.0062188506
-0.55160069 0.22647214 0.0018470287
-0.54989636 0.24375936 -0.0057874918
0.41398087 0.28079435 -0.00075542927
0.41275471 0.29803103 -0.0073922873
-0.56960833 0.37212422 0.0008944869
-0.56868863 0.38960883 -0.003088057
-0.56777197 0.40703443 -0.0070572495
-0.56685841 0.42440173 -0.011012971
-0.58666903 0.51672679 -0.0039644241
-0.55057412 0.5534007 -0.0027515888
0.41389418 0.55378848 -0.001224637
0.5071227 -0.61362517 0.008669436
0.4901008 -0.59669316 0.014506698
0.48881906 -0.57704055 0.0085602999
0.48873281 -0.55867505 0.0081599951
0.49000359 -0.54162431 0.014055908
-0.077918321 -0.467978 0.012022495
-0.059660032 -0.4685258 0.015116513
-0.13300097 -0.4502767 0.015592277
-0.11443473 -0.44925219 0.0095432401
-0.041265175 -0.44876346 0.0066573024
-0.02300055 -0.44977099 0.012606561
-0.095962584 -0.44823298 0.0035247207
-0.15091299 -0.43067908 0.0077720881
-0.0047551133 -0.43009597 0.004165113
0.013614856 -0.43140349 0.012253523
-0.18767634 -0.41288793 0.010903656
0.031789962 -0.41221178 0.0065119863
0.050323296 -0.41356093 0.015275002
-0.22462976 -0.39521039 0.01514101
-0.20552567 -0.39373949 0.0050840378
0.068432242 -0.39438635 0.009506762
-0.24274021 -0.37655121 0.012764692
0.08659558 -0.37573013 0.0068390369
-0.26086071 -0.3579897 0.010855138
0.10475723 -0.35721073 0.0049025416
0.12371479 -0.35871181 0.016373456
-0.27894956 -0.33945495 0.0089242458
0.12289004 -0.33872291 0.0029813647
0.14194009 -0.34016955 0.014726222
-0.29722321 -0.32116437 0.0088513494
0.16036543 -0.32199073 0.016007304
-0.31567222 -0.30302948 0.010211051
-0.33414233 -0.28487369 0.011572361
0.17765424 -0.28407925 0.0036334395
-0.35264713 -0.2667062 0.013032615
0.19600947 -0.26595175 0.004866302
0.21463118 -0.24801475 0.0085725188
-0.36989731 -0.22951899 0.0057614446
0.23352908 -0.23017724 0.01431179
-0.38907966 -0.21167737 0.011766911
0.25106671 -0.19311091 0.0075052977
-0.40625241 -0.17469236 0.0047695041
0.27015519 -0.17519741 0.014141202
-0.42609999 -0.15687795 0.014202118
0.28813171 -0.13845125 0.011499465
-0.44412076 -0.12018006 0.012497008
0.30633423 -0.10183088 0.010782123
-0.46233821 -0.083553255 0.011998117
0.32474616 -0.065244205 0.011572361
-0.48148128 -0.046941765 0.016349077
-0.47909462 -0.028697949 0.003947556
0.34380096 -0.028601713 0.016458988
0.34204412 -0.010437287 0.0050475597
-0.49866495 0.0079425611 0.010575712
-0.51685876 0.062804475 0.010089695
-0.53622276 0.11802258 0.015067756
-0.53421426 0.13563457 0.0057492852
-0.55367684 0.20924687 0.011146843
0.41645402 0.24602792 0.01263082
0.41521394 0.26346016 0.0059188008
-0.57209677 0.33742559 0.011669636
-0.57060099 0.35463196 0.0051928759
0.43554366 0.41160247 0.016678691
0.43484196 0.42921436 0.013032615
0.43445095 0.44710588 0.01100111
0.43431297 0.46524927 0.010284007
-0.59022588 0.53858125 0.010940254
-0.57053679 0.5553481 0.0049145818
0.39671087 0.55525285 0.004539907
0.43518668 0.55786532 0.014823794
0.52892166 -0.63565868 0.023906529
0.54580128 -0.63409203 0.017546356
0.49275798 -0.6179601 0.026834548
0.47497633 -0.58180577 0.029905617
0.49306345 -0.52614403 0.028251946
0.51051331 -0.50686747 0.023857534
-0.078257263 -0.48899543 0.026699007
-0.059884306 -0.48954681 0.029683292
-0.13368091 -0.47121638 0.030313194
-0.11499846 -0.47013217 0.024189293
-0.096411273 -0.46905336 0.018096328
-0.041376416 -0.46958667 0.021108329
-0.02300055 -0.47065076 0.027118027
-0.15170962 -0.45145598 0.022555768
-0.0046441033 -0.45078358 0.018585622
0.013839535 -0.45218268 0.026846945
-0.18870501 -0.43358549 0.025751173
-0.16973844 -0.43212879 0.016739905
0.032125916 -0.432827 0.021059096
0.050774563 -0.43426108 0.029930294
-0.22591557 -0.41587821 0.030325592
-0.20666397 -0.41426855 0.019870698
0.068993583 -0.41491827 0.024090827
-0.24409682 -0.39701089 0.02745074
0.08724615 -0.39605629 0.020924389
-0.2622394 -0.37819555 0.024631798
0.10548073 -0.37732223 0.018328846
0.12455805 -0.37894857 0.030066192
-0.28043321 -0.35953856 0.022690713
0.14289084 -0.3602922 0.028449357
-0.29884961 -0.34118071 0.022936165
0.16142297 -0.34201944 0.029745042
-0.31740749 -0.32294828 0.02429992
-0.33598819 -0.30469629 0.025677264
0.17880856 -0.30378968 0.017265201
-0.35466886 -0.28648001 0.027623236
0.19726889 -0.28556696 0.01850003
0.21594952 -0.26751107 0.02174598
-0.37180522 -0.2488813 0.018805742
0.23489331 -0.24957269 0.026970088
-0.39109817 -0.23099059 0.024877846
0.25251859 -0.21225327 0.020078957
-0.40836135 -0.19374587 0.017815173
0.271752 -0.19431809 0.027105629
-0.42840424 -0.17593391 0.02780813
0.28982455 -0.15735061 0.024434984
-0.44636294 -0.13897713 0.025160611
0.3079299 -0.12048188 0.022297919
-0.46456781 -0.10213767 0.024066269
0.32646933 -0.083728008 0.023353636
-0.48389545 -0.065377593 0.028893411
0.34562421 -0.046941806 0.028301299
-0.50089824 -0.010180376 0.021733701
0.36306316 0.0082102083 0.022162974
-0.51917696 0.044942785 0.021243036
-0.53859186 0.10037002 0.026058733
-0.55787838 0.17438699 0.029967368
-0.55576932 0.19188562 0.020520031
0.41951555 0.21119267 0.029201925
0.41791832 0.2286326 0.020556748
-0.57511294 0.30272949 0.024730146
-0.57360077 0.3201251 0.018182099
0.43793473 0.35868123 0.02910322
0.43695357 0.37621593 0.024004877
0.43624988 0.39393857 0.020348608
-0.5184086 0.54020846 0.017546177
-0.53714454 0.55901372 0.019344389
0.51330096 -0.63872278 0.036344588
0.47586599 -0.60123789 0.034186184
0.47537965 -0.56378043 0.031845987
0.47696838 -0.54691064 0.039489806
-0.078617409 -0.51041555 0.042293966
-0.11556917 -0.4912712 0.039016783
-0.04148902 -0.49066505 0.035736263
-0.02300055 -0.49178907 0.04181999
-0.096865132 -0.49012926 0.032835901
-0.15251689 -0.47249547 0.037537038
-0.0045318305 -0.47172228 0.033170402
0.01406718 -0.47322062 0.041632831
-0.1897466 -0.4545432 0.040785134
-0.1706558 -0.45299366 0.031635702
0.032465726 -0.45369446 0.035773575
-0.20781557 -0.43505326 0.034830749
0.069561854 -0.43570393 0.038855255
-0.24551296 -0.41779575 0.042780697
0.087934867 -0.41672644 0.035835564
-0.26376617 -0.39883 0.039888203
0.10626847 -0.39781487 0.032947481
-0.28197566 -0.37990975 0.037002742
0.14389585 -0.38073465 0.042955577
-0.30049393 -0.36143431 0.037176669
0.16249374 -0.36228207 0.043654859
-0.31916502 -0.34310624 0.038569033
-0.33785769 -0.32475689 0.039962947
0.17997517 -0.32372689 0.031042278
-0.35671553 -0.30649784 0.042393863
0.19854289 -0.30540907 0.032291472
0.21736822 -0.28731057 0.035922468
0.23640905 -0.2692928 0.0410344
-0.37388086 -0.26855034 0.032996833
-0.39318123 -0.25054109 0.038407385
-0.41264561 -0.23248702 0.044316947
0.25398734 -0.23160033 0.032798827
0.2733663 -0.21364807 0.040211976
-0.41049165 -0.21300936 0.030992806
-0.43073708 -0.19520956 0.041583002
0.29153588 -0.17645678 0.037512243
-0.44879422 -0.15801835 0.038892567
0.30966648 -0.13934922 0.03483063
-0.46681792 -0.12091137 0.036245286
0.32820967 -0.10239603 0.035252512
-0.48633036 -0.084008083 0.04154557
0.34746566 -0.065465033 0.040261924
-0.50341785 -0.028464196 0.03432256
0.36485457 -0.010003142 0.03324455
-0.52387667 0.0087111555 0.043854773
-0.52151704 0.026912574 0.032501757
-0.54102838 0.082565233 0.037362993
-0.56000417 0.15674928 0.039489806
0.42112207 0.19362469 0.037897646
-0.57816243 0.26764995 0.03793484
-0.57663351 0.28523809 0.031314313
0.44022372 0.32363763 0.040997088
0.43907517 0.34120184 0.035029352
0.4589099 0.54617876 0.041782439
0.47852039 -0.62276202 0.046956956
0.46125779 -0.60570127 0.053513348
0.46025664 -0.58595932 0.048511207
0.46053794 -0.56767541 0.049916804
0.46198988 -0.55058563 0.057171047
0.47995639 -0.53127062 0.053865969
-0.11619264 -0.5129022 0.055214703
-0.097354755 -0.51165557 0.048737109
-0.060123846 -0.51098299 0.04524225
-0.041611046 -0.51220423 0.051587999
-0.02300055 -0.51343429 0.057979643
-0.15335134 -0.4938587 0.053022087
-0.13437101 -0.49242368 0.045254767
-0.0044170171 -0.49294659 0.048084915
0.014304657 -0.4946042 0.057057202
-0.19080049 -0.4757638 0.055996716
-0.17158547 -0.47412348 0.046731651
0.032809757 -0.47482073 0.050670445
-0.20898268 -0.45610246 0.049992144
0.051231418 -0.45521754 0.044766963
0.070140108 -0.45676076 0.053878486
-0.22721894 -0.43681324 0.045717657
0.088632256 -0.43765661 0.050934255
-0.26531637 -0.41973531 0.055378497
0.10707945 -0.41859886 0.047997057
-0.28364107 -0.4006682 0.052455962
0.12548339 -0.39959118 0.045092285
-0.30227277 -0.38206846 0.052581608
-0.32095447 -0.36351785 0.053097785
-0.33974802 -0.34505701 0.054407656
0.1811543 -0.34389424 0.044966996
-0.35878763 -0.32676437 0.057347834
0.19983286 -0.32548356 0.046255887
0.21880263 -0.30734518 0.050255835
-0.37604916 -0.28850129 0.047821581
0.23796038 -0.28926265 0.055429041
-0.39547202 -0.27042463 0.053286493
0.25553402 -0.25120044 0.046193182
0.27499992 -0.23319201 0.05347544
-0.43309057 -0.21470588 0.055479586
0.29326937 -0.19577461 0.050758421
-0.45125139 -0.17727897 0.052770436
0.31149608 -0.1584406 0.048034728
-0.46946907 -0.13995603 0.050594985
0.33003157 -0.12126422 0.047708809
-0.48879111 -0.10283665 0.054332197
0.34932369 -0.084174216 0.052329957
-0.50596166 -0.046941847 0.047032297
0.36875719 -0.046941765 0.057385743
0.36679614 -0.028380016 0.045254886
-0.52667856 -0.009632282 0.057335198
0.38739735 0.0090215728 0.057297528
-0.5434854 0.064590722 0.048762143
-0.56214416 0.13896982 0.049075782
0.42274264 0.17592987 0.046669066
-0.58219093 0.23265335 0.055378616
-0.57995689 0.25010166 0.045705259
0.44253552 0.28824422 0.05300957
0.44137555 0.30598408 0.04698211
-0.59884185 0.56605053 0.047044814
-0.58172232 0.58627635 0.053349674
-0.56259555 0.58568686 0.051097691
0.42299727 0.58488858 0.048047364
0.44335341 0.58729959 0.057259381
0.500462 -0.6451847 0.06257683
0.46411785 -0.62773675 0.067803204
0.44530654 -0.59017789 0.067408025
0.44547328 -0.57163239 0.068274677
-0.11683242 -0.53486747 0.071836531
-0.097863451 -0.53355062 0.065257013
-0.078996882 -0.53224331 0.058725655
-0.060374331 -0.53280085 0.061511457
-0.04173705 -0.5340907 0.06795603
0.46479467 -0.53473693 0.071184695
-0.15425777 -0.51571751 0.069843709
-0.13513185 -0.51415545 0.061727107
-0.0042913817 -0.51467097 0.064405501
0.50038821 -0.51425314 0.062234342
-0.17256832 -0.49564508 0.062691271
0.033176299 -0.49635652 0.066542208
-0.2101627 -0.47741467 0.06532079
0.05169357 -0.47643292 0.059776008
0.070732996 -0.4781161 0.069282115
-0.22853811 -0.4580169 0.061296046
0.089338452 -0.45885143 0.066223919
-0.26688665 -0.44091165 0.071069658
-0.24694853 -0.43885067 0.058321059
0.10790133 -0.43964744 0.063249528
-0.28533077 -0.42169926 0.068134487
0.12641966 -0.42049226 0.060295045
-0.30413342 -0.40304336 0.068695366
0.14497006 -0.40154639 0.058460176
-0.3229416 -0.38437548 0.069231212
0.16366851 -0.3829461 0.058915555
-0.34175637 -0.36569759 0.069754303
0.18237399 -0.36433876 0.059371054
0.2011368 -0.34579155 0.060371101
0.22025551 -0.32762179 0.064774096
-0.37824443 -0.30870041 0.062830746
0.2395304 -0.30947271 0.069996893
-0.39779335 -0.29055703 0.068363845
0.25720185 -0.27110368 0.060637176
-0.41507921 -0.25231621 0.059370935
0.27683371 -0.25307783 0.068363845
-0.43555999 -0.23446879 0.070060909
0.29502207 -0.2153067 0.064151227
-0.45373479 -0.19676235 0.066796839
0.31334943 -0.17774457 0.061410248
-0.47218966 -0.15923905 0.06532079
0.33205965 -0.14037861 0.061574996
-0.49153569 -0.1219074 0.068593442
0.35120043 -0.10307185 0.064519823
-0.50853008 -0.06561593 0.059864581
0.37073809 -0.065691233 0.069639623
-0.52951723 -0.028181892 0.070993006
0.38954595 -0.0094375014 0.069984019
-0.54847276 0.028125677 0.071900547
-0.54596853 0.046445411 0.060282409
-0.56478459 0.12119815 0.060903251
-0.58444583 0.21506608 0.065142572
0.44527709 0.25275594 0.067255199
0.44369888 0.27041385 0.059054554
0.46381453 0.57093894 0.066287577
0.40776527 0.58984262 0.066975057
-0.54830742 0.59093094 0.071133554
0.44641232 -0.61023724 0.073154271
-0.098379135 -0.55574721 0.082004845
-0.079381272 -0.55436832 0.075370491
-0.060628217 -0.55491531 0.078001916
-0.041864671 -0.55627304 0.084534347
0.44678703 -0.55431229 0.075101078
-0.13590373 -0.53618896 0.078438938
-0.02300055 -0.53538746 0.074434698
-0.0041641351 -0.53668845 0.08093518
0.033561692 -0.51829386 0.083230317
-0.17361258 -0.51760435 0.079647839
0.014559578 -0.51644337 0.073615134
0.4851867 -0.5174855 0.079030335
-0.21146588 -0.49925855 0.08224982
-0.19193955 -0.49744573 0.072437584
0.052196268 -0.49812263 0.076101482
-0.22990811 -0.47956663 0.077475131
0.090079248 -0.48041427 0.082262695
-0.24840391 -0.46018127 0.074076116
0.10873368 -0.46096367 0.078696072
-0.28708848 -0.44307372 0.084443986
0.1273686 -0.44166079 0.075703919
-0.30601755 -0.42429778 0.085012496
0.14605817 -0.42262775 0.074165642
-0.32495382 -0.4055112 0.085568249
0.16487698 -0.40390903 0.074614108
0.18370382 -0.38518527 0.075075567
0.20253895 -0.36645606 0.07555002
-0.36088383 -0.3472825 0.072476089
0.2217427 -0.34816426 0.079634964
-0.38046899 -0.32915366 0.078040421
0.2411208 -0.32992896 0.08475405
-0.40014377 -0.31094199 0.083630264
0.25889125 -0.29124793 0.075267851
-0.41764078 -0.27245051 0.075216591
0.27871084 -0.27322531 0.083604634
0.29690191 -0.23511967 0.078515947
-0.45624718 -0.21647313 0.080986917
0.31522167 -0.19726276 0.074921906
-0.47494364 -0.17875844 0.080226958
0.33411118 -0.15971386 0.07560128
-0.49441215 -0.14122412 0.083540022
0.35335922 -0.12221372 0.078541696
-0.51112849 -0.084490001 0.072847068
0.37279961 -0.084637046 0.082391798
-0.53238821 -0.046941765 0.084805548
0.39171931 -0.028090902 0.082817376
-0.55141318 0.0096738264 0.0855425
-0.57025617 0.085154429 0.085413277
-0.56750524 0.1032664 0.073090136
-0.58900768 0.17946106 0.084896147
-0.58671904 0.19733633 0.074985921
0.44861737 0.21716428 0.084611833
0.44694006 0.23502257 0.075896204
-0.53202051 0.57519364 0.083036721
0.39060587 0.57346791 0.076242745
0.44971395 -0.63310766 0.090309799
0.43134797 -0.6148774 0.093246758
0.43012053 -0.59446305 0.086603105
-0.098901585 -0.57824898 0.098971903
-0.079771288 -0.57680202 0.092258394
-0.060885575 -0.57733208 0.094717801
0.43018031 -0.57565272 0.086926639
-0.13668571 -0.55852497 0.095369279
-0.11748004 -0.55713105 0.088662446
-0.02300055 -0.55763793 0.091101706
-0.0040350463 -0.55901033 0.09770447
0.43135759 -0.55809456 0.093298733
-0.17467153 -0.53987247 0.096842945
-0.15517691 -0.53788251 0.086900771
0.014818408 -0.53858817 0.090426624
0.44941437 -0.53825325 0.088753164
-0.21279341 -0.52142388 0.099494755
-0.19312383 -0.51950645 0.089531243
0.052714188 -0.52015889 0.092921555
0.46974474 -0.52073526 0.095916688
-0.23139466 -0.50161982 0.095030487
0.071387723 -0.50000542 0.086292565
0.090873957 -0.5024398 0.099468648
-0.24995987 -0.48194709 0.090919912
0.10963285 -0.48273724 0.095382392
0.12833045 -0.46310204 0.091322482
-0.26847869 -0.46236628 0.086978376
0.14715958 -0.44398203 0.090063155
0.16610223 -0.42514729 0.090530455
0.18505098 -0.4063035 0.090984762
-0.34389529 -0.38671267 0.086098492
0.20401876 -0.38747075 0.091569483
-0.3632291 -0.36826876 0.089401424
0.22339298 -0.36914867 0.096125543
-0.38283396 -0.34995937 0.09420985
-0.40252385 -0.33158427 0.099089444
0.26059967 -0.31163535 0.090063155
-0.42023811 -0.2928507 0.091283619
0.28061327 -0.29362798 0.099050343
0.29891142 -0.25523776 0.093871415
-0.43826735 -0.25457513 0.086046875
-0.45907769 -0.23654053 0.096973479
0.3171382 -0.21701111 0.088753164
-0.47773159 -0.1985188 0.095317185
0.33618653 -0.17927383 0.089790642
-0.49732417 -0.16077942 0.098671138
0.3555471 -0.14157866 0.092752397
-0.51393354 -0.10358787 0.086861908
0.37513787 -0.10381864 0.096856058
-0.53528905 -0.065915368 0.098762691
0.39391571 -0.046941765 0.095786512
-0.55442333 -0.0089830011 0.099507987
-0.57303512 0.066858485 0.097861111
-0.59144443 0.1614877 0.095447719
0.45030922 0.19917931 0.093402922
-0.6109218 0.37029269 0.09766537
-0.60974008 0.38838106 0.092713296
-0.60856616 0.40639943 0.087794244
-0.60829121 0.4250668 0.086641848
-0.60963768 0.4450765 0.092284262
-0.53449172 0.59715825 0.094926298
0.39296183 0.59590918 0.090153992
0.43504357 -0.63858211 0.11324984
-0.080191702 -0.59978962 0.11046273
-0.061164785 -0.60032314 0.11285311
0.41473967 -0.59887505 0.10636622
-0.13749325 -0.58124107 0.11285299
-0.11813921 -0.57971817 0.10578781
-0.041994039 -0.57875943 0.10134
-0.02300055 -0.58022577 0.10814291
0.41469777 -0.57979184 0.10612959
-0.15610901 -0.56036001 0.1041984
0.015080627 -0.5610376 0.10745817
0.41576651 -0.56201607 0.11216587
-0.19432484 -0.54187852 0.10686606
0.033952713 -0.5405367 0.10016197
0.053239692 -0.5425033 0.10998791
0.43381071 -0.54182065 0.10657674
-0.23290385 -0.52399462 0.11285299
0.072051153 -0.52220029 0.10352904
0.45408803 -0.52403027 0.11303812
-0.25159952 -0.50413972 0.10866982
0.11057 -0.50489795 0.11277384
-0.27023482 -0.48435619 0.1045267
0.12939714 -0.48508513 0.10864323
-0.28891504 -0.46480751 0.10139245
0.14832008 -0.46572551 0.10681349
-0.30792558 -0.44583678 0.10153645
0.16734253 -0.44666225 0.10664266
-0.3269932 -0.42693263 0.10212606
0.18641582 -0.42769888 0.10710293
-0.34606308 -0.4080117 0.10266358
0.20555462 -0.40882075 0.1081956
-0.36562538 -0.3895666 0.10669523
0.22506434 -0.39041618 0.11282665
-0.38537139 -0.37116832 0.11155826
0.24283634 -0.35075533 0.1006723
0.26235014 -0.33229244 0.10522276
-0.42286992 -0.3135213 0.10756356
-0.44101262 -0.27494839 0.10225707
0.30094802 -0.27561137 0.10943407
-0.46197355 -0.25688532 0.11332911
0.31928563 -0.23710079 0.10425097
-0.48079804 -0.21861579 0.11191493
0.3382881 -0.19906329 0.10415906
0.3577626 -0.16117066 0.10714239
-0.51697028 -0.12293711 0.10203439
0.37761071 -0.12324865 0.11215264
0.39613554 -0.065993436 0.10889369
-0.55746514 -0.02785364 0.1136201
0.41538787 -0.0088209994 0.11002749
-0.57587487 0.04838137 0.11058146
-0.59461665 0.14359699 0.10918373
0.45201319 0.18106492 0.10225707
-0.61449885 0.31558943 0.11265498
-0.61330277 0.33389848 0.10764247
-0.61210829 0.35213119 0.10263723
-0.61401671 0.46781436 0.11063427
0.41389379 0.61789745 0.1015889
-0.55516857 0.61826825 0.1029653
0.39674112 0.62082911 0.11246985
0.41618097 -0.61978716 0.11450666
-0.11886768 -0.60297108 0.12471443
-0.099474207 -0.60137576 0.11756819
-0.042136449 -0.60188282 0.11983925
-0.02300055 -0.60345113 0.12686485
0.39900026 -0.60321552 0.12580925
-0.15709239 -0.58330911 0.12244767
-0.0039000977 -0.58175433 0.11523491
0.015359458 -0.58398181 0.12556869
0.39854378 -0.5834527 0.12311381
-0.1955429 -0.56456876 0.12444752
-0.17574547 -0.56245577 0.11428159
0.034349483 -0.56309205 0.11734253
0.05377255 -0.56516021 0.12729281
0.39910659 -0.56498235 0.12643725
-0.21414487 -0.54391694 0.11705071
0.072724491 -0.54471201 0.121023
0.41759634 -0.54500782 0.12250096
-0.25326425 -0.52665788 0.12669116
0.091678679 -0.52477181 0.11689156
-0.27203089 -0.50669008 0.12247437
0.1304798 -0.50738275 0.12622339
-0.2909117 -0.48708156 0.11991912
0.1495686 -0.48795184 0.1248346
-0.30999756 -0.46787074 0.11948043
0.1687029 -0.46868932 0.12431413
0.1878292 -0.44943491 0.12379378
-0.32907832 -0.44866884 0.11905533
-0.3482621 -0.42960241 0.11946708
0.20711261 -0.4304637 0.12506145
-0.36805379 -0.4111647 0.12422067
0.24464439 -0.37193921 0.11744875
-0.40519527 -0.35269752 0.11644071
0.26429451 -0.3533898 0.12206143
-0.42571801 -0.33459711 0.12518162
0.28253821 -0.31428814 0.1146788
-0.44379449 -0.29559278 0.11868328
0.30301058 -0.29624438 0.12519497
0.32145852 -0.25744456 0.11993247
0.3406496 -0.21919703 0.12030476
-0.50027496 -0.18057859 0.11400384
0.36000624 -0.18099411 0.12171513
-0.52016962 -0.14255117 0.11801928
-0.53842664 -0.085121483 0.11385828
0.39861152 -0.085270107 0.12351388
0.41787484 -0.027773341 0.12407404
-0.5793429 0.029795136 0.12611645
-0.59782451 0.12550548 0.12307388
-0.61607379 0.29742339 0.11925453
0.47527626 0.35551265 0.12355381
0.47442642 0.37395802 0.1193077
0.47442374 0.39308742 0.11929435
0.4751642 0.41290259 0.12299401
0.47587743 0.43274862 0.12655753
-0.52017498 0.58408731 0.11804587
0.37793133 0.58309412 0.11413616
-0.52064031 0.603818 0.12037128
0.37847543 0.60306692 0.1175018
-0.5386219 0.62145644 0.11479789
-0.10006216 -0.62490386 0.13666278
-0.080629528 -0.62323153 0.12942117
-0.061453514 -0.62373614 0.13160652
-0.042281836 -0.62538034 0.13872606
0.40107584 -0.62522769 0.1380648
-0.13837247 -0.60457259 0.13188845
-0.0037535895 -0.60510355 0.13426667
-0.17690504 -0.58560741 0.13311046
0.034780111 -0.58622789 0.13598925
0.38207018 -0.58703613 0.13973862
-0.21556751 -0.56687254 0.13553137
0.073426157 -0.56764591 0.13925248
0.3822515 -0.56798011 0.14086026
-0.23443392 -0.54669333 0.13092238
0.092495501 -0.54742455 0.1345759
0.4005191 -0.54746497 0.13477772
-0.27385327 -0.52935082 0.14068455
0.11151977 -0.52737141 0.13039941
0.42039979 -0.52889866 0.13833469
0.43819219 -0.5273509 0.13029212
-0.2929371 -0.50969011 0.13871247
-0.31216532 -0.49032769 0.13825375
-0.33138978 -0.47097698 0.13782209
-0.35069591 -0.45174196 0.13806492
0.22675851 -0.41197428 0.12975603
0.24647717 -0.3934131 0.13445491
-0.38794488 -0.3926785 0.12915331
-0.40791488 -0.37411901 0.13410527
0.26635286 -0.37487563 0.13988739
0.28465626 -0.33537003 0.1318751
-0.44668207 -0.31655732 0.13573343
-0.46490809 -0.27750227 0.1299035
0.32374874 -0.27810791 0.1364606
-0.48406202 -0.23905066 0.12958187
0.3430993 -0.23962587 0.13705355
