ply
format ascii 1.0
comment PCL generated
element vertex 1323
property float x
property float y
property float z
element camera 0
property float view_px
property float view_py
property float view_pz
property float x_axisx
property float x_axisy
property float x_axisz
property float y_axisx
property float y_axisy
property float y_axisz
property float z_axisx
property float z_axisy
property float z_axisz
property float focal
property float scalex
property float scaley
property float centerx
property float centery
property int viewportx
property int viewporty
property float k1
property float k2
end_header
-0.03284958 -0.36863235 -0.12396479
-0.010671226 -0.36842883 -0.12572718
0.011510387 -0.36868122 -0.12354136
0.033725925 -0.36893559 -0.12133813
-0.21096793 -0.34752965 -0.11398351
-0.055199549 -0.34765521 -0.11281812
-0.032884717 -0.34694585 -0.11940026
-0.010671226 -0.34675217 -0.12119675
0.011545315 -0.34698853 -0.11900401
0.033795886 -0.3472268 -0.11679375
0.056080237 -0.34746382 -0.11459422
0.078398988 -0.34770271 -0.11237717
-0.21096793 -0.32527444 -0.11398339
-0.032919966 -0.32519051 -0.11482155
-0.010671226 -0.32500744 -0.11665177
0.011580355 -0.32522753 -0.11445224
0.033866078 -0.32544944 -0.11223507
-0.21096793 -0.3030192 -0.11398363
-0.010671226 -0.3031939 -0.11209273
-0.21096793 -0.28076407 -0.11398351
-0.21097188 0.29787743 -0.11392653
-0.21097089 0.32013124 -0.11394083
-0.2109699 0.34238499 -0.11395514
-0.21096893 0.36463854 -0.11396945
-0.21096793 0.38689172 -0.11398339
-0.23294351 0.40858769 -0.11761582
-0.21096694 0.40914476 -0.1139977
-0.32368979 -0.63963562 -0.10056722
-0.30033886 -0.63757437 -0.11048436
0.32409266 -0.63853198 -0.10587728
0.34745324 -0.64029205 -0.09740901
-0.32433864 -0.61848211 -0.094546795
-0.30093727 -0.61648899 -0.10450506
0.30139831 -0.6155147 -0.10937321
0.32466608 -0.61720836 -0.10091126
-0.30153811 -0.59531629 -0.098500967
-0.27824631 -0.59340507 -0.10843217
0.30193219 -0.59417737 -0.10441935
0.32524148 -0.59581137 -0.095928192
-0.27879944 -0.57221347 -0.10244441
0.27925459 -0.5712046 -0.10790455
0.30246791 -0.5727669 -0.099448204
-0.27935487 -0.5509339 -0.096431613
-0.25612238 -0.54917306 -0.10637701
0.25663012 -0.54828447 -0.1113956
0.27975085 -0.54978067 -0.10294557
-0.25663015 -0.52787483 -0.10038078
0.28024882 -0.5282833 -0.097969532
-0.23350674 -0.52619505 -0.11029935
0.25708711 -0.52684718 -0.10644853
-0.2339671 -0.50487834 -0.1043191
0.234478 -0.50396919 -0.10994315
0.25754565 -0.50533652 -0.10148466
-0.23442936 -0.48347318 -0.098314285
-0.21136539 -0.48194399 -0.1082468
0.23489733 -0.48244521 -0.10499108
0.2580058 -0.48375198 -0.096503496
-0.21178028 -0.46052057 -0.10225821
-0.18886599 -0.45916951 -0.11149514
0.21230471 -0.45961127 -0.10847497
0.23531809 -0.46084762 -0.1000222
-0.21219693 -0.43900844 -0.096244693
-0.1891935 -0.43763211 -0.10617709
-0.16668756 -0.43714181 -0.10971522
0.18976535 -0.43683007 -0.11196494
0.2126863 -0.43800053 -0.10351813
0.23574029 -0.43917578 -0.095036387
-0.18956196 -0.41609976 -0.10019433
-0.16697448 -0.41555056 -0.10439062
-0.14448182 -0.41508698 -0.10793304
-0.12204459 -0.41462636 -0.11145258
0.19010794 -0.41520649 -0.10701966
0.21306922 -0.41631567 -0.098544002
-0.16726169 -0.39387804 -0.099060893
-0.14472806 -0.39344177 -0.10260189
-0.12224874 -0.39300492 -0.10614872
-0.099824734 -0.392571 -0.10967243
0.16758491 -0.39246932 -0.11049855
0.19045171 -0.39350891 -0.10205758
-0.14497454 -0.37171522 -0.097265601
-0.12245364 -0.37130412 -0.10082519
-0.099988252 -0.3708958 -0.10436189
-0.077545904 -0.37033033 -0.10925925
0.14531286 -0.37020862 -0.11031353
0.16788974 -0.3707588 -0.1055485
0.19079669 -0.37173688 -0.097078562
-0.12265984 -0.34952506 -0.095467925
-0.10015237 -0.349141 -0.099032044
-0.077645786 -0.34850493 -0.10493398
0.10075146 -0.34794053 -0.11017108
0.12313873 -0.34818009 -0.10794735
0.14555962 -0.34841865 -0.10573435
0.16819476 -0.34897247 -0.10059595
-0.077746302 -0.3266156 -0.10058153
-0.055265978 -0.3258228 -0.10850346
0.05618567 -0.32567018 -0.11002862
0.078539789 -0.32589287 -0.10780454
0.10092773 -0.32611433 -0.10559154
0.12335056 -0.32633752 -0.10336053
0.14580715 -0.32655963 -0.10114062
0.16850169 -0.32711285 -0.095611811
-0.077846795 -0.30465922 -0.096230388
-0.055332825 -0.3039265 -0.10416174
-0.032955434 -0.30336744 -0.11021388
0.011615505 -0.30339774 -0.10988617
0.033936478 -0.30360317 -0.10766196
0.056291446 -0.30380765 -0.10544848
0.078681044 -0.30401379 -0.10321736
0.10110456 -0.30421877 -0.10099745
0.1235631 -0.30442569 -0.098759294
0.14605547 -0.30463138 -0.096532345
-0.23391096 -0.28152066 -0.1050483
-0.055399872 -0.28196448 -0.099807024
-0.03299091 -0.28147349 -0.1056056
0.011650765 -0.28149888 -0.10530579
0.03400711 -0.28168786 -0.10307431
0.056397557 -0.28187579 -0.10085404
0.078822739 -0.28206533 -0.098615766
0.10128196 -0.28225395 -0.096388698
-0.010671226 -0.28131148 -0.10751915
-0.055466898 -0.25993532 -0.095453382
-0.033026494 -0.25950968 -0.1009829
-0.010671226 -0.2593596 -0.10293126
0.011686139 -0.25953063 -0.10071063
0.034077965 -0.25970304 -0.098472118
0.056504004 -0.2598744 -0.096244693
-0.033062305 -0.23747659 -0.09633112
-0.010671226 -0.23733826 -0.09832859
0.011721624 -0.23749268 -0.096100926
-0.37087321 -0.64379781 -0.080541968
-0.34719962 -0.64170802 -0.090596199
0.37188172 -0.64354104 -0.081777215
-0.34789959 -0.62048608 -0.084534287
0.34806848 -0.61890894 -0.09241426
-0.34860247 -0.59917563 -0.078446984
-0.3249886 -0.597238 -0.088515639
0.34877673 -0.59759438 -0.086663842
-0.32564282 -0.5759083 -0.082445025
-0.30214 -0.57405311 -0.092486382
0.32581884 -0.57434094 -0.090928316
0.34951821 -0.5762412 -0.080643654
-0.30274588 -0.55270439 -0.086432219
0.30300549 -0.55128294 -0.094460368
0.32639816 -0.55279672 -0.085910916
-0.30335423 -0.53126669 -0.080352902
-0.27991125 -0.52956378 -0.090408564
0.30354491 -0.52972519 -0.089455247
0.32697952 -0.531178 -0.080876231
-0.28047132 -0.50810707 -0.084345818
-0.25714004 -0.50648832 -0.094359636
0.28074852 -0.50671196 -0.092976451
0.30408618 -0.508093 -0.084432721
-0.28103369 -0.48656109 -0.078257918
-0.25765079 -0.48501074 -0.088327646
0.28124845 -0.48506421 -0.087980628
0.3046293 -0.4863863 -0.079393029
-0.25816491 -0.46344602 -0.082256436
-0.23489355 -0.46197936 -0.092284322
0.2584675 -0.46209323 -0.091505527
0.28175157 -0.46334416 -0.082953215
-0.23535851 -0.44039407 -0.086243987
0.25893077 -0.44035998 -0.086490035
0.28225642 -0.44154909 -0.077908278
-0.23582655 -0.41872099 -0.080163956
-0.21261527 -0.41740683 -0.090206504
0.23616396 -0.41742954 -0.090032816
0.25939569 -0.41855177 -0.081457496
-0.18993281 -0.39448005 -0.094172359
0.21345343 -0.39455634 -0.093552947
0.23658906 -0.39560825 -0.085012794
-0.1903052 -0.37277067 -0.08812511
-0.16754995 -0.37212563 -0.093711376
0.21383896 -0.37272227 -0.088544607
0.23701565 -0.37371176 -0.07997489
-0.19067827 -0.35096928 -0.08206749
-0.16783927 -0.35029307 -0.088342071
-0.14522193 -0.34990862 -0.091909409
0.19114283 -0.34988993 -0.0920825
0.21422473 -0.3508113 -0.083533645
-0.16812967 -0.32837969 -0.082953215
-0.14547022 -0.3280215 -0.086533666
-0.12286625 -0.32766405 -0.090105057
-0.10031754 -0.32730746 -0.093668222
0.19149017 -0.32796791 -0.087069035
0.2146129 -0.32882631 -0.078490853
-0.16842113 -0.3063854 -0.077544093
-0.14571944 -0.30605331 -0.081137776
-0.12307343 -0.30572224 -0.084722638
-0.10048287 -0.30539191 -0.088298678
0.1688097 -0.30517837 -0.090610623
0.1918387 -0.30597019 -0.082038403
-0.28052625 -0.28332409 -0.083751202
-0.25713271 -0.28241843 -0.094445944
-0.1907409 -0.2835528 -0.081050515
-0.12328137 -0.28369927 -0.079320312
-0.10061978 -0.28331545 -0.083852768
-0.077947915 -0.28263804 -0.09185183
0.12377627 -0.28244409 -0.09414351
0.14630459 -0.28263324 -0.091909409
0.16911875 -0.28316814 -0.08559227
-0.1907409 -0.26104406 -0.081050634
-0.10075575 -0.2611683 -0.07943666
-0.078049332 -0.26055062 -0.087459803
0.078964882 -0.26004717 -0.093999505
0.10145991 -0.26021922 -0.091765165
0.12399016 -0.26039261 -0.089512706
0.14655448 -0.26056513 -0.08727169
0.16942886 -0.26108205 -0.080556393
-0.078150734 -0.23839554 -0.083069205
-0.05553434 -0.23784095 -0.091072559
0.034149051 -0.23764823 -0.0938555
0.056610785 -0.23780298 -0.091620803
0.079107478 -0.23795916 -0.089368463
0.10163844 -0.23811443 -0.08712697
0.12420471 -0.23827095 -0.084867716
0.1468052 -0.23842664 -0.082619429
-0.07825277 -0.21617438 -0.078650951
-0.055601776 -0.21567917 -0.08669281
-0.03309812 -0.21537207 -0.0916785
-0.010671226 -0.21524702 -0.093711376
0.011757221 -0.21538457 -0.09147656
0.034220353 -0.21552324 -0.089223862
0.05671791 -0.21566139 -0.08698225
0.079250529 -0.21580043 -0.084722638
0.10181752 -0.21593902 -0.082474113
0.12441996 -0.21607856 -0.080207467
0.1470567 -0.21621743 -0.077952027
-0.055669636 -0.19345134 -0.082285404
-0.033134162 -0.19319743 -0.086996794
-0.010671226 -0.19308524 -0.08907938
0.011792934 -0.19320607 -0.08683753
0.034291886 -0.1933279 -0.08457756
0.056825377 -0.19344899 -0.082328916
0.079394042 -0.19357117 -0.080062151
0.10199719 -0.19369267 -0.077806473
-0.055737697 -0.17115635 -0.077864408
-0.033170205 -0.17095082 -0.082314491
-0.010671226 -0.17085297 -0.084432602
0.01182876 -0.17095685 -0.082183719
0.03436365 -0.17106152 -0.079916716
0.056933187 -0.17116573 -0.07766068
-0.033206366 -0.14863257 -0.077617049
-0.010671226 -0.14854971 -0.079771161
0.011864699 -0.14863655 -0.077515006
-0.19074178 0.30167538 -0.081036091
-0.19074178 0.32418418 -0.081036091
-0.19074178 0.3466931 -0.081036091
-0.19074178 0.36920172 -0.081036091
-0.1907409 0.39170846 -0.081050515
-0.39607176 -0.62539303 -0.060017586
-0.37162501 -0.62250692 -0.074438095
0.3726722 -0.62224686 -0.075736761
-0.37227163 -0.60095757 -0.06918788
0.37346599 -0.60086465 -0.069671392
-0.37285906 -0.57923865 -0.064418912
-0.34930831 -0.57777631 -0.072334409
0.37426302 -0.57939363 -0.063580751
-0.37344655 -0.55744654 -0.059648752
-0.34998998 -0.55624557 -0.066431165
-0.32629982 -0.55448967 -0.076349139
0.35026279 -0.55479962 -0.07459867
-0.35054168 -0.53443366 -0.061653018
-0.32695952 -0.53298146 -0.070227742
0.35101041 -0.53326923 -0.068528533
-0.327622 -0.51138306 -0.064080834
-0.30396515 -0.50973952 -0.074248314
0.32756117 -0.50948244 -0.075838923
0.35176298 -0.51165181 -0.06241858
-0.30457863 -0.48812217 -0.068117976
0.32814658 -0.48771393 -0.070769429
-0.30519468 -0.46641436 -0.061962128
-0.28159845 -0.46492508 -0.072144508
0.30517432 -0.4646045 -0.074335814
0.32873395 -0.4658702 -0.065682292
-0.28216553 -0.44319835 -0.066005468
-0.25868118 -0.44179139 -0.076159716
0.30572125 -0.44274727 -0.069261193
0.32932341 -0.44395053 -0.060577631
0.28276303 -0.4196786 -0.072846055
0.30627006 -0.42081428 -0.06416893
0.25986218 -0.39666811 -0.076407552
0.28327137 -0.39773253 -0.06776607
0.26032892 -0.37470716 -0.071354508
0.28378153 -0.37571007 -0.062668681
0.2374437 -0.3517397 -0.074919701
0.26079869 -0.35267189 -0.066269636
-0.19105376 -0.32907861 -0.075970054
0.23787324 -0.32969138 -0.069847107
0.26127002 -0.33056003 -0.061167002
-0.19143085 -0.30709642 -0.069846988
0.21500245 -0.30676529 -0.073430419
0.23830427 -0.30756655 -0.064756989
-0.30409089 -0.28423512 -0.072992086
-0.16871446 -0.28431064 -0.072100401
-0.14596958 -0.28400388 -0.075722218
0.19218844 -0.28389651 -0.076990604
0.21539335 -0.28462791 -0.068352699
0.23873681 -0.28536507 -0.059648871
-0.16900811 -0.26215249 -0.066651344
-0.14622132 -0.26187369 -0.07027173
-0.12349064 -0.26159576 -0.073883414
0.19253938 -0.2617465 -0.071925163
0.21578558 -0.2624138 -0.063257098
-0.16930284 -0.23991194 -0.061181784
-0.14647333 -0.23966005 -0.06481564
-0.12370012 -0.23940897 -0.068440557
-0.10089214 -0.23895402 -0.0750072
0.16974007 -0.23891973 -0.07550323
0.19289155 -0.2395198 -0.06684196
-0.1239104 -0.21713963 -0.062977791
-0.10102849 -0.21667144 -0.070579171
0.17005232 -0.21668044 -0.070432782
0.19324391 -0.21721487 -0.061756015
-0.10116572 -0.19432235 -0.06612289
-0.078355119 -0.19388598 -0.074219108
0.12463589 -0.19381529 -0.075532556
0.14730901 -0.19393724 -0.073269725
0.17036568 -0.19436428 -0.065344572
-0.10130335 -0.17190517 -0.061653018
-0.078457437 -0.17152938 -0.069788337
0.07953801 -0.17127086 -0.075386643
0.10217742 -0.17137542 -0.073123574
0.12485251 -0.17148079 -0.070842385
0.14756213 -0.17158553 -0.068572521
0.17068011 -0.17197047 -0.060238719
-0.078560412 -0.14910567 -0.06532979
-0.055805735 -0.14879325 -0.073444963
0.034435637 -0.14872417 -0.075240731
0.057041332 -0.14881122 -0.072977543
0.079682432 -0.14889911 -0.070696115
0.10235824 -0.14898637 -0.068425894
0.12506983 -0.14907452 -0.066137671
0.14781684 -0.14916283 -0.063845396
-0.078663349 -0.12661314 -0.060872316
-0.055874214 -0.12636289 -0.068997502
-0.033242755 -0.12624303 -0.072889805
-0.010671226 -0.12617515 -0.075094819
0.011900755 -0.12624486 -0.072831511
0.034507856 -0.12631513 -0.070549846
0.057149835 -0.126385 -0.068279386
0.079827331 -0.12645549 -0.065990806
0.10253963 -0.12652561 -0.063713193
0.12528783 -0.12659641 -0.061417222
-0.055943124 -0.10386488 -0.06452167
-0.033279151 -0.1037807 -0.068162203
-0.010671226 -0.10372896 -0.070403457
0.011936923 -0.10378143 -0.068132877
0.034580313 -0.10383426 -0.065843701
0.057258688 -0.10388687 -0.063566208
0.079972684 -0.10393991 -0.061270237
-0.056016549 -0.081302375 -0.059752107
-0.033315662 -0.08124584 -0.063418984
-0.010671226 -0.081210777 -0.065696955
0.01197321 -0.08124584 -0.063418984
0.034653001 -0.081281111 -0.061122894
-0.010671226 -0.058620218 -0.060975432
0.39759409 -0.62567347 -0.0586164
-0.39691088 -0.60395646 -0.053605437
0.39844438 -0.60417312 -0.052479744
-0.39775366 -0.58242637 -0.047165513
0.39929825 -0.58258295 -0.046317577
0.37506336 -0.55783314 -0.057464957
-0.3741599 -0.53575391 -0.053857207
0.37586704 -0.53618294 -0.051323533
-0.37495297 -0.51407683 -0.047418356
-0.3510935 -0.51254809 -0.056874037
0.37667412 -0.51444244 -0.045156598
-0.35164884 -0.49059388 -0.052064896
-0.32818231 -0.48954421 -0.058881998
0.35251683 -0.48994207 -0.056297779
-0.35220596 -0.46856773 -0.0472399
-0.32869831 -0.46756515 -0.054094076
0.35327387 -0.46814176 -0.050151587
-0.35276321 -0.44646722 -0.042414069
-0.32921758 -0.44551662 -0.049275637
-0.30578077 -0.44457021 -0.056105614
0.35403404 -0.44625044 -0.043979645
0.32995078 -0.42199525 -0.055144548
0.30682075 -0.39880493 -0.059059024
0.330661 -0.40004474 -0.048993468
0.3073718 -0.37671733 -0.053946018
0.33137426 -0.37800243 -0.042816639
0.28429341 -0.35361117 -0.05755353
0.30792633 -0.35455453 -0.048800588
0.28480712 -0.33143532 -0.052420497
0.30848283 -0.33231431 -0.043636918
0.26174304 -0.30837119 -0.056046605
0.28532258 -0.30918196 -0.047269583
0.2622177 -0.28610516 -0.050908327
0.28583986 -0.28685093 -0.042100668
-0.26062861 -0.26319093 -0.053161383
-0.21559104 -0.26364568 -0.047254801
0.23917085 -0.26308614 -0.05452311
0.262694 -0.26376131 -0.045751929
-0.1925716 -0.24059491 -0.051323533
0.21617919 -0.24012226 -0.058144093
0.23960513 -0.24072851 -0.049394488
-0.19295414 -0.21823981 -0.045112014
-0.1696146 -0.21760653 -0.055395961
-0.14672628 -0.21736363 -0.059339285
0.21657418 -0.21775331 -0.053013206
0.24004221 -0.21829396 -0.044233084
-0.1699492 -0.19523492 -0.049186587
-0.14698017 -0.19498409 -0.053842306
-0.12410326 -0.19476181 -0.057966948
0.19359851 -0.19483347 -0.056637645
0.21697053 -0.1953062 -0.047864318
-0.17028441 -0.17276824 -0.042966008
-0.14723499 -0.17252077 -0.048325062
-0.12427569 -0.17228231 -0.053487062
0.19395436 -0.1723741 -0.051501513
0.21736827 -0.17278062 -0.04269743
-0.14749148 -0.14997384 -0.042771935
-0.12444921 -0.14973488 -0.048978806
-0.10144095 -0.14941908 -0.057184219
0.17099567 -0.14949872 -0.055114985
0.19431143 -0.14983615 -0.04634738
-0.1246227 -0.1271182 -0.044471383
-0.10157943 -0.12686519 -0.052687049
0.14809225 -0.12667897 -0.058734417
0.17131229 -0.12694864 -0.049973488
-0.10171786 -0.10424192 -0.048191309
-0.078766942 -0.10405272 -0.056386471
0.1027216 -0.10399264 -0.058985233
0.12550588 -0.10404557 -0.056696773
0.14836863 -0.10411699 -0.053605437
0.17163002 -0.10431994 -0.044813991
-0.10185719 -0.08154995 -0.04366672
-0.078870855 -0.081423394 -0.051886916
0.057367876 -0.081316434 -0.058837652
0.080118507 -0.081351906 -0.05653429
0.10290417 -0.081387177 -0.054242015
0.1257253 -0.081422448 -0.051946402
0.14864597 -0.081476115 -0.048458815
-0.078974739 -0.058724828 -0.047388673
-0.056089997 -0.058666304 -0.054981947
-0.033352405 -0.058638141 -0.058645844
0.012009613 -0.058637775 -0.05869019
0.034725919 -0.058655541 -0.05638659
0.05747743 -0.058673255 -0.054094076
0.080264807 -0.058690861 -0.051783204
0.10308733 -0.058708683 -0.049483657
0.12594542 -0.058726393 -0.047180295
0.14892428 -0.058756337 -0.043293953
-0.010671226 -0.035956975 -0.05623877
0.034799069 -0.035956975 -0.051634908
0.080411568 -0.035956975 -0.047016621
0.10327107 -0.035956975 -0.044709682
-0.079079293 -0.035956923 -0.042861581
-0.056163907 -0.035956923 -0.05018127
-0.033389155 -0.035956923 -0.053872108
0.012046132 -0.035956923 -0.053946018
0.057587333 -0.035956923 -0.049335241
0.12616625 -0.035956923 -0.042399168
-0.056237832 -0.013173709 -0.045379877
-0.033426024 -0.013202239 -0.049082518
-0.010671226 -0.013220683 -0.051486731
0.01208277 -0.013203023 -0.049186587
0.034872465 -0.013185099 -0.046868086
0.057697594 -0.013167439 -0.044560671
0.080558814 -0.01314941 -0.042235136
-0.033463128 0.0096269064 -0.044262886
-0.010671226 0.009589076 -0.046719313
0.012119528 0.0096246079 -0.044411898
0.034946091 0.0096604005 -0.042085767
-0.19258896 0.28239897 -0.051041722
-0.17004849 0.28279755 -0.047343969
-0.17004849 0.30556583 -0.047343969
-0.17004849 0.32833385 -0.047343969
-0.17004849 0.35110217 -0.047343969
-0.17004849 0.37387031 -0.047343969
-0.17004849 0.3966386 -0.047343969
-0.42145467 -0.62931079 -0.040443301
0.422809 -0.62914038 -0.041294813
-0.42235705 -0.60774285 -0.033930659
0.42371714 -0.60752058 -0.035085797
-0.42326137 -0.58607709 -0.027404666
0.42462909 -0.58581007 -0.028850555
-0.39860013 -0.56080198 -0.040697217
0.40015569 -0.56090236 -0.040129662
-0.39945227 -0.53908533 -0.034186006
0.40101671 -0.5391311 -0.033915758
-0.40030617 -0.5172708 -0.027660728
0.40188134 -0.5172683 -0.027675867
-0.3757495 -0.49230483 -0.040951252
0.37748456 -0.49261072 -0.038963795
-0.37655136 -0.47043967 -0.034440875
0.37830034 -0.47068992 -0.032729864
-0.37735495 -0.44847608 -0.027916908
0.37911761 -0.44867444 -0.026484966
0.35479739 -0.42426735 -0.037781954
0.35556397 -0.40219206 -0.031558275
0.35633376 -0.38002414 -0.025308251
0.33209044 -0.35586795 -0.03661418
0.33280969 -0.3336404 -0.030385494
0.30904126 -0.30999628 -0.038455248
0.30960166 -0.28759998 -0.033255577
-0.28454202 -0.26418266 -0.04027915
-0.2390684 -0.26435411 -0.038051248
0.28635892 -0.26444176 -0.036913514
0.310164 -0.26512498 -0.02803731
-0.26290667 -0.2423314 -0.026258826
-0.2394422 -0.24185085 -0.033195376
-0.21602362 -0.24130934 -0.041010976
0.26317197 -0.24133936 -0.040577888
0.28687835 -0.24195279 -0.03172338
-0.23981838 -0.21927465 -0.02830863
-0.21642375 -0.21884817 -0.035235524
0.26365161 -0.21883887 -0.035385609
0.28740105 -0.21938613 -0.026500106
-0.21676081 -0.19624892 -0.030370355
-0.19333921 -0.19579142 -0.038859129
0.24048078 -0.19578105 -0.03905344
0.26413298 -0.19625942 -0.030174851
-0.21710004 -0.17357612 -0.02547431
-0.19372591 -0.17324796 -0.03257978
0.2409209 -0.17318903 -0.033855915
0.26461598 -0.17360051 -0.024946094
-0.19403628 -0.15056017 -0.027540207
-0.17062184 -0.15020746 -0.036704063
0.21776742 -0.15017632 -0.037512422
0.2413626 -0.15051784 -0.028639793
-0.17096071 -0.12755091 -0.030415654
-0.14774823 -0.12734158 -0.037213326
0.19466978 -0.12721963 -0.041175127
0.21816795 -0.1274927 -0.032309532
-0.17126845 -0.10478437 -0.024704456
-0.14800526 -0.10462405 -0.031648278
-0.12479729 -0.1044326 -0.03993535
0.19502938 -0.10452388 -0.035984993
0.21856873 -0.10472888 -0.027103305
-0.14821661 -0.081805408 -0.027072906
-0.12497241 -0.08167734 -0.035385609
0.17194796 -0.081611708 -0.039651513
0.19539025 -0.081748404 -0.03077662
-0.12514749 -0.058852218 -0.030836582
-0.10199693 -0.058788367 -0.039128304
0.17226794 -0.05882442 -0.034455776
0.19575235 -0.058892868 -0.025549769
-0.1253237 -0.035956975 -0.026258707
0.14920355 -0.035957027 -0.038111091
-0.10213665 -0.035956923 -0.03459084
0.172589 -0.035956923 -0.029242039
-0.10227725 -0.013055358 -0.030024648
-0.07918416 -0.013119314 -0.038320541
0.10345541 -0.013131592 -0.039920568
0.1263878 -0.013113776 -0.037602305
0.14948383 -0.013077669 -0.032910228
-0.1024183 0.0099164881 -0.025444031
-0.079288997 0.0097882599 -0.033780813
-0.056311987 0.0096838102 -0.040562868
0.057808205 0.0096960887 -0.03977108
0.080706529 0.0097319335 -0.037437797
0.10364034 0.0097676739 -0.0351156
0.12661007 0.0098034665 -0.032789946
0.14976506 0.0098819509 -0.027690768
-0.079394519 0.032766271 -0.029211998
-0.056386627 0.03261615 -0.035715342
-0.033500236 0.032530095 -0.039442182
-0.010671226 0.03247251 -0.041936636
0.012156403 0.032525908 -0.039621472
0.035019957 0.032579836 -0.03728807
0.057919182 0.032633398 -0.034965634
0.080854729 0.032687578 -0.032624841
0.10382587 0.032741349 -0.030295253
0.12683307 0.032795224 -0.027962089
-0.079499997 0.055814777 -0.024644017
-0.056461275 0.05562311 -0.030866742
-0.033537466 0.055507947 -0.034605861
-0.010671226 0.055429984 -0.037138224
0.012193397 0.055501569 -0.034815788
0.035094067 0.055573631 -0.032474637
0.058030508 0.055645268 -0.030144811
0.081003413 0.055717688 -0.027796388
0.10401203 0.055789638 -0.02545917
-0.05653616 0.07870537 -0.026002407
-0.033574931 0.078561574 -0.029738545
-0.010671226 0.07846202 -0.032324433
0.012230512 0.078551799 -0.029994488
0.035168409 0.07864219 -0.027645588
0.058142208 0.078732014 -0.025308251
-0.033612408 0.10169017 -0.024870515
-0.010671226 0.10156885 -0.027494907
0.012267748 0.1016769 -0.025157332
-0.23983926 0.28487819 -0.02803731
-0.21612298 0.28363475 -0.03957653
-0.44717944 -0.63328397 -0.020592213
0.44832212 -0.63264823 -0.023768306
-0.44814259 -0.61157715 -0.01400733
0.44928941 -0.61090785 -0.017485499
-0.44910997 -0.58977431 -0.0073930025
0.45026079 -0.58907539 -0.011176109
-0.42416966 -0.56431615 -0.020849586
0.42554489 -0.564008 -0.022589326
-0.42508194 -0.54245889 -0.014265776
0.42646453 -0.5421142 -0.016301632
-0.42599827 -0.52050519 -0.0076527596
0.42738807 -0.52012777 -0.0099874735
-0.40116385 -0.49536008 -0.021106958
0.40274963 -0.49531341 -0.021409631
-0.40202531 -0.47335273 -0.014523983
0.40362155 -0.47326598 -0.01511693
-0.40289056 -0.45124811 -0.007912159
0.40449718 -0.45112535 -0.0087975264
0.37993827 -0.42656645 -0.020213723
0.38076246 -0.40436503 -0.013916016
0.38159007 -0.38206986 -0.0075917244
0.3571068 -0.35776269 -0.019032121
0.3578831 -0.33540741 -0.012729287
0.33353195 -0.31131956 -0.024130702
0.33425722 -0.28890446 -0.017849565
-0.33342877 -0.26649803 -0.010200739
-0.30967298 -0.26595834 -0.017212391
0.33498731 -0.26639602 -0.011526465
-0.31016731 -0.24330044 -0.012272716
-0.28648233 -0.24281535 -0.019274354
0.31072837 -0.24257103 -0.022800922
-0.31066176 -0.22056647 -0.0073320866
-0.28693661 -0.2201339 -0.014356971
-0.26332241 -0.2197033 -0.021349072
0.31139117 -0.21999255 -0.016650796
-0.28739378 -0.19737846 -0.0094078779
-0.26373956 -0.19700049 -0.016423106
-0.24019465 -0.19662338 -0.023420453
0.28792563 -0.19673991 -0.021258235
0.31207153 -0.19732834 -0.010338068
-0.26415676 -0.17422174 -0.011496067
-0.24057333 -0.17389829 -0.01850152
0.28845206 -0.17401382 -0.015998006
-0.24095325 -0.151098 -0.013566136
-0.21744037 -0.15082875 -0.020562053
0.26510072 -0.15086187 -0.01969862
0.28898033 -0.15120758 -0.010718942
-0.24133326 -0.12822178 -0.0086296797
-0.21778078 -0.12800561 -0.015648603
-0.19433838 -0.12779044 -0.022634864
0.24180582 -0.12776676 -0.023405671
0.26558715 -0.12804313 -0.014433026
-0.21812336 -0.10510765 -0.010703802
-0.19464147 -0.10494582 -0.017712951
0.24225059 -0.10493563 -0.018152952
0.26607388 -0.10514317 -0.0091637373
-0.19494464 -0.08202529 -0.012790322
-0.17153329 -0.081917539 -0.019789696
0.21897209 -0.081885666 -0.021863341
0.24269697 -0.082023874 -0.012881637
-0.19524975 -0.059029303 -0.007835865
-0.17179902 -0.058975272 -0.014858484
-0.14842857 -0.058916539 -0.022483468
0.21937686 -0.058961742 -0.016605258
0.2431449 -0.059031129 -0.0075916052
-0.14864051 -0.035957027 -0.017894983
0.19611575 -0.035957027 -0.020304561
0.21978305 -0.035957027 -0.011328459
-0.17206478 -0.035956923 -0.0099264383
-0.14885379 -0.01292645 -0.013277292
-0.12549986 -0.012991296 -0.021681905
0.17291124 -0.013009218 -0.024009824
0.19648044 -0.01294014 -0.015040994
-0.14906774 0.010175243 -0.0086449385
-0.12567715 0.010045446 -0.017075777
0.17323458 0.010019425 -0.018759131
0.1968464 0.010158051 -0.0097585917
-0.125855 0.033153307 -0.012455463
-0.10255931 0.032959085 -0.020864606
0.1500473 0.032922406 -0.022453189
0.17355907 0.033129428 -0.0134902
-0.1260328 0.056332279 -0.007835865
-0.10270122 0.056073058 -0.016256094
0.12705679 0.055861745 -0.023118496
0.15032971 0.056043584 -0.017212272
0.17388472 0.056321044 -0.0082024336
-0.10284309 0.079257891 -0.011648297
-0.079606161 0.078934595 -0.020047069
0.081152573 0.078822836 -0.02295208
0.10419876 0.078913018 -0.020607471
0.12728125 0.079003409 -0.018258929
0.15061395 0.079246804 -0.011937737
-0.10298588 0.10251503 -0.0070112944
-0.079712652 0.10212585 -0.015435934
-0.056611538 0.10186397 -0.02110672
0.035243005 0.10178564 -0.022801042
0.058254272 0.10189407 -0.020456076
0.081302218 0.10200322 -0.018092275
0.10438613 0.10211191 -0.015739679
0.12750642 0.10222074 -0.013383627
-0.079819128 0.12538807 -0.010825634
-0.056686915 0.12509796 -0.016210556
-0.033650003 0.12489444 -0.01998651
-0.010671226 0.1247509 -0.022649646
0.012305105 0.12487745 -0.020304561
0.035317831 0.12500474 -0.017940402
0.058366694 0.1251315 -0.015587926
0.081452355 0.12525937 -0.013216376
0.10457409 0.12538651 -0.010856152
0.12773234 0.1255139 -0.0084923506
-0.056762554 0.14840835 -0.011297941
-0.033687845 0.14817598 -0.015071392
-0.010671226 0.14800863 -0.017789006
0.012342583 0.14815351 -0.015435934
0.03539291 0.14829955 -0.013064027
0.058479488 0.14844497 -0.010703802
0.081602983 0.1485915 -0.0083246231
-0.033725686 0.1715332 -0.010154963
-0.010671226 0.17134216 -0.012911916
0.012380185 0.17150566 -0.010551333
0.035468236 0.17167057 -0.0081717968
-0.010671226 0.19475214 -0.0080192089
-0.14893043 0.24056143 -0.011617899
-0.19507782 0.26370382 -0.010627508
-0.1713181 0.26238719 -0.023783326
-0.14887348 0.26348123 -0.012851119
-0.26374084 0.28613174 -0.016407847
-0.14887348 0.28651485 -0.012851119
-0.14887348 0.30954856 -0.012851119
-0.14887348 0.33258227 -0.012851238
-0.14887348 0.35561597 -0.012851119
-0.14887278 0.37864777 -0.012866378
-0.47324866 -0.63730758 -0.00048875809
0.4741388 -0.63619798 -0.0060330629
-0.47427621 -0.61546326 0.0061852932
0.47516659 -0.61433536 0.0003247261
0.47619873 -0.59237981 0.0067095757
-0.45008168 -0.56787485 -0.00074970722
0.45123628 -0.56715059 -0.0048402548
-0.45105767 -0.54587805 0.0059232712
0.45221591 -0.54513282 0.0015226603
0.45319968 -0.52302152 0.0079123974
-0.42691866 -0.49845406 -0.0010104179
0.42831555 -0.49804825 -0.0036463737
-0.42784312 -0.47630507 0.0056613684
0.4292469 -0.47587514 0.0027215481
0.43018225 -0.45360768 0.0091165304
0.40537864 -0.42889294 -0.002436161
0.40626171 -0.40656406 0.0039367676
0.40714854 -0.3841401 0.010337114
0.38242123 -0.35968015 -0.0012404919
0.3832559 -0.3371954 0.0051375628
0.35866266 -0.31295735 -0.0063999891
0.35944554 -0.29041231 -4.3749809e-05
0.36023176 -0.26777133 0.0063394308
-0.33396363 -0.24378768 -0.005237937
0.33571878 -0.24379091 -0.0051921606
-0.33450025 -0.22100213 -0.00025856495
0.33645332 -0.22109006 0.0011693239
-0.33503702 -0.19813994 0.00472188
-0.31115934 -0.19775827 -0.0023595095
0.33719099 -0.19829266 0.007557869
-0.31165862 -0.17487422 0.0026291609
-0.28785107 -0.17454685 -0.0044577122
0.31275475 -0.17456812 -0.003998518
-0.31215799 -0.1519134 0.007619381
-0.2883113 -0.15164039 0.00052428246
-0.26457664 -0.15136851 -0.0065375566
0.31344089 -0.15171129 0.0023680925
-0.28877303 -0.12865756 0.0055228472
-0.26499793 -0.12843931 -0.0015625954
0.28951049 -0.12832053 -0.0054214001
0.31412989 -0.12875721 0.0087614059
-0.28923488 -0.10559788 0.010522485
-0.26541927 -0.1054337 0.0034136772
-0.2417157 -0.10527031 -0.0036616325
0.29004252 -0.1053524 -0.00010514259
-0.26584336 -0.082351863 0.0084218979
-0.2420994 -0.082242556 0.0013228655
-0.21846604 -0.082133606 -0.0057576895
0.26656377 -0.082162768 -0.0038607121
0.29057643 -0.082302697 0.0052300692
-0.24248323 -0.059138089 0.0063086748
-0.21881089 -0.059083644 -0.00078034401
0.26705539 -0.059100837 0.0014610291
0.29111224 -0.059171066 0.010584354
-0.21915688 -0.035956975 0.0042139292
-0.19555587 -0.035956975 -0.0028653145
0.24359444 -0.035956975 -0.0022830963
0.26754874 -0.035956923 0.0068019629
-0.21950299 -0.012753442 0.0092093945
-0.19586205 -0.012808098 0.0021066666
-0.17233226 -0.012862492 -0.0049626827
0.22019069 -0.012870802 -0.0060329437
0.24404556 -0.012800887 0.003044486
-0.1961702 0.010417696 0.0071103573
-0.17260063 0.010308538 1.7642975e-05
0.22059979 0.010297254 -0.00071883202
0.24449828 0.0104375 0.0083910227
-0.17286906 0.033556331 0.0049991608
-0.14928165 0.033348206 -0.0040137768
0.19721259 0.033337709 -0.0044730902
0.22101033 0.033547502 0.004614234
-0.17313921 0.056881871 0.010012507
-0.14949693 0.056593541 0.00064718723
0.19758116 0.056599658 0.00084662437
0.22142231 0.056880515 0.009966135
-0.14971429 0.07991235 0.0053532124
-0.12621173 0.07958357 -0.0031869411
0.17421152 0.079594702 -0.0028958321
0.19795102 0.079944327 0.0061852932
-0.14993522 0.10330696 0.010136127
-0.12639123 0.10290697 0.0014766455
0.15089917 0.10253201 -0.0066444874
0.17453948 0.10295102 0.0024293661
-0.1265707 0.12630227 0.0061391592
-0.10312912 0.12584428 -0.0023595095
0.15118541 0.12589967 -0.0013324022
0.17486858 0.12639032 0.007773757
-0.10327231 0.14924523 0.0022910833
-0.079926275 0.14872307 -0.0061858892
0.10476267 0.14873733 -0.0059566498
0.127959 0.14888334 -0.0035851002
0.15147267 0.1493504 0.0039982796
-0.10341644 0.17271979 0.0069715977
-0.080033407 0.17212956 -0.0015472174
-0.056838669 0.17179655 -0.0063539743
0.05859264 0.17183459 -0.0058037043
0.081754103 0.17200007 -0.0034166574
0.10495188 0.1721646 -0.0010410547
0.1281864 0.17232949 0.0013383627
0.15176097 0.17288443 0.0093481541
-0.080141224 0.19560966 0.003121376
-0.056914799 0.19526097 -0.0014092922
-0.033763658 0.19496742 -0.0052226782
0.012417909 0.1949345 -0.005650878
0.035543799 0.19511828 -0.0032634735
0.058706179 0.195301 -0.00088763237
0.081905253 0.19548419 0.0014920235
0.1051417 0.19566886 0.0038906336
0.12841454 0.19585273 0.0062777996
-0.080249369 0.21916282 0.007804513
-0.05699119 0.21880284 0.0035521984
-0.033801869 0.21848014 -0.00025844574
-0.010671226 0.21823862 -0.0031104088
0.012455758 0.21843991 -0.00073421001
0.035619617 0.21864274 0.0016608238
0.058820084 0.21884447 0.004044652
0.082057364 0.21904665 0.0064320564
0.10533214 0.2192505 0.0088386536
-0.17268835 0.2417866 0.001645565
-0.057068057 0.24242392 0.0085452795
-0.033840094 0.24206939 0.004706502
-0.010671226 0.24180233 0.0018144846
0.01249373 0.24202251 0.0041986704
0.035695679 0.2422446 0.006601572
0.058934361 0.24246541 0.0089930296
-0.21904711 0.26503053 0.0026292801
-0.033878438 0.26573682 0.009688139
-0.010671226 0.26544341 0.0067558289
0.012531826 0.26568273 0.009147644
-0.49967152 -0.64138585 0.019887209
0.5002619 -0.63978702 0.011898756
-0.50076514 -0.61940211 0.026652455
0.50135159 -0.61780107 0.018332839
-0.47530836 -0.59352148 0.012889147
0.50272352 -0.59602392 0.026433825
-0.47634509 -0.57148188 0.019623041
0.47723532 -0.57033086 0.013121367
-0.47738889 -0.54934645 0.026402593
0.47827631 -0.54818773 0.019560814
-0.45203799 -0.52378345 0.012626052
0.47932172 -0.52594995 0.026027679
-0.45302498 -0.50159258 0.019374251
0.45418766 -0.50081587 0.014329553
-0.45401412 -0.47929987 0.026136994
0.45517987 -0.47851557 0.020774126
-0.42877173 -0.45405751 0.012362957
0.45617634 -0.45611978 0.027246237
-0.4297066 -0.43171263 0.019109845
0.43112162 -0.43124533 0.015538812
0.43206492 -0.40878743 0.021988392
0.40803915 -0.3616206 0.016764402
0.40893358 -0.33900487 0.023219347
0.38409415 -0.31461486 0.011543036
0.38493595 -0.2919381 0.017975688
0.38578138 -0.26916441 0.024435639
0.36102131 -0.24503398 0.01275003
-0.35977587 -0.22214614 0.018317342
0.36181617 -0.22220066 0.019203305
-0.36055622 -0.1992366 0.025075316
0.36261249 -0.19926853 0.025668621
-0.33574712 -0.17527515 0.011310935
0.33793181 -0.1753982 0.013973236
-0.33647206 -0.15231438 0.018037677
0.33867577 -0.15240598 0.02041626
-0.33720025 -0.12925094 0.024794459
-0.31266057 -0.12887676 0.012641668
0.33942294 -0.12931538 0.02688694
-0.31316486 -0.10576321 0.017680407
0.31482187 -0.10570547 0.015182137
-0.31366923 -0.082572058 0.022720814
-0.28969967 -0.082461752 0.015554428
0.3155168 -0.082555287 0.021630406
-0.31417689 -0.059303574 0.027793407
-0.29016608 -0.059248134 0.020602942
-0.26626885 -0.059193112 0.013446569
0.31621471 -0.059305929 0.028106093
-0.29063258 -0.035957027 0.025652885
-0.24286948 -0.035956975 0.011326432
0.291695 -0.035957027 0.016407609
-0.26669446 -0.035956923 0.018472791
-0.26712281 -0.012643138 0.023531079
-0.24325705 -0.012698367 0.016360998
0.26804385 -0.012730712 0.012161851
0.29234082 -0.012648363 0.022860885
-0.2436447 0.01063773 0.021396756
-0.2198513 0.010527581 0.014236689
0.26854074 0.010578424 0.017540574
-0.24403487 0.034052152 0.026465058
-0.22020076 0.033886146 0.01928103
-0.19647843 0.033720765 0.012115479
0.24495134 0.033758339 0.013740897
0.26903939 0.033970643 0.022938848
-0.22055033 0.057322625 0.024326563
-0.19678861 0.057101753 0.017152429
0.24540728 0.05716252 0.019125462
-0.19709988 0.080560908 0.022206545
-0.17341025 0.080285221 0.015042663
0.22183579 0.080296606 0.015337229
0.24586487 0.080650359 0.024529219
-0.19741121 0.10409796 0.027261853
-0.17368138 0.10376601 0.02007401
0.19832221 0.10337208 0.011542797
0.22225071 0.10379626 0.020727396
-0.17395426 0.12732601 0.025137901
-0.15015683 0.12677626 0.014934063
0.19869472 0.12688322 0.016919613
0.22266714 0.12737992 0.026137114
-0.15037914 0.15032022 0.019747376
-0.1267513 0.14977109 0.010831714
0.17519887 0.14991312 0.013136983
0.19906856 0.15047838 0.022315502
-0.15060288 0.17394061 0.024591565
-0.12693189 0.17331234 0.015523195
0.17552939 0.17351873 0.018503666
0.19944373 0.17415804 0.027730703
-0.12711364 0.19692788 0.020245075
-0.10356053 0.19626631 0.011651278
0.15205027 0.19650224 0.014717102
0.17586204 0.19720973 0.023905396
-0.12729594 0.22061741 0.024981856
-0.10370556 0.2198875 0.016360998
0.12864345 0.21945333 0.011233687
0.15234061 0.2202045 0.020105124
-0.19665582 0.24302003 0.014996052
-0.10385103 0.24358246 0.021085382
-0.080357499 0.24278814 0.012486696
0.082209982 0.2426866 0.011388302
0.10552263 0.24290836 0.01378727
0.1288774 0.24314037 0.016299129
0.15263198 0.24399143 0.025512457
-0.24322958 0.26636881 0.016004205
-0.10399648 0.26735023 0.025809169
-0.080470994 0.26650876 0.01740098
-0.057144955 0.26612219 0.013539553
0.035771996 0.26592398 0.011558294
0.059049025 0.26616415 0.013957977
0.082363099 0.2664046 0.016360998
0.10571434 0.26664543 0.018767953
0.12912652 0.26693821 0.021692634
-0.080587007 0.29031658 0.022424579
-0.057222098 0.28989914 0.018550277
-0.033917032 0.28948441 0.014701605
-0.010671226 0.28916228 0.011713147
0.01257005 0.28942087 0.014112592
0.035848565 0.28968161 0.016531706
0.059164055 0.2899411 0.018938899
0.082516722 0.29020083 0.021350026
0.10590667 0.29046112 0.023765087
0.12937655 0.29082119 0.02710557
-0.080703415 0.31420401 0.027464986
-0.057299741 0.31375688 0.023593545
-0.033955637 0.31330931 0.019716263
-0.010671226 0.3129594 0.016687036
0.012608398 0.31323731 0.019094348
0.035925388 0.3135176 0.02152133
0.059279472 0.31379652 0.02393651
0.08267086 0.31407592 0.026355624
-0.033994369 0.33721346 0.024747729
-0.010671226 0.33683521 0.021677017
0.012646874 0.33713257 0.024092555
0.036002465 0.33743256 0.026527643
-0.010671226 0.36078987 0.026683688
-0.50186622 -0.59732264 0.033463478
-0.50296968 -0.57514101 0.04028964
0.50425977 -0.57429379 0.035504937
0.50580257 -0.55243069 0.044614792
-0.47843495 -0.52710891 0.033196926
-0.47948569 -0.50477147 0.040021658
0.48037162 -0.50361681 0.032522202
0.48142603 -0.48118776 0.039044738
-0.4550077 -0.45690724 0.032930136
-0.45600578 -0.43441424 0.039753795
0.45717701 -0.43362799 0.033746123
0.45818204 -0.4110395 0.040273786
0.4330146 -0.38623521 0.028481364
0.43396607 -0.36358446 0.034986496
0.43492162 -0.34083623 0.041519403
0.40983182 -0.31629232 0.029701829
0.41073394 -0.29348236 0.036212325
0.4116399 -0.27057427 0.042750597
0.38663039 -0.2462932 0.030923486
0.38748309 -0.22332378 0.037439108
0.38833943 -0.20025553 0.043982625
-0.36134005 -0.17622457 0.031863689
0.3634122 -0.17623827 0.032161713
-0.36212742 -0.15310915 0.03868258
0.36421537 -0.15310915 0.03868258
-0.36291835 -0.12988941 0.045531988
0.36502203 -0.12988026 0.045231462
0.34017327 -0.10612589 0.033385158
-0.33793342 -0.10608451 0.031597137
-0.33866817 -0.082813673 0.038414836
0.34092686 -0.082836613 0.03991127
-0.33940622 -0.05943802 0.045263052
-0.31468624 -0.035957079 0.032883048
0.3169156 -0.035956923 0.034609437
-0.31521147 -0.01253069 0.038131356
-0.29110205 -0.012587698 0.030735373
0.31762123 -0.012507543 0.041156888
-0.31589824 0.011001039 0.044994235
-0.29157314 0.010860063 0.035835028
-0.26755124 0.010748453 0.028590918
0.2929894 0.010760054 0.029341936
-0.29204437 0.034386311 0.040935993
-0.26798245 0.034218837 0.033683181
0.29364076 0.034268897 0.035850763
-0.26841509 0.057768021 0.038792729
-0.24442631 0.05754501 0.031550288
0.26953983 0.057446722 0.028356314
0.29429492 0.057878796 0.042387605
-0.26884791 0.081395954 0.043903708
-0.2448179 0.081116289 0.036636829
-0.22090214 0.080837995 0.029404521
0.27004206 0.081006989 0.033793092
0.24632406 0.10422233 0.029952288
-0.24521199 0.10476743 0.041756272
-0.22125514 0.10443228 0.034499645
0.27054611 0.10465163 0.039249659
-0.22160825 0.12810515 0.0395962
-0.19772454 0.12771466 0.032349825
0.24678496 0.12787883 0.035395026
0.27105197 0.12838151 0.044725537
-0.22196361 0.15185858 0.044725418
-0.19803891 0.15141076 0.037454724
-0.17422804 0.15096511 0.03021872
0.22308506 0.15104803 0.031565785
0.24724746 0.15162025 0.040857315
-0.19835341 0.17518549 0.042561173
-0.1745019 0.17468238 0.035300732
0.22350326 0.17480011 0.03699851
-0.17477411 0.1984757 0.040352702
-0.15082662 0.19763528 0.029435754
0.19982025 0.19792245 0.033165336
0.22392419 0.19863847 0.042466283
-0.17503788 0.22233355 0.045247316
-0.15105109 0.22140616 0.03429544
0.17619589 0.22098532 0.0293262
0.20019813 0.2217724 0.038619518
-0.22083712 0.2442643 0.028465748
-0.12747823 0.24437988 0.029717565
-0.24523628 0.24552104 0.042071939
0.17653091 0.24484628 0.034766555
0.20057736 0.24570793 0.04409337
-0.12766169 0.26821828 0.03448391
0.1529244 0.2678636 0.030939102
0.17686716 0.26879296 0.040226698
-0.12784512 0.29212999 0.039249659
-0.10414287 0.29119369 0.030563116
0.15321788 0.2918213 0.036385298
0.17720462 0.29282579 0.045706153
0.10609964 0.31435558 0.028778672
-0.12802973 0.31611863 0.044045925
-0.10428972 0.31511223 0.035332084
0.12962744 0.31478974 0.032537937
0.1535124 0.3158651 0.041850924
-0.10443655 0.33910426 0.040100336
-0.08082056 0.33817282 0.032538056
-0.057377405 0.33769247 0.028638005
0.059395269 0.33773106 0.028950691
0.082825497 0.33802995 0.031377673
0.10629325 0.3383294 0.033808827
0.12987927 0.3388443 0.037989855
-0.10458431 0.36317378 0.044899583
-0.080937751 0.36222002 0.037612081
-0.057455324 0.3617079 0.033698916
-0.034033351 0.36119917 0.029811502
0.012685476 0.36110693 0.029107094
0.036079794 0.36142677 0.031550169
0.059511453 0.36174482 0.033981562
0.082980655 0.36206353 0.036416531
0.10648751 0.36238283 0.038855791
0.13013197 0.36298552 0.043461204
-0.010671226 0.38482401 0.031707048
-0.081055328 0.38634759 0.042703152
-0.057533748 0.38580582 0.038792729
-0.03407234 0.38526323 0.034876466
0.012724208 0.38516086 0.034138441
0.036157377 0.38550058 0.036589503
0.05962801 0.38583854 0.039028883
0.083136328 0.38617712 0.041472197
0.10668241 0.38651609 0.043919325
-0.057612196 0.40998226 0.043887973
-0.034111585 0.40940982 0.039974213
-0.010671226 0.40893778 0.036746979
0.012763066 0.40929466 0.039186597
0.036235221 0.40965441 0.041645765
0.059744969 0.41001233 0.04409337
-0.034150839 0.43363521 0.04507339
-0.010671226 0.43313175 0.041803718
0.012802057 0.43350869 0.044251442
-0.5276193 -0.62339795 0.047415614
0.53045392 -0.62413651 0.051252842
-0.52899891 -0.60140532 0.055561662
0.53208369 -0.60230988 0.060457468
-0.50407815 -0.55285943 0.047146201
-0.50519156 -0.53047734 0.054033875
0.50735468 -0.53043622 0.053779602
-0.50631011 -0.507994 0.060952902
0.50891882 -0.50831157 0.063015342
-0.48054114 -0.48233345 0.046877146
-0.48160139 -0.45979407 0.053763509
0.48273569 -0.45887715 0.04714632
-0.48266643 -0.43715286 0.060681224
0.4842197 -0.43658295 0.056326389
0.45919383 -0.38835573 0.046845436
0.46020752 -0.36557204 0.053429723
0.4612256 -0.34268993 0.060042381
0.43588123 -0.31799012 0.048080802
0.43684503 -0.29504538 0.054670334
0.43781301 -0.27200127 0.061288357
0.41254979 -0.24756753 0.049317241
0.41346362 -0.22446135 0.055912018
0.41438138 -0.20125517 0.062535524
0.38920152 -0.17708851 0.050570488
0.39006525 -0.15382066 0.057170749
-0.36371282 -0.10656528 0.05241251
0.36583212 -0.10655144 0.051808834
-0.36451274 -0.083135858 0.059339881
0.36664572 -0.083121598 0.05841434
0.34168369 -0.05944727 0.046465516
0.34244376 -0.035956975 0.053048253
-0.34014761 -0.035956923 0.052142262
-0.34089234 -0.0123697 0.059052587
0.34320715 -0.012365051 0.059659004
0.31832817 0.011043053 0.047716379
-0.31658655 0.034638945 0.051872253
0.31903815 0.034694966 0.054304361
-0.31727797 0.05838361 0.058781505
-0.29251862 0.057992186 0.04606998
0.31975123 0.058449391 0.060920835
-0.29299447 0.08167769 0.051221251
0.29495189 0.081590384 0.04895246
-0.29347047 0.10544263 0.056373835
-0.26928347 0.10510424 0.049047589
0.29561171 0.10540438 0.055545926
-0.29394954 0.12928876 0.061560154
-0.26972052 0.12889259 0.054208994
-0.24560618 0.12849751 0.046877146
0.29627439 0.12932143 0.062167883
-0.27015772 0.15276046 0.059371948
-0.24600293 0.15230842 0.052031159
0.27155966 0.15219702 0.050221324
-0.24640104 0.17619984 0.057202697
-0.2223202 0.17569208 0.049872279
0.24771166 0.17544721 0.046339035
0.27216628 0.17617123 0.056788325
-0.24679926 0.20017098 0.062375665
-0.22267687 0.19960488 0.055020452
-0.19866991 0.19904144 0.047700524
0.24817753 0.19936003 0.051840544
-0.22303587 0.22359982 0.060202003
-0.19898748 0.22297776 0.052857399
0.22434662 0.22256261 0.047954082
0.24864504 0.22335932 0.057361841
0.22477059 0.24657324 0.053461552
0.2491143 0.24744534 0.062903404
0.20095795 0.26972964 0.049586773
0.22519609 0.27067065 0.05898869
0.20133993 0.29383829 0.055100083
0.17754328 0.31694525 0.051205397
0.20172219 0.318032 0.060617328
-0.12821493 0.34018296 0.048857331
0.15380713 0.33999357 0.047320366
0.17788316 0.34115189 0.056724548
-0.12840009 0.36432108 0.053668261
0.15410379 0.36421087 0.05282557
0.17822431 0.36544603 0.062263727
-0.12858646 0.38853779 0.058510184
-0.10473207 0.3873167 0.049697757
0.13038559 0.38721368 0.04895246
0.1544015 0.3885158 0.058350563
-0.10488077 0.41153842 0.054527164
-0.081173658 0.41055855 0.047827244
0.083292514 0.4103708 0.046544671
0.10687795 0.41072997 0.049000144
0.13064015 0.41152912 0.054463625
-0.10502995 0.43583661 0.059371829
-0.081292026 0.43484834 0.052952766
-0.057690904 0.43423986 0.049000144
0.036313325 0.43388852 0.046718836
0.059862316 0.43426669 0.049174547
0.08344923 0.43464541 0.051634312
0.10707416 0.43502465 0.054097652
0.13089561 0.43593255 0.059994459
-0.081410795 0.45922005 0.058095336
-0.057770118 0.45858136 0.054145336
-0.034190223 0.45794189 0.050189614
-0.010671226 0.45740658 0.046877027
0.012841173 0.45780343 0.049333096
0.03639169 0.45820361 0.051808596
0.05998005 0.45860204 0.054272652
0.083606459 0.45900103 0.056740403
0.10727102 0.45940068 0.059212089
-0.057849362 0.48300242 0.059291959
-0.03422986 0.48233294 0.05533886
-0.010671226 0.48176199 0.051967382
0.012880424 0.48217946 0.054431677
0.036470316 0.48260003 0.05691576
0.060098179 0.48301876 0.059387684
0.083764225 0.48343807 0.061863899
-0.034269512 0.50680363 0.060489655
-0.010671226 0.50619906 0.057075143
0.012919806 0.5066368 0.059547424
0.036548965 0.50707513 0.062023759
-0.010671226 0.53071779 0.062199473
-0.53069782 -0.57962114 0.065593481
0.5337261 -0.58035421 0.069733977
-0.53241068 -0.5576964 0.075707436
0.5353756 -0.55826259 0.079050422
-0.50743359 -0.48540869 0.067903042
0.5104897 -0.48605037 0.072291017
-0.50885963 -0.46297559 0.076724172
-0.48373631 -0.41440901 0.067630291
0.48571265 -0.4141542 0.065561295
-0.48481104 -0.39156184 0.074610829
0.48721728 -0.39159155 0.074868679
0.46247292 -0.31984353 0.068143964
0.46390578 -0.29697439 0.077450633
0.43878752 -0.24885848 0.067951083
0.43976396 -0.22561379 0.074626803
0.41530538 -0.17794912 0.069203615
0.41623113 -0.15454091 0.0758847
-0.38899091 -0.13053693 0.0665555
0.39093277 -0.13045207 0.06379962
-0.38985005 -0.10705301 0.073531032
0.39180404 -0.10698199 0.07045722
-0.39071316 -0.083462231 0.080538392
0.3926791 -0.083409876 0.077143788
-0.36531442 -0.059599951 0.066282868
0.36746287 -0.059590392 0.065048695
-0.36611977 -0.035957027 0.073257208
0.36828354 -0.035956923 0.071711779
-0.36692879 -0.012206463 0.080263376
0.36910778 -0.012220677 0.078403711
-0.3416422 0.011324536 0.066010118
0.34397385 0.011329081 0.066298842
-0.3423937 0.035126362 0.072983623
0.3447457 0.035126362 0.072983623
-0.34314862 0.059036557 0.07998836
0.34551907 0.059027094 0.079681039
-0.31797251 0.082235798 0.06572175
0.32046738 0.082306862 0.067566037
-0.31867021 0.10619637 0.072693706
0.32118666 0.10626785 0.074240088
-0.31937271 0.13026688 0.079713345
-0.29442874 0.15321469 0.066748023
0.29693994 0.15334234 0.068818212
-0.29495269 0.17725411 0.072419882
-0.2705977 0.17671026 0.064568162
0.29760838 0.17746739 0.075497746
-0.29559955 0.20148329 0.079422116
-0.27103925 0.20074122 0.069782138
0.27277848 0.20025113 0.063415527
-0.27148089 0.22485262 0.074997663
-0.24720006 0.22422487 0.067582011
0.27339333 0.22443551 0.070071459
-0.27192539 0.24904761 0.080247283
0.27401233 0.24872658 0.076772451
0.24958524 0.27161887 0.068464875
0.22562312 0.29485506 0.064535975
0.25005788 0.29588011 0.074046612
0.22605169 0.31912738 0.070103526
0.25053224 0.32022959 0.079648614
0.20210694 0.34231529 0.066170692
0.22648184 0.34348789 0.075691104
0.20249306 0.36668661 0.071743846
0.17856665 0.38982826 0.067822933
0.20288059 0.3911466 0.077337623
-0.15287445 0.41435322 0.073772788
-0.12877341 0.41283137 0.063367486
0.15470031 0.41290858 0.063895464
0.17891026 0.41429913 0.073402166
-0.12896034 0.43719959 0.068224192
0.15500018 0.43738985 0.06946075
-0.15310553 0.43882409 0.078775644
0.1792551 0.4388589 0.079002023
-0.12914848 0.46164757 0.073112249
-0.1051791 0.46020949 0.064215779
0.13115126 0.4604218 0.065529466
0.15530115 0.4619602 0.075046062
-0.12933661 0.48617083 0.077999949
-0.10532923 0.48466194 0.069091439
-0.081530325 0.48367643 0.063271523
0.10746855 0.48385817 0.064343929
0.13140857 0.4850024 0.071100354
0.15560323 0.48662001 0.08065176
-0.057928868 0.50750577 0.064456105
0.06021671 0.50751716 0.064520121
-0.10547933 0.50918967 0.073966026
-0.081649892 0.50821286 0.068448901
0.08392252 0.5079571 0.067004681
0.10766673 0.5083977 0.069492936
0.13166682 0.50967222 0.076691866
-0.10563041 0.53379816 0.078872681
-0.081769869 0.53283215 0.073643804
-0.058008879 0.53209496 0.06965363
-0.034309294 0.53135675 0.065657616
0.012959316 0.53117603 0.064680338
0.036628112 0.53163522 0.067164898
0.060335629 0.53209782 0.069669485
0.084081337 0.53255844 0.07216239
0.10786558 0.53301972 0.07465899
-0.081890613 0.55753803 0.078872681
-0.058088928 0.55676425 0.074852586
-0.034349337 0.55599582 0.070859194
