ply
format ascii 1.0
comment PCL generated
element vertex 1350
property float x
property float y
property float z
element camera 0
property float view_px
property float view_py
property float view_pz
property float x_axisx
property float x_axisy
property float x_axisz
property float y_axisx
property float y_axisy
property float y_axisz
property float z_axisx
property float z_axisy
property float z_axisz
property float focal
property float scalex
property float scaley
property float centerx
property float centery
property int viewportx
property int viewporty
property float k1
property float k2
end_header
0.23879072 -0.47714075 -0.22335601
-0.30290017 -0.45765999 -0.21563423
0.2598514 -0.45720756 -0.21830583
0.28099012 -0.43719733 -0.21325052
-0.36567113 -0.41616142 -0.21435237
-0.40557143 -0.39392376 -0.22378528
-0.42849872 -0.37462151 -0.21308315
-0.46820179 -0.35252008 -0.22251093
-0.55378008 -0.33292404 -0.21277606
-0.49138829 -0.33304441 -0.21179879
-0.55378008 -0.31205413 -0.21277606
-0.5308913 -0.3110773 -0.22123551
-0.5543375 -0.29142797 -0.21051311
0.4257693 -0.26915279 -0.22438049
0.44716981 -0.24883708 -0.21934807
0.46865025 -0.22844549 -0.21429658
0.49021301 -0.20797843 -0.20921242
0.53044307 -0.10310025 -0.21937561
0.53150856 -0.082494132 -0.21245503
0.50915521 0.021790143 -0.22258019
0.51016504 0.042691011 -0.21567607
0.48887405 0.16757995 -0.21887553
0.48983142 0.18888165 -0.21196628
-0.55377316 0.25143293 -0.21280396
-0.55377316 0.27230269 -0.21280408
-0.53291011 0.27230543 -0.2127763
-0.55377662 0.29317403 -0.21279001
-0.51254332 0.29341036 -0.21059704
-0.55378008 0.31404549 -0.21277606
-0.44708434 0.37509161 -0.2240622
-0.42673376 0.3961907 -0.22190118
0.28047788 0.39623937 -0.22156847
-0.40635058 0.41732374 -0.2197367
-0.36434439 0.43779922 -0.22184575
-0.34515113 0.43933311 -0.21235716
0.21822548 0.4384928 -0.21755505
-0.17721161 0.45870742 -0.22120786
-0.15735653 0.46031499 -0.21171498
0.15578742 0.48086703 -0.21355736
0.093164533 0.52336919 -0.20953417
-0.26251724 -0.48018563 -0.20615828
-0.094992295 -0.47982353 -0.20820427
-0.28502405 -0.46110103 -0.19531572
-0.32548872 -0.43855256 -0.20486724
-0.34825763 -0.41929254 -0.19401443
0.30220899 -0.41711426 -0.20816243
-0.38851747 -0.39687768 -0.2035892
0.32350659 -0.3969537 -0.20306921
0.34488538 -0.37671936 -0.19794273
-0.45160845 -0.35516557 -0.20229578
-0.57852578 -0.31381574 -0.19751918
-0.51475942 -0.31341377 -0.20100117
-0.57852578 -0.29282838 -0.19751918
-0.57852221 -0.27183956 -0.19753337
0.51185483 -0.18743369 -0.20412302
0.53357792 -0.16681176 -0.19901466
0.5325796 -0.061782271 -0.20549893
0.53365386 -0.040963817 -0.19852102
0.51118004 0.06369894 -0.20873654
0.51219821 0.084814399 -0.20177531
0.51322365 0.10603893 -0.19476414
-0.57865846 0.2109102 -0.19699693
0.49079564 0.21029355 -0.20500779
-0.57851863 0.23185499 -0.19754744
-0.55821002 0.23208833 -0.19479239
0.49176481 0.23181555 -0.19801331
-0.57852221 0.25284353 -0.19753349
-0.57852221 0.27383086 -0.19753349
0.449518 0.29452193 -0.20028305
-0.49214378 0.31454921 -0.20841455
-0.47171143 0.33572197 -0.20622838
0.3870261 0.3369545 -0.19622004
-0.45124611 0.35692883 -0.20403874
-0.43074504 0.37816796 -0.20185971
-0.41021374 0.39944324 -0.19966304
-0.3896493 0.42075306 -0.1974628
-0.32582259 0.44087777 -0.20280206
-0.30635518 0.44243109 -0.1931932
-0.13736016 0.46193171 -0.20216918
-0.24427408 -0.48380849 -0.1856966
-0.11783354 -0.48387155 -0.18534064
-0.30771115 -0.44186351 -0.18438613
-0.37120897 -0.39987829 -0.18307436
-0.41155151 -0.37744424 -0.19271183
-0.43476477 -0.35785091 -0.18177569
0.3663449 -0.35640869 -0.19279683
-0.47490278 -0.33555418 -0.19142234
0.38788417 -0.33601931 -0.18764567
-0.49838409 -0.3157855 -0.18046153
0.40950486 -0.31555292 -0.18247521
-0.60355532 -0.29449272 -0.18207562
-0.53831732 -0.29362613 -0.19011736
-0.60355163 -0.27338499 -0.18208981
-0.56206441 -0.27367961 -0.17914605
-0.60355163 -0.25227886 -0.18208981
-0.60355163 -0.23117265 -0.18208981
-0.60354793 -0.21006536 -0.18210411
-0.60354793 -0.1889592 -0.18210411
-0.60354793 -0.1678531 -0.18210399
-0.60354793 -0.14674695 -0.18210411
0.55630207 -0.14641857 -0.18820012
-0.60450935 -0.12581058 -0.17843044
0.55744457 -0.1256858 -0.18113291
0.53473592 -0.020038255 -0.19149315
0.53582352 0.00099568162 -0.18442881
0.51425445 0.12737295 -0.18771672
0.5152905 0.1488176 -0.18063295
-0.60440826 0.17004685 -0.17881691
-0.60354412 0.19094959 -0.18211842
-0.60354412 0.2120555 -0.18211842
-0.60354793 0.23316273 -0.18210411
-0.53772521 0.25329936 -0.19259846
0.49273899 0.25344878 -0.1909827
-0.51721072 0.27454612 -0.19038689
-0.49666283 0.29582709 -0.18817174
-0.4760817 0.31714278 -0.1859529
-0.45546719 0.33849293 -0.18373036
-0.43481913 0.35987791 -0.18150425
-0.41413751 0.38129756 -0.17927468
0.32434857 0.37951615 -0.19213104
0.26148212 0.42220306 -0.18804371
-0.28675187 0.44399768 -0.18350232
-0.11722377 0.46356219 -0.19254184
-0.096944377 0.46520418 -0.18284631
0.1984272 0.46501821 -0.18394423
0.13518295 0.50795913 -0.17984688
-0.22575587 -0.48748887 -0.16491008
-0.14105463 -0.487973 -0.16217554
-0.26687765 -0.46459416 -0.17468989
0.28391463 -0.46610606 -0.16576242
-0.2896637 -0.44522464 -0.16359413
-0.33058071 -0.42247114 -0.17336881
-0.35363501 -0.40292236 -0.16226244
-0.39434502 -0.38030764 -0.17204642
-0.45816776 -0.33810192 -0.17073715
-0.52205443 -0.29585752 -0.16941237
0.43120742 -0.29500911 -0.17728496
0.45299405 -0.27438861 -0.17206085
-0.58380425 -0.25277296 -0.17674053
0.47486186 -0.25368831 -0.16683125
-0.6288662 -0.23249531 -0.16647017
-0.58474839 -0.23194037 -0.17302394
-0.6288662 -0.21126871 -0.16647017
-0.58569515 -0.21105111 -0.16929722
-0.62886226 -0.19004133 -0.16648459
-0.58664441 -0.19010541 -0.16556036
-0.62886226 -0.16881502 -0.16648459
-0.5875963 -0.16910277 -0.16181326
-0.62886226 -0.14758867 -0.16648471
-0.62886226 -0.1263624 -0.16648471
-0.62885845 -0.10513544 -0.16649926
-0.60548091 -0.10481916 -0.1747185
0.55859518 -0.10484616 -0.17401505
-0.62885845 -0.083909228 -0.16649914
-0.60645509 -0.08377073 -0.17099631
0.55975187 -0.08389809 -0.16685998
-0.62885845 -0.062683009 -0.16649914
-0.60743201 -0.062665284 -0.1672641
-0.62885845 -0.041456748 -0.16649902
-0.60841143 -0.041502632 -0.16352165
-0.62885845 -0.020230532 -0.16649902
-0.62885451 0.00099572842 -0.16651356
-0.62885451 0.022221804 -0.16651356
0.53691459 0.022138454 -0.17734241
-0.62885451 0.043447923 -0.16651356
0.53801346 0.043391049 -0.17020452
-0.62885451 0.064673953 -0.16651356
0.53911817 0.064754397 -0.16302967
-0.62920094 0.08593969 -0.16522789
-0.62885451 0.14957848 -0.16651356
-0.62885451 0.1708046 -0.16651344
0.51633203 0.1703736 -0.17351222
-0.62885451 0.19203064 -0.16651356
-0.5838443 0.19133312 -0.17658293
0.51737893 0.19204177 -0.16635466
-0.56324697 0.21265395 -0.17434537
-0.54261601 0.23400964 -0.17210388
-0.52195132 0.25540003 -0.16985893
-0.50125301 0.27682537 -0.16761029
0.49559215 0.27654707 -0.17039168
-0.48052081 0.29828572 -0.16535795
-0.45975468 0.3197813 -0.16310203
0.43248454 0.31942081 -0.16622472
0.36918429 0.3624225 -0.16205943
-0.39342222 0.40275192 -0.17704141
-0.37267318 0.42424148 -0.17480469
-0.26700896 0.44557554 -0.17374218
-0.24712488 0.44716462 -0.16391218
-0.076520517 0.46685797 -0.1730814
-0.055949718 0.46852097 -0.16326129
-0.24845675 -0.46814302 -0.15373504
0.30551052 -0.44572338 -0.16050899
-0.31263444 -0.42569816 -0.1524086
0.32718995 -0.42526525 -0.15522063
0.34895253 -0.40472868 -0.149912
-0.37687621 -0.38321477 -0.15106595
-0.41766807 -0.36057904 -0.16092944
-0.44118032 -0.34069034 -0.1497221
-0.48175982 -0.3181932 -0.15960956
-0.50554335 -0.29812291 -0.1483916
-0.54591632 -0.27576837 -0.15827394
-0.56860769 -0.25500458 -0.15258336
-0.56953943 -0.23399138 -0.14880121
0.49681294 -0.23290922 -0.16158164
0.51884776 -0.2120508 -0.15631175
0.54096681 -0.19111253 -0.15102208
-0.58855081 -0.14804283 -0.15805614
-0.58950412 -0.12692498 -0.15430331
-0.59046376 -0.10575031 -0.15052557
-0.59142601 -0.08451768 -0.14673758
0.56091225 -0.062840492 -0.15968204
0.56208098 -0.041673072 -0.15245211
-0.6093899 -0.020282265 -0.15978372
-0.65445876 0.00099572842 -0.15071547
-0.61037469 0.00099572842 -0.15602112
-0.65445876 0.022343412 -0.15071547
-0.61136222 0.022331625 -0.15224791
-0.65445876 0.043691184 -0.15071547
-0.61235237 0.043725796 -0.14846468
-0.65445471 0.065038584 -0.15073013
-0.65445471 0.086386174 -0.15073013
0.54022861 0.086229444 -0.15581715
-0.65445471 0.10773376 -0.15073013
-0.63020682 0.10731946 -0.16149461
0.54134482 0.10781706 -0.1485672
-0.65445471 0.12908135 -0.15073001
-0.63050747 0.1286357 -0.16037846
-0.65445471 0.15042908 -0.15073013
-0.6098268 0.15003115 -0.15811431
-0.58911216 0.17146148 -0.15584636
-0.56836343 0.19292717 -0.15357482
-0.54758072 0.21442787 -0.15129948
0.51843125 0.21382298 -0.15915954
-0.52676046 0.23596308 -0.14903498
0.51948911 0.23571803 -0.15192711
-0.50590944 0.25753447 -0.14675224
-0.43895456 0.34131208 -0.1608423
-0.41811755 0.36287618 -0.15859365
-0.39724937 0.38447741 -0.15632641
-0.37634689 0.40611395 -0.1540556
0.30569252 0.40555432 -0.15788174
-0.35541007 0.42778629 -0.1517812
-0.22709635 0.44876283 -0.15402663
0.2420084 0.44881696 -0.15369129
0.178131 0.49221066 -0.14948833
-0.20695266 -0.49122292 -0.14382029
-0.16467193 -0.49214447 -0.13861513
-0.22975102 -0.47174373 -0.13247335
-0.27134225 -0.44863972 -0.14246917
-0.2944147 -0.42897713 -0.1311115
-0.33579209 -0.40601292 -0.14113176
0.37079734 -0.38411111 -0.14459777
-0.40030667 -0.36334702 -0.13977826
0.39272749 -0.36341631 -0.13924849
0.41474065 -0.34263986 -0.13389313
-0.46488401 -0.32063958 -0.13842344
-0.52952087 -0.27788913 -0.13708222
-0.57047367 -0.21292093 -0.14500844
-0.57141054 -0.19179276 -0.14120543
-0.57234991 -0.17060667 -0.13739192
0.563173 -0.17009513 -0.14569747
-0.57328832 -0.1493617 -0.13358271
0.58546209 -0.14899608 -0.14036691
0.58646089 -0.12784114 -0.13446927
-0.59239089 -0.063227065 -0.14293933
-0.59335852 -0.041878168 -0.13913047
-0.59432495 -0.020470474 -0.13532615
0.56325591 -0.020394608 -0.1451844
-0.59529781 0.00099568162 -0.13149643
0.56443465 0.00099572842 -0.13789308
0.56562197 0.022498738 -0.13054848
-0.61334527 0.065178432 -0.14467108
-0.61433709 0.086689398 -0.1408819
-0.61533546 0.10825967 -0.13706744
-0.61532378 0.1297103 -0.13711178
0.54246461 0.12951717 -0.14129341
-0.59445632 0.15128689 -0.13480926
0.54359269 0.15133224 -0.13396704
-0.57355428 0.17289905 -0.13250291
0.52055037 0.25772682 -0.14467108
-0.48502401 0.27914152 -0.1444658
-0.46410421 0.30078432 -0.14217544
0.47895196 0.3014954 -0.13557708
-0.44314989 0.32246259 -0.13988137
-0.42216095 0.34417674 -0.13758349
0.41501808 0.34494844 -0.13131869
-0.40113738 0.36592671 -0.1352818
-0.38007903 0.38771278 -0.13297641
-0.35898587 0.40953493 -0.13066685
-0.20692554 0.45037478 -0.14405501
-0.18660897 0.45199829 -0.13401127
-0.18785977 -0.49501449 -0.12240541
0.005997777 -0.47447577 -0.11634159
-0.25273624 -0.45210496 -0.12103355
-0.31767404 -0.40915114 -0.1196754
-0.35913897 -0.38616669 -0.12976313
-0.38267741 -0.36615768 -0.11830091
-0.42392865 -0.34331676 -0.12839842
-0.44774452 -0.32312196 -0.11692512
0.43684036 -0.32178521 -0.12850225
-0.48878166 -0.30042478 -0.12703264
0.45902377 -0.30084816 -0.12310553
-0.51287544 -0.28004411 -0.11554801
0.48129302 -0.27983001 -0.11768806
-0.55314493 -0.25727695 -0.12798297
-0.5540601 -0.23607902 -0.12414801
-0.55498135 -0.21482401 -0.12028742
-0.5559051 -0.19351013 -0.11641645
-0.57423282 -0.12805915 -0.12974811
-0.57517993 -0.10669805 -0.12590313
0.58770525 -0.10665109 -0.12712169
-0.57612967 -0.085277967 -0.12204754
0.58895874 -0.085349619 -0.11972022
-0.57708216 -0.063798897 -0.11818135
-0.5962733 0.022520911 -0.12765622
-0.59725165 0.044105399 -0.12380552
0.5668155 0.044115219 -0.12316513
-0.59823251 0.065749526 -0.11994421
0.56801295 0.065846153 -0.11575758
-0.59921229 0.087452814 -0.11608708
0.54472661 0.17326248 -0.1266017
-0.55261755 0.19454701 -0.13019288
0.54586661 0.19530892 -0.11919749
-0.53164625 0.21623085 -0.1278789
-0.51064014 0.23795065 -0.12556124
-0.48959914 0.25970653 -0.12323964
-0.46852329 0.28149846 -0.12091422
-0.44741228 0.30332652 -0.11858487
-0.42626628 0.32519108 -0.11625159
0.35088992 0.38853633 -0.12703264
-0.33785531 0.43139073 -0.12836874
0.28656363 0.4322561 -0.12274826
-0.16614354 0.45363125 -0.12390971
0.22203943 0.47610736 -0.11846542
-0.21075594 -0.47540018 -0.11088264
0.30893102 -0.47535703 -0.11113822
-0.23384124 -0.45562401 -0.099264979
0.33100522 -0.45459035 -0.10565901
-0.27591065 -0.43230441 -0.10949969
0.35316426 -0.43374032 -0.10017359
-0.34112951 -0.3891663 -0.1081152
-0.40640971 -0.34598386 -0.10674441
-0.47175667 -0.30276081 -0.10535741
-0.5371716 -0.25949666 -0.10395372
0.50364864 -0.25873032 -0.11224937
-0.53830338 -0.23820408 -0.099052787
0.52609318 -0.23755017 -0.10677457
0.54862303 -0.21628609 -0.10129368
-0.55683148 -0.17213748 -0.11253464
-0.55775678 -0.15070476 -0.10865712
-0.55868828 -0.12921359 -0.10475373
-0.55962241 -0.10766268 -0.10083961
0.5902189 -0.063935146 -0.11227953
-0.57803714 -0.042260386 -0.1143043
0.59148318 -0.042406503 -0.10481405
-0.57899106 -0.020662148 -0.11043203
-0.57995141 0.00099572842 -0.10653365
-0.58091438 0.022713564 -0.1026243
0.56921923 0.087692752 -0.1082958
-0.60019863 0.10921662 -0.11220431
0.57043195 0.10965582 -0.10079432
-0.59988618 0.13080382 -0.11343479
-0.57882822 0.15256488 -0.11109316
-0.55773532 0.17436212 -0.10874748
-0.53660715 0.19619574 -0.10639775
-0.51544023 0.21806461 -0.10405934
0.54701257 0.21747218 -0.11175406
-0.49424151 0.23997103 -0.10170209
0.54816467 0.23975353 -0.10427082
-0.47300723 0.26191425 -0.099340677
0.52646381 0.28316715 -0.10424054
0.46188557 0.32708269 -0.099870801
-0.40508226 0.34709013 -0.11392963
-0.3838658 0.36902738 -0.11158884
-0.36261401 0.39100128 -0.10924387
-0.34132668 0.41301176 -0.10689521
-0.3200039 0.43505892 -0.10454249
-0.14553076 0.45527875 -0.11371982
-0.12476744 0.45693794 -0.10345531
0.15731782 0.52009583 -0.11415446
-0.19146472 -0.47911379 -0.088955402
-0.016743556 -0.47861549 -0.091897845
-0.25711802 -0.43568373 -0.087550879
-0.29927659 -0.41234037 -0.09787035
0.37541115 -0.41281113 -0.094651699
-0.32283643 -0.39221063 -0.086144686
0.39774525 -0.39179993 -0.08910799
-0.36477402 -0.36901203 -0.096489668
0.42016536 -0.37070429 -0.083557963
-0.38861731 -0.34869248 -0.08475244
-0.43033835 -0.32564297 -0.095092416
-0.45446584 -0.30513334 -0.083343625
-0.4959676 -0.28223115 -0.093693733
-0.53921092 -0.21676116 -0.095122695
-0.54012108 -0.19525848 -0.091181874
0.57124072 -0.19493912 -0.095791221
-0.54103017 -0.17369485 -0.087245226
0.59394675 -0.17350878 -0.09026742
-0.54194534 -0.15207219 -0.083282113
0.6167444 -0.1519953 -0.084706426
0.61647892 -0.13007027 -0.08620584
-0.56055903 -0.086051904 -0.096914649
-0.56149828 -0.064380929 -0.092978597
-0.56243658 -0.042649299 -0.089046955
-0.56338108 -0.020857185 -0.085089207
0.59275675 -0.020763315 -0.097293973
0.59403718 0.00099563482 -0.089733601
-0.58188009 0.044491876 -0.098704219
-0.58284461 0.066330433 -0.094788551
-0.58381569 0.088230073 -0.090846539
-0.5847894 0.11019075 -0.086893678
-0.58418 0.13191564 -0.08936739
0.5716511 0.13173613 -0.09325254
-0.56292856 0.15386403 -0.08698535
0.57287681 0.15393479 -0.085670471
-0.54164124 0.17584921 -0.084599376
0.54932296 0.26215369 -0.096747637
-0.45173743 0.28389403 -0.096975327
-0.43043199 0.30591089 -0.094605923
-0.40909079 0.32796457 -0.092232704
-0.38771376 0.3500554 -0.089855671
-0.36630082 0.37218323 -0.087474346
0.39710534 0.37113252 -0.095502615
-0.34485185 0.3943482 -0.085089207
0.33212435 0.41531894 -0.091120839
-0.29986966 0.43671045 -0.093815327
-0.27952647 0.43831348 -0.083404779
-0.10385182 0.45860943 -0.093115687
0.26694173 0.45964253 -0.086725593
-0.21465042 -0.45919824 -0.077155352
-0.28058866 -0.41557735 -0.075739145
-0.34659258 -0.37191311 -0.074321151
0.44267523 -0.34952775 -0.077970862
-0.41265938 -0.32820359 -0.072917223
0.46527192 -0.32826599 -0.072376966
-0.4787977 -0.28445414 -0.071481228
-0.52038312 -0.26153228 -0.081918001
-0.5222615 -0.24036743 -0.073503733
-0.52315485 -0.2187334 -0.069502234
-0.54286313 -0.13038887 -0.079308271
-0.54378355 -0.1086449 -0.075322986
0.61782813 -0.10851917 -0.078585863
-0.54470634 -0.08683978 -0.071326613
0.61918449 -0.086852171 -0.070924878
-0.56432819 0.00099572842 -0.081120133
-0.56527793 0.022909775 -0.077140093
0.59532177 0.022871327 -0.082147956
-0.56623042 0.044885416 -0.073148847
0.59661603 0.044864509 -0.074506283
-0.56718194 0.06692224 -0.069161773
0.57410908 0.17625271 -0.078047752
-0.52031815 0.19787154 -0.082209349
0.57534802 0.1986907 -0.070383787
-0.49895903 0.21993095 -0.079815149
-0.47756401 0.24202749 -0.077417016
-0.4561328 0.26416129 -0.07501483
-0.43466541 0.28633258 -0.072608471
-0.41316172 0.3085413 -0.070198178
0.50981849 0.30880836 -0.067721963
-0.39161888 0.33078596 -0.06779933
-0.32336444 0.41654849 -0.082715154
-0.25903302 0.43992814 -0.072917342
-0.08278127 0.46029085 -0.082715154
-0.06155625 0.46198699 -0.07222259
0.20155606 0.50410098 -0.082331896
-0.17187193 -0.48288831 -0.066668272
-0.039879382 -0.48281208 -0.067117691
-0.19515848 -0.46283126 -0.05468154
-0.23802996 -0.43911606 -0.065256834
-0.26160574 -0.41886541 -0.0532583
-0.30425563 -0.39530274 -0.063828468
-0.37054753 -0.35144585 -0.062398672
-0.43690273 -0.30754316 -0.060983062
0.48795965 -0.30692214 -0.066745639
0.51073503 -0.28549218 -0.061107635
-0.50333369 -0.26360139 -0.059519291
0.53360045 -0.26397753 -0.055447221
-0.52405071 -0.19703853 -0.065489531
-0.5249455 -0.1752816 -0.061480999
-0.52584636 -0.15346441 -0.057445765
-0.52674973 -0.13158554 -0.053399086
-0.54562843 -0.064973116 -0.067334533
0.62054551 -0.065067828 -0.063238025
-0.54655647 -0.043045409 -0.063315868
0.62191653 -0.043165803 -0.055494189
-0.54748714 -0.021055873 -0.05928576
-0.54842055 0.00099563482 -0.055244207
0.59791714 0.066976264 -0.066823006
-0.56813967 0.089021459 -0.065148115
0.59922266 0.089207187 -0.059114218
-0.56910026 0.11118274 -0.061123133
-0.56820273 0.13304631 -0.064884305
-0.54675746 0.15518633 -0.062445521
-0.52527213 0.17736308 -0.060017824
-0.50374699 0.19957638 -0.05760181
-0.48218879 0.22182845 -0.055166006
0.57659113 0.22124879 -0.062694073
-0.46059379 0.24411817 -0.05272615
0.57784349 0.24393015 -0.054947138
-0.37004247 0.35306984 -0.065380931
0.44437641 0.35333365 -0.063238025
-0.34842947 0.37539145 -0.062958241
-0.32677978 0.39775106 -0.060531735
0.37872708 0.39799699 -0.058755755
-0.30509338 0.42014846 -0.058101058
-0.2383858 0.44155234 -0.062367678
0.31287062 0.44279823 -0.054274917
-0.040173888 0.46369576 -0.061652184
-0.1519672 -0.48671997 -0.044043422
-0.06342265 -0.48708022 -0.041915894
0.35753113 -0.4638139 -0.048603296
-0.21864125 -0.44260535 -0.042593837
0.3801924 -0.44255915 -0.04289341
0.4029454 -0.42122218 -0.037144899
-0.28538027 -0.39844412 -0.041158438
-0.32812133 -0.37485799 -0.051818013
-0.35218841 -0.3542408 -0.039705992
-0.39470372 -0.33080646 -0.050376058
-0.41906384 -0.30999294 -0.038252115
-0.46135303 -0.28671065 -0.048932791
-0.48601004 -0.26570195 -0.036780715
-0.50592697 -0.24257039 -0.047488332
0.55655646 -0.24237764 -0.049764514
-0.5068053 -0.22074175 -0.043413281
0.57960618 -0.22069325 -0.044043422
-0.50768268 -0.19885002 -0.039342761
0.60274518 -0.19892116 -0.038315415
0.64755702 -0.1323787 -0.036226749
-0.52765572 -0.10964488 -0.049340844
-0.52856421 -0.087642059 -0.045271277
-0.52947176 -0.065576471 -0.041205883
-0.53038538 -0.043448772 -0.03711319
0.62329507 -0.021145023 -0.047708154
0.62467837 0.00099568162 -0.039895654
-0.54935646 0.023109537 -0.051191211
-0.55029511 0.045285974 -0.04712677
-0.55123281 0.067524806 -0.043066621
-0.55217671 0.089827202 -0.038979292
0.60053802 0.11155897 -0.051347852
-0.55195045 0.13419756 -0.039958715
0.6018604 0.13403237 -0.043539286
-0.53030074 0.15653083 -0.037492871
-0.43896213 0.26644605 -0.050282121
0.57910264 0.26673466 -0.04715836
-0.41729358 0.28881189 -0.04783392
-0.39558813 0.31121591 -0.045381427
-0.37384552 0.33365816 -0.042924881
-0.35206586 0.3561388 -0.040464044
-0.33024892 0.37865788 -0.037999034
-0.21758699 0.44319093 -0.051723957
-0.19663289 0.44484198 -0.041000605
-0.018631682 0.4654147 -0.051018834
0.24680857 0.48774233 -0.049764395
-0.13174471 -0.49061272 -0.021057487
-0.17535475 -0.46651965 -0.031865716
-0.24232271 -0.42220813 -0.030403972
0.42578942 -0.39979997 -0.031373382
-0.30935609 -0.37784982 -0.028956413
0.44872311 -0.3782897 -0.025594711
-0.37645924 -0.33344883 -0.027491689
-0.44363037 -0.2890031 -0.026025295
-0.4892914 -0.24481399 -0.020993352
-0.5085659 -0.17689733 -0.035244823
0.62597632 -0.17706241 -0.032564402
-0.50945175 -0.15488212 -0.031135082
0.64930034 -0.15511622 -0.0267905
-0.51034009 -0.13280427 -0.027013659
-0.51123095 -0.11066334 -0.022880435
0.64901197 -0.11045277 -0.028351545
-0.53130174 -0.021258164 -0.033008814
-0.5322206 0.00099568162 -0.028892756
-0.53314209 0.023312949 -0.024765015
0.62607193 0.023257058 -0.032024622
-0.53406262 0.045693733 -0.020641446
0.62747312 0.045640364 -0.024110556
-0.55312335 0.11219278 -0.034880161
0.60319006 0.15662807 -0.035688281
-0.69018662 0.17971703 -0.021793485
-0.50861371 0.17890237 -0.035022855
0.60452694 0.17934752 -0.027794242
-0.69052815 0.20214252 -0.020561457
-0.48688969 0.20131205 -0.032548666
-0.66799307 0.22443926 -0.021249294
-0.46512839 0.22376023 -0.030069947
-0.44332978 0.2462469 -0.027587175
-0.42149368 0.26877233 -0.025100112
-0.39961722 0.29133469 -0.02262485
0.5588578 0.29011461 -0.034816861
0.49273637 0.33512226 -0.030244827
0.42640531 0.38027275 -0.025658607
-0.30839464 0.40121543 -0.035529852
-0.28650075 0.4238092 -0.033072352
0.35986367 0.42556652 -0.021057606
-0.17552015 0.44650275 -0.030213118
-0.087386176 -0.49142703 -0.01624918
-0.15523353 -0.47026715 -0.0086842775
-0.19894093 -0.44614777 -0.019584775
-0.22272831 -0.42560214 -0.0071989298
-0.26620543 -0.40163776 -0.018110394
-0.29029191 -0.38089183 -0.0057117939
-0.33353573 -0.35708052 -0.016650558
0.47175059 -0.35669541 -0.019776821
0.49486858 -0.33501241 -0.013951659
0.51808178 -0.31324387 -0.0080871582
-0.40093657 -0.31248024 -0.015173316
-0.46841237 -0.26783755 -0.013662219
-0.490154 -0.22278719 -0.016843081
-0.4910191 -0.20069714 -0.012681007
-0.49188337 -0.17854291 -0.0085229874
-0.51212096 -0.088458657 -0.018751502
0.65047789 -0.088407345 -0.020417452
-0.51301694 -0.066191062 -0.014594793
0.65195167 -0.066240922 -0.012439489
-0.51391542 -0.04385962 -0.010426164
-0.51481664 -0.021464102 -0.0062453747
-0.53498936 0.068138644 -0.016490102
0.62887919 0.06814608 -0.016168952
-0.53591883 0.090647772 -0.012326956
0.63029587 0.090775877 -0.0081677437
-0.53685093 0.11322163 -0.0081515312
-0.71594822 0.13559152 -0.0097812414
-0.53540885 0.13536847 -0.014610887
-0.71449935 0.15775013 -0.014867902
-0.51355433 0.15789914 -0.012101412
-0.71612287 0.18049447 -0.0091682673
-0.49166206 0.18046877 -0.0095876455
-0.4697319 0.20307732 -0.0070695877
0.6058712 0.20219131 -0.019857049
-0.69144285 0.22474632 -0.017260194
0.6072228 0.22516091 -0.011875987
-0.67007196 0.24743688 -0.013533592
-0.37770614 0.31393746 -0.020129085
-0.35575724 0.33657902 -0.017629266
-0.3337706 0.35925967 -0.015125036
-0.311746 0.38197947 -0.012616634
-0.28968337 0.40473863 -0.010103703
-0.26758263 0.42753673 -0.0075864792
-0.15425029 0.44817871 -0.019328356
-0.13281979 0.44986704 -0.0083613396
0.29310942 0.4710018 -0.016457796
0.2261439 0.5165841 -0.011827707
-0.1111968 -0.49456814 0.0022981167
0.38515335 -0.47341865 0.010810494
-0.17892346 -0.44974732 0.0037950277
-0.24671945 -0.40488061 0.0052930117
-0.31458482 -0.35996792 0.0067926645
-0.35792181 -0.33613378 -0.0042396784
-0.38251698 -0.31500751 0.0082776546
-0.42562601 -0.29133391 -0.0027335882
0.54138869 -0.29138747 -0.0021988153
-0.45052746 -0.27000597 0.0098130703
0.56478739 -0.26944104 0.0036972761
-0.47234651 -0.24709915 0.0059939623
0.5882808 -0.24740598 0.0096170902
-0.47319272 -0.22487061 0.010221839
-0.49275342 -0.1563262 -0.0043367147
-0.49362603 -0.13404557 -0.00013852119
-0.49450108 -0.11170065 0.0040715933
-0.49537531 -0.089291014 0.0082777739
0.6534338 -0.043952134 -0.0044177771
0.65492094 -0.021540198 0.0036321878
-0.51572025 0.00099558802 -0.002052784
-0.5166266 0.023520149 0.0021518469
-0.51753199 0.046109445 0.0063525438
-0.51844358 0.068763748 0.010581374
-0.71743441 0.1133597 -0.0045633316
0.6317203 0.11353065 -0.00012242794
0.63315272 0.13641125 0.0079674721
-0.71920824 0.20368241 0.0016642809
-0.44776383 0.22572489 -0.0045472383
-0.69762993 0.24901202 0.0050649643
-0.42575774 0.24841185 -0.002020359
0.60858184 0.24825694 -0.0038510561
-0.40371349 0.2711381 0.0005106926
0.60994565 0.27147913 0.0042020082
-0.38163108 0.29390383 0.0030463934
-0.3595103 0.31670886 0.0055863857
0.54222488 0.31648591 0.0035182238
-0.33735105 0.33955351 0.0081307888
-0.31515336 0.36243796 0.010679603
0.47519997 0.3621363 0.0082286596
-0.11122686 0.45156831 0.0026886463
-0.13478714 -0.47407514 0.014871836
0.40834144 -0.45174575 0.01677537
-0.20281708 -0.42905113 0.016381383
0.43162221 -0.42998236 0.022748351
-0.27091697 -0.38398072 0.01789248
-0.33908436 -0.33886227 0.019388676
-0.40732691 -0.29370099 0.020919323
0.61186945 -0.2252816 0.015560746
0.6355567 -0.20306839 0.021545172
-0.47404143 -0.20257771 0.014461875
-0.47488925 -0.18021932 0.018697977
-0.47574279 -0.15779725 0.022962689
0.67974627 -0.13476917 0.015528083
0.68131983 -0.11245645 0.023704886
-0.49625543 -0.06681715 0.012512207
-0.49713805 -0.044278137 0.016759038
-0.49802336 -0.021674015 0.021018028
0.65641952 0.00099563482 0.011742949
-0.49891111 0.00099572842 0.025289416
0.65792322 0.023656726 0.019882202
-0.72192514 0.091372363 0.011203051
-0.51935768 0.091483772 0.014822721
-0.52027452 0.11426961 0.019076228
-0.51857388 0.13655998 0.011186481
-0.49651417 0.15929258 0.01375711
0.63459003 0.15941797 0.016085982
-0.47441247 0.18206397 0.016315818
0.63603842 0.18255356 0.024265885
-0.45227215 0.2048751 0.018878937
-0.72232127 0.22704457 0.012593985
-0.43009326 0.22772594 0.021446466
-0.40787563 0.25061679 0.024018288
-0.67810547 0.27259505 0.016282797
-0.38561633 0.27354607 0.026578307
-0.29291695 0.38536239 0.013232946
-0.27063975 0.40832427 0.015774131
0.4079574 0.40793121 0.012938023
-0.24832594 0.43132833 0.018336177
-0.089468464 0.45328003 0.013806224
-0.067545176 0.45500728 0.025025249
0.34049723 0.45387125 0.017645955
0.27282131 0.49996141 0.022385597
-0.1140089 -0.47794786 0.038828373
-0.15858111 -0.45340526 0.027553916
-0.18258131 -0.43255618 0.040346026
-0.22691706 -0.40817606 0.029076576
0.45499966 -0.40813249 0.028761864
-0.25122601 -0.38712013 0.0418818
0.47847274 -0.38619342 0.034800291
-0.29532355 -0.36290029 0.030600667
0.50203979 -0.36416233 0.040846825
-0.3638007 -0.31757775 0.032126427
-0.43235472 -0.2722114 0.033686996
-0.45508364 -0.24942733 0.033487678
-0.45591268 -0.22699326 0.037795424
-0.4567441 -0.20449363 0.042115688
0.65933752 -0.18076371 0.027537465
0.68321538 -0.15836796 0.033554077
-0.47659883 -0.13531014 0.027239919
-0.4774541 -0.11275695 0.031512737
-0.47831509 -0.090138897 0.035814643
0.68290234 -0.090019204 0.031927347
-0.47917864 -0.067454889 0.040129185
0.68449032 -0.067456059 0.040179133
-0.49979803 0.023731045 0.02955687
-0.50069106 0.046532683 0.033853173
0.65943837 0.046443865 0.028083444
-0.72846639 0.069308557 0.03416872
-0.50158668 0.069400743 0.038161874
0.6609621 0.069358461 0.036330342
-0.75049913 0.13750482 0.031645417
-0.50144124 0.13777362 0.037462234
-0.74954426 0.16008069 0.028381348
-0.47916529 0.16071001 0.040062308
-0.74915242 0.18272448 0.027041316
-0.75239563 0.20620875 0.038128614
0.6374948 0.20581825 0.032491565
0.63895929 0.22921301 0.040763259
-0.72881198 0.25157905 0.035382152
-0.70431638 0.27378765 0.029192328
-0.36332104 0.29651698 0.029159427
0.59288454 0.29741111 0.038095355
-0.3409867 0.31952798 0.031744719
-0.31861323 0.34257928 0.034335017
-0.29620048 0.36567128 0.036929607
-0.2737484 0.38880354 0.039528608
-0.25125685 0.41197661 0.042132497
-0.045453787 0.45674792 0.036330342
-0.13790727 -0.4571256 0.051718593
-0.20679042 -0.41152567 0.053249359
-0.27574673 -0.36588073 0.054798603
-0.31994194 -0.34163696 0.043419242
0.52570581 -0.34204292 0.046934605
-0.34477484 -0.32018837 0.056349516
0.54946667 -0.31983072 0.053030729
-0.38873193 -0.29610831 0.044975042
-0.4138808 -0.27445138 0.057935715
-0.45757475 -0.18192734 0.046432018
-0.45841107 -0.1592961 0.050777435
-0.45924982 -0.13659857 0.055135608
-0.48004469 -0.04470465 0.044456244
0.68609059 -0.04476681 0.048493862
-0.48091331 -0.021887857 0.048795938
0.68769968 -0.021950018 0.056855559
-0.48178443 0.00099568162 0.053148389
-0.48265472 0.023946337 0.057496786
-0.5024848 0.092335545 0.042483211
0.6624912 0.092400976 0.044606924
-0.75375259 0.11518152 0.042767406
-0.50338554 0.11533736 0.046817183
0.66403186 0.11557319 0.052946568
-0.4568502 0.18368675 0.04266715
-0.4344959 0.20670389 0.045276403
-0.75566828 0.22987147 0.049316168
-0.41210219 0.22976151 0.047890186
-0.38966903 0.25285989 0.05050838
0.64043212 0.25273907 0.049081206
-0.36719635 0.27599913 0.05313158
-0.34468395 0.29917896 0.05575943
0.5251469 0.3435685 0.042901039
0.45718905 0.38987595 0.04772234
-0.22872579 0.43519032 0.044740677
0.38900995 0.43633389 0.052559495
-0.023191571 0.4584991 0.04770565
0.32060736 0.48294085 0.057395577
-0.092887938 -0.48188159 0.06316185
0.41394287 -0.48343134 0.072748542
-0.16201448 -0.43612134 0.064721465
-0.23121127 -0.39031112 0.066265702
-0.30048198 -0.34445554 0.067828536
-0.36982784 -0.29855371 0.069409966
0.57332784 -0.29752874 0.059168696
0.59728491 -0.27513316 0.065315127
-0.43749371 -0.25179955 0.061502457
0.62134373 -0.25264639 0.071504116
-0.43830469 -0.22915611 0.06589222
-0.43911812 -0.20644595 0.070294976
0.71311378 -0.13724768 0.069188833
-0.46008775 -0.11383374 0.059489846
-0.46093139 -0.091002874 0.063873649
-0.4617776 -0.068104744 0.068270564
-0.46262625 -0.045139164 0.072680116
0.68931472 0.00099568162 0.065247416
0.69094217 0.024070986 0.073703527
-0.48353103 0.046964206 0.061874866
-0.48440978 0.070049845 0.066265702
-0.76062143 0.093067341 0.066248655
-0.48529121 0.093203537 0.070669651
-0.48399553 0.13900831 0.064195871
0.66558135 0.13887618 0.061333299
-0.78565216 0.16248249 0.072953105
-0.46150288 0.16215311 0.066843152
0.66713965 0.16231073 0.069767356
-0.78465998 0.1853483 0.069648147
-0.43897352 0.18534006 0.06951201
-0.41640082 0.2085671 0.072168827
-0.76064134 0.25419849 0.066316485
-0.73582768 0.27663472 0.06001389
0.64475226 0.27787876 0.073481917
-0.32213178 0.32239982 0.058391571
-0.29953974 0.34566167 0.061028838
-0.27690771 0.36896482 0.063670158
-0.25423351 0.39230701 0.066299677
-0.23152131 0.41569257 0.068950653
-0.20734826 0.43719193 0.058425426
-0.18554601 0.43888062 0.069971442
-0.00075826794 0.46026668 0.059185624
0.25198218 0.52969939 0.062247157
-0.071417138 -0.4858804 0.087898493
0.021277651 -0.48610893 0.089311481
-0.11689077 -0.46090487 0.076265216
0.43767929 -0.4613184 0.078950882
0.46151617 -0.43911615 0.085196495
-0.1863333 -0.41493282 0.07783854
-0.25584659 -0.3689104 0.079396367
-0.3254371 -0.32284391 0.080989957
-0.39510146 -0.27672848 0.082585335
0.64549935 -0.23006517 0.077701688
0.66975522 -0.20739017 0.083924651
-0.43993077 -0.18366778 0.074693441
-0.44074902 -0.16082349 0.079122066
-0.44156644 -0.13791077 0.083546758
-0.44238952 -0.11493116 0.088001728
0.71480739 -0.1145328 0.077650309
0.71651399 -0.091689624 0.086176991
-0.4634774 -0.022105768 0.0771029
-0.46432778 0.00099577522 0.08152163
-0.46518394 0.02416537 0.085970521
0.69257879 0.047277156 0.082207799
-0.48617527 0.11642538 0.075086236
-0.78665674 0.13956748 0.076299429
0.66870666 0.18587808 0.078249097
-0.78642595 0.20879997 0.07553041
0.67027938 0.20957822 0.086761951
-0.78987026 0.23277256 0.087002993
-0.39378807 0.23183553 0.074830174
-0.37113231 0.25514382 0.077479243
-0.34843916 0.27849481 0.080150127
-0.32570556 0.30188769 0.08282578
-0.30293146 0.32532197 0.085506082
0.5762918 0.32455823 0.078420401
-0.28011668 0.34879827 0.088191271
0.50760317 0.37138954 0.08335793
0.43868628 0.41837311 0.088294625
-0.16357592 0.4405852 0.081624389
-0.095524684 -0.46474689 0.10122013
-0.14110515 -0.43974319 0.089483976
-0.16553381 -0.41839433 0.10281968
0.48545027 -0.41681901 0.09145093
-0.21086654 -0.39355731 0.091071129
0.50948638 -0.39443123 0.097748637
-0.23561707 -0.37199256 0.10442078
0.53362066 -0.37194753 0.10405517
-0.28069922 -0.34732088 0.092642665
-0.35061273 -0.30104122 0.094267726
-0.41957036 -0.25421849 0.090070128
-0.42035952 -0.23136042 0.094527125
-0.42115399 -0.20843573 0.099014759
-0.42194787 -0.18544172 0.10349822
0.69411516 -0.18462221 0.090191007
0.71857333 -0.1617581 0.096466303
-0.44321498 -0.091883406 0.092469811
-0.44404295 -0.068767175 0.096951246
0.71823025 -0.068716332 0.094752192
-0.4448733 -0.045582142 0.10144603
0.7199564 -0.045611795 0.10337639
-0.46604267 0.047403861 0.090432525
-0.46690395 0.070711344 0.09490788
0.69422138 0.070615083 0.090743065
-0.4677678 0.094087951 0.099396467
0.69587672 0.094086453 0.099344492
-0.79346609 0.11734515 0.09897995
-0.46863088 0.11753383 0.103881
-0.46623531 0.14026639 0.091433525
-0.44352159 0.1636235 0.094129443
-0.42076722 0.18702222 0.09683001
-0.39797202 0.21046306 0.099535584
-0.37513602 0.23394588 0.10224569
0.67186427 0.23341428 0.09534049
-0.35225901 0.25747088 0.10496092
0.67345822 0.25738677 0.10396826
-0.7679987 0.27954042 0.091468215
-0.25726116 0.37231648 0.090881228
-0.23436478 0.39587647 0.093575954
-0.21142745 0.41947886 0.096275687
-0.1414341 0.4423027 0.09336853
0.36954424 0.46551344 0.093264937
0.30017263 0.51280683 0.098234177
-0.049587786 -0.48994604 0.11304796
-0.0029974952 -0.49064359 0.11736238
-0.11984642 -0.44342545 0.11466002
-0.19017971 -0.3968555 0.11627388
-0.26058555 -0.35023397 0.11787188
0.55785847 -0.34937194 0.1104058
-0.30577445 -0.32554185 0.10602391
0.5821954 -0.32669953 0.1167655
-0.33107316 -0.30356878 0.11952424
-0.37601182 -0.27904513 0.10766339
-0.40129772 -0.25668287 0.11917257
-0.42274711 -0.16238025 0.10801256
-0.42354569 -0.13924915 0.11252272
-0.4243497 -0.1160498 0.11706388
-0.44570628 -0.022327933 0.10595393
0.72168899 -0.022374615 0.11203253
-0.44653836 0.00099554134 0.11045814
0.72343493 0.00099572842 0.12075591
-0.44737622 0.024388894 0.11499333
-0.44821659 0.047851987 0.11954188
0.69754148 0.11769206 0.10799491
-0.44814512 0.14154688 0.11915493
0.69921255 0.14143233 0.11667764
-0.32934093 0.28103799 0.1076808
-0.30638167 0.30464765 0.1104058
0.6286732 0.30508557 0.11478281
-0.28338104 0.32829955 0.11313558
-0.26033902 0.35199437 0.11587036
0.55923843 0.35245273 0.11984098
-0.23725343 0.37572959 0.1185925
-0.11911722 0.44403145 0.1051873
-0.096626028 0.44577625 0.11711657
-0.073800161 -0.46865341 0.12659359
-0.14438525 -0.42191383 0.12821996
-0.21504566 -0.37512442 0.12984824
-0.2857815 -0.3282851 0.13147831
0.60663748 -0.30393353 0.12316942
-0.35659835 -0.28139898 0.13314557
0.63118267 -0.28107148 0.12960041
0.6558286 -0.25811136 0.13604093
-0.40206721 -0.2336074 0.12371612
-0.40284196 -0.21046405 0.12829089
-0.40361604 -0.18724997 0.13286161
0.74771869 -0.13981752 0.12482762
0.74954712 -0.11668722 0.13362479
-0.42515615 -0.092781007 0.12161875
-0.42596498 -0.069442332 0.12618732
-0.42677632 -0.046033539 0.13076961
-0.42758694 -0.022554077 0.1353476
0.725191 0.024500679 0.12952971
-0.44905946 0.071385518 0.12410414
-0.44990489 0.094989762 0.12868011
-0.45074961 0.11866418 0.13325202
-0.42520604 0.16512002 0.12190044
0.7008965 0.16531001 0.12542784
-0.40222552 0.18873574 0.12465107
0.70259011 0.18932557 0.13422859
-0.3792035 0.21239413 0.12740672
-0.35613981 0.23609529 0.13016713
-0.8042351 0.26000172 0.13485014
-0.33303434 0.25983945 0.13293266
-0.30988696 0.28362659 0.13570309
-0.75567806 0.3065792 0.12970662
-0.21412838 0.39950949 0.12133718
0.48957211 0.39997783 0.12491596
-0.19096154 0.42333251 0.12408662
-0.073956981 0.44753477 0.12914026
0.4196713 0.44765902 0.1299901
0.34953877 0.4955022 0.13509893
-0.027391613 -0.49408311 0.13863897
0.46828455 -0.47130445 0.14381266
-0.098229498 -0.44716993 0.14026058
0.49270245 -0.44864285 0.15033114
-0.16914406 -0.40020934 0.14190161
-0.24013466 -0.35319841 0.14354444
-0.31120634 -0.30614078 0.14522505
-0.38235596 -0.25903144 0.14690721
0.68058205 -0.23505533 0.14252639
0.70543706 -0.21190028 0.14902163
-0.40439549 -0.16396728 0.13746393
-0.40517423 -0.14061359 0.14206231
-0.40595838 -0.1171902 0.1466924
-0.40674487 -0.093695961 0.15133643
0.75138617 -0.093423143 0.14247286
0.75323224 -0.070023566 0.15135443
-0.42840311 0.00099554134 0.13995743
-0.42922172 0.024616677 0.1445812
-0.43004289 0.04830895 0.14921904
0.72695351 0.048141319 0.13833642
0.72872996 0.071919136 0.14721167
-0.42971924 0.14285101 0.14739084
-0.40655032 0.16664423 0.15018761
0.70429373 0.21348 0.14308
0.706007 0.23777474 0.15198302
0.68233907 0.28513545 0.15203714
-0.28669763 0.30745694 0.13847864
-0.26346615 0.33133063 0.14125919
-0.24019244 0.35524756 0.144045
-0.21687642 0.37920815 0.1468358
-0.19351792 0.40321237 0.1496315
-0.051107973 0.44930729 0.14125943
-0.051709101 -0.47262874 0.15241444
-0.076246306 -0.45098054 0.16631401
-0.1228787 -0.42549306 0.15405035
0.51722431 -0.42588478 0.15687752
0.54184836 -0.40302718 0.16343367
-0.19412586 -0.37830937 0.15570641
-0.26545197 -0.33107683 0.15738213
-0.33685836 -0.28379446 0.15907788
-0.38341767 -0.23589821 0.15347493
-0.38417172 -0.21253203 0.15813959
-0.38492519 -0.18909372 0.16280043
0.7303977 -0.1886469 0.1555444
-0.38568383 -0.16558546 0.16749322
0.75546837 -0.16529556 0.16211283
-0.40753374 -0.070130721 0.15599465
-0.40832505 -0.04649378 0.16066682
0.75509262 -0.046488259 0.16030562
-0.4091157 -0.022784993 0.1653353
-0.43086651 0.072072834 0.1538707
-0.43168941 0.095908463 0.15851855
0.7305131 0.095834747 0.15612078
-0.43251804 0.11981687 0.16319835
0.73231018 0.11989002 0.16509974
-0.38334209 0.19048198 0.15300751
-0.36008844 0.21436216 0.15581453
-0.33679238 0.2382862 0.15862668
-0.3134537 0.26225379 0.16144395
0.70773041 0.26221091 0.16093791
-0.29007235 0.28626519 0.16426647
-0.26664817 0.31032065 0.16709411
0.61214495 0.33305261 0.15723801
0.54170799 0.38112777 0.16242039
-0.17011684 0.42726016 0.15243232
0.47103575 0.42936733 0.16763854
-0.028076008 0.45109138 0.15345705
-0.0048607066 0.45289239 0.16577041
-0.029239982 -0.47666916 0.17865753
-0.10100628 -0.42913583 0.18034017
-0.14775079 -0.40362015 0.16796517
-0.17284876 -0.38154867 0.18200612
0.56658006 -0.38007432 0.17003596
-0.21933365 -0.35621122 0.16963613
0.59141499 -0.357021 0.17664838
0.61635923 -0.3338708 0.18330717
-0.29099873 -0.30875468 0.17134523
-0.36274299 -0.26124564 0.17305624
-0.38644186 -0.14200477 0.17218232
0.78363836 -0.1424855 0.18259239
-0.38720515 -0.1183531 0.17690384
-0.38797078 -0.094629161 0.18163991
0.75696397 -0.022815533 0.16930914
-0.40991172 0.00099563482 0.17003608
0.75884247 0.00099563482 0.17834687
-0.4107103 0.024848852 0.17475104
-0.41151121 0.048774801 0.17948043
-0.41095123 0.14418051 0.17617369
0.73411787 0.14408608 0.17413116
-0.38754776 0.16819805 0.17902327
0.73593605 0.16842395 0.1832155
-0.3641012 0.19225986 0.18187797
-0.24318102 0.3344202 0.169927
-0.2196689 0.35856178 0.17274666
-0.1961157 0.38274974 0.17559004
-0.17251918 0.40698215 0.17843819
-0.14887926 0.43125913 0.18129182
0.018541135 0.45470774 0.17818248
0.40012246 0.47776726 0.17285609
0.32897067 0.52633411 0.17810941
-0.053885102 -0.45485389 0.19279611
-0.12599204 -0.40709189 0.19449401
-0.19817761 -0.35927784 0.19619381
-0.24477264 -0.3339144 0.18371069
-0.27044645 -0.31141531 0.19793248
0.64140773 -0.31061912 0.18997657
-0.31677806 -0.28622937 0.18543553
0.66656733 -0.28726932 0.19669294
-0.36440033 -0.23823419 0.18382072
-0.36513272 -0.21464084 0.18857789
-0.36586452 -0.19097392 0.19333124
-0.36660147 -0.16723567 0.19811749
0.78560722 -0.11892358 0.19172668
-0.38873872 -0.070832632 0.1863904
-0.38950601 -0.046962995 0.19113708
-0.39027867 -0.023020394 0.19591653
0.76073575 0.024946652 0.18745613
0.76264024 0.049038641 0.19661891
-0.41231462 0.072773896 0.18422413
-0.41311738 0.096845873 0.18896413
-0.41392568 0.1209923 0.19373715
0.73776138 0.19290382 0.19233501
-0.34061146 0.21636607 0.1847378
-0.31707844 0.24051675 0.18760324
-0.29350197 0.26471186 0.19047379
-0.26988202 0.28895181 0.1933496
-0.79567444 0.31222034 0.18607819
-0.24621835 0.3132365 0.19623089
0.66636443 0.31316808 0.19554698
-0.2225109 0.33756605 0.1991173
-0.0063842237 -0.48077911 0.20535243
0.50024354 -0.48173445 0.21155679
-0.07875587 -0.43283886 0.20706415
-0.1512067 -0.384846 0.20877767
-0.22373891 -0.33680266 0.21051168
-0.29635391 -0.28870794 0.21226633
-0.3427932 -0.26349801 0.19965446
0.69183218 -0.26381674 0.2034198
-0.34500414 -0.24061677 0.21477091
0.71720982 -0.24026456 0.21019459
-0.36733773 -0.14342347 0.20289993
-0.36807919 -0.11953901 0.20771599
-0.3688229 -0.095580786 0.21254635
0.78758371 -0.095222041 0.20089614
0.78957582 -0.071380988 0.21013844
-0.39105371 0.00099558802 0.20071089
-0.39183113 0.025085658 0.2055198
-0.39261094 0.049250003 0.21034396
0.76455212 0.073272534 0.20581758
-0.39182517 0.1455341 0.20548284
-0.36818245 0.16978039 0.20838654
-0.34449583 0.19407156 0.21129525
-0.32076517 0.2184079 0.21420991
0.73960102 0.2175293 0.20152676
0.74145162 0.24230032 0.21077299
-0.19875956 0.36194074 0.20200908
0.59514534 0.36181012 0.20087779
-0.17496419 0.38636059 0.20490634
-0.15112466 0.41082573 0.20780885
0.52368003 0.41061616 0.20620811
-0.12724088 0.43533632 0.21071684
0.45197251 0.45959193 0.21157551
-0.031137317 -0.45879421 0.2197361
0.52526873 -0.45859113 0.21834791
0.55040526 -0.43535006 0.22518754
-0.10385539 -0.41062137 0.22146332
-0.17665341 -0.36239538 0.22319257
-0.24953589 -0.31412035 0.22496152
-0.32250035 -0.26579082 0.22673225
-0.34571388 -0.21679166 0.21962333
0.74269772 -0.21660981 0.2169987
-0.34642583 -0.19289298 0.224491
0.76829255 -0.19285122 0.22381353
-0.34713718 -0.16891885 0.2293545
-0.36956605 -0.071548194 0.21737337
-0.37031436 -0.047441803 0.22223377
0.79157984 -0.047398679 0.21943569
-0.37106502 -0.023260571 0.22710931
0.79359162 -0.023273386 0.22876954
-0.39339015 0.073488392 0.21516371
-0.39417478 0.097802266 0.22001755
0.76647913 0.097650349 0.21508908
-0.39496186 0.12219116 0.2248863
0.76841772 0.12217306 0.22441554
-0.29699281 0.2427911 0.21714854
-0.27317357 0.26721841 0.22007406
0.74331319 0.26721841 0.22007406
-0.24930993 0.29169118 0.22300458
-0.2253997 0.3162078 0.22592199
-0.20144701 0.34077185 0.22886384
-0.10430536 0.43772528 0.22795808
0.38001704 0.50873274 0.21694255
0.016868256 -0.48496047 0.23251092
-0.05611901 -0.43660608 0.23425233
0.57564861 -0.41200504 0.2320379
-0.12918684 -0.38819849 0.23599565
0.60100496 -0.38856068 0.23893714
0.62647247 -0.3650136 0.24586678
-0.20233729 -0.33973938 0.23776007
-0.27557182 -0.29122782 0.23954511
-0.32521778 -0.24304718 0.24634385
0.79399872 -0.16898906 0.23065782
-0.34785357 -0.14487167 0.23425233
0.82094133 -0.14525582 0.24256957
-0.34856936 -0.12074868 0.23914623
-0.34929016 -0.096551538 0.24407446
-0.37181801 0.00099554134 0.23200011
0.79561949 0.00099572842 0.23817766
-0.37257332 0.025327332 0.23690593
-0.37333098 0.049734704 0.24182713
-0.37233394 0.14691365 0.23535132
0.77036381 0.146841 0.23377883
-0.34844708 0.1713928 0.23831046
0.7723254 0.17165722 0.24321699
-0.32451811 0.19591919 0.2412945
-0.30054146 0.22049025 0.24426496
0.7219491 0.29278278 0.23482072
0.64993131 0.34200507 0.24030554
-0.17744955 0.36538196 0.23181117
-0.15340716 0.39003804 0.23476386
0.57765728 0.39139384 0.24577153
-0.12931974 0.41474029 0.23772204
-0.080838129 0.43951523 0.24087596
-0.0079928488 -0.46280316 0.24714565
-0.033085555 -0.44043937 0.26191676
-0.08133249 -0.41421226 0.24890316
-0.15475509 -0.36556968 0.250682
0.65204859 -0.34136099 0.25280774
-0.22826007 -0.31687251 0.25246274
0.67774034 -0.31760654 0.25979817
-0.30185005 -0.26812232 0.25426459
-0.32590377 -0.21898597 0.25129461
-0.32659188 -0.1948494 0.25626063
-0.32727954 -0.17063619 0.26122296
0.82306015 -0.12124582 0.25206029
0.82519162 -0.097091615 0.26160836
-0.3500104 -0.072278589 0.248999
-0.35073569 -0.047930103 0.25395775
-0.35146329 -0.023505516 0.25893223
0.79765952 0.025409885 0.24764228
0.79970765 0.049970482 0.25714433
-0.37408808 0.074217804 0.24674475
-0.37485048 0.098777607 0.25169659
-0.37561524 0.1234144 0.25666404
0.77429891 0.19662215 0.25271201
-0.27651972 0.24510758 0.24724114
-0.25245279 0.26977137 0.2502228
-0.2283406 0.2944814 0.25320995
-0.20418298 0.31923819 0.25620306
-0.17997977 0.34404153 0.25920165
-0.057176724 0.44131738 0.2538811
0.50513321 0.44095361 0.25125647
0.43235961 0.49068809 0.25677931
0.015558176 -0.4668856 0.27505684
-0.058413148 -0.41786641 0.27682614
-0.10678098 -0.39160952 0.26369071
-0.18056211 -0.34272948 0.26550543
-0.25442728 -0.29379383 0.2673223
0.70354187 -0.29374552 0.26680028
0.72946084 -0.2697809 0.27385259
-0.32797194 -0.14634818 0.26622045
-0.32866389 -0.12198308 0.27121389
-0.32936066 -0.097542174 0.27624261
0.82733166 -0.072791122 0.27119458
-0.35219318 0.00099563482 0.26392233
-0.3529253 0.02557382 0.26892805
-0.35365689 0.050228946 0.27393043
0.80177224 0.074679211 0.26672304
0.80384934 0.099537089 0.2763592
-0.35246992 0.14832078 0.26581454
-0.32833374 0.17303756 0.26883137
-0.30415189 0.19780105 0.27185369
-0.27992418 0.2226115 0.27488196
0.77628016 0.22173588 0.26224446
0.77827752 0.24700232 0.27185369
-0.1557309 0.3688916 0.26220572
-0.1314362 0.39378881 0.26521587
-0.10709557 0.41873288 0.26823151
-0.033320948 0.44313693 0.26701283
0.55930865 -0.46898961 0.28944242
-0.0096457601 -0.44434321 0.29008985
-0.083978891 -0.39508104 0.29187572
-0.13246933 -0.36879751 0.27863622
-0.20661128 -0.31967506 0.28046799
-0.2808381 -0.27049646 0.2823019
-0.30503181 -0.24552864 0.27857804
0.75549078 -0.24570875 0.28091645
-0.30569041 -0.22122477 0.28361022
0.78163993 -0.22153121 0.2880317
-0.3063536 -0.19684583 0.28867817
-0.33005697 -0.073023811 0.28126764
-0.33075815 -0.048428461 0.28632796
0.82948899 -0.048344363 0.28085816
-0.33146158 -0.02375542 0.2914046
0.83165944 -0.023749154 0.29058015
-0.35439366 0.07496199 0.27896762
-0.35513276 0.099773057 0.28402078
-0.35587418 0.12466237 0.2890898
0.80593479 0.12454478 0.28603446
-0.25565055 0.24746901 0.27791595
-0.23133078 0.27237374 0.28095555
0.78028691 0.27242178 0.28152132
-0.20696485 0.29732585 0.28400099
-0.18255252 0.32232532 0.28705227
0.70611382 0.32169178 0.28072166
-0.15809372 0.34737247 0.2901094
-0.1335883 0.37246737 0.29317224
0.63301659 0.37167934 0.28634763
0.55965942 0.42183995 0.29197395
-0.0092671663 0.44497162 0.28025377
0.03952793 -0.47103739 0.30344403
0.58509094 -0.44524467 0.29659557
-0.035087705 -0.42158797 0.30526459
0.61098826 -0.42139378 0.3037802
-0.10978897 -0.37208506 0.30710721
-0.1583997 -0.34577048 0.29372263
-0.1845755 -0.32252556 0.30895185
-0.23290601 -0.29640329 0.29557168
0.80790138 -0.19724494 0.29515839
-0.30701634 -0.17238851 0.2937423
0.83428395 -0.17285168 0.30233681
-0.30768374 -0.14785485 0.29884219
-0.30835068 -0.12324256 0.30393863
-0.30902231 -0.098553017 0.30907083
-0.33216721 0.00099563482 0.29649699
0.83383858 0.00099568162 0.30034173
-0.33287507 0.025825359 0.3016057
-0.33358246 0.05073357 0.30671072
-0.33221632 0.14975426 0.29685152
0.80803704 0.1497051 0.29578829
-0.30782574 0.17471312 0.29992723
0.81015229 0.17501901 0.30560136
-0.28338853 0.19971959 0.30300903
-0.25890455 0.22477406 0.30609655
-0.78020954 0.32392609 0.30304849
-0.10903612 0.3976101 0.29624104
-0.084437072 0.42280093 0.29931569
0.014987051 0.4468216 0.29360485
0.039444707 0.44868433 0.30704784
0.4860447 0.47217694 0.29761994
0.41217288 0.52269423 0.30330551
0.014212914 -0.4483138 0.31874561
-0.060771033 -0.39861694 0.32058358
0.63699818 -0.39743379 0.31097734
0.66312766 -0.37336898 0.31822646
-0.13584314 -0.34886795 0.32246363
-0.21100229 -0.29906136 0.32434583
-0.25944978 -0.27291113 0.31081843
-0.28442875 -0.24805947 0.31145418
-0.28506133 -0.22350986 0.31659067
-0.28569847 -0.19888337 0.32176328
