ply
format ascii 1.0
comment PCL generated
element vertex 1341
property float x
property float y
property float z
element camera 0
property float view_px
property float view_py
property float view_pz
property float x_axisx
property float x_axisy
property float x_axisz
property float y_axisx
property float y_axisy
property float y_axisz
property float z_axisx
property float z_axisy
property float z_axisz
property float focal
property float scalex
property float scaley
property float centerx
property float centery
property int viewportx
property int viewporty
property float k1
property float k2
end_header
-0.13415869 -0.42818189 -0.18242568
-0.1157719 -0.42639506 -0.19135302
-0.099664941 -0.41102919 -0.18172657
-0.081439316 -0.40936303 -0.19038415
-0.065209776 -0.39397663 -0.18042719
-0.047244117 -0.39265046 -0.18760508
0.0040275902 -0.37660512 -0.18081611
0.0040083379 -0.34205088 -0.1805383
-0.27054149 -0.28850529 -0.19237596
-0.3074463 -0.27285835 -0.18042719
-0.44385582 -0.25463635 -0.1878922
-0.3588106 -0.25526598 -0.1827805
-0.39207691 -0.23737076 -0.18806869
-0.46305579 -0.22090627 -0.18083823
-0.44369829 -0.22008306 -0.18847692
-0.42639989 -0.22005923 -0.18869776
-0.41156697 -0.22107999 -0.17922622
0.29761255 -0.15107466 -0.18907249
0.31531525 -0.13430522 -0.18233693
0.33267236 -0.099777788 -0.18143803
0.35004056 -0.065221593 -0.18057156
0.36747351 -0.030651389 -0.1791485
0.36699569 -0.013259346 -0.18432087
0.36652011 0.0040529519 -0.1894697
0.36645901 0.15910923 -0.19013077
0.36694354 0.17670055 -0.18488562
0.3674283 0.19437273 -0.17963785
0.3498854 0.2287347 -0.18240345
0.33252037 0.26320061 -0.18341243
0.3151778 0.29764813 -0.18432087
-0.46312046 0.38461187 -0.18060482
-0.4440195 0.38353214 -0.18728483
-0.42689109 0.38360706 -0.18682075
-0.39282835 0.40116578 -0.18501836
-0.44326752 0.41753757 -0.1900757
0.19429889 0.41889596 -0.18240345
-0.32281888 0.43489423 -0.18938142
-0.27151495 0.4525249 -0.18731797
0.1424108 0.45411858 -0.17903733
-0.15064563 0.46959776 -0.18820125
-0.13405855 0.47060052 -0.18319064
0.020707354 -0.69117486 -0.17075104
0.020540789 -0.67463052 -0.16804665
0.0030486435 -0.65764099 -0.16668642
-0.11751236 -0.65447795 -0.17722207
-0.1533636 -0.63967705 -0.16858578
-0.16956921 -0.61996937 -0.17670947
-0.18695192 -0.60273087 -0.17637497
-0.20494135 -0.58648986 -0.17231917
-0.22302236 -0.57023126 -0.16809171
-0.22257955 -0.55216944 -0.17070621
-0.22230639 -0.5343948 -0.17231917
-0.22227795 -0.51698965 -0.17248708
-0.22320698 -0.50089282 -0.16700137
-0.20388414 -0.49815437 -0.17885917
-0.20476051 -0.48204997 -0.17343801
-0.18704297 -0.46418798 -0.17578357
-0.16989894 -0.44712567 -0.17445505
-0.1527424 -0.43005461 -0.17306882
-0.11805423 -0.41274264 -0.17282277
-0.083418787 -0.39553046 -0.17201698
-0.031700522 -0.37896556 -0.16748476
-0.013761714 -0.37773141 -0.17445505
0.020827353 -0.37804219 -0.17269963
0.055309117 -0.32676405 -0.16745108
-0.25597417 -0.29048777 -0.17806876
0.14235796 -0.29130465 -0.17217374
-0.29303801 -0.27475083 -0.16596621
-0.3447476 -0.25704327 -0.16834998
0.19441421 -0.25623494 -0.17491299
-0.37880534 -0.23929283 -0.17142344
0.24675477 -0.22239999 -0.16697872
-0.48430276 -0.20499372 -0.1669789
-0.46418458 -0.20401441 -0.17676514
-0.44655055 -0.2039018 -0.17789066
-0.43122905 -0.20466672 -0.17024666
-0.48428035 -0.18758041 -0.16705745
-0.4660874 -0.18731785 -0.16989899
0.38607138 0.038697291 -0.16630381
0.38554335 0.056027316 -0.17158026
0.38502336 0.073278032 -0.17677629
0.38497427 0.090593688 -0.17726684
0.38550526 0.10812484 -0.17196095
0.38603085 0.12573524 -0.16670895
0.33386338 0.28249496 -0.16596621
-0.48431557 0.35200903 -0.16693383
-0.46627396 0.35167381 -0.16922581
-0.48425472 0.36938268 -0.16714752
-0.46435148 0.36799467 -0.1761629
-0.4468838 0.36791891 -0.17665362
-0.43171376 0.36919051 -0.1683948
0.26422378 0.36961812 -0.16561717
-0.41220069 0.38523799 -0.17673177
0.24665618 0.38640064 -0.16953987
-0.46553457 0.40338847 -0.17189378
-0.37928694 0.40380993 -0.16940528
-0.35978812 0.4195787 -0.1785475
-0.3453778 0.42188397 -0.16552705
-0.30826765 0.43727863 -0.17647523
-0.2566542 0.4550133 -0.17438799
0.10775512 0.47168368 -0.17777926
-0.08437331 -0.6761353 -0.16315991
-0.13806109 -0.66186839 -0.15260577
-0.18965836 -0.62507159 -0.15879601
-0.20669036 -0.60685313 -0.1615001
-0.22487883 -0.59058231 -0.15712965
-0.2431698 -0.57429636 -0.15256023
-0.24234472 -0.5555954 -0.15722036
-0.24205573 -0.53771204 -0.15885258
-0.24179719 -0.51989496 -0.16031283
-0.24278702 -0.50372857 -0.15472215
-0.22414251 -0.48472002 -0.16147751
-0.22543101 -0.46891141 -0.15386921
-0.20612495 -0.46651274 -0.16499782
-0.20808955 -0.45161733 -0.15284485
-0.18888055 -0.44933033 -0.1638481
-0.17163844 -0.43215755 -0.16256183
-0.1553839 -0.41636398 -0.15400577
-0.13662528 -0.41452202 -0.16357744
-0.1203873 -0.3988812 -0.1538806
-0.10181145 -0.39717096 -0.16313744
-0.067979172 -0.38157374 -0.15275371
-0.049771532 -0.38024738 -0.16024506
0.01982376 -0.36343995 -0.15640342
0.10720794 -0.31131634 -0.15408534
-0.24098565 -0.29231304 -0.16489643
-0.22499992 -0.29348823 -0.15641475
-0.33050275 -0.25884369 -0.15373266
-0.36533505 -0.24124366 -0.15452886
0.22972779 -0.24122787 -0.15466535
-0.39838803 -0.22288816 -0.16244882
-0.41812992 -0.2063535 -0.1533913
0.26432633 -0.20535226 -0.16339689
-0.45061976 -0.18797475 -0.16278762
0.28195429 -0.18825153 -0.1597923
-0.50549388 -0.17127715 -0.15403986
-0.48541301 -0.17051162 -0.16308099
-0.46861547 -0.17070676 -0.16077662
0.29964262 -0.17110196 -0.15610826
-0.50555378 -0.15378721 -0.15383506
-0.48738933 -0.15360965 -0.15614218
0.31738377 -0.15389143 -0.15248042
0.33395785 -0.11810114 -0.16473871
0.35145664 -0.083295472 -0.1638481
0.36896193 -0.048460059 -0.16303587
0.38712353 0.0037937239 -0.15579027
0.38659734 0.021285906 -0.16104794
0.38656682 0.14343198 -0.16135311
0.38709965 0.16120927 -0.15602869
0.36886501 0.21299851 -0.16408491
0.3513574 0.24776164 -0.16502023
-0.50557375 0.31891915 -0.15376693
-0.4874928 0.31865585 -0.15577894
0.31729543 0.31892067 -0.15375543
-0.5054673 0.33637658 -0.15413082
-0.48552549 0.33519107 -0.16268593
-0.46878159 0.3355388 -0.16017705
0.29954201 0.33587623 -0.15774208
-0.45084184 0.352736 -0.16196322
0.28185311 0.35277909 -0.16166955
-0.4183411 0.37162843 -0.15256006
-0.39874148 0.38777897 -0.16101402
-0.36555308 0.40648913 -0.15358472
0.2296285 0.40576014 -0.15788937
-0.33080214 0.42421818 -0.15234363
-0.29354775 0.4396908 -0.16341943
0.17722686 0.44135213 -0.15442652
-0.24161901 0.45752841 -0.16131914
-0.22544448 0.45897758 -0.15378958
0.036809519 -0.69864231 -0.14709139
-0.10459925 -0.68357629 -0.1389944
-0.17336307 -0.6448884 -0.1507706
-0.015561238 -0.64479828 -0.15107852
-0.21018334 -0.63045573 -0.13989294
-0.22675146 -0.61112857 -0.14607233
-0.24515586 -0.5948357 -0.14134312
-0.24378179 -0.48748234 -0.14910382
-0.24497263 -0.47138834 -0.14237785
-0.22751926 -0.45396727 -0.14153862
-0.21008097 -0.43656799 -0.14052618
-0.19074301 -0.43432134 -0.1517511
-0.17432858 -0.41825715 -0.14416921
-0.13913961 -0.40063938 -0.14436424
-0.086332232 -0.38294938 -0.14498365
-0.034121811 -0.36640584 -0.1388905
-0.016003951 -0.36531571 -0.14532751
0.0020004809 -0.3642607 -0.15155739
0.036773734 -0.3651295 -0.14642739
-0.20889203 -0.29467079 -0.14788067
-0.19266091 -0.29586059 -0.13929397
-0.2784431 -0.27666774 -0.15131801
0.17724657 -0.27659619 -0.15186507
-0.31607473 -0.26066893 -0.13891345
-0.38501096 -0.22472346 -0.14541912
-0.43770927 -0.1895729 -0.14548784
-0.45479637 -0.17184903 -0.14728582
-0.47202766 -0.15420067 -0.14846385
-0.5269289 -0.13717245 -0.14095199
-0.50684088 -0.13658474 -0.14943492
-0.49008459 -0.13677564 -0.14667928
0.33525914 -0.13669562 -0.14783496
-0.52705324 -0.11959145 -0.14053774
-0.50895238 -0.11948804 -0.14221698
0.35288915 -0.10163727 -0.14693099
0.37052789 -0.066548951 -0.14608371
0.38818663 -0.031436183 -0.14516699
0.38764983 -0.0137795 -0.15053099
0.40602285 0.074064203 -0.14273405
0.4060216 0.091656692 -0.14274561
0.38763383 0.17906962 -0.15069073
0.38818318 0.19702362 -0.14520133
0.37050566 0.23206747 -0.14632416
0.35286105 0.26709655 -0.14726305
-0.52705324 0.28543106 -0.1405378
-0.50896579 0.28524253 -0.14217097
-0.52692544 0.30298832 -0.14096338
-0.50688767 0.30196449 -0.14927506
-0.49013358 0.30230543 -0.14650756
0.33522743 0.30209118 -0.14824671
-0.47211635 0.31965506 -0.14814383
-0.4548735 0.3373647 -0.14699978
-0.43776023 0.35517418 -0.14529306
-0.38509297 0.39035559 -0.14507538
-0.31605554 0.42657977 -0.13900578
-0.27865607 0.44213086 -0.15021133
-0.2090881 0.46034807 -0.14666772
-0.19262899 0.46172729 -0.13950121
0.036309816 -0.6839385 -0.13781798
-0.15930806 -0.66995037 -0.12568545
0.018141404 -0.6689297 -0.12908536
-0.19377859 -0.65036905 -0.13203448
-0.22964801 -0.43888116 -0.12896895
-0.19348426 -0.42022449 -0.13394636
-0.15808161 -0.402455 -0.1345365
-0.12352581 -0.38588578 -0.12839913
-0.10484837 -0.38439181 -0.13683677
-0.052368939 -0.3675513 -0.13212729
0.035840496 -0.35036486 -0.12910843
-0.1763088 -0.29706103 -0.13063037
0.1597241 -0.29737988 -0.12832928
-0.26365805 -0.27860978 -0.13647872
0.21276933 -0.26162195 -0.13117605
-0.35166156 -0.24322385 -0.13737947
-0.37143391 -0.22658779 -0.12811989
0.2658816 -0.22641486 -0.1297245
0.2837733 -0.2090912 -0.12603515
-0.40484798 -0.20807143 -0.13622463
-0.42481297 -0.19127302 -0.12708384
-0.44204491 -0.17340408 -0.12892246
-0.45925254 -0.15556456 -0.13074648
-0.4764297 -0.13775249 -0.13257939
-0.49371135 -0.11999745 -0.13394624
0.35434815 -0.12025879 -0.12970126
-0.52782822 -0.10212088 -0.13795632
-0.51089799 -0.10224971 -0.13556582
-0.54865861 -0.084971495 -0.12756121
-0.52886885 -0.084651418 -0.13449025
-0.5128209 -0.084905401 -0.1289922
0.37212071 -0.084912382 -0.12884104
-0.54861206 -0.067256063 -0.12771255
-0.53011823 -0.067155354 -0.1303286
-0.54914296 -0.049600706 -0.12598866
-0.53171182 -0.04963059 -0.12502068
0.38991356 -0.049541555 -0.12791032
0.40776598 0.021285865 -0.12655956
0.40718222 0.03896153 -0.13197649
0.40659869 0.056553729 -0.13739103
0.40660739 0.10945857 -0.13731027
0.40719473 0.1273448 -0.13186055
0.40778613 0.14531693 -0.12637317
-0.54911065 0.21621542 -0.12609345
-0.53165227 0.21628951 -0.12521887
0.38997179 0.21611091 -0.12732834
-0.54860127 0.23378354 -0.12774742
-0.53007996 0.23353337 -0.13045627
-0.5486694 0.25151381 -0.1275264
-0.52884799 0.25080997 -0.13455951
-0.51276988 0.25134966 -0.12916672
0.37216583 0.25143108 -0.12835252
-0.52782476 0.26809835 -0.13796794
-0.51087433 0.26834849 -0.1356467
-0.49365526 0.28616944 -0.13414299
0.35438555 0.28673324 -0.12925959
-0.47634941 0.30398536 -0.13286912
-0.45914936 0.32188153 -0.13112962
-0.44192022 0.33980346 -0.129399
-0.42461777 0.3577252 -0.1278522
-0.40477967 0.37410077 -0.13650191
-0.37125129 0.39296874 -0.12891084
0.2659294 0.39300442 -0.12868977
-0.3516255 0.40920618 -0.13754088
-0.3011328 0.42896709 -0.1255222
0.21281278 0.42829919 -0.12929451
-0.26358759 0.44459757 -0.13685995
-0.17606615 0.46311513 -0.13228953
-0.15939857 0.46451175 -0.12503231
0.1597241 0.46435475 -0.12584859
0.052942008 -0.70839167 -0.11620164
0.052905619 -0.69083732 -0.11541367
-0.23115827 -0.63610709 -0.12005138
-0.23245241 -0.42436916 -0.11240977
-0.21284993 -0.42225456 -0.12339777
-0.19659312 -0.40629479 -0.11375362
-0.17722832 -0.40433824 -0.12434369
-0.14237352 -0.38743439 -0.11965293
-0.070832804 -0.36888728 -0.12423861
0.017798334 -0.35126922 -0.12351459
0.053087339 -0.35194278 -0.11934817
-0.15983079 -0.29826897 -0.12191302
-0.14322881 -0.29948774 -0.11311722
-0.24867888 -0.28057712 -0.12144494
-0.30145514 -0.26251671 -0.12391162
-0.33778024 -0.24523434 -0.11996925
-0.39136404 -0.20981559 -0.11879689
0.30172616 -0.19171716 -0.12227553
0.31973532 -0.17428337 -0.1185388
-0.44644713 -0.15699972 -0.11210299
0.33780837 -0.15679832 -0.11471933
-0.46377385 -0.13904206 -0.11396569
-0.48107272 -0.1211134 -0.11582524
-0.55108297 -0.10310535 -0.11968803
-0.49735534 -0.10302638 -0.12115234
0.3737334 -0.10355289 -0.11138308
-0.50002021 -0.085699603 -0.11179626
-0.5151006 -0.067506768 -0.12119901
-0.51769924 -0.050021812 -0.11231536
-0.5711689 -0.032194048 -0.11235076
-0.55000907 -0.031944066 -0.12317568
-0.53354859 -0.032042712 -0.11890256
-0.57061827 -0.014340477 -0.11409533
-0.55099273 -0.014249908 -0.11998111
-0.53535986 -0.014359416 -0.1128695
0.40894186 -0.014316654 -0.11564887
-0.57045853 0.0034766309 -0.11460161
-0.55141521 0.003507439 -0.11860925
0.40835255 0.0035267398 -0.12111723
-0.57050687 0.021285906 -0.11444855
-0.5518381 0.021285987 -0.11723578
-0.57062954 0.039099421 -0.11405987
-0.5523774 0.039088558 -0.11548424
-0.57074845 0.056918792 -0.11368299
-0.55292112 0.056918181 -0.11371827
-0.57093447 0.07474874 -0.11309361
-0.55346942 0.074775472 -0.11193788
-0.57091206 0.092567503 -0.11316437
-0.55342579 0.092600942 -0.11207944
-0.57074106 0.11036705 -0.11370647
-0.55288488 0.11036208 -0.11383611
-0.57062209 0.12816583 -0.11408347
-0.5523448 0.1280963 -0.11559016
-0.57049942 0.1459583 -0.11447215
-0.55181277 0.1458049 -0.11731791
-0.57046968 0.16376276 -0.11456633
-0.55138981 0.16350874 -0.11869138
0.40838158 0.1633759 -0.12084782
-0.57062954 0.18160746 -0.11405993
-0.55096745 0.18119147 -0.12006313
-0.53530312 0.18167682 -0.11305827
0.40897992 0.18152179 -0.11529595
-0.57133645 0.19959342 -0.11181986
-0.54996228 0.19870752 -0.12332767
-0.53344655 0.19902191 -0.11924255
-0.51751643 0.21732929 -0.11294043
-0.51498759 0.23435289 -0.12158537
-0.49983543 0.25302312 -0.11244512
-0.5518381 0.27033278 -0.11723572
-0.49723536 0.26986516 -0.12157363
-0.48080236 0.28817198 -0.11680108
-0.46348202 0.30618021 -0.11504889
-0.4461385 0.3242172 -0.1132822
0.33799613 0.32434839 -0.11228001
-0.42876846 0.34228191 -0.11151296
0.31988341 0.34160444 -0.11640143
0.301835 0.35879928 -0.12050813
-0.41095281 0.36012536 -0.11144221
-0.39102829 0.37661013 -0.12020367
0.28385001 0.37593129 -0.12461221
-0.35721481 0.39562103 -0.11250407
-0.33750254 0.41196397 -0.12125754
-0.28603548 0.43138471 -0.11186701
-0.24834351 0.44709554 -0.1233393
-0.14262529 0.46591723 -0.11772901
0.034697399 -0.67529136 -0.1078952
-0.21557821 -0.65783256 -0.10652071
-0.00095809996 -0.65714997 -0.10885394
-0.21617906 -0.40831766 -0.10280406
-0.12649821 -0.30071419 -0.10426599
-0.23350196 -0.28257057 -0.1062125
0.19545642 -0.2824387 -0.10722011
-0.28664267 -0.2643888 -0.1087119
-0.32368875 -0.24727678 -0.10228062
0.24894328 -0.24637163 -0.11011916
-0.35764694 -0.22847936 -0.11056828
-0.37767339 -0.2115864 -0.10110211
-0.41145927 -0.19290783 -0.10938621
-0.42908949 -0.1749853 -0.1102491
0.35593629 -0.13925132 -0.11094624
-0.48494834 -0.10406706 -0.1018402
-0.50270677 -0.068231724 -0.102364
0.39165971 -0.067920081 -0.11046183
-0.52046067 -0.032412857 -0.10287547
0.40960538 -0.032260105 -0.1094926
-0.5361678 0.003442511 -0.11017823
-0.53697771 0.021285946 -0.10748059
-0.53779304 0.039170973 -0.10476482
-0.53868175 0.057101585 -0.10180461
0.42831016 0.057097383 -0.10207832
-0.53959423 0.075079598 -0.098765135
0.4276672 0.074874602 -0.10764647
-0.53949755 0.093000971 -0.099087536
0.42772603 0.092753083 -0.10713708
-0.53858888 0.11081319 -0.10211396
0.42836374 0.11083245 -0.10161412
-0.53771818 0.12858471 -0.10501415
-0.53690654 0.14632219 -0.10771757
-0.5361039 0.1640199 -0.11039102
-0.52020687 0.20021513 -0.1037432
0.40975708 0.19988096 -0.1080845
-0.50245947 0.23604821 -0.10323215
0.39179814 0.23550811 -0.10907865
-0.48470438 0.27189708 -0.1027208
0.3738578 0.27110866 -0.11003637
-0.46787894 0.29025874 -0.098729491
0.35616958 0.30702487 -0.10819113
-0.37707716 0.37915352 -0.10368383
-0.32317489 0.41475919 -0.10475296
0.24919419 0.41495422 -0.10360062
-0.27075803 0.43383127 -0.098048985
-0.23291843 0.44962323 -0.10965812
0.19556729 0.45140424 -0.10001773
-0.12574528 0.46733186 -0.11037916
-0.10875754 0.46875528 -0.10298246
0.069885619 -0.69742185 -0.094029605
-0.18137844 -0.67887187 -0.0959692
0.051731639 -0.68066508 -0.089996159
0.015669703 -0.66297257 -0.088949502
0.06979236 -0.33844104 -0.091606379
-0.10964061 -0.30195174 -0.095335007
-0.092651591 -0.30319709 -0.086347044
-0.21812321 -0.28459054 -0.090777516
-0.27163351 -0.26628578 -0.093310297
0.23185077 -0.26722065 -0.085719645
-0.30937719 -0.24934945 -0.084330857
-0.3436479 -0.23040009 -0.092746615
0.28578663 -0.2308391 -0.088672757
0.30387419 -0.21295796 -0.087395966
-0.39786702 -0.19455585 -0.091546237
-0.41592187 -0.17659241 -0.091270089
-0.43342912 -0.15845749 -0.093166471
-0.45091105 -0.1403528 -0.095047712
-0.46836168 -0.12227651 -0.096937776
0.37537187 -0.12247919 -0.09364599
-0.48758489 -0.086598992 -0.092326581
0.39343736 -0.086581752 -0.092698574
-0.50541872 -0.050621435 -0.092842519
0.411511 -0.050653212 -0.091810465
-0.52296072 -0.014644852 -0.094329119
-0.52385551 0.0032969862 -0.09127003
0.43023252 0.0032520052 -0.085429847
-0.52475619 0.021285946 -0.088191032
0.4295873 0.021285946 -0.091017842
-0.52565932 0.03932235 -0.085103929
0.4289465 0.039234124 -0.096567214
-0.52553213 0.1294843 -0.085538507
0.42902112 0.12900476 -0.095921397
-0.52463645 0.14735237 -0.088600516
0.42967749 0.14726421 -0.090236664
-0.52374667 0.16517448 -0.09164238
0.43033433 0.16561142 -0.084548414
-0.52285558 0.18294951 -0.094688416
-0.50776738 0.20168902 -0.084596694
-0.50510454 0.21893765 -0.093945622
0.41176224 0.21931592 -0.089479089
-0.48727572 0.25492465 -0.093442142
0.39366084 0.25522265 -0.09046495
0.37557471 0.29109925 -0.091450214
-0.45041633 0.30841079 -0.096937776
-0.43292385 0.32658941 -0.095155358
-0.41540754 0.34479749 -0.093358278
-0.39709151 0.36256006 -0.094796181
-0.36292493 0.38173354 -0.086925864
-0.34297395 0.39830947 -0.095873475
-0.3086431 0.41759676 -0.087998331
-0.21730717 0.45217878 -0.095825613
-0.091662332 0.47019023 -0.095526516
-0.073725313 0.47022709 -0.095334828
0.069162622 -0.68509358 -0.075245619
0.032915071 -0.66710585 -0.074819386
-0.20254053 -0.28663903 -0.075123727
-0.25642365 -0.26820812 -0.07770282
-0.32943189 -0.23235047 -0.074648798
-0.36377412 -0.21338567 -0.083122015
-0.38406408 -0.19622935 -0.073429763
0.32215807 -0.19529276 -0.083569407
-0.40253687 -0.17822604 -0.071977615
0.34051117 -0.17757985 -0.079608977
-0.42019945 -0.15994015 -0.073905349
0.35891604 -0.15979768 -0.075756907
-0.43783629 -0.14168507 -0.075817764
0.37738818 -0.14196208 -0.071818829
-0.45544124 -0.12345884 -0.07773912
-0.47233188 -0.10512523 -0.082202435
0.39524364 -0.10553228 -0.074648738
-0.47494197 -0.087513968 -0.072514772
-0.49024636 -0.068987772 -0.082722783
0.41346169 -0.069334619 -0.073710322
-0.49292648 -0.05123087 -0.073051691
0.4317013 -0.033109508 -0.072710037
-0.5081495 -0.032865986 -0.083254933
-0.51066673 -0.014951324 -0.074417293
0.43088788 -0.014869275 -0.079754531
-0.51155645 0.0031432658 -0.071293712
-0.5265612 0.057406239 -0.0820207
-0.5274691 0.075538017 -0.078917205
0.44998199 0.075709306 -0.071501374
-0.527327 0.093607128 -0.079402745
-0.52642667 0.11156888 -0.082480729
-0.51140332 0.16639459 -0.071830988
-0.51045507 0.18430243 -0.075160325
0.43098593 0.18404301 -0.078905165
-0.49248391 0.22057173 -0.074648738
-0.48987103 0.2378176 -0.084077179
-0.47450817 0.25685799 -0.074124694
-0.47196674 0.27396235 -0.083557248
0.39555132 0.27525371 -0.071574688
-0.45475507 0.29237971 -0.08036083
-0.43714142 0.3106752 -0.078553021
-0.41950357 0.32900071 -0.076730251
-0.4018355 0.34735283 -0.074916661
0.34097555 0.34753859 -0.073576152
-0.38303238 0.3650316 -0.077897072
0.32254767 0.3650246 -0.077945709
0.30419552 0.38246456 -0.082177997
-0.32852703 0.4010368 -0.079002202
0.2863974 0.40130571 -0.077338099
-0.29366988 0.42027268 -0.072197437
-0.25529712 0.43630716 -0.08406496
0.23222318 0.43815559 -0.073624909
-0.20151041 0.45476732 -0.081814945
0.086855181 -0.70740324 -0.061614275
0.086796343 -0.68975967 -0.059703231
0.050481007 -0.67058706 -0.062919259
-0.021834835 -0.65048206 -0.069581985
0.1233912 -0.32387653 -0.068210721
-0.18674596 -0.28871354 -0.059271455
0.21439457 -0.28851342 -0.06080091
-0.24100907 -0.27015635 -0.061885118
-0.29484534 -0.25145575 -0.06608963
0.26892629 -0.25171956 -0.063804865
-0.34965569 -0.21521178 -0.064874053
-0.44230628 -0.12466084 -0.058221698
-0.45950377 -0.10620219 -0.062217593
-0.47757041 -0.069756135 -0.06275928
-0.49563223 -0.033327065 -0.063288331
-0.51244843 0.021285987 -0.068161726
-0.5133394 0.039476797 -0.065033793
0.45138502 0.039514795 -0.06011045
-0.51423621 0.057716183 -0.061885118
0.45068938 0.057656541 -0.065758109
-0.51513189 0.076004021 -0.058740497
-0.51494908 0.094223544 -0.059382439
0.45010543 0.093881257 -0.070499182
-0.51405734 0.11233748 -0.062513113
0.45082098 0.11225369 -0.064689755
-0.51317149 0.13040411 -0.065623164
0.45153546 0.13071516 -0.058888674
-0.51228452 0.14842275 -0.068737388
-0.49512124 0.20318751 -0.065132022
0.4320724 0.20285147 -0.069496155
-0.47707343 0.23961654 -0.064603686
0.41380382 0.23906843 -0.070535898
-0.45901752 0.27606183 -0.064075232
-0.44141942 0.29453298 -0.061712623
-0.42365539 0.31297565 -0.059876084
0.37801158 0.31233585 -0.06507051
-0.40586674 0.3314487 -0.05802393
0.35946277 0.32997304 -0.069300413
-0.36876535 0.36753774 -0.060763836
-0.34856975 0.38435301 -0.069912195
-0.3138721 0.40380594 -0.061872721
-0.27817321 0.42269188 -0.057912707
-0.23964755 0.43881086 -0.069924474
-0.18552087 0.45738494 -0.067647099
-0.16865952 0.45913082 -0.058197141
0.068209708 -0.67422354 -0.050487757
0.013238236 -0.65621108 -0.049467802
-0.0046270788 -0.65437996 -0.055896997
0.1780027 -0.30772889 -0.053642035
-0.22538562 -0.27213094 -0.045853257
-0.27991748 -0.25349009 -0.048471689
-0.31499386 -0.23433149 -0.056268215
-0.33531582 -0.21706663 -0.046339989
0.32466051 -0.21695554 -0.047449946
-0.37004536 -0.19792898 -0.055030227
-0.38892901 -0.17988691 -0.052363992
-0.40674973 -0.16144758 -0.054324031
-0.42454106 -0.14303863 -0.056280613
0.39707687 -0.12477737 -0.056330085
-0.46207952 -0.088444084 -0.05237639
0.41543752 -0.088305503 -0.055376887
-0.48022407 -0.051850997 -0.052910089
0.43380719 -0.051802866 -0.054472566
-0.49816459 -0.015263407 -0.054150343
-0.49904174 0.0029867999 -0.050985098
0.45281547 0.0029677413 -0.048496723
-0.49992472 0.021285906 -0.047798872
0.45209771 0.021285946 -0.054323912
-0.50081009 0.039634071 -0.044604182
-0.50059891 0.1313398 -0.045366287
-0.49972099 0.14951144 -0.048534036
0.45225352 0.1492676 -0.053058982
-0.49884892 0.16763555 -0.051680803
0.45297354 0.16791072 -0.047213078
-0.49778008 0.18566206 -0.055537939
-0.48226333 0.20471092 -0.045341253
-0.47965622 0.22223398 -0.055017829
0.43429315 0.22263655 -0.050264001
-0.46406138 0.24144556 -0.044804096
-0.46152759 0.25882336 -0.054485083
0.41588539 0.25915006 -0.051221251
-0.44575924 0.27815759 -0.044629335
0.39747503 0.295614 -0.052351594
-0.38804734 0.34994876 -0.05618155
-0.33400178 0.38700876 -0.052661896
-0.29899943 0.40661377 -0.044504166
0.26971799 0.42459682 -0.046664238
-0.22381 0.44134712 -0.055599928
-0.15142812 0.46055958 -0.050462842
0.10449049 -0.69675106 -0.036416173
0.086249366 -0.67672408 -0.041939497
0.10435387 -0.68007022 -0.03050065
0.031116307 -0.65849817 -0.04143846
0.049167894 -0.66047734 -0.034489512
-0.17073704 -0.29081631 -0.043203831
-0.15392803 -0.29236627 -0.03136003
0.25170317 -0.27304715 -0.038415074
-0.26446778 -0.25536093 -0.032269597
-0.30033088 -0.2363449 -0.037585735
0.30670133 -0.2359243 -0.041488528
-0.35580587 -0.19965556 -0.036340714
0.34329242 -0.19899607 -0.043478966
-0.37508988 -0.18157452 -0.032433748
0.36199301 -0.18098304 -0.039419651
-0.39307439 -0.16298023 -0.034414172
0.38075739 -0.16290852 -0.03534627
-0.41102624 -0.1444158 -0.036403537
0.39957446 -0.14476435 -0.031372666
-0.42895126 -0.12588289 -0.038377523
-0.44645202 -0.10729689 -0.041902065
0.41743487 -0.10756942 -0.036844015
-0.44899845 -0.089390956 -0.031877995
-0.46468008 -0.070538186 -0.042440414
0.43596625 -0.070794784 -0.03577435
-0.46729916 -0.05248151 -0.032433748
-0.48289651 -0.033795863 -0.042991042
0.45450342 -0.033985235 -0.034791946
-0.48544526 -0.015580824 -0.033531427
0.453529 -0.015439661 -0.042703271
-0.48631293 0.0028277487 -0.030310988
-0.50169432 0.058031417 -0.041413426
-0.50258446 0.07647831 -0.038201571
0.47300464 0.076570734 -0.034199715
-0.5023582 0.094850704 -0.039018035
0.47321594 0.095048763 -0.032585144
-0.50147563 0.11311921 -0.042202592
-0.48607457 0.16889705 -0.031195879
-0.48489183 0.18704437 -0.035585523
0.45370328 0.18664926 -0.041288018
-0.4666127 0.22392434 -0.035056591
0.43655914 0.24275403 -0.030639648
-0.44832861 0.26082182 -0.034514785
0.41798639 0.27954826 -0.03172648
-0.42787021 0.29672077 -0.042765737
-0.40995628 0.31531453 -0.040886998
-0.39201117 0.33393595 -0.039017797
-0.37404072 0.35258827 -0.037133098
-0.35428882 0.37008044 -0.043379068
0.34406015 0.37152439 -0.033506274
-0.31921911 0.38970378 -0.035157323
0.32531604 0.38926804 -0.037988067
-0.26248974 0.42514265 -0.043441534
-0.20777883 0.44391438 -0.041100025
-0.13408388 0.46199787 -0.042678356
-0.11662422 0.46344325 -0.034855127
0.21480617 0.46194229 -0.042978644
0.067384876 -0.66202432 -0.029058218
0.085601605 -0.66434711 -0.020903111
-0.13664974 -0.29361126 -0.021846056
-0.20954902 -0.27413258 -0.029602408
-0.28543276 -0.23838893 -0.018619537
-0.32074922 -0.21895064 -0.027512908
-0.34134293 -0.20141056 -0.017341852
-0.41536772 -0.12712491 -0.018210649
0.41947192 -0.12714134 -0.017942548
-0.43317425 -0.10841057 -0.021234512
0.43814343 -0.090081789 -0.016919971
-0.45156312 -0.071333393 -0.02178216
-0.4699437 -0.034272932 -0.022329926
-0.48718643 0.021285906 -0.027068973
0.47532958 0.021285906 -0.016433716
-0.48805881 0.039793968 -0.023831129
0.47455132 0.039805196 -0.022380829
-0.48893702 0.058352269 -0.020571709
0.47377026 0.058232501 -0.028349042
-0.48981762 0.076960951 -0.017303467
-0.48954904 0.0954886 -0.018300176
-0.48867607 0.11391453 -0.021540284
0.4739942 0.11371838 -0.026637793
-0.48780882 0.13229162 -0.024758935
0.47477806 0.13248147 -0.020648003
-0.4869405 0.1506189 -0.027981758
-0.46918821 0.20626023 -0.025216341
0.45513165 0.20591567 -0.0296911
-0.45082957 0.2433055 -0.024669886
-0.43214643 0.2802293 -0.025406718
-0.41410542 0.29894531 -0.023500562
-0.39603275 0.31768966 -0.021603942
0.40067965 0.31784654 -0.020329356
-0.3779344 0.33646512 -0.019691586
0.38173306 0.33579862 -0.024784327
-0.35980457 0.35526869 -0.017789125
0.36285537 0.35368249 -0.029235482
-0.33960074 0.37266266 -0.025724173
-0.30421948 0.39244071 -0.017380118
-0.28390688 0.40946296 -0.026878834
0.30808142 0.41072387 -0.019079089
-0.24661352 0.42762357 -0.028792262
-0.19154869 0.44651079 -0.026434779
-0.099051043 0.46490049 -0.026967645
-0.081361651 0.46636736 -0.019028068
0.10400655 -0.66589707 -0.015461087
0.12246062 -0.6680885 -0.0077672005
-0.045465395 -0.65024334 -0.0049291849
-0.026380315 -0.64868987 -0.010534525
-0.0078135282 -0.64886451 -0.0099043846
0.010955289 -0.64817375 -0.01239717
0.029478028 -0.64855105 -0.0110358
0.04799848 -0.64906782 -0.0091710091
0.066535614 -0.64967108 -0.0069938898
0.085146308 -0.64991426 -0.0061168671
0.10372423 -0.65071255 -0.0032360554
-0.11923523 -0.29486799 -0.012243152
0.23410614 -0.29483771 -0.012474179
-0.19349487 -0.27616164 -0.013128638
-0.24880837 -0.25725901 -0.015832305
0.28972346 -0.25728408 -0.015614867
-0.30595052 -0.22086486 -0.0083856583
0.34615964 -0.2210803 -0.0062328577
-0.36101931 -0.18329188 -0.012153268
-0.37916768 -0.16453888 -0.014167309
-0.3972829 -0.14581616 -0.016190767
-0.43568653 -0.090353578 -0.011035681
-0.45415276 -0.053123362 -0.011588216
0.45683235 -0.052991122 -0.015883565
-0.47249967 -0.015903728 -0.012563944
0.47689432 -0.016028216 -0.0044770241
-0.47335744 0.0026658308 -0.0092867613
0.47611171 0.0026749577 -0.010457397
-0.47422087 0.021285946 -0.0059877634
-0.47479558 0.13325997 -0.0037920475
-0.47393733 0.15174557 -0.0070713758
0.47556585 0.15133835 -0.014628649
-0.47308135 0.17018132 -0.010341763
0.47635752 0.1702899 -0.0085788965
-0.47178501 0.18845011 -0.015294552
-0.45589036 0.20783579 -0.0047482252
-0.45334786 0.22564325 -0.01475656
0.45759255 0.22607049 -0.0097113848
-0.43736905 0.24519587 -0.0042055845
-0.43490565 0.26285431 -0.014205575
0.43885547 0.26319975 -0.010752916
-0.41831535 0.28233612 -0.005858779
-0.40011334 0.30120471 -0.0039342642
0.42013454 0.30029717 -0.011793613
-0.32469088 0.37528151 -0.0078188181
-0.26859164 0.41235679 -0.00897789
-0.23053898 0.43013293 -0.013974905
-0.17511962 0.44914171 -0.011575341
0.25259554 0.44849467 -0.015230536
-0.063554898 0.46784392 -0.011035681
0.12230763 -0.65221047 0.0021693707
0.047140069 -0.63545418 0.0094139576
0.065971434 -0.63498276 0.0076639652
0.084729202 -0.63491946 0.0074291229
0.10341911 -0.63560569 0.0099761486
-0.10167696 -0.2961297 -0.0026021004
-0.083978012 -0.29740146 0.0071161985
-0.17721866 -0.27821875 0.0035731792
-0.23293261 -0.25918311 0.00083184242
-0.27029639 -0.24046567 0.00065040588
0.32847619 -0.24121734 0.0076248646
-0.32664579 -0.2031925 0.0019484758
0.36515778 -0.20282352 -0.0020456314
-0.34670854 -0.1850384 0.0084733963
0.38422769 -0.18450913 0.0022213459
-0.36502093 -0.166123 0.0064117908
0.40334791 -0.16611698 0.0063337088
-0.38330525 -0.14724043 0.0043667555
0.42253149 -0.14766167 0.010446906
-0.40155596 -0.12838882 0.0023123026
-0.41966748 -0.10954436 -0.00019288063
0.44036114 -0.10967805 0.0022861958
-0.42214411 -0.091333687 0.010185242
-0.4382202 -0.072142899 -0.00075018406
0.45920151 -0.072300784 0.0033521652
-0.44077235 -0.05377616 0.0096100569
-0.45676112 -0.034758158 -0.0013203621
0.47805166 -0.034889549 0.0043668747
-0.45932871 -0.016232492 0.0087870359
-0.47508675 0.039956897 -0.0026798248
-0.47595149 0.058678642 0.00062429905
0.49760479 0.058828205 0.01034224
-0.47682208 0.077451751 0.0039504766
0.49676782 0.077459872 0.0043017864
-0.47651571 0.096137643 0.0027801991
0.49707282 0.096252322 0.0065031052
-0.47565281 0.11472372 -0.00051701069
-0.45845068 0.1898791 0.0053303242
0.47715831 0.18933935 -0.0024598837
-0.43985611 0.22739165 0.0058906078
0.46007377 0.24654815 0.010433793
-0.42125297 0.2649214 0.0064510107
0.4411751 0.28397354 0.0093356371
-0.38188243 0.32010338 -0.00200665
-0.36362529 0.33903378 -6.3180923e-05
-0.34532529 0.35798553 0.0018186569
-0.3095572 0.3779397 0.010355473
-0.28899288 0.39521685 0.00065028667
0.34734404 0.39652586 0.0091526508
-0.25304639 0.41529405 0.0091918707
-0.21426667 0.43267575 0.0010396242
-0.1584843 0.45180318 0.0034561157
0.0090173483 -0.6380561 0.019070864
0.028194129 -0.63636386 0.012790442
0.12212877 -0.63663238 0.013786793
0.14086322 -0.63884485 0.021998644
0.065394267 -0.62015688 0.022659183
0.084264301 -0.62012231 0.022526979
0.10310789 -0.62036443 0.023451924
-0.16071747 -0.28030613 0.020520806
0.27237338 -0.27911207 0.01082623
-0.21683605 -0.26113418 0.017727971
-0.2549181 -0.24257728 0.020243883
-0.29091644 -0.22281101 0.011061788
-0.31171155 -0.20500317 0.021549821
-0.3875069 -0.12967436 0.023187757
0.44261295 -0.12958814 0.021787524
-0.40589505 -0.11069191 0.021101236
0.46160561 -0.091919616 0.022870541
-0.42463887 -0.072966218 0.020639539
0.48061156 -0.054217011 0.023928165
-0.4433496 -0.035252228 0.02007246
-0.46017605 0.0025011674 0.012122273
-0.46102899 0.021285865 0.015480042
0.49930418 0.021285946 0.022606254
-0.46188098 0.040122408 0.018833876
0.49845147 0.040104076 0.016452432
-0.46273869 0.05901096 0.022210121
-0.46240002 0.11554712 0.020876765
0.49792951 0.11523184 0.012685657
-0.46155328 0.13424544 0.017543793
0.49879056 0.13430803 0.018899679
-0.46070552 0.15289213 0.014206648
-0.45986009 0.17148826 0.010878563
-0.44236398 0.2094385 0.0160712
0.47900146 0.20909609 0.011624694
-0.42368042 0.24711995 0.016623139
-0.40425438 0.28447589 0.01399684
-0.3858918 0.3035011 0.015952945
-0.36750263 0.32255828 0.017925501
-0.34908098 0.34164473 0.019887805
0.40488124 0.34187606 0.021655679
-0.33028913 0.36052588 0.020151496
0.38559818 0.3600972 0.01705718
0.36638856 0.37825185 0.0124892
-0.2735368 0.39803445 0.01895237
-0.19779067 0.43525037 0.016242146
0.29127315 0.43472573 0.013144374
-0.14164235 0.45450026 0.018688917
-0.02990362 -0.64241111 0.035234571
-0.010344625 -0.64009243 0.026628971
0.0078837126 -0.62403572 0.037478924
0.027232379 -0.62224519 0.030638337
0.046374328 -0.62102944 0.02599287
0.1219337 -0.62115085 0.026456833
0.14078534 -0.62263179 0.032115221
0.10277902 -0.60510999 0.037692785
0.14084247 -0.33746529 0.024695396
-0.14398302 -0.28242123 0.037692904
-0.20051391 -0.26311252 0.034860969
0.31138599 -0.26308015 0.034580708
-0.27563643 -0.22478741 0.030811191
0.36842656 -0.22536241 0.036556602
-0.33214861 -0.18681401 0.029442072
-0.35063362 -0.16773552 0.027358174
-0.3690874 -0.14868926 0.025277853
-0.40835875 -0.092330627 0.031769037
-0.4271583 -0.054440871 0.031196952
-0.44591963 -0.016566785 0.0305053
0.50101519 -0.016635345 0.034954309
-0.44675595 0.002333438 0.033900499
0.50015932 0.0023728851 0.028778076
-0.44759792 0.021285946 0.037318468
-0.46359873 0.077951677 0.025595546
-0.46325243 0.096798241 0.024232268
-0.44723916 0.15405919 0.035862088
0.49965596 0.15348172 0.025145411
-0.4464047 0.17281817 0.032474756
0.50052398 0.17275254 0.03140986
-0.44488961 0.19133344 0.026324153
0.50139648 0.19212216 0.037706256
-0.42859995 0.21106789 0.037238359
-0.42613149 0.22917014 0.026894093
0.48168999 0.22961685 0.032168508
-0.40736455 0.26702431 0.027464271
0.46260983 0.2673806 0.03102386
-0.38996094 0.28665116 0.034180522
0.44366103 0.30522287 0.030864358
-0.37143493 0.3058354 0.036169291
0.42423546 0.32358468 0.026257873
-0.29419696 0.38064009 0.028817892
-0.25784832 0.40089723 0.037545681
-0.23726584 0.41827592 0.027636766
-0.18110718 0.43785745 0.031636119
-0.12458654 0.45722884 0.034100533
-0.011822939 -0.62678075 0.047966599
0.026213557 -0.60812092 0.049545288
0.045590021 -0.60645157 0.042973638
0.064742468 -0.60559279 0.039593458
0.083794847 -0.60513037 0.037773132
0.12172072 -0.60576981 0.040290117
0.14069203 -0.60677236 0.04423666
0.19772521 -0.32072407 0.040142775
-0.23928754 -0.24472183 0.040142655
-0.26010704 -0.22679612 0.050882936
-0.29653442 -0.20684342 0.04147017
0.3877939 -0.20678392 0.04082644
-0.31733853 -0.18862167 0.050788403
0.40724331 -0.1881534 0.04525888
-0.33599669 -0.16937594 0.048668027
0.42674816 -0.16944554 0.049572468
-0.3546229 -0.15016314 0.046551466
-0.37321442 -0.13098222 0.044424891
-0.39177406 -0.11183434 0.042302132
0.46404856 -0.11185604 0.04270494
-0.41081911 -0.073804639 0.04242301
0.48321301 -0.073857896 0.043806553
-0.42969626 -0.035754703 0.041832447
0.50238705 -0.035824515 0.044855237
-0.44844222 0.040291108 0.040745854
-0.44928557 0.059349045 0.044169545
0.52222049 0.059443414 0.05030179
-0.45013458 0.078460164 0.047616005
0.52130592 0.078377753 0.044048548
-0.44975287 0.097470619 0.046066642
0.52172518 0.097496666 0.046915054
-0.44891155 0.11638525 0.042651176
-0.44807583 0.13524841 0.039258718
-0.43109256 0.19281328 0.047683477
-0.41216791 0.23097976 0.048263311
-0.40975457 0.24907736 0.037813187
-0.39323133 0.26916245 0.048830032
-0.35288173 0.32505226 0.038174391
-0.33429837 0.34430069 0.040183067
-0.31502169 0.36310297 0.038749814
-0.27859992 0.38337961 0.047548652
-0.22098978 0.42103541 0.044707298
0.33086753 0.42062065 0.04214108
-0.16421042 0.44049525 0.047211647
-0.10689016 0.45929512 0.045770407
0.27400166 0.45934987 0.046079993
-0.050279632 -0.64690781 0.051924229
-0.031972677 -0.63048315 0.062112451
0.0066099018 -0.61031008 0.058163047
0.1597241 -0.60892123 0.052695513
0.044717379 -0.59208328 0.061866999
0.064074799 -0.59086961 0.05693996
0.083307415 -0.59004754 0.053602934
0.10241722 -0.58998746 0.053359032
0.12150491 -0.59022111 0.05430758
0.14058995 -0.59100682 0.057497025
0.1597241 -0.59245646 0.063381672
0.25534046 -0.30380973 0.056084514
-0.12701221 -0.28456613 0.055107594
0.2939133 -0.28543231 0.06213975
-0.1839615 -0.26511866 0.052235365
-0.22340296 -0.24690297 0.060381293
0.35116711 -0.24673426 0.058815956
-0.28111088 -0.20871492 0.061730623
0.44631481 -0.15066852 0.053846836
0.4665314 -0.13211773 0.062862754
-0.37740642 -0.11299668 0.063873291
-0.39433014 -0.093345948 0.053751945
0.48585159 -0.093817845 0.063968897
-0.39674824 -0.074657671 0.064583898
-0.41329777 -0.055116966 0.053156018
-0.41580123 -0.036266617 0.063996315
-0.43225956 -0.01690661 0.052573681
-0.43309736 0.0021626763 0.056084514
-0.43392783 0.021285906 0.059564233
0.52407372 0.021285906 0.062972188
-0.43475729 0.040462758 0.063040257
0.52314574 0.040413376 0.056627631
-0.43518108 0.11723845 0.064816117
0.52265978 0.11679529 0.053304911
-0.43435371 0.13626876 0.061348915
0.52359921 0.13619374 0.059727788
-0.43353176 0.15524691 0.05790484
-0.43270892 0.17417176 0.054456592
-0.41459858 0.21272683 0.058788657
0.50370055 0.21238394 0.054334521
-0.39558518 0.25106904 0.059373736
0.48442769 0.2504884 0.053088188
-0.37542933 0.28886265 0.054700732
0.46518743 0.28856632 0.051951289
-0.35673976 0.30821025 0.056736231
-0.33801681 0.32758811 0.058761597
-0.31926596 0.34699917 0.060803652
-0.29952055 0.36571935 0.057632923
0.38958523 0.38523272 0.060217977
-0.24191736 0.4038015 0.056410313
-0.20425655 0.42358029 0.060449481
-0.14709999 0.44316903 0.062999487
-0.088689789 0.46078739 0.0541991
-0.070364967 0.46228993 0.06268549
-0.013333842 -0.61325985 0.069774508
0.025176719 -0.59378791 0.06878674
0.063394502 -0.5759576 0.074614644
0.082763799 -0.57515645 0.071257591
0.14047873 -0.57532042 0.071944714
0.1597241 -0.57628989 0.076007128
0.1020489 -0.57469124 0.069308043
0.12127396 -0.57469124 0.069308043
-0.10979997 -0.28674155 0.07276988
-0.16717388 -0.26715347 0.069856882
-0.24432196 -0.22883785 0.071285129
-0.3022663 -0.19045962 0.072494864
-0.32110333 -0.17104502 0.070351005
-0.33990264 -0.15166187 0.068183541
-0.35867214 -0.13231297 0.066033483
-0.38004553 -0.09437903 0.076117396
-0.39919066 -0.055805787 0.07552433
0.50518894 -0.055484049 0.065075994
-0.41832352 -0.017250592 0.074917912
0.52594191 -0.017263273 0.075744987
0.52500641 0.0020605177 0.069349051
-0.43559241 0.059693478 0.066539645
-0.43642986 0.078978263 0.070049047
-0.43601084 0.09815491 0.068293214
0.52454346 0.15569313 0.066183925
-0.41876626 0.17555 0.076834917
0.5254907 0.17529286 0.072659731
-0.41705328 0.19431907 0.069417715
-0.39795911 0.23282088 0.070007801
0.50664628 0.23329388 0.075593352
-0.37885296 0.27133957 0.070584536
0.48721772 0.2717222 0.074408054
-0.36065626 0.29111278 0.075579524
-0.34179449 0.31062356 0.077635646
0.44870812 0.3295356 0.074573517
0.42892683 0.34817496 0.069788218
-0.28378028 0.36837626 0.07680738
0.40922099 0.36674318 0.065021157
-0.26276326 0.38616124 0.066567063
-0.22574283 0.40675285 0.075579524
0.37141266 0.4061743 0.071820974
-0.18731083 0.42615998 0.076407194
0.31393382 0.44536266 0.075951815
-0.051914409 0.46380293 0.071230054
-0.052906856 -0.63593704 0.082950234
-0.033882618 -0.61761618 0.086923122
0.0052762032 -0.5965057 0.079819679
0.023990646 -0.57981932 0.090796947
0.043806329 -0.57762253 0.081591725
0.17906605 -0.57831436 0.084490657
0.082205512 -0.56010348 0.089388251
0.10166201 -0.55933505 0.086060762
0.12102224 -0.55924195 0.085657716
0.14036644 -0.55944419 0.086533666
0.1597241 -0.56024837 0.09001565
-0.09234111 -0.28894821 0.090685368
-0.15014605 -0.26921734 0.087730289
0.33397013 -0.26912412 0.086923122
-0.20725565 -0.24912021 0.080954552
0.39174026 -0.2300649 0.083546758
-0.26542979 -0.21061617 0.082312465
0.4112528 -0.21089442 0.085324168
0.43108726 -0.19192798 0.089834452
-0.32492542 -0.1531879 0.090210915
-0.34387344 -0.13366717 0.088022709
-0.36278564 -0.1141796 0.085824609
0.48853534 -0.11410689 0.084476829
-0.38242561 -0.075526454 0.087159634
0.50803506 -0.075467139 0.085615993
-0.40165144 -0.036787458 0.086547613
0.52754629 -0.036791258 0.086714387
-0.41918725 0.0019888487 0.078657985
-0.42000556 0.021285906 0.082201481
-0.4208262 0.040637635 0.085754991
-0.421646 0.060043924 0.089304566
0.54765642 0.060079128 0.091592908
0.54666352 0.07932689 0.085143566
-0.42201644 0.09885136 0.090908647
0.54720974 0.098783039 0.088691473
-0.42120206 0.11810691 0.087382436
-0.42038679 0.13730811 0.083851933
-0.41957694 0.15645613 0.080345511
-0.40276533 0.19585159 0.091536999
0.52644074 0.19499372 0.079155803
-0.40035033 0.21441498 0.080719352
-0.3811658 0.25309587 0.081314802
0.4685654 0.3108246 0.079377055
-0.32290429 0.3301681 0.079709053
-0.30398029 0.34974316 0.081771851
-0.24668138 0.38898617 0.08588016
-0.12976991 0.44587708 0.078989983
-0.015072152 -0.6002118 0.094864726
0.0038314313 -0.58279812 0.10327971
0.042863168 -0.56301874 0.10201168
0.062621005 -0.56133264 0.094710827
0.17915453 -0.56162709 0.095985413
0.10123602 -0.54409885 0.10450649
0.12076547 -0.54361415 0.10233545
0.14024381 -0.54364246 0.10246229
0.1597241 -0.54421544 0.10502863
-0.19083919 -0.25137436 0.10187089
-0.2282749 -0.2309134 0.092025757
-0.2494873 -0.21254916 0.10323727
-0.28672224 -0.19223191 0.093423486
-0.30594701 -0.17274366 0.092416883
0.45099622 -0.17289552 0.094388962
0.47095835 -0.15378335 0.098805428
0.49126738 -0.13473447 0.10535324
-0.36550117 -0.095430806 0.098889709
-0.3848238 -0.056506597 0.098285794
-0.40413719 -0.017600996 0.097682238
-0.40502518 0.0018117875 0.10165966
-0.4058308 0.021285946 0.1052686
0.5496729 0.021285987 0.10468972
0.54866314 0.04073289 0.098131418
-0.42247128 0.079505399 0.092878222
0.54822707 0.11841176 0.095299006
0.54924971 0.13814366 0.10194135
-0.40536791 0.1576875 0.10319507
-0.40456986 0.17695332 0.099620223
-0.38584858 0.21613328 0.10303998
0.5292778 0.21578784 0.098552465
-0.38349557 0.23469356 0.092123628
-0.36648983 0.25515869 0.10364616
0.50964868 0.25456899 0.09726131
-0.36421978 0.27355519 0.092724442
-0.34562987 0.29339957 0.09679842
0.49005431 0.29332244 0.096083641
-0.3265956 0.31307781 0.098889709
-0.30753243 0.3327902 0.10099828
-0.28843486 0.35253385 0.10309649
-0.26779765 0.37107643 0.096293807
-0.23035072 0.39185691 0.10550869
-0.20931683 0.40975001 0.095046878
-0.17014636 0.42877302 0.092570782
-0.1122144 0.44861782 0.095173001
0.17921948 0.50867033 0.10442185
-0.055707887 -0.62501001 0.1160289
-0.036215276 -0.60571998 0.11722541
0.022770494 -0.56565815 0.11344039
0.061828405 -0.54650909 0.11530304
0.081626438 -0.54492205 0.10819411
0.17925538 -0.54512113 0.10908604
0.19891614 -0.54699868 0.11749613
-0.074572802 -0.29110998 0.10823667
0.31637999 -0.29202586 0.11567295
-0.13287278 -0.27131093 0.10586154
0.37483108 -0.25248665 0.1121906
-0.2119614 -0.23302525 0.11312795
-0.27088684 -0.19401954 0.11453497
-0.29051805 -0.1744715 0.11486197
-0.30968148 -0.15474114 0.11263072
-0.32880872 -0.1350446 0.11038923
-0.34790504 -0.11538345 0.10816598
0.51092649 -0.095781535 0.10648334
-0.36783832 -0.076410785 0.11013412
0.5306052 -0.056794249 0.10762823
-0.38724327 -0.037317708 0.10951078
0.55170596 -0.017912233 0.11789536
0.55068791 0.0017377324 0.11128247
-0.40663558 0.040815547 0.10887349
-0.40744579 0.06040103 0.11250293
-0.40825838 0.080042794 0.11614275
-0.40776926 0.099560767 0.11395204
-0.40696764 0.11899136 0.11036098
-0.40616506 0.13836643 0.10676575
0.55027777 0.15797968 0.10861862
0.55130905 0.17791989 0.11531734
-0.38822198 0.19741145 0.11405158
-0.36877662 0.23660104 0.11464858
-0.34932494 0.27581045 0.11526048
-0.33034658 0.29572546 0.11838031
-0.25156206 0.37381697 0.1160717
0.43378603 0.37365115 0.11487615
0.41370583 0.39249006 0.1098367
-0.19263138 0.412792 0.1148051
-0.15275718 0.43141755 0.10893023
0.35484087 0.43103114 0.10653985
-0.09443076 0.4513942 0.11156631
-0.016935855 -0.58720946 0.12176514
0.0022097826 -0.56939286 0.12961221
0.041792713 -0.54871583 0.12518787
0.080976687 -0.52994597 0.12929547
0.10079712 -0.52869922 0.1235112
0.12049076 -0.52798086 0.12017858
0.14011249 -0.5278393 0.11952186
0.1597241 -0.52800542 0.1202929
0.17937018 -0.52880412 0.12399805
0.19910845 -0.53009486 0.12998629
-0.11534871 -0.27343497 0.12425613
-0.17390145 -0.25346452 0.1212647
-0.2332768 -0.21451458 0.12451398
0.43557125 -0.21515447 0.13144088
-0.33275753 -0.11660894 0.13090789
0.51386636 -0.11643607 0.12769985
-0.35069275 -0.096502528 0.12209404
0.53371328 -0.077132262 0.12887847
-0.37019634 -0.057220727 0.12147903
0.55357194 -0.037791312 0.13001513
-0.38968742 -0.017957782 0.12085032
-0.39060074 0.0016314164 0.12508738
-0.39138997 0.021285906 0.12874913
-0.39218462 0.040996924 0.13243556
0.5728761 0.080307603 0.12761354
0.57356942 0.10011367 0.13190222
-0.39168149 0.13944425 0.13010156
-0.39089757 0.15894134 0.12646461
-0.39011282 0.17838214 0.12282395
0.55234367 0.19796468 0.12203693
-0.37108642 0.21788235 0.12576139
0.53250146 0.23710439 0.12059307
-0.35155028 0.2572588 0.12637854
0.51270944 0.27621979 0.11935043
-0.31113935 0.31557566 0.12052155
0.4944703 0.31665015 0.1298281
-0.2918973 0.33545732 0.12265217
0.47416365 0.33572552 0.12482953
-0.27262545 0.35537413 0.12480068
0.45393622 0.35472634 0.11985016
-0.21376099 0.39477095 0.12543166
-0.13514246 0.43409917 0.12551773
-0.076415867 0.45420918 0.12818837
0.021399453 -0.55177325 0.13888383
0.060980991 -0.53167546 0.13731945
0.10033144 -0.51324797 0.1436758
0.12019228 -0.51239359 0.13956523
0.13997748 -0.51187265 0.13705885
0.1597241 -0.51191473 0.13726139
0.17949079 -0.51241469 0.13966668
0.19931942 -0.51325101 0.14369035
0.21907881 -0.33484235 0.14203286
-0.097569868 -0.27559173 0.14293408
0.35753399 -0.27542892 0.14152431
-0.15656973 -0.2554712 0.13988423
-0.19537039 -0.23517123 0.13457179
0.41652572 -0.23551577 0.13801455
-0.2167915 -0.21651344 0.14615142
-0.25478643 -0.19583867 0.1360172
0.45580804 -0.19584231 0.1360606
-0.27481425 -0.17623155 0.13772488
0.47613233 -0.17646925 0.14081287
-0.29416376 -0.15632235 0.13545322
0.49651301 -0.15701419 0.14543748
-0.31347644 -0.13644756 0.13317132
-0.33560699 -0.097593471 0.14571416
-0.35298491 -0.077311985 0.13354659
-0.35529482 -0.05794774 0.14508772
-0.37257254 -0.037858136 0.13291168
-0.37497014 -0.018321065 0.14444709
0.57504749 0.041063264 0.14104521
-0.39297843 0.060764678 0.13611829
0.57396132 0.060737014 0.13432622
-0.39377761 0.080589801 0.13982618
-0.39325911 0.10028354 0.13742065
-0.39247072 0.11989217 0.13376319
0.57467461 0.12008356 0.13873887
0.57578576 0.14016077 0.14561212
-0.37341642 0.19899946 0.13697195
0.55578047 0.21931401 0.14435971
-0.35379219 0.23854284 0.13758004
0.53578401 0.25879741 0.14303577
-0.33415866 0.2781049 0.13818824
-0.31480247 0.29809305 0.14034867
0.51582217 0.29825115 0.14181495
-0.29541361 0.31811482 0.14251256
-0.2759946 0.33817223 0.14469457
-0.23507009 0.37660065 0.1361618
-0.19690822 0.39773121 0.14567041
-0.17568447 0.41588432 0.13488972
0.39675301 0.41633412 0.13781166
-0.11729591 0.43681592 0.14232349
-0.058162376 0.45705888 0.145015
0.33778924 0.45655623 0.14204752
-0.039105117 -0.59508467 0.15476561
-0.019173414 -0.57503909 0.15406144
0.00038099289 -0.55633289 0.15930784
0.040687613 -0.53421766 0.14911377
0.080312423 -0.51474291 0.15086818
0.21930957 -0.51498324 0.15202451
0.11988651 -0.49660268 0.15942562
0.13983089 -0.4959375 0.15610158
0.1597241 -0.49574932 0.15516174
0.17961414 -0.49585512 0.15569031
0.19956487 -0.49664411 0.15963185
0.27921376 -0.3172681 0.15892494
-0.13898303 -0.25750738 0.15877783
-0.17849888 -0.23735523 0.15639544
-0.23840936 -0.19768748 0.15785086
-0.27836472 -0.15793224 0.1586895
-0.29786646 -0.13787602 0.15636599
0.51696116 -0.13748613 0.15003455
-0.31733322 -0.11785581 0.15404677
0.53686965 -0.097812645 0.15045869
-0.33785212 -0.078229308 0.15738022
0.55690414 -0.058150075 0.15165854
-0.35762572 -0.03840825 0.15673339
-0.37590361 0.0014478154 0.14893854
0.57724887 0.001403762 0.15466285
-0.37668204 0.021285906 0.15268362
0.57614642 0.021285906 0.14784348
-0.37745965 0.041181576 0.15642476
-0.37770408 0.12080968 0.15760076
-0.37692881 0.14054218 0.15387082
-0.37615877 0.16021846 0.15016615
0.57690281 0.16034549 0.15252244
-0.37538797 0.1798377 0.14645755
0.57802355 0.18063809 0.15945518
-0.35605681 0.21966313 0.14889467
-0.33633715 0.25939539 0.14950836
-0.25654018 0.35826179 0.14686584
-0.21831773 0.37943089 0.15658653
-0.15846772 0.41902563 0.15529406
-0.09921141 0.43956631 0.1593374
-0.039453641 0.45947704 0.15929317
0.23908716 0.4974643 0.14928913
-0.060535982 -0.61947066 0.17304587
