ply
format ascii 1.0
comment PCL generated
element vertex 1378
property float x
property float y
property float z
element camera 0
property float view_px
property float view_py
property float view_pz
property float x_axisx
property float x_axisy
property float x_axisz
property float y_axisx
property float y_axisy
property float y_axisz
property float z_axisx
property float z_axisy
property float z_axisz
property float focal
property float scalex
property float scaley
property float centerx
property float centery
property int viewportx
property int viewporty
property float k1
property float k2
end_header
0.073311053 0.58661723 -0.054988265
0.09376888 -0.58869278 -0.042316914
0.093769498 -0.56872553 -0.042303443
-0.086014569 -0.54922503 -0.040044069
0.093769498 -0.54875535 -0.042303443
0.093769498 -0.52878511 -0.042303443
0.09376888 -0.50881231 -0.042317033
0.09376888 -0.48884225 -0.042317033
-0.22581631 -0.4690181 -0.041492224
0.09376888 -0.46887201 -0.042317033
0.09376888 -0.44890201 -0.042317033
0.09376888 -0.42893189 -0.042316914
0.09376888 -0.40896174 -0.042317033
0.09376888 -0.38899171 -0.042316914
0.09376888 -0.36902156 -0.042317152
0.09376888 -0.34905148 -0.042317033
-0.36528194 -0.32883519 -0.044315934
0.09376888 -0.32908139 -0.042317033
0.09376888 -0.30911121 -0.042317033
0.09376888 -0.28914115 -0.042317033
0.093769498 -0.26917246 -0.042303443
0.093769498 -0.24920225 -0.042303443
-0.42438909 -0.22864516 -0.049233079
0.093769498 -0.22923197 -0.042303562
0.093769498 -0.20926172 -0.042303443
0.093769498 -0.1892916 -0.042303443
-0.44363973 -0.16864076 -0.053354144
0.093770117 -0.16932221 -0.042289853
0.093770117 -0.14935194 -0.042289853
-0.46564147 -0.12944783 -0.040856123
0.093770117 -0.12938163 -0.042289853
0.093770117 -0.10941128 -0.042289972
0.093770117 -0.089440972 -0.042289853
0.093770117 -0.069470659 -0.042289972
0.093770117 -0.049500354 -0.042289853
0.093769498 -0.029529866 -0.042303443
-0.76309454 -0.0095597338 -0.048816204
0.093769498 -0.0095597338 -0.042303443
-0.76309454 0.010360432 -0.048816204
0.093769498 0.010410531 -0.042303443
-0.76309454 0.030280463 -0.048816204
0.093769498 0.030380797 -0.042303443
-0.76309454 0.050200496 -0.048816204
0.09376888 0.050350662 -0.042317152
-0.76309454 0.070120573 -0.048816204
0.09376888 0.070320792 -0.042316914
-0.76309454 0.090040743 -0.048816204
0.09376888 0.090290837 -0.042316914
-0.76309454 0.10996073 -0.048816204
0.09376888 0.11026093 -0.042317152
0.093769498 0.13023177 -0.042303443
0.093769498 0.15020199 -0.042303443
-0.44352275 0.16935647 -0.054077744
0.093769498 0.1701723 -0.042303443
-0.44547644 0.19016631 -0.041992545
0.093769498 0.19014242 -0.042303443
0.09376888 0.21011159 -0.042317033
-0.42391765 0.22915977 -0.052295089
0.09376888 0.2300815 -0.042317152
0.09376888 0.25005162 -0.042316914
-0.40572906 0.27020255 -0.040639639
0.09376888 0.27002183 -0.042317152
0.09376888 0.28999186 -0.042316914
0.093769498 0.30996364 -0.042303443
-0.36488324 0.32927176 -0.047362804
0.093769498 0.329934 -0.042303443
0.093769498 0.34990412 -0.042303443
0.093770117 0.36987624 -0.042289853
0.093770117 0.38984659 -0.042289853
0.093769498 0.40981477 -0.042303443
0.093769498 0.42978486 -0.042303562
0.09376888 0.44975272 -0.042316914
-0.22497438 0.46785471 -0.05242908
0.09376888 0.46972293 -0.042317033
0.093768246 0.4896903 -0.042330503
0.093768246 0.50966042 -0.042330384
0.093768246 0.52963042 -0.042330384
-0.085831247 0.54838234 -0.047981977
0.09376888 0.54960322 -0.042317033
0.09376888 0.56957334 -0.042316914
0.093769498 0.58954656 -0.042303443
0.11442927 -0.59155244 -0.029507041
0.11442927 -0.57148379 -0.029506922
0.11442927 -0.55141509 -0.029507041
0.11442927 -0.53134632 -0.029507041
0.11442927 -0.51127756 -0.029507041
0.11442854 -0.49120638 -0.02952075
0.11442854 -0.4711377 -0.02952075
0.11442854 -0.45106912 -0.02952075
0.11442927 -0.43100271 -0.029507041
-0.30706382 -0.41100547 -0.029042721
0.11442854 -0.41093194 -0.029520631
-0.32664809 -0.390315 -0.033269405
0.11442854 -0.3908633 -0.029520631
0.11442854 -0.37079465 -0.02952075
0.11442854 -0.35072607 -0.02952075
0.11442854 -0.33065751 -0.029520631
-0.38705993 -0.31039977 -0.031157851
0.11442854 -0.31058884 -0.029520631
0.11442927 -0.29052177 -0.029507041
0.11442927 -0.27045301 -0.029507041
-0.42696217 -0.25010589 -0.032520413
0.11442927 -0.2503843 -0.029506922
0.11442927 -0.23031555 -0.029507041
0.11443 -0.21024786 -0.029493451
-0.44633284 -0.18968017 -0.036695123
0.11443 -0.19017914 -0.029493332
0.11443 -0.17011027 -0.029493332
0.11443 -0.1500414 -0.029493451
0.11443 -0.12997261 -0.029493451
0.11443 -0.10990369 -0.029493451
0.11443 -0.089835003 -0.029493332
0.11443 -0.069766171 -0.029493332
0.11443 -0.049697347 -0.029493332
0.11443 -0.029628474 -0.029493332
0.11442927 -0.0095596891 -0.029507041
0.11442927 0.01050905 -0.029507041
0.11442927 0.030577701 -0.029507041
0.11442927 0.050646529 -0.029507041
0.11442854 0.070714824 -0.02952075
0.11442854 0.090783387 -0.02952075
0.11442927 0.11085257 -0.029507041
-0.46696559 0.13073117 -0.03303802
0.11442927 0.13092139 -0.029507041
0.11442927 0.15099004 -0.029507041
0.11442927 0.17105879 -0.029507041
0.11442927 0.19112743 -0.029507041
-0.44744849 0.21117198 -0.02979362
0.11442854 0.21119502 -0.02952075
0.11442854 0.23126368 -0.02952075
0.11442854 0.25133234 -0.029520631
0.11442854 0.27140087 -0.029520631
0.11442927 0.29147115 -0.029507041
-0.38737759 0.3116188 -0.028865099
0.11442927 0.31153974 -0.029507041
0.11442927 0.33160853 -0.029507041
0.11443 0.35167915 -0.029493332
0.11443 0.371748 -0.029493332
0.11443 0.39181674 -0.029493451
0.11442927 0.41188344 -0.029507041
0.11442927 0.43195215 -0.029507041
0.11442927 0.45202079 -0.029506922
0.11442854 0.47208694 -0.02952075
0.11442854 0.49215555 -0.029520631
0.11442854 0.51222426 -0.029520512
-0.12617829 0.53112358 -0.035146475
0.11442854 0.53229284 -0.02952075
0.11442854 0.55236143 -0.02952075
0.11442854 0.57243007 -0.029520631
0.11442927 0.59250182 -0.029507041
0.11443 0.61257374 -0.029493332
0.13529471 -0.61460894 -0.016569734
0.13529386 -0.59443754 -0.016583681
0.13529386 -0.57426935 -0.016583681
0.13529386 -0.55410099 -0.016583681
0.13529386 -0.53393281 -0.016583681
0.13529386 -0.51376468 -0.016583681
-0.20702273 -0.49214894 -0.024418831
0.13529386 -0.49359649 -0.016583681
0.13529386 -0.47342837 -0.016583681
0.13529386 -0.45326009 -0.0165838
-0.28871801 -0.43386674 -0.011790872
0.13529386 -0.43309185 -0.0165838
0.13529386 -0.41292366 -0.016583681
0.13529386 -0.39275548 -0.016583562
-0.34832069 -0.3721123 -0.02001214
0.13529386 -0.37258732 -0.016583562
0.13529386 -0.35241908 -0.0165838
0.13529386 -0.33225083 -0.016583681
0.13529386 -0.31208268 -0.016583681
-0.4090561 -0.29177335 -0.017892838
0.13529386 -0.29191449 -0.016583681
0.13529386 -0.27174634 -0.016583681
0.13529386 -0.25157809 -0.0165838
0.13529471 -0.23141108 -0.016569853
-0.44906089 -0.21099262 -0.019819617
0.13529471 -0.21124284 -0.016569853
0.13529471 -0.19107443 -0.016569853
0.13529471 -0.1709062 -0.016569853
-0.46849027 -0.15033562 -0.024034977
0.13529471 -0.15073784 -0.016569853
0.13529471 -0.13056961 -0.016569734
-0.49086702 -0.11060645 -0.011237264
0.13529471 -0.1104012 -0.016569853
-0.48979107 -0.090209976 -0.017314196
0.13529471 -0.090232834 -0.016569853
-0.48943025 -0.070000395 -0.019351959
0.13529471 -0.070064604 -0.016569853
-0.48907247 -0.049822394 -0.021372795
0.13529471 -0.04989624 -0.016569972
-0.48871523 -0.029675566 -0.023390532
0.13529471 -0.029728007 -0.016569853
0.13529471 -0.0095596015 -0.016569853
0.13529386 0.01060854 -0.016583681
0.13529386 0.030776724 -0.016583681
0.13529386 0.050944868 -0.016583681
0.13529386 0.071113139 -0.016583681
0.13529386 0.091281369 -0.016583681
0.13529386 0.11144956 -0.016583681
0.13529386 0.1316177 -0.016583681
-0.46904352 0.15152827 -0.020768285
0.13529386 0.15178598 -0.016583562
0.13529386 0.17195415 -0.016583681
0.13529386 0.19212238 -0.016583681
0.13529386 0.2122905 -0.016583681
0.13529299 0.23245753 -0.016597509
-0.42857271 0.25207898 -0.022059441
0.13529299 0.25262564 -0.016597509
0.13529386 0.27279514 -0.0165838
0.13529386 0.29296342 -0.016583681
0.13529386 0.31313148 -0.016583681
0.13529386 0.3332997 -0.016583681
-0.36885166 0.35340488 -0.017038584
0.13529471 0.35346997 -0.016569853
-0.34826142 0.3730644 -0.020493269
0.13529471 0.37363821 -0.016569853
-0.32873249 0.39401466 -0.015218019
0.13529471 0.39380652 -0.016569853
0.13529471 0.41397476 -0.016569853
0.13529386 0.43414083 -0.016583681
0.13529386 0.45430887 -0.016583681
0.13529299 0.47447464 -0.01659739
0.13529299 0.49464279 -0.016597509
-0.16692817 0.51369554 -0.022169232
0.13529299 0.5148108 -0.016597509
0.13529299 0.53497887 -0.016597509
0.13529299 0.55514699 -0.016597509
0.13529299 0.57531506 -0.016597509
0.13529386 0.59548646 -0.016583681
0.15636729 -0.61762315 -0.0035175085
0.15636635 -0.59735131 -0.0035316944
-0.046317864 -0.57701057 -0.0038657188
0.15636635 -0.57708257 -0.0035315752
0.15636729 -0.55681676 -0.0035176277
0.15636729 -0.53654808 -0.0035176277
0.15636635 -0.5162766 -0.003531456
0.15636635 -0.49600786 -0.003531456
0.15636635 -0.47573924 -0.0035316944
0.15636635 -0.4554705 -0.0035315752
0.15636635 -0.43520176 -0.0035315752
0.15636635 -0.41493326 -0.003531456
0.15636635 -0.39466453 -0.003531456
0.15636635 -0.37439588 -0.0035315752
-0.370217 -0.35372493 -0.0066055059
0.15636635 -0.35412714 -0.0035315752
0.15636635 -0.33385846 -0.0035315752
0.15636635 -0.31358981 -0.0035316944
0.15636635 -0.29332116 -0.003531456
-0.43127742 -0.27295637 -0.0044920444
0.15636635 -0.27305242 -0.003531456
0.15636729 -0.25278509 -0.0035175085
-0.45182681 -0.23258469 -0.0027097464
0.15636729 -0.23251636 -0.0035176277
0.15636729 -0.21224748 -0.0035176277
0.15636729 -0.19197869 -0.0035176277
-0.47137856 -0.17149678 -0.0069802999
0.15636729 -0.17171 -0.0035176277
0.15636729 -0.15144117 -0.0035176277
0.15636729 -0.13117239 -0.0035176277
0.15636729 -0.11090365 -0.0035175085
0.15636729 -0.090634778 -0.0035176277
0.15636729 -0.07036595 -0.0035176277
0.15636729 -0.050097302 -0.0035176277
0.15636729 -0.029828474 -0.0035176277
0.15636729 -0.0095596891 -0.0035175085
0.15636729 0.010709048 -0.0035176277
0.15636635 0.030977655 -0.0035315752
0.15636635 0.051246393 -0.0035315752
0.15636635 0.071515046 -0.0035315752
0.15636635 0.091783695 -0.003531456
0.15636635 0.1120523 -0.003531456
0.15636635 0.132321 -0.0035315752
0.15636635 0.15258974 -0.003531456
-0.47114116 0.17252226 -0.0083823204
0.15636635 0.17285848 -0.0035315752
-0.47326112 0.1937173 0.0041354895
0.15636635 0.19312721 -0.0035315752
0.15636635 0.21339564 -0.003531456
-0.45174578 0.23369414 -0.0032111406
0.15636635 0.23366438 -0.003531456
0.15636635 0.25393307 -0.003531456
0.15636635 0.27420181 -0.003531456
-0.41019365 0.29371023 -0.010115266
0.15636635 0.29447055 -0.003531456
0.15636635 0.31473923 -0.003531456
-0.39164007 0.33571815 0.0018963814
0.15636635 0.33500788 -0.0035316944
0.15636729 0.35527846 -0.0035175085
0.15636826 0.3755492 -0.0035036802
0.15636729 0.39581588 -0.0035176277
-0.3091231 0.41504741 -0.0099351406
0.15636729 0.41608489 -0.0035176277
-0.28943449 0.43616495 -0.0046311617
0.15636635 0.43635115 -0.0035316944
-0.26966625 0.45736811 0.00069451332
0.15636635 0.45661989 -0.0035316944
0.15636536 0.47688597 -0.0035454035
-0.20808573 0.49609023 -0.0090757608
0.15636536 0.49715459 -0.0035454035
0.15636536 0.51742315 -0.0035454035
0.15636536 0.53769159 -0.0035454035
0.15636536 0.55796039 -0.0035454035
0.15636635 0.57823199 -0.0035315752
0.15636729 0.59850395 -0.0035175085
0.17764981 -0.60029429 0.0096513033
0.1776509 -0.57992715 0.0096652508
0.1776509 -0.55955684 0.0096652508
0.1776509 -0.5391866 0.00966537
0.17764981 -0.51881361 0.0096511841
0.17764981 -0.49844348 0.0096514225
0.17764981 -0.47807327 0.0096511841
-0.27012783 -0.45703244 0.0056910515
0.17764981 -0.45770323 0.0096514225
0.17764981 -0.43733302 0.0096511841
0.17764981 -0.41696283 0.0096513033
-0.35307628 -0.39790133 0.018598318
0.17764981 -0.39659262 0.0096511841
0.17764981 -0.37622258 0.0096513033
0.17764981 -0.35585234 0.0096511841
-0.39233887 -0.33514816 0.0069395304
0.17764981 -0.33548221 0.0096513033
0.17764981 -0.31511199 0.0096511841
0.17764981 -0.29474193 0.0096513033
0.17764981 -0.27437168 0.0096511841
-0.45462689 -0.25445971 0.014611244
0.1776509 -0.25400284 0.0096652508
0.1776509 -0.23363264 0.00966537
0.1776509 -0.21326233 0.0096654892
-0.47430244 -0.19293492 0.010284305
0.1776509 -0.1928921 0.0096652508
0.1776509 -0.17252184 0.00966537
0.1776509 -0.15215154 0.0096652508
-0.49391389 -0.13161063 0.0059714317
0.1776509 -0.13178122 0.0096652508
0.1776509 -0.11141101 0.00966537
0.17765199 -0.091041185 0.0096794367
0.1776509 -0.070670478 0.0096652508
0.1776509 -0.050300173 0.0096652508
0.1776509 -0.029929865 0.0096652508
-0.80070651 -0.0095596891 0.011664033
0.1776509 -0.0095596891 0.00966537
-0.80070651 0.010825916 0.011664152
0.1776509 0.010810618 0.0096654892
-0.80070651 0.031211615 0.011664033
0.17764981 0.031180661 0.0096511841
-0.80070651 0.051597264 0.011664152
0.17764981 0.051550746 0.0096513033
-0.80070651 0.071982957 0.011664152
0.17764981 0.071920969 0.0096511841
-0.80070651 0.09236861 0.011663914
0.17764981 0.092291057 0.0096513033
0.17764981 0.11266127 0.0096511841
-0.49523124 0.1332341 0.01341176
0.17764981 0.13303144 0.0096514225
0.17764981 0.15340167 0.0096513033
0.17764981 0.17377166 0.0096511841
0.17764981 0.19414188 0.0096511841
-0.47540137 0.21511516 0.016772985
0.17764981 0.21451198 0.0096513033
0.17764981 0.23488219 0.0096511841
0.17764981 0.25525239 0.0096514225
-0.43334016 0.27554229 0.0089060068
0.17764981 0.27562261 0.0096511841
0.17764981 0.29599273 0.0096514225
0.17764981 0.31636301 0.0096513033
0.1776509 0.33673486 0.00966537
0.1776509 0.35710526 0.00966537
0.17765199 0.37747747 0.0096795559
0.1776509 0.39784557 0.00966537
0.1776509 0.41821596 0.00966537
0.1776509 0.43858618 0.00966537
0.17764981 0.45895401 0.0096514225
-0.24981903 0.47865984 0.0060555935
0.17764981 0.47932422 0.0096511841
0.17764874 0.49969161 0.0096372366
0.17764874 0.52006167 0.0096372366
0.17764874 0.54043162 0.0096371174
0.17764874 0.56080174 0.0096372366
0.17764981 0.58117491 0.0096511841
0.1776509 0.60154825 0.00966537
0.19914751 -0.60326684 0.022966743
0.19914871 -0.58279723 0.022980928
0.19914871 -0.56232452 0.022981048
0.19914871 -0.54185164 0.022980928
0.19914871 -0.52137899 0.022981048
0.19914751 -0.50090355 0.022966743
-0.25128835 -0.48050886 0.023407221
0.19914751 -0.48043084 0.022966862
0.19914751 -0.45995826 0.022966743
0.19914751 -0.43948561 0.022966743
0.19914751 -0.41901284 0.022966743
0.19914751 -0.39854011 0.022966743
-0.37529778 -0.3793495 0.032218814
0.19914751 -0.37806755 0.022966743
0.19914751 -0.35759491 0.022966743
0.19914751 -0.33712223 0.022966862
-0.41468769 -0.31637752 0.020610571
0.19914751 -0.31664965 0.022966743
0.19914751 -0.296177 0.022966743
0.19914871 -0.27570567 0.022981048
0.19914871 -0.2552329 0.022980928
0.19914871 -0.23476017 0.022980928
-0.477265 -0.21465658 0.027777195
0.19914871 -0.21428731 0.022980928
0.19914871 -0.19381459 0.022981048
0.19914871 -0.17334192 0.022981048
-0.49700093 -0.15289202 0.023407221
0.19914992 -0.15286991 0.022995234
0.19914992 -0.13239701 0.022995234
0.19914992 -0.11192407 0.022995234
-0.51850307 -0.091634862 0.028961182
0.19914992 -0.091451183 0.022995234
-0.51811588 -0.071067736 0.026865005
0.19914992 -0.070978329 0.022995114
-0.51772916 -0.050532762 0.024772167
0.19914992 -0.050505523 0.022995234
-0.51734316 -0.030030239 0.022682667
0.19914871 -0.030032407 0.022981048
0.19914871 -0.0095597338 0.022981048
0.19914871 0.010913073 0.022980928
0.19914871 0.031385791 0.022981048
0.19914751 0.051858284 0.022966743
0.19914751 0.072330959 0.022966862
0.19914751 0.092803545 0.022966862
0.19914751 0.1132763 0.022966743
0.19914751 0.13374893 0.022966743
-0.49748203 0.15441613 0.026124358
0.19914871 0.15422244 0.022981048
0.19914751 0.17469431 0.022966862
0.19914751 0.19516696 0.022966862
0.19914751 0.2156395 0.022966862
0.19914751 0.23611221 0.022966743
-0.45682445 0.25710911 0.028205037
0.19914751 0.25658491 0.022966743
0.19914751 0.27705762 0.022966743
0.19914751 0.29753029 0.022966743
-0.41476238 0.3177757 0.021121144
0.19914751 0.31800297 0.022966862
0.19914871 0.33847749 0.022980928
-0.39608562 0.36047411 0.033979654
0.19914992 0.35895228 0.022995114
0.19914992 0.37942505 0.022995234
0.19914992 0.39989799 0.022995234
0.19914871 0.4203684 0.022981048
0.19914871 0.44084135 0.022981048
0.19914751 0.46131155 0.022966862
0.19914751 0.48178422 0.022966981
0.1991463 0.50225413 0.022952676
0.1991463 0.5227266 0.022952557
0.19914751 0.54320222 0.022966743
0.19914751 0.56367481 0.022966743
0.19914751 0.58414751 0.022966743
0.19914871 0.6046235 0.022981048
0.22086263 -0.60626954 0.036416888
0.22086395 -0.5856964 0.036431193
0.22086395 -0.5651201 0.036431313
0.22086395 -0.54454374 0.036431313
-0.19139726 -0.52626443 0.048366666
0.22086395 -0.52396733 0.036431193
-0.23218672 -0.50428361 0.041261792
0.22086263 -0.50338846 0.036416888
0.22086263 -0.48281223 0.036416888
0.22086263 -0.46223605 0.036416888
0.22086263 -0.44165993 0.036417007
-0.33470306 -0.42109481 0.036488771
0.22086263 -0.42108372 0.036416888
0.22086263 -0.40050748 0.036417007
0.22086263 -0.3799313 0.036416888
-0.39777446 -0.36063114 0.046167612
0.22086263 -0.35935506 0.036417007
0.22086263 -0.33877894 0.036416888
0.22086263 -0.31820267 0.036416888
-0.43726888 -0.29741159 0.03442359
0.22086263 -0.29762644 0.036416888
-0.46008375 -0.27824613 0.048366785
0.22086395 -0.27705175 0.036431432
0.22086395 -0.25647536 0.036431193
-0.48026934 -0.23666844 0.045517445
0.22086395 -0.23589914 0.036431193
0.22086395 -0.21532281 0.036431432
0.22086528 -0.19474751 0.036445618
-0.50013161 -0.17445701 0.041089058
0.22086528 -0.17417106 0.036445618
0.22086528 -0.15359455 0.036445618
0.22086528 -0.13301823 0.036445618
-0.51992834 -0.11245058 0.036675334
0.22086528 -0.11244182 0.036445618
0.22086528 -0.09186542 0.036445618
0.22086528 -0.071288958 0.036445618
0.22086528 -0.050712552 0.036445737
0.22086528 -0.030136142 0.036445618
0.22086395 -0.0095596453 0.036431193
0.22086395 0.011016675 0.036431313
0.22086395 0.031592909 0.036431193
0.22086395 0.05216923 0.036431432
0.22086263 0.072745107 0.036416888
0.22086263 0.093321294 0.036417127
0.22086263 0.11389752 0.036417007
0.22086395 0.13447447 0.036431313
0.22086395 0.15505078 0.036431193
-0.49975705 0.17580333 0.038973808
0.22086395 0.1756272 0.036431432
0.22086263 0.19620237 0.036416888
0.22086263 0.21677861 0.036416888
-0.48065388 0.23840502 0.047787786
0.22086263 0.23735483 0.036416888
0.22086263 0.2579309 0.036416888
0.22086263 0.27850705 0.036417007
-0.4382197 0.29956627 0.040599585
0.22086263 0.29908329 0.036417007
0.22086395 0.31966123 0.036431432
0.22086395 0.34023756 0.036431193
0.22086528 0.36081591 0.036445618
-0.37624761 0.38183579 0.039477229
0.22086528 0.38139233 0.036445737
-0.35632601 0.40328318 0.04498291
0.22086528 0.40196884 0.036445737
0.22086395 0.42254293 0.036431193
0.22086395 0.44311917 0.036431193
0.22086263 0.46369302 0.036416888
0.22086263 0.48426914 0.036416888
0.22086263 0.50484532 0.036417007
0.22086263 0.5254215 0.036417127
0.22086263 0.54599774 0.036417127
0.22086263 0.56657398 0.036417007
0.22086395 0.58715343 0.036431313
0.22086395 0.60772967 0.036431313
0.2428 -0.60930592 0.05001843
0.26496017 -0.61237013 0.063744307
0.2428 -0.58862495 0.050018311
0.26496017 -0.59158349 0.063744187
0.24280143 -0.56794715 0.050032735
0.26496175 -0.57080007 0.063758969
0.24280143 -0.54726613 0.050032973
0.26496175 -0.55001336 0.06375885
0.26496017 -0.5292238 0.063744307
0.2428 -0.5265823 0.050018311
0.2428 -0.5059014 0.05001843
0.26496017 -0.50843728 0.063744307
0.24279854 -0.48521787 0.050003767
0.26496017 -0.48765063 0.063744307
0.24279854 -0.46453717 0.050003886
0.26496017 -0.46686411 0.063744307
-0.31608054 -0.44460285 0.054621816
0.2428 -0.44385874 0.05001843
0.26496017 -0.44607753 0.063744307
0.26496017 -0.425291 0.063744307
0.24279854 -0.42317554 0.050003886
0.24279854 -0.40249473 0.050003767
0.26495859 -0.40450224 0.063729644
0.24279854 -0.38181388 0.050003886
0.26495859 -0.38371584 0.063729644
0.24279854 -0.36113313 0.050004005
0.26495859 -0.36292934 0.063729644
-0.4204852 -0.34171414 0.060248613
0.24279854 -0.34045237 0.050003886
0.26495859 -0.34214291 0.063729644
0.26495859 -0.32135639 0.063729525
0.24279854 -0.31977153 0.050003886
0.2428 -0.29909232 0.05001843
0.26496017 -0.30057159 0.063744307
0.2428 -0.27841142 0.050018311
0.26496017 -0.27978498 0.063744187
-0.48331156 -0.25897413 0.063480616
0.2428 -0.25773048 0.050018311
0.26496017 -0.25899845 0.063744187
0.24280143 -0.23705094 0.050032854
0.26496175 -0.23821312 0.06375885
0.26496175 -0.21742654 0.063758969
0.24280143 -0.21636985 0.050032854
-0.5033015 -0.19630957 0.058992863
0.24280143 -0.19568887 0.050032973
0.26496175 -0.19663979 0.063758969
0.24280143 -0.17500776 0.050032854
0.26496175 -0.17585313 0.063759089
0.24280143 -0.15432677 0.050032973
0.26496175 -0.1550664 0.063758969
-0.52322513 -0.13385303 0.054519773
0.24280143 -0.13364577 0.050032735
0.26496175 -0.13427974 0.06375885
0.26496175 -0.11349307 0.06375885
0.24280143 -0.11296479 0.050032854
0.24280143 -0.092283718 0.050032735
0.26496175 -0.09270636 0.06375885
0.24280143 -0.071602777 0.050032973
0.26496175 -0.071919776 0.06375885
0.24280143 -0.050921664 0.050032735
0.26496175 -0.051132981 0.06375885
0.24280143 -0.030240674 0.050032854
0.26496175 -0.030346356 0.06375885
0.24280143 -0.0095596891 0.050032735
0.26496175 -0.0095596453 0.06375885
0.2428 0.011121164 0.05001843
0.26496175 0.011226979 0.063758969
0.2428 0.031802103 0.05001843
0.26496017 0.032013513 0.063744187
0.2428 0.052483089 0.05001843
0.26496017 0.052800048 0.063744187
0.2428 0.073163942 0.050018311
0.26496017 0.073586628 0.063744307
0.2428 0.093844838 0.050018311
0.26496017 0.094373114 0.063744187
0.2428 0.11452569 0.05001843
0.26496017 0.1151597 0.063744307
-0.52452385 0.13582803 0.061549187
0.2428 0.13520668 0.05001843
0.26496017 0.13594632 0.063744187
0.2428 0.15588753 0.05001843
0.26496017 0.1567329 0.063744307
0.2428 0.17656848 0.05001843
0.26496017 0.17751935 0.063744187
-0.50205415 0.19739781 0.051947832
0.24279854 0.19724818 0.050003767
0.26496017 0.19830596 0.063744307
0.24279854 0.21792904 0.050003767
0.26495859 0.21909131 0.063729644
0.24279854 0.23860984 0.050003767
0.26495859 0.23987776 0.063729644
0.24279854 0.25929061 0.050004005
0.26495859 0.26066425 0.063729644
-0.46202344 0.2810882 0.060365319
0.24279854 0.27997142 0.050004005
0.26495859 0.28145072 0.063729525
0.24279854 0.30065224 0.050004005
0.26495859 0.30223706 0.063729644
0.2428 0.32133478 0.05001843
0.26496017 0.32302532 0.063744307
-0.4194347 0.34241462 0.053066134
0.2428 0.34201571 0.05001843
0.26496175 0.34381381 0.06375885
0.24280143 0.36269864 0.050032854
0.26496175 0.3646006 0.063759089
0.24280289 0.38338175 0.050047278
0.2649633 0.38538945 0.063773513
0.24280143 0.4040606 0.050032735
0.26496175 0.40617388 0.063759089
-0.33632225 0.42481902 0.05051136
0.24280143 0.42474157 0.050032854
0.26496175 0.42696062 0.063758969
-0.31623581 0.44644371 0.056062698
0.2428 0.44542012 0.05001843
0.26496017 0.4477447 0.063744307
-0.29606768 0.46816093 0.061651587
0.2428 0.46610114 0.05001843
0.26496017 0.46853134 0.063744187
0.24279854 0.48677933 0.050003886
0.26495859 0.48931518 0.063729644
0.24279854 0.50746012 0.050003886
0.26495859 0.51010162 0.063729644
0.24279854 0.52814096 0.050003767
0.26495859 0.53088814 0.063729644
0.24279854 0.54882181 0.050003886
0.26495859 0.5516746 0.063729644
0.24279854 0.56950259 0.050004005
0.26495859 0.57246107 0.063729644
0.2428 0.59018648 0.05001843
0.26496017 0.59325069 0.063744307
0.2428 0.61086732 0.05001843
0.26495859 0.61403388 0.063729644
0.28734794 -0.59457254 0.077611089
0.28734964 -0.57368213 0.077625871
0.28734964 -0.55278879 0.07762599
0.28734964 -0.53189534 0.077625871
0.28734794 -0.5109992 0.077611208
0.28734794 -0.49010581 0.077611089
-0.29720509 -0.46843457 0.073017359
0.28734794 -0.46921253 0.077611208
0.28734794 -0.44831923 0.077611089
0.28734794 -0.42742598 0.077611208
0.28734794 -0.40653262 0.077611089
0.28734794 -0.38563934 0.077611208
0.28734794 -0.36474597 0.077611089
0.28734794 -0.34385267 0.077611089
-0.4434379 -0.32259923 0.074492693
0.28734794 -0.3229593 0.077611089
0.28734794 -0.30206603 0.077611208
0.28734794 -0.28117272 0.077611089
0.28734964 -0.26028079 0.077625871
0.28734964 -0.23938733 0.077625871
-0.50651419 -0.21845639 0.077137709
0.28734964 -0.21849388 0.077625871
0.28734964 -0.19760056 0.077626109
0.28734964 -0.17670715 0.07762599
-0.52656627 -0.15554303 0.072604418
0.28734964 -0.15581369 0.07762599
0.28734964 -0.13492024 0.077625871
0.28734964 -0.11402678 0.077625871
-0.54825079 -0.093111575 0.076915979
0.28734964 -0.09313333 0.077625871
-0.54783273 -0.072173372 0.074743629
0.28734964 -0.072239965 0.077626109
-0.54741538 -0.05126882 0.072574973
0.28734964 -0.051346511 0.07762599
-0.54699868 -0.030397475 0.070409775
0.28734964 -0.030453056 0.07762599
-0.84011871 -0.0095597338 0.075039029
0.28734964 -0.0095596453 0.077625871
-0.84011871 0.011313868 0.075039148
0.28734964 0.011333809 0.077625871
-0.84011871 0.03218738 0.07503891
0.28734794 0.032226909 0.077611089
-0.84011871 0.053060845 0.075039029
0.28734794 0.053120188 0.077611208
-0.84011871 0.073934317 0.07503891
0.28734794 0.074013598 0.077611208
-0.84011871 0.094807826 0.075039148
0.28734794 0.094906919 0.077611327
0.28734794 0.11580011 0.077611089
0.28734794 0.13669343 0.077611089
-0.52695876 0.15740936 0.074728847
0.28734794 0.1575868 0.077611208
0.28734794 0.17848007 0.077611208
0.28734794 0.19937344 0.077611089
-0.50483608 0.2194241 0.067660332
0.28734794 0.22026667 0.077611208
0.28734624 0.24115862 0.077596307
0.28734624 0.26205191 0.077596307
0.28734794 0.28294671 0.077611089
0.28734794 0.30384001 0.077611208
-0.44321531 0.32417119 0.073046684
0.28734794 0.32473344 0.077611208
0.28734964 0.34562856 0.077625871
0.28734964 0.36652198 0.077625871
0.28735137 0.38741755 0.077640772
0.28734964 0.4083088 0.077625871
0.28734964 0.42920229 0.07762599
0.28734794 0.45009315 0.077611089
0.28734794 0.47098646 0.077611208
0.28734624 0.49187714 0.077596307
0.28734624 0.51277035 0.077596307
0.28734624 0.53366351 0.077596307
-0.1509622 0.55253744 0.06788063
0.28734794 0.55455971 0.077611208
0.28734794 0.5754531 0.077611089
0.28734964 0.59634978 0.077625871
0.30996683 -0.59759212 0.091621161
0.30996868 -0.57659417 0.091636062
-0.15184642 -0.55466986 0.08702445
0.30996868 -0.55559289 0.091636062
0.30996868 -0.53459156 0.091636062
0.30996683 -0.51358753 0.091621161
-0.2780602 -0.49257585 0.091561437
0.30996683 -0.4925864 0.09162128
0.30996683 -0.47158524 0.091621161
0.30996683 -0.45058411 0.091621161
0.30996683 -0.42958286 0.09162128
-0.38241151 -0.4078441 0.086577654
0.30996683 -0.40858179 0.09162128
-0.40337384 -0.38688171 0.086577654
0.30996683 -0.38758066 0.09162128
0.30996683 -0.3665795 0.091621161
0.30996683 -0.34557819 0.091621041
0.30996683 -0.32457706 0.091621161
-0.46663195 -0.30327976 0.088873148
0.30996683 -0.3035759 0.091621161
0.30996683 -0.28257477 0.091621041
0.30996868 -0.26157495 0.091636062
0.30996868 -0.24057376 0.091636062
0.30996868 -0.21957237 0.091636062
0.30996868 -0.19857119 0.091636181
-0.52995545 -0.17752749 0.090948582
0.30996868 -0.1775699 0.091636181
0.30996868 -0.15656859 0.091636062
0.30997053 -0.13556813 0.091651082
-0.55007005 -0.11436334 0.086369157
0.30997053 -0.11456665 0.091651082
0.30997053 -0.093565255 0.091651082
0.30997053 -0.072563909 0.091651201
0.30997053 -0.051562518 0.091651082
0.30996868 -0.030560948 0.091636181
0.30996868 -0.0095596453 0.091636062
0.30996868 0.011441614 0.091636062
0.30996868 0.032442827 0.091636181
0.30996683 0.053443909 0.091621161
0.30996683 0.07444495 0.091621161
0.30996683 0.095446162 0.091621161
0.30996683 0.11644724 0.091621041
0.30996683 0.13744846 0.091621161
0.30996683 0.15844968 0.091621161
-0.52942318 0.1792046 0.088068008
0.30996683 0.17945075 0.091621161
0.30996683 0.20045197 0.091621161
0.30996683 0.22145315 0.091621161
0.30996498 0.24245284 0.09160614
-0.48618126 0.262335 0.080425262
0.30996683 0.26345545 0.09162128
0.30996683 0.28445652 0.091621161
-0.46734944 0.30565292 0.093311548
0.30996683 0.30545771 0.091621161
0.30996683 0.32645896 0.09162128
0.30996868 0.34746203 0.091636181
0.30997053 0.36846545 0.091651201
0.30997053 0.38946673 0.091650963
0.30997053 0.41046816 0.091651201
0.30996868 0.43146721 0.091636062
0.30996868 0.45246837 0.091636181
0.30996683 0.47346711 0.091621161
0.30996683 0.49446827 0.091621161
0.30996683 0.51546937 0.091621161
-0.19346294 0.53452653 0.081908822
0.30996683 0.53647059 0.091621161
0.30996683 0.55747175 0.091621161
0.30996683 0.57847285 0.091621161
0.30996683 0.59947407 0.09162128
0.33282244 -0.57953632 0.10579169
0.33282441 -0.55842906 0.10580671
0.33282244 -0.53731579 0.10579157
0.33282244 -0.51620561 0.10579169
0.33282048 -0.49509263 0.10577655
0.33282048 -0.47398254 0.10577655
0.33282048 -0.45287237 0.10577655
-0.36376923 -0.43170646 0.10541403
0.33282048 -0.43176222 0.10577655
0.33282048 -0.41065213 0.10577655
0.33282048 -0.38954204 0.10577667
-0.42646056 -0.36782023 0.10110211
0.33282048 -0.36843196 0.10577667
0.33282048 -0.34732181 0.10577655
0.33282048 -0.32621163 0.10577667
0.33282048 -0.30510154 0.10577667
-0.49007082 -0.28375265 0.10339212
0.33282048 -0.28399146 0.10577655
0.33282244 -0.26288268 0.10579169
-0.50977296 -0.24090469 0.095543623
0.33282244 -0.24177234 0.10579169
0.33282244 -0.22066218 0.10579169
0.33282244 -0.19955191 0.10579181
0.33282441 -0.17844258 0.10580683
0.33282441 -0.1573322 0.10580671
-0.55363357 -0.13617931 0.1048857
0.33282441 -0.13622195 0.10580695
0.33282441 -0.11511151 0.10580671
0.33282441 -0.09400107 0.10580671
0.33282441 -0.072890818 0.10580695
0.33282441 -0.051780425 0.10580671
0.33282441 -0.030670036 0.10580671
0.33282244 -0.0095597338 0.10579169
0.33282244 0.011550567 0.10579181
0.33282244 0.032660823 0.10579157
0.33282244 0.053770989 0.10579169
0.33282048 0.074880898 0.10577679
0.33282048 0.095990933 0.10577667
0.33282048 0.1171011 0.10577667
0.33282244 0.13821198 0.10579169
0.33282048 0.15932131 0.10577655
0.33282048 0.18043147 0.10577667
-0.53190917 0.20121425 0.10152364
0.33282048 0.20154169 0.10577667
0.33282048 0.22265168 0.10577667
-0.5107038 0.24330221 0.10080111
0.33282048 0.24376185 0.10577655
0.33282048 0.26487207 0.10577655
0.33282048 0.28598216 0.10577655
0.33282048 0.30709231 0.10577655
0.33282244 0.32820439 0.10579169
-0.44832879 0.3493759 0.10626006
0.33282244 0.3493146 0.10579169
-0.42578796 0.36913776 0.096503377
0.33282441 0.37042686 0.10580671
-0.405545 0.39101642 0.10224664
0.33282441 0.39153719 0.10580695
-0.38521677 0.4129875 0.10801399
0.33282441 0.41264763 0.10580695
0.33282244 0.43375546 0.10579169
0.33282244 0.45486566 0.10579169
0.33282048 0.4759734 0.10577667
0.33282048 0.49708343 0.10577667
-0.23640573 0.51632518 0.096068501
0.33282048 0.51819354 0.10577667
0.33282048 0.53930372 0.10577667
0.33282048 0.5604139 0.10577667
0.33282048 0.58152395 0.10577667
0.35591459 -0.58250922 0.1200949
0.35591671 -0.56129193 0.12011015
0.35591459 -0.54006857 0.1200949
0.35591459 -0.51884818 0.12009501
0.35591248 -0.49762514 0.12007976
0.35591248 -0.47640488 0.12007964
0.35591248 -0.45518464 0.12007976
0.35591248 -0.4339644 0.12007976
0.35591248 -0.41274419 0.12007976
0.35591248 -0.3915239 0.12007964
0.35591248 -0.3703036 0.12007976
-0.4497925 -0.34855226 0.115767
0.35591248 -0.34908342 0.12007976
0.35591248 -0.32786331 0.12007976
0.35591248 -0.30664301 0.12007976
0.35591459 -0.28542429 0.12009478
-0.51376075 -0.26401648 0.11806655
0.35591459 -0.26420397 0.1200949
0.35591459 -0.24298352 0.1200949
0.35591671 -0.22176436 0.12011015
-0.53338796 -0.19981073 0.10952783
0.35591671 -0.200544 0.12011027
0.35591671 -0.17932351 0.12011027
0.35591671 -0.158103 0.12011027
0.35591671 -0.13688251 0.12011027
0.35591671 -0.11566207 0.12011027
0.35591671 -0.094441578 0.12011027
0.35591671 -0.07322108 0.12011027
-0.57818753 -0.052031629 0.12212634
0.35591671 -0.052000634 0.12011015
-0.57773823 -0.030778416 0.11988127
0.35591671 -0.03078014 0.12011027
0.35591671 -0.0095596453 0.12011015
0.35591459 0.011660716 0.1200949
0.35591459 0.032881029 0.12009501
0.35591459 0.054101303 0.1200949
0.35591459 0.075321667 0.12009501
0.35591248 0.096541539 0.12007976
0.35591459 0.11776252 0.1200949
-0.55490035 0.13851787 0.11146796
0.35591459 0.13898283 0.12009513
0.35591459 0.1602031 0.1200949
0.35591248 0.18142253 0.12007964
0.35591248 0.20264272 0.12007976
-0.53559417 0.2239807 0.12146926
0.35591248 0.2238629 0.12007976
0.35591248 0.24508299 0.12007976
0.35591248 0.26630336 0.12007976
-0.49184731 0.2868557 0.11388171
0.35591248 0.28752366 0.12007964
0.35591248 0.30874383 0.12007964
0.35591459 0.32996601 0.12009501
0.35591671 0.35118836 0.12011027
0.35591671 0.37240881 0.12011027
0.35591671 0.39362925 0.12011027
0.35591671 0.41484979 0.12011027
-0.36480278 0.43505105 0.11380565
0.35591459 0.43606782 0.12009501
-0.3443042 0.45721051 0.11963713
0.35591459 0.45728818 0.1200949
0.35591248 0.47850579 0.12007976
-0.27980381 0.49794441 0.1104368
0.35591248 0.499726 0.12007976
0.35591248 0.52094632 0.12007976
0.35591248 0.54216653 0.12007976
0.35591248 0.5633868 0.12007964
0.35591459 0.5846101 0.1200949
0.37925115 -0.56418484 0.13456357
0.37925115 -0.542853 0.13456357
0.37924889 -0.52151847 0.13454831
0.37924889 -0.5001868 0.13454807
0.37924665 -0.47885257 0.13453269
-0.34486547 -0.45589882 0.12449765
0.37924665 -0.45752108 0.13453269
0.37924665 -0.43618956 0.13453269
0.37924665 -0.41485804 0.13453269
0.37924665 -0.39352655 0.13453269
0.37924665 -0.37219515 0.13453281
0.37924665 -0.35086361 0.13453293
-0.4733783 -0.32907861 0.13060534
0.37924665 -0.32953215 0.13453281
0.37924665 -0.3082006 0.13453281
0.37924889 -0.28687075 0.13454819
0.37924889 -0.26553905 0.13454807
0.37924889 -0.24420744 0.13454807
-0.53686756 -0.22239959 0.12836158
0.37925115 -0.22287698 0.13456345
0.37925115 -0.20154531 0.13456357
0.37925115 -0.18021353 0.13456357
-0.55724591 -0.15829408 0.12365592
0.37925115 -0.15888189 0.13456368
0.37925115 -0.13755009 0.13456368
-0.58135372 -0.11634856 0.13794553
0.37925115 -0.11621834 0.13456357
-0.57908851 -0.094642237 0.12662768
0.37925115 -0.094886631 0.13456368
-0.57863766 -0.073319599 0.12437522
0.37925115 -0.073554844 0.13456357
0.37925115 -0.052223183 0.13456357
0.37925115 -0.030891482 0.13456368
0.37925115 -0.0095596891 0.13456357
0.37924889 0.011771879 0.13454819
0.37924889 0.033103582 0.13454807
0.37924889 0.054435194 0.13454807
0.37924889 0.075766809 0.13454819
0.37924889 0.09709838 0.13454831
0.37924889 0.11843008 0.13454807
0.37924889 0.1397617 0.13454819
-0.55753469 0.16051489 0.1251564
0.37924889 0.16109318 0.13454807
0.37924665 0.18242377 0.13453269
0.37924665 0.2037553 0.13453293
0.37924665 0.22508673 0.13453293
0.37924665 0.24641816 0.13453269
-0.51671439 0.26777133 0.1347487
0.37924665 0.26774979 0.13453281
0.37924665 0.28908128 0.13453269
0.37924889 0.31041452 0.13454831
-0.47280222 0.33082166 0.12704194
0.37924889 0.33174622 0.13454807
0.37925115 0.35307983 0.13456357
0.37925115 0.37441155 0.13456368
0.37925342 0.39574549 0.13457918
0.37925115 0.41707495 0.13456345
0.37925115 0.43840674 0.13456368
0.37924889 0.45973584 0.13454819
-0.32371685 0.47946161 0.12547803
0.37924889 0.48106745 0.13454831
0.37924665 0.50239617 0.13453293
0.37924665 0.52372777 0.13453293
0.37924665 0.5450592 0.13453293
0.37924889 0.56639391 0.13454807
0.40283161 -0.56710798 0.14916921
0.40283161 -0.54566395 0.14916945
0.4028292 -0.52421689 0.14915371
0.4028292 -0.50277281 0.14915383
-0.32568836 -0.48041722 0.14377129
0.40282682 -0.48132604 0.14913809
0.40282682 -0.45988211 0.14913821
0.40282682 -0.43843824 0.14913809
0.40282682 -0.41699427 0.14913821
0.40282682 -0.39555043 0.14913821
-0.43261743 -0.39472717 0.14319682
0.40282682 -0.3741065 0.14913809
0.40282682 -0.35266256 0.14913821
0.40282682 -0.3312186 0.14913833
-0.49721447 -0.30939043 0.14557338
0.4028292 -0.30977634 0.14915371
0.4028292 -0.28833234 0.14915371
0.4028292 -0.26688817 0.14915371
-0.54039812 -0.24530184 0.14747155
0.40283161 -0.24544555 0.14916933
0.40283161 -0.22400141 0.14916933
0.40283161 -0.20255716 0.14916933
-0.560911 -0.1807147 0.14270031
0.40283161 -0.18111302 0.14916921
0.40283161 -0.15966886 0.14916945
0.40283161 -0.13822472 0.14916945
0.40283161 -0.11678057 0.14916933
0.40283161 -0.095336333 0.14916933
0.40283161 -0.073892184 0.14916933
0.40283161 -0.052447945 0.14916933
0.40283161 -0.031003881 0.14916945
-0.88146842 -0.0095596891 0.14153731
0.40283161 -0.0095597338 0.14916933
-0.88146842 0.011825738 0.14153731
0.40283161 0.011884504 0.14916933
-0.88146842 0.033211164 0.14153731
0.4028292 0.033328477 0.14915371
-0.88146842 0.054596595 0.14153707
0.4028292 0.054772452 0.14915371
-0.88146842 0.075982019 0.14153731
0.4028292 0.076216511 0.14915371
-0.88146842 0.097367316 0.14153731
0.4028292 0.097660661 0.14915371
0.4028292 0.11910458 0.14915371
0.4028292 0.14054874 0.14915371
0.4028292 0.16199262 0.14915371
-0.56019539 0.18273197 0.13898194
0.4028292 0.18343668 0.14915371
0.40282682 0.20487964 0.14913821
0.40282682 0.22632352 0.14913833
0.40282682 0.24776758 0.14913821
0.40282682 0.26921144 0.14913821
0.40282682 0.29065537 0.14913821
-0.49764666 0.3119823 0.14812541
0.4028292 0.31210101 0.14915371
0.4028292 0.33354509 0.14915371
0.40283161 0.35499108 0.14916945
0.402834 0.37643754 0.14918494
0.402834 0.39788187 0.14918494
0.40283161 0.41932371 0.14916933
0.40283161 0.44076785 0.14916933
0.4028292 0.46220934 0.14915371
0.4028292 0.48365346 0.14915371
0.40282682 0.50509453 0.14913821
0.40282682 0.52653849 0.14913821
0.4028292 0.54798555 0.14915383
0.4028292 0.56942964 0.14915371
0.42666194 -0.54850453 0.16392994
0.42666194 -0.52694666 0.16392982
-0.30623847 -0.50527459 0.1632843
0.42665941 -0.50538611 0.1639142
0.42665941 -0.48382849 0.1639142
0.42665941 -0.4622708 0.16391397
0.42665941 -0.44071314 0.16391408
-0.41329047 -0.41831166 0.15814507
0.42665941 -0.41915554 0.16391408
0.42665941 -0.39759782 0.1639142
-0.45634359 -0.3753078 0.15831757
0.42665684 -0.37603807 0.16389847
0.42665684 -0.3544805 0.16389835
0.42665684 -0.33292297 0.16389835
0.42665941 -0.31136712 0.1639142
-0.52130997 -0.28948826 0.16070426
0.42665941 -0.28980941 0.1639142
0.42665941 -0.26825178 0.1639142
0.42666194 -0.24669543 0.16392994
0.42666194 -0.22513768 0.16392994
-0.56462401 -0.20344564 0.16199362
0.42666194 -0.20357989 0.16392994
0.42666194 -0.18202198 0.16392982
0.42666194 -0.16046427 0.16392982
-0.58520198 -0.13859439 0.15717268
0.42666194 -0.13890639 0.16392982
0.42666194 -0.11734869 0.16392994
0.4266645 -0.09579134 0.16394556
0.4266645 -0.074233413 0.16394556
0.4266645 -0.052675493 0.16394544
0.42666194 -0.03111748 0.16392982
0.42666194 -0.0095596891 0.16392994
0.42666194 0.011998146 0.16392994
0.42666194 0.033555891 0.16392994
0.42665941 0.055113412 0.1639142
0.42665941 0.076671027 0.16391408
0.42665941 0.098228686 0.1639142
0.42665941 0.11978631 0.1639142
-0.58642519 0.14131013 0.1632843
0.42665941 0.14134395 0.1639142
0.42665941 0.1629017 0.16391397
0.42665941 0.18445936 0.16391397
-0.5628829 0.20517276 0.15294647
0.42665941 0.20601715 0.1639142
0.42665684 0.22757331 0.16389835
-0.54196173 0.24839525 0.15593493
0.42665684 0.24913092 0.16389847
0.42665684 0.2706885 0.16389823
0.42665684 0.2922461 0.16389823
0.42665941 0.3138054 0.1639142
0.42666194 0.33536494 0.16392994
-0.47839144 0.35662004 0.16161621
0.42666194 0.35692281 0.16392982
-0.45691198 0.37821466 0.16200948
0.4266645 0.37848276 0.16394567
0.4266645 0.40004069 0.16394556
0.4266645 0.42159873 0.16394567
0.42666194 0.44315401 0.16392994
0.42666194 0.46471182 0.16392982
0.42665941 0.48626688 0.1639142
0.42665941 0.50782448 0.1639142
0.42665941 0.52938217 0.1639142
0.42665941 0.5509398 0.1639142
0.45074618 -0.52970284 0.17884779
0.45074347 -0.50802743 0.17883182
0.45074347 -0.48635492 0.17883182
0.45074347 -0.46468237 0.17883182
-0.39437196 -0.44287762 0.17797232
0.45074347 -0.44300982 0.1788317
0.45074347 -0.4213374 0.17883182
0.45074347 -0.39966485 0.1788317
0.45074347 -0.37799236 0.17883182
-0.48033187 -0.35567778 0.17361951
0.45074347 -0.35631981 0.17883182
0.45074347 -0.3346473 0.17883182
0.45074347 -0.31297478 0.1788317
0.45074347 -0.29130235 0.17883182
-0.54566896 -0.2693682 0.17600071
0.45074618 -0.26963127 0.17884755
0.45074618 -0.24795866 0.17884755
-0.56838894 -0.22649457 0.1815567
0.45074618 -0.22628599 0.17884755
0.45074618 -0.20461336 0.17884755
0.45074886 -0.18294175 0.17886364
-0.589104 -0.16115066 0.17666829
0.45074886 -0.16126898 0.17886364
0.45074886 -0.13959615 0.17886353
0.45074886 -0.11792344 0.17886364
-0.61107719 -0.096230164 0.17819512
0.45074886 -0.09625072 0.17886364
-0.61059135 -0.07450854 0.17585778
0.45074886 -0.074577965 0.17886364
-0.61010641 -0.052822918 0.17352438
0.45074886 -0.052905206 0.17886364
-0.6096189 -0.031173326 0.17117894
0.45074886 -0.031232491 0.17886364
0.45074618 -0.0095596891 0.17884755
0.45074618 0.012112935 0.17884755
0.45074618 0.033785559 0.17884755
0.45074618 0.055458188 0.17884755
0.45074347 0.077130415 0.1788317
0.45074347 0.098802865 0.17883182
0.45074347 0.12047535 0.1788317
0.45074347 0.14214788 0.17883182
-0.58926952 0.16373809 0.177495
0.45074347 0.1638204 0.1788317
0.45074347 0.18549296 0.17883182
0.45074347 0.20716545 0.1788317
-0.56759804 0.22872072 0.17744744
0.45074078 0.22883667 0.17881596
0.45074078 0.25050896 0.17881572
0.45074078 0.2721813 0.17881596
-0.52287591 0.29285505 0.16954887
0.45074347 0.29385558 0.17883182
0.45074347 0.31552804 0.1788317
0.45074618 0.33720237 0.17884767
0.45074618 0.35887501 0.17884767
0.45074886 0.38054988 0.17886364
-0.43624976 0.40063834 0.16803157
0.45074886 0.40222272 0.17886364
-0.41549844 0.42315888 0.17407954
0.45074886 0.42389545 0.17886353
-0.39465952 0.44577929 0.1801697
0.45074618 0.44556567 0.17884767
0.45074618 0.46723831 0.17884767
0.45074347 0.48890805 0.1788317
0.45074347 0.51058042 0.17883182
0.45074347 0.53225309 0.17883182
-0.2649262 -0.53074026 0.1844629
0.47508836 -0.51069981 0.19392526
0.4750855 -0.48890835 0.19390905
0.4750855 -0.46711978 0.19390917
0.4750855 -0.44533122 0.19390905
0.4750855 -0.42354265 0.19390917
0.4750855 -0.40175399 0.19390917
0.4750855 -0.37996548 0.19390917
0.4750855 -0.35817689 0.19390905
0.4750855 -0.33638835 0.19390917
-0.50458157 -0.33582991 0.18907392
0.4750855 -0.31459972 0.19390917
0.4750855 -0.29281121 0.19390917
0.47508836 -0.27102414 0.19392526
0.47508836 -0.24923538 0.19392526
0.47509116 -0.22744791 0.19394147
0.47509116 -0.20565917 0.19394147
-0.59306401 -0.18402502 0.19645393
0.47509116 -0.18387035 0.19394147
0.47509116 -0.16208142 0.19394135
0.47509116 -0.14029263 0.19394147
-0.61384541 -0.11841037 0.19151354
0.47509116 -0.1185038 0.19394135
0.47509116 -0.096714973 0.19394124
0.47509116 -0.074926093 0.19394135
0.47509116 -0.053137396 0.19394124
0.47509116 -0.031348564 0.19394147
0.47508836 -0.0095597338 0.19392526
0.47508836 0.012229097 0.19392526
0.47508836 0.034017749 0.19392514
0.47508836 0.055806406 0.19392514
0.4750855 0.077594571 0.19390917
0.4750855 0.099383272 0.19390917
0.4750855 0.12117179 0.19390905
0.4750855 0.14296035 0.19390917
0.4750855 0.16474886 0.19390905
-0.59214282 0.18639484 0.1918509
0.4750855 0.18653753 0.19390917
0.4750855 0.20832619 0.19390917
0.4750855 0.23011462 0.19390917
0.47508264 0.25190178 0.19389307
-0.54849344 0.2734296 0.19128859
0.47508264 0.27369022 0.19389307
0.4750855 0.29548043 0.19390905
0.4750855 0.31726894 0.19390917
-0.50359225 0.33774251 0.18323267
0.47508836 0.33905959 0.19392526
0.47509116 0.36085036 0.19394147
0.47509116 0.38263902 0.19394147
0.47509116 0.40442795 0.19394124
0.47509116 0.42621678 0.19394135
0.47508836 0.44800299 0.19392526
-0.3737281 0.46849525 0.18627024
0.47508836 0.46979183 0.19392526
0.4750855 0.49157757 0.19390905
0.4750855 0.5133661 0.19390917
-0.22219799 0.55708516 0.19461727
0.49968964 -0.49148926 0.209149
0.49968964 -0.46958336 0.20914888
-0.37517512 -0.46778402 0.19801831
0.49968964 -0.44767752 0.20914888
0.49968964 -0.42577159 0.20914888
0.49968964 -0.40386575 0.209149
0.49968964 -0.38195986 0.209149
0.49968964 -0.36005387 0.20914888
0.49968964 -0.33814809 0.20914888
-0.52909946 -0.31576264 0.20469916
0.49968964 -0.31624216 0.209149
0.49969262 -0.29433799 0.20916522
0.49969262 -0.27243188 0.20916522
-0.57220995 -0.24986933 0.2014116
0.49969262 -0.25052583 0.2091651
0.49969566 -0.22862107 0.20918155
0.49969566 -0.20671493 0.20918155
0.49969566 -0.18480882 0.20918155
0.49969566 -0.16290268 0.20918155
-0.617998 -0.14110337 0.21149313
0.49969566 -0.1409965 0.20918155
0.49969566 -0.1190904 0.20918143
0.49969566 -0.097184256 0.20918155
0.49969566 -0.075278118 0.20918155
0.49969566 -0.053371929 0.20918155
0.49969566 -0.031465832 0.20918155
0.49969566 -0.0095597776 0.20918143
0.49969262 0.012346408 0.20916522
0.49969262 0.034252286 0.20916522
0.49969262 0.056158297 0.20916522
0.49969262 0.078064434 0.20916522
0.49968964 0.099969827 0.209149
0.49969262 0.12187645 0.20916522
0.49969262 0.14378248 0.20916522
0.49968964 0.16568737 0.209149
0.49968964 0.18759333 0.20914876
-0.59504557 0.20928413 0.20635402
0.49968964 0.20949925 0.209149
0.49968964 0.23140512 0.209149
0.49968666 0.25330958 0.20913267
0.49968964 0.27521691 0.20914876
0.49968964 0.29712278 0.209149
-0.52918559 0.31857103 0.20518577
0.49969262 0.31903046 0.20916522
0.49969262 0.34093666 0.20916522
0.49969566 0.36284479 0.20918155
0.49969864 0.38475314 0.20919776
0.49969864 0.40665951 0.20919776
0.49969566 0.42856327 0.20918143
0.49969566 0.4504694 0.20918143
0.49969262 0.47237271 0.2091651
0.49969262 0.49427873 0.20916522
-0.2670868 0.53824723 0.2099787
-0.35569718 -0.49303961 0.2183032
0.52456015 -0.47207373 0.2245537
0.52456015 -0.45004922 0.2245537
0.52456015 -0.42802483 0.2245537
-0.46475387 -0.40439156 0.21294391
0.52456015 -0.40600029 0.2245537
-0.48750505 -0.38311708 0.21799195
0.52456015 -0.38397574 0.2245537
0.52456015 -0.36195129 0.2245537
0.52456015 -0.3399269 0.2245537
0.52456015 -0.31790236 0.2245537
-0.55388695 -0.29547036 0.22048199
0.52456337 -0.29587951 0.22457004
0.52456337 -0.27385494 0.22457016
0.52456337 -0.25183031 0.22457016
0.52456647 -0.22980705 0.22458661
-0.59707695 -0.20722219 0.2165035
0.52456647 -0.20778222 0.22458661
0.52456647 -0.18575762 0.22458661
0.52456647 -0.16373275 0.22458661
0.52456647 -0.14170811 0.22458661
0.52456647 -0.11968324 0.22458661
0.52456647 -0.097658679 0.22458661
0.52456647 -0.075633809 0.22458661
-0.64323366 -0.05364405 0.22685742
0.52456647 -0.053609118 0.22458661
-0.64271235 -0.031583276 0.22443855
0.52456647 -0.031584427 0.22458661
0.52456647 -0.0095596453 0.22458661
0.52456647 0.012464914 0.22458661
0.52456337 0.034489561 0.22457016
0.52456337 0.056514077 0.22457016
0.52456337 0.078538634 0.22457016
0.52456337 0.10056328 0.22457016
0.52456337 0.12258805 0.22457016
-0.61915839 0.14420864 0.21707594
0.52456337 0.14461248 0.22457004
0.52456015 0.16663611 0.2245537
0.52456015 0.18866073 0.2245537
0.52456015 0.21068515 0.2245537
0.52456015 0.23270957 0.2245537
-0.57450783 0.25369912 0.21335161
0.52456015 0.2547341 0.2245537
0.52456015 0.27675852 0.2245537
0.52456015 0.29878294 0.2245537
0.52456337 0.32080933 0.22457016
0.52456647 0.34283599 0.22458673
-0.51057076 0.36484137 0.22443855
0.52456647 0.36486077 0.22458661
0.52456969 0.3868877 0.22460306
0.52456969 0.40891257 0.22460306
0.52456647 0.43093494 0.22458661
0.52456647 0.45295963 0.22458649
0.52456337 0.47498173 0.22457016
-0.31246543 0.51920402 0.22550774
-0.22447047 -0.56072277 0.22741747
0.54970145 -0.45244682 0.24012625
-0.44583401 -0.42934188 0.23355901
0.54970145 -0.43030238 0.24012601
0.54970145 -0.40815803 0.24012601
0.54970145 -0.38601366 0.24012613
-0.51218271 -0.36310938 0.23395622
0.54970145 -0.36386931 0.24012601
0.54970145 -0.34172499 0.24012613
0.54970479 -0.31958252 0.24014282
0.54970479 -0.29743791 0.24014282
-0.57895142 -0.27495158 0.2364409
0.54970479 -0.27529356 0.2401427
0.54970807 -0.2531504 0.24015927
