ply
format ascii 1.0
comment PCL generated
element vertex 1350
property float x
property float y
property float z
element camera 0
property float view_px
property float view_py
property float view_pz
property float x_axisx
property float x_axisy
property float x_axisz
property float y_axisx
property float y_axisy
property float y_axisz
property float z_axisx
property float z_axisy
property float z_axisz
property float focal
property float scalex
property float scaley
property float centerx
property float centery
property int viewportx
property int viewporty
property float k1
property float k2
end_header
0.49549067 0.46914512 -0.14057016
0.49548763 0.48552147 -0.14058083
0.16913867 -0.71328223 -0.131235
0.5154925 -0.31893873 -0.12818444
0.5154925 -0.30246475 -0.12818444
0.5154925 -0.28599066 -0.12818444
-0.35666674 -0.26842368 -0.13653636
-0.061279535 -0.26849118 -0.1360203
-0.044865824 -0.26849118 -0.1360203
-0.028451703 -0.26849261 -0.13600963
-0.012037911 -0.26849261 -0.13600963
0.0043758899 -0.26849261 -0.13600963
0.020789675 -0.26849261 -0.13600963
0.037203468 -0.26849261 -0.13600963
0.053617261 -0.26849261 -0.13600963
0.070031054 -0.26849261 -0.13600963
0.086444847 -0.26849261 -0.13600963
0.10285864 -0.26849261 -0.13600963
0.11927245 -0.26849261 -0.13600963
0.13568625 -0.26849261 -0.13600963
0.15210003 -0.26849261 -0.13600963
0.16851383 -0.26849261 -0.13600963
0.18492761 -0.26849261 -0.13600963
0.20134139 -0.26849261 -0.13600963
0.2177552 -0.26849261 -0.13600963
0.23416901 -0.26849261 -0.13600963
0.25058278 -0.26849261 -0.13600963
0.26699659 -0.26849261 -0.13600963
0.28341037 -0.26849261 -0.13600963
0.29982418 -0.26849261 -0.13600963
0.31623796 -0.26849261 -0.13600963
0.33265176 -0.26849261 -0.13600963
0.34906557 -0.26849261 -0.13600963
0.36547935 -0.26849261 -0.13600963
0.38189316 -0.26849261 -0.13600963
0.39830697 -0.26849261 -0.13600963
0.41472071 -0.26849261 -0.13600963
0.43113452 -0.26849261 -0.13600963
0.44724727 -0.26834214 -0.13715959
0.51548934 -0.26951531 -0.12819529
0.4974305 -0.25235593 -0.13375974
0.5154925 -0.25304267 -0.12818438
-0.37328711 -0.2358017 -0.13482594
0.51549566 -0.23656985 -0.12817365
0.51572073 0.38958266 -0.12740409
-0.37395045 0.40568659 -0.12944037
0.51549566 0.40592062 -0.12817359
0.48249042 0.42235506 -0.12837934
0.51548934 0.42239055 -0.12819535
0.5154925 0.43886665 -0.12818444
-0.34109524 0.45522135 -0.12875837
0.5154925 0.45534074 -0.12818438
0.51549888 0.4718194 -0.12816268
0.021940075 -0.75110751 -0.1173293
0.02194076 -0.73455364 -0.11731845
0.13719669 -0.73261029 -0.1229285
0.02194076 -0.71799594 -0.11731833
0.02194076 -0.70143837 -0.11731845
0.02194076 -0.68488061 -0.11731833
0.02194076 -0.66832292 -0.11731833
0.02194076 -0.65176529 -0.11731833
0.02194076 -0.63520753 -0.11731851
0.02194076 -0.6186499 -0.11731845
0.02194076 -0.60209221 -0.11731845
0.02194076 -0.58553451 -0.11731845
0.02194076 -0.56897682 -0.11731833
0.02194076 -0.55241919 -0.11731833
0.02194076 -0.53586149 -0.11731833
0.02194076 -0.51930386 -0.11731833
0.02194076 -0.50274616 -0.11731827
0.02194076 -0.48618847 -0.11731845
0.02194076 -0.46963081 -0.11731845
0.02194076 -0.45307311 -0.11731845
0.02194076 -0.43651539 -0.11731833
0.02194076 -0.41995776 -0.11731845
0.02194076 -0.40340009 -0.11731833
0.53573179 -0.30429912 -0.11564285
0.53572851 -0.28772697 -0.11565375
0.53572851 -0.27115649 -0.11565381
-0.37510967 -0.25404713 -0.12002885
0.4852587 -0.25424898 -0.1183902
0.53572851 -0.25458595 -0.11565375
0.50214767 -0.2378372 -0.11719799
0.53573179 -0.23801681 -0.11564279
0.51649547 -0.22046404 -0.1247558
0.53573179 -0.22144623 -0.11564273
0.51755589 -0.20432647 -0.12113076
0.53573179 -0.20487562 -0.11564279
0.53573179 -0.18830508 -0.11564279
0.51881516 0.35833263 -0.11682582
0.53572851 0.35852215 -0.11565369
0.51731676 0.37402672 -0.12194818
0.53572851 0.37509266 -0.11565369
0.53573179 0.39166513 -0.11564273
0.50052172 0.4068937 -0.12290668
0.53572851 0.4082337 -0.11565369
0.46932846 0.42471981 -0.11609197
0.53572851 0.42480421 -0.11565369
-0.35810989 0.43969646 -0.12403822
0.53573179 0.44137692 -0.11564273
0.53572851 0.4579452 -0.11565369
-0.31039035 -0.32257429 -0.10457104
0.55620301 -0.27281561 -0.10297543
0.47272807 -0.25608611 -0.10347432
0.55620635 -0.25614887 -0.10296434
0.55620635 -0.23948078 -0.10296428
-0.39328009 -0.22231883 -0.10754567
0.50494409 -0.22233674 -0.10738003
0.55620635 -0.22281258 -0.10296428
-0.39278239 -0.20530537 -0.11134875
0.50618601 -0.20613886 -0.10301983
0.55620635 -0.20614445 -0.10296434
-0.39267299 -0.1886245 -0.11218476
0.52228987 -0.18929304 -0.10494763
0.55620635 -0.18947627 -0.10296428
-0.39267299 -0.1720273 -0.1121847
0.53967476 -0.17284657 -0.10250956
0.55620301 -0.17280716 -0.10297537
-0.39267299 -0.15543009 -0.11218476
0.55620974 -0.15614073 -0.10295314
-0.39267299 -0.13883293 -0.11218476
0.55620974 -0.13947254 -0.10295314
-0.39267299 -0.12223571 -0.11218482
0.55620635 -0.12280353 -0.10296434
-0.39267299 -0.10563852 -0.11218476
0.55620635 -0.10613532 -0.10296434
-0.39267299 -0.089041337 -0.1121847
0.55620635 -0.089467213 -0.10296428
-0.39267299 -0.072444074 -0.11218476
0.55620635 -0.072799027 -0.10296428
-0.39267299 -0.055846967 -0.11218476
0.55620635 -0.056130879 -0.10296428
-0.39267299 -0.039249755 -0.11218476
0.55620635 -0.039462693 -0.10296428
-0.39267299 -0.022652531 -0.11218476
0.55620635 -0.022794506 -0.10296428
-0.39267299 -0.0060553122 -0.11218476
0.55620635 -0.0061263181 -0.10296434
-0.39267299 0.010541869 -0.11218476
0.55620635 0.010541907 -0.10296428
-0.39267299 0.027139053 -0.11218482
0.55620635 0.027210018 -0.10296434
-0.39267299 0.043736234 -0.11218476
0.55620635 0.043878205 -0.10296434
-0.39267299 0.060333416 -0.1121847
0.55620635 0.060546353 -0.10296428
-0.39267299 0.076930672 -0.11218476
0.55620635 0.077214547 -0.10296428
-0.39267299 0.093527853 -0.1121847
0.55620635 0.093882732 -0.10296428
-0.39267299 0.110125 -0.11218476
0.55620635 0.11055088 -0.10296428
-0.39267299 0.12672222 -0.11218476
0.55620635 0.12721907 -0.10296428
-0.39267299 0.14331944 -0.11218482
0.55620635 0.14388725 -0.10296428
-0.39267299 0.15991661 -0.11218476
0.55620635 0.16055539 -0.10296434
-0.39267299 0.17651379 -0.11218482
0.55620635 0.17722365 -0.10296428
-0.39267299 0.19311105 -0.11218476
0.55620635 0.19389176 -0.10296434
-0.39267299 0.20970815 -0.11218476
0.55620635 0.21056002 -0.10296428
-0.39267299 0.22630538 -0.11218482
0.55620635 0.22722811 -0.10296428
-0.39267299 0.24290259 -0.11218476
0.55620635 0.24389622 -0.10296428
-0.39267299 0.25949979 -0.11218476
0.55620635 0.26056451 -0.10296428
-0.39267299 0.27609706 -0.11218476
0.55620635 0.27723265 -0.10296428
-0.39267299 0.29269421 -0.11218476
0.55620635 0.29390091 -0.10296428
-0.39267299 0.30929133 -0.11218476
0.55620974 0.3105706 -0.10295308
-0.39267299 0.32588857 -0.1121847
0.55620635 0.32723713 -0.10296434
-0.39267299 0.3424857 -0.11218476
0.53789431 0.34306231 -0.1084398
0.55620974 0.34390709 -0.10295331
-0.39267299 0.35908297 -0.1121847
0.5063377 0.36065063 -0.10248733
0.55620974 0.36057532 -0.10295314
-0.3928991 0.37597281 -0.11045706
0.50578517 0.37699395 -0.1044271
0.55620635 0.37724179 -0.10296422
-0.39375633 0.3937431 -0.10390651
0.50390774 0.39248386 -0.11101848
0.55620635 0.39390987 -0.10296428
0.48823035 0.40970922 -0.10766709
0.55620635 0.41057801 -0.10296428
-0.37633744 0.42588055 -0.11006057
0.45588976 0.42702019 -0.10413915
0.55620301 0.42724407 -0.10297531
0.55620974 0.44391674 -0.10295314
-0.32670647 0.47617283 -0.10796517
0.0067035109 -0.74304217 -0.092814207
0.0067035109 -0.72629583 -0.092814147
0.0067035109 -0.70954949 -0.092814207
0.0067035109 -0.69280326 -0.092814207
0.0067035109 -0.67605686 -0.092814267
0.0067035109 -0.65931058 -0.092814207
0.0067035109 -0.6425643 -0.092814207
0.0067035109 -0.62581795 -0.092814267
-0.34513804 -0.30786744 -0.091245949
-0.36075732 -0.28974211 -0.10111076
-0.37816414 -0.2738294 -0.095229447
-0.39453858 -0.24006222 -0.097928941
0.49021673 -0.23976536 -0.10049957
0.49320394 -0.22423996 -0.089720249
0.57692349 -0.22419517 -0.090135634
0.57692707 -0.20742938 -0.090124369
0.51006037 -0.1907277 -0.089417279
0.57693058 -0.19066337 -0.090113282
0.57693058 -0.17389627 -0.090113103
0.54295868 -0.15701704 -0.091570914
0.57693058 -0.1571292 -0.090113163
0.57693058 -0.1403621 -0.090113103
0.57692707 -0.12359431 -0.090124369
0.57692707 -0.10682731 -0.090124369
0.57692707 -0.090060256 -0.090124369
0.57692707 -0.073293246 -0.090124369
0.57692707 -0.056526154 -0.090124369
0.57692707 -0.039759174 -0.090124428
0.57692707 -0.022992237 -0.090124309
0.57692707 -0.0062251464 -0.090124369
0.57692707 0.010541831 -0.090124369
0.57692707 0.027308885 -0.090124309
0.57692707 0.044075862 -0.090124369
0.57692707 0.060842879 -0.090124369
0.57692707 0.077609971 -0.090124428
0.57692707 0.094376944 -0.090124428
0.57692707 0.11114396 -0.090124309
0.57692707 0.12791097 -0.090124309
0.57692707 0.14467794 -0.090124369
0.57692707 0.16144496 -0.090124369
0.57692707 0.17821206 -0.090124369
0.57692707 0.19497907 -0.090124369
0.57692707 0.21174608 -0.090124369
0.57692707 0.22851306 -0.090124428
0.57692707 0.24528 -0.090124369
0.57692707 0.26204714 -0.090124309
0.57692707 0.27881414 -0.090124369
0.57692707 0.29558113 -0.090124369
0.57692707 0.31234816 -0.090124369
0.54186708 0.32837173 -0.095207036
0.57692707 0.32911518 -0.090124369
0.52573115 0.34541121 -0.093183577
0.57692707 0.34588227 -0.090124369
0.57693058 0.36265099 -0.090113103
0.57692349 0.37941429 -0.090135574
0.49191254 0.39542979 -0.09438014
-0.39553058 0.41290879 -0.09034878
0.47569674 0.41251951 -0.092455983
0.44195694 0.42908555 -0.093407333
0.0071740746 -0.61155891 -0.084081709
-0.39682108 -0.25891736 -0.080487549
0.45999587 -0.25793648 -0.088451028
0.47808987 -0.2417198 -0.083573699
-0.41420606 -0.20878644 -0.076563358
0.49462277 -0.2079822 -0.084600568
-0.41402826 -0.19179657 -0.077846527
-0.41402826 -0.17493501 -0.077846527
0.52794832 -0.1742781 -0.085603952
-0.41402826 -0.15807348 -0.077846587
-0.41402826 -0.14121193 -0.077846348
0.54461491 -0.14064322 -0.086054683
-0.41402826 -0.12435038 -0.077846408
0.54492944 -0.12390942 -0.085006595
-0.41402826 -0.10748881 -0.077846408
0.54492944 -0.10710307 -0.085006475
-0.41402826 -0.09062732 -0.077846348
0.54492944 -0.090296663 -0.085006595
-0.41402826 -0.073765755 -0.077846408
0.54492944 -0.073490188 -0.085006595
-0.41402826 -0.056904234 -0.077846408
0.54492944 -0.056683749 -0.085006595
-0.41402826 -0.040042743 -0.077846348
0.54492944 -0.039877459 -0.085006475
-0.41402826 -0.023181183 -0.077846408
0.54492944 -0.023071015 -0.085006535
-0.41402826 -0.0063196551 -0.077846408
0.54492944 -0.0062645357 -0.085006535
0.54492944 0.010541869 -0.085006595
-0.41402826 0.010541907 -0.077846527
-0.41402826 0.027403396 -0.077846348
0.54492944 0.02734831 -0.085006595
-0.41402826 0.04426492 -0.077846408
0.54492944 0.044154674 -0.085006475
-0.41402826 0.061126485 -0.077846527
0.54492944 0.060961045 -0.085006535
-0.41402826 0.077988014 -0.077846348
0.54492944 0.077767521 -0.085006595
-0.41402826 0.094849534 -0.077846408
0.54492944 0.094573967 -0.085006595
-0.41402826 0.1117111 -0.077846408
0.54492944 0.11138029 -0.085006475
-0.41402826 0.12857258 -0.077846348
0.54492944 0.12818678 -0.085006475
-0.41402826 0.14543402 -0.077846408
0.54492944 0.14499313 -0.085006595
-0.41402826 0.16229565 -0.077846527
0.54492944 0.16179965 -0.085006535
-0.41402826 0.17915715 -0.077846527
0.54492944 0.17860594 -0.085006475
-0.41402826 0.19601868 -0.077846348
0.54492944 0.19541235 -0.085006475
-0.41402826 0.21288021 -0.077846408
0.54492944 0.21221887 -0.085006475
-0.41402826 0.22974181 -0.077846408
0.54492944 0.22902526 -0.085006595
-0.41402826 0.24660327 -0.077846348
0.54492944 0.24583164 -0.085006595
-0.41402826 0.26346487 -0.077846348
0.54492944 0.26263809 -0.085006475
-0.41402826 0.28032637 -0.077846527
0.54492944 0.27944449 -0.085006535
-0.41402826 0.29718801 -0.077846527
0.54494983 0.29625976 -0.084938884
0.5441823 0.31271249 -0.087495327
-0.41402826 0.31404942 -0.077846408
-0.41402826 0.33091098 -0.077846408
0.53000516 0.33080477 -0.078572392
-0.41402826 0.34777254 -0.077846527
0.51336253 0.34777609 -0.077823699
-0.41407859 0.36469281 -0.077483177
0.49475718 0.36362064 -0.084115505
0.49406379 0.38001004 -0.086617589
0.47967887 0.39838719 -0.077676177
0.4628368 0.41526487 -0.077596724
-0.059983201 0.43168744 -0.079887211
-0.043137379 0.43168744 -0.079887211
-0.026291557 0.43168744 -0.079887211
-0.0094457343 0.43168744 -0.079887211
0.007400088 0.43168744 -0.079887211
0.02424591 0.43168744 -0.079887211
0.041091733 0.43168744 -0.079887211
0.057937555 0.43168744 -0.079887211
0.074783377 0.43168744 -0.079887211
0.0916292 0.43168744 -0.079887211
0.10847504 0.43168744 -0.079887211
0.12532085 0.43168744 -0.079887211
0.14216667 0.43168744 -0.079887211
0.1590125 0.43168744 -0.079887211
0.17585832 0.43168744 -0.079887211
0.19270414 0.43168744 -0.079887211
0.20954996 0.43168744 -0.079887211
0.22639579 0.43168744 -0.079887211
0.24324164 0.43168744 -0.079887211
0.26008743 0.43168744 -0.079887211
0.27693325 0.43168744 -0.079887211
0.29377908 0.43168744 -0.079887211
0.3106249 0.43168744 -0.079887211
0.32747075 0.43168744 -0.079887211
0.34431654 0.43168744 -0.079887211
0.36115992 0.43168527 -0.079898477
0.37800568 0.43168527 -0.079898477
0.39485139 0.43168527 -0.079898477
0.4115296 0.43155009 -0.080600739
0.42730963 0.43072185 -0.084905088
-0.0088849217 -0.75172621 -0.067745328
-0.0088849217 -0.73478699 -0.067745328
-0.0088849217 -0.71784765 -0.067745447
-0.0088849217 -0.7009083 -0.067745447
-0.0088849217 -0.68396914 -0.067745268
-0.0088849217 -0.6670298 -0.067745328
-0.0088849217 -0.65009046 -0.067745328
-0.0088849217 -0.63315123 -0.067745328
-0.0088849217 -0.61621189 -0.067745328
0.44701916 -0.25978044 -0.07348001
0.46564913 -0.24365075 -0.066851556
-0.41493037 -0.22622128 -0.071335852
0.48125798 -0.2261696 -0.071815252
0.48279303 -0.2098318 -0.066117764
0.4976446 -0.19217989 -0.073696375
0.51597548 -0.17571379 -0.068649769
0.53133827 -0.15836841 -0.074015319
0.53313226 -0.14190231 -0.067882717
0.53349757 -0.1250409 -0.066633821
0.53349757 -0.10809316 -0.066633761
0.53349757 -0.09114527 -0.066633761
0.53349757 -0.074197382 -0.066633821
0.53349757 -0.057249531 -0.066633821
0.53349757 -0.040301643 -0.066633821
0.53349757 -0.023353795 -0.066633821
0.53349757 -0.0064059813 -0.066633701
0.53349757 0.010541831 -0.066633821
0.53349757 0.02748972 -0.066633821
0.53349757 0.044437572 -0.066633761
0.53349757 0.061385386 -0.066633821
0.53349757 0.078333274 -0.066633821
0.53349757 0.095281087 -0.066633701
0.53349757 0.11222897 -0.066633761
0.53349757 0.12917675 -0.066633821
0.53349757 0.14612463 -0.066633821
0.53349757 0.16307245 -0.066633821
0.53349757 0.18002041 -0.066633821
0.53349757 0.19696811 -0.066633701
0.53349757 0.21391596 -0.066633821
0.53349757 0.23086388 -0.066633761
0.53349757 0.24781173 -0.066633821
0.53349757 0.26475957 -0.066633821
0.53349757 0.2817075 -0.066633821
0.53353107 0.29867038 -0.066519141
0.53250974 0.31513518 -0.070010662
0.48297542 0.36663952 -0.065440774
-0.41445974 0.38202301 -0.074732482
0.48204303 0.38301051 -0.068901479
-0.41571862 0.40051696 -0.065647364
-0.39878568 0.43446103 -0.065475225
-0.38067469 0.44954208 -0.074846327
-0.36480725 0.46825767 -0.066037416
-0.38326851 -0.29629943 -0.05378741
-0.40055832 -0.27949584 -0.051929832
0.43365526 -0.26154605 -0.059144735
-0.4165397 -0.24447398 -0.059721768
0.46901995 -0.22809248 -0.05397296
0.48498917 -0.1936329 -0.057966709
0.50380552 -0.17716892 -0.051465094
0.51952559 -0.15974088 -0.056185782
0.52064186 0.31759396 -0.052266717
0.51792425 0.33325672 -0.06180805
0.50071591 0.35011774 -0.062613726
0.46978891 0.38603631 -0.051034868
0.46714711 0.40131721 -0.061128318
0.44977373 0.41802868 -0.062636673
-0.024837263 -0.7434721 -0.042103708
-0.024837263 -0.72633541 -0.042103648
-0.024837263 -0.70919871 -0.042103708
-0.024837263 -0.69206208 -0.042103529
-0.024837263 -0.67492545 -0.042103648
-0.024837263 -0.65778869 -0.042103648
-0.024837263 -0.640652 -0.042103708
-0.024837263 -0.62351531 -0.042103708
-0.41934192 -0.2639659 -0.039498389
0.42007107 -0.26331192 -0.044808209
0.4530195 -0.24561276 -0.049859941
-0.43633378 -0.21238291 -0.040625691
0.47073692 -0.21170376 -0.047412753
-0.43607304 -0.19507019 -0.042408288
0.47203141 -0.19506477 -0.042466998
-0.43607304 -0.17793584 -0.042408466
-0.43607304 -0.16080154 -0.042408288
-0.43607304 -0.14366712 -0.042408347
0.52142352 -0.14317432 -0.049522221
-0.43607304 -0.12653275 -0.042408347
0.52187485 -0.12619232 -0.047937572
-0.43607304 -0.10939851 -0.042408288
0.52187485 -0.10910056 -0.047937512
-0.43607304 -0.092264153 -0.042408347
0.52187485 -0.09200874 -0.047937512
-0.43607304 -0.075129867 -0.042408288
0.52187485 -0.074917041 -0.047937512
-0.43607304 -0.057995513 -0.042408347
0.52187485 -0.05782523 -0.047937512
-0.43607304 -0.04086116 -0.042408466
0.52187485 -0.040733457 -0.047937512
-0.43607304 -0.023726879 -0.042408347
0.52187485 -0.023641719 -0.047937512
-0.43607304 -0.0065924861 -0.042408466
0.52187485 -0.006549906 -0.047937512
-0.43607304 0.010541831 -0.042408288
0.52187485 0.010541794 -0.047937453
-0.43607304 0.027676225 -0.042408288
0.52187485 0.027633645 -0.047937512
-0.43607304 0.044810578 -0.042408466
0.52187485 0.044725455 -0.047937512
-0.43607304 0.061944857 -0.042408288
0.52187485 0.061817154 -0.047937512
-0.43607304 0.079079218 -0.042408347
0.52187485 0.078908972 -0.047937512
-0.43607304 0.096213497 -0.042408288
0.52187485 0.096000783 -0.047937572
-0.43607304 0.11334785 -0.042408347
0.52187485 0.11309248 -0.047937512
-0.43607304 0.13048229 -0.042408347
0.52187485 0.13018422 -0.047937512
-0.43607304 0.14761648 -0.042408347
0.52187485 0.14727598 -0.047937453
-0.43607304 0.16475092 -0.042408347
0.52187485 0.16436777 -0.047937512
-0.43607304 0.18188515 -0.042408347
0.52187485 0.18145962 -0.047937512
-0.43607304 0.19901955 -0.042408347
0.52187485 0.19855128 -0.047937512
-0.43607304 0.21615386 -0.042408466
0.52187485 0.21564312 -0.047937512
-0.43607304 0.23328823 -0.042408347
0.52187485 0.23273478 -0.047937512
0.52187485 0.24982668 -0.047937512
-0.43607304 0.25042263 -0.042408347
-0.43607304 0.26755688 -0.042408347
0.52187485 0.26691842 -0.047937572
-0.43607304 0.28469127 -0.042408347
0.52187485 0.2840102 -0.047937512
-0.43607304 0.30182558 -0.042408466
0.52183509 0.30108365 -0.048077345
-0.43607304 0.31895989 -0.042408288
-0.43607304 0.33609423 -0.042408347
0.50557584 0.33570397 -0.045076966
-0.43607304 0.35322857 -0.042408288
0.48783278 0.35245815 -0.047412574
-0.43623078 0.37053728 -0.041329682
0.47099048 0.36971059 -0.046443999
0.45442462 0.4042916 -0.044328451
-0.41822428 0.42081341 -0.047564268
0.43630689 0.42066258 -0.048380494
0.40598398 -0.26492727 -0.031693161
0.44019037 -0.247604 -0.032615483
-0.43732217 -0.23025925 -0.033868015
0.45658141 -0.23004693 -0.035838306
0.45847428 -0.21360764 -0.028387129
0.45900536 -0.19655855 -0.026296556
0.49144393 -0.17864701 -0.034009576
0.50751936 -0.1611359 -0.038064003
0.50949812 -0.14446288 -0.030923665
0.51004982 -0.12736273 -0.028932869
0.51004982 -0.11012463 -0.02893275
0.51004982 -0.092886522 -0.028932869
0.51004982 -0.075648531 -0.02893275
0.51004982 -0.058410428 -0.028932869
0.51004982 -0.041172363 -0.028932869
0.51004982 -0.023934299 -0.028932929
0.51004982 -0.0066961963 -0.02893275
0.51004982 0.010541869 -0.028932869
0.51004982 0.027779935 -0.028932929
0.51004982 0.045017965 -0.028932869
0.51004982 0.062256068 -0.028932869
0.51004982 0.079494134 -0.028932869
0.51004982 0.096732236 -0.028932869
0.51004982 0.1139703 -0.02893275
0.51004982 0.13120836 -0.028932869
0.51004982 0.14844646 -0.028932869
0.51004982 0.16568445 -0.02893275
0.51004982 0.18292251 -0.028932869
0.51004982 0.20016062 -0.028932869
0.51004982 0.21739864 -0.02893275
0.51004982 0.23463671 -0.028932869
0.51004982 0.25187483 -0.028932869
0.51004982 0.26911288 -0.028932929
0.51004982 0.28635094 -0.028932869
0.50993156 0.30353317 -0.029359698
0.50856441 0.32008442 -0.034292996
0.49303877 0.33818832 -0.028090417
0.47463149 0.35474908 -0.032532752
0.45876384 0.37281379 -0.02724731
-0.43695986 0.38852409 -0.036345124
0.45733708 0.38911372 -0.032863736
0.44138402 0.40722334 -0.027769864
0.42260009 0.42328054 -0.034210443
-0.041165397 -0.75236607 -0.015845358
-0.041165397 -0.73502725 -0.015845358
-0.041165397 -0.7176885 -0.015845358
-0.041165397 -0.70034957 -0.015845358
-0.041165397 -0.68301082 -0.015845358
-0.041165397 -0.66567206 -0.015845299
-0.041165397 -0.64833319 -0.015845358
-0.041165397 -0.63099444 -0.015845299
-0.041165397 -0.61365557 -0.015845299
-0.024148703 -0.61133635 -0.024214149
-0.0068742931 -0.61133635 -0.024214149
0.010401376 -0.61134297 -0.024190307
-0.36948812 -0.31748366 -0.025499701
0.39144391 -0.26640412 -0.019702673
-0.43933102 -0.24904539 -0.020133078
0.42705142 -0.24957369 -0.015557289
0.44394046 -0.23203488 -0.017392278
0.47885782 -0.18013945 -0.016385257
0.4953019 -0.1625503 -0.019690752
0.49619895 0.3225691 -0.016361177
0.4611913 0.357034 -0.017691791
0.4445492 0.39215237 -0.014920831
-0.43874288 0.4078635 -0.024154544
0.40848804 0.4257488 -0.020850241
-0.4227275 0.44416246 -0.015065014
-0.40519109 0.4612143 -0.016529143
-0.42402071 -0.28554147 -0.0057320595
-0.058294419 -0.26799822 -0.0067607164
-0.040885292 -0.26799962 -0.0067486763
-0.023476452 -0.26799962 -0.0067486763
-0.0060676038 -0.26799962 -0.0067486763
0.011341244 -0.26799962 -0.0067486763
0.028750084 -0.26799962 -0.0067486763
0.046158932 -0.26799962 -0.0067486763
0.063567765 -0.26799962 -0.0067486763
0.080976613 -0.26799962 -0.0067486763
0.098385461 -0.26799962 -0.0067486763
0.11579429 -0.26799962 -0.0067486763
0.13320315 -0.26799962 -0.0067486763
0.150612 -0.26799962 -0.0067486763
0.16802084 -0.26799962 -0.0067486763
0.18542969 -0.26799962 -0.0067486763
0.20283854 -0.26799962 -0.0067486763
0.22024736 -0.26799962 -0.0067486763
0.23765621 -0.26799962 -0.0067486763
0.25506502 -0.26799962 -0.0067486763
0.2724739 -0.26799962 -0.0067486763
0.28988275 -0.26799962 -0.0067486763
0.3072916 -0.26799962 -0.0067486763
0.32470042 -0.26799962 -0.0067486763
0.34210926 -0.26799962 -0.0067486763
0.35951811 -0.26799962 -0.0067486763
0.37610957 -0.26753259 -0.010540903
-0.4591974 -0.21609804 -0.0035020113
0.44599968 -0.21554455 -0.0090327263
-0.45885405 -0.19845819 -0.0057320595
0.44661599 -0.19838437 -0.0065308809
-0.45884472 -0.1810364 -0.0057926178
-0.45884472 -0.16362019 -0.0057926178
0.48283368 -0.16397408 -0.0011945963
-0.45884472 -0.14620402 -0.0057926178
0.49737436 -0.14577408 -0.011998713
-0.45884472 -0.12878779 -0.0057926178
0.49802065 -0.12855333 -0.0095999837
-0.45884472 -0.11137155 -0.005792737
0.49802387 -0.1111671 -0.0095880032
-0.45884472 -0.093955308 -0.0057926178
0.49802387 -0.093780108 -0.0095880032
-0.45884472 -0.076539226 -0.0057926178
0.49802387 -0.076393127 -0.0095880032
-0.45884472 -0.059122995 -0.0057926178
0.49802387 -0.059006102 -0.0095880032
-0.45884472 -0.041706763 -0.0057926178
0.49802387 -0.041619122 -0.0095880032
-0.45884472 -0.024290564 -0.0057926178
0.49802387 -0.024232136 -0.0095880032
-0.45884472 -0.0068743657 -0.0057926178
0.49802387 -0.006845152 -0.0095880032
-0.45884472 0.010541831 -0.0057926178
0.49802387 0.010541869 -0.0095880032
-0.45884472 0.027958028 -0.0057926178
0.49802387 0.027928853 -0.0095880032
-0.45884472 0.045374304 -0.0057926178
0.49802387 0.045315839 -0.0095880032
-0.45884472 0.062790461 -0.0057926178
0.49802387 0.06270282 -0.0095880032
-0.45884472 0.0802067 -0.0057926178
0.49802387 0.080089845 -0.0095880032
-0.45884472 0.097622782 -0.0057926178
0.49802387 0.097476751 -0.0095878243
-0.45884472 0.11503909 -0.005792737
0.49802387 0.11486366 -0.0095879436
-0.45884472 0.13245529 -0.0057926178
0.49802387 0.13225071 -0.0095879436
-0.45884472 0.14987144 -0.0057926178
0.49802387 0.14963765 -0.0095880032
-0.45884472 0.16728763 -0.0057926178
0.49802387 0.16702472 -0.0095878243
-0.45884472 0.1847039 -0.0057926178
0.49802387 0.18441163 -0.0095879436
-0.45884472 0.20212014 -0.0057926178
0.49802387 0.20179869 -0.0095878243
-0.45884472 0.2195363 -0.0057926178
0.49802387 0.21918564 -0.0095879436
-0.45884472 0.2369525 -0.0057926178
0.49802387 0.2365727 -0.0095879436
-0.45884472 0.25436869 -0.0057926178
0.49802387 0.2539596 -0.0095880032
-0.45884472 0.27178499 -0.0057926178
0.49802387 0.27134672 -0.0095879436
-0.45884472 0.28920117 -0.0057926178
0.49802387 0.28873363 -0.0095880032
-0.45884472 0.30661735 -0.0057926178
0.49782562 0.30602434 -0.010323644
-0.45884472 0.32403353 -0.0057926178
-0.45884472 0.34144986 -0.0057926178
0.48021084 0.34065649 -0.011215806
-0.45884472 0.35886598 -0.0057926178
0.44733822 0.35920358 -0.0035990477
0.44621986 0.37590277 -0.008138895
-0.45913017 0.37658182 -0.0039386749
0.42810762 0.41016927 -0.011131406
-0.4420335 0.42929488 -0.0016565323
0.39396608 0.42804822 -0.0084047318
-0.05788333 -0.7439267 0.011039853
-0.05788333 -0.726381 0.011039853
-0.05788333 -0.70883507 0.011039853
-0.05788333 -0.69128931 0.011039853
-0.05788333 -0.67374355 0.011039853
-0.05788333 -0.65619779 0.011039853
-0.05788333 -0.63865209 0.011039853
-0.05788333 -0.62110615 0.011039853
-0.40752432 -0.30393258 0.0013002157
-0.44278166 -0.26925686 0.0034587383
0.41366255 -0.25154978 0.0015560389
-0.46048909 -0.23443605 0.0048878193
0.43106848 -0.23404682 0.001275897
0.43328422 -0.21750534 0.010560632
0.46600968 -0.18163498 0.001275897
0.48504049 -0.14710674 0.0072368383
0.48577225 -0.12976237 0.010032773
0.48578513 -0.11222695 0.010081768
0.48578513 -0.094688565 0.010081768
0.48578513 -0.077150144 0.010081768
0.48578513 -0.059611768 0.010081768
0.48578513 -0.042073272 0.010081768
0.48578513 -0.024534969 0.010081887
0.48578513 -0.0069965497 0.010081887
0.48578513 0.010541794 0.010081887
0.48578513 0.028080212 0.010081768
0.48578513 0.045618594 0.010081768
0.48578513 0.063157015 0.010081887
0.48578513 0.080695391 0.010081887
0.48578513 0.098233812 0.010081887
0.48578513 0.1157722 0.010081768
0.48578513 0.1333106 0.010081768
0.48578513 0.15084903 0.010081768
0.48578513 0.1683874 0.010081768
0.48578513 0.18592598 0.010081887
0.48578513 0.20346436 0.010081887
0.48578513 0.22100277 0.010081768
0.48578513 0.23854116 0.010081887
0.48578513 0.25607958 0.010081768
0.48578513 0.27361795 0.010081768
0.48578513 0.29115638 0.010081887
0.48542541 0.30851495 0.0087075233
0.4836334 0.32509395 0.0018607378
0.46716952 0.3431513 0.0058416128
0.43346012 0.37904498 0.01129806
-0.46026155 0.39525688 0.0034098625
0.43153405 0.39522591 0.0032268763
0.41455621 0.41310081 0.0054258108
0.36310303 0.43154076 0.010499477
0.37895879 0.4300957 0.0026777983
-0.46309185 -0.25388652 0.021793365
0.4000687 -0.25355613 0.018931508
0.41789252 -0.23605095 0.019872189
0.43400329 -0.20024161 0.013574004
0.45296144 -0.1831551 0.019228578
0.4701587 -0.16542155 0.017608404
0.47082824 0.32764131 0.020244002
0.45385313 0.34563875 0.022848368
0.4340356 0.36186859 0.013709545
0.41828746 0.3983345 0.021582603
-0.46264747 0.41548762 0.018906951
0.4006744 0.41597232 0.021644711
-0.057832483 0.43204737 0.013241649
-0.040269755 0.43204737 0.013241649
-0.022707023 0.43204737 0.013241649
-0.0051442981 0.43204737 0.013241649
0.012418434 0.43204737 0.013241649
0.029981159 0.43204737 0.013241649
0.047543891 0.43204737 0.013241649
0.065106623 0.43204737 0.013241649
0.082669355 0.43204737 0.013241649
0.10023207 0.43204737 0.013241649
0.1177948 0.43204737 0.013241649
0.13535753 0.43204737 0.013241649
0.15292028 0.43204737 0.013241649
0.17048299 0.43204737 0.013241649
0.18804413 0.4320451 0.013229251
0.20560673 0.4320451 0.013229251
0.22316939 0.4320451 0.013229251
0.24073201 0.4320451 0.013229251
0.25829464 0.4320451 0.013229251
0.27585521 0.43204284 0.013216972
0.29341775 0.43204284 0.013216972
0.31098026 0.43204284 0.013216972
0.32854283 0.43204284 0.013216972
0.34610537 0.43204284 0.013216972
0.38611352 -0.25551218 0.035871625
-0.48305112 -0.22007227 0.036210775
0.42027688 -0.21947047 0.030197144
-0.48246518 -0.20199792 0.032586336
0.42116147 -0.20213103 0.034027219
-0.48237818 -0.18424061 0.032047987
0.43968117 -0.18469101 0.037366867
-0.48237818 -0.16653314 0.032047987
0.4572717 -0.16689332 0.036725879
-0.48237818 -0.14882568 0.032048106
0.4724977 -0.14846319 0.026815772
-0.48237818 -0.13111818 0.032047987
0.47330904 -0.13099261 0.030009627
-0.48237818 -0.11341064 0.032047987
0.47333443 -0.11330617 0.030109644
-0.48237818 -0.095703132 0.032047987
0.47333443 -0.095613614 0.030109644
-0.48237818 -0.077995636 0.032047987
0.47333443 -0.077921063 0.030109644
-0.48237818 -0.060288131 0.032047987
0.47333443 -0.060228504 0.030109763
-0.48237818 -0.042580597 0.032047987
0.47333443 -0.042535916 0.030109644
-0.48237818 -0.024873169 0.032047987
0.47333443 -0.024843281 0.030109644
-0.48237818 -0.0071656313 0.032047987
0.47333443 -0.0071508009 0.030109763
-0.48237818 0.010541869 0.032047987
0.47333443 0.010541907 0.030109644
-0.48237818 0.02824937 0.032047987
0.47333443 0.028234463 0.030109644
-0.48237818 0.045956872 0.032047987
0.47333443 0.045927018 0.030109644
-0.48237818 0.063664407 0.032047987
0.47333443 0.063619614 0.030109644
-0.48237818 0.081371948 0.032047987
0.47333443 0.081312247 0.030109644
-0.48237818 0.099079303 0.032047987
0.47333443 0.099004731 0.030109644
-0.48237818 0.1167868 0.032047987
0.47333443 0.11669732 0.030109644
-0.48237818 0.13449438 0.032047987
0.47333443 0.13438995 0.030109882
-0.48237818 0.15220189 0.032047987
0.47333443 0.1520825 0.030109644
-0.48237818 0.16990933 0.032047987
0.47333443 0.16977505 0.030109644
-0.48237818 0.18761687 0.032047987
0.47333443 0.18746758 0.030109644
-0.48237818 0.20532441 0.032047987
0.47333443 0.20516013 0.030109644
-0.48237818 0.22303188 0.032048106
0.47333443 0.22285287 0.030109644
-0.48237818 0.24073933 0.032047987
0.47333443 0.24054536 0.030109763
-0.48237818 0.25844681 0.032047987
0.47333443 0.25823799 0.030109644
-0.48237818 0.27615434 0.032047987
0.47333443 0.27593049 0.030109644
-0.48237818 0.29386193 0.032047987
0.47334081 0.29362619 0.030134797
-0.48237818 0.3115693 0.032047987
0.47281438 0.31104776 0.028062344
-0.48237818 0.32927689 0.032047987
-0.48237818 0.34698436 0.032048106
-0.48243281 0.36474386 0.032385945
0.42117882 0.36500818 0.03410244
-0.48294756 0.38296872 0.035570383
0.42043573 0.38221133 0.030884624
-0.075005375 -0.75303698 0.038562059
-0.075005375 -0.7352792 0.03856194
-0.075005375 -0.71752167 0.038562059
-0.075005375 -0.69976407 0.038562059
-0.075005375 -0.6820063 0.038562059
-0.075005375 -0.6642487 0.038562059
-0.075005375 -0.64649099 0.03856194
-0.075005375 -0.62873346 0.038562059
-0.0749982 -0.61110127 0.03902781
-0.057237264 -0.61109793 0.039015293
-0.039476126 -0.61109793 0.039015293
-0.021714509 -0.61110127 0.03902781
-0.0039526969 -0.61110467 0.039040446
0.013809994 -0.61111146 0.039065719
-0.44898894 -0.2922982 0.045898318
-0.48476672 -0.23895557 0.046823382
0.40449601 -0.23808686 0.038763404
0.45969659 -0.14983173 0.046569705
0.45997775 0.31361911 0.047711015
0.45775813 0.33019871 0.038700581
0.44028497 0.3481324 0.039896965
-0.48466223 0.40249965 0.04617703
0.40470129 0.40139997 0.039682865
0.38653612 0.4188385 0.03783226
-0.46738905 0.43878394 0.049704552
-0.44861326 0.45540062 0.043329716
-0.46755353 -0.2750845 0.050772667
0.37191826 -0.25747976 0.05291152
0.39087927 -0.24015807 0.057981849
0.40704638 -0.22147092 0.050187469
0.40809011 -0.20405573 0.054862976
0.4261089 -0.18622231 0.05545032
0.4441551 -0.1683858 0.056114674
0.46062535 -0.13224465 0.050340176
0.46065986 -0.11440391 0.050480008
0.46065986 -0.096554443 0.050480008
0.46065986 -0.07870508 0.050480008
0.46065986 -0.060855679 0.050480008
0.46065986 -0.043006361 0.050480008
0.46065986 -0.025156887 0.050480008
0.46065986 -0.007307604 0.050480008
0.46065986 0.010541869 0.050480008
0.46065986 0.028391229 0.050480008
0.46065986 0.046240665 0.050480008
0.46065986 0.064090066 0.050480127
0.46065986 0.081939422 0.050480008
0.46065986 0.099788748 0.050480008
0.46065986 0.11763826 0.050480008
0.46065986 0.13548754 0.050480008
0.46065986 0.15333705 0.050480008
0.46065986 0.17118633 0.050480008
0.46065986 0.18903573 0.050480008
0.46065986 0.20688516 0.050480008
0.46065986 0.22473453 0.050480008
0.46065986 0.24258389 0.050480008
0.46065986 0.26043332 0.050480008
0.46065986 0.27828267 0.050480008
0.46067864 0.29614151 0.050556302
0.44446939 0.33279416 0.057431698
0.42641586 0.35060155 0.056779385
0.40809298 0.36820638 0.054875851
0.40710032 0.38537094 0.050429225
0.39089584 0.40451199 0.058058739
0.37202689 0.42160094 0.053434253
-0.092545882 -0.74439931 0.066769838
-0.092545882 -0.72642452 0.066769958
-0.092545882 -0.70844978 0.066769838
-0.092545882 -0.69047499 0.066769958
-0.092545882 -0.67250013 0.066769838
-0.092545882 -0.65452528 0.066769838
-0.092545882 -0.63655061 0.066770077
-0.092545882 -0.61857581 0.066769838
-0.4340097 -0.31294715 0.066357255
-0.48799124 -0.25907999 0.066769958
0.35742867 -0.25942889 0.069791555
0.39358366 -0.22350661 0.070528865
-0.50688994 -0.20565958 0.072224975
-0.50671226 -0.18755391 0.071175933
0.4123221 -0.18777782 0.073819637
-0.50671226 -0.16954523 0.071175933
-0.50671226 -0.15153655 0.071175933
0.44666398 -0.15122141 0.066627979
-0.50671226 -0.13352785 0.071176052
0.44771528 -0.13351904 0.071033478
-0.50671226 -0.11551908 0.071175933
0.44776165 -0.11552186 0.071227551
-0.50671226 -0.097510397 0.071175933
0.44776165 -0.097512797 0.071227789
-0.50671226 -0.079501681 0.071175933
0.44776165 -0.079503633 0.071227789
-0.50671226 -0.061493002 0.071175933
0.44776165 -0.061494648 0.071227789
-0.50671226 -0.043484323 0.071175933
0.44776165 -0.043485485 0.07122767
-0.50671226 -0.02547553 0.071175814
0.44776165 -0.025476316 0.07122767
-0.50671226 -0.0074668489 0.071175933
0.44776165 -0.0074672606 0.071227789
-0.50671226 0.010541831 0.071175814
0.44776165 0.010541907 0.07122767
-0.50671226 0.028550586 0.071175933
0.44776165 0.028550962 0.071227789
-0.50671226 0.046559229 0.071175933
0.44776165 0.046560094 0.07122767
-0.50671226 0.064567983 0.071176052
0.44776165 0.064569183 0.071227789
-0.50671226 0.082576662 0.071175814
0.44776165 0.082578316 0.071227789
-0.50671226 0.10058542 0.071175933
0.44776165 0.10058745 0.07122767
-0.50671226 0.11859414 0.071175933
0.44776165 0.11859654 0.071227789
-0.50671226 0.13660273 0.071175933
0.44776165 0.13660555 0.07122767
-0.50671226 0.15461148 0.071175933
0.44776165 0.15461464 0.071227789
-0.50671226 0.17262028 0.071175933
0.44776165 0.17262377 0.07122767
-0.50671226 0.19062889 0.071175933
0.44776165 0.19063284 0.071227789
-0.50671226 0.20863764 0.071175933
0.44776165 0.20864201 0.07122767
-0.50671226 0.22664636 0.071175933
0.44776165 0.22665113 0.07122767
-0.50671226 0.244655 0.071175933
0.44776165 0.24466023 0.071227789
-0.50671226 0.26266369 0.071176052
0.44776165 0.26266932 0.07122767
-0.50671226 0.28067252 0.071175933
0.44776165 0.28067842 0.071227789
-0.50671226 0.2986812 0.071175933
0.44778943 0.29870194 0.071344256
-0.50671226 0.31668985 0.071175933
0.44685173 0.31619769 0.06741488
-0.50671226 0.33469856 0.071175933
-0.50671226 0.35270736 0.071176052
0.41229022 0.35307315 0.073676944
-0.50690305 0.37088948 0.072302699
0.39353627 0.38858446 0.070309043
-0.48808092 0.4240602 0.067324519
0.35718811 0.42428416 0.068589687
-0.43461642 0.47868019 0.070735812
0.34256271 -0.26130819 0.086066484
0.37696341 -0.24222763 0.077184916
-0.5077762 -0.2242001 0.077458262
0.3947801 -0.20601566 0.076079488
0.43076193 -0.16988569 0.075598598
0.43340659 -0.15263632 0.0870502
0.43350053 0.31882048 0.087456942
0.43087 0.33537626 0.076066375
0.39476609 0.37146097 0.076014519
-0.50785995 0.38982022 0.077952862
0.37676063 0.40758598 0.076209426
0.34201333 0.42687312 0.08321178
-0.11052067 -0.75374514 0.095676184
-0.11052067 -0.73554784 0.095676184
-0.11052067 -0.71735048 0.095676064
-0.11052067 -0.69915318 0.095676184
-0.11052067 -0.68095595 0.095676184
-0.11052067 -0.66275853 0.095676064
-0.11052067 -0.64456135 0.095676184
-0.11052067 -0.62636405 0.095676184
-0.49338779 -0.28116643 0.10015225
-0.50995696 -0.24364491 0.090335131
0.3627682 -0.24430601 0.096469522
0.3798717 -0.22557297 0.091177464
0.38121641 -0.20800801 0.097647309
0.39827287 -0.18934128 0.092284083
0.41714531 -0.1714119 0.09542501
0.43456662 -0.13481471 0.092073321
0.43462747 -0.1166594 0.092336774
0.43462747 -0.098487757 0.092336774
0.43462747 -0.080316186 0.092336774
0.43462747 -0.062144548 0.092336774
0.43462747 -0.043973021 0.092336893
0.43462747 -0.02580134 0.092336774
0.43462747 -0.0076297373 0.092336774
0.43462747 0.010541831 0.092336893
0.43462747 0.028713474 0.092336774
0.43462747 0.046885043 0.092336774
0.43462747 0.065056607 0.092336774
0.43462747 0.083228327 0.092336893
0.43462747 0.10139989 0.092336893
0.43462747 0.1195715 0.092336774
0.43462747 0.13774301 0.092336774
0.43462747 0.15591469 0.092336893
0.43462747 0.17408633 0.092336774
0.43462747 0.19225784 0.092336774
0.43462747 0.2104294 0.092336774
0.43462747 0.22860119 0.092336774
0.43462747 0.24677265 0.092336893
0.43462747 0.26494431 0.092336774
0.43462747 0.28311586 0.092336774
0.4346031 0.30127451 0.092231393
0.417045 0.33799636 0.094975948
0.39781874 0.35548645 0.090177178
0.38110912 0.37471202 0.097131014
0.37965283 0.39178795 0.090124607
-0.5102424 0.4102636 0.092020631
0.36235821 0.41067004 0.094421148
0.32630762 0.42916894 0.096178532
-0.11052067 -0.61084902 0.10592449
-0.092244469 -0.61084902 0.10592449
-0.07396847 -0.61084551 0.10591114
-0.055692371 -0.61084551 0.10591114
-0.037415452 -0.61085248 0.10593784
-0.019138634 -0.610856 0.10595119
-0.00086098909 -0.61086297 0.10597777
0.017416336 -0.61086643 0.10599124
-0.47546881 -0.29966408 0.10218394
0.32738027 -0.26314625 0.10198462
0.36583498 -0.22763593 0.11179185
-0.53188848 -0.19098189 0.1116581
0.38393921 -0.19090474 0.11074734
-0.53188848 -0.17266156 0.1116581
-0.53188848 -0.15434122 0.1116581
0.41991222 -0.15407524 0.1078192
-0.53188848 -0.13602085 0.1116581
-0.53188848 -0.11770055 0.1116581
-0.53188848 -0.099380217 0.1116581
-0.53188848 -0.081059881 0.1116581
-0.53188848 -0.062739506 0.1116581
-0.53188848 -0.044419177 0.1116581
-0.53188848 -0.026098875 0.1116581
-0.53188848 -0.0077784676 0.1116581
-0.53188848 0.010541869 0.1116581
-0.53188848 0.028862242 0.1116581
-0.53188848 0.047182463 0.11165798
-0.53188848 0.065502912 0.1116581
-0.53188848 0.083823137 0.1116581
-0.53188848 0.10214351 0.1116581
-0.53188848 0.12046389 0.1116581
-0.53188848 0.13878414 0.1116581
-0.53188848 0.15710454 0.1116581
-0.53188848 0.17542492 0.1116581
-0.53188848 0.19374518 0.11165798
-0.53188848 0.21206555 0.1116581
-0.53188848 0.23038596 0.1116581
-0.53188848 0.24870618 0.11165798
-0.53188848 0.26702663 0.1116581
-0.53188848 0.28534701 0.1116581
-0.53188848 0.30366728 0.11165798
-0.53188848 0.32198766 0.1116581
0.4198705 0.32146081 0.10763228
-0.53188848 0.34030786 0.11165786
-0.53188848 0.35862824 0.1116581
0.38305879 0.35787559 0.10651135
0.36548123 0.39500496 0.11002469
0.34765288 0.4137345 0.11251581
0.31005165 0.43111423 0.1071651
-0.49439853 0.44925946 0.10640466
-0.12894608 -0.74489993 0.12530708
-0.12894608 -0.72647458 0.12530708
-0.12894608 -0.70804906 0.12530708
-0.12894608 -0.68962371 0.12530696
-0.12894608 -0.67119825 0.1253072
-0.12894608 -0.6527729 0.12530708
-0.12894608 -0.63434756 0.12530708
-0.12894608 -0.61592203 0.12530708
-0.51388603 -0.26447996 0.11353505
0.31177425 -0.2648679 0.11689436
0.34833765 -0.24641876 0.11607385
-0.5334025 -0.22847834 0.12020922
-0.53217095 -0.20944962 0.11325336
0.36732799 -0.21000369 0.11925161
0.40329343 -0.17296319 0.11557639
0.42114329 -0.13612407 0.11333382
0.42125714 -0.1178183 0.11384368
0.42125714 -0.099481106 0.11384368
0.42125714 -0.081143953 0.11384368
0.42125714 -0.06280683 0.1138438
0.42125714 -0.04446964 0.1138438
0.42125714 -0.026132481 0.1138438
0.42125714 -0.0077953637 0.11384368
0.42125714 0.010541831 0.11384368
0.42125714 0.028879063 0.1138438
0.42125714 0.047216259 0.1138438
0.42125714 0.065553337 0.11384368
0.42125714 0.083890498 0.11384368
0.42125714 0.10222758 0.11384368
0.42125714 0.12056477 0.1138438
0.42125714 0.13890196 0.1138438
0.42125714 0.15723912 0.11384368
0.42125714 0.17557631 0.1138438
0.42125714 0.1939135 0.11384368
0.42125714 0.21225071 0.11384368
0.42125714 0.23058783 0.11384368
0.42125714 0.24892499 0.1138438
0.42125714 0.26726219 0.1138438
0.42125714 0.28559932 0.1138438
0.42116123 0.30388364 0.11341429
0.40292865 0.34061638 0.11388409
0.36791968 0.36017129 0.12220788
-0.53223741 0.37725213 0.1136291
0.36716342 0.37799117 0.1184293
-0.53370851 0.39693078 0.12193763
-0.51469439 0.43308717 0.11830807
-0.055490881 0.43243688 0.11463583
-0.037147619 0.43243688 0.11463583
-0.018804356 0.43243688 0.11463583
-0.00046109408 0.43243688 0.11463583
0.017882161 0.43243688 0.11463583
0.036225431 0.43243688 0.11463583
0.0545687 0.43243688 0.11463583
0.072911955 0.43243688 0.11463583
0.091254093 0.43243459 0.11462247
0.10959723 0.43243459 0.11462247
0.12794039 0.43243459 0.11462247
0.14628357 0.43243459 0.11462247
0.16462517 0.43243209 0.11460912
0.18296823 0.43243209 0.11460912
0.20131129 0.43243209 0.11460912
0.21965435 0.43243209 0.11460912
0.23799741 0.43243209 0.11460912
0.25633839 0.43242979 0.11459565
0.27468133 0.43242979 0.11459565
0.29281288 0.43220869 0.11334717
-0.4777067 0.46952435 0.11671948
0.27834594 -0.26722002 0.13726449
0.29553953 -0.2663174 0.12944734
-0.53611463 -0.24851541 0.13552749
0.3336052 -0.24853157 0.13567781
0.35154817 -0.22973397 0.13275635
0.36936867 -0.19248831 0.12944746
0.38916922 -0.17452845 0.13591027
0.40616602 -0.155536 0.12890351
0.40747595 -0.13745721 0.13498092
0.40764087 -0.11899858 0.13574624
0.40764087 -0.10049279 0.13574624
0.40764087 -0.081987001 0.13574624
0.40764087 -0.063481286 0.13574624
0.40764087 -0.044975497 0.13574624
0.40764087 -0.026469709 0.13574636
0.40764087 -0.0079638828 0.13574612
0.40764087 0.010541869 0.13574612
0.40764087 0.02904762 0.13574612
0.40764087 0.047553413 0.13574624
0.40764087 0.066059195 0.13574612
0.40764087 0.084564991 0.13574624
0.40764087 0.10307062 0.13574612
0.40764087 0.12157641 0.13574624
0.40764087 0.1400822 0.13574612
0.40764087 0.15858801 0.13574624
0.40764087 0.17709377 0.13574624
0.40764087 0.1955996 0.13574624
0.40764087 0.21410535 0.13574624
0.40764087 0.23261103 0.13574624
0.40764087 0.25111678 0.13574624
0.40764087 0.26962262 0.13574624
0.40764087 0.28812838 0.13574624
0.40747005 0.30653661 0.13495362
0.40595514 0.32411644 0.1279254
0.38854203 0.34325036 0.13289273
0.35107109 0.39827889 0.13027716
0.33261493 0.41674948 0.13031805
-0.054923695 -0.267443 0.13919592
-0.03639137 -0.267443 0.13919592
-0.017859034 -0.267443 0.13919592
0.00067327917 -0.267443 0.13919592
0.019205607 -0.267443 0.13919592
0.037737928 -0.267443 0.13919592
0.056270264 -0.267443 0.13919592
0.0748026 -0.267443 0.13919592
0.093334921 -0.267443 0.13919592
0.11186723 -0.267443 0.13919592
0.13039955 -0.267443 0.13919592
0.14893189 -0.267443 0.13919592
0.16746423 -0.267443 0.13919592
0.18599653 -0.267443 0.13919592
0.20452887 -0.267443 0.13919592
0.2230612 -0.267443 0.13919592
0.24159354 -0.267443 0.13919592
0.26012588 -0.267443 0.13919592
0.35318357 -0.21203616 0.14125395
0.3544237 -0.19403371 0.14769793
0.3921392 -0.1570114 0.15019941
0.39180583 0.32682157 0.14859569
0.35353532 0.36322439 0.14308178
0.35296696 0.38133198 0.14012849
0.33627531 0.40148824 0.15013027
-0.53702646 0.41850391 0.14067733
0.31726483 0.41972789 0.14790511
-0.14783905 -0.75448501 0.15567636
-0.14783905 -0.73582578 0.15567636
-0.14783905 -0.71716666 0.15567636
-0.14783905 -0.69850743 0.15567648
-0.14783905 -0.67984831 0.15567648
-0.14783905 -0.66118914 0.15567636
-0.14783905 -0.64252996 0.15567636
-0.14783905 -0.62387067 0.15567636
-0.52090526 -0.28791967 0.15498173
0.31855467 -0.2506344 0.15519011
0.33700746 -0.23186919 0.15409315
-0.55835158 -0.21337354 0.15573192
-0.55795139 -0.19453064 0.15356588
-0.55795139 -0.17588757 0.15356588
0.37477139 -0.17610893 0.15644109
-0.55795139 -0.1572447 0.15356588
-0.55795139 -0.13860171 0.15356588
0.39356077 -0.13881561 0.15703917
-0.55795139 -0.11995881 0.15356588
0.39376903 -0.12019996 0.15804124
-0.55795139 -0.10131586 0.15356588
0.39376903 -0.10152256 0.15804124
-0.55795139 -0.082672827 0.15356576
0.39376903 -0.082845099 0.15804124
-0.55795139 -0.06402991 0.15356588
0.39376903 -0.064167678 0.15804124
-0.55795139 -0.045386955 0.15356588
0.39376903 -0.045490406 0.15804136
-0.55795139 -0.02674404 0.15356588
0.39376903 -0.02681298 0.15804124
-0.55795139 -0.0081011225 0.15356588
0.39376903 -0.0081355181 0.15804124
-0.55795139 0.010541944 0.15356588
0.39376903 0.010541907 0.15804124
-0.55795139 0.029184749 0.15356588
0.39376903 0.029219331 0.15804124
-0.55795139 0.047827743 0.15356588
0.39376903 0.047896646 0.15804136
-0.55795139 0.06647066 0.15356588
0.39376903 0.066574067 0.15804136
-0.55795139 0.085113727 0.15356588
0.39376903 0.085251383 0.15804124
-0.55795139 0.10375653 0.15356588
0.39376903 0.1039288 0.15804124
-0.55795139 0.12239949 0.15356588
0.39376903 0.12260623 0.15804124
-0.55795139 0.14104247 0.15356588
0.39376903 0.14128356 0.15804124
-0.55795139 0.15968539 0.15356588
0.39376903 0.15996104 0.15804124
-0.55795139 0.17832835 0.15356576
0.39376903 0.17863846 0.15804124
-0.55795139 0.19697127 0.15356576
0.39376903 0.19731589 0.15804124
-0.55795139 0.21561421 0.15356588
0.39376903 0.21599327 0.15804124
-0.55795139 0.23425721 0.15356588
0.39376903 0.23467048 0.15804124
-0.55795139 0.25290018 0.153566
0.39376903 0.25334796 0.15804124
-0.55795139 0.27154309 0.15356576
0.39376903 0.27202541 0.15804124
-0.55795139 0.29018605 0.15356588
0.39376903 0.29070282 0.15804124
-0.55795139 0.30882898 0.15356588
0.3934567 0.3091951 0.15653825
-0.55795139 0.327472 0.153566
-0.55795139 0.34611475 0.15356588
0.3738713 0.3458901 0.15194392
-0.55800778 0.36480239 0.15387118
-0.55869079 0.38401693 0.15756786
0.33839899 0.38464159 0.16162503
-0.5043031 -0.30823436 0.16767323
-0.54106694 -0.27024916 0.16349781
0.30325302 -0.25276875 0.17499352
-0.55998021 -0.23291537 0.16454744
0.32216597 -0.2340201 0.17558658
0.33877602 -0.21410653 0.16366577
0.33925983 -0.19560754 0.16628444
0.37786084 -0.15851328 0.17187691
0.3773343 0.32952395 0.1692462
0.35890353 0.34852719 0.17097604
0.33918214 0.36655656 0.16586399
-0.5609808 0.40469447 0.169963
0.32123253 0.4047513 0.17031479
0.30156693 0.42262948 0.16503751
-0.52427763 0.46191305 0.17489457
-0.16721795 -0.74542195 0.18684042
-0.16721795 -0.72652286 0.18684042
-0.16721795 -0.70762372 0.18684053
-0.16721795 -0.68872464 0.18684053
-0.16721795 -0.66982555 0.18684053
-0.16721795 -0.65092641 0.18684053
-0.16721795 -0.63202733 0.18684042
-0.16721795 -0.61312824 0.18684053
-0.14816453 -0.6105817 0.17681623
-0.1293426 -0.6105817 0.17681623
-0.11052067 -0.61057812 0.17680204
-0.091698848 -0.61057812 0.17680204
-0.072876811 -0.6105817 0.17681623
-0.05405423 -0.61058897 0.17684448
-0.03523165 -0.61059248 0.17685866
-0.016408309 -0.6105997 0.17688692
0.0024148151 -0.61060327 0.1769011
-0.5635097 -0.25370169 0.18365097
0.3240979 -0.21621566 0.1864984
0.36012822 -0.17771775 0.17733955
0.37938777 -0.14019923 0.17950594
0.37964037 -0.12142461 0.18076789
0.37964037 -0.10257224 0.18076789
0.37964037 -0.083719879 0.18076789
0.37964037 -0.064867511 0.18076777
0.37964037 -0.046015188 0.18076789
0.37964037 -0.027162822 0.18076789
0.37964037 -0.0083104577 0.18076801
0.37964037 0.010541794 0.18076801
0.37964037 0.029394234 0.18076789
0.37964037 0.0482466 0.18076789
0.37964037 0.067098849 0.18076777
0.37964037 0.085951179 0.18076789
0.37964037 0.10480354 0.18076789
0.37964037 0.12365598 0.18076789
0.37964037 0.14250822 0.18076777
0.37964037 0.16136064 0.18076789
0.37964037 0.18021299 0.18076801
0.37964037 0.19906536 0.18076789
0.37964037 0.21791758 0.18076789
0.37964037 0.23677002 0.18076777
0.37964037 0.25562239 0.18076789
0.37964037 0.27447477 0.18076789
0.37964037 0.293327 0.18076789
0.37918648 0.31190002 0.17850018
0.32355857 0.38800201 0.18345213
0.28546581 0.42538473 0.18130708
-0.54356027 0.44358146 0.17758012
0.28758329 -0.25486076 0.19440556
0.30700758 -0.23617943 0.19716299
-0.58562183 -0.21750672 0.20047414
