ply
format ascii 1.0
comment PCL generated
element vertex 1316
property float x
property float y
property float z
element camera 0
property float view_px
property float view_py
property float view_pz
property float x_axisx
property float x_axisy
property float x_axisz
property float y_axisx
property float y_axisy
property float y_axisz
property float z_axisx
property float z_axisy
property float z_axisz
property float focal
property float scalex
property float scaley
property float centerx
property float centery
property int viewportx
property int viewporty
property float k1
property float k2
end_header
0.2421263 0.14714789 -0.096440554
0.25968698 0.14781941 -0.08973074
-0.21128449 0.16414043 -0.094523311
0.24192894 0.1637364 -0.098271966
0.25947541 0.16445945 -0.091562927
-0.22876455 0.18166903 -0.088218987
-0.21112888 0.18076158 -0.096078217
0.24176416 0.18033168 -0.099800825
0.25930259 0.18111005 -0.093059719
-0.22869149 0.19843462 -0.088896871
-0.21106152 0.1974673 -0.096751153
0.24169298 0.19701031 -0.10046136
0.25922707 0.19784141 -0.09371388
-0.22861734 0.21518865 -0.089584947
-0.21099421 0.21416277 -0.097423792
0.24162295 0.21368018 -0.10111094
0.25915158 0.21456271 -0.094367623
0.27678785 0.21544936 -0.087592721
-0.22854438 0.23193347 -0.090261877
-0.21092589 0.23084646 -0.098106444
0.25907493 0.23127261 -0.0950315
0.27670687 0.23221219 -0.088250279
-0.22847033 0.24866644 -0.090949059
-0.21085867 0.24752125 -0.098778307
0.2589995 0.24797386 -0.09568435
0.27662465 0.24896345 -0.088917732
-0.22839744 0.26539049 -0.091625273
-0.21079044 0.2641843 -0.099460065
0.25892296 0.26466346 -0.096347332
0.27654377 0.26570621 -0.089574337
-0.22832461 0.28210416 -0.09230113
-0.21072328 0.28083834 -0.10013098
0.25884765 0.28134456 -0.096999586
0.27646163 0.28243712 -0.090241075
-0.21065618 0.29748225 -0.10080165
0.25877237 0.29801577 -0.097651482
-0.2282507 0.29880583 -0.092986941
0.27638087 0.29915971 -0.090896904
-0.22817795 0.31549862 -0.093661964
0.25869596 0.31467512 -0.098313212
0.27630013 0.31587219 -0.091552496
-0.22816564 0.33228496 -0.093776107
0.25867686 0.33141604 -0.098478615
0.2762886 0.33267841 -0.091646135
-0.2282227 0.34919316 -0.09324646
0.25873417 0.34828174 -0.097982407
0.27635139 0.34959921 -0.091136336
-0.22827868 0.36610773 -0.092727244
-0.21067166 0.36452249 -0.10064691
0.25879267 0.36515719 -0.097475588
0.27641422 0.36652812 -0.090626299
-0.2283347 0.38303009 -0.092207491
-0.21072328 0.38138339 -0.10013098
0.25885123 0.38204056 -0.096968532
0.27647576 0.38346267 -0.090126574
-0.22839071 0.39996061 -0.091687739
-0.21077494 0.39825195 -0.099615037
0.2589086 0.39892951 -0.096471786
0.27653864 0.40040717 -0.08961612
-0.22844677 0.41689926 -0.09116751
-0.21082661 0.41512868 -0.099098563
0.25896719 0.41582844 -0.095964134
0.27660152 0.41735962 -0.089105427
-0.22850287 0.43384582 -0.090647221
-0.2108783 0.43201345 -0.09858191
0.25902584 0.43273515 -0.095456421
0.27666318 0.43431753 -0.088604808
-0.21093003 0.44890618 -0.098065197
-0.22855896 0.45080054 -0.090126574
0.2590833 0.44964743 -0.094958901
0.27672616 0.45128578 -0.088093758
-0.22861511 0.46776336 -0.089605689
-0.21098177 0.46580696 -0.097548127
0.25914198 0.4665699 -0.094450533
0.27678913 0.46826184 -0.087582171
0.007123909 -0.24047367 -0.0763551
0.024078712 -0.24061665 -0.074497342
-0.026760831 -0.22355001 -0.076112449
-0.0097974548 -0.22336087 -0.078841329
0.007123909 -0.22318096 -0.081437409
0.024039444 -0.22330846 -0.079598665
0.040983334 -0.22343609 -0.077756882
0.057955649 -0.22356388 -0.075911999
0.07495679 -0.22369267 -0.074053526
-0.060681649 -0.20667976 -0.07494086
-0.043667175 -0.20651145 -0.077672601
-0.026694696 -0.20634301 -0.080408096
-0.0097644711 -0.2061756 -0.083126247
0.007123909 -0.20601828 -0.085680783
0.024006803 -0.2061317 -0.083838761
0.040917944 -0.20624475 -0.08200413
0.057857405 -0.20635794 -0.08016634
0.07482525 -0.20647128 -0.07832545
0.091821961 -0.20658553 -0.07647109
0.10884688 -0.20669928 -0.074624002
-0.094638102 -0.18979096 -0.073778749
-0.077572517 -0.18964361 -0.076513231
-0.060549237 -0.18949658 -0.079241037
-0.043568112 -0.18934996 -0.081962109
-0.026628822 -0.18920325 -0.084686816
-0.009731614 -0.18905725 -0.087394416
0.040852807 -0.18911976 -0.086234808
0.057759535 -0.18921836 -0.08440429
0.074694537 -0.18931723 -0.082570434
0.091657892 -0.1894162 -0.080733657
0.10864966 -0.18951534 -0.0788939
0.12566993 -0.18961465 -0.077050924
0.14271876 -0.18971416 -0.075204849
-0.1115142 -0.17275837 -0.075342178
-0.094439283 -0.17263174 -0.078083456
-0.077407241 -0.17250597 -0.080807269
-0.060417347 -0.17238042 -0.083524406
-0.043469436 -0.17225528 -0.086234868
0.07456433 -0.17222926 -0.086799145
0.091494858 -0.17231375 -0.084969461
0.10845371 -0.17239845 -0.083136678
0.12544093 -0.17248315 -0.081300855
0.14245659 -0.17256819 -0.079461932
0.15976547 -0.17282961 -0.073799849
-0.12836571 -0.15574962 -0.076913893
-0.11128256 -0.15564469 -0.079640746
-0.094241723 -0.15553999 -0.082360744
-0.077242605 -0.15543514 -0.085084558
0.10825801 -0.15534702 -0.087373555
0.12521222 -0.15541743 -0.085544765
0.14219479 -0.15548794 -0.083712995
0.15944462 -0.15569121 -0.078430772
-0.14540349 -0.13885856 -0.075447738
-0.12810136 -0.13868119 -0.081206381
-0.11105183 -0.13859762 -0.083922446
-0.094044447 -0.13851416 -0.086632013
0.15912586 -0.13862497 -0.083031952
0.17653705 -0.13883391 -0.076249599
-0.14507511 -0.12180167 -0.080187321
-0.12783805 -0.12167926 -0.085482121
0.17618136 -0.12178587 -0.080870271
0.19366254 -0.12194279 -0.074074626
-0.16223 -0.10493939 -0.077019274
-0.14475106 -0.10481863 -0.084864736
0.17583117 -0.10481011 -0.085419297
0.19327407 -0.10491411 -0.078662276
-0.16198206 -0.087979198 -0.080239892
0.19300887 -0.087967247 -0.081794143
0.21053375 -0.088019446 -0.07501477
0.19274354 -0.071068622 -0.084927619
0.21024348 -0.071068622 -0.078157067
-0.17928506 -0.071068548 -0.075606048
-0.16173409 -0.071068585 -0.083461463
-0.179012 -0.054147169 -0.078830779
-0.16148679 -0.054207489 -0.086673796
0.20995307 -0.054166175 -0.081300855
0.22753425 -0.054113932 -0.074518561
-0.19636205 -0.037154298 -0.074190855
-0.17873885 -0.037275385 -0.082056582
0.20966446 -0.037311886 -0.084425092
0.22721966 -0.037207726 -0.07766211
-0.1960628 -0.020271871 -0.077430308
-0.17846648 -0.020453032 -0.085272908
0.22690594 -0.020349603 -0.080796778
0.24454355 -0.020192996 -0.074011266
-0.19576542 -0.0034387931 -0.080649734
0.22659209 -0.0035398901 -0.083933055
0.24420346 -0.0033316165 -0.077166855
-0.21313642 0.013646856 -0.076017559
-0.19546792 0.013344653 -0.083870113
0.22627912 0.013221815 -0.087060153
0.24386548 0.013482012 -0.080302954
-0.21281382 0.030441076 -0.079241037
-0.19517131 0.030078977 -0.087081134
0.24352732 0.030247129 -0.083440483
0.26119614 0.030560285 -0.076660931
-0.21261086 0.047250047 -0.081269264
0.2433152 0.047027089 -0.085408866
0.26096991 0.047392808 -0.078620315
-0.23015913 0.064521715 -0.075278759
-0.21242082 0.064035863 -0.083168089
0.24311584 0.063783884 -0.087258637
0.26075497 0.064201355 -0.080481589
-0.22995226 0.081337467 -0.077198505
-0.2122301 0.080791876 -0.085074186
0.26054043 0.080981255 -0.082339764
0.27827334 0.081452951 -0.075532079
-0.22974573 0.098123953 -0.079114795
-0.21203968 0.097518742 -0.086976707
0.26032621 0.097732902 -0.08419472
0.27804345 0.098256081 -0.077398717
-0.22954069 0.11488213 -0.081017256
0.26011357 0.11445713 -0.086036265
0.27781391 0.11503077 -0.079262078
-0.24713598 0.13233925 -0.07503593
-0.22933488 0.13161039 -0.082927048
0.2775861 0.13177802 -0.081111848
0.29538047 0.13240662 -0.074307144
-0.24691425 0.14909784 -0.076956034
-0.22913055 0.14831053 -0.084822893
0.27735737 0.14849605 -0.082968891
0.29513595 0.1491759 -0.076175869
-0.24669413 0.16582821 -0.07886225
-0.22892545 0.16498074 -0.08672601
0.27712899 0.16518591 -0.084822953
0.29489321 0.16591789 -0.078030705
-0.24652778 0.18258303 -0.080303073
0.27695125 0.18189451 -0.08626622
0.29471001 0.18268383 -0.079430282
-0.24644773 0.19940782 -0.080996394
0.27687016 0.19867769 -0.086924434
0.29462197 0.19951779 -0.080103219
-0.24636893 0.21622336 -0.081678748
0.29453534 0.21634284 -0.080765307
-0.26416337 0.23412961 -0.074412823
-0.24628897 0.23302686 -0.082371235
0.29444739 0.23315617 -0.08143729
-0.26407748 0.25098303 -0.075109899
-0.24621026 0.24982139 -0.083052814
0.29436085 0.24996096 -0.082098484
-0.263993 0.26782748 -0.075795949
-0.24613039 0.26660374 -0.083744526
0.29427302 0.26675382 -0.082769752
-0.26390725 0.2846598 -0.07649225
-0.2460518 0.28337732 -0.084425151
0.29418659 0.28353831 -0.083430111
0.3123675 0.28504893 -0.074085236
-0.26382285 0.30148324 -0.077177405
-0.24597324 0.30014056 -0.08510536
0.29410022 0.30031252 -0.084089994
0.31225625 0.30187085 -0.07488817
-0.26373851 0.31829619 -0.077862203
-0.24589352 0.31689146 -0.085795879
0.29401255 0.31707481 -0.08476007
0.31214362 0.3186788 -0.075700998
-0.26374888 0.33524063 -0.077777922
-0.24589233 0.33375722 -0.085806251
0.29401255 0.33395064 -0.08476001
0.31216261 0.33564967 -0.075563908
-0.26381376 0.35227156 -0.077251077
-0.24595271 0.3507258 -0.085283339
0.29407969 0.35092524 -0.084247291
0.31224895 0.35271606 -0.07494086
-0.26387998 0.3693127 -0.076713562
-0.24601434 0.36770427 -0.084749579
0.29414546 0.36790553 -0.083744347
0.31233528 0.36979225 -0.074317694
-0.26394492 0.38636002 -0.07618624
-0.24607478 0.38468903 -0.084226251
0.29421264 0.3848958 -0.083231032
-0.26400989 0.40341562 -0.075658858
-0.24613522 0.40168169 -0.083702564
0.29427987 0.40189412 -0.08271724
-0.26407492 0.42047924 -0.075130939
-0.24619575 0.41868272 -0.08317852
0.29434574 0.41889808 -0.082213819
-0.26414123 0.43755347 -0.074592352
-0.24625625 0.43569171 -0.082654297
0.29441303 0.43591219 -0.081699789
-0.26420632 0.45463365 -0.074064076
-0.24631681 0.45270884 -0.082129896
0.29448035 0.45293432 -0.081185281
-0.24637739 0.46973419 -0.081605196
0.29454634 0.46996182 -0.080681205
-0.0099304495 -0.27572095 -0.061564982
0.007123909 -0.27546257 -0.06436187
0.02417111 -0.27563506 -0.062494516
0.041247278 -0.27580881 -0.060613275
-0.044027317 -0.25862312 -0.06207788
-0.026934031 -0.25838727 -0.064862967
-0.0098836767 -0.25815207 -0.067640781
0.007123909 -0.25792009 -0.070380211
0.024124786 -0.25807825 -0.068512321
0.041154474 -0.25823665 -0.066641212
0.058213282 -0.2583963 -0.064756334
0.07530088 -0.25855523 -0.062878966
0.092417918 -0.25871536 -0.060987651
-0.07810881 -0.2415341 -0.062579811
-0.06097655 -0.24131972 -0.065363705
-0.043887064 -0.24110515 -0.068150997
-0.026840761 -0.24089196 -0.070920825
-0.0098371608 -0.24067925 -0.073683619
0.041062333 -0.2407607 -0.072625875
0.05807459 -0.24090424 -0.07076174
0.075115971 -0.24104883 -0.068883836
0.092185982 -0.24119282 -0.067013562
0.10928542 -0.24133785 -0.06512922
0.12641405 -0.24148312 -0.063241839
0.14359498 -0.2416575 -0.060976923
-0.11221456 -0.22450386 -0.062344909
-0.095038094 -0.22431158 -0.06511867
-0.077905022 -0.22412066 -0.067874789
-0.060814574 -0.22393018 -0.070623934
-0.043766379 -0.22373943 -0.073376954
0.091986261 -0.22382084 -0.072202563
0.10904437 -0.22394933 -0.070348322
0.12613177 -0.22407873 -0.068480372
0.14324746 -0.22420764 -0.066619873
-0.12916498 -0.20735745 -0.06393528
-0.11198018 -0.20718765 -0.066694379
-0.094837703 -0.20701747 -0.069457173
-0.077738442 -0.2068484 -0.072202384
0.1259004 -0.20681317 -0.072773993
0.14298259 -0.20692734 -0.070920706
0.16041049 -0.20732336 -0.064489782
-0.1463979 -0.19047445 -0.061094582
-0.12889752 -0.19008738 -0.068278551
-0.11174674 -0.18993926 -0.071026742
0.16008766 -0.19004042 -0.069149375
0.17761236 -0.19041055 -0.062280893
-0.14606524 -0.17319472 -0.065896273
-0.12863109 -0.17288482 -0.072604716
0.17725214 -0.17314556 -0.066960275
-0.16333087 -0.156296 -0.062718749
-0.14573401 -0.15598971 -0.070676982
0.17689426 -0.15595385 -0.071609497
0.1944516 -0.15621752 -0.064756334
-0.16296095 -0.13910258 -0.067523897
0.19405624 -0.13904399 -0.069425344
0.21168441 -0.13925543 -0.062558651
-0.18023808 -0.12216732 -0.06435132
-0.16259347 -0.12198381 -0.072297752
0.21125323 -0.12210094 -0.067226171
0.22895257 -0.12225991 -0.060345709
-0.19756591 -0.1051836 -0.061158657
-0.1798345 -0.10506105 -0.069117546
0.21082485 -0.10501876 -0.071863651
0.22848558 -0.10512422 -0.065012157
-0.19726312 -0.088100895 -0.064436436
-0.17955893 -0.088039756 -0.0723719
0.22816721 -0.088071972 -0.068193495
0.24591026 -0.088124789 -0.061329782
-0.19696222 -0.071068622 -0.067694068
0.22785081 -0.071068622 -0.071355224
0.2455674 -0.071068585 -0.06451124
-0.21443951 -0.05402527 -0.062996387
-0.19666217 -0.054086443 -0.070942044
0.24522552 -0.05406132 -0.067683339
0.26302573 -0.054008506 -0.060816467
-0.21411201 -0.037032317 -0.066268742
0.24488346 -0.037102912 -0.070857167
0.26265696 -0.036997572 -0.064010024
-0.23163711 -0.019905556 -0.061564922
-0.21378657 -0.020089246 -0.069520891
0.26229048 -0.020035248 -0.067183673
0.28014776 -0.019876603 -0.060313761
-0.23128399 -0.0029520839 -0.064841509
-0.21346103 -0.0031962916 -0.072773993
0.26192507 -0.0031216592 -0.070348203
0.27975556 -0.0029107705 -0.063497961
-0.24885695 0.01425828 -0.060131729
-0.23093303 0.013951756 -0.068097949
0.26155949 0.013743266 -0.073514342
0.27936316 0.014006197 -0.06668371
-0.24847813 0.031172149 -0.063412607
-0.23058198 0.030805305 -0.071355164
0.27897322 0.030874841 -0.06984967
0.29686487 0.031192914 -0.062964261
-0.24824791 0.048104905 -0.065406203
-0.23036525 0.04767599 -0.073366404
0.27873299 0.04776039 -0.071800172
0.29660663 0.04813011 -0.064937413
-0.24802424 0.065010414 -0.067343175
0.27850232 0.064620614 -0.07367301
0.29636142 0.065043181 -0.066811442
-0.26578134 0.08244054 -0.061276257
-0.24780221 0.081887096 -0.069266081
0.29611522 0.081926763 -0.068692744
-0.26554191 0.099347591 -0.063220561
-0.24757935 0.098733515 -0.071196258
0.29586944 0.09878172 -0.070570946
-0.26530287 0.11622477 -0.065161228
-0.24735685 0.11555056 -0.073123038
0.29562545 0.11560886 -0.072435439
0.31421348 0.11659721 -0.060763061
-0.26506555 0.13307346 -0.067088008
0.31389812 0.1334475 -0.063039005
-0.28287011 0.15069157 -0.061030388
-0.26482734 0.14989176 -0.06902194
0.31358188 0.15026222 -0.065321147
-0.28261563 0.16754037 -0.06297493
-0.26459086 0.1666818 -0.070942044
0.31326783 0.1670433 -0.067587674
-0.28244111 0.18442985 -0.064308584
-0.26441866 0.18350255 -0.072340071
0.31304407 0.1838648 -0.069202363
-0.28234905 0.20137659 -0.065012038
-0.26433393 0.20038924 -0.073027849
0.31293088 0.20075974 -0.070019484
-0.28225845 0.21831372 -0.065704405
-0.26424798 0.21726412 -0.073725879
0.31281775 0.21764219 -0.070836008
-0.28216648 0.23523882 -0.066407084
0.31270614 0.23451355 -0.071641207
-0.282076 0.25215486 -0.067098439
0.31259319 0.25137118 -0.072456539
-0.28198418 0.26905856 -0.067800403
0.3124803 0.26821628 -0.073271215
-0.28189379 0.28595319 -0.068491042
0.33133504 0.28726992 -0.060345709
-0.28180209 0.30283558 -0.069191933
0.33121458 0.30419418 -0.061169326
-0.28171182 0.31970915 -0.069881558
0.33109421 0.3211059 -0.061992466
-0.28173679 0.33673474 -0.069690645
0.33114421 0.33822015 -0.061650455
-0.28180623 0.35382867 -0.069159985
0.33123648 0.35539532 -0.061019778
-0.2818757 0.37093079 -0.068628967
0.33133036 0.37258232 -0.060377896
-0.2819466 0.38804334 -0.06808722
0.31242168 0.38687807 -0.07369405
-0.28201616 0.40516216 -0.067555845
0.31250817 0.40397361 -0.073070168
0.31259465 0.42107877 -0.072445929
-0.28208575 0.42228901 -0.067024231
-0.28215536 0.43942416 -0.06649226
0.31268266 0.438196 -0.071810722
-0.28222638 0.45657021 -0.065949321
0.31276926 0.45532066 -0.071185708
-0.26427013 0.47171944 -0.073546112
0.3128559 0.47245497 -0.070560277
-0.02721693 -0.31145453 -0.046487927
-0.010024686 -0.31114891 -0.049323201
0.007123909 -0.31084532 -0.052140236
0.024264522 -0.31103718 -0.050360084
0.041434415 -0.31124216 -0.048458159
0.05863392 -0.3114486 -0.046542287
-0.061541758 -0.29423201 -0.047007918
-0.044310145 -0.29394948 -0.049830973
-0.02712211 -0.29366773 -0.052646756
-0.0099774795 -0.29338664 -0.055455506
0.007123909 -0.29310524 -0.058267891
0.024217688 -0.29328775 -0.056443751
0.041340593 -0.29347703 -0.054552436
0.058492936 -0.29366773 -0.052646756
0.075674392 -0.29385763 -0.050748825
0.092885613 -0.29404914 -0.048836648
0.11012591 -0.29423967 -0.046932161
-0.095851086 -0.27701855 -0.047517002
-0.078579985 -0.27675796 -0.050338507
-0.061352208 -0.27649698 -0.053163886
0.10984405 -0.27650887 -0.053034723
0.12706691 -0.27668518 -0.05112648
0.14440659 -0.27699262 -0.047798336
-0.044168346 -0.27623761 -0.055971324
-0.027027812 -0.27597898 -0.05877167
0.058352731 -0.27598387 -0.058718145
0.075487129 -0.27615824 -0.056830466
0.092651129 -0.27633399 -0.05492878
-0.13022745 -0.25992668 -0.046682954
-0.11283362 -0.25957334 -0.050856709
-0.095566891 -0.25933507 -0.05366993
-0.078343749 -0.25909749 -0.056476057
-0.061164029 -0.25886041 -0.05927527
0.10956423 -0.25887579 -0.059093118
0.12673929 -0.25903565 -0.057206094
0.1439999 -0.25927314 -0.054401696
0.1615954 -0.25986707 -0.047387004
-0.12980844 -0.24223404 -0.053486884
-0.11250305 -0.24196424 -0.056991398
-0.095284253 -0.24174888 -0.05978924
0.16113773 -0.24219507 -0.053992867
0.17879058 -0.24273533 -0.046975493
-0.14706834 -0.22526079 -0.051417708
-0.12944075 -0.22470388 -0.059457183
0.1607354 -0.22468005 -0.059799969
0.17833659 -0.22516008 -0.052873015
-0.1644486 -0.20832661 -0.04819864
0.19564687 -0.20817626 -0.050640821
-0.14673276 -0.20783009 -0.056261361
0.17797412 -0.20774882 -0.057581544
-0.16407385 -0.19090706 -0.053066909
0.19524646 -0.19078293 -0.055369556
0.21299194 -0.19115831 -0.048404098
-0.18146582 -0.17393573 -0.049852669
-0.16370155 -0.1735639 -0.057903409
0.19484864 -0.17346388 -0.060067534
0.21255423 -0.17378375 -0.053142369
-0.19890812 -0.15691525 -0.046628892
-0.1810551 -0.15660454 -0.054702878
0.2121184 -0.15648295 -0.057860434
0.2298957 -0.15675008 -0.0509215
-0.19845878 -0.13959616 -0.051493287
0.24727297 -0.13968264 -0.048685253
-0.18064524 -0.13934836 -0.059542894
0.22942367 -0.13946852 -0.055638194
-0.21591172 -0.12253834 -0.048285186
-0.19801039 -0.12235225 -0.056347191
0.24676247 -0.12241974 -0.053422391
0.26468521 -0.12258088 -0.046444714
-0.21542563 -0.10530701 -0.053142309
0.24625526 -0.10523026 -0.058128536
0.26413715 -0.10533703 -0.05119133
-0.23305665 -0.088224426 -0.04839325
-0.21509524 -0.088162392 -0.05644393
0.26376519 -0.088178009 -0.054412603
0.28173059 -0.088231519 -0.047462761
-0.21476687 -0.071068667 -0.059724927
0.2633943 -0.071068622 -0.057624459
-0.23270047 -0.071068585 -0.051698267
0.28133249 -0.071068548 -0.050694823
-0.25037983 -0.053901695 -0.046942949
-0.23234418 -0.053963766 -0.055003941
0.28093687 -0.053955283 -0.053906739
-0.24999775 -0.036785744 -0.050252259
-0.23199013 -0.036909439 -0.058289349
0.2805424 -0.036891289 -0.057109535
0.29889208 -0.036742881 -0.047473609
-0.24961676 -0.019720484 -0.053551614
0.29838297 -0.019669913 -0.051363826
-0.24923693 -0.0027057528 -0.056841135
0.29787564 -0.0026563704 -0.055240571
-0.2673175 -0.0024582446 -0.048804343
-0.26691061 0.014567174 -0.05210793
0.29736868 0.01429747 -0.059114516
-0.26650491 0.031542175 -0.055401742
0.31580463 0.031824924 -0.049279869
-0.2844871 0.049006537 -0.048674583
-0.26626021 0.048536964 -0.057388365
0.31548297 0.048848748 -0.051601112
-0.26601991 0.065503284 -0.059339345
-0.28416902 0.06601046 -0.051104903
0.31516498 0.065838531 -0.05389607
-0.28388971 0.082997441 -0.053239286
0.31484765 0.082793191 -0.05618608
-0.28363484 0.09996596 -0.055186749
0.31452951 0.099712268 -0.058482349
-0.28337902 0.11690392 -0.057141662
0.33328742 0.11776288 -0.04699719
-0.28312504 0.13381296 -0.059082329
0.33295041 0.13471654 -0.049301505
-0.30177259 0.15202327 -0.047722459
0.33261248 0.1516341 -0.051611841
-0.30143553 0.16892205 -0.050154984
0.33227682 0.1685178 -0.053906739
-0.30122021 0.18588489 -0.051708996
0.33205658 0.18545717 -0.055412591
0.33193558 0.20245695 -0.056239843
-0.30109921 0.20290744 -0.052582085
-0.3009783 0.21991679 -0.053454638
0.33181623 0.21944556 -0.057055831
-0.30085602 0.23691133 -0.054337263
0.33169541 0.23642027 -0.057881951
-0.30073532 0.25389385 -0.055208206
0.33157468 0.25338215 -0.058707416
-0.30061322 0.27086157 -0.056089461
0.33145404 0.2703315 -0.059532225
-0.3004927 0.28781748 -0.056959271
0.350539 0.28951728 -0.046444714
-0.3003723 0.3047601 -0.057828248
0.35041058 0.30654672 -0.047278643
-0.30025047 0.32168755 -0.058707297
0.35028228 0.32356352 -0.048112094
-0.30030841 0.33884117 -0.058289349
0.35036889 0.34082541 -0.047549307
-0.30040053 0.35604864 -0.057624519
0.35046726 0.35811058 -0.046910465
-0.30049419 0.37326869 -0.056948423
-0.30058792 0.39049923 -0.05627197
0.33142272 0.389777 -0.059746385
-0.30068171 0.40774006 -0.055595338
0.3315151 0.4069815 -0.059114516
-0.30077407 0.42498922 -0.054928839
0.33160758 0.42419606 -0.058482289
-0.30086794 0.44225115 -0.054251015
0.33170012 0.44142008 -0.057849705
-0.30096191 0.45952356 -0.053573072
0.33179268 0.45865405 -0.057216883
-0.02741288 -0.34736285 -0.033760846
-0.010122159 -0.34700575 -0.036661029
0.007123909 -0.34664804 -0.039564908
0.024360895 -0.34686038 -0.037840962
0.041627999 -0.3471013 -0.035884678
0.058925297 -0.3473427 -0.033925176
-0.061924033 -0.3299984 -0.034593284
-0.044596124 -0.32966879 -0.03744787
-0.027312279 -0.32934007 -0.040295005
-0.010072238 -0.32901081 -0.043145955
0.007123909 -0.32868379 -0.045978665
0.024311613 -0.32888415 -0.044243097
0.041528925 -0.32910624 -0.042319655
0.058775678 -0.32932743 -0.040404081
0.076052018 -0.32954901 -0.038484991
0.093358457 -0.32977229 -0.036551774
0.11069431 -0.32999462 -0.034626186
-0.09642373 -0.31267983 -0.035118818
-0.079055972 -0.31237227 -0.037972033
-0.061732367 -0.31206554 -0.040817857
-0.044452742 -0.31175965 -0.043656528
0.075862691 -0.31165433 -0.044633627
0.093120962 -0.31186032 -0.042722046
0.11040933 -0.31206793 -0.040796101
0.12772752 -0.31227586 -0.038866878
0.14522855 -0.31275177 -0.034451067
-0.13107254 -0.29563785 -0.032960415
-0.11350027 -0.29508501 -0.038484931
-0.096136861 -0.29480028 -0.041329682
-0.078817107 -0.29451528 -0.044177771
0.1273963 -0.29443163 -0.045013666
0.14481634 -0.29481882 -0.04114455
0.16252047 -0.29553029 -0.034034729
-0.13064903 -0.27772802 -0.03983742
-0.11316603 -0.27727997 -0.044687927
0.16205655 -0.2776455 -0.040730655
0.17981881 -0.27830249 -0.033618271
-0.14796436 -0.26062095 -0.038484991
0.17930317 -0.2604658 -0.04031682
0.19712265 -0.26106739 -0.033212602
-0.16530144 -0.24349397 -0.037120044
-0.14749023 -0.24286212 -0.045328081
0.19655615 -0.24327974 -0.039902806
0.21443377 -0.24382681 -0.032795966
-0.18271065 -0.22638777 -0.03515172
-0.16482502 -0.22582264 -0.043308914
0.19604899 -0.22564362 -0.045892
0.21387194 -0.22612968 -0.038877726
-0.1822945 -0.20882741 -0.040066242
0.21343051 -0.20860638 -0.043656647
0.23132606 -0.20903918 -0.036628246
-0.19981378 -0.19178231 -0.036824942
-0.18187925 -0.19134334 -0.044970095
0.23084797 -0.19153544 -0.041405797
0.24881649 -0.1919149 -0.034363449
-0.21738496 -0.17468812 -0.033563554
-0.19936045 -0.17431077 -0.041732311
0.23037082 -0.17410564 -0.046173751
0.2482994 -0.17442957 -0.039161325
-0.21689138 -0.15722831 -0.038495898
0.24778567 -0.15701917 -0.043928087
0.26578715 -0.15728971 -0.036901474
-0.23447429 -0.14009663 -0.035239279
-0.21640101 -0.13984556 -0.043395758
0.26523438 -0.13989809 -0.041688681
0.28337774 -0.1401321 -0.034089446
-0.23394468 -0.12272611 -0.040153444
0.28271946 -0.12274279 -0.039434016
-0.25153932 -0.1055571 -0.036901474
-0.23341621 -0.10543148 -0.045056939
0.28213117 -0.10544454 -0.044210434
-0.25114876 -0.08828678 -0.040284097
0.30043158 -0.088322014 -0.035709798
-0.26896 -0.071068622 -0.035468996
-0.25076434 -0.071068622 -0.043613076
0.2999171 -0.071068585 -0.039641201
-0.26854685 -0.053839255 -0.038823187
0.29940298 -0.053875715 -0.043569684
-0.26813629 -0.036661111 -0.042156518
0.31797782 -0.036529258 -0.033596337
-0.28642875 -0.019265141 -0.033837497
-0.26772699 -0.019534104 -0.045479894
0.31743202 -0.019350581 -0.037535131
-0.28588626 -0.0021250024 -0.037982881
0.31688666 -0.0022324249 -0.041471124
-0.28534433 0.01495143 -0.042123914
0.31634468 0.014826059 -0.04538238
-0.28480583 0.031965427 -0.04623878
0.33498478 0.032466367 -0.035392344
-0.303812 0.049850874 -0.033004284
0.3346442 0.049596712 -0.037720799
-0.30346897 0.066972658 -0.035479903
0.33430436 0.066691503 -0.040044367
-0.30312818 0.084057406 -0.037939131
0.33396521 0.083750889 -0.042363167
-0.3027882 0.10110483 -0.040393054
0.33362678 0.10077499 -0.044677079
-0.3024489 0.11811483 -0.042841613
0.35259983 0.11894307 -0.03305918
-0.30211037 0.13508755 -0.045284688
0.35224059 0.13600138 -0.035392404
0.35188213 0.15302418 -0.037720799
-0.32086661 0.17060867 -0.034505725
0.35152268 0.17001054 -0.040055394
-0.32065853 0.18770704 -0.035928369
0.35130811 0.18706945 -0.041449368
-0.32052898 0.20484957 -0.036814094
0.35118076 0.20417693 -0.042276204
-0.32039958 0.22197875 -0.037699044
0.3510519 0.22127014 -0.043113291
-0.32027024 0.23909429 -0.038583219
0.35092309 0.23835066 -0.043949962
-0.32014102 0.25619632 -0.039466619
0.35079443 0.25541845 -0.044785678
-0.3200103 0.27328324 -0.040360451
0.35066748 0.27247494 -0.04561007
-0.31988129 0.29035813 -0.041242421
-0.31975237 0.30741981 -0.042123854
0.36984882 0.30892879 -0.033212721
-0.31962195 0.32446587 -0.04301554
0.36973363 0.32607532 -0.033925176
-0.31971896 0.34178552 -0.042352378
0.36983997 0.34346396 -0.033267498
-0.3198176 0.3591176 -0.041677892
-0.31991792 0.37646228 -0.040992022
0.35056567 0.37540573 -0.046271145
-0.32001668 0.39381531 -0.04031682
0.35066417 0.39271072 -0.045631826
-0.32011709 0.41118127 -0.039630353
0.35076267 0.41002557 -0.044991851
-0.32021758 0.4285579 -0.038943231
0.35086292 0.42735294 -0.04434073
-0.32031813 0.4459452 -0.038255811
0.3509599 0.44468528 -0.043710887
0.35105857 0.46203011 -0.043069839
-0.32041714 0.46334046 -0.037578821
-0.010256051 -0.38390794 -0.019267797
0.007123909 -0.38350084 -0.02220583
0.024493538 -0.38372192 -0.020610332
-0.062398329 -0.36653817 -0.019190252
-0.044949919 -0.36615363 -0.022128284
-0.027546685 -0.36576867 -0.025069773
-0.010188804 -0.36538473 -0.028003752
0.007123909 -0.3650032 -0.030918896
0.024426963 -0.36522052 -0.029258609
0.041760534 -0.36547989 -0.027276397
0.059124451 -0.36573833 -0.025301754
0.076518871 -0.3659972 -0.023323357
0.093943886 -0.36625654 -0.021341741
0.11140008 -0.36651778 -0.019345522
-0.11454419 -0.34916708 -0.019112527
-0.097026803 -0.34880388 -0.022061765
-0.079555556 -0.34844291 -0.024992466
-0.062129319 -0.3480815 -0.027926505
-0.044748683 -0.34772247 -0.030842006
0.07625287 -0.34758455 -0.031962037
0.093611225 -0.34782806 -0.029984653
0.11099968 -0.34807059 -0.028014719
0.12841864 -0.34831369 -0.02604115
0.14609593 -0.3490127 -0.020366371
-0.13192877 -0.33179241 -0.019056857
0.16345592 -0.33162194 -0.020532727
-0.1141738 -0.33099231 -0.025985956
-0.096712701 -0.3306601 -0.028862476
-0.079296164 -0.33032891 -0.031731546
0.12805997 -0.33021733 -0.032697201
0.14564325 -0.3307924 -0.027717292
-0.13149934 -0.31365931 -0.026030123
-0.1138364 -0.31298923 -0.032247484
0.16298716 -0.31352258 -0.02729845
0.1808586 -0.3142972 -0.020111203
-0.14892285 -0.29646951 -0.024650037
0.18033671 -0.29624522 -0.026890516
0.19826776 -0.2969659 -0.019689739
-0.16636777 -0.27925861 -0.023268223
-0.14844212 -0.27849007 -0.031588793
0.19769348 -0.27896267 -0.026471496
0.21568343 -0.27962819 -0.019267917
-0.18383408 -0.26202661 -0.02188462
-0.16583295 -0.26132119 -0.030215383
0.2150567 -0.26167375 -0.026052237
-0.20132186 -0.24477339 -0.020499408
-0.18324508 -0.24413131 -0.028840542
0.23242642 -0.24437819 -0.025632918
-0.20072842 -0.22695777 -0.026923597
0.23180731 -0.22661859 -0.031819403
0.24985617 -0.22711077 -0.024716258
-0.21837874 -0.20983948 -0.023633063
-0.20027007 -0.20933135 -0.031885207
0.2493358 -0.20947546 -0.029544652
0.26745853 -0.20991373 -0.022427201
-0.23607956 -0.19267035 -0.020344079
-0.21788076 -0.19222499 -0.028609276
0.2668986 -0.19229683 -0.027276397
-0.23554289 -0.17506862 -0.025323808
0.26634231 -0.17475593 -0.032093883
0.28481415 -0.17520243 -0.022427142
-0.25325546 -0.15786171 -0.022039592
-0.23500741 -0.15754405 -0.030292451
0.28409341 -0.15762156 -0.028279066
-0.25268129 -0.14034998 -0.027011871
0.30248448 -0.14056528 -0.020022452
-0.27055407 -0.1231332 -0.02252686
-0.25210842 -0.12291501 -0.031973064
0.30171707 -0.12305564 -0.025886774
-0.26979405 -0.10568332 -0.028697371
0.30095506 -0.10563695 -0.031709671
-0.269373 -0.088349625 -0.032115817
0.31962827 -0.088429928 -0.021685183
-0.28806835 -0.071068622 -0.021308601
0.31907666 -0.071068548 -0.025666058
-0.28751978 -0.053736687 -0.025500357
0.31852549 -0.05376862 -0.029643714
-0.28697327 -0.036468979 -0.029676676
0.3373026 -0.036312904 -0.019545436
0.33671924 -0.019027252 -0.023533583
-0.30530369 -0.0016402528 -0.022239029
0.33613637 -0.0018027723 -0.027518868
-0.30472332 0.015555672 -0.026427388
0.33555716 0.015361175 -0.03147912
-0.30415425 0.032690793 -0.030534327
0.35440895 0.033116892 -0.021308601
0.35404596 0.050354093 -0.023666382
-0.32304341 0.067949235 -0.019623101
0.35368371 0.067555308 -0.026019216
-0.3226786 0.085153565 -0.022117078
0.35332221 0.084720626 -0.028367102
-0.32231462 0.10232006 -0.024605811
0.35296148 0.1018502 -0.030710042
-0.32195142 0.11944863 -0.02708894
-0.32158902 0.1365395 -0.029566705
0.37177321 0.1373024 -0.021308601
-0.32122743 0.15359284 -0.032038987
0.37139204 0.15443073 -0.023666263
0.3710117 0.17152321 -0.026019037
0.37080488 0.18870345 -0.027298331
-0.3403745 0.18955511 -0.019922614
-0.34023622 0.2068195 -0.020820856
0.37066773 0.20591712 -0.028146803
-0.34009972 0.22407147 -0.021707296
0.37053069 0.22311792 -0.02899462
-0.33996162 0.24130839 -0.022604287
0.37039375 0.2403056 -0.029841602
-0.33982193 0.25853002 -0.023511529
0.37025872 0.25748187 -0.03067708
-0.3396841 0.27573937 -0.02440691
0.37012199 0.27464378 -0.031522989
-0.33954632 0.29293519 -0.025301576
0.36998534 0.2917929 -0.032368183
-0.339407 0.31011546 -0.026206732
-0.3393068 0.32732674 -0.026857376
0.38944924 0.32863507 -0.019467652
-0.33941209 0.34477463 -0.026173651
-0.33951744 0.36223313 -0.02548939
0.36994451 0.36086071 -0.032620549
-0.33962116 0.37970003 -0.024815619
0.37004921 0.37826747 -0.031973004
-0.33972833 0.39718187 -0.024119675
0.3701539 0.39568427 -0.031325281
-0.33983555 0.41467479 -0.023422956
0.37025872 0.41311103 -0.03067714
-0.33994117 0.43217576 -0.022737086
0.37036353 0.43054813 -0.030028582
0.37046668 0.44799244 -0.029390693
-0.34004855 0.44969016 -0.022039592
-0.34015599 0.46721524 -0.021341801
0.37057161 0.46544945 -0.028741241
-0.027817432 -0.40301141 -0.0074840784
-0.010323823 -0.40257558 -0.010463953
0.007123909 -0.40214249 -0.013424873
0.024560712 -0.40236783 -0.011884034
0.042028338 -0.40266061 -0.0098822117
0.059527118 -0.40295556 -0.0078654885
0.077057056 -0.40325111 -0.0058453679
-0.080232464 -0.38555163 -0.0074056387
-0.062669434 -0.38513866 -0.010385633
-0.045152716 -0.38472831 -0.013346732
-0.027681533 -0.3843177 -0.016311169
0.041893918 -0.38399866 -0.018612862
0.059325133 -0.384276 -0.016611636
0.076786928 -0.38455221 -0.014618099
0.094279543 -0.38482893 -0.012621164
0.11180307 -0.38510612 -0.010620654
0.12935819 -0.38538536 -0.0086053014
-0.11503133 -0.36773133 -0.010072351
-0.097432435 -0.3673116 -0.013279796
-0.079892695 -0.36692515 -0.016233206
0.12888661 -0.36677799 -0.017356932
0.14668027 -0.36762595 -0.010877907
-0.13240907 -0.35013455 -0.011258006
0.16397776 -0.34991992 -0.013000667
0.18197754 -0.35083443 -0.0055755973
-0.1498933 -0.33276397 -0.010643005
0.18138361 -0.33245814 -0.013290942
0.1994258 -0.33329847 -0.0060136914
-0.16744736 -0.31546843 -0.0092439651
-0.14940657 -0.31456047 -0.017668307
0.19884551 -0.31507796 -0.012866795
0.21694723 -0.31586248 -0.0055869222
-0.1850231 -0.29815143 -0.0078430772
-0.16690588 -0.2973074 -0.01627785
0.21631393 -0.29769117 -0.012442529
-0.20262058 -0.2808131 -0.0064404607
-0.18442674 -0.28003293 -0.014885724
0.23378779 -0.28029686 -0.012029111
-0.20196921 -0.2627373 -0.01349169
0.25126925 -0.26289707 -0.011604667
0.23310561 -0.26228389 -0.018845975
-0.21953328 -0.24542031 -0.012096167
0.25053433 -0.24493323 -0.018423915
0.26875725 -0.24549083 -0.011179805
-0.23716246 -0.22810979 -0.010296166
-0.21887782 -0.22753137 -0.018646061
0.26802087 -0.22760682 -0.017556965
-0.25499704 -0.21086639 -0.0069568753
-0.23661982 -0.21035072 -0.015331268
0.28626561 -0.21063948 -0.010643005
-0.25441393 -0.19311959 -0.012006879
0.2855373 -0.19287451 -0.016555965
-0.25383341 -0.17545152 -0.017034352
0.30402994 -0.17585902 -0.0082129836
-0.27208528 -0.15832151 -0.010094762
0.30325449 -0.15816584 -0.014138818
-0.27131689 -0.14067876 -0.016333461
0.32183245 -0.14100382 -0.0057778955
-0.29000378 -0.12350298 -0.0065190792
0.32101113 -0.12338312 -0.01170516
-0.28918624 -0.10592867 -0.012766302
0.32019258 -0.105854 -0.017612696
-0.28862041 -0.08846537 -0.017089903
0.33906505 -0.088539183 -0.0074954033
0.33847547 -0.071068585 -0.011526346
-0.30705935 -0.053613968 -0.0095686913
0.337888 -0.053660013 -0.015542924
-0.30647245 -0.036224607 -0.013804197
-0.30588776 -0.018900007 -0.018023908
0.35624745 -0.018700048 -0.0093671083
-0.32499778 -0.0011482462 -0.0062608719
0.35562789 -0.0013678223 -0.013391376
-0.32437646 0.016168356 -0.010508716
0.35501051 0.015903026 -0.017401338
-0.32377705 0.033426359 -0.014606953
0.37407875 0.033775583 -0.0070465803
-0.32340899 0.05070667 -0.017123342
0.37369278 0.051121026 -0.0094342828
0.37330762 0.068429947 -0.011816919
-0.34250727 0.086265415 -0.0060698986
0.37292325 0.085702568 -0.014194548
-0.34211865 0.1035527 -0.0085942149
0.37253967 0.10293895 -0.016567171
0.37215692 0.1201392 -0.018934846
-0.34173086 0.12080151 -0.01111263
-0.34134397 0.13801208 -0.013625681
0.39155278 0.1386198 -0.0070465803
-0.34095794 0.15518452 -0.01613313
0.39114842 0.15585501 -0.0094341636
-0.34057274 0.17231905 -0.018634856
0.39074489 0.17305386 -0.011816919
0.3905482 0.19035703 -0.012978375
0.3904027 0.2076796 -0.013837636
-0.3600814 0.2261928 -0.0054969788
0.3902573 0.22498903 -0.014696002
-0.35993436 0.24355277 -0.0064069033
0.39011392 0.24228689 -0.015542924
-0.3597874 0.26089877 -0.0073158145
0.38996872 0.25957003 -0.016400158
-0.35964054 0.27823091 -0.0082243681
0.38982365 0.27684021 -0.017256856
-0.359492 0.29554728 -0.0091431737
0.38967869 0.29409724 -0.018112838
0.3895357 0.31134319 -0.018957019
-0.35934541 0.31285155 -0.010049999
-0.35928032 0.33023128 -0.010452807
-0.35939246 0.34780735 -0.0097589493
0.38956016 0.3461346 -0.018812597
-0.35950285 0.36539182 -0.0090759397
0.38967112 0.36364409 -0.018157184
-0.35961518 0.38298935 -0.0083811879
0.38978222 0.3811639 -0.017501414
-0.35972753 0.40059763 -0.0076860785
0.38989332 0.39869386 -0.016845345
-0.35983998 0.41821653 -0.0069904327
0.39000455 0.41623405 -0.016188681
0.3901158 0.43378419 -0.015531838
-0.35995433 0.43584901 -0.0062832832
-0.36006874 0.45349228 -0.0055757761
0.3902252 0.45134223 -0.014885604
0.3903366 0.4689129 -0.014227927
-0.010460966 -0.44035101 0.0073512793
0.007123909 -0.439863 0.0043324232
0.024696458 -0.44009218 0.0057501793
0.042300489 -0.44042268 0.007794559
-0.063218042 -0.42277843 0.0074309707
-0.045562834 -0.42231363 0.0044118762
-0.0279544 -0.42185175 0.001412034
-0.010392127 -0.4213894 -0.001591146
0.007123909 -0.42092818 -0.0045865178
0.024628323 -0.42115691 -0.0031011105
0.042163793 -0.42146751 -0.001083672
0.059730671 -0.42178032 0.00094854832
0.07732895 -0.42209381 0.0029845238
0.094958276 -0.42240605 0.005012691
0.11261952 -0.4227207 0.007055819
-0.098253235 -0.40476286 0.0044911504
-0.080574915 -0.40432414 0.0014911294
-0.062942669 -0.40388486 -0.001512289
-0.04535684 -0.40344673 -0.0045077205
0.094617806 -0.40354547 -0.0038328767
0.11220971 -0.40384024 -0.00181669
0.12986571 -0.40422493 0.00081300735
0.14786312 -0.40532422 0.0083289742
-0.11556129 -0.38654482 -0.0002374053
-0.097841233 -0.38596404 -0.0044290423
0.14726886 -0.38639477 -0.0013206005
0.16530596 -0.38743275 0.006170094
-0.15113448 -0.37000111 0.0072717667
-0.1330141 -0.36886185 -0.0014334321
0.16463943 -0.36859795 -0.0034501553
0.18271671 -0.36957639 0.0040265322
-0.16862606 -0.35226855 0.0060679913
-0.15044858 -0.35119754 -0.0026281476
0.20009482 -0.35175356 0.0018869042
-0.18622701 -0.33472899 0.0063744187
-0.16799219 -0.3337428 -0.002166152
0.21758541 -0.33414546 0.0013214946
-0.20393556 -0.31730467 0.0077946782
-0.18562318 -0.31638306 -0.00075650215
0.23516686 -0.31665331 0.0017511845
-0.20327599 -0.29900181 0.00065475702
0.23447524 -0.29841992 -0.0051599145
0.25275496 -0.29915458 0.0021811128
-0.22095074 -0.28159904 0.0020678043
0.25200987 -0.28097081 -0.0047327876
0.27067548 -0.28190982 0.0054324269
-0.23864743 -0.26417464 0.003482759
-0.2202398 -0.2634533 -0.0050362945
0.26970834 -0.26363051 -0.0029434562
-0.25664529 -0.24691473 0.007317245
-0.23788084 -0.24607204 -0.0036302209
0.28797615 -0.24660128 0.0032448769
-0.25567001 -0.22874497 -0.0011287928
0.28699774 -0.22849767 -0.0046989322
0.30559313 -0.21152468 0.0037318468
-0.27363351 -0.19389993 0.0024751425
0.30480951 -0.193645 -0.002256155
-0.27285793 -0.17606184 -0.0038215518
0.32348958 -0.17652386 0.0061814189
-0.29165399 -0.15894449 0.006090641
0.32265961 -0.15871748 0.00019180775
-0.29082733 -0.14117476 -0.00022602081
0.34054819 -0.12371453 0.0026448965
-0.30885369 -0.10617729 0.0033808351
0.33967316 -0.10607386 -0.0033375025
-0.30824131 -0.088588938 -0.0010384917
0.35874972 -0.088649914 0.006885469
-0.30764845 -0.071068585 -0.0053170919
0.35812125 -0.071068585 0.0028033853
-0.32687742 -0.053489581 0.0065901875
0.35749498 -0.053550147 -0.0012641549
-0.32624903 -0.035976645 0.0022940636
0.35687095 -0.036093898 -0.0053172112
-0.32562307 -0.018529616 -0.0019857287
0.3760246 -0.018368565 0.0049899817
0.37536579 -0.00092732161 0.00091469288
-0.3443096 0.016789772 0.0056366324
0.37470931 0.016451679 -0.0031461716
-0.3436783 0.034172036 0.0015364289
0.39399886 0.034442715 0.0073968768
-0.34328711 0.051575229 -0.0010046959
0.39358938 0.051897742 0.004978776
-0.34289673 0.068939656 -0.0035402179
0.39318073 0.069315687 0.0025656819
0.39277294 0.086696848 0.0001578331
-0.3622044 0.10480204 0.0076355338
0.39236599 0.10404135 -0.0022449493
-0.3617914 0.1221728 0.0050806999
0.39195991 0.12134939 -0.0046426654
-0.36137933 0.1395047 0.0025319457
0.41158411 0.13995413 0.0073968768
-0.3609682 0.1567979 -1.1622906e-05
0.41115597 0.15729737 0.004978776
-0.36055797 0.17405275 -0.0025492311
0.41072872 0.17460386 0.0025657415
-0.36037412 0.19142994 -0.0036864281
0.41054448 0.19203168 0.0015250444
-0.36022681 0.20881769 -0.0045977831
0.41039041 0.20946458 0.00065493584
0.41023645 0.2268841 -0.00021475554
0.41008461 0.24429199 -0.0010724068
0.40993086 0.26168492 -0.0019406676
-0.37988582 0.28075844 0.0081925988
0.40977725 0.2790646 -0.0028082132
-0.37972796 0.29819915 0.0072605014
0.40962574 0.29643315 -0.0036640167
-0.37957212 0.31562737 0.0063404441
0.40947238 0.31378639 -0.004530251
-0.37954712 0.33317843 0.0061928034
0.40942061 0.33122799 -0.0048226118
-0.37966639 0.3508845 0.0068969131
0.40953812 0.34884179 -0.0041590333
0.40965566 0.36646593 -0.0034951568
-0.37978378 0.36859921 0.0075901747
-0.37990317 0.386327 0.0082950592
0.40977126 0.38409802 -0.0028421283
0.40988895 0.40174255 -0.0021774173
0.4100067 0.41939735 -0.001512289
0.41012454 0.43706268 -0.00084686279
0.41024044 0.45473558 -0.00019204617
-0.36018136 0.47114396 -0.0048787594
0.41035843 0.47242135 0.00047415495
-0.010558256 -0.4600763 0.019989729
0.007123909 -0.45954183 0.01683414
0.024792287 -0.45977291 0.01819855
0.042493548 -0.46013457 0.020334423
-0.081271887 -0.44233099 0.01959908
-0.063495949 -0.44182283 0.016456127
-0.045770444 -0.44132909 0.013401687
-0.028092444 -0.4408403 0.010378182
0.059935808 -0.44075197 0.0098314285
0.07760296 -0.44108364 0.011883259
0.095301844 -0.44141594 0.013938665
0.11303201 -0.44174692 0.015986502
0.13092011 -0.44245729 0.020380437
-0.11663516 -0.42466593 0.019690871
-0.098668486 -0.42370993 0.013481677
-0.080919601 -0.42324263 0.010446608
0.13038667 -0.42324793 0.010480702
0.14846174 -0.42441317 0.018049419
-0.13424008 -0.40680805 0.018473864
-0.11609588 -0.40552241 0.0096834302
0.16597891 -0.40642914 0.015883446
-0.15182635 -0.38896909 0.017258227
-0.13362442 -0.38775238 0.0084769726
0.18346305 -0.38847902 0.013721645
0.20173968 -0.38953078 0.02131176
-0.169394 -0.37114903 0.016043782
0.20091423 -0.37056276 0.011563778
0.21923138 -0.37155417 0.019139647
-0.18694307 -0.35334784 0.014830649
0.21833259 -0.35268018 0.0094100833
0.23669003 -0.35361156 0.016971707
-0.2046003 -0.33572391 0.014990747
0.2358627 -0.33499801 0.0087045431
0.25425762 -0.33585474 0.016123831
-0.22238605 -0.31823316 0.016410291
0.2535046 -0.31744933 0.0091368556
-0.24019507 -0.30072194 0.017842889
-0.22166614 -0.29985875 0.0092166066
0.27165112 -0.30032551 0.013881624
-0.23941882 -0.28239095 0.010640264
0.29005978 -0.28327054 0.020161986
-0.2576741 -0.26525384 0.016227067
0.28901342 -0.2648676 0.011666477
0.3074533 -0.24773294 0.017946184
-0.27519897 -0.22987524 0.015185297
0.30638093 -0.22949883 0.0097517371
-0.27441478 -0.21183792 0.0088182092
0.32516742 -0.21242127 0.018290341
-0.29332259 -0.19478187 0.018841267
0.3243255 -0.19442473 0.012214184
-0.2924867 -0.17681348 0.012453794
0.3431994 -0.17719775 0.020771265
0.34231043 -0.15927556 0.014693439
-0.31061625 -0.14167754 0.016101122
0.34142616 -0.14144798 0.0086476207
-0.30973172 -0.12387791 0.0097175837
0.36033434 -0.12405017 0.01717788
-0.3288036 -0.10642941 0.019759953
0.35940325 -0.10629658 0.011130452
-0.32814291 -0.088714272 0.015242577
0.37868544 -0.08876203 0.021449924
0.37801528 -0.071068622 0.017304063
-0.32750812 -0.071068585 0.010902524
0.37734932 -0.053438764 0.013184667
-0.34630898 -0.03572534 0.018623054
0.37668577 -0.03587224 0.0090798736
-0.34563884 -0.018154208 0.014270365
0.39605373 -0.018032797 0.019530177
-0.34497297 -0.00064926594 0.0099453926
0.39535475 -0.00048119575 0.015402734
-0.36452878 0.017420158 0.022013605
0.39465827 0.017007306 0.011290193
-0.36386752 0.034928933 0.017923295
-0.3634508 0.052456304 0.015345395
0.41374049 0.052684285 0.019576073
-0.36303499 0.069944277 0.012773573
0.41330779 0.070212722 0.017132223
-0.36262017 0.087393105 0.010207415
0.41287601 0.087703869 0.014693439
0.41244513 0.105158 0.012259841
-0.38214272 0.12356462 0.021518946
0.41201514 0.12257501 0.0098314285
-0.38170481 0.14101981 0.018933117
-0.38126785 0.15843551 0.016353011
0.4318082 0.15896875 0.021679938
-0.38083187 0.17581239 0.013778746
0.43116289 0.17628743 0.018187106
-0.38066357 0.19333199 0.012784958
0.43092138 0.19380483 0.016880095
-0.38050699 0.21084473 0.011860311
0.43068862 0.21130788 0.015620232
-0.38035056 0.22834346 0.010936677
0.43047515 0.22880512 0.014464736
-0.38019615 0.24582964 0.010025024
0.43031251 0.24632287 0.013584495
-0.38003996 0.26330027 0.0091027617
0.43015003 0.26382706 0.012705028
0.42998767 0.28131777 0.011826217
0.42982757 0.2987971 0.010959446
0.42966545 0.31626117 0.010082006
0.42965069 0.33385289 0.010002255
0.42977491 0.35158241 0.010674536
0.42989919 0.36932218 0.011347175
0.43002141 0.38707027 0.012008786
-0.38002262 0.40406567 0.009000361
0.43014583 0.40483099 0.012682199
-0.38014024 0.42181301 0.0096947551
0.43027031 0.42260215 0.01335609
-0.38025981 0.43957353 0.01040113
0.43039486 0.44038385 0.014030337
-0.38038144 0.45734769 0.011119127
0.43052161 0.45817852 0.014716268
-0.010658954 -0.48007447 0.033070683
0.007123909 -0.47950941 0.029879212
0.024891935 -0.4797332 0.031143069
0.042693038 -0.4801136 0.033291638
0.060527578 -0.48049673 0.035455644
-0.081775203 -0.46222466 0.032675624
-0.063897498 -0.46168628 0.029496729
-0.046068672 -0.46114746 0.026315093
-0.028289136 -0.46061215 0.023153841
0.060227521 -0.46049508 0.022462726
0.077994734 -0.46085811 0.024606526
0.095795102 -0.4612219 0.02675432
0.11362874 -0.46158633 0.028906107
0.13168103 -0.46253386 0.034501076
-0.11720664 -0.44406027 0.030296445
-0.09909714 -0.44284227 0.022762001
0.14909327 -0.44373816 0.0283041
-0.13486116 -0.42603123 0.028558731
0.16665763 -0.42558795 0.025679886
0.184974 -0.42676878 0.033349514
-0.15252431 -0.40810376 0.027332306
0.18421486 -0.40754139 0.023487926
0.20257315 -0.40866277 0.031154692
-0.18865307 -0.39143094 0.035024762
-0.1701687 -0.39019522 0.026107192
0.22013891 -0.39059114 0.028964043
-0.20633703 -0.37347159 0.033791482
-0.18779431 -0.37230581 0.024883389
0.23767133 -0.37255368 0.026777446
-0.22400215 -0.35553148 0.032559574
-0.20540121 -0.35443541 0.023660839
0.25536218 -0.35476941 0.02637285
-0.24210952 -0.3381044 0.03560698
-0.22311164 -0.33672497 0.023660839
0.27362284 -0.3375676 0.03095752
-0.2411318 -0.31932431 0.026534736
0.27263266 -0.3188768 0.022382081
-0.25975865 -0.30236685 0.034279943
0.29111254 -0.30180928 0.028709233
-0.25871229 -0.28373754 0.02521801
0.30969593 -0.28464884 0.035082936
-0.27738902 -0.2666713 0.032966018
0.3085697 -0.26612183 0.02647692
-0.27627414 -0.24819241 0.023914635
0.32718164 -0.24887846 0.032826722
-0.29500997 -0.23102184 0.031734943
0.32601225 -0.23051284 0.02438736
-0.29416466 -0.21285143 0.025275767
0.3449932 -0.21332939 0.033035934
-0.31329647 -0.19567655 0.035443842
0.34409305 -0.1952152 0.026881516
-0.31239858 -0.17757607 0.028963983
0.3631627 -0.17788017 0.035548627
-0.31150573 -0.15957682 0.022520304
0.36221489 -0.15984139 0.02939254
-0.33069101 -0.14218751 0.032664001
0.36127213 -0.14189821 0.023268998
-0.32974553 -0.12425853 0.026199698
0.3803744 -0.12439007 0.031897485
0.37938419 -0.10652195 0.025772214
-0.3483313 -0.088841394 0.031758189
-0.34765524 -0.071068622 0.027367055
0.39816594 -0.071068585 0.032002091
-0.34697995 -0.053363398 0.022980988
0.39745933 -0.053326081 0.027829707
-0.36665848 -0.035470281 0.035187662
0.39675525 -0.035647567 0.023672462
-0.36594459 -0.017773129 0.030771911
-0.36523533 -0.00014302135 0.026384532
0.41559756 -2.9690564e-05 0.030064702
0.41486007 0.017569624 0.025899351
-0.38434917 0.035696797 0.034547508
0.41417414 0.035118371 0.022025287
-0.3839063 0.053350024 0.031932414
-0.3834644 0.070963487 0.029323041
-0.38302347 0.088537097 0.026719689
-0.38258162 0.10607028 0.024110436
0.43375811 0.10669565 0.032234311
0.43310684 0.12417363 0.028709233
-0.4023248 0.14255676 0.035571992
0.43245545 0.14159717 0.025183558
-0.40186137 0.16009702 0.032954514
-0.40141332 0.1776062 0.030423999
-0.40124711 0.19526038 0.029485345
-0.40108308 0.21290147 0.028558731
-0.40091711 0.23052689 0.027621567
-0.40075338 0.24813965 0.026696444
-0.40058768 0.26573655 0.02576071
-0.40042213 0.28331926 0.024825633
-0.40025875 0.3008894 0.023903012
-0.40009347 0.31844366 0.022969484
-0.40011385 0.33616915 0.023084641
-0.40023834 0.35400513 0.023787796
-0.40036494 0.37185407 0.024502754
-0.4004916 0.38971409 0.025218129
-0.40061632 0.40758294 0.025922537
-0.40074316 0.42546523 0.026638746
-0.40087003 0.44335854 0.027355492
-0.40099701 0.46126306 0.028072774
-0.010760806 -0.50030172 0.046301603
0.007123909 -0.49970531 0.043073475
0.024992712 -0.49991989 0.044234574
0.042894967 -0.50032127 0.046407402
0.060830772 -0.50072348 0.048584163
-0.082284287 -0.48234627 0.045901954
-0.064303644 -0.48177695 0.042686582
0.11423168 -0.48164842 0.041960359
0.13245134 -0.48285875 0.048796296
-0.046372432 -0.48120722 0.039468586
-0.028491087 -0.48064113 0.036270976
0.078395203 -0.48087856 0.037611961
0.096296623 -0.48126313 0.039784133
-0.11799756 -0.46430752 0.044973969
-0.09970279 -0.46276656 0.035874903
0.14996889 -0.46389225 0.04252255
-0.15402116 -0.44707379 0.048937678
-0.13554022 -0.44556198 0.039585471
0.16739139 -0.44502613 0.036270976
0.18581736 -0.44632483 0.044304967
-0.17173772 -0.42879188 0.046489656
-0.15322761 -0.42740524 0.037483633
0.20341381 -0.42795935 0.041082382
0.22197637 -0.42915604 0.048855186
-0.18951842 -0.41072348 0.045244098
-0.1709502 -0.40940937 0.036259353
0.22105424 -0.40979171 0.038872778
0.23971462 -0.41100886 0.047195256
-0.20728005 -0.39267451 0.043999791
0.23865989 -0.39165688 0.036655605
-0.22502267 -0.37464494 0.042756975
