ply
format ascii 1.0
comment PCL generated
element vertex 1365
property float x
property float y
property float z
element camera 0
property float view_px
property float view_py
property float view_pz
property float x_axisx
property float x_axisy
property float x_axisz
property float y_axisx
property float y_axisy
property float y_axisz
property float z_axisx
property float z_axisy
property float z_axisz
property float focal
property float scalex
property float scaley
property float centerx
property float centery
property int viewportx
property int viewporty
property float k1
property float k2
end_header
0.33256385 -0.043814026 -0.16271973
-0.35167727 -0.0011695251 -0.17080069
0.35299766 -0.001167044 -0.17069066
-0.3739703 0.020392582 -0.16401911
0.37523761 0.020395666 -0.16392243
-0.39421111 0.062836088 -0.17198265
0.39554042 0.06284041 -0.17188644
-0.41659859 0.084545411 -0.16520691
0.41787452 0.084549837 -0.16512406
-0.43837699 0.12750188 -0.16284418
0.4396503 0.12751445 -0.16266441
-0.45833701 0.19095233 -0.17143297
0.45967767 0.19096878 -0.1712544
-0.48109117 0.23450488 -0.16349387
0.4823699 0.23452297 -0.16332805
-0.50091475 0.29761037 -0.17207885
0.50226063 0.29763201 -0.17191374
-0.52234286 0.3617087 -0.17163908
0.5237121 0.36175537 -0.17133689
-0.13955937 -0.23767489 -0.14452541
0.14066461 -0.23767567 -0.14451146
-0.16059627 -0.21566531 -0.15294909
-0.13880885 -0.21536857 -0.15845346
0.14002129 -0.21536937 -0.15843964
0.16176869 -0.21566829 -0.15289342
-0.20420688 -0.19455189 -0.14477789
-0.18187788 -0.19403508 -0.15596807
0.183074 -0.19403759 -0.15591264
0.20531826 -0.19455516 -0.14470768
-0.22550464 -0.17288175 -0.14780045
-0.20311354 -0.1724515 -0.15898061
0.20433423 -0.17245418 -0.15891123
0.22663981 -0.17288458 -0.14773035
-0.24675642 -0.15125856 -0.15081656
0.24791536 -0.15126064 -0.15074682
-0.26796243 -0.12968174 -0.15382624
0.26914379 -0.12968314 -0.15377057
-0.28912133 -0.10815129 -0.15684342
0.2903277 -0.10815239 -0.15677392
-0.31081647 -0.086706139 -0.15481412
0.31201226 -0.086706981 -0.1547029
-0.33313784 -0.065229714 -0.14795423
0.33428174 -0.065229662 -0.14784229
-0.35361287 -0.022295203 -0.15600979
0.35481787 -0.022293765 -0.1559124
-0.37602985 -0.00066967309 -0.14915562
0.37718287 -0.00066743791 -0.14905798
-0.39637262 0.042060509 -0.15720439
0.39758831 0.042064235 -0.15710723
-0.41888285 0.063834243 -0.15037012
0.42004675 0.063838713 -0.15027261
-0.44107348 0.10711458 -0.14616394
0.44221655 0.10712487 -0.14599586
-0.46114448 0.17100757 -0.15485573
0.46235558 0.17102179 -0.15468895
-0.48404065 0.21476251 -0.14683533
0.48519146 0.21477935 -0.14666772
-0.50397342 0.27830601 -0.1555233
0.50519216 0.27832648 -0.15535641
-0.52595854 0.34310958 -0.15285146
0.52720702 0.34317294 -0.15241969
-0.52466697 0.38500795 -0.15956295
0.52592063 0.38503692 -0.15938258
-0.5058319 0.40883547 -0.14546394
0.50693876 0.4088307 -0.14549184
-0.14031744 -0.26020509 -0.13045752
0.14131437 -0.26020604 -0.13044357
-0.18386027 -0.23873234 -0.12735474
-0.16147473 -0.23803452 -0.13868451
0.16253662 -0.23803705 -0.13864243
0.18483616 -0.2387358 -0.12729788
-0.20531142 -0.21687874 -0.13042939
-0.18286403 -0.21626964 -0.14173436
0.1839506 -0.21627268 -0.14167833
0.2063124 -0.21688256 -0.13035858
-0.22671579 -0.19507289 -0.13349712
0.22774093 -0.19507623 -0.13342655
-0.24807484 -0.17331517 -0.13654423
0.24912396 -0.17331785 -0.13647377
-0.2922031 -0.15195346 -0.12824798
-0.26938766 -0.15160444 -0.13958466
0.27046072 -0.15160653 -0.13951457
0.29318807 -0.15195519 -0.12819135
-0.29065433 -0.12994069 -0.14261854
0.29175133 -0.12994228 -0.14254844
-0.31254253 -0.10841273 -0.13986599
0.31362492 -0.10841457 -0.13973951
-0.33498806 -0.08687453 -0.13293219
0.33601648 -0.086875468 -0.13281906
-0.35556924 -0.043647472 -0.14106035
0.35665929 -0.043646581 -0.14096212
-0.37810954 -0.021958623 -0.13414657
0.37914905 -0.021956835 -0.13403368
-0.40076339 -0.00016226619 -0.12718463
0.40174827 -0.00016003102 -0.12708521
-0.39855522 0.02106192 -0.14228177
0.39965618 0.021064997 -0.14218354
-0.42119384 0.042901315 -0.13536012
0.42224023 0.042904548 -0.13527548
-0.44380021 0.086480312 -0.12929654
0.44481379 0.086489551 -0.12912655
-0.4639833 0.15082189 -0.13809347
0.46506569 0.15083489 -0.13792455
-0.48702559 0.19478196 -0.12997627
0.48804939 0.19479892 -0.12979233
-0.50707138 0.25877121 -0.13875496
0.50816149 0.2587907 -0.13858604
-0.53061986 0.32497445 -0.12863076
0.53168327 0.32503521 -0.12819135
-0.5296371 0.41082147 -0.13373733
0.53067958 0.41084069 -0.1336242
-0.163258 -0.28346482 -0.10972786
-0.14108315 -0.28296304 -0.11624753
0.14197072 -0.28296402 -0.11623323
0.1640978 -0.28346923 -0.10967052
-0.18486583 -0.26142564 -0.11284101
-0.16236223 -0.26063362 -0.1242733
0.16331321 -0.26063654 -0.12423086
0.18573003 -0.26142955 -0.11278379
-0.20642625 -0.23943487 -0.11594737
0.20731579 -0.23943913 -0.11587596
-0.22794062 -0.21749288 -0.11903262
0.22885448 -0.21749681 -0.11896133
-0.27228358 -0.19612831 -0.11064672
-0.24940814 -0.19559884 -0.12211108
0.25034621 -0.19560212 -0.12204003
0.27313402 -0.19613159 -0.11057508
-0.29376629 -0.1741927 -0.11374354
-0.2708289 -0.17375234 -0.12518299
0.27178985 -0.17375457 -0.12512612
0.29464108 -0.17419538 -0.11367202
-0.31428882 -0.13035351 -0.12474251
0.31525344 -0.1303561 -0.12462878
-0.33686003 -0.10875353 -0.1177336
0.33777159 -0.10875513 -0.1176194
-0.35954371 -0.087045796 -0.11068988
0.36040023 -0.087046593 -0.11058939
-0.35754484 -0.065229759 -0.12596405
0.35852057 -0.065229714 -0.12585044
-0.38021371 -0.043477193 -0.11896133
0.3811346 -0.043476548 -0.11886132
-0.40299338 -0.021616723 -0.11193788
0.40386105 -0.021615084 -0.11183763
-0.42352754 0.02174174 -0.12020206
0.42445949 0.021744922 -0.12010229
-0.44656003 0.065596081 -0.1122247
0.44744465 0.065604635 -0.11203837
-0.46685642 0.13039201 -0.12112832
0.46781084 0.13040492 -0.12094319
-0.4900493 0.17456046 -0.11289847
0.49093959 0.17457503 -0.11272645
-0.51020426 0.23899874 -0.1217978
0.51116413 0.23901713 -0.12162709
-0.16416393 -0.30653411 -0.095017076
-0.14185666 -0.30595183 -0.10189331
0.14263372 -0.30595303 -0.10187888
0.16488975 -0.30653775 -0.094973445
-0.18588278 -0.28435513 -0.09816277
0.18663402 -0.28435957 -0.098104715
-0.20755371 -0.26222512 -0.10130119
0.20833056 -0.26223019 -0.10122895
-0.22917691 -0.24014395 -0.10443282
0.22997953 -0.24014926 -0.10434639
-0.27375481 -0.21873695 -0.095945477
-0.25075385 -0.21811208 -0.10754323
0.25157985 -0.2181159 -0.10747123
0.27449214 -0.21874088 -0.095872998
-0.29534721 -0.19666287 -0.099074483
0.29610771 -0.19666544 -0.099016666
-0.31783688 -0.17495205 -0.094015479
0.31856674 -0.17495701 -0.093884826
-0.31605244 -0.15253162 -0.10946941
0.31690112 -0.15253577 -0.10934007
-0.33875057 -0.13086982 -0.10238445
0.33954412 -0.1308725 -0.10226882
-0.36156246 -0.10909946 -0.09526372
0.36230215 -0.1091012 -0.095147729
-0.3823387 -0.065229759 -0.1036253
0.38314357 -0.065229662 -0.10351002
-0.40524974 -0.043304481 -0.096510887
0.40599883 -0.043303683 -0.096409559
-0.42613521 0.00039011985 -0.10326469
0.42694753 0.00039409846 -0.10309148
-0.44935349 0.04445684 -0.094944477
0.45010549 0.044464096 -0.094755888
-0.46976691 0.10971469 -0.10394263
0.47058713 0.10972538 -0.10376966
-0.49310738 0.15409085 -0.095626473
0.49386507 0.15410432 -0.095452428
-0.51337516 0.21898574 -0.10463464
0.51420337 0.21900302 -0.10446179
-0.53536272 0.30652151 -0.10398579
0.53624058 0.30658174 -0.10352433
-0.55899358 0.4173519 -0.095176697
0.55977136 0.41739857 -0.094900966
-0.53701061 0.43924385 -0.09542346
0.53774261 0.43924892 -0.095394373
-0.16507845 -0.32984248 -0.080167413
-0.14263803 -0.32917511 -0.087392688
0.14330347 -0.32917643 -0.087378144
0.16569076 -0.32984799 -0.080109
-0.1869093 -0.30752242 -0.083345771
0.18754746 -0.30752856 -0.083272696
-0.20869291 -0.28525278 -0.086502552
0.20935591 -0.28525841 -0.086429596
-0.25348875 -0.26384389 -0.077936888
-0.23042727 -0.26303118 -0.089666843
0.23111628 -0.26303726 -0.089579582
0.25408822 -0.26384997 -0.077848792
-0.27523988 -0.24158043 -0.081105709
-0.25211489 -0.24085969 -0.092809677
0.25282753 -0.24086419 -0.092736959
0.27586305 -0.24158502 -0.081032276
-0.29694301 -0.21936628 -0.084267139
0.29759106 -0.21937022 -0.084194183
-0.31963921 -0.19761738 -0.078406811
0.32024908 -0.19762361 -0.078274727
-0.34066355 -0.15322816 -0.086852789
0.34133768 -0.15323178 -0.086736083
-0.3636052 -0.13139471 -0.079654336
0.36422491 -0.13139746 -0.079536676
-0.38448891 -0.087219656 -0.088107586
0.38517451 -0.087220505 -0.087990761
0.40815797 -0.065229759 -0.080827117
-0.40753084 -0.065229662 -0.080915213
-0.42881259 -0.021215379 -0.085874677
0.42949134 -0.021212745 -0.085699439
-0.45218366 0.023058593 -0.07743752
0.45279896 0.023064062 -0.077261209
-0.47271061 0.088783301 -0.086560965
0.47339734 0.088792689 -0.086385846
-0.49620301 0.13337025 -0.078142524
0.49682894 0.13338339 -0.07795167
-0.51658762 0.1987291 -0.087246895
0.51728231 0.1987454 -0.087071776
-0.54018939 0.28774276 -0.07890594
0.54087567 0.2878007 -0.078436255
-0.56018096 0.39637527 -0.089244246
0.560947 0.39644852 -0.088792562
-0.51698148 0.44106901 -0.085114956
0.51757962 0.44101965 -0.085392714
-0.16600344 -0.35339668 -0.065147519
-0.14342743 -0.35263661 -0.072743297
0.14398012 -0.3526381 -0.072728634
0.16650017 -0.35340255 -0.065088272
-0.18794762 -0.33093333 -0.068359375
0.18846951 -0.33093882 -0.068300128
-0.23296611 -0.30952597 -0.059684277
-0.20984289 -0.30851996 -0.071563959
0.21039093 -0.30852616 -0.071490049
0.23342447 -0.3095336 -0.059595108
-0.2548784 -0.28707013 -0.06289351
-0.23168945 -0.28615662 -0.074761271
0.23226377 -0.28616342 -0.074672818
0.2553609 -0.28707585 -0.062819242
-0.27674201 -0.26466429 -0.066095471
0.27724972 -0.26466945 -0.066021323
-0.2985571 -0.24230811 -0.0692904
0.29908994 -0.24231267 -0.06921649
-0.32146311 -0.22053319 -0.062611461
0.32195154 -0.22054034 -0.062477946
-0.34259576 -0.17583157 -0.071165562
0.34315097 -0.17583668 -0.071032643
-0.36566857 -0.15393527 -0.063887477
0.36616704 -0.15393895 -0.063768864
-0.38666072 -0.10945095 -0.072433949
0.38722581 -0.10945269 -0.072316051
-0.40983489 -0.087396346 -0.065162182
0.41034293 -0.087396994 -0.065058589
-0.43152517 -0.043086931 -0.068255782
0.43206865 -0.043085642 -0.06807816
-0.45504639 0.0013954937 -0.05972898
0.45552799 0.0014000162 -0.059535623
-0.47569054 0.067594208 -0.068965316
0.47624457 0.067603044 -0.068773031
-0.49933946 0.11239447 -0.060427785
0.49982691 0.1124055 -0.060249448
-0.52005255 0.17832077 -0.068492174
0.52065301 0.17835957 -0.068033934
-0.56525314 0.37829593 -0.063902259
0.56582844 0.378369 -0.063427448
-0.56309742 0.44291782 -0.074672818
0.56368697 0.44293845 -0.074555159
-0.14503075 -0.4002887 -0.042989373
0.14535441 -0.40029043 -0.042974353
-0.1669382 -0.37719923 -0.049969196
-0.14422496 -0.37633985 -0.057943225
0.14466372 -0.37634146 -0.057928205
0.1673173 -0.37720397 -0.049924254
-0.18899687 -0.35459083 -0.053214788
0.18940221 -0.35459688 -0.053154945
-0.23425628 -0.33314216 -0.044448137
0.23459627 -0.33314908 -0.044372916
-0.21100612 -0.33203319 -0.056453109
0.21143788 -0.33204004 -0.056378603
-0.25628135 -0.31054014 -0.047706246
0.25664824 -0.3105478 -0.047616363
-0.27825847 -0.28799018 -0.050942183
0.278651 -0.28799707 -0.050852299
-0.30020428 -0.26550183 -0.054006338
0.30062553 -0.26551113 -0.053871989
-0.32330722 -0.24370292 -0.046641111
0.32367286 -0.24371126 -0.046506047
-0.34455109 -0.19868514 -0.055289865
0.34498256 -0.19869059 -0.055170655
-0.36775669 -0.1767258 -0.047931075
0.3681325 -0.17673042 -0.047811389
-0.38885853 -0.13192779 -0.056572556
0.38929975 -0.1319302 -0.056468129
-0.4121666 -0.10980831 -0.049220085
0.41255 -0.10980976 -0.049130201
0.43467572 -0.065229714 -0.05025351
-0.43426919 -0.065229662 -0.050433159
-0.4787074 0.046142429 -0.051151514
0.4791247 0.046149984 -0.050957084
-0.54510206 0.26862961 -0.053379059
0.54559332 0.26868483 -0.052900791
-0.54650277 0.47029006 -0.046100736
0.54684693 0.47028702 -0.046115518
-0.14584494 -0.42448699 -0.027880073
0.14605229 -0.42448881 -0.027864695
-0.16788189 -0.40125224 -0.034644842
0.16814388 -0.40125924 -0.034584522
-0.19005615 -0.37849721 -0.037925124
0.19034477 -0.37850541 -0.037849545
-0.23555887 -0.35700756 -0.02906549
-0.21218048 -0.35579348 -0.041197777
0.21249589 -0.35580248 -0.041107535
0.23578165 -0.35701668 -0.028974295
-0.25770053 -0.33426034 -0.032342911
0.25794926 -0.33426875 -0.032252073
-0.27979249 -0.31156427 -0.03561306
0.28006569 -0.31157064 -0.035537481
-0.30193412 -0.28898984 -0.037955284
0.30223349 -0.28900152 -0.037804365
-0.3251701 -0.26712984 -0.030507922
0.32541174 -0.26713929 -0.030371308
-0.34652817 -0.22179273 -0.039238095
0.34683621 -0.22179928 -0.039117217
-0.3698661 -0.19976953 -0.031812429
0.37011987 -0.1997759 -0.031675935
-0.39107871 -0.15465391 -0.040549874
0.3913987 -0.15465763 -0.040429235
-0.41452208 -0.13246948 -0.033115745
0.41478375 -0.13247192 -0.033009768
-0.4370473 -0.08764863 -0.032388449
0.43731529 -0.087650023 -0.032206535
-0.45794472 -0.020536799 -0.04180038
0.45828867 -0.020533867 -0.041604519
-0.4817645 0.024423912 -0.033100605
0.48204315 0.024429925 -0.032903671
-0.50251228 0.09115722 -0.042507887
0.50286466 0.091167651 -0.042312145
-0.52480316 0.15815926 -0.04277873
0.52520978 0.15819624 -0.042297006
-0.55010295 0.24917278 -0.027393341
0.55039865 0.2492269 -0.026891351
-0.57041615 0.35989258 -0.038106203
0.57079452 0.35996321 -0.037623048
-0.57256639 0.47375172 -0.027362943
0.57281297 0.47379398 -0.027134895
-0.14666764 -0.44893855 -0.012612462
0.14675747 -0.44894052 -0.012597203
-0.16883661 -0.42556313 -0.019142509
0.16897929 -0.4255707 -0.019081354
-0.21456915 -0.40407866 -0.010167718
-0.19112778 -0.40265951 -0.022457719
0.19129644 -0.40266654 -0.022396564
0.21464479 -0.40408751 -0.010090709
-0.23687664 -0.38112921 -0.013503313
-0.21336848 -0.37980777 -0.025765181
0.2135641 -0.37981588 -0.025689244
0.23697972 -0.3811391 -0.013411045
-0.25913489 -0.35823351 -0.016815782
0.25926286 -0.35824114 -0.016739249
-0.28134286 -0.33538947 -0.020120978
0.28149688 -0.33539647 -0.020044684
-0.30368495 -0.31274161 -0.021709681
0.30385789 -0.3127532 -0.021572351
-0.32705563 -0.29082021 -0.014178634
0.32717174 -0.29083085 -0.014040589
-0.34852546 -0.24515748 -0.023022175
0.3487106 -0.24516594 -0.022884846
-0.37200111 -0.22307202 -0.015497923
0.37212756 -0.22307861 -0.015375257
-0.39332572 -0.17763412 -0.024333358
0.39351904 -0.17763819 -0.024226785
-0.41690615 -0.15538478 -0.016815782
0.41704038 -0.15538761 -0.01672399
-0.43986034 -0.11034872 -0.014117122
0.43999025 -0.11035176 -0.013917804
-0.46088171 -0.042743392 -0.023632169
0.46108621 -0.042741854 -0.023433924
-0.48485729 0.002432175 -0.014838457
0.48499578 0.0024368986 -0.01463902
-0.50572747 0.069654889 -0.024348736
0.50593787 0.069663294 -0.02416563
-0.52963954 0.13763392 -0.016601324
0.52984887 0.13766891 -0.016095757
-0.57567555 0.34115878 -0.01182878
0.57585037 0.34122476 -0.011352181
-0.52898079 0.47508103 -0.020166755
0.52903879 0.4749881 -0.020671248
-0.14749901 -0.47364742 0.0028157234
0.14747009 -0.47364956 0.0028312206
-0.16980153 -0.45013446 -0.0034739971
0.16982281 -0.45014054 -0.0034275055
-0.21578155 -0.42860833 0.0055817366
-0.19221085 -0.42708027 -0.0068247318
0.19225922 -0.42708799 -0.0067628622
0.21573709 -0.42861986 0.0056750774
-0.23820724 -0.40550792 0.0022103786
0.23818943 -0.40551868 0.0023036003
-0.26058316 -0.38246182 -0.0011378527
0.26059183 -0.38247183 -0.0010449886
-0.28290829 -0.35946819 -0.0044783354
0.28294197 -0.35947588 -0.0044010878
-0.30545381 -0.3367587 -0.0052969456
0.30550209 -0.3367731 -0.0051424503
-0.32896066 -0.31477627 0.0023190975
0.3289499 -0.31478807 0.0024586916
-0.35054708 -0.26878566 -0.0066088438
0.35060427 -0.26879415 -0.0064852238
-0.37415817 -0.24663597 0.00098502636
0.37415981 -0.24664447 0.0011245012
-0.39559799 -0.20087236 -0.0079346895
0.39566523 -0.20087728 -0.0078268051
-0.41931474 -0.17855728 -0.00034797192
0.41932237 -0.17856081 -0.00025498867
-0.44271129 -0.13333598 0.0044001341
0.44269678 -0.13334015 0.0045866966
-0.46385324 -0.065229662 -0.0052506924
0.46391663 -0.06522961 -0.0050499439
-0.48798916 -0.019837044 0.0036543608
0.4879857 -0.019833915 0.0038563013
-0.50898033 0.04788135 -0.0059760809
0.50904971 0.047888413 -0.0057909489
-0.55519462 0.2293632 -0.00093638897
0.55528831 0.22941434 -0.00042545795
-0.55638617 0.50248659 0.0052552223
0.55633491 0.50248361 0.0052396059
-0.14833917 -0.49861768 0.018407226
-0.1253469 -0.49804014 0.014458537
0.12522884 -0.49804476 0.014489889
0.14819023 -0.49862006 0.018422961
-0.17077589 -0.47496822 0.012347579
0.17067625 -0.47497693 0.012410402
-0.21700825 -0.45340496 0.021517038
-0.19330452 -0.45176178 0.0089608431
0.19323237 -0.45177203 0.0090389252
0.2168401 -0.45341524 0.021595716
-0.23955353 -0.43015134 0.018109083
0.23941338 -0.430163 0.018203378
-0.26204848 -0.40695301 0.014724731
0.2619338 -0.40696198 0.014803052
-0.28449211 -0.38380754 0.011348009
0.28440404 -0.38381594 0.01142621
-0.3072443 -0.36104885 0.011316895
0.30716488 -0.36106443 0.01147294
-0.33088902 -0.33900496 0.019019127
0.33074987 -0.33901808 0.019160509
-0.35258961 -0.29267958 0.0099747181
0.35252109 -0.29269037 0.010114908
-0.37634167 -0.27046773 0.017670035
0.37621313 -0.2704764 0.017795563
-0.39789376 -0.22437233 0.0086336136
0.39783362 -0.22437823 0.0087426901
-0.42175293 -0.20199275 0.016322136
0.42163238 -0.20199713 0.016416073
-0.44559607 -0.15661484 0.023137331
0.44543996 -0.15662116 0.023341894
-0.46686238 -0.088000819 0.013363719
0.4667829 -0.088002361 0.013566971
-0.49116343 -0.042389117 0.022397757
0.49101615 -0.04238753 0.02260232
-0.51227725 0.025832415 0.012644768
0.51220375 0.025838181 0.012832284
-0.5345639 0.11673505 0.010052443
0.53456974 0.11676665 0.010567665
-0.14918828 -0.5238536 0.034164548
-0.12607275 -0.52323931 0.030173898
0.12583372 -0.5232442 0.030205607
0.14891803 -0.52385616 0.034180403
-0.1717618 -0.50007296 0.028356314
0.17153892 -0.50008219 0.028419614
-0.21824826 -0.47847077 0.037625313
-0.19441107 -0.47671214 0.024932861
0.19421504 -0.47672084 0.024995923
0.21795617 -0.47848177 0.037704706
-0.24091442 -0.45506218 0.034180403
0.24064942 -0.4550724 0.034259677
-0.26352823 -0.4317075 0.03074348
0.26329166 -0.43171918 0.030838251
-0.28609148 -0.40840849 0.027330041
0.28588191 -0.40841946 0.027424693
-0.30905345 -0.38561326 0.028103709
0.30884498 -0.38563031 0.028261662
-0.33283752 -0.36350831 0.035893917
0.33257037 -0.36352423 0.036052585
-0.35465726 -0.3168461 0.026761889
0.3544597 -0.31685805 0.026903868
-0.37855005 -0.29457098 0.034545183
0.37828985 -0.29457948 0.034656048
-0.40021774 -0.24813989 0.025405765
0.40002871 -0.24814674 0.025516033
-0.42421654 -0.2256943 0.033165812
0.4239665 -0.22569945 0.033260942
-0.46990991 -0.11106209 0.032215357
0.46968812 -0.11106557 0.032437205
-0.51561338 0.0035020113 0.031487226
0.51539522 0.0035064369 0.031677127
-0.53957874 0.095451958 0.037196398
0.53938013 0.095481135 0.037736654
-0.56037945 0.20919082 0.026004791
0.56026751 0.20923889 0.026525378
-0.58410132 0.50730062 0.030268788
-0.53815573 0.50715137 0.029494166
0.53786755 0.50709361 0.029193878
0.58390296 0.50734323 0.030490279
-0.15004644 -0.54935944 0.050090432
0.14965363 -0.54936194 0.050106287
-0.12680636 -0.54870743 0.046056986
0.12644508 -0.54871249 0.046088934
-0.1727574 -0.52544838 0.044523239
0.17241013 -0.5254584 0.044587255
-0.2195006 -0.50380808 0.053893566
-0.19552968 -0.50193369 0.04107821
0.1952094 -0.50194293 0.041141987
0.21908331 -0.50381982 0.053973794
-0.24228875 -0.48024237 0.050410867
0.24190015 -0.48025578 0.050507069
-0.26502553 -0.45673355 0.046952486
0.26466426 -0.45674604 0.047048211
-0.28770986 -0.43327889 0.043501616
0.28737441 -0.43328878 0.043581605
-0.31088498 -0.41046011 0.045098186
0.31054586 -0.41047865 0.045258045
-0.33481023 -0.38829401 0.05297792
0.33441004 -0.38830966 0.053122401
-0.35674658 -0.34128723 0.043725133
0.35641864 -0.34130052 0.04386878
-0.38078162 -0.31894907 0.051597595
0.38039228 -0.31895995 0.051725984
-0.40256611 -0.27217776 0.042353272
0.40224671 -0.2721855 0.042464972
-0.42698282 -0.2497825 0.052078843
0.42660066 -0.24979442 0.052271605
-0.44851774 -0.18019173 0.042114019
0.44821593 -0.18019968 0.042321444
-0.47299916 -0.13441959 0.051324844
0.47262821 -0.13442445 0.051533341
-0.49437565 -0.065229714 0.041365147
0.49408281 -0.065229714 0.041572213
-0.51899517 -0.019114476 0.050587296
0.51862764 -0.019111693 0.050763607
-0.56566006 0.18864605 0.053443789
0.56533867 0.18869093 0.053973794
-0.15091385 -0.57513934 0.066187382
-0.12754783 -0.57444888 0.062110424
0.12706299 -0.57445437 0.06214273
0.15039638 -0.57513934 0.066187382
-0.19780262 -0.55320609 0.07388556
-0.17376491 -0.55110407 0.060883164
0.17329174 -0.55111456 0.060947657
-0.22076792 -0.52942574 0.07035625
-0.19665937 -0.52742857 0.057384133
0.19621462 -0.52744097 0.057464838
0.22022398 -0.52943826 0.07043767
-0.24367957 -0.50570095 0.066835523
0.24316458 -0.50571513 0.066932559
-0.26653776 -0.48203152 0.063322663
0.26605058 -0.48204491 0.06341958
-0.28934431 -0.45841929 0.059834242
0.2888847 -0.45843205 0.05993104
-0.31273583 -0.43559086 0.062272072
0.31226468 -0.43561071 0.06243372
-0.33680376 -0.41336364 0.070242643
0.3362726 -0.41338241 0.070405126
-0.35886189 -0.3660107 0.060899258
0.35840195 -0.36602521 0.061044574
-0.38304102 -0.34360933 0.068862677
0.38251698 -0.34361985 0.068976402
-0.40494362 -0.29649302 0.059511781
0.40449232 -0.29650167 0.059624672
-0.429813 -0.27419218 0.071428776
0.42928222 -0.2742058 0.071624041
-0.45147952 -0.20407248 0.061351299
0.45102763 -0.20408148 0.061545014
-0.47612566 -0.15807846 0.070665002
0.47560623 -0.15808499 0.070876241
-0.49763197 -0.088364288 0.060592651
0.49719152 -0.088365935 0.060802341
-0.54468662 0.073774539 0.064843416
0.54427695 0.073799945 0.065393686
-0.56667584 0.53589642 0.058721423
0.56622475 0.5359062 0.058769822
-0.15179062 -0.6011979 0.082458258
-0.12829733 -0.60046828 0.078337312
0.12768757 -0.600474 0.078369975
0.15114789 -0.6011979 0.082458258
-0.19895737 -0.57926577 0.090552807
-0.1747835 -0.5770421 0.077423096
0.17418304 -0.57705319 0.077488303
-0.22204795 -0.55532366 0.086984515
0.19722989 -0.5532167 0.073950768
0.22137721 -0.55533963 0.087082982
-0.2450857 -0.53144026 0.083441138
0.2444417 -0.53145289 0.083523035
-0.26806813 -0.50761032 0.079889417
0.26745352 -0.50762469 0.079987526
-0.29099837 -0.48383835 0.076362491
0.2904101 -0.48384964 0.07644403
-0.31460986 -0.46101397 0.079660773
0.31400505 -0.46103543 0.07982409
-0.33882234 -0.43872571 0.08772397
0.33815682 -0.43874586 0.087888241
-0.36099967 -0.39101827 0.078255534
0.36040628 -0.3910341 0.078402638
-0.38532448 -0.36855382 0.08631134
0.38466829 -0.36856702 0.086442709
-0.40734637 -0.32108754 0.076851845
0.40676177 -0.32109722 0.076966047
-0.45447716 -0.22826225 0.080821514
0.45387813 -0.22827372 0.081034303
-0.4792954 -0.18204537 0.090273023
0.47862548 -0.18205357 0.090486884
-0.50092775 -0.11179863 0.080052972
0.5003379 -0.1118018 0.080265522
-0.52355295 -0.041973908 0.076329947
0.5230431 -0.041970029 0.076835513
-0.5710423 0.16771919 0.081410527
0.57050747 0.16776094 0.081950784
-0.5464896 0.53907496 0.074602246
0.54588133 0.53904563 0.0744555
-0.15267694 -0.62753952 0.098905921
-0.12905417 -0.62676686 0.094723701
0.12831829 -0.62677294 0.094756603
0.15190758 -0.62753952 0.098905921
-0.17581236 -0.60326427 0.094129562
0.17508332 -0.60327595 0.094195485
-0.22334346 -0.58151156 0.10381377
0.19825739 -0.57927972 0.090635061
0.22254209 -0.58152562 0.10389686
-0.24650602 -0.55746239 0.10021436
0.24573426 -0.55747843 0.10031378
-0.26961547 -0.53347242 0.096639872
0.26887059 -0.53348511 0.096722364
-0.29266909 -0.50953633 0.093057275
0.29195392 -0.50955063 0.093156219
-0.31650388 -0.48673055 0.097235084
0.31576562 -0.48675582 0.097416997
-0.34086251 -0.46438131 0.10539234
0.34006116 -0.46440309 0.10555863
-0.36316425 -0.41631821 0.095830202
0.36243579 -0.41633531 0.095978737
-0.38763669 -0.3937906 0.10397983
0.38684264 -0.39380315 0.10409617
-0.40977928 -0.34596935 0.094410062
0.40905756 -0.34597847 0.094509125
-0.43268234 -0.29892042 0.091046691
0.43200091 -0.29893562 0.09124434
-0.4575139 -0.25276738 0.10054564
0.45676342 -0.25278062 0.10076118
-0.50426918 -0.13553877 0.099783659
0.50352526 -0.1355433 0.099982262
-0.52857792 -0.065229759 0.10471094
0.52785403 -0.065229662 0.10524273
-0.54989004 0.051691063 0.093007922
0.54926544 0.051712677 0.093568563
-0.5289371 0.52201736 0.1067394
0.5280568 0.5219596 0.10643995
-0.15357202 -0.65416598 0.11551666
-0.12982006 -0.65335542 0.11130536
0.12895654 -0.65336192 0.11133873
0.15267557 -0.65416914 0.11553347
-0.17685367 -0.62978101 0.11103833
0.17599452 -0.62979335 0.11110508
-0.22465344 -0.60799187 0.12083089
-0.20012608 -0.60561776 0.10742176
0.1992963 -0.60563248 0.10750496
0.22372113 -0.60800672 0.12091482
-0.2479436 -0.58377713 0.1171912
0.24703993 -0.58379132 0.117275
-0.27117848 -0.55961978 0.11355996
0.27030483 -0.559636 0.11366022
-0.29436001 -0.53552222 0.10995412
0.29351491 -0.5355376 0.11005414
-0.31842184 -0.51275015 0.11503148
0.31754512 -0.51277471 0.11519885
-0.34292856 -0.49034011 0.1232847
0.3419897 -0.49036336 0.12345278
-0.36535215 -0.44191194 0.11359334
0.36448714 -0.44193056 0.1137439
-0.38997382 -0.41932145 0.12183893
0.38904452 -0.41933697 0.12197328
-0.41223833 -0.37114024 0.11215675
0.41138232 -0.37115192 0.11227357
-0.43558681 -0.32397115 0.11090493
0.43475291 -0.32398799 0.1111052
-0.46059045 -0.277594 0.1205287
0.45968908 -0.2776103 0.12076366
-0.48250401 -0.20632517 0.11012077
0.4816817 -0.20633528 0.11033773
-0.50765175 -0.15959007 0.1197567
0.5067572 -0.15959682 0.11997473
-0.55519181 0.029190674 0.12170446
0.55434811 0.029208221 0.12227583
-0.57652593 0.14639851 0.10990417
0.57577056 0.14643541 0.11043775
-0.53184861 0.45433259 0.12318373
0.53084117 0.45428139 0.12288094
-0.53087366 0.47697407 0.11767721
0.52990872 0.47692066 0.11737537
-0.52990514 0.49953747 0.11220682
0.52897972 0.499479 0.11188972
-0.53002048 0.54673177 0.11285841
0.52910691 0.54668844 0.11264122
-0.5541352 0.57091886 0.11598551
0.55323142 0.57091528 0.11596859
-0.15447785 -0.68108773 0.13232672
-0.13059512 -0.68023902 0.12808573
0.12960179 -0.6802423 0.12810266
0.15345199 -0.68109125 0.13234365
-0.17790663 -0.65659451 0.12813652
0.1769159 -0.65660751 0.12820399
-0.22597682 -0.6347664 0.13802195
-0.20130786 -0.63226444 0.12447941
0.2003458 -0.63227683 0.12454677
0.22491224 -0.63478202 0.13810694
-0.24939586 -0.61038393 0.13434136
0.24836153 -0.61040199 0.13444316
-0.27276057 -0.58606267 0.1306864
0.27175516 -0.58607984 0.13078785
-0.29606986 -0.56179899 0.12704027
0.29509178 -0.56181258 0.12712431
-0.32036057 -0.53907353 0.13302052
0.31934726 -0.53910232 0.13320684
-0.36756781 -0.46780878 0.1315825
0.36656258 -0.46782652 0.13171792
-0.39234075 -0.44515517 0.13992524
0.39127028 -0.44516987 0.14004421
-0.41472864 -0.39660871 0.13012874
0.41373223 -0.39661962 0.13023007
-0.43852958 -0.34935156 0.13102448
0.4375411 -0.3493703 0.13122737
-0.48575753 -0.23092556 0.130247
0.48478079 -0.23093745 0.1304667
-0.51108181 -0.18395974 0.14001024
0.51002908 -0.18396759 0.14021432
-0.5336982 -0.088926569 0.13363004
0.53275621 -0.088930793 0.13418901
-0.5343135 0.57530838 0.13710546
0.53321564 0.57526606 0.13690174
-0.15539367 -0.70830715 0.14932227
-0.13137873 -0.70741951 0.1450516
0.13025481 -0.70742297 0.14506865
0.154237 -0.70831084 0.14933956
-0.17897043 -0.6837064 0.14540982
0.17784674 -0.68372005 0.14547813
-0.22731644 -0.66184604 0.15542436
-0.20250173 -0.65920705 0.14171159
0.20140812 -0.65922344 0.14179683
0.22611798 -0.66186273 0.15551031
-0.25086591 -0.63729376 0.15170205
0.24969804 -0.63731271 0.1518048
-0.27435887 -0.61280024 0.14798856
0.27322039 -0.61281842 0.1480912
-0.29779726 -0.5883683 0.14430118
0.29668793 -0.58838564 0.14440358
-0.32232404 -0.5657109 0.15123951
0.32117072 -0.56574148 0.15142798
-0.34501699 -0.51660275 0.14137113
0.34393913 -0.51662761 0.14154124
-0.36980972 -0.49401209 0.14978433
0.36866453 -0.49403098 0.1499213
-0.4172484 -0.42237845 0.1483134
0.41611212 -0.42239028 0.14841604
-0.44151384 -0.37507039 0.15142798
0.44036868 -0.3750909 0.1516335
-0.46371028 -0.30274993 0.14079273
0.46265087 -0.30276695 0.14101386
-0.48905146 -0.2558513 0.15062296
0.48791832 -0.25586501 0.15084565
-0.56059468 0.0062608644 0.15094841
0.55953085 0.0062748343 0.15154791
-0.15632711 -0.73585874 0.16664529
-0.13216946 -0.73489434 0.16217136
0.13091442 -0.73490167 0.16220582
0.15503871 -0.73586994 0.16669726
-0.18004726 -0.71112835 0.1628958
0.17878905 -0.71114278 0.16296506
-0.2286713 -0.6892333 0.17302418
-0.20371032 -0.68645763 0.15915561
0.20248139 -0.68647134 0.15922463
0.22733739 -0.68925083 0.17311108
-0.25235263 -0.66450864 0.16925955
0.25104839 -0.66452539 0.16934621
-0.27597684 -0.63984364 0.16550386
0.27470365 -0.63986278 0.16560769
-0.29954591 -0.61524117 0.16177475
0.29830056 -0.61525643 0.16186082
-0.32431093 -0.59266567 0.16967535
0.32301417 -0.592695 0.1698488
-0.34713221 -0.54317951 0.15968931
0.34591353 -0.5432061 0.15986168
-0.37207615 -0.52052474 0.16818559
0.37078953 -0.52054495 0.16832411
-0.39473346 -0.47129324 0.15820897
0.39352456 -0.4713113 0.15834677
-0.41979572 -0.44845262 0.16669703
0.4185181 -0.44846538 0.16680086
-0.44453537 -0.40113056 0.17208648
0.44323155 -0.40115303 0.17229486
-0.466869 -0.32823926 0.16130912
0.46565208 -0.32825819 0.16153324
-0.49239218 -0.2811107 0.17128825
0.49109769 -0.2811251 0.17149651
-0.5145576 -0.20865366 0.16053343
0.51334453 -0.20866236 0.16072309
-0.53891647 -0.11307725 0.16310322
0.53775239 -0.11308636 0.16369009
-0.08513803 -0.78874087 0.18820953
-0.06091987 -0.78772956 0.18383074
-0.036769047 -0.78671712 0.17944694
-0.012685946 -0.78571159 0.17509258
0.011330116 -0.78571558 0.17510998
0.035379965 -0.78672534 0.17948174
0.059497312 -0.78773767 0.18386579
0.08368203 -0.78874892 0.18824458
-0.15728149 -0.76376343 0.1843555
-0.1329706 -0.76268321 0.17951679
-0.10875221 -0.76170719 0.17514491
0.10739651 -0.761711 0.1751622
0.13158138 -0.76268715 0.1795342
0.15585756 -0.76377904 0.18442559
-0.18113638 -0.73886245 0.18058097
0.17974111 -0.73887372 0.18063331
-0.20493262 -0.71401781 0.17679811
0.20356794 -0.71403229 0.1768676
-0.25385481 -0.69203055 0.18699968
0.25241545 -0.69205159 0.18710494
-0.27761167 -0.6671918 0.18320131
0.27620232 -0.66721195 0.18330622
-0.30134061 -0.64246804 0.1797086
0.29996702 -0.64250344 0.17990029
-0.32631972 -0.61994022 0.1883148
0.32488143 -0.61997437 0.1885078
-0.34927267 -0.5700736 0.17822635
0.34790966 -0.57009894 0.17838311
-0.37437189 -0.54735732 0.18682456
0.37294194 -0.5473789 0.18696475
-0.39715701 -0.49774551 0.17672849
0.39580363 -0.49776241 0.17685032
-0.42237589 -0.47484091 0.18531823
0.42095512 -0.47485477 0.18542325
-0.47007269 -0.35407141 0.18211782
0.46869603 -0.35409233 0.18234479
-0.5180769 -0.23367736 0.18131423
0.51670712 -0.23368862 0.18152368
-0.56610805 -0.017109897 0.18079054
0.5648104 -0.017101001 0.18136668
-0.51914072 0.53757811 0.18759596
0.51763481 0.53751391 0.18726265
-0.51816863 0.56054151 0.18185568
0.51670992 0.56047881 0.1815412
-0.51818931 0.58463502 0.18197799
0.51671839 0.58455515 0.18159366
-0.5411194 0.60731745 0.17554498
0.53975421 0.60731 0.17551017
-0.085680597 -0.81706274 0.20582986
-0.061325658 -0.816006 0.20140183
0.05976757 -0.81601024 0.20141947
0.084088966 -0.8170712 0.20586526
-0.037038811 -0.81494802 0.19696856
-0.012820453 -0.81389719 0.19256532
0.011330116 -0.81390154 0.19258296
0.03551485 -0.81495655 0.19700396
-0.15824769 -0.79199177 0.20228636
-0.13377993 -0.79078001 0.19703925
-0.10942475 -0.78975892 0.19261813
0.10793455 -0.78976297 0.19263566
0.13225582 -0.790784 0.19705677
0.15668498 -0.79200399 0.20233965
-0.18223687 -0.76691008 0.1984508
0.18070504 -0.76692587 0.19852138
-0.20616765 -0.7418893 0.19462442
0.2046669 -0.74190837 0.19471252
-0.25537574 -0.71987146 0.20496094
-0.23004024 -0.71692961 0.19080746
0.22856952 -0.71694785 0.19089532
0.25379685 -0.71988988 0.20504963
-0.27926683 -0.69485641 0.20111883
0.27771965 -0.69487768 0.20122492
-0.30321977 -0.67013335 0.19848609
0.30170184 -0.67017072 0.19868028
-0.32835463 -0.64754641 0.20719624
-0.35143682 -0.59728783 0.19696856
0.34993163 -0.59731781 0.19714499
-0.37669307 -0.57451016 0.20567036
0.37511826 -0.5745331 0.2058121
-0.39960733 -0.52451271 0.19545245
0.39811218 -0.52453339 0.19559348
-0.42498469 -0.50154454 0.20414567
0.42341918 -0.50155932 0.204252
-0.44759756 -0.42754105 0.19302273
0.4461354 -0.42756748 0.19325149
-0.47331688 -0.38025025 0.20318937
0.47177845 -0.38027334 0.20341957
-0.49577492 -0.30670831 0.19221365
0.49432251 -0.30672595 0.1924423
-0.52219278 -0.25923806 0.20561707
0.52069372 -0.25927299 0.20618463
-0.54423571 -0.13769485 0.19314587
0.54284525 -0.13770905 0.19376183
-0.52207261 0.46817309 0.20490789
0.52043575 0.4681192 0.20458877
-0.52109271 0.49139434 0.19912183
0.51949769 0.4913348 0.19878626
-0.52011341 0.51452696 0.19333947
0.51856601 0.51446837 0.19302273
-0.52071911 0.61192393 0.19691575
0.51916963 0.61188984 0.19675696
-0.086229302 -0.84570491 0.22364938
-0.061736029 -0.84460181 0.21917129
-0.037311617 -0.84349734 0.21468782
-0.012956471 -0.84240061 0.21023488
0.011330116 -0.84240931 0.21027052
0.035651255 -0.84350634 0.21472359
0.060041156 -0.84460634 0.21918905
0.084500507 -0.84571385 0.2236855
-0.15922506 -0.82054532 0.22042382
-0.13459757 -0.81918949 0.21474135
-0.11010488 -0.8181268 0.21028829
0.10847866 -0.81813091 0.21030605
0.13293788 -0.81919789 0.21477699
0.15752274 -0.82055825 0.2204777
-0.18335111 -0.79528433 0.21654391
0.18168005 -0.79530078 0.21661544
-0.20741813 -0.77008516 0.21267354
0.20577738 -0.77010107 0.21274483
-0.25691423 -0.74803352 0.22312951
-0.23142627 -0.74494761 0.20881271
0.22981702 -0.74496675 0.20890141
0.25519553 -0.74805284 0.22321916
-0.28094107 -0.72283983 0.21924281
0.27925447 -0.72286218 0.2193501
-0.30511984 -0.69812965 0.21747291
0.30345759 -0.69817251 0.21768737
0.32676944 -0.64757925 0.20737386
-0.35362917 -0.62483394 0.21595478
0.35197613 -0.62486249 0.21611547
-0.4020896 -0.55160594 0.21442032
0.40044641 -0.55162513 0.21454525
-0.45070115 -0.45430866 0.21424198
0.44907606 -0.45433727 0.21447396
-0.4992063 -0.33265352 0.21343982
0.49758825 -0.33267167 0.21365368
-0.54965878 -0.16279301 0.22377515
-0.57172549 -0.040935785 0.21119559
0.57019264 -0.040931456 0.21176541
-0.52305919 0.44486922 0.21073294
0.52137727 0.44481748 0.21041286
-0.16021277 -0.84942567 0.23875356
0.15837021 -0.84944361 0.23882616
-0.13542612 -0.84792966 0.23268044
-0.1107927 -0.84681565 0.22815835
0.10902892 -0.84682029 0.22817659
0.13362767 -0.84793419 0.23269856
-0.18447718 -0.82398301 0.23482895
0.18266538 -0.82400024 0.23490095
-0.20868307 -0.79860693 0.23093116
0.20690183 -0.79862368 0.23100364
-0.23282832 -0.7732892 0.22702563
0.23107769 -0.77330518 0.22709751
-0.28263301 -0.75114369 0.23755884
0.28080553 -0.75116712 0.23766744
-0.30704483 -0.72647005 0.2367084
0.30523309 -0.72651136 0.23690748
-0.33041227 -0.67548406 0.22628868
0.32868212 -0.67552203 0.22648633
-0.35584608 -0.65271163 0.23515379
0.35404742 -0.65274507 0.23533452
-0.37904459 -0.60199487 0.22476208
0.377323 -0.60201919 0.22490585
-0.40460202 -0.57902825 0.23361874
0.40280902 -0.57904571 0.2337271
-0.42792851 -0.52889162 0.22539067
0.42621368 -0.52892309 0.22560608
-0.45384961 -0.48144311 0.23576844
0.4520568 -0.48147148 0.23598528
-0.47660786 -0.40678632 0.22456479
0.47490534 -0.40681136 0.22479808
-0.50268149 -0.35895064 0.23493719
0.50089842 -0.35897064 0.23515379
-0.52742153 -0.28562811 0.23649168
0.52568662 -0.28566813 0.23707032
0.54803759 -0.16281298 0.22442126
-0.50302345 0.57158911 0.23705232
0.50115728 0.57154566 0.23683524
-0.50146943 0.59408402 0.22743905
0.49967745 0.59403926 0.22722352
-0.50114113 0.61806542 0.22540855
0.49937591 0.6180343 0.22526491
-0.52688611 0.6442371 0.23333001
0.52509367 0.64425337 0.23340201
-0.20996146 -0.82745624 0.24938345
0.20803823 -0.8274737 0.24945629
-0.23424524 -0.80195588 0.24543214
0.23235424 -0.80197686 0.24552298
-0.28434637 -0.77978128 0.2561065
-0.25846902 -0.7765184 0.2414906
0.25661045 -0.77654266 0.24159944
0.2823762 -0.77980566 0.25621617
-0.30899155 -0.75515342 0.25616133
0.30703199 -0.75520062 0.25638103
-0.33249694 -0.70376569 0.24563205
0.33061633 -0.70380205 0.24581409
-0.35809222 -0.68093359 0.25460577
0.35614204 -0.68096536 0.25477052
-0.38142252 -0.62981164 0.24406874
0.37955251 -0.62983739 0.24421418
-0.40714279 -0.60678291 0.25303376
0.40520275 -0.60680455 0.25316155
-0.43093243 -0.55663264 0.24706972
0.42904875 -0.55666339 0.24726987
-0.47994101 -0.43368304 0.24621427
0.47807232 -0.43371037 0.24645066
-0.50620735 -0.38561004 0.25674725
0.50425678 -0.38563195 0.25696719
-0.55519193 -0.18838668 0.2550267
0.55332929 -0.18841138 0.25566721
-0.57745326 -0.065229714 0.24219835
0.57568377 -0.065229662 0.24277902
-0.50615996 0.52618754 0.25645435
0.50414681 0.52615035 0.256253
-0.50458694 0.54895735 0.24672401
0.50264609 0.54891527 0.24650526
-0.50413424 0.64660197 0.24392331
0.50223458 0.64658171 0.24383247
-0.23568015 -0.83096153 0.26407182
0.23364572 -0.83098346 0.26416385
-0.2600435 -0.80533952 0.26008403
0.25804049 -0.80536085 0.26017606
-0.33460522 -0.73239076 0.26519465
0.33257607 -0.7324329 0.26539707
-0.38383189 -0.65797269 0.26363015
0.3818115 -0.65799987 0.26377738
-0.4097172 -0.63488185 0.27270567
0.40762362 -0.63490152 0.27281666
-0.43397519 -0.58475262 0.26902878
0.43192527 -0.58478832 0.26925027
-0.45703864 -0.50894743 0.25757158
0.45508093 -0.50898051 0.25781
-0.48332289 -0.46095213 0.26818001
0.48128286 -0.46097934 0.26840138
-0.53275377 -0.31254059 0.26797712
0.53078139 -0.31258747 0.26858604
-0.50774264 0.50327861 0.26624441
0.50565392 0.50324255 0.26604176
-0.4839285 0.60336947 0.27211392
0.4817853 0.6033119 0.27183664
-0.4825148 0.62615323 0.26293147
0.48044786 0.62610167 0.26269257
-0.48334843 0.65205425 0.26834607
0.48125049 0.65201718 0.26818013
-0.2860781 -0.80875027 0.27485311
0.28396374 -0.80877602 0.27496421
-0.31096408 -0.78419363 0.27587199
0.3088513 -0.78423923 0.27607608
-0.33674151 -0.76137292 0.28501701
0.33455816 -0.76141322 0.28520346
-0.36036384 -0.7094993 0.274279
0.35826248 -0.70953262 0.27444553
-0.38626871 -0.68647796 0.28341472
0.38409624 -0.68650645 0.28356373
-0.4602744 -0.53683418 0.27969468
0.45814425 -0.5368669 0.27991772
-0.48674875 -0.48859668 0.29043162
0.48454061 -0.48862857 0.29067481
-0.50977886 -0.41263568 0.27884042
0.50765866 -0.41265973 0.27906311
-0.56083542 -0.21449021 0.28690064
0.55872637 -0.21451959 0.28753531
-0.51093405 0.45703447 0.28598654
0.5086959 0.45700431 0.2858001
-0.50933194 0.48022592 0.27607596
0.5071702 0.48019451 0.27589047
-0.48545063 0.58058518 0.28200006
0.48323101 0.58052933 0.28172112
-0.31295919 -0.81358975 0.2958082
0.3106949 -0.81364155 0.29603326
-0.33890232 -0.79071134 0.30506706
0.33656678 -0.79075766 0.30527437
-0.36266577 -0.73842227 0.29421389
0.36041114 -0.73845738 0.29438281
-0.3887381 -0.71534067 0.3034637
0.38641149 -0.71537066 0.30361438
-0.41232103 -0.66332537 0.29260266
0.41007677 -0.66334963 0.29273367
-0.43706009 -0.61326224 0.29129219
0.43483919 -0.6133002 0.29151666
-0.46355239 -0.56510597 0.30210662
0.46125275 -0.56514388 0.30235159
-0.513403 -0.44003907 0.30125928
0.51111078 -0.44006526 0.30148506
-0.53819269 -0.33999109 0.30009222
0.53597808 -0.3400453 0.30073202
-0.48852301 0.53459412 0.30195594
0.48615205 0.53454536 0.30169237
-0.48698211 0.55766064 0.29194736
0.48468837 0.55761021 0.29168522
-0.46339542 0.65935135 0.30103338
0.46105707 0.65933031 0.30093932
-0.48780197 0.6834684 0.29727256
0.48550013 0.68345988 0.29723501
-0.3649942 -0.7677018 0.31437886
0.36258456 -0.76773864 0.31454957
-0.39123595 -0.74455994 0.32374382
0.38875347 -0.74459177 0.32389677
-0.4149597 -0.69212663 0.31276619
0.41255811 -0.69214851 0.31287992
-0.44019067 -0.64217299 0.31388521
0.43779626 -0.64221328 0.31411302
-0.49022532 -0.51662964 0.3130126
0.48784107 -0.51666111 0.31324017
-0.51707488 -0.46782413 0.32397294
-0.5665924 -0.24111909 0.31941628
0.56423527 -0.24115413 0.32006371
-0.49163365 0.48803049 0.32216024
0.48910668 0.48798519 0.32189322
-0.4900735 0.51138443 0.31202686
0.48762476 0.5113374 0.31176162
-0.46588928 0.61292422 0.31808424
0.46338263 0.61284924 0.31772268
-0.46441084 0.63586229 0.30797577
0.46198234 0.63578492 0.30761659
-0.46470135 0.6863991 0.30996215
0.46229684 0.68638152 0.30988669
-0.417629 -0.72128481 0.33316314
0.41507292 -0.72131181 0.33329749
-0.44336259 -0.67148662 0.33677673
0.44079238 -0.67152947 0.33700776
-0.4668791 -0.5937767 0.32485151
0.46440223 -0.59381378 0.32508075
-0.49374777 -0.54505378 0.33589184
0.4911907 -0.54509026 0.33614182
0.51460826 -0.46785226 0.32420218
-0.54374468 -0.3679978 0.33287525
0.54127979 -0.36805803 0.33352792
-0.49320352 0.46453065 0.33235693
0.49060065 0.46449023 0.33210754
-0.46887392 0.56661779 0.33849013
0.46621221 0.56655109 0.33814335
-0.46737695 0.58984327 0.32825541
0.46479437 0.58977407 0.32791078
-0.44360003 0.64243937 0.33849013
0.44096118 0.642398 0.33829772
-0.4420307 0.66518497 0.32716465
0.43948171 0.66514647 0.32699251
-0.44215798 0.69058383 0.32808316
0.43961442 0.69056618 0.32800663
-0.39376763 -0.77415079 0.34429824
0.39112487 -0.77417976 0.34443355
-0.42033449 -0.75081468 0.35383666
0.41761705 -0.75083899 0.35395336
-0.47025275 -0.62285215 0.34791732
0.46759877 -0.62289131 0.34814966
-0.52080166 -0.49600294 0.34702623
0.5181551 -0.4960309 0.34723926
-0.57246989 -0.26829055 0.35261226
0.56985283 -0.26832885 0.35323405
-0.49478328 0.4408837 0.34261751
0.49210113 0.44084501 0.3423667
-0.47038031 0.54324675 0.34878922
0.46763903 0.54318213 0.34844041
-0.44522592 0.61960447 0.35022438
0.44249403 0.61956012 0.35001099
-0.42059672 0.67158669 0.35584044
0.4178279 0.67154753 0.35566521
-0.41980585 0.69559866 0.34979737
0.41709325 0.69557601 0.34970045
-0.44658214 -0.70121902 0.3600117
0.44383091 -0.70126009 0.36022604
-0.47367147 -0.65233684 0.37129092
0.47083798 -0.65237868 0.37152684
-0.4973231 -0.573883 0.35911405
0.49458495 -0.57391894 0.3593483
-0.54940999 -0.39657608 0.36632717
0.54668975 -0.39664277 0.36699355
-0.47341868 0.4960584 0.36956298
0.47052231 0.49600524 0.36924887
-0.47189611 0.5197283 0.35915303
0.4690775 0.51966965 0.35882139
-0.44851017 0.57343739 0.37392604
0.44559544 0.57339561 0.37370968
-0.4468635 0.59660566 0.36204255
0.44404048 0.59656245 0.36182761
-0.42214602 0.64873099 0.36767972
0.41928595 0.64869291 0.36750317
-0.4470965 0.72428286 0.36372387
-0.42189473 0.72476864 0.36575925
0.41906393 0.72475445 0.3657006
0.44433981 0.72437626 0.36411512
-0.44984484 -0.73137134 0.38355803
0.44691533 -0.73141885 0.38379562
-0.50094634 -0.60312009 0.38264787
0.4980275 -0.60315824 0.3828851
-0.52616388 -0.52593875 0.38019621
0.52332652 -0.52602637 0.3808285
-0.57846463 -0.29601905 0.38647044
0.57558572 -0.29606149 0.38708532
-0.47649857 0.44827408 0.39061999
0.47343954 0.44822514 0.39030206
-0.47495371 0.472242 0.38005805
0.47197631 0.4721908 0.37974203
-0.45017147 0.55010569 0.3859154
0.44716418 0.55006546 0.38569725
-0.42370909 0.6257149 0.37962353
0.42075691 0.62567806 0.37944579
-0.3988227 0.67817235 0.38534057
0.39583239 0.67814124 0.38520169
-0.39752349 0.70137084 0.37479246
0.39461675 0.70134366 0.3746742
-0.39833272 0.72849202 0.3813622
0.39538217 0.72847784 0.38130295
0.47412354 -0.68228763 0.3952384
-0.47714195 -0.68224698 0.39501894
-0.50462466 -0.63278002 0.40653908
0.50152236 -0.63282079 0.40677989
-0.55519551 -0.42574608 0.40048921
0.55221128 -0.42581716 0.40114915
-0.47805318 0.42415363 0.40124941
0.47491485 0.42410958 0.40094924
-0.45184478 0.52660501 0.3979913
0.44874173 0.52656257 0.39775181
-0.42686665 0.57917726 0.40375185
0.42372844 0.57914269 0.40357149
-0.42528346 0.60253233 0.3916539
0.42223608 0.60249251 0.39145529
-0.40030712 0.65513539 0.39739251
0.39722392 0.65510535 0.39725292
-0.37507597 0.70758247 0.40168953
0.37196934 0.70756853 0.40162957
-0.37468353 0.73253191 0.39829111
0.3716031 0.73251748 0.39823115
-0.48065951 -0.7125845 0.41906881
0.47745922 -0.71263123 0.41931152
-0.53172976 -0.5565697 0.41462636
0.52862942 -0.55666393 0.41527176
-0.45522243 0.47908175 0.42236781
0.45193398 0.47904557 0.42214489
-0.45352751 0.50292963 0.41013551
0.45033339 0.50289214 0.40991402
-0.42846403 0.55565608 0.41595805
0.42522919 0.55561888 0.41575623
-0.40331343 0.60856593 0.42180061
0.40003976 0.60853368 0.42163861
-0.4018048 0.63193548 0.40955222
0.39862555 0.63190204 0.4093914
-0.3765628 0.68469661 0.41456592
0.37335703 0.68468314 0.41450548
-0.35134554 0.71193236 0.42052543
0.34809431 0.71191841 0.42046463
-0.35051864 0.73600674 0.41285264
0.34732449 0.73598766 0.41277206
-0.50835305 -0.6628654 0.43075585
0.50506485 -0.66290867 0.43100023
-0.56109822 -0.45552173 0.43534303
0.55784798 -0.45559958 0.43601692
-0.45692986 0.45505917 0.43468988
0.45354894 0.4550277 0.43448591
-0.43169123 0.50809211 0.44061852
0.4282662 0.50805748 0.44041371
-0.43007308 0.53196281 0.42825329
0.42674342 0.53192693 0.42805016
-0.4048306 0.58502138 0.43411851
0.40146196 0.58499002 0.43395531
-0.37950251 0.63826901 0.44002473
0.37609404 0.6382435 0.43990207
-0.3780635 0.6616385 0.427562
0.37475541 0.66162086 0.42748094
-0.35274893 0.68893421 0.43354738
0.34939745 0.68892044 0.43348634
-0.32734644 0.71633154 0.43957436
0.3239471 0.71631271 0.4394927
-0.32630506 0.73990041 0.42916822
0.32298589 0.73988098 0.42908704
-0.35232961 0.7659927 0.42965662
-0.32715401 0.76796204 0.43765152
0.32377326 0.76795191 0.43761063
0.34901214 0.76598752 0.42963636
-0.51213884 -0.69339263 0.45534563
0.50866193 -0.69343841 0.45559359
-0.53741211 -0.58784139 0.44977701
0.53404325 -0.58794284 0.45043588
-0.45864978 0.4308601 0.44710243
0.45517311 0.43083012 0.44689691
-0.43332404 0.48404896 0.45309532
0.42980278 0.48401576 0.45288897
-0.4063614 0.56130767 0.44654739
0.40289697 0.56127727 0.446383
-0.38094273 0.61470991 0.45249689
0.37743813 0.61468518 0.45237327
-0.35416329 0.66575724 0.44667065
0.35071069 0.66574383 0.44660902
-0.32866445 0.6932196 0.4527446
0.32516557 0.69320595 0.45268261
-0.30193663 0.74404281 0.44652689
0.29848611 0.74402821 0.44646513
-0.30218172 0.77080172 0.44918001
0.29871076 0.77078664 0.44911838
-0.56712526 -0.48592463 0.47093093
0.56360328 -0.48600933 0.47161901
-0.43496621 0.4598248 0.46564364
0.43134812 0.45979279 0.46543574
-0.40945455 0.51334924 0.47166061
0.4057965 0.51332092 0.47149384
-0.40790358 0.53741878 0.45906806
0.40434021 0.53738576 0.45888186
-0.38239118 0.59097248 0.46504092
0.3787899 0.5909484 0.46491647
-0.35702741 0.61886281 0.47324646
0.35336804 0.61884618 0.47316301
-0.35559088 0.64240366 0.45991719
0.35203418 0.64238644 0.45983434
-0.32999274 0.66992718 0.4660176
0.32639164 0.66991377 0.46595538
-0.30430463 0.69755435 0.47216117
0.30065492 0.69753587 0.47207773
-0.30307412 0.72078097 0.45884025
0.29952699 0.72076178 0.45875764
-0.27739179 0.74844116 0.46495795
0.2737982 0.74842137 0.46487486
-0.2771861 0.77409023 0.46252894
-0.2517117 0.77650416 0.47232807
0.24806342 0.77648872 0.4722656
0.27360803 0.77405953 0.46240449
-0.54321468 -0.61977452 0.48567104
0.53956842 -0.61987984 0.48632288
-0.43662325 0.43542397 0.47830594
0.43290493 0.43539041 0.4780755
-0.41101968 0.48910445 0.48436761
0.40726125 0.48907399 0.48417854
-0.38532525 0.54297519 0.49045098
0.3815259 0.54294902 0.4903034
-0.38385275 0.56706297 0.47769904
0.38015395 0.56703967 0.47757339
-0.35847524 0.595137 0.48668051
0.3547124 0.59512073 0.48659647
-0.33133355 0.64645642 0.47941613
0.32762733 0.64643908 0.47933221
-0.30554485 0.67414522 0.48558688
0.30179173 0.67412704 0.48550284
-0.27852386 0.72528118 0.4783268
0.2748273 0.72526169 0.47824311
-0.25222829 0.75180137 0.47903895
0.24852979 0.75179142 0.47899699
-0.22662951 0.75440913 0.48996603
0.2228459 0.75439388 0.48990297
-0.22600314 0.77862185 0.48092508
-0.20022072 0.78097355 0.49047196
0.19643483 0.78096324 0.49042988
0.22228914 0.77860636 0.48086202
-0.57328051 -0.51697439 0.50727606
-0.4125939 0.46467531 0.49714863
