ply
format ascii 1.0
comment PCL generated
element vertex 1327
property float x
property float y
property float z
element camera 0
property float view_px
property float view_py
property float view_pz
property float x_axisx
property float x_axisy
property float x_axisz
property float y_axisx
property float y_axisy
property float y_axisz
property float z_axisx
property float z_axisy
property float z_axisz
property float focal
property float scalex
property float scaley
property float centerx
property float centery
property int viewportx
property int viewporty
property float k1
property float k2
end_header
0.13324359 -0.059328258 -0.085310876
-0.050945707 -0.042603202 -0.084915519
-0.034136433 -0.042477466 -0.087637246
-0.017369166 -0.042352095 -0.090352297
-0.00064375065 -0.042226948 -0.093060493
0.016039968 -0.042101681 -0.095772624
0.032707863 -0.042132042 -0.095116317
0.049401853 -0.042210311 -0.093420982
0.066121764 -0.042288281 -0.091733754
0.082867727 -0.042366259 -0.090043783
0.099640228 -0.042444959 -0.0883407
0.11643858 -0.042523302 -0.086645484
0.13326375 -0.042602219 -0.084936917
-0.050956897 -0.025870733 -0.084552109
-0.034144804 -0.025765955 -0.08727479
-0.017374732 -0.025661416 -0.089990616
-0.00064652786 -0.025557168 -0.092699766
0.016039968 -0.025453061 -0.095402122
0.032710712 -0.025478348 -0.094745696
0.049407404 -0.025543265 -0.093060493
0.066130102 -0.025608242 -0.091372609
0.082879193 -0.025673747 -0.089671433
0.099654168 -0.025738895 -0.087978423
0.11645583 -0.025804594 -0.086271942
0.13328332 -0.025869943 -0.084573388
-0.050966449 -0.009131141 -0.084241927
-0.034151949 -0.0090471655 -0.086965501
-0.017379317 -0.0089632347 -0.089692831
-0.00064881518 -0.008879818 -0.092402577
0.016039968 -0.0087961853 -0.095116317
0.032712914 -0.0088164583 -0.094459772
0.049411979 -0.0088686869 -0.092763424
0.066136971 -0.0089206845 -0.091075182
0.082888372 -0.0089731067 -0.089373589
0.099666066 -0.0090255365 -0.087669313
0.11647013 -0.0090781227 -0.085962296
0.13330004 -0.0091304705 -0.084263384
-0.050954923 0.0076292381 -0.084616303
-0.034143325 0.0076920502 -0.087338805
-0.017373588 0.007755056 -0.090065181
-0.00064595602 0.0078175515 -0.092774034
0.016039968 0.0078802444 -0.095486879
0.032710142 0.0078648664 -0.094819844
0.049406428 0.007825654 -0.093124151
0.066128626 0.007786639 -0.091436386
0.082877234 0.0077473484 -0.08973527
0.099652126 0.007708095 -0.08803165
0.11645287 0.0076688826 -0.086335957
0.13328046 0.0076293945 -0.084626913
-0.050943732 0.024383519 -0.084979713
-0.034134712 0.024425562 -0.087711871
-0.017368019 0.02446733 -0.090426803
-0.00064317882 0.02450902 -0.093134701
0.016039968 0.024550792 -0.095846474
0.032707371 0.024540566 -0.095179856
0.04940071 0.024514608 -0.093495309
0.066120297 0.024488412 -0.091797471
0.082866095 0.024462257 -0.09009701
0.099637769 0.024436262 -0.088404596
0.11643612 0.02440995 -0.08669883
0.13326088 0.024383675 -0.084990323
-0.050930247 0.041132804 -0.085417569
-0.034124617 0.041153766 -0.088148832
-0.017361309 0.041174732 -0.090862632
-0.00063975155 0.041195575 -0.093580067
0.032703951 0.041211348 -0.095624268
0.049394019 0.041198291 -0.093929946
0.066110238 0.041185271 -0.092232823
0.082852669 0.041172177 -0.090533078
0.09962137 0.041159038 -0.08883059
0.11641591 0.041146059 -0.087136149
0.13323726 0.041132923 -0.085428476
-0.067735337 0.057875324 -0.083792806
-0.050896056 0.057875287 -0.086528063
-0.034099285 0.057875324 -0.089245796
0.049377222 0.057875287 -0.09502095
0.066084757 0.057875324 -0.093336105
0.099578761 0.057875324 -0.089937508
0.13317743 0.057875324 -0.086538732
-0.0173443 0.057875365 -0.091967344
-0.00063134916 0.057875365 -0.094671607
0.082818642 0.057875365 -0.091638148
0.1163652 0.057875365 -0.088234127
-0.067692541 0.074621819 -0.08490479
-0.05086223 0.07460086 -0.087626636
-0.034073733 0.074579969 -0.090352297
-0.017327309 0.074559011 -0.093071103
-0.00062287413 0.074538164 -0.095772505
0.066059545 0.074548468 -0.094427884
0.082784966 0.074561603 -0.092731595
0.09953621 0.074574582 -0.091043234
0.11631405 0.074587643 -0.08934164
0.13311824 0.074600741 -0.087637246
0.15012725 0.074636295 -0.083033025
-0.08451017 0.091392025 -0.083364785
-0.067646906 0.091350064 -0.086090446
-0.050825484 0.091308057 -0.088819981
-0.03404649 0.091266364 -0.091532052
-0.017309193 0.091224521 -0.094247878
0.06603241 0.091203675 -0.095603228
0.082748726 0.091229752 -0.093908787
0.099490829 0.091255672 -0.092222154
0.11625952 0.091281824 -0.090522528
0.13305449 0.091308057 -0.088819981
0.15004753 0.091377161 -0.084327519
-0.084424727 0.10810773 -0.085214794
-0.06757547 0.1080446 -0.087946355
-0.0507688 0.10798191 -0.090660632
-0.034003843 0.10791922 -0.093378663
0.08269231 0.10786454 -0.095740676
0.099420615 0.10790372 -0.094046414
0.11617512 0.10794293 -0.092349648
0.13295531 0.10798191 -0.090660632
0.14992516 0.10808228 -0.086314619
-0.10122702 0.12488505 -0.084135115
-0.084339425 0.12479491 -0.087061465
-0.067504562 0.12471098 -0.089788556
-0.0507119 0.1246272 -0.092508852
-0.033961508 0.12454398 -0.095211625
0.099350512 0.12452377 -0.095867753
0.11609037 0.12457564 -0.094184339
0.13285688 0.12462784 -0.092487514
0.14980236 0.12475656 -0.088308752
-0.10111072 0.14155446 -0.08629334
-0.084249355 0.14144976 -0.08901161
-0.067430094 0.14134541 -0.091723084
-0.050652474 0.14124088 -0.094438553
0.13275346 0.1412421 -0.094406724
0.14967388 0.14139651 -0.090394795
0.16682737 0.1416461 -0.083910465
-0.10097056 0.15816998 -0.088894486
-0.084129512 0.15804484 -0.091606319
-0.067330487 0.15791988 -0.094311357
0.14950253 0.15797228 -0.09317714
0.16663344 0.15827101 -0.08670944
-0.11796628 0.17513078 -0.084348917
-0.10083072 0.17474607 -0.091489553
-0.084009945 0.17460021 -0.094194889
0.14933227 0.17450614 -0.095941782
0.16644076 0.17485374 -0.089490473
0.18365072 0.17520285 -0.083011508
-0.11778082 0.19169615 -0.087360024
-0.10068551 0.19127588 -0.09418416
0.16623829 0.19138499 -0.092413187
0.18342356 0.19178227 -0.085962296
-0.13478301 0.20869835 -0.083396912
-0.11755534 0.20817003 -0.091022015
0.16599089 0.20782623 -0.095984101
0.18314706 0.20827168 -0.089554429
0.20040545 0.20871989 -0.08308655
-0.13452838 0.22517353 -0.087072134
-0.11733057 0.2245885 -0.094671488
0.18287145 0.22470684 -0.093134701
0.20010048 0.22520308 -0.086688101
-0.1515469 0.24222095 -0.083321989
-0.13426135 0.24157691 -0.090926349
0.1997803 0.2416157 -0.090469241
0.21707799 0.24216019 -0.084038854
-0.15119994 0.25856325 -0.087829173
-0.13395126 0.25786361 -0.095402002
0.19940922 0.25791454 -0.094851613
0.21667174 0.2585071 -0.088436484
-0.16818513 0.2755959 -0.084744573
-0.15085357 0.27483696 -0.09232831
0.21626616 0.27478698 -0.092827141
0.23359485 0.27543029 -0.086400092
-0.16793203 0.29202151 -0.087733209
-0.15060882 0.29118353 -0.09550792
0.21597843 0.29113692 -0.095941782
0.23329836 0.29184598 -0.089362919
-0.15060963 0.30784974 -0.09549731
0.21597746 0.30779713 -0.095952392
0.23329836 0.30855808 -0.089362919
-0.16793294 0.30874747 -0.08772248
-0.18557969 -0.31176066 -0.077742338
0.26857111 -0.31250376 -0.073355138
0.25091904 -0.31122035 -0.080932677
-0.18569104 -0.29515392 -0.076536894
0.25109145 -0.29470184 -0.079333246
0.2686435 -0.2957696 -0.072728634
-0.18610476 -0.27903253 -0.07205832
-0.1686215 -0.27787274 -0.079591095
0.23410121 -0.27760348 -0.081340134
0.25156239 -0.27858531 -0.074963272
-0.16899967 -0.26173857 -0.075125158
-0.15159881 -0.26063836 -0.082647562
0.23453665 -0.26146597 -0.076989055
0.25203407 -0.26240236 -0.070586681
-0.16932257 -0.24544519 -0.071311951
-0.15188619 -0.2443918 -0.078914344
0.21747892 -0.24428314 -0.079698443
0.23490895 -0.24517402 -0.073268712
-0.1521671 -0.22807667 -0.075265348
0.2004517 -0.2271246 -0.082540452
0.2178088 -0.22796386 -0.07612747
0.23526843 -0.22880805 -0.069676757
-0.1524481 -0.21170557 -0.071614861
-0.13507348 -0.21077082 -0.079204381
0.20075329 -0.21079865 -0.078978658
0.21813975 -0.21159106 -0.072544813
-0.13527545 -0.19431704 -0.076289177
0.18368287 -0.193589 -0.082594097
0.20099382 -0.19433445 -0.076138318
0.21840771 -0.19508433 -0.069644272
-0.13547198 -0.17780998 -0.073452353
-0.11816742 -0.17698757 -0.08108294
0.18389668 -0.17712408 -0.07981658
0.20123041 -0.17782162 -0.07334429
-0.13567053 -0.16126209 -0.070586681
-0.11834334 -0.16049755 -0.078226268
0.18411101 -0.16061704 -0.077032149
0.20146759 -0.16126643 -0.070543289
-0.11846927 -0.14388847 -0.076181412
0.16699356 -0.14339609 -0.081511676
0.18426612 -0.14399606 -0.075017273
-0.11859477 -0.12724742 -0.074143469
0.18441984 -0.12734257 -0.073020279
-0.10135279 -0.12659894 -0.081801116
0.1671311 -0.12679152 -0.079526603
-0.11871986 -0.11057442 -0.072112322
-0.10146031 -0.10998222 -0.079805791
0.16726811 -0.11015598 -0.077548683
0.18457386 -0.11065853 -0.071019709
-0.11879648 -0.093815699 -0.070868134
-0.10152572 -0.093280599 -0.078591824
-0.084572993 -0.093044147 -0.082004666
0.16735166 -0.093436331 -0.076343
0.18466805 -0.093889967 -0.069795907
-0.11887118 -0.077035859 -0.069655001
-0.10159121 -0.076560304 -0.077376485
-0.084623992 -0.076343268 -0.080900609
0.15021171 -0.076296374 -0.081661761
0.16743456 -0.076697618 -0.075146735
-0.10165503 -0.059819691 -0.076192141
-0.084673561 -0.059623726 -0.079827368
-0.067782722 -0.059476398 -0.082561851
0.15028302 -0.059587352 -0.080503523
0.16751602 -0.059939332 -0.073970735
-0.1016771 -0.043025061 -0.075782597
-0.084690921 -0.042855583 -0.079451442
-0.067797147 -0.042729236 -0.082186818
0.15030748 -0.042825282 -0.080106437
0.16754444 -0.043127671 -0.073560476
-0.10169975 -0.026224449 -0.075362325
-0.084708288 -0.02608148 -0.079075515
-0.067811593 -0.025976174 -0.081811965
0.15033261 -0.026057512 -0.079698503
0.16757213 -0.026309147 -0.073160768
-0.10171951 -0.0094157755 -0.074995697
-0.084723175 -0.0093001425 -0.078752995
-0.067823552 -0.0092155039 -0.081500947
0.15035377 -0.0092815384 -0.079354823
0.16759758 -0.0094836205 -0.072793484
-0.10169685 0.0074166954 -0.075416207
-0.084705807 0.0075024366 -0.079129159
-0.067809112 0.0075658783 -0.081876159
0.15032931 0.0075168312 -0.079752207
0.16756913 0.0073656477 -0.073203981
-0.10167477 0.024242558 -0.07582581
-0.084688433 0.024299234 -0.079505146
-0.067794681 0.024341475 -0.082251191
0.15030418 0.024309263 -0.080160081
0.16754146 0.024208341 -0.07360363
-0.10164865 0.041062638 -0.076310575
-0.0846681 0.041090682 -0.079945505
-0.067777775 0.041111805 -0.082690299
0.15027575 0.041095834 -0.0806216
0.16750929 0.04104545 -0.074067831
-0.10158309 0.057875287 -0.077527165
-0.084616557 0.057875324 -0.081061363
0.15020113 0.057875324 -0.081833363
-0.11886384 0.057875365 -0.06977427
0.16742483 0.057875365 -0.075286865
-0.11878848 0.074728914 -0.070998073
-0.10151703 0.074669175 -0.078752995
-0.084565565 0.074642979 -0.082165539
0.1673412 0.074686594 -0.0764938
0.18465889 0.074737214 -0.069915175
-0.11870652 0.091561899 -0.072328627
-0.10144642 0.091442883 -0.080063581
0.16725098 0.091477767 -0.077796102
0.18455803 0.091578931 -0.071225226
-0.11858015 0.10835791 -0.074380875
-0.10133661 0.10817962 -0.082101285
0.16711248 0.10823284 -0.079795003
0.18440323 0.1083843 -0.073236346
-0.11845401 0.12512234 -0.076429129
0.1669735 0.12495691 -0.081801116
0.18424787 0.12515849 -0.07525456
-0.13565104 0.1421482 -0.070868194
-0.11832017 0.14185047 -0.078602672
0.18408369 0.14189719 -0.077387393
0.20144375 0.14214976 -0.070824862
-0.13545029 0.15886885 -0.073765516
-0.11814298 0.15851259 -0.081479609
0.18386692 0.15857147 -0.080202997
0.20120388 0.15887389 -0.073657572
-0.13525011 0.17554541 -0.076655269
0.20096463 0.17555469 -0.076482952
0.21838267 0.17590854 -0.069915175
-0.15241896 0.19264242 -0.071993351
-0.13503851 0.19216727 -0.079709113
0.20071235 0.19218257 -0.079462171
0.21810381 0.1925846 -0.072933853
-0.15213224 0.20923029 -0.075717926
0.21776702 0.20917062 -0.076579809
0.23523264 0.20962414 -0.070034266
-0.16928868 0.22635588 -0.071712136
-0.15184733 0.22576259 -0.079419196
0.21743231 0.2257023 -0.080202997
0.23486787 0.2262045 -0.073679149
-0.16895311 0.24286844 -0.075674832
0.23447956 0.24270888 -0.077559471
0.25198391 0.24325989 -0.071052253
-0.18605982 0.25997505 -0.072544873
-0.16856878 0.25926664 -0.080213726
0.23403578 0.25910223 -0.081994116
0.2515043 0.25970182 -0.075502515
-0.18563934 0.27636129 -0.077096641
0.25102663 0.27607727 -0.079934657
0.26857486 0.27673888 -0.073322713
-0.20295556 0.29371667 -0.072004139
-0.18538114 0.29286656 -0.079891682
0.25072387 0.29255927 -0.082743943
0.26825723 0.29327804 -0.076073647
-0.20295556 0.31056252 -0.072004139
-0.18538114 0.30965173 -0.079891682
0.25072387 0.30932239 -0.082743764
0.26825723 0.31009263 -0.076073647
-0.22118351 -0.31490433 -0.059179544
-0.20329916 -0.3133139 -0.068570793
0.28741151 -0.31526047 -0.057076812
-0.22094674 -0.29760474 -0.061376631
-0.20325792 -0.29637513 -0.068982899
0.28704476 -0.29781848 -0.060054481
-0.22143613 -0.28137624 -0.056835651
-0.20370921 -0.2802003 -0.064473331
0.26924765 -0.27973497 -0.06749624
-0.20416236 -0.26395881 -0.059945226
-0.18652017 -0.26284489 -0.067561388
0.26985472 -0.26362336 -0.062238812
-0.18687989 -0.24650446 -0.063667297
0.25244206 -0.24607021 -0.066801131
0.27039003 -0.24734473 -0.057602823
-0.18722171 -0.23007864 -0.059967101
-0.16963372 -0.22907495 -0.067637384
0.25283146 -0.22965729 -0.063187718
-0.16994499 -0.21264827 -0.063961387
0.23562907 -0.21238819 -0.066072881
0.25322217 -0.21319005 -0.059562504
-0.17020272 -0.19609204 -0.060917795
-0.15267827 -0.19520199 -0.068625033
0.23592545 -0.19583863 -0.063111484
0.25354797 -0.19659749 -0.056539476
-0.17044725 -0.179472 -0.058030069
-0.15289818 -0.17863812 -0.065768242
0.21866733 -0.1785233 -0.066833556
0.23620838 -0.17922913 -0.060284019
-0.15312034 -0.16203308 -0.062882423
0.21892761 -0.16191964 -0.064015925
0.23649205 -0.16257671 -0.05744952
-0.15328586 -0.14531562 -0.060732067
-0.13581622 -0.14459957 -0.068484008
0.20164198 -0.14459957 -0.068484008
0.21912202 -0.1452067 -0.061911523
-0.15344498 -0.12855805 -0.058665276
-0.1359584 -0.12790045 -0.066431582
0.20181207 -0.12789679 -0.066475034
0.2193087 -0.12845433 -0.059890568
-0.15360355 -0.11176816 -0.056605339
-0.13610011 -0.11116922 -0.064386189
0.2019825 -0.11116335 -0.064462423
0.21949574 -0.11167122 -0.057865739
-0.13618919 -0.094353825 -0.063100398
0.20208859 -0.094346285 -0.063209474
0.21961522 -0.094806135 -0.056572437
-0.13627459 -0.077515453 -0.061867714
0.18476154 -0.077101931 -0.068581522
0.20219205 -0.077508017 -0.061987817
-0.13636009 -0.060658015 -0.060633779
-0.11894597 -0.060237363 -0.068440616
0.18485346 -0.060294136 -0.06738764
0.20229468 -0.060650349 -0.060775876
-0.13638885 -0.043743901 -0.060218513
-0.11897138 -0.043383203 -0.068028271
0.18488522 -0.043431833 -0.066974819
0.20232984 -0.043737352 -0.060360551
-0.1364184 -0.026823804 -0.059792101
-0.11899745 -0.026522987 -0.067604899
0.18491617 -0.026562788 -0.066572845
0.20236503 -0.026817866 -0.059945166
-0.13644569 -0.0098960772 -0.059398293
-0.11902085 -0.0096551403 -0.067224741
0.18494463 -0.0096865222 -0.066203296
0.20239744 -0.0098910034 -0.059562385
-0.13641764 0.0070561171 -0.059803009
-0.11899544 0.0072370358 -0.067637384
0.18491368 0.0072132424 -0.066605508
0.20236316 0.0070599727 -0.059967101
-0.13638811 0.024002369 -0.060229361
-0.11897005 0.024122838 -0.068049967
0.18488272 0.024106789 -0.067007542
0.202328 0.024004806 -0.060382485
-0.1363548 0.040942565 -0.060710132
-0.11893997 0.041002817 -0.068538129
0.18484677 0.040994719 -0.067474544
0.20228912 0.040943585 -0.060841441
-0.13626854 0.057875324 -0.061955154
0.18475318 0.057875287 -0.068690002
0.20218559 0.057875365 -0.06206429
-0.13618238 0.074788898 -0.063198626
0.20208122 0.074788228 -0.063296735
0.21961015 0.074839592 -0.056627154
-0.15359764 0.09180291 -0.05668211
-0.13608956 0.091681898 -0.064538598
0.20196959 0.091680713 -0.064614832
0.21948664 0.091783047 -0.057964325
-0.15343741 0.1087186 -0.058763683
-0.13594636 0.10853745 -0.066605508
0.20179735 0.10853642 -0.066648841
0.21929759 0.10868974 -0.06001085
-0.15327662 0.12560198 -0.06085217
-0.13580343 0.12536135 -0.068668485
0.20162635 0.12536135 -0.068668485
0.21910992 0.12556528 -0.062042415
-0.15310521 0.14244792 -0.063078701
0.21890849 0.14240392 -0.064222872
0.23647889 0.14265952 -0.057580888
-0.17043611 0.15958957 -0.058161557
-0.15288143 0.15922818 -0.065985799
0.21864524 0.15917799 -0.06707269
0.23619199 0.15948394 -0.06044805
-0.17018792 0.176384 -0.061092675
-0.1526574 0.17596346 -0.068896174
0.2359058 0.17626455 -0.063307524
0.25353497 0.17662287 -0.056660116
-0.16992193 0.19312032 -0.06423372
0.23559971 0.19298899 -0.066366315
0.25320095 0.19339594 -0.059759259
-0.18720151 0.21030645 -0.06018579
-0.1696043 0.20976612 -0.067984819
0.25280327 0.21008037 -0.063449264
-0.18685371 0.22695343 -0.063950539
0.25240812 0.22670974 -0.067116022
0.27036601 0.22742599 -0.057810962
-0.20413502 0.24417719 -0.060218453
-0.18648206 0.24352054 -0.067973793
0.26981315 0.24397567 -0.062598944
-0.22141367 0.26140696 -0.05704391
-0.20367435 0.2606886 -0.06482172
0.26919249 0.26039732 -0.067973971
-0.22091614 0.27790606 -0.061660349
-0.2032156 0.27713093 -0.069405675
0.28700572 0.27803499 -0.060371578
-0.22065876 0.29457414 -0.064048648
0.28666422 0.29467154 -0.063144147
-0.22065759 0.31147993 -0.064059496
0.28666422 0.31158552 -0.063144028
-0.23927659 -0.29956788 -0.049232841
0.30565903 -0.29988936 -0.047243893
-0.23992202 -0.2834073 -0.043643355
0.28769669 -0.28169554 -0.05476135
-0.22192754 -0.26508057 -0.052275777
0.2883518 -0.26549497 -0.049442649
-0.22243291 -0.24873266 -0.04758656
-0.20456137 -0.24757269 -0.055958092
0.28894314 -0.24914077 -0.044641554
-0.20493317 -0.23108953 -0.052242815
0.27089334 -0.23095843 -0.053244293
-0.20530733 -0.21455213 -0.048504055
-0.18756467 -0.21359748 -0.056254327
0.2713986 -0.21450716 -0.048868477
-0.20562509 -0.19789204 -0.045328677
-0.18785188 -0.19698945 -0.053145289
0.2718291 -0.1979138 -0.045140386
-0.18812053 -0.18031189 -0.050237119
0.25385451 -0.17993915 -0.053695202
-0.18838988 -0.16359028 -0.047321141
-0.17069241 -0.1628084 -0.055134833
0.25416183 -0.16323778 -0.050843596
-0.18859953 -0.14676414 -0.045051813
-0.17087951 -0.14603682 -0.052925169
0.23670721 -0.14581749 -0.05529952
0.25439849 -0.14643203 -0.048647523
-0.17105579 -0.12922047 -0.050843596
0.23691069 -0.12901521 -0.053266346
0.25465116 -0.12960492 -0.046303213
-0.17123239 -0.11237226 -0.04875803
0.23711452 -0.11218201 -0.051229477
0.25491631 -0.11275062 -0.043843091
-0.1713475 -0.095441684 -0.047398686
-0.15370575 -0.094895765 -0.055277526
0.23724695 -0.095267981 -0.049906075
-0.17145337 -0.078483462 -0.046148181
-0.15380132 -0.077997684 -0.0540362
0.21972774 -0.077916533 -0.055354357
0.23736958 -0.078327432 -0.048680723
-0.17155938 -0.061506055 -0.044896364
-0.15389699 -0.061080605 -0.052793086
0.21984039 -0.061008275 -0.054134965
0.23749234 -0.061368264 -0.04745394
-0.17159975 -0.044473611 -0.044419765
-0.15393174 -0.044107668 -0.052341998
0.219881 -0.044045225 -0.053695261
0.23753883 -0.044354878 -0.046989381
-0.17163542 -0.027431652 -0.043998361
-0.15396395 -0.027126648 -0.051923454
0.21991961 -0.027074575 -0.053277254
0.23757981 -0.027332261 -0.046580017
-0.17167114 -0.010383256 -0.043576777
-0.15399618 -0.010139138 -0.05150497
0.21995619 -0.010096736 -0.0528813
0.2376219 -0.010303736 -0.046159327
-0.17163636 0.0066908151 -0.043987215
-0.15396395 0.0068741739 -0.051923513
0.21991758 0.0069059134 -0.053299367
0.23757981 0.0067507178 -0.046579957
-0.17160067 0.023758836 -0.04440856
-0.15393174 0.023880996 -0.052341878
0.21988 0.023901958 -0.053706169
0.23753883 0.023798559 -0.046989381
-0.17156032 0.040820759 -0.044885457
-0.15389445 0.040881917 -0.052826226
0.21983632 0.040892299 -0.054178953
0.23749234 0.040840499 -0.04745394
-0.15379794 0.057875287 -0.054080009
0.21972367 0.057875287 -0.055398285
-0.17145337 0.057875365 -0.0461483
0.23736848 0.057875365 -0.048691809
-0.17134564 0.074910343 -0.04742074
-0.15370153 0.074849464 -0.055332422
0.23724474 0.074891113 -0.049928188
-0.17123051 0.091924563 -0.048780143
0.23711011 0.091886096 -0.051273406
0.2549175 0.092000708 -0.043831825
-0.17105298 0.10890067 -0.050876558
0.23690408 0.10884399 -0.053332329
0.25464994 0.10900611 -0.046314359
-0.18860056 0.1260888 -0.045040548
-0.17087579 0.12584463 -0.052969217
0.23669952 0.12577057 -0.055376291
0.25439614 0.1259771 -0.048669577
-0.18838885 0.14305401 -0.047332227
-0.17068405 0.14274994 -0.055233538
0.25415587 0.14291671 -0.050898612
-0.18811643 0.15995362 -0.050281227
0.25384504 0.15979186 -0.053783178
-0.20562731 0.1772346 -0.045306504
-0.18784475 0.17680806 -0.053222299
0.27183038 0.1772442 -0.045129299
-0.20530401 0.19408698 -0.048537076
-0.18755049 0.19360229 -0.056407809
0.27139351 0.1940638 -0.048912525
-0.20492326 0.21084987 -0.052341998
0.27087811 0.21077818 -0.053376317
-0.22242934 0.22821055 -0.04761976
-0.2045449 0.22755609 -0.056122661
0.28894722 0.22844236 -0.044608235
-0.22191331 0.24483865 -0.05240792
0.2883423 0.24508305 -0.049519897
-0.23992842 0.2626501 -0.043587744
0.287671 0.26159868 -0.054970026
-0.23927021 0.27914417 -0.049288034
0.3056547 0.27934542 -0.047276974
-0.23897609 0.29589033 -0.051835358
0.3053453 0.29612678 -0.049641311
-0.23897609 0.31289139 -0.051835358
0.3053453 0.31314474 -0.049641311
-0.24024016 -0.31800222 -0.040887952
0.3068158 -0.31842276 -0.038404644
-0.25809079 -0.30192134 -0.034674644
0.3244929 -0.30198646 -0.034271836
0.30635983 -0.28367746 -0.041888714
-0.24056941 -0.26716316 -0.038036704
0.30706552 -0.26738852 -0.036496401
-0.24116448 -0.25077 -0.032883286
0.30771586 -0.25095797 -0.031526804
0.28948632 -0.2326614 -0.040231526
-0.22292608 -0.23229772 -0.043010533
-0.22342007 -0.21579328 -0.038426816
0.29003167 -0.21611631 -0.035803914
-0.22384979 -0.19914943 -0.034439683
0.29050872 -0.19943911 -0.031930566
-0.22423869 -0.18240327 -0.030831039
-0.20591819 -0.18115652 -0.042399883
0.27222639 -0.18123196 -0.041699648
-0.20621207 -0.16437669 -0.039463103
0.27262488 -0.16449824 -0.03824842
-0.20644528 -0.14749573 -0.037132859
0.27294073 -0.14764531 -0.035513222
-0.20665546 -0.13055924 -0.035032451
-0.18879217 -0.12988743 -0.042966366
0.2732276 -0.13072896 -0.03302896
0.27351379 -0.11377387 -0.03055042
-0.20686717 -0.11359173 -0.032916963
-0.1889862 -0.11297987 -0.040865779
-0.20701079 -0.096544445 -0.031481922
-0.18911473 -0.095990732 -0.039474368
0.25509098 -0.095800295 -0.042222083
-0.20713885 -0.079465523 -0.030202329
-0.1892321 -0.078972742 -0.038203835
0.25525033 -0.078816324 -0.040743411
-0.18934855 -0.061934657 -0.036943078
0.25540996 -0.061809711 -0.039262712
-0.18939601 -0.044842668 -0.036429465
0.25547355 -0.044739053 -0.03867209
-0.1894342 -0.027738862 -0.036016226
0.25552887 -0.027656421 -0.038159251
-0.18947342 -0.01062911 -0.035591424
0.25558296 -0.010565557 -0.03765732
-0.18943626 0.0065062381 -0.035993814
0.25553006 0.0065560304 -0.038148046
-0.18939807 0.023635615 -0.036407053
0.25547597 0.023670144 -0.038649738
-0.18935372 0.040759206 -0.036887348
0.25541472 0.04077718 -0.039218187
-0.20714784 0.057875287 -0.030112386
-0.18923622 0.057875406 -0.038159311
0.25525397 0.057875365 -0.040710032
-0.20701866 0.075033724 -0.031403363
-0.18911782 0.07497178 -0.03944093
0.2550922 0.074950501 -0.042211056
-0.20687839 0.092170455 -0.032804906
-0.18899031 0.09204708 -0.040821254
0.27353066 0.092207387 -0.030404389
-0.20666555 0.10926892 -0.034931898
-0.18879525 0.10908418 -0.042932928
0.27324182 0.10931572 -0.032905757
-0.20645311 0.12633477 -0.037054837
0.27295235 0.12638535 -0.035412729
-0.206221 0.14336027 -0.039374053
0.27263778 0.14340794 -0.038136959
-0.2242641 0.16086286 -0.030595303
-0.20592377 0.16032016 -0.042344213
0.27223408 0.16035295 -0.04163307
-0.22386909 0.1778298 -0.034260631
0.2905322 0.17796572 -0.031739891
-0.22343691 0.19471925 -0.038270772
0.29005644 0.1948836 -0.035602748
-0.22293206 0.21150024 -0.04295516
0.28950003 0.21169658 -0.040120184
-0.24119294 0.2293639 -0.032636762
0.30775109 0.2294701 -0.03125757
-0.24059004 0.24607068 -0.037858129
0.30709326 0.246204 -0.036284268
0.30637148 0.26281524 -0.041799784
-0.25812525 0.28063455 -0.03439492
0.32452857 0.2806727 -0.034014463
-0.2578719 0.29754817 -0.036451757
0.3242574 0.29759997 -0.035971522
-0.25787053 0.31466648 -0.036463022
0.32425585 0.31472194 -0.035982668
-0.27715442 -0.30430597 -0.019923329
0.34354886 -0.30410817 -0.021146894
-0.25878561 -0.28565666 -0.029033601
0.32524365 -0.28568432 -0.028853774
-0.25948671 -0.26931256 -0.023341477
0.32599807 -0.26930273 -0.023409128
-0.26014665 -0.25283456 -0.017983317
0.32671213 -0.2527968 -0.018255889
-0.2416999 -0.23422992 -0.028246284
0.30829984 -0.2343846 -0.027064323
-0.24223629 -0.21761927 -0.023601294
0.30888617 -0.21774468 -0.022583961
-0.24271724 -0.2008819 -0.019435942
0.30941099 -0.20098147 -0.018573701
0.29093757 -0.18266001 -0.02844882
-0.22462887 -0.16560289 -0.027210712
0.29136777 -0.1658285 -0.024956226
-0.22494605 -0.1486841 -0.024267554
0.29171705 -0.14888248 -0.022120178
-0.22522625 -0.13169095 -0.02166754
0.29202673 -0.13186555 -0.019605935
-0.22550589 -0.11465743 -0.01907289
0.29233709 -0.11481035 -0.017086029
-0.2257041 -0.097531602 -0.017233729
0.273711 -0.096727282 -0.028842509
0.27388382 -0.079641417 -0.027345836
-0.20726705 -0.06236688 -0.028921247
0.27405688 -0.062532559 -0.025847256
-0.20731995 -0.045213871 -0.028392553
0.27413112 -0.045361124 -0.02520436
-0.20736274 -0.028048746 -0.027965069
0.27419102 -0.028175034 -0.024685323
-0.20740443 -0.010876775 -0.027548611
0.2742497 -0.010980569 -0.024177313
-0.20736501 0.006320402 -0.027942479
0.27419627 0.0062441044 -0.024640203
-0.20732333 0.023511685 -0.028358757
0.2741363 0.02346256 -0.025159359
-0.20727606 0.04069718 -0.028831184
0.27407119 0.04067323 -0.025723219
0.27389681 0.057875324 -0.027233362
-0.22572614 0.075144321 -0.017029166
0.27372271 0.075054176 -0.028741181
-0.22553767 0.092386417 -0.018777966
-0.22525309 0.10958092 -0.021418512
0.29206026 0.10962918 -0.019333839
-0.22497039 0.12673542 -0.024041712
0.29174772 0.1268023 -0.021871388
-0.2246592 0.14383936 -0.0269292
0.29140389 0.14392659 -0.024662733
0.29096803 0.16097346 -0.028201342
-0.2427631 0.17865011 -0.019038856
0.30946299 0.1786966 -0.018176436
-0.24228716 0.1956498 -0.023160458
0.3089439 0.19571246 -0.022142828
-0.24173889 0.21254261 -0.027908742
0.30834702 0.2126261 -0.026703835
-0.26021239 0.23053303 -0.017449558
0.32678449 0.23051125 -0.017733574
-0.25955215 0.24734494 -0.022810042
0.32607013 0.24733822 -0.022889256
-0.25883684 0.2640329 -0.028617561
0.32529664 0.26404649 -0.028471291
-0.27723604 0.28214523 -0.019299746
0.34363005 0.28201595 -0.020591855
-0.27703136 0.29922807 -0.020863831
0.34340486 0.29909152 -0.022131562
-0.2964724 -0.30672243 -0.0049753785
0.36282912 -0.30625325 -0.0078777075
-0.27790245 -0.28793925 -0.014207304
0.3443507 -0.28771496 -0.015664577
-0.27865583 -0.27149054 -0.0084504485
0.34515649 -0.27124119 -0.010155439
0.34593433 -0.25465614 -0.004837513
-0.26072404 -0.23618644 -0.013295472
0.32733786 -0.23612821 -0.013740063
-0.26130527 -0.21946993 -0.0085764527
0.32796612 -0.21939242 -0.009205997
-0.26183939 -0.20263654 -0.0042399168
0.3285428 -0.20254377 -0.0050442219
-0.24313825 -0.18402433 -0.015789807
0.30987212 -0.18410401 -0.015050054
-0.24356195 -0.16711304 -0.012120426
0.31033468 -0.16717355 -0.011515319
-0.24391833 -0.15009132 -0.0090343356
0.31072229 -0.15013574 -0.0085535645
-0.24422264 -0.13298398 -0.0063988566
0.31105381 -0.13301596 -0.0060202479
-0.24452636 -0.11583558 -0.0037685037
0.29255703 -0.097665519 -0.015300393
-0.22587444 -0.080361456 -0.015653253
0.29274359 -0.080476552 -0.013785601
-0.22604501 -0.063167118 -0.01407057
0.29293185 -0.063264869 -0.012257397
-0.22612239 -0.045908518 -0.013352513
0.2930176 -0.045991234 -0.011561036
-0.22617893 -0.028631426 -0.012827933
0.29308093 -0.028699934 -0.011046946
-0.22623549 -0.011346258 -0.012302995
0.29314286 -0.011400342 -0.01054424
-0.22618631 0.005969774 -0.012759387
0.29308936 0.0059285574 -0.010978401
-0.22612977 0.023279633 -0.013284087
0.29302463 0.02325226 -0.011503816
-0.22606833 0.040581867 -0.013854027
0.29295573 0.040568098 -0.012063444
-0.22589774 0.057875324 -0.015437007
0.29276747 0.057875287 -0.013591766
0.29257947 0.075159028 -0.015118301
0.29237211 0.09241686 -0.016801953
-0.24427035 0.10993737 -0.0059856772
0.3111079 0.10994606 -0.0056068897
-0.24396324 0.1272096 -0.0086451173
0.31077173 0.127224 -0.0081755519
-0.24362129 0.14442915 -0.011606693
0.31039897 0.14445153 -0.011024177
-0.24319082 0.16156766 -0.015334606
0.30993024 0.16160136 -0.014605939
0.32862398 0.17943576 -0.0044582486
-0.26139557 0.19659306 -0.0078433752
0.32806131 0.19655149 -0.0085191131
-0.26080272 0.21359929 -0.012656689
0.32742319 0.213567 -0.013124406
0.34605029 0.23156491 -0.0040444136
-0.27877277 0.24863647 -0.0075569749
0.34527862 0.24848713 -0.0093204975
-0.27800241 0.26543462 -0.013443649
0.34445059 0.26529261 -0.014981747
-0.29660776 0.28367651 -0.003998518
0.36296144 0.28337431 -0.0070181489
-0.29646128 0.30093181 -0.0050557256
0.36279204 0.30060181 -0.0081183314
-0.29727507 -0.29025254 0.0008174181
0.36368498 -0.28976971 -0.0023186803
-0.29808187 -0.27369779 0.006640017
0.36454329 -0.27320272 0.0032562017
-0.27938446 -0.25492698 -0.002882719
0.36538973 -0.25653946 0.0087541342
-0.28000623 -0.23817092 0.0018686652
0.34660444 -0.2378929 -0.00025582314
-0.2806322 -0.22134548 0.0066515207
0.34727728 -0.22106138 0.0043444633
0.34790695 -0.20412493 0.008649528
-0.26229602 -0.18566869 -0.00053262711
0.32903698 -0.18556672 -0.0014778972
-0.26275271 -0.1686437 0.003175199
0.32953268 -0.16853604 0.0020996928
-0.26314944 -0.15151669 0.0063962936
0.32995772 -0.15140316 0.0051670074
-0.26347995 -0.13429463 0.0090797544
0.33031467 -0.13418144 0.0077431202
0.3113876 -0.11585863 -0.0034694076
-0.24475098 -0.09859921 -0.0018235445
0.31163317 -0.098615184 -0.0015932322
-0.24493465 -0.081311032 -0.00023287535
0.31183383 -0.081321776 -5.9664249e-05
-0.24511993 -0.063999288 0.0013717413
0.31203628 -0.064005502 0.0014873743
-0.24520931 -0.046624415 0.0021460056
0.31213459 -0.046628661 0.002238512
-0.24527207 -0.029228732 0.0026894808
0.31220266 -0.029231369 0.0027588606
-0.24533349 -0.011824206 0.0032215118
0.3122693 -0.011825696 0.003267765
-0.24528408 0.0056105293 0.0027935505
0.31221479 0.0056092329 0.002851367
-0.24522135 0.023040507 0.0022500157
0.31214669 0.023039248 0.0023310184
-0.24515593 0.040462263 0.0016837716
0.31207258 0.040461674 0.0017645955
0.31187007 0.057875246 0.00021725893
-0.24497193 0.057875365 9.0181828e-05
-0.24478555 0.075263694 -0.0015239716
0.31166783 0.075265259 -0.0013281107
-0.24457949 0.092624605 -0.003308475
0.3114433 0.092628688 -0.00304389
0.33039033 0.11026704 0.0082892179
-0.26321805 0.12768981 0.0069533587
0.3300316 0.12765118 0.0057003498
-0.26284394 0.14502658 0.0039159656
0.32962722 0.14498296 0.002781868
-0.26237983 0.16228276 0.00014793873
0.32912481 0.1622369 -0.00084388256
-0.26191586 0.179481 -0.0036190152
0.34802094 0.18018407 0.0094287992
-0.28076741 0.19754939 0.0076849461
0.34741452 0.19740146 0.0052830577
-0.28012881 0.21467054 0.0028049946
0.34673101 0.21451837 0.00060969591
-0.27949291 0.23171823 -0.0020538568
-0.29825565 0.24994487 0.0078940392
0.36471972 0.24964927 0.0044022799
-0.29743034 0.26685557 0.001938045
0.36383745 0.26655382 -0.0013281107
-0.31640446 -0.30956322 0.01259762
0.38360494 -0.30968967 0.013379574
-0.3169086 -0.29259682 0.016044438
0.38433111 -0.29287818 0.017871439
-0.31777173 -0.27593642 0.021945834
-0.29888314 -0.25704783 0.012422681
-0.29955047 -0.24018228 0.017238796
0.3663249 -0.23986688 0.014828205
-0.30022228 -0.22324666 0.022086918
0.36731932 -0.2231482 0.021287262
-0.28122264 -0.2044152 0.011163592
-0.28171596 -0.18733548 0.014933407
0.34843493 -0.1870472 0.012259305
-0.28220791 -0.17019652 0.018692195
0.34896457 -0.16991523 0.015880704
-0.282646 -0.15296181 0.02203989
0.34943071 -0.15268722 0.019067645
0.34981042 -0.13536012 0.021663606
-0.26380983 -0.11703074 0.01175791
0.33067241 -0.11692049 0.010324955
-0.26405987 -0.099680871 0.013788223
0.33094367 -0.099576518 0.01228261
-0.26425707 -0.08227317 0.015389383
0.33115879 -0.082177445 0.013834894
-0.26445746 -0.064842291 0.017016172
0.33137578 -0.064755253 0.015400946
-0.26456136 -0.047350138 0.017859817
0.33148766 -0.047273874 0.016208231
-0.26462924 -0.029833712 0.018410742
0.331559 -0.029768854 0.016723394
-0.26469567 -0.012308598 0.018950343
0.33163205 -0.012256205 0.017250419
-0.26464656 0.0052465685 0.018551528
0.33157685 0.0052858181 0.01685226
-0.2645787 0.022798035 0.018000305
0.33150384 0.022823796 0.016325355
-0.26450941 0.040341046 0.017437875
0.33142763 0.04035379 0.015775383
0.33120894 0.057875287 0.014196992
-0.26431039 0.057875365 0.015822172
-0.26411024 0.075384706 0.014197111
0.33099219 0.075372674 0.012632668
-0.26388595 0.09286613 0.012375951
0.33075148 0.092843279 0.01089555
-0.26355159 0.11029874 0.0096614957
0.34991363 0.11059222 0.022369325
0.34952858 0.12808344 0.019736648
-0.28233534 0.14563282 0.019666135
0.34909299 0.14552088 0.016758442
-0.28183383 0.16300726 0.015833914
0.3485561 0.16288045 0.01308769
-0.28133553 0.18032408 0.012026072
-0.29972261 0.21575654 0.018481135
0.36657164 0.2156145 0.016430795
-0.29904002 0.23291972 0.013554692
0.36555809 0.23263438 0.009847641
-0.31712613 0.26829606 0.017531633
0.38466299 0.26851702 0.019924402
-0.31624585 0.28522885 0.011513054
0.38335788 0.28526264 0.011851132
-0.31616744 0.30265972 0.010977089
0.38324296 0.30267727 0.011140227
0.38560116 -0.27648956 0.025727808
-0.31863937 -0.25918931 0.027877867
0.38688388 -0.25999087 0.033662558
-0.31949416 -0.24233943 0.033721924
-0.30087075 -0.20621699 0.026766956
0.36828488 -0.20630836 0.027558625
-0.30140361 -0.18902524 0.030612469
0.36907467 -0.18924895 0.032688439
-0.30193001 -0.17176969 0.03441149
-0.28300202 -0.13562244 0.024760604
-0.28335893 -0.11824165 0.027487695
0.35019267 -0.11799453 0.02427727
-0.28363916 -0.10077834 0.02962923
0.35052916 -0.10056692 0.02657789
-0.28385162 -0.083250135 0.031252623
0.35085255 -0.083098367 0.028788686
-0.28406593 -0.065697685 0.03289032
0.35117477 -0.065595351 0.030991733
-0.2841841 -0.048086122 0.033793211
0.35135174 -0.048012614 0.032201767
-0.28425723 -0.030447423 0.034352005
0.35146114 -0.030393384 0.032949626
-0.28433037 -0.01280003 0.034910977
0.35157061 -0.012762628 0.033698082
-0.28428057 0.004877612 0.034530282
0.35149589 0.0049085654 0.033187389
-0.28420901 0.022551868 0.033983409
0.35138473 0.022575937 0.032427251
-0.28413436 0.040218022 0.033412993
0.3512719 0.040231589 0.031655848
-0.28391993 0.057875324 0.031774461
0.35094604 0.057875365 0.029427767
-0.28370428 0.075507343 0.030126691
0.35061905 0.075484768 0.027192235
-0.28346258 0.093110964 0.028279901
0.35029787 0.093060382 0.024996459
-0.28310236 0.11066514 0.025527418
-0.28274146 0.12817688 0.02276957
-0.30209982 0.14624751 0.035636961
-0.30156133 0.16374238 0.031750858
0.3693198 0.16385931 0.034280598
-0.30102468 0.18117821 0.027877927
0.36851433 0.18124145 0.029049039
-0.30040821 0.19851895 0.023428917
0.36759287 0.19849655 0.023063838
-0.31885913 0.2341381 0.0293805
-0.31800935 0.25127235 0.023570299
0.38597932 0.25165311 0.028067052
-0.3369545 0.28732181 0.032427371
-0.3369545 0.30497137 0.032427371
-0.33826432 -0.31414419 0.040934682
0.40696314 -0.31527862 0.047952175
-0.33783031 -0.29599497 0.03811568
0.40615582 -0.29677543 0.043185115
-0.33915401 -0.27955899 0.046713531
0.38797054 -0.24321136 0.04038465
-0.32052636 -0.22554889 0.040779114
0.38904029 -0.22631544 0.047001958
-0.32155964 -0.20865068 0.047843993
0.3698625 -0.17210931 0.037805557
-0.30241519 -0.15442811 0.037912965
0.37059113 -0.15485543 0.042538404
-0.30279577 -0.13696866 0.040659666
0.37116182 -0.13744171 0.04624486
-0.30317894 -0.11946854 0.043424964
-0.3035081 -0.1018987 0.045800447
-0.30383793 -0.08429262 0.048180878
-0.3039614 0.057875287 0.049071789
-0.30362797 0.075634688 0.04666537
-0.30331516 0.093359217 0.044408083
-0.30292836 0.11103673 0.041616559
0.37136909 0.11117467 0.047591329
-0.30254084 0.12867102 0.03881979
0.37079224 0.12882578 0.043844402
0.37012711 0.14639708 0.039524376
-0.32089055 0.19974078 0.043269157
-0.31982824 0.21697085 0.036006033
0.38834584 0.21743494 0.042705953
0.38725501 0.2346444 0.035958588
-0.33827719 0.2704657 0.041018367
0.4066475 0.2709341 0.046088636
0.40533161 0.28791136 0.038318574
0.40533161 0.3056064 0.038318634
0.40751612 -0.28021777 0.051217556
-0.34048766 -0.26299956 0.055375814
0.40889218 -0.26354915 0.059342563
0.39011621 -0.20932198 0.053657532
-0.32238877 -0.19149321 0.053512514
0.3909685 -0.19207694 0.058929443
-0.32320416 -0.17423907 0.059087396
0.37173432 -0.11997184 0.049963415
0.37221187 -0.10240202 0.053065062
0.3725583 -0.084732026 0.055315316
-0.30416846 -0.066650108 0.050566018
0.37290725 -0.067028232 0.057582021
-0.30436409 -0.048925944 0.051977992
0.37311846 -0.049248256 0.058953762
-0.30447623 -0.03115698 0.052787244
0.37323633 -0.031423718 0.059719265
-0.30459011 -0.013375826 0.053609133
0.37335429 -0.013587497 0.060485303
-0.30452144 0.0044484399 0.053113461
0.373285 0.0042885207 0.060035408
-0.30440927 0.02226983 0.052304029
0.37316713 0.022162694 0.059269667
-0.30429551 0.04007899 0.051482975
0.37304744 0.040024988 0.058492243
0.37269819 0.057875324 0.056223869
0.37234589 0.07569062 0.053935707
0.37195152 0.093466505 0.051374316
-0.32354566 0.14723992 0.061422408
-0.32270557 0.16484761 0.055678666
0.39131635 0.16509715 0.061081469
-0.32186788 0.18236761 0.049951255
0.39045274 0.18267968 0.055739224
0.3894411 0.20012335 0.049481213
-0.34100676 0.23639861 0.058747351
-0.33964694 0.25350326 0.049915075
0.40805638 0.25388354 0.054407477
-0.36020884 -0.30045682 0.067096651
0.42847097 -0.3007603 0.069067657
-0.34166238 -0.24617174 0.063005984
0.41011009 -0.24663341 0.066534102
-0.34277689 -0.22917813 0.07024473
0.41125643 -0.2295548 0.073302925
0.39181674 -0.17474832 0.064176619
-0.3239896 -0.15688013 0.064457357
0.39263514 -0.1573219 0.069239318
-0.32458508 -0.13932869 0.068528831
0.39324832 -0.13970998 0.073032439
-0.32518265 -0.1217155 0.072614491
-0.32546154 0.093822882 0.074521005
-0.3248558 0.11170094 0.070379674
0.39353275 0.11180285 0.074791968
-0.32425043 0.12951545 0.066240609
0.39291075 0.12966026 0.07094413
0.39218399 0.14743347 0.06644851
-0.34329695 0.20161004 0.073622763
-0.34214914 0.21906047 0.066167295
0.4106243 0.21929616 0.069570243
0.40945476 0.23670036 0.062664568
-0.36085063 0.27324134 0.071066916
0.4291403 0.27340591 0.072848022
-0.35967171 0.29045883 0.063774168
0.42795527 0.2906971 0.066155136
-0.35966974 0.30834845 0.063762009
0.42795742 0.30860764 0.066167295
-0.36164004 -0.28383511 0.075949967
0.42992753 -0.28403178 0.07729429
-0.36307618 -0.26708135 0.084833682
0.43139878 -0.26718813 0.085604012
-0.34389836 -0.21207845 0.077528894
0.41240737 -0.21237516 0.080098927
-0.34483382 -0.1947363 0.083604872
0.41336918 -0.19497046 0.085777938
0.39386353 -0.12204064 0.076837838
-0.3257066 -0.10400459 0.076196492
0.39440465 -0.10428087 0.080185473
-0.32606941 -0.086170733 0.078677237
0.394777 -0.086405411 0.082488716
-0.32642755 -0.068296954 0.081126034
0.3951501 -0.068494707 0.084796488
-0.32665953 -0.05034557 0.082711756
0.39539719 -0.050512448 0.086325109
-0.32677925 -0.032340191 0.083530366
0.39552388 -0.03247793 0.087108791
-0.32690266 -0.014323093 0.084374249
0.39565268 -0.014431804 0.087905467
-0.32684457 0.003735695 0.083976924
0.39559227 0.003653571 0.087531865
-0.32672301 0.021795034 0.083145797
0.39546356 0.021739773 0.086735427
-0.32659972 0.03984163 0.082302868
0.39533487 0.039813668 0.085939705
-0.32623574 0.057875324 0.079814374
0.39496347 0.057875287 0.083642066
-0.32587439 0.075870834 0.077343643
0.39458677 0.075901352 0.081311762
0.39415884 0.093886711 0.078664839
-0.34528133 0.16627172 0.086511552
0.41383281 0.16636422 0.088515818
-0.34437594 0.18402094 0.080630958
0.41290659 0.18415104 0.083046615
0.41180077 0.2017884 0.076517284
-0.36233073 0.2560696 0.080222547
0.43064979 0.25616688 0.081373632
-0.38315889 -0.30503267 0.096817672
0.45129332 -0.3048358 0.095538676
-0.36440593 -0.2501047 0.093059599
0.43275869 -0.2501342 0.093284667
-0.36560464 -0.23290154 0.10047466
0.43398488 -0.23286897 0.10021037
-0.34571269 -0.17726392 0.089313328
0.41428274 -0.17744991 0.091172516
-0.34660554 -0.15971196 0.095112503
0.41518995 -0.15984283 0.096529186
-0.34724903 -0.14193356 0.099292099
0.41585174 -0.14203052 0.10043687
-0.34761527 0.11242364 0.10167092
-0.34696278 0.13047591 0.097432673
0.41555569 0.13051459 0.098688662
-0.34618747 0.1484322 0.092396915
0.41476342 0.14849426 0.094010651
-0.36506215 0.22120488 0.097118914
0.43342867 0.22120133 0.097068608
-0.36382654 0.23876417 0.089475453
0.43217036 0.23880161 0.089961946
-0.38402134 0.27609062 0.10191029
0.45216107 0.27593595 0.10023552
-0.38301656 0.29368144 0.095977485
0.45113361 0.29355109 0.09467417
-0.38301656 0.31182039 0.095977485
0.45113587 0.31168127 0.094686568
-0.38469687 -0.28821558 0.10589904
0.45300195 -0.28805292 0.10478693
-0.3862446 -0.27126652 0.11503798
-0.36681297 -0.2155911 0.1079492
0.4352161 -0.21550038 0.1071642
-0.36787039 -0.19806489 0.11449009
0.43630359 -0.19793731 0.11330634
-0.34789285 -0.12409104 0.10347396
0.41651145 -0.12415713 0.10433227
-0.34849221 -0.10616417 0.10736674
0.417124 -0.10620452 0.10794932
-0.34888831 -0.088095918 0.1099394
0.41752338 -0.088118672 0.1103074
-0.34928134 -0.069987163 0.11249238
0.41792139 -0.069996059 0.11265761
-0.34955755 -0.051803902 0.11428636
0.41820803 -0.051806889 0.11435014
-0.34968501 -0.03355597 0.11511451
-0.34963796 0.021307614 0.11480862
0.41829431 0.021306787 0.11485964
-0.34950659 0.039598018 0.11395532
0.41815627 0.03959731 0.11404461
-0.34911698 0.057875287 0.11142486
0.4177621 0.057875246 0.11171705
-0.34871843 0.076113261 0.10883623
0.41736013 0.076117158 0.10934323
-0.34827015 0.094306365 0.10592431
0.41689676 0.094316907 0.10660738
0.41622508 0.11244598 0.10264152
-0.36748984 0.18571855 0.11213642
0.43589625 0.18565767 0.1110056
-0.36630177 0.20352931 0.10478693
0.43468788 0.20349203 0.10418075
-0.38561764 0.25870413 0.11133593
0.45482522 0.25898525 0.11465579
0.45600033 -0.27209496 0.12101609
-0.38774344 -0.2541391 0.12388819
-0.3688198 -0.18037118 0.12036318
0.43819988 -0.18073677 0.12401658
-0.36978436 -0.16259567 0.12632972
0.41834608 -0.033557862 0.11516541
-0.34981456 -0.015295573 0.11595577
0.4184843 -0.0152964 0.11598128
-0.34976745 0.0030041896 0.11564976
0.41843244 0.0030036382 0.11567527
-0.36943945 0.14965619 0.12419635
-0.36846218 0.16773315 0.11815113
0.43748507 0.1678175 0.11997944
-0.38722667 0.24117826 0.12083691
0.4589802 -0.25587398 0.1371451
-0.38903457 -0.23672435 0.13151199
0.44010878 -0.163378 0.13479799
-0.37052396 -0.14461054 0.13090497
-0.37121612 -0.12653232 0.13518673
-0.37189606 -0.108383 0.13939279
-0.37219483 0.076362699 0.14124078
-0.37169856 0.094802752 0.13817102
-0.37099418 0.11316589 0.13381392
-0.37029028 0.13146198 0.12945968
0.441208 0.13181758 0.14100641
0.43946525 0.14992422 0.1311633
-0.3902525 0.20561799 0.13870388
-0.38859525 0.22340785 0.12891811
0.45803258 0.24203885 0.132016
-0.40771025 0.29738635 0.13299865
-0.40771025 0.3158102 0.13299876
-0.41142291 -0.31383157 0.1539678
-0.41038832 -0.29439154 0.14812452
0.46154657 -0.23912904 0.15103596
-0.3910929 -0.21971521 0.14366573
0.44162807 -0.14566679 0.14337879
0.4430303 -0.12777267 0.1512987
-0.37232119 -0.090071812 0.14202267
-0.37282121 -0.071745038 0.14511544
-0.37354916 -0.053435832 0.1496188
-0.37385261 -0.034956209 0.15149564
-0.37415439 -0.01644744 0.15336245
-0.37407359 0.002144821 0.15286261
-0.37376982 0.020750578 0.15098363
-0.37346441 0.039327543 0.14909416
-0.37262696 0.057875324 0.14391381
0.44264928 0.11352001 0.14914674
0.46082962 0.22467145 0.14715558
-0.40937492 0.27983081 0.14240068
0.48315406 -0.29713142 0.16685706
0.4641355 -0.22218439 0.1650489
-0.39368421 -0.20285821 0.15896684
0.44444183 -0.10976018 0.15927094
0.44530731 -0.091435045 0.16415936
0.445117 0.076530911 0.16308457
0.444098 0.095097765 0.1573289
-0.39313877 0.18806849 0.15574616
0.46354479 0.20704368 0.16185182
-0.41312867 0.26312983 0.16360182
0.48243061 0.28174293 0.16309792
0.48130262 0.29981184 0.15723675
-0.41389826 -0.2785981 0.16794831
0.46663553 -0.20497209 0.17858082
-0.39592138 -0.18555634 0.1721769
0.44616926 -0.073033616 0.16902751
0.4468807 -0.054517925 0.17304569
0.44717684 -0.035850033 0.17471832
0.44748053 -0.01715783 0.1764335
0.4474259 0.0016076081 0.17612511
0.44712231 0.020389959 0.17441028
0.44682622 0.039145485 0.17273825
0.44599235 0.057875365 0.1680283
-0.39546481 0.17010391 0.16948062
0.46627349 0.18919338 0.17662114
0.48644149 -0.28081378 0.1839388
-0.4174664 -0.26254246 0.18810135
0.46873486 -0.18733446 0.18994397
-0.39815798 -0.16805081 0.18538326
-0.39781743 0.15193385 0.18337232
0.46843949 0.17097522 0.18834502
-0.41693494 0.24612527 0.18509966
0.48590979 0.2646181 0.18117613
0.48977548 -0.26426482 0.20126265
-0.42068037 -0.24593014 0.20625383
0.47083366 -0.16952145 0.20130378
-0.40014166 -0.15021551 0.19709629
-0.40180889 -0.13205595 0.20694083
-0.40167159 0.11483593 0.20613009
-0.39995235 0.13351026 0.19597858
0.47062391 0.15258029 0.20016843
-0.4204081 0.2286593 0.20471603
0.48944125 0.24723583 0.19952613
0.49282074 -0.24726436 0.21708637
0.47271734 -0.15143509 0.21149951
0.47426733 -0.13305278 0.21988934
-0.40348721 -0.11374938 0.21685082
-0.40340975 0.096007124 0.21639353
0.47421345 0.11514702 0.21959764
0.47261789 0.13397162 0.21096152
0.49269539 0.22947121 0.21643513
-0.44334269 -0.30580261 0.22614247
-0.4237597 -0.22895053 0.22364563
0.47583053 -0.11454609 0.22835034
-0.40466866 -0.095109686 0.22382694
-0.40568596 -0.076310262 0.22983378
-0.40570492 0.057875324 0.22994584
-0.40466866 0.076998472 0.22382694
0.47582018 0.096190445 0.22829431
-0.42366844 0.21081743 0.22313029
-0.44327819 0.28753439 0.22579342
-0.44327047 0.30666846 0.22575146
-0.42688024 -0.21172827 0.24127072
-0.40666053 -0.057406619 0.23558837
-0.4070206 -0.038274825 0.23771447
-0.40737885 -0.019109905 0.23982996
-0.40738127 0.00013606623 0.23984414
-0.4070206 0.019415233 0.23771447
-0.4066653 0.038661443 0.23561639
-0.42698538 0.19270907 0.24186426
-0.44723949 -0.28958419 0.2472344
-0.44745731 0.27031156 0.2484135
-0.52267033 0.25989163 0.65551585
-0.50127661 -0.21202907 0.66146082
-0.50187463 -0.18982294 0.66483814
-0.52442122 0.23802912 0.66499287
-0.52321357 0.28256437 0.65845627
-0.50439805 -0.2362853 0.67909044
-0.52648199 -0.19078048 0.67614704
-0.5273937 -0.16855526 0.68108195
-0.50399417 -0.16822642 0.67680925
-0.55016845 0.21641366 0.68176574
-0.52734321 0.21636206 0.68080837
-0.54840583 0.23849802 0.67260736
-0.54831988 0.26104483 0.67216057
-0.52789593 -0.21409264 0.68380028
-0.55282545 -0.19242534 0.6955722
-0.55202532 -0.16935076 0.69141442
-0.5300234 -0.14689839 0.69531542
-0.57437015 0.21683182 0.68952709
-0.5742836 0.23951337 0.68909472
-0.57765269 -0.14763366 0.70592767
-0.55311799 -0.14702149 0.69709224
-0.50785828 -0.14712834 0.69863361
-0.55502111 -0.12486416 0.70698112
-0.57766461 0.1720493 0.70598727
-0.60040855 0.19486386 0.70555025
-0.57574987 0.19444224 0.69642085
-0.55325103 0.19450517 0.69778365
-0.53228152 0.19495575 0.70753783
-0.60105747 0.21786346 0.70867211
-0.57867646 -0.17086187 0.71104282
-0.60364175 -0.12573403 0.72110575
-0.57829362 -0.12499651 0.70913011
-0.53344893 -0.12528764 0.71385664
-0.60357499 -0.10276563 0.72078449
-0.5798921 -0.10256793 0.71711653
-0.55781662 -0.10280447 0.72150713
-0.6038295 0.12674966 0.72200936
-0.60263371 0.14953065 0.71625584
-0.58022887 0.14960891 0.71879917
-0.60116088 0.17217177 0.70916992
-0.55631739 0.1723468 0.71371716
-0.60420966 -0.079957947 0.72383815
-0.58150321 -0.080019191 0.72516602
-0.62943512 -0.057388015 0.73429185
-0.60520607 -0.057170287 0.72863215
-0.58331352 -0.057384953 0.73421091
-0.62946999 -0.034340456 0.73445374
-0.60623091 -0.034313083 0.73356301
-0.62964034 -0.011304609 0.73524386
-0.62933904 0.057875287 0.73384637
