ply
format ascii 1.0
comment PCL generated
element vertex 1311
property float x
property float y
property float z
element camera 0
property float view_px
property float view_py
property float view_pz
property float x_axisx
property float x_axisy
property float x_axisz
property float y_axisx
property float y_axisy
property float y_axisz
property float z_axisx
property float z_axisy
property float z_axisz
property float focal
property float scalex
property float scaley
property float centerx
property float centery
property int viewportx
property int viewporty
property float k1
property float k2
end_header
-0.071316592 0.016533758 -0.085252523
-0.051001623 0.016599018 -0.089484811
-0.030775137 0.016617484 -0.090687752
-0.010567167 0.016600069 -0.089561462
0.0096581476 0.016582701 -0.088434219
0.02990083 0.016565334 -0.087306142
0.050161205 0.016547825 -0.086164236
0.070438787 0.016530409 -0.085034132
0.090733819 0.016513087 -0.083903074
-0.071316592 0.036783658 -0.085252523
-0.051001426 0.036816288 -0.089497447
-0.030775137 0.036825474 -0.090687752
-0.010567167 0.03681672 -0.089561582
0.0096581476 0.036808059 -0.088434339
0.02990083 0.036799446 -0.087306261
0.050161205 0.036790647 -0.086164236
0.070438787 0.036781982 -0.085034132
0.090733819 0.03677313 -0.083902955
-0.071316592 0.057033367 -0.085252523
-0.051001426 0.057033416 -0.089497447
-0.030775137 0.057033416 -0.090687752
-0.010567167 0.057033416 -0.089561582
0.02990083 0.057033367 -0.087306142
0.050161205 0.057033367 -0.086164117
0.070438787 0.057033367 -0.085034132
0.090733819 0.057033416 -0.083903074
0.0096581476 0.057033464 -0.088434339
-0.071316592 0.077283219 -0.085252523
-0.051001426 0.077250496 -0.089497447
-0.030775137 0.077241406 -0.090687752
-0.010567167 0.077250063 -0.089561582
0.0096581476 0.077258728 -0.088434339
0.02990083 0.077267431 -0.087306261
0.050161205 0.077276185 -0.086164236
0.070438787 0.077284947 -0.085034132
0.090733819 0.07729356 -0.083902955
-0.071316592 0.097533032 -0.085252523
-0.051001426 0.097467765 -0.089497566
-0.030775137 0.097449392 -0.090687752
-0.010567167 0.097466573 -0.089561462
0.0096581476 0.097484082 -0.088434339
0.02990083 0.097501397 -0.087306142
0.050161205 0.097519055 -0.086164236
0.070438787 0.097536325 -0.085034132
0.090733819 0.09755379 -0.083903074
-0.071316592 0.11778283 -0.085252523
-0.051001426 0.11768485 -0.089497566
-0.030775137 0.11765733 -0.090687752
-0.010567167 0.11768332 -0.089561582
0.0096581476 0.11770925 -0.088434219
0.02990083 0.11773547 -0.087306261
0.050161205 0.11776178 -0.086164236
0.070438787 0.11778791 -0.085034132
0.090733819 0.11781397 -0.083903074
-0.071316592 0.13803264 -0.085252523
-0.051001426 0.13790193 -0.089497566
-0.030775137 0.13786533 -0.090687752
-0.010567167 0.13790002 -0.089561582
0.0096581476 0.13793465 -0.088434339
0.02990083 0.13796939 -0.087306142
0.050161205 0.1380046 -0.086164236
0.070438787 0.13803934 -0.085034132
0.090733819 0.13807413 -0.083902955
-0.071316592 0.1582824 -0.085252523
-0.051001426 0.15811905 -0.089497566
-0.030775137 0.15807328 -0.090687633
-0.010567167 0.15811661 -0.089561582
0.0096581476 0.15815997 -0.088434339
0.02990083 0.1582033 -0.087306023
0.050161205 0.15824732 -0.086164117
0.070438787 0.15829092 -0.085034132
0.090733819 0.1583344 -0.083903074
-0.071316592 0.17853224 -0.085252523
-0.051001426 0.17833614 -0.089497447
-0.030775137 0.17828116 -0.090687633
-0.010567167 0.17833316 -0.089561462
0.0096581476 0.17838527 -0.088434219
0.02990083 0.17843738 -0.087306142
0.050161205 0.1784901 -0.086164236
0.070438787 0.1785423 -0.085034132
0.090733819 0.17859454 -0.083903074
-0.071316592 0.19878201 -0.085252523
-0.051001426 0.19855331 -0.089497447
-0.030775137 0.19848914 -0.090687633
-0.010567167 0.19854987 -0.089561462
0.0096581476 0.19861063 -0.088434339
0.02990083 0.19867134 -0.087306142
0.050161205 0.19873302 -0.086164236
0.070438787 0.19879387 -0.085034132
0.090733819 0.19885483 -0.083903074
-0.071316592 0.21903186 -0.085252523
-0.051001426 0.21877038 -0.089497447
-0.030775137 0.21869709 -0.090687752
-0.010567167 0.21876651 -0.089561462
0.0096581476 0.21883591 -0.088434219
0.02990083 0.21890545 -0.087306142
0.050161205 0.21897574 -0.086164236
0.070438787 0.21904525 -0.085034132
0.090733819 0.21911497 -0.083903074
-0.071316592 0.23928171 -0.085252523
-0.051001426 0.23898758 -0.089497447
-0.030775137 0.23890509 -0.090687633
-0.010567167 0.23898311 -0.089561582
0.0096581476 0.2390613 -0.088434339
0.02990083 0.23913942 -0.087306023
0.050161205 0.23921856 -0.086164236
0.070438787 0.23929684 -0.085034132
0.090733819 0.2393751 -0.083902955
-0.071316592 0.2595315 -0.085252523
-0.051001426 0.25920472 -0.089497328
-0.030775137 0.25911307 -0.090687633
-0.010567167 0.25919974 -0.089561462
0.0096581476 0.25928655 -0.088434458
0.02990083 0.25937349 -0.087306142
0.050161205 0.25946122 -0.086164117
0.070438787 0.25954831 -0.085034013
0.090733819 0.25963539 -0.083903074
-0.071316592 0.27978134 -0.085252523
-0.051001426 0.2794219 -0.089497566
-0.030775137 0.27932099 -0.090687752
-0.010567167 0.27941644 -0.089561462
0.0096581476 0.27951181 -0.088434219
0.02990083 0.27960739 -0.087306142
0.050161205 0.27970409 -0.086164236
0.070438787 0.27979982 -0.085034132
0.090733819 0.27989554 -0.083902955
-0.071316592 0.30003101 -0.085252523
-0.051001426 0.29963905 -0.089497566
-0.030775137 0.29952902 -0.090687752
-0.010567167 0.29963309 -0.089561462
0.0096581476 0.29973722 -0.088434339
0.02990083 0.29984146 -0.087306142
0.050161205 0.29994696 -0.086164236
0.070438787 0.3000513 -0.085034132
0.090733819 0.30015579 -0.083903074
-0.071316592 0.32028091 -0.085252523
-0.051001426 0.31985611 -0.089497566
-0.030775137 0.31973702 -0.090687752
-0.010567167 0.31984967 -0.089561582
0.0096581476 0.31996244 -0.088434219
0.02990083 0.32007539 -0.087306142
0.050161205 0.32018965 -0.086164236
0.070438787 0.32030278 -0.085034132
0.090733819 0.32041591 -0.083903074
-0.071316592 0.34053069 -0.085252523
-0.051001426 0.34007323 -0.089497447
-0.030775137 0.3399449 -0.090687752
-0.010567167 0.34006619 -0.089561582
0.0096581476 0.34018779 -0.088434339
0.02990083 0.34030932 -0.08730638
0.050161205 0.34043258 -0.086164236
0.070438787 0.34055418 -0.085034132
0.090733819 0.34067619 -0.083903074
-0.071316592 0.3607806 -0.085252523
-0.051001426 0.36029047 -0.089497447
-0.030775137 0.3601529 -0.090687752
-0.010567167 0.36028296 -0.089561462
0.0096581476 0.36041319 -0.088434339
0.02990083 0.36054343 -0.087306142
0.050161205 0.36067522 -0.086164236
0.070438787 0.36080581 -0.085034132
0.090733819 0.36093634 -0.083903074
-0.071316592 0.38103026 -0.085252523
-0.051001426 0.38050747 -0.089497447
-0.030775137 0.38036096 -0.090687752
-0.010567167 0.38049954 -0.089561582
0.0096581476 0.38063848 -0.088434339
0.02990083 0.38077742 -0.087305903
0.050161205 0.38091809 -0.086164236
0.070438787 0.38105726 -0.085034132
0.090733819 0.3811965 -0.083902955
-0.071316592 0.40128011 -0.085252523
-0.051001426 0.40072465 -0.089497447
-0.030775137 0.4005689 -0.090687752
-0.010567167 0.40071636 -0.089561582
0.0096581476 0.40086383 -0.088434339
0.02990083 0.40101141 -0.087306142
0.050161205 0.40116084 -0.086164236
0.070438787 0.40130877 -0.085034132
0.090733819 0.40145671 -0.083903074
-0.071316592 0.42153001 -0.085252523
-0.051001426 0.42094165 -0.089497447
-0.030775137 0.42077672 -0.090687752
-0.010567167 0.42093289 -0.089561343
0.0096581476 0.42108911 -0.0884341
0.02990083 0.4212454 -0.087305903
0.050161205 0.42140359 -0.086164236
0.070438787 0.42156011 -0.085034132
0.090733819 0.42171687 -0.083903074
-0.071316592 0.44177979 -0.085252523
-0.051001426 0.44115889 -0.089497447
-0.030775137 0.44098479 -0.090687752
-0.010567167 0.44114941 -0.089561462
0.0096581476 0.44131446 -0.088434219
0.02990083 0.44147938 -0.087306142
0.050161205 0.44164652 -0.086164236
0.070438787 0.4418118 -0.085034132
0.090733819 0.44197714 -0.083903074
-0.071316592 0.4620297 -0.085252523
-0.051001426 0.46137601 -0.089497566
-0.030775137 0.46119279 -0.090687752
-0.010567167 0.46136624 -0.089561343
0.0096581476 0.46153963 -0.088434339
0.02990083 0.46171343 -0.087306023
0.050161205 0.46188915 -0.086164236
0.070438787 0.46206313 -0.085034132
0.090733819 0.4622373 -0.083903074
-0.071316592 0.4822793 -0.085252523
-0.051001426 0.48159319 -0.089497566
-0.030775137 0.48140079 -0.090687752
-0.010567167 0.48158288 -0.089561582
0.0096581476 0.48176491 -0.088434339
0.02990083 0.48194736 -0.087306142
0.050161205 0.48213202 -0.086164236
0.070438787 0.48231471 -0.085034132
0.090733819 0.48249745 -0.083902836
-0.071316592 0.50252908 -0.085252523
-0.051001426 0.50181025 -0.089497566
-0.030775137 0.50160867 -0.090687633
-0.010567167 0.50179946 -0.089561582
0.0096581476 0.50199032 -0.088434339
0.02990083 0.50218147 -0.087306023
0.050161205 0.50237477 -0.086164236
0.070438787 0.50256622 -0.085034013
0.090733819 0.50275767 -0.083903074
-0.051001426 0.52202743 -0.089497447
-0.030775137 0.52181673 -0.090687633
-0.010567167 0.52201605 -0.089561343
0.0096581476 0.5222156 -0.088434339
0.02990083 0.5224154 -0.087306261
-0.071316592 0.52277899 -0.085252523
0.050161205 0.52261758 -0.086164236
0.070438787 0.52281773 -0.085034132
0.090733819 0.52301788 -0.083902955
-0.071316592 0.54302889 -0.085252523
-0.051001426 0.54224461 -0.089497447
-0.030775137 0.54202455 -0.090687752
-0.010567167 0.54223269 -0.089561462
0.0096581476 0.54244095 -0.088434339
0.02990083 0.54264939 -0.087306142
0.050161205 0.54286045 -0.086164236
0.070438787 0.54306912 -0.085034132
0.090733819 0.5432781 -0.083903074
-0.071316592 0.56327868 -0.085252523
-0.051001426 0.56246161 -0.089497447
-0.030775137 0.56223255 -0.090687633
-0.010567167 0.56244928 -0.089561582
0.0096581476 0.5626663 -0.088434339
0.02990083 0.56288326 -0.087306142
0.050161205 0.56310314 -0.086164236
0.070438787 0.5633207 -0.085034251
0.090733819 0.56353825 -0.083902955
-0.071316592 0.58352834 -0.085252523
-0.051001426 0.58267879 -0.089497447
-0.030775137 0.58244061 -0.090687633
-0.010567167 0.5826661 -0.089561582
0.0096581476 0.58289164 -0.088434339
0.02990083 0.58311743 -0.087306142
0.050161205 0.58334607 -0.086164236
0.070438787 0.58357221 -0.085034013
0.090733819 0.58379853 -0.083903074
-0.030775137 0.60264856 -0.090687633
-0.071316592 0.60377824 -0.085252523
-0.051001426 0.60289586 -0.089497447
-0.010567167 0.60288256 -0.089561462
0.0096581476 0.60311693 -0.088434339
0.02990083 0.60335129 -0.087306142
0.050161205 0.60358876 -0.086164236
0.070438787 0.60382372 -0.085034132
0.090733819 0.60405868 -0.083903074
-0.071316592 0.62402815 -0.085252523
-0.051001426 0.62311304 -0.089497328
-0.030775137 0.6228565 -0.090687633
-0.010567167 0.62309939 -0.089561462
0.0096581476 0.62334216 -0.088434219
0.02990083 0.62358546 -0.087306142
0.050161205 0.62383151 -0.086164236
0.070438787 0.624075 -0.085034132
0.090733819 0.62431884 -0.083902836
-0.071316592 0.64427787 -0.085252404
-0.051001426 0.64333016 -0.089497566
-0.030775137 0.6430645 -0.090687633
-0.010567167 0.64331597 -0.089561582
0.0096581476 0.64356762 -0.088434339
0.02990083 0.64381927 -0.087306142
0.050161205 0.64407438 -0.086164236
0.070438787 0.64432657 -0.085034132
0.090733819 0.64457905 -0.083903074
-0.071316592 0.66452765 -0.085252404
-0.051001426 0.66354734 -0.089497447
-0.030775137 0.66327238 -0.090687752
-0.010567167 0.66353256 -0.089561582
0.0096581476 0.66379297 -0.088434339
0.02990083 0.66405344 -0.087306142
0.050161205 0.66431701 -0.086164236
0.070438787 0.66457808 -0.085034132
0.090733819 0.66483927 -0.083902836
-0.071316592 0.68477738 -0.085252523
-0.051001426 0.68376452 -0.089497566
-0.030775137 0.68348038 -0.090687752
-0.010567167 0.6837492 -0.089561343
0.0096581476 0.68401814 -0.088434219
0.02990083 0.68428725 -0.087306142
0.050161205 0.68455994 -0.086164236
0.070438787 0.68482959 -0.085034132
0.090733819 0.68509954 -0.083903074
-0.071316592 0.70502722 -0.085252523
-0.051001426 0.70398164 -0.089497447
-0.030775137 0.70368844 -0.090687752
-0.010567167 0.70396578 -0.089561462
0.0096581476 0.70424366 -0.088434339
0.02990083 0.70452142 -0.087306142
0.050161205 0.70480275 -0.086164236
0.070438787 0.70508105 -0.085034132
0.090733819 0.7053597 -0.083902955
-0.071316592 0.72527707 -0.085252523
-0.051001426 0.72419864 -0.089497447
-0.030775137 0.72389644 -0.090687752
-0.010567167 0.72418237 -0.089561582
0.0096581476 0.72446889 -0.0884341
0.02990083 0.72475547 -0.087306142
0.050161205 0.7250455 -0.086164236
0.070438787 0.72533268 -0.085034132
0.090733819 0.72561991 -0.083902836
-0.071316592 0.74552697 -0.085252523
-0.051001426 0.74441582 -0.089497447
-0.030775137 0.74410439 -0.090687752
-0.010567167 0.74439919 -0.089561582
0.0096581476 0.74469399 -0.088434339
0.02990083 0.74498945 -0.087306142
0.050161205 0.74528843 -0.086164236
0.070438787 0.74558407 -0.085034132
0.090733819 0.74588013 -0.083902955
-0.071316592 0.76577687 -0.085252523
-0.051001426 0.764633 -0.089497447
-0.030775137 0.76431227 -0.090687752
-0.010567167 0.76461565 -0.089561343
0.0096581476 0.76491934 -0.088434219
0.02990083 0.76522338 -0.087306142
0.050161205 0.76553106 -0.086164236
0.070438787 0.76583552 -0.085034132
0.090733819 0.76614034 -0.083902955
-0.071316592 0.78602654 -0.085252523
-0.051001426 0.78485006 -0.089497447
-0.030775137 0.78452027 -0.090687752
-0.010567167 0.78483236 -0.089561582
0.0096581476 0.78514469 -0.088434339
0.02990083 0.78545731 -0.087306023
0.050161205 0.78577393 -0.086164236
0.070438787 0.78608698 -0.085034132
0.090733819 0.78640062 -0.083903074
-0.15323755 -0.77860731 -0.06814754
-0.13265805 -0.77725416 -0.072434783
-0.11214457 -0.77590132 -0.076721311
-0.091697536 -0.77455288 -0.080993772
0.11117364 -0.77486217 -0.080013871
0.13183025 -0.77700877 -0.073212743
-0.15323755 -0.75822592 -0.068147421
-0.13265805 -0.75690579 -0.072434783
-0.11214457 -0.75558591 -0.076721311
-0.091697536 -0.75427026 -0.080993772
0.11117364 -0.75457197 -0.08001399
0.13183025 -0.75666612 -0.073212862
-0.15323755 -0.73784441 -0.06814754
-0.13265805 -0.7365573 -0.072434783
-0.11214457 -0.73527044 -0.076721191
-0.091697536 -0.73398763 -0.080993772
0.11117364 -0.73428184 -0.08001411
0.13183025 -0.73632371 -0.073212743
-0.15323755 -0.71746296 -0.068147421
-0.13265805 -0.71620882 -0.072434783
-0.11214457 -0.71495491 -0.076721072
-0.091697536 -0.71370506 -0.080993772
0.11117364 -0.71399176 -0.08001399
0.13183025 -0.71598119 -0.073212862
-0.15323755 -0.69708145 -0.06814754
-0.13265805 -0.69586033 -0.072434783
-0.11214457 -0.69463938 -0.076721191
-0.091697536 -0.6934225 -0.080993772
0.11117364 -0.69370157 -0.08001399
0.13183025 -0.69563872 -0.073212743
-0.15323755 -0.67669994 -0.06814754
-0.13265805 -0.67551184 -0.072434783
-0.11214457 -0.67432398 -0.076721191
-0.091697536 -0.67313987 -0.080993772
0.11117364 -0.67341137 -0.08001411
0.13183025 -0.67529625 -0.073212862
-0.15323755 -0.65631849 -0.068147421
-0.13265805 -0.65516335 -0.072434783
-0.11214457 -0.65400857 -0.076721191
-0.091697536 -0.65285724 -0.080993772
0.11117364 -0.65312129 -0.08001399
0.13183025 -0.65495378 -0.073212743
-0.15323755 -0.63593698 -0.06814754
-0.13265805 -0.63481492 -0.072434783
-0.11214457 -0.63369292 -0.076721311
0.13183025 -0.63461125 -0.073212862
-0.091697536 -0.6325748 -0.080993772
0.11117364 -0.63283116 -0.08001411
-0.15323755 -0.61555558 -0.068147421
-0.13265805 -0.61446637 -0.072434783
-0.11214457 -0.61337739 -0.076721191
-0.091697536 -0.61229217 -0.080993772
0.11117364 -0.61254102 -0.08001411
0.13183025 -0.61426878 -0.073212743
-0.15323755 -0.59517407 -0.06814754
-0.13265805 -0.59411788 -0.072434783
-0.11214457 -0.59306198 -0.076721191
-0.091697536 -0.5920096 -0.080993772
0.11117364 -0.59225088 -0.08001399
0.13183025 -0.59392625 -0.073212862
-0.15323755 -0.57479256 -0.06814754
-0.13265805 -0.57376951 -0.072434783
-0.11214457 -0.57274657 -0.076721072
-0.091697536 -0.57172698 -0.080993772
0.11117364 -0.57196075 -0.08001411
0.13183025 -0.57358378 -0.073212743
-0.15323755 -0.55441105 -0.068147421
-0.13265805 -0.5534209 -0.072434783
0.13183025 -0.55324119 -0.073212862
-0.11214457 -0.55243099 -0.076721191
-0.091697536 -0.55144441 -0.080993772
0.11117364 -0.55167055 -0.08001399
-0.15323755 -0.53402954 -0.06814754
-0.13265805 -0.53307247 -0.072434783
-0.11214457 -0.53211558 -0.076721191
-0.091697536 -0.53116179 -0.080993772
0.11117364 -0.53138047 -0.08001399
0.13183025 -0.53289884 -0.073212743
-0.15323755 -0.51364809 -0.068147421
-0.13265805 -0.51272392 -0.072434902
-0.11214457 -0.51180005 -0.076721191
-0.091697536 -0.51087922 -0.080993772
0.11117364 -0.51109034 -0.08001399
0.13183025 -0.51255625 -0.073212862
-0.15323755 -0.49326658 -0.06814754
-0.13265805 -0.49237549 -0.072434902
-0.11214457 -0.49148458 -0.076721311
-0.091697536 -0.49059659 -0.080993772
0.11117364 -0.49080014 -0.08001411
0.13183025 -0.49221385 -0.073212862
-0.15323755 -0.47288513 -0.06814754
-0.13265805 -0.472027 -0.072434902
-0.11214457 -0.47116911 -0.076721311
-0.091697536 -0.47031403 -0.080993772
0.11117364 -0.47051013 -0.080013871
0.13183025 -0.47187132 -0.073212862
-0.15323755 -0.45250368 -0.06814754
-0.13265805 -0.45167845 -0.072434902
-0.11214457 -0.45085365 -0.076721191
-0.091697536 -0.4500314 -0.080993772
0.11117364 -0.45021999 -0.08001399
0.13183025 -0.45152885 -0.073212862
-0.15323755 -0.43212217 -0.06814754
-0.13265805 -0.43133014 -0.072434783
-0.11214457 -0.43053818 -0.076721311
-0.091697536 -0.42974883 -0.080993772
0.11117364 -0.42992985 -0.08001411
0.13183025 -0.43118626 -0.073212862
-0.15323755 -0.41174072 -0.068147421
-0.13265805 -0.41098171 -0.072434783
-0.11214457 -0.41022265 -0.076721191
-0.091697536 -0.40946615 -0.080993772
0.11117364 -0.40963978 -0.08001399
0.13183025 -0.41084391 -0.073212862
-0.15323755 -0.39135921 -0.06814754
-0.13265805 -0.39063317 -0.072434783
-0.11214457 -0.38990724 -0.076721191
-0.091697536 -0.38918358 -0.080993772
0.11117364 -0.38934946 -0.08001399
0.13183025 -0.39050132 -0.073212862
-0.15323755 -0.3709777 -0.06814754
-0.13265805 -0.37028468 -0.072434783
-0.11214457 -0.36959171 -0.076721191
-0.091697536 -0.36890095 -0.080993772
0.11117364 -0.36905932 -0.08001411
0.13183025 -0.37015891 -0.073212862
-0.15323755 -0.35059625 -0.068147421
-0.13265805 -0.34993613 -0.072434783
-0.11214457 -0.34927624 -0.076721311
-0.091697536 -0.34861833 -0.080993772
0.11117364 -0.34876931 -0.080013871
0.13183025 -0.34981644 -0.073212743
-0.15323755 -0.3302148 -0.06814754
-0.13265805 -0.3295877 -0.072434783
-0.11214457 -0.32896078 -0.076721191
-0.091697536 -0.32833576 -0.080993772
0.11117364 -0.32847911 -0.08001399
0.13183025 -0.32947397 -0.073212862
-0.15323825 -0.30983502 -0.068134546
-0.13265805 -0.30923927 -0.072434783
-0.11214457 -0.30864531 -0.076721191
-0.091697536 -0.30805331 -0.080993772
0.11117364 -0.30818892 -0.08001411
0.13183025 -0.30913144 -0.073212743
-0.15323825 -0.28945357 -0.068134427
-0.13265805 -0.28889072 -0.072434783
-0.11214457 -0.28832978 -0.076721311
-0.091697536 -0.28777069 -0.080993772
0.11117364 -0.28789896 -0.08001399
0.13183025 -0.28878897 -0.073212862
-0.15323825 -0.26907194 -0.068134427
-0.13265805 -0.26854223 -0.072434783
-0.11214457 -0.26801425 -0.076721191
-0.091697536 -0.26748806 -0.080993772
0.11117364 -0.26760876 -0.08001411
0.13183025 -0.26844645 -0.073212743
-0.15323825 -0.24869035 -0.068134427
-0.13265805 -0.24819385 -0.072434902
0.13183025 -0.24810396 -0.073212862
-0.11214457 -0.24769889 -0.076721191
-0.091697536 -0.24720551 -0.080993772
0.11117364 -0.24731858 -0.08001411
-0.15323825 -0.22830878 -0.068134427
-0.13265805 -0.2278453 -0.072434902
-0.11214457 -0.22738336 -0.076721072
-0.091697931 -0.22692432 -0.080980897
0.11117364 -0.22702853 -0.08001399
0.13183025 -0.22776149 -0.073212743
-0.15323825 -0.20792721 -0.068134427
-0.13265805 -0.20749678 -0.072434783
-0.11214457 -0.20706786 -0.076721311
-0.091697931 -0.20664163 -0.080980897
0.11117364 -0.20673837 -0.08001411
0.13183025 -0.20741899 -0.073212862
-0.15323825 -0.18754558 -0.068134427
-0.13265805 -0.18714826 -0.072434783
-0.11214457 -0.18675239 -0.076721191
-0.091697931 -0.18635885 -0.080981016
0.11117364 -0.18644829 -0.08001399
0.13183025 -0.18707649 -0.073212743
-0.15323825 -0.16716398 -0.068134427
-0.13265805 -0.16679987 -0.072434902
-0.11214457 -0.1664369 -0.076721072
-0.091697536 -0.16607514 -0.080993772
0.11117364 -0.16615804 -0.08001399
0.13183025 -0.16673398 -0.073212862
-0.15323825 -0.14678243 -0.068134427
-0.13265805 -0.14645138 -0.072434902
-0.11214457 -0.14612138 -0.076721311
-0.091697536 -0.14579254 -0.080993772
0.11117364 -0.14586787 -0.08001399
0.13183025 -0.14639153 -0.073212743
-0.15323825 -0.12640093 -0.068134427
-0.13265805 -0.12610295 -0.072434783
-0.11214457 -0.12580588 -0.076721191
-0.091697536 -0.12550992 -0.080993772
0.11117364 -0.12557787 -0.080013871
0.13183025 -0.12604903 -0.073212862
-0.15323825 -0.10601932 -0.068134427
-0.13265805 -0.10575444 -0.072434783
-0.11214457 -0.10549048 -0.076721191
-0.091697536 -0.10522731 -0.080993772
0.11117364 -0.10528769 -0.080013871
0.13183025 -0.10570653 -0.073212743
-0.15323825 -0.085637718 -0.068134427
-0.13265805 -0.08540605 -0.072434783
-0.11214457 -0.085175052 -0.076721191
-0.091697536 -0.084944755 -0.080993772
0.11117364 -0.084997535 -0.08001399
0.13183025 -0.085363969 -0.073212862
-0.15323825 -0.065256141 -0.068134427
-0.13265805 -0.065057516 -0.072434783
-0.11214457 -0.064859442 -0.076721191
-0.091697536 -0.064662151 -0.080993772
0.11117364 -0.064707465 -0.080013871
0.13183025 -0.06502156 -0.073212743
-0.15323825 -0.044874549 -0.068134427
-0.13265805 -0.044709034 -0.072434783
-0.11214457 -0.044544041 -0.076721191
-0.091697536 -0.044379547 -0.080993772
0.11117364 -0.044417277 -0.08001399
0.13183025 -0.044678964 -0.073212862
-0.15323825 -0.024492957 -0.068134427
-0.13265805 -0.024360478 -0.072434783
-0.11214457 -0.024228521 -0.076721191
-0.091697536 -0.024096951 -0.080993772
0.11117364 -0.024127141 -0.08001399
0.13183025 -0.024336599 -0.073212743
-0.15323825 -0.0041113384 -0.068134427
-0.13265805 -0.0040120631 -0.072434783
-0.11214457 -0.0039130226 -0.076721191
-0.091697536 -0.0038143694 -0.080993772
0.11117364 -0.0038370453 -0.080013871
0.13183025 -0.0039940253 -0.073212862
-0.15323825 0.016270276 -0.068134427
-0.13265805 0.0163364 -0.072434783
-0.11214457 0.016402472 -0.076721191
-0.091697536 0.016468212 -0.080993891
0.11117364 0.016453139 -0.08001399
0.13183025 0.016348407 -0.073212743
-0.15323825 0.036651798 -0.068134308
-0.13265805 0.036684956 -0.072434783
-0.11214457 0.036717921 -0.076721191
-0.091697536 0.036750741 -0.080993772
0.11117364 0.036743276 -0.08001411
0.13183025 0.036690984 -0.073212862
-0.15323825 0.057033416 -0.068134427
-0.13265805 0.057033416 -0.072434783
-0.11214457 0.057033416 -0.076721311
-0.091697536 0.057033367 -0.080993772
0.11117364 0.057033319 -0.080013871
0.13183025 0.057033367 -0.073212862
-0.15323825 0.077414989 -0.068134427
-0.13265805 0.077381827 -0.072434783
-0.11214457 0.07734891 -0.076721191
-0.091697536 0.077315897 -0.080993772
0.11117364 0.077323556 -0.08001399
0.13183025 0.077375993 -0.073212862
-0.15323825 0.097796559 -0.068134427
-0.13265805 0.097730383 -0.072434783
-0.11214457 0.097664312 -0.076721191
-0.091697536 0.097598523 -0.080993772
0.11117364 0.097613692 -0.08001411
0.13183025 0.097718328 -0.073212862
-0.15323825 0.11817817 -0.068134427
-0.13265805 0.11807884 -0.072434783
-0.11214457 0.11797981 -0.076721072
-0.091697536 0.1178812 -0.080993772
0.11117364 0.11790378 -0.080013871
0.13183025 0.11806095 -0.073212862
-0.15323825 0.13855979 -0.068134427
-0.13265805 0.13842741 -0.072434783
-0.11214457 0.13829535 -0.076721311
-0.091697536 0.13816383 -0.080993772
0.11117364 0.13819396 -0.08001399
0.13183025 0.13840334 -0.073212862
-0.15323825 0.15894136 -0.068134427
-0.13265805 0.15877581 -0.072434902
-0.11214457 0.15861085 -0.076721191
-0.091697536 0.15844636 -0.080993772
0.11117364 0.1584841 -0.08001399
0.13183025 0.15874591 -0.073212862
-0.15323825 0.17932293 -0.068134427
-0.13265805 0.17912428 -0.072434902
-0.11214457 0.17892626 -0.076721072
-0.091697536 0.178729 -0.080993772
0.11117364 0.17877421 -0.080013871
0.13183025 0.17908829 -0.073212743
-0.15323825 0.19970445 -0.068134427
-0.13265805 0.19947274 -0.072434783
-0.11214457 0.19924179 -0.076721311
-0.091697536 0.19901156 -0.080993772
0.11117364 0.19906434 -0.08001399
0.13183025 0.19943093 -0.073212862
-0.15323825 0.22008607 -0.068134427
-0.13265805 0.21982121 -0.072434783
-0.11214457 0.2195573 -0.076721191
-0.091697536 0.21929419 -0.080993772
0.11117364 0.21935448 -0.08001411
0.13183025 0.21977326 -0.073212743
-0.15323825 0.24046759 -0.068134427
-0.13265805 0.2401697 -0.072434783
-0.11214457 0.23987269 -0.076721191
-0.091697536 0.23957673 -0.080993772
0.11117364 0.23964451 -0.080013871
0.13183025 0.24011587 -0.073212862
-0.15323825 0.26084921 -0.068134427
-0.13265805 0.26051816 -0.072434783
-0.11214457 0.26018819 -0.076721072
-0.091697536 0.25985935 -0.080993772
0.11117364 0.25993472 -0.08001399
0.13183025 0.26045829 -0.073212743
-0.15323825 0.28123081 -0.068134427
-0.13265805 0.28086662 -0.072434783
-0.11214457 0.28050369 -0.076721191
-0.091697536 0.28014198 -0.080993772
0.11117364 0.28022489 -0.08001411
0.13183025 0.28080076 -0.073212743
-0.15323825 0.30161244 -0.068134427
-0.13265805 0.30121517 -0.072434783
-0.11214457 0.30081916 -0.076721191
-0.091697536 0.30042452 -0.080993772
0.11117364 0.30051503 -0.080013871
0.13183025 0.30114323 -0.073212862
-0.15323825 0.32199401 -0.068134427
-0.13265805 0.32156366 -0.072434783
-0.11214457 0.32113463 -0.076721191
-0.091697536 0.32070708 -0.080993891
0.11117364 0.32080519 -0.08001399
0.13183025 0.32148564 -0.073212743
-0.15323825 0.3423757 -0.068134427
-0.13265805 0.34191209 -0.072434783
-0.11214457 0.34145021 -0.076721191
-0.091697536 0.34098971 -0.080993772
0.11117364 0.34109533 -0.08001399
0.13183025 0.34182829 -0.073212862
-0.11214457 0.36176562 -0.076721191
-0.091697536 0.36127216 -0.080993772
0.11117364 0.36138541 -0.080013871
-0.15323825 0.36275709 -0.068134308
-0.13265805 0.36226064 -0.072434783
0.13183025 0.3621707 -0.073212743
-0.15323825 0.38313872 -0.068134308
-0.13265805 0.38260907 -0.072434783
-0.11214457 0.38208109 -0.076721191
-0.091697536 0.38155484 -0.080993772
0.11117364 0.38167554 -0.080013871
0.13183025 0.38251328 -0.073212743
-0.15323825 0.40352023 -0.068134427
-0.13265805 0.4029575 -0.072434783
-0.11214457 0.40239662 -0.076721072
-0.091697536 0.40183753 -0.080993652
0.11117364 0.40196574 -0.08001411
0.13183025 0.40285563 -0.073212743
-0.15323825 0.42390198 -0.068134427
-0.13265805 0.42330611 -0.072434783
-0.11214457 0.42271221 -0.076721191
-0.091697536 0.42212003 -0.080993772
0.11117364 0.42225575 -0.080013871
0.13183025 0.42319822 -0.073212862
-0.15323825 0.44428343 -0.068134427
-0.13265805 0.44365454 -0.072434783
-0.11214457 0.4430275 -0.076721191
-0.091697536 0.44240272 -0.080993772
0.11117364 0.44254595 -0.08001399
0.13183025 0.44354069 -0.073212743
-0.15323825 0.46466511 -0.068134427
-0.13265805 0.46400297 -0.072434902
-0.11214457 0.46334302 -0.076721191
-0.091697536 0.46268523 -0.080993772
0.11117364 0.46283609 -0.08001411
0.13183025 0.46388328 -0.073212743
-0.15323825 0.48504663 -0.068134427
-0.13265805 0.48435152 -0.072434783
-0.11214457 0.48365867 -0.076721191
-0.091697536 0.48296785 -0.080993772
0.11117364 0.48312616 -0.080013871
0.13183025 0.48422557 -0.073212743
-0.15323825 0.50542831 -0.068134427
-0.13265805 0.50470001 -0.072434902
-0.11214457 0.50397396 -0.076721191
-0.091697536 0.50325042 -0.080993772
0.11117364 0.50341636 -0.08001411
0.13183025 0.50456816 -0.073212862
-0.15323825 0.52580982 -0.068134427
-0.13265805 0.52504843 -0.072434664
-0.11214457 0.52428943 -0.076721191
-0.091697536 0.52353305 -0.080993772
0.11117364 0.5237065 -0.08001411
0.13183025 0.52491063 -0.073212743
-0.15323825 0.54619139 -0.068134308
-0.13265805 0.54539686 -0.072434783
-0.11214457 0.54460508 -0.076721191
-0.091697536 0.54381567 -0.080993772
0.11117364 0.54399651 -0.08001399
0.13183025 0.54525316 -0.073212862
-0.15323825 0.56657296 -0.068134427
-0.13265805 0.56574529 -0.072434783
-0.11214457 0.56492037 -0.076721191
-0.091697536 0.5640983 -0.080993772
0.11117364 0.56428683 -0.08001411
0.13183025 0.56559551 -0.073212743
-0.13265805 0.58609396 -0.072434783
-0.11214457 0.58523589 -0.076721191
-0.091697536 0.58438075 -0.080993772
0.11117364 0.5845769 -0.08001411
0.13183025 0.58593816 -0.073212862
-0.15323825 0.58695459 -0.068134427
-0.15323825 0.60733604 -0.068134427
-0.13265805 0.60644233 -0.072434783
-0.11214457 0.60555142 -0.076721072
-0.091697536 0.60466343 -0.080993772
0.11117364 0.60486692 -0.08001399
0.13183025 0.60628068 -0.073212743
-0.15323825 0.62771779 -0.068134427
-0.13265805 0.6267907 -0.072434783
-0.11214457 0.62586701 -0.076721191
-0.091697536 0.624946 -0.080993772
0.11117364 0.62515718 -0.08001411
0.13183025 0.62662315 -0.073212862
-0.15323825 0.6480993 -0.068134427
-0.13265805 0.64713931 -0.072434783
-0.11214457 0.64618236 -0.076721191
-0.091697536 0.64522868 -0.080993772
0.11117364 0.64544731 -0.08001411
0.13183025 0.64696544 -0.073212862
-0.11214457 0.66649777 -0.076721191
-0.091697536 0.66551113 -0.080993772
0.11117364 0.66573751 -0.080013871
-0.15323825 0.66848099 -0.068134427
-0.13265805 0.6674878 -0.072434783
0.13183025 0.66730809 -0.073212862
-0.15323825 0.6888625 -0.068134546
-0.13265805 0.68783635 -0.072434783
-0.11214457 0.68681341 -0.076721191
-0.091697536 0.68579394 -0.080993772
0.11117364 0.68602765 -0.080013871
0.13183025 0.68765062 -0.073212743
-0.15323825 0.70924401 -0.068134308
-0.13265805 0.70818478 -0.072434783
-0.11214457 0.70712876 -0.076721191
-0.091697536 0.70607632 -0.080993772
0.11117364 0.70631772 -0.080013871
0.13183025 0.70799315 -0.073212862
-0.15323825 0.7296257 -0.068134308
-0.13265805 0.72853315 -0.072434783
-0.11214457 0.72744423 -0.076721191
-0.091697536 0.72635895 -0.080993652
0.11117364 0.72660792 -0.080013871
0.13183025 0.7283355 -0.073212862
-0.091697536 0.74664152 -0.080993772
0.11117364 0.74689811 -0.08001399
-0.15323825 0.75000721 -0.068134427
-0.13265805 0.74888176 -0.072434783
-0.11214457 0.74775976 -0.076721072
0.13183025 0.74867803 -0.073212862
-0.15323825 0.7703889 -0.068134308
-0.13265805 0.76923019 -0.072434783
-0.11214457 0.76807529 -0.076721191
-0.091697536 0.7669242 -0.080993652
0.11117364 0.76718807 -0.080013871
0.13183025 0.76902056 -0.073212743
-0.19484647 -0.78246123 -0.05593729
-0.17388473 -0.7799691 -0.063833117
0.15259294 -0.77916211 -0.066389561
0.17346404 -0.781331 -0.05951786
0.19444269 -0.78350711 -0.05262351
-0.19484647 -0.76198566 -0.055937171
0.19444269 -0.76300597 -0.05262351
-0.17388473 -0.75955439 -0.063832998
0.15259294 -0.75876725 -0.066389441
0.17346404 -0.76088315 -0.05951786
-0.19484647 -0.74151015 -0.05593729
-0.17388473 -0.73913968 -0.063833117
0.15259294 -0.73837221 -0.066389441
0.17346404 -0.74043518 -0.059517741
0.19444269 -0.74250507 -0.05262351
-0.19484647 -0.72103477 -0.055937171
-0.17388473 -0.71872497 -0.063833237
0.15259294 -0.71797711 -0.066389441
0.17346404 -0.71998733 -0.05951786
0.19444269 -0.72200412 -0.052623391
-0.19484647 -0.70055926 -0.055937171
-0.17388473 -0.69831026 -0.063833117
0.15259294 -0.69758213 -0.066389561
0.17346404 -0.69953942 -0.059517741
0.19444269 -0.7015031 -0.05262351
-0.19484647 -0.68008381 -0.055937171
-0.17388473 -0.67789567 -0.063832998
0.15259294 -0.6771872 -0.066389441
0.17346404 -0.67909151 -0.059517741
0.19444269 -0.68100214 -0.05262351
-0.19484647 -0.65960824 -0.05593729
-0.17388473 -0.65748096 -0.063832998
0.15259294 -0.65679216 -0.066389441
0.17346404 -0.6586436 -0.059517741
0.19444269 -0.66050112 -0.05262351
-0.19484647 -0.6391328 -0.055937409
-0.17388473 -0.63706625 -0.063833117
0.15259294 -0.63639712 -0.066389561
0.17346404 -0.63819569 -0.059517741
0.19444269 -0.6400001 -0.05262351
-0.19484647 -0.61865741 -0.055937171
0.17346404 -0.61774772 -0.059517622
0.19444269 -0.61949915 -0.05262351
-0.17388473 -0.61665148 -0.063832998
0.15259294 -0.61600202 -0.066389441
-0.19484647 -0.59818184 -0.055937171
-0.17388473 -0.59623677 -0.063833117
0.15259294 -0.59560704 -0.066389561
0.17346404 -0.59729987 -0.059517741
0.19444269 -0.59899813 -0.05262351
-0.19484647 -0.5777064 -0.055937171
-0.17388473 -0.57582206 -0.063833117
0.15259294 -0.57521212 -0.066389441
0.17346404 -0.57685184 -0.05951786
0.19444269 -0.57849711 -0.05262351
-0.19484647 -0.55723095 -0.055937171
-0.17388473 -0.55540746 -0.063832998
0.15259294 -0.55481708 -0.066389441
0.17346404 -0.55640393 -0.05951786
0.19444269 -0.55799615 -0.05262363
0.19444269 -0.5374952 -0.05262351
-0.19484647 -0.53675538 -0.05593729
-0.17388473 -0.53499281 -0.063833117
0.15259294 -0.53442204 -0.066389561
0.17346404 -0.53595608 -0.05951786
-0.19484647 -0.51627994 -0.055937409
-0.17388473 -0.51457804 -0.063832998
0.15259294 -0.51402694 -0.066389561
0.17346404 -0.51550817 -0.05951786
0.19444269 -0.51699424 -0.05262351
-0.19484647 -0.49580449 -0.055937171
-0.17388473 -0.49416333 -0.063833117
0.15259294 -0.49363208 -0.066389441
0.17346404 -0.49506027 -0.059517741
0.19444269 -0.49649322 -0.05262351
-0.19484647 -0.47532904 -0.055937171
-0.17388473 -0.47374868 -0.063833237
0.15259294 -0.47323698 -0.066389441
0.17346404 -0.47461241 -0.05951786
0.19444269 -0.47599226 -0.05262351
-0.19484647 -0.45485348 -0.05593729
-0.17388473 -0.45333391 -0.063833117
0.15259294 -0.452842 -0.066389561
0.17346404 -0.45416451 -0.059517741
0.19444269 -0.45549124 -0.05262351
-0.19484647 -0.43437809 -0.05593729
-0.17388473 -0.43291932 -0.063832998
0.15259294 -0.4324469 -0.066389441
0.17346404 -0.43371654 -0.059517741
0.19444269 -0.43499029 -0.05262351
-0.19484647 -0.41390258 -0.05593729
-0.17388473 -0.41250455 -0.063832998
0.15259294 -0.41205198 -0.066389561
0.17346404 -0.41326863 -0.059517622
0.19444269 -0.41448927 -0.05262351
-0.19484647 -0.39342719 -0.055937052
0.17346404 -0.39282078 -0.059517741
0.19444269 -0.39398831 -0.05262351
-0.17388473 -0.3920899 -0.063833117
0.15259294 -0.39165694 -0.066389441
-0.19484647 -0.37295157 -0.055937171
-0.17388473 -0.37167525 -0.063833117
0.15259294 -0.37126195 -0.066389441
0.17346404 -0.37237287 -0.059517622
0.19444269 -0.37348723 -0.05262351
-0.19484647 -0.35247618 -0.05593729
-0.17388473 -0.35126048 -0.063833117
0.15259294 -0.35086691 -0.066389561
0.17346404 -0.35192484 -0.05951786
0.19444269 -0.3529864 -0.05262351
-0.19484647 -0.33200067 -0.05593729
-0.17388473 -0.33084577 -0.063833237
0.15259294 -0.33047187 -0.066389561
0.17346404 -0.33147699 -0.05951786
0.19444269 -0.33248538 -0.05262351
-0.19484647 -0.31152511 -0.055937171
-0.17388473 -0.31043112 -0.063832998
0.15259294 -0.31007695 -0.066389441
0.17346404 -0.31102902 -0.05951786
0.19444269 -0.31198442 -0.05262351
-0.19484647 -0.29104972 -0.055937171
-0.17388473 -0.29001647 -0.063832998
0.15259294 -0.28968191 -0.066389441
0.17346404 -0.29058111 -0.059517741
0.19444269 -0.2914834 -0.05262351
-0.19484647 -0.27057427 -0.055937171
-0.17388473 -0.26960176 -0.063832998
0.15259294 -0.26928687 -0.066389561
0.17346404 -0.2701332 -0.05951786
0.19444269 -0.27098238 -0.05262351
-0.19484647 -0.25009876 -0.055937171
-0.17388473 -0.24918704 -0.063833117
0.15259294 -0.24889182 -0.066389441
0.17346404 -0.24968536 -0.059517741
0.19444269 -0.25048137 -0.05262351
-0.19484647 -0.22962324 -0.055937171
-0.17388473 -0.2287723 -0.063833237
0.15259294 -0.22849678 -0.066389561
0.17346404 -0.22923742 -0.059517741
0.19444269 -0.22998039 -0.05262351
-0.19484647 -0.20914774 -0.05593729
-0.17388473 -0.20835756 -0.063833117
0.15259294 -0.20810182 -0.066389441
0.17346404 -0.20878951 -0.059517622
0.19444269 -0.20947938 -0.05262351
-0.19484647 -0.18867242 -0.055937171
-0.17388473 -0.18794298 -0.063832998
0.15259294 -0.1877068 -0.066389441
0.17346404 -0.18834162 -0.059517741
0.19444269 -0.18897851 -0.05262351
-0.19484647 -0.1681969 -0.055937171
0.17346404 -0.16789371 -0.059517622
0.19444269 -0.16847749 -0.05262351
-0.17388473 -0.1675283 -0.063832998
0.15259294 -0.16731179 -0.066389561
-0.19484647 -0.14772137 -0.055937171
-0.17388473 -0.14711355 -0.063833117
0.15259294 -0.14691672 -0.066389561
0.17346404 -0.14744566 -0.05951786
0.19444269 -0.1479765 -0.052623391
-0.19484647 -0.12724584 -0.055937171
-0.17388473 -0.12669888 -0.063832998
0.15259294 -0.1265218 -0.066389441
0.17346404 -0.12699775 -0.05951786
0.19444269 -0.12747549 -0.052623391
-0.19484647 -0.10677044 -0.05593729
-0.17388473 -0.10628413 -0.063833117
0.15259294 -0.10612676 -0.066389441
0.17346404 -0.1065499 -0.05951786
0.19444269 -0.1069745 -0.05262351
-0.19484647 -0.086294875 -0.05593729
-0.17388473 -0.085869446 -0.063833237
0.15259294 -0.08573173 -0.066389561
0.17346404 -0.086101994 -0.05951786
0.19444269 -0.08647348 -0.05262351
-0.19484647 -0.065819487 -0.055937171
-0.17388473 -0.065454863 -0.063832998
0.15259294 -0.065336667 -0.066389561
0.17346404 -0.065654039 -0.059517741
0.19444269 -0.065972522 -0.05262351
-0.19484647 -0.045343973 -0.055937171
-0.17388473 -0.045040116 -0.063832998
0.15259294 -0.044941626 -0.06638968
0.17346404 -0.045206212 -0.05951786
0.19444269 -0.045471504 -0.05262351
-0.19484647 -0.024868488 -0.055937171
-0.17388473 -0.024625391 -0.063832998
0.15259294 -0.024546683 -0.066389441
0.17346404 -0.024758257 -0.059517741
0.19444269 -0.024970539 -0.05262351
-0.19484647 -0.0043930002 -0.055937171
-0.17388473 -0.0042106174 -0.063832998
0.15259294 -0.0041516721 -0.066389441
0.17346404 -0.0043103732 -0.059517741
0.19444269 -0.0044695996 -0.052623391
-0.19484739 0.01608225 -0.055924177
-0.17388473 0.016204059 -0.063833117
0.15259294 0.016243391 -0.066389441
0.17346404 0.016137511 -0.059517741
0.19444269 0.016031392 -0.05262351
-0.19484739 0.036557835 -0.055924177
-0.17388473 0.036618691 -0.063833117
0.15259294 0.036638401 -0.066389561
0.17346404 0.036585439 -0.059517741
0.19444269 0.03653238 -0.05262351
-0.19484739 0.057033416 -0.055924058
0.15259294 0.057033319 -0.066389441
0.17346404 0.057033367 -0.059517622
0.19444269 0.057033367 -0.05262351
-0.17388473 0.057033464 -0.063833237
-0.19484739 0.077509001 -0.055924058
-0.17388473 0.077448048 -0.063832998
0.15259294 0.077428386 -0.066389441
0.17346404 0.077481396 -0.05951786
0.19444269 0.077534407 -0.05262351
-0.19484739 0.097984582 -0.055923939
-0.17388473 0.097862825 -0.063832998
0.15259294 0.097823396 -0.066389441
0.17346404 0.097929277 -0.05951786
0.19444269 0.09803535 -0.05262351
-0.19484739 0.11846012 -0.055924058
-0.17388473 0.11827745 -0.063832998
0.15259294 0.1182185 -0.066389441
0.17346404 0.11837716 -0.059517741
0.19444269 0.11853638 -0.05262351
-0.19484739 0.13893571 -0.055924058
-0.17388473 0.13869213 -0.063833117
0.15259294 0.13861352 -0.06638968
0.17346404 0.13882509 -0.059517741
0.19444269 0.13903737 -0.05262351
-0.19484739 0.15941128 -0.055923939
-0.17388473 0.15910691 -0.063833117
0.15259294 0.15900849 -0.066389441
0.17346404 0.15927292 -0.059517741
0.19444269 0.15953836 -0.05262351
-0.19484739 0.17988677 -0.055923939
-0.17388473 0.17952162 -0.063833237
0.15259294 0.1794035 -0.066389441
0.17346404 0.17972091 -0.05951786
0.19444269 0.18003926 -0.05262351
-0.19484739 0.20036241 -0.055923939
-0.17388473 0.1999363 -0.063832998
0.15259294 0.19979855 -0.066389441
0.17346404 0.20016877 -0.059517741
0.19444269 0.20054029 -0.05262351
-0.19484739 0.22083803 -0.055924177
-0.17388473 0.22035094 -0.063832998
0.15259294 0.22019358 -0.066389561
0.17346404 0.22061676 -0.059517741
0.19444269 0.22104122 -0.05262351
-0.19484739 0.24131364 -0.055924177
-0.17388473 0.24076562 -0.063832998
0.15259294 0.24058855 -0.066389441
0.17346404 0.24106458 -0.059517741
0.19444269 0.24154226 -0.05262351
-0.19484739 0.26178926 -0.055924058
-0.17388473 0.2611804 -0.063833117
0.15259294 0.26098356 -0.066389441
0.17346404 0.26151252 -0.059517622
0.19444269 0.26204327 -0.05262351
-0.17388473 0.28159505 -0.063833117
0.15259294 0.28137851 -0.066389441
-0.19484739 0.28226474 -0.055924058
0.17346404 0.28196046 -0.059517622
0.19444269 0.28254426 -0.05262351
-0.19484739 0.30274034 -0.055924058
-0.17388473 0.30200979 -0.063833117
0.15259294 0.30177361 -0.066389441
0.17346404 0.3024084 -0.05951786
0.19444269 0.30304524 -0.05262351
-0.19484739 0.32321584 -0.055924177
-0.17388473 0.32242435 -0.063832998
0.15259294 0.32216871 -0.066389561
0.17346404 0.32285643 -0.059517741
0.19444269 0.32354617 -0.05262351
-0.19484739 0.34369153 -0.055923939
-0.17388555 0.34284043 -0.063820004
0.15259294 0.34256363 -0.066389441
0.17346404 0.34330422 -0.05951786
0.19444269 0.34404731 -0.05262351
-0.19484739 0.36416703 -0.055923939
-0.17388555 0.36325526 -0.063820004
0.15259294 0.36295861 -0.066389441
0.17346404 0.36375207 -0.05951786
0.19444269 0.36454815 -0.052623391
-0.19484739 0.3846426 -0.055924058
-0.17388555 0.38367015 -0.063820004
0.15259294 0.38335359 -0.066389441
0.17346404 0.3842001 -0.059517622
0.19444269 0.3850491 -0.05262351
-0.19484739 0.40511823 -0.055923939
-0.17388555 0.40408492 -0.063820004
0.15259294 0.40374875 -0.066389441
0.17346404 0.40464795 -0.059517741
0.19444269 0.40555024 -0.052623391
-0.19484739 0.42559379 -0.055923939
-0.17388555 0.42449975 -0.063820004
0.15259294 0.42414367 -0.066389441
0.17346404 0.4250958 -0.059517741
0.19444269 0.4260512 -0.05262351
-0.19484739 0.44606942 -0.055924177
-0.17388555 0.44491458 -0.063820124
0.15259294 0.44453865 -0.066389441
0.17346404 0.44554377 -0.059517622
0.19444269 0.44655216 -0.05262351
-0.19484739 0.4665451 -0.055923939
-0.17388555 0.46532929 -0.063820004
0.15259294 0.46493369 -0.066389441
0.17346404 0.46599168 -0.059517622
0.19444269 0.46705306 -0.05262351
-0.19484739 0.48702055 -0.055924058
-0.17388555 0.48574412 -0.063820004
0.15259294 0.48532867 -0.066389561
0.17346404 0.48643953 -0.059517622
0.19444269 0.48755425 -0.05262351
-0.17388555 0.50615889 -0.063820004
0.15259294 0.50572383 -0.066389561
-0.19484739 0.50749612 -0.055924177
0.17346404 0.50688756 -0.059517622
0.19444269 0.50805515 -0.05262351
-0.19484739 0.5279718 -0.055923939
-0.17388555 0.52657372 -0.063820004
0.15259294 0.52611876 -0.066389441
0.17346404 0.52733546 -0.05951786
0.19444269 0.52855611 -0.05262351
-0.19484739 0.54844731 -0.055923939
-0.17388555 0.54698849 -0.063820004
0.15259294 0.54651374 -0.066389441
0.17346404 0.54778332 -0.05951786
0.19444269 0.54905695 -0.05262351
-0.19484739 0.56892282 -0.055924058
-0.17388555 0.56740332 -0.063820004
0.15259294 0.56690878 -0.066389441
0.17346404 0.56823128 -0.059517741
0.19444269 0.56955814 -0.052623391
-0.19484739 0.58939838 -0.055924058
-0.17388555 0.58781809 -0.063820004
0.15259294 0.58730394 -0.066389441
0.17346404 0.58867919 -0.05951786
0.19444269 0.5900591 -0.052623391
-0.19484739 0.60987401 -0.055923939
-0.17388555 0.60823286 -0.063820124
0.15259294 0.60769886 -0.066389441
0.17346404 0.60912722 -0.059517622
0.19444269 0.61056 -0.05262351
-0.19484739 0.63034964 -0.055923939
-0.17388555 0.62864763 -0.063820004
0.15259294 0.62809384 -0.066389441
0.17346404 0.62957501 -0.059517741
0.19444269 0.63106096 -0.05262351
-0.19484739 0.65082508 -0.055923939
-0.17388555 0.6490624 -0.063820124
0.15259294 0.64848882 -0.066389441
0.17346404 0.65002292 -0.059517741
0.19444269 0.65156209 -0.05262351
-0.19484739 0.67130089 -0.055924058
-0.17388555 0.66947734 -0.063820004
0.15259294 0.66888398 -0.066389441
0.17346404 0.67047089 -0.059517622
0.19444269 0.67206305 -0.05262351
-0.19484739 0.69177645 -0.055924177
-0.17388555 0.68989205 -0.063820004
0.15259294 0.6892789 -0.066389441
0.17346404 0.69091874 -0.059517622
0.19444269 0.69256407 -0.05262351
-0.19484739 0.7122519 -0.055924177
-0.17388555 0.71030682 -0.063820004
0.15259294 0.70967394 -0.066389441
0.17346404 0.71136653 -0.059517622
0.19444269 0.71306497 -0.05262351
-0.17388555 0.73072165 -0.063820004
0.15259294 0.73006886 -0.066389441
-0.19484739 0.73272759 -0.055924058
0.17346404 0.73181474 -0.059517741
0.19444269 0.73356599 -0.052623391
-0.19484739 0.75320309 -0.055924058
-0.17388555 0.75113642 -0.063820004
0.15259294 0.75046384 -0.066389441
0.17346404 0.75226259 -0.05951786
0.19444269 0.754067 -0.052623391
-0.19484739 0.7736786 -0.055924058
-0.17388555 0.77155119 -0.063820004
0.15259294 0.77085906 -0.066389441
0.17346404 0.77271032 -0.05951786
0.19444269 0.7745679 -0.05262351
-0.21614924 -0.78585321 -0.045190215
0.21553165 -0.78569853 -0.045680046
0.23672961 -0.78789729 -0.038713694
-0.21614924 -0.76529497 -0.045190215
0.21553165 -0.76514399 -0.045680046
0.23672961 -0.76728922 -0.038713694
0.23672961 -0.74668115 -0.038713694
-0.21614924 -0.74473667 -0.045190215
0.21553165 -0.74458969 -0.045680046
-0.21614924 -0.72417843 -0.045190334
0.21553165 -0.7240352 -0.045680046
0.23672961 -0.72607303 -0.038713694
-0.21614924 -0.70362025 -0.045190334
0.21553165 -0.70348072 -0.045680046
0.23672961 -0.70546496 -0.038713694
-0.21614924 -0.68306196 -0.045190334
0.21553165 -0.6829263 -0.045680046
0.23672961 -0.68485695 -0.038713694
-0.21614924 -0.66250384 -0.045190334
0.21553165 -0.66237193 -0.045680046
0.23672961 -0.66424888 -0.038713694
-0.21614924 -0.64194566 -0.045190334
0.21553165 -0.64181751 -0.045680046
0.23672961 -0.64364082 -0.038713574
-0.21614924 -0.62138742 -0.045190334
0.21553165 -0.62126297 -0.045680046
0.23672961 -0.62303275 -0.038713574
0.23672961 -0.60242474 -0.038713574
-0.21614924 -0.60082924 -0.045190215
0.21553165 -0.6007086 -0.045680046
-0.21614924 -0.58027101 -0.045190215
0.21553165 -0.58015412 -0.045680046
0.23672961 -0.58181661 -0.038713574
-0.21614924 -0.55971283 -0.045190215
0.21553165 -0.55959964 -0.045680046
0.23672961 -0.56120855 -0.038713574
-0.21614924 -0.53915465 -0.045190215
0.21553165 -0.53904521 -0.045680165
0.23672961 -0.54060036 -0.038713694
-0.21614924 -0.51859641 -0.045190215
0.21553165 -0.51849085 -0.045680046
0.23672961 -0.51999235 -0.038713694
-0.21614924 -0.49803817 -0.045190215
0.21553165 -0.49793637 -0.045680046
0.23672961 -0.49938434 -0.038713694
-0.21614924 -0.47747999 -0.045190215
0.21553165 -0.477382 -0.045680046
0.23672961 -0.47877622 -0.038713694
-0.21614924 -0.4569217 -0.045190334
0.21553165 -0.45682746 -0.045680046
0.23672961 -0.45816815 -0.038713694
-0.21614924 -0.43636358 -0.045190334
0.21553165 -0.4362731 -0.045680046
0.23672961 -0.43756008 -0.038713694
-0.21614924 -0.41580534 -0.045190334
0.21553165 -0.41571867 -0.045680046
0.23672961 -0.41695207 -0.038713694
-0.21614924 -0.39524716 -0.045190334
0.21553165 -0.39516419 -0.045680165
0.23672961 -0.39634407 -0.038713694
-0.21614924 -0.37468892 -0.045190215
0.21553165 -0.37460977 -0.045680046
0.23672961 -0.37573588 -0.038713694
-0.21614924 -0.35413069 -0.045190215
0.21553165 -0.35405535 -0.045680046
0.23672961 -0.35512787 -0.038713694
-0.21614924 -0.33357257 -0.045190215
0.21553165 -0.33350086 -0.045680046
0.23672961 -0.3345198 -0.038713694
-0.21615027 -0.31301618 -0.045176983
0.21553165 -0.31294638 -0.045680046
0.23672961 -0.3139118 -0.038713694
-0.21615027 -0.29245782 -0.045177102
0.21553165 -0.29239208 -0.045680046
0.23672961 -0.29330373 -0.038713694
-0.21615027 -0.27189952 -0.045177102
0.21553165 -0.27183759 -0.045680046
0.23672961 -0.2726956 -0.038713574
-0.21615027 -0.25134128 -0.045177102
0.21553165 -0.25128311 -0.045680046
0.23672961 -0.25208759 -0.038713694
-0.21615027 -0.23078291 -0.045177102
0.21553165 -0.23072876 -0.045680046
0.23672961 -0.23147951 -0.038713694
-0.21615027 -0.21022461 -0.045177102
0.21553165 -0.21017431 -0.045680046
0.23672961 -0.21087144 -0.038713694
-0.21615027 -0.18966635 -0.045177102
0.21553165 -0.18961978 -0.045680046
0.23672961 -0.19026342 -0.038713694
-0.21615027 -0.169108 -0.045177102
0.21553165 -0.1690654 -0.045680046
0.23672961 -0.16965531 -0.038713694
-0.21615027 -0.14854972 -0.045177102
0.21553165 -0.14851099 -0.045680046
0.23672961 -0.14904732 -0.038713694
-0.21615027 -0.12799144 -0.045176983
0.21553165 -0.12795649 -0.045680046
0.23672961 -0.12843919 -0.038713574
-0.21615027 -0.10743304 -0.045177102
0.21553165 -0.1074021 -0.045680046
0.23672961 -0.10783114 -0.038713574
-0.21615027 -0.086874753 -0.045176983
0.21553165 -0.086847708 -0.045680046
0.23672961 -0.087223113 -0.038713574
-0.21615027 -0.066316381 -0.045177102
0.21553165 -0.066293247 -0.045680046
0.23672961 -0.066615045 -0.038713574
-0.21615027 -0.045758121 -0.045177102
0.21553165 -0.045738786 -0.045680046
0.23672961 -0.046007007 -0.038713574
-0.21615027 -0.02519986 -0.045177102
0.21553165 -0.025184311 -0.045680046
