ply
format ascii 1.0
comment PCL generated
element vertex 1372
property float x
property float y
property float z
element camera 0
property float view_px
property float view_py
property float view_pz
property float x_axisx
property float x_axisy
property float x_axisz
property float y_axisx
property float y_axisy
property float y_axisz
property float z_axisx
property float z_axisy
property float z_axisz
property float focal
property float scalex
property float scaley
property float centerx
property float centery
property int viewportx
property int viewporty
property float k1
property float k2
end_header
0.19543108 -0.026557699 0.041228376
0.21359634 -0.0319122 0.039376244
-0.19809712 -0.023961764 0.041160375
-0.20992269 -0.0091519868 0.0434791
0.2140795 -0.0091519868 0.036319613
-0.21955498 0.018674936 0.041155532
-0.20992999 0.015293171 0.043483824
0.21550307 0.018393856 0.038771205
-0.21303815 0.039085891 0.040403783
-0.19881956 0.033282436 0.043431133
0.19513315 0.024571802 0.040227592
0.21090268 0.040289514 0.038527824
-0.20805933 0.063341305 0.037219666
-0.19233358 0.064054474 0.044930309
0.18756358 0.061502397 0.039594002
0.20567642 0.065157034 0.042160317
-0.17760304 0.09127143 0.039145522
0.1796916 0.089034922 0.045189396
0.19558896 0.090304434 0.04917179
-0.19962272 0.09715081 0.043203972
0.17345242 0.097597837 0.04395283
-0.17115562 0.11575589 0.03664358
-0.16330734 0.11518756 0.038849235
0.16151877 0.11426722 0.038873665
0.17143391 0.11270095 0.043520391
-0.16133331 0.13169304 0.040659972
-0.14735369 0.13594107 0.038635239
0.14557037 0.13504551 0.03865917
0.16275594 0.14113715 0.041532673
0.17969109 0.12589628 0.041302338
-0.15195999 0.14181039 0.049768262
-0.1292562 0.1549895 0.038944826
0.12800728 0.15289021 0.038521871
0.1531278 0.15616101 0.039546199
-0.12350581 0.17068832 0.040063001
-0.11045752 0.16856176 0.038442329
0.10868204 0.16770947 0.038465358
0.12632158 0.16348821 0.044288643
-0.12352368 0.1795187 0.037338883
-0.090355106 0.18205976 0.038421243
-0.06765949 0.19147661 0.038511775
0.065869771 0.19063072 0.038534813
0.091111451 0.1836268 0.041745655
0.12079705 0.17616929 0.041100569
-0.077581823 0.19522834 0.039787076
-0.045810286 0.2036325 0.038110591
-0.022158695 0.20590959 0.045466296
-0.010578263 0.20713907 0.039138876
0.0087293796 0.20803122 0.039113991
0.0200988 0.20525648 0.037507407
0.042004675 0.2020853 0.039104223
0.050376453 0.20733373 0.052092791
0.076293387 0.19630125 0.040164687
-0.025046168 0.21041311 0.042376965
-0.00062436989 0.21042696 0.044314727
0.024825688 0.21038714 0.046290159
-0.039664287 -0.21116011 0.063155435
-0.01283964 -0.21468738 0.063497394
0.010800993 -0.21349303 0.063541211
0.019085746 -0.21093607 0.06411235
-0.088961057 -0.19814655 0.062698215
-0.061380975 -0.20453562 0.063882142
-0.023176664 -0.20867309 0.059613191
-0.00062424497 -0.20785438 0.05506026
0.03764043 -0.20996846 0.063199155
0.059114967 -0.20495901 0.063866057
0.087009795 -0.19702905 0.062738791
-0.1101744 -0.18545534 0.062138252
-0.10084368 -0.181081 0.066197708
-0.078261025 -0.18883945 0.068134129
0.092709303 -0.18663846 0.063709326
0.10603694 -0.18805045 0.065098353
-0.15103106 -0.16040534 0.062682129
-0.12815627 -0.16844042 0.065540731
0.1297884 -0.17412628 0.062646203
0.13486345 -0.16100013 0.060603984
-0.14585312 -0.15779848 0.061640538
0.12201264 -0.15945531 0.06906601
0.14912412 -0.15930262 0.06272155
-0.16872086 -0.14272062 0.062858902
0.16007443 -0.13637953 0.061957605
-0.18472123 -0.12192746 0.063144498
0.18277162 -0.12071122 0.063187562
-0.19548379 -0.099471137 0.057465203
-0.17266212 -0.10951368 0.065975726
0.17819373 -0.10182863 0.057360411
0.19716893 -0.096774504 0.063581429
-0.19223633 -0.082804821 0.058812596
-0.21119058 -0.069511272 0.064088918
-0.18391953 -0.072752446 0.06215167
0.20901324 -0.070287541 0.063359722
-0.20985264 -0.057217199 0.066890121
0.19412142 -0.057480577 0.057784505
-0.21945734 -0.033465844 0.064899288
0.19913872 -0.033270657 0.060938992
0.21462965 -0.032721091 0.066414632
-0.20000081 -0.020474967 0.066147693
0.19685745 -0.023945175 0.066269152
0.20886749 -0.0091519868 0.064317793
-0.22142348 0.015189237 0.066141993
0.20886749 0.015293187 0.064317793
0.2183332 0.018624771 0.066261508
-0.19833565 0.028085981 0.064902686
0.19756036 0.032578457 0.06296096
0.21214648 0.040510643 0.067859873
-0.2098967 0.062944628 0.066917747
-0.19026819 0.064074248 0.064090669
0.19117454 0.062981583 0.060972564
-0.19228154 0.089050114 0.05881042
0.17634533 0.091255844 0.063583732
-0.17841706 0.092683919 0.06353312
-0.18765157 0.11202039 0.052931741
-0.17272429 0.11629722 0.065932557
-0.16401748 0.1163982 0.063145049
0.16204953 0.11517218 0.063188866
0.18299411 0.11575805 0.057926103
-0.17262475 0.13825092 0.064121358
-0.14807788 0.13715419 0.062859453
0.14644681 0.13718298 0.06366051
0.15347399 0.13735102 0.06106995
-0.13043469 0.1548306 0.062682129
0.12851001 0.15371782 0.062721997
-0.14591663 0.16223902 0.055337116
-0.1247766 0.16874336 0.068354622
-0.11112245 0.16963768 0.062606834
0.10919947 0.16854677 0.062646203
0.12200494 0.16211478 0.056343339
0.13503803 0.16799277 0.060484566
-0.12196942 0.17627732 0.066186063
-0.10613348 0.18260646 0.058668323
-0.091046609 0.18315957 0.06257765
0.066401191 0.19146173 0.062738791
0.089106292 0.18205968 0.062617622
0.12287051 0.17826374 0.060821369
-0.098092891 0.19314122 0.061403707
-0.074911192 0.19515434 0.065428011
-0.051806111 0.20185116 0.062511615
-0.043893024 0.20309922 0.063491099
-0.018986829 0.20567732 0.063154392
-0.0099682007 0.20804602 0.063540764
0.016943783 0.20447648 0.063198559
0.041801944 0.20326304 0.06348478
0.07451392 0.19775221 0.062961437
0.088666409 0.19575146 0.061195955
0.0079101678 0.20924956 0.063496143
-0.0006244448 -0.2095558 0.082653753
0.025141561 -0.20953727 0.082689233
-0.098100632 -0.19059266 0.073997967
0.072479688 -0.19066387 0.074121483
0.094579965 -0.18215674 0.082779564
-0.14844261 -0.15530068 0.085823379
-0.13035873 -0.15442218 0.076256745
0.12981777 -0.1562397 0.075268105
0.15506251 -0.15436406 0.076363169
-0.17137209 -0.13303715 0.073707424
-0.15370804 -0.13549128 0.079150073
0.14679974 -0.13570885 0.07713262
0.16382946 -0.13495909 0.071246944
-0.15712702 -0.12369938 0.078175873
0.18197624 -0.12357032 0.078408107
-0.19036213 -0.10553059 0.083096288
0.17364691 -0.10609043 0.073537551
0.19120917 -0.082804859 0.079726882
-0.1969478 -0.059124079 0.079480231
0.20694502 -0.058912486 0.071534835
-0.2083858 -0.033615168 0.072878696
-0.21160568 -0.0091519868 0.072806224
-0.21160568 0.015281425 0.072806224
-0.20839308 0.039774247 0.072883293
-0.19699377 0.065804861 0.079447858
0.2069754 0.065487899 0.071513355
-0.1839118 0.076793723 0.075792678
0.19125442 0.089050174 0.079724334
0.20887609 0.076560386 0.076204889
-0.19043617 0.1113179 0.083142005
0.17372195 0.11201768 0.073583864
-0.17018171 0.13651165 0.070624039
-0.15377098 0.14245161 0.079106301
0.16389172 0.14181301 0.071203671
-0.14859511 0.16134521 0.085915864
0.12998725 0.16243964 0.075371131
0.094894439 0.18854517 0.08296743
-0.07552968 0.19844382 0.081361637
0.047747187 0.20475867 0.081926376
0.10237983 0.19213444 0.080976658
-0.040661272 -0.2126929 0.087416023
-0.020324368 -0.21095106 0.08868172
-0.013865603 -0.21623847 0.087842122
0.011590926 -0.21468727 0.087913468
0.017822452 -0.21281452 0.08859548
0.038415574 -0.21116021 0.087486327
-0.08984077 -0.19954574 0.08685118
-0.073188461 -0.20234008 0.094383039
-0.058244243 -0.20456085 0.091697842
-0.026439417 -0.20655677 0.088352963
0.047750387 -0.20238401 0.09445928
0.056051321 -0.20672552 0.088315919
0.077085435 -0.2012102 0.098513372
0.087712392 -0.19814664 0.086914733
-0.11432585 -0.18551554 0.090810001
-0.098235048 -0.184834 0.091113321
-0.082159288 -0.18982634 0.097493902
0.092584193 -0.18887952 0.090840697
0.11037203 -0.1887479 0.086763993
-0.15188709 -0.1618392 0.0868304
-0.12981355 -0.16944382 0.092201918
-0.10447041 -0.17559493 0.091574952
0.12983081 -0.17538531 0.089258432
0.14325233 -0.16103199 0.088494256
-0.16962261 -0.14425792 0.08704704
-0.17337123 -0.12981994 0.10096607
0.1609176 -0.13301665 0.095977418
0.16748103 -0.14273591 0.087114841
-0.18560764 -0.12346565 0.087404333
-0.1747897 -0.10992999 0.095135197
0.18348135 -0.12194284 0.08747194
-0.20026127 -0.10003147 0.08787515
0.19126612 -0.10387034 0.087658681
-0.19431365 -0.082760498 0.088296428
-0.21223767 -0.071394615 0.088570401
0.20995945 -0.069542944 0.088651687
-0.21216598 -0.056946654 0.096571967
0.19601347 -0.057216398 0.087360725
0.2087891 -0.059124947 0.10076736
-0.22084235 -0.036002722 0.08955504
-0.2167339 -0.033007983 0.099394992
0.20738564 -0.033615183 0.093718216
0.21819094 -0.033433463 0.089667462
-0.20228812 -0.016285572 0.091043174
0.19868864 -0.020591183 0.09123154
-0.22001174 -0.0091519868 0.10142089
-0.20729038 -0.0091519868 0.10274054
0.21059789 -0.0091519868 0.093625806
-0.22185895 0.012802671 0.096227363
-0.20730557 0.015860327 0.10272945
0.21060553 0.015281442 0.09362036
0.22013021 0.015272477 0.091222994
-0.2167339 0.038560007 0.099394992
-0.19972181 0.030579191 0.08956074
0.19706 0.028037615 0.089672409
0.20739305 0.03977428 0.09372279
-0.21220975 0.062538825 0.096598893
-0.19132049 0.065933116 0.088573195
0.1925385 0.063508794 0.088021621
0.20883486 0.06580615 0.10073458
-0.19435117 0.088991322 0.088299081
-0.17947119 0.0945132 0.087877192
0.17717713 0.092699409 0.087957688
-0.17486754 0.11681685 0.095080033
-0.16491555 0.11792919 0.087405033
0.16276868 0.1163981 0.087473236
0.18460405 0.11630012 0.087318808
-0.17344597 0.13564552 0.10101143
-0.15712047 0.12765221 0.091763422
-0.14898212 0.13866891 0.087048441
0.14682901 0.137154 0.087116092
0.1562452 0.13650756 0.09132129
0.1819687 0.12752476 0.091996655
-0.13082214 0.15725942 0.088284113
0.12919502 0.1548456 0.086893804
0.16040789 0.15032208 0.095265403
-0.12722833 0.1694582 0.097555161
-0.11199897 0.17105587 0.086736366
0.10988288 0.16965258 0.086799867
0.13680875 0.16874857 0.090028062
-0.12041793 0.18260483 0.093791008
-0.11631937 0.18709825 0.09501189
-0.091942765 0.18458505 0.086699292
0.092927508 0.18425335 0.091698058
0.11559348 0.18353461 0.090933248
-0.07595481 0.19653557 0.091259435
-0.043863021 0.20452735 0.087839849
-0.020005498 0.20721741 0.087413929
0.017747806 0.20569211 0.087484226
0.041518547 0.20475993 0.087828606
0.070120946 0.1967278 0.088210233
0.091127738 0.19657154 0.090507723
-0.048829045 0.21009494 0.091353014
-0.025554527 0.21198609 0.09973979
-0.0091489889 0.20926414 0.08791142
0.0018711602 0.21257579 0.093870923
0.02430941 0.2116507 0.093724459
0.051003851 0.21026757 0.101818
-0.041589405 -0.21412009 0.11165418
-0.021861559 -0.2121464 0.11166742
-0.014791738 -0.21763876 0.11216666
0.0060011689 -0.21385093 0.11121593
0.016702157 -0.21448033 0.11305548
0.039431844 -0.21272269 0.11173102
-0.090682268 -0.20088409 0.11098211
-0.067991458 -0.21029982 0.11116318
-0.053390235 -0.20607586 0.11424622
-0.048832592 -0.20778298 0.10382796
0.023479404 -0.20780911 0.10387322
0.058258306 -0.20864141 0.11267862
0.08859206 -0.19954574 0.11105501
-0.12742475 -0.18041989 0.10991841
-0.11330733 -0.19147694 0.11080229
-0.095623024 -0.188592 0.11595869
-0.078819618 -0.19139679 0.11716229
0.094457999 -0.1878508 0.11482237
0.10566077 -0.18746661 0.11464717
-0.15267928 -0.16316615 0.11095858
0.13131975 -0.17664717 0.11091716
0.13921812 -0.16225637 0.11938439
0.15063837 -0.1618392 0.11102983
-0.17046086 -0.145687 0.1112135
-0.1529194 -0.15437113 0.11686055
0.13446464 -0.15529656 0.10658927
0.1683739 -0.14425792 0.11128994
-0.15575576 -0.13601983 0.10858275
-0.18643995 -0.12491001 0.11164194
0.18555826 -0.11671405 0.11415866
-0.19725488 -0.10333191 0.11263553
0.17650546 -0.10552844 0.1036285
0.19902131 -0.10004686 0.11228288
-0.20363739 -0.080734961 0.11935116
-0.18876377 -0.08471483 0.11604369
0.19335717 -0.082760364 0.10920253
-0.21316031 -0.073054127 0.11303049
-0.18605326 -0.07550627 0.11040165
0.21115781 -0.073320687 0.11198902
-0.19898234 -0.059333995 0.10870626
0.19841234 -0.0569456 0.11693575
-0.22202261 -0.03816437 0.11418611
-0.20410816 -0.034194529 0.1050256
0.20298706 -0.033007588 0.1197146
0.21959364 -0.036002722 0.11429958
-0.20417261 -0.01283385 0.11590408
0.2010484 -0.016269084 0.11608455
-0.22556461 0.0074639814 0.11589274
0.22247517 0.010897818 0.11607231
-0.20412345 0.040932808 0.1050145
-0.20091826 0.032731146 0.11419286
0.19849089 0.030611269 0.11430463
0.20300154 0.038558953 0.1197234
-0.19563439 0.066852644 0.1108589
0.19426107 0.064243272 0.11503696
-0.20368126 0.086290404 0.1193778
0.19340234 0.088990845 0.10919935
-0.18879466 0.091597296 0.11602151
-0.18041702 0.096154429 0.11219869
0.17822239 0.094513103 0.11228613
-0.19421691 0.11256193 0.11640566
-0.16574979 0.11935148 0.11164349
0.16366673 0.1179291 0.11171958
0.17659479 0.11131456 0.10368276
0.18681736 0.11681904 0.11654443
-0.14983127 0.14009139 0.11121525
0.14773332 0.13866881 0.11129159
-0.15583481 0.14308494 0.10852699
-0.13210389 0.15757844 0.11095858
0.13004376 0.1562428 0.11103073
-0.15302512 0.1602637 0.11692366
-0.1452993 0.16842771 0.11556773
-0.11281004 0.17236823 0.11084596
0.11074086 0.17104077 0.11091801
0.11993143 0.168516 0.11571832
0.136958 0.16540243 0.11299393
-0.11064842 0.1815002 0.11051647
-0.092772767 0.18590511 0.11080079
0.090694003 0.18458505 0.11087275
0.10815777 0.18639608 0.11587825
0.12918299 0.17937499 0.10522395
-0.096549697 0.19744807 0.11765663
-0.07222569 0.1980976 0.1126107
-0.052427463 0.20504278 0.11193424
-0.043646578 0.20611161 0.11215357
-0.020935031 0.2086229 0.11165243
0.018756682 0.20721751 0.11173032
0.045283545 0.20341565 0.11123543
0.071994707 0.19990821 0.11372939
0.094693385 0.19731697 0.11930116
-0.0081108343 0.21080783 0.11224156
0.0059348852 0.21218655 0.11216496
0.037534006 0.20913593 0.11305217
-0.068266459 -0.21072972 0.13535751
-0.041908275 -0.21461043 0.13592637
-0.00062439486 -0.21217029 0.13357371
0.02546438 -0.21215154 0.13361008
0.040330999 -0.2141051 0.13595873
-0.093758531 -0.19830173 0.13263786
0.069027707 -0.20279226 0.13278037
0.089433558 -0.20088409 0.13517369
-0.12686242 -0.17913829 0.13031287
-0.11360187 -0.19195339 0.13493387
-0.083613746 -0.19062023 0.1278705
0.11206781 -0.19149172 0.1349631
0.13212982 -0.17798072 0.13501401
-0.15295807 -0.16363332 0.13511704
-0.14530811 -0.16612214 0.12807976
-0.12829757 -0.16294327 0.12798223
0.11993948 -0.16620257 0.12821445
0.15143056 -0.16316615 0.13514617
-0.17074595 -0.14617315 0.13541342
-0.13196883 -0.15669285 0.12683694
0.15699668 -0.15661436 0.12698334
0.1692121 -0.14568689 0.1354437
-0.17539597 -0.12916051 0.13027813
0.15949467 -0.12981725 0.12153116
0.16779952 -0.13602205 0.13020073
-0.19089064 -0.11870661 0.13410065
-0.17623137 -0.11037639 0.12504283
-0.15907581 -0.12563878 0.12897691
0.16949591 -0.11219489 0.13255864
0.18472244 -0.1251941 0.13260719
0.1795232 -0.10496603 0.13348716
-0.21378732 -0.05669114 0.12551664
0.21086341 -0.059335161 0.13009451
-0.21147966 -0.033597574 0.13168254
0.21597904 -0.034194961 0.12636128
-0.22112554 -0.0091519868 0.12997419
-0.20828126 -0.0091519868 0.13289019
0.20629488 -0.0091519868 0.12172401
0.21916085 -0.0091519868 0.12403946
-0.22113994 0.014551367 0.12998308
-0.20829676 0.015975852 0.13287881
0.20629488 0.014673823 0.12172401
0.21916085 0.015860759 0.12403946
-0.21799579 0.038311355 0.12807322
0.21599452 0.040933676 0.12635019
-0.20499332 0.041166462 0.13528937
-0.21383089 0.062155567 0.12554297
0.21090928 0.066121459 0.13006084
-0.18604422 0.079817653 0.12418105
0.21131633 0.079561733 0.12464152
-0.17630951 0.11737481 0.12498667
-0.16603664 0.11984043 0.13591497
0.16450098 0.11935137 0.13594535
0.17454074 0.11264339 0.1267475
-0.17547011 0.13485424 0.13032234
-0.15012011 0.14057525 0.13541538
0.14858246 0.14009129 0.13544576
0.15958481 0.13564149 0.12158486
-0.16937692 0.14824703 0.12879844
-0.13237719 0.15802842 0.13511799
0.13085508 0.15757833 0.13514617
0.14400721 0.14839903 0.12905295
0.16786227 0.1430885 0.13015546
-0.12844287 0.17026161 0.12787959
-0.11309558 0.1728303 0.13498569
0.11157042 0.17238301 0.13501401
-0.12020278 0.18590052 0.12572224
-0.093061663 0.18636458 0.13493297
0.09152396 0.18590501 0.1349621
-0.076292388 0.19934274 0.13239413
-0.047674987 0.20517258 0.13535658
0.019686215 0.2086228 0.13595578
0.046579048 0.20641991 0.13575827
0.068864219 0.19531316 0.13517275
0.10363348 0.19530267 0.13079281
-0.021257699 0.20911065 0.13592456
-0.017960966 -0.21446534 0.13759366
-0.015116606 -0.2181299 0.13652408
0.013543025 -0.21763876 0.1365557
0.01634931 -0.21500495 0.13755864
-0.07208211 -0.20600991 0.14843374
-0.052503541 -0.2053218 0.14570758
-0.043443874 -0.20781961 0.1382632
-0.02676983 -0.20876119 0.14017437
0.047012966 -0.20605282 0.148507
0.050946113 -0.20881057 0.1395051
0.078135975 -0.20230757 0.15266961
-0.10583713 -0.1769582 0.1446005
-0.094132192 -0.19073686 0.14083923
0.094223566 -0.19094282 0.14538707
0.10607412 -0.17982678 0.14642668
0.1308988 -0.17687106 0.14476608
0.14044404 -0.16294782 0.14984353
-0.16938826 -0.14593552 0.14129376
-0.15450697 -0.15360497 0.14584395
0.14148872 -0.15023431 0.13950983
-0.15615457 -0.13663156 0.13945898
0.16157348 -0.12915851 0.15072145
0.18823984 -0.11037817 0.14660355
-0.19783019 -0.10337098 0.13901123
0.19996352 -0.10171126 0.13658829
-0.20403881 -0.080386817 0.14737666
-0.18889728 -0.085088477 0.14703524
0.18990284 -0.080733389 0.13968357
0.20069501 -0.084716588 0.13751449
-0.21345015 -0.073575452 0.13753146
-0.19961378 -0.059572671 0.13921507
0.2119204 -0.073070019 0.13756244
-0.21379212 -0.056467012 0.15319882
0.20008583 -0.056690354 0.14576221
-0.22233933 -0.038744554 0.13887624
0.20429961 -0.032883395 0.14827766
0.22078258 -0.038180556 0.13891071
-0.20456877 -0.012108271 0.14087161
0.2029238 -0.01283405 0.14091597
-0.22596422 0.0067185173 0.14085747
0.20745845 -0.0091519868 0.15016346
0.22432475 0.0074474933 0.14090189
0.20745845 0.014551106 0.15016346
-0.20124836 0.033324819 0.13888314
0.19967848 0.032747235 0.13891861
0.20429961 0.038310833 0.14827766
-0.21382079 0.061819777 0.15321611
-0.19609694 0.067291051 0.13836399
0.19556084 0.064869851 0.14167342
-0.2040678 0.085826747 0.14739409
0.18993233 0.086288825 0.13970107
-0.18894394 0.092094898 0.14700127
-0.18073803 0.096711524 0.13655861
0.17916821 0.096154325 0.13659328
0.20074128 0.091599055 0.13748081
-0.19418408 0.11001443 0.14149378
0.18831769 0.11737703 0.14654669
-0.15906717 0.12988846 0.14269456
0.16164793 0.13485186 0.15076497
0.18424137 0.12974982 0.14295308
-0.15623403 0.14381897 0.13940223
-0.15462707 0.15936898 0.14591441
-0.13196093 0.16083111 0.14046377
0.13985832 0.16526295 0.14364776
0.15698709 0.16075376 0.14061075
-0.11967669 0.1882827 0.14941724
-0.1153019 0.18571465 0.14083
0.094615504 0.18831718 0.1494759
0.10994659 0.18605855 0.1436474
-0.072796702 0.20312855 0.13882773
0.071160376 0.20368604 0.13879131
0.096126057 0.19823034 0.14982924
-0.044064455 0.21185988 0.14007241
-0.02433108 0.21527003 0.14858283
-0.0071837991 0.21218635 0.1365537
0.0014524937 0.21470447 0.14408027
0.024296043 0.21418199 0.14524388
0.037176963 0.20965816 0.13755473
-0.041570019 -0.2140903 0.16026375
-0.020969998 -0.21416485 0.16151085
-0.014742474 -0.21756421 0.16095039
0.006616977 -0.21572313 0.16091231
0.016853549 -0.21425529 0.16214669
0.040649872 -0.21459544 0.16022657
0.067017697 -0.21072961 0.15957543
-0.090700954 -0.20091376 0.15936328
-0.067991503 -0.21029982 0.15960692
-0.051484104 -0.20886375 0.16350986
-0.04697166 -0.20848937 0.16180737
0.026207641 -0.20903553 0.1575755
0.050949678 -0.207819 0.16358775
0.089723103 -0.20134465 0.15933201
-0.12469734 -0.1810772 0.15842842
-0.1133441 -0.1915364 0.15912151
-0.093778647 -0.1912455 0.16580221
-0.078993261 -0.19182201 0.16281612
0.094025493 -0.18811512 0.16387329
0.11236245 -0.19196849 0.15909003
0.13241181 -0.17844498 0.15914944
-0.15269727 -0.16319633 0.15933192
-0.1262964 -0.16382121 0.1608993
0.1517093 -0.16363321 0.15930058
-0.17046081 -0.14568689 0.15967411
0.14061603 -0.15360415 0.16633239
0.16949724 -0.14617315 0.15963939
-0.17542104 -0.12859647 0.1581115
0.1682466 -0.13663456 0.16119339
-0.18642226 -0.12487923 0.1602474
-0.17546992 -0.11091097 0.15683372
0.18546553 -0.12538597 0.16021138
-0.197276 -0.10284196 0.164821
0.18041995 -0.1044846 0.16177602
0.20027135 -0.10225527 0.16094366
0.19033574 -0.080386035 0.16759235
0.20090935 -0.085089818 0.16860136
-0.21305494 -0.072864562 0.16211002
0.21188362 -0.066582538 0.16138242
-0.22177608 -0.037713092 0.16366915
-0.21094476 -0.033609852 0.16135709
0.21691017 -0.034311797 0.15673639
0.22109072 -0.038744655 0.16359679
-0.20350589 -0.014054974 0.16601366
0.20331992 -0.012108371 0.16587716
-0.22083755 -0.0091519868 0.1574049
-0.20760076 -0.0091519868 0.16456567
0.22245644 -0.0012166845 0.16007993
-0.22287229 0.011566483 0.16170177
-0.20760076 0.016108651 0.16456567
0.22019741 0.015976436 0.15429893
-0.21776515 0.038091805 0.15557067
-0.20068622 0.032313846 0.16367584
0.19999956 0.033324718 0.16360465
-0.20412435 0.041435678 0.16714352
0.21691017 0.041167635 0.15673639
-0.19214879 0.067396365 0.16211447
0.1913005 0.068103857 0.1620643
0.21160327 0.066479482 0.16067176
0.19036491 0.085825704 0.16760948
-0.18037249 0.096077181 0.16099322
0.17948917 0.096711226 0.16094799
0.20094022 0.09209726 0.16857839
-0.19343652 0.10948881 0.16867867
-0.17556414 0.11804226 0.15676486
-0.16573191 0.1193209 0.1602495
0.16477893 0.11982523 0.16021347
0.18044934 0.11001246 0.16179331
-0.1754946 0.13417743 0.15815471
-0.14983122 0.14009129 0.15967631
0.14887135 0.14057525 0.15964139
-0.13211298 0.15759343 0.15933307
0.13113743 0.15804321 0.15930058
0.16832553 0.14382258 0.16113563
-0.14332703 0.16980477 0.16491102
-0.12644251 0.17128576 0.16079438
-0.11282843 0.172398 0.15918186
0.11184677 0.17283019 0.1591505
0.11829016 0.16986577 0.16501315
0.14076671 0.15936618 0.16641928
-0.12116509 0.18492149 0.15440381
-0.11039297 0.1836651 0.16201849
-0.092800751 0.18594968 0.15912037
0.091812946 0.18636468 0.15909003
0.11461689 0.18491682 0.16588995
0.13089077 0.18103871 0.15841049
-0.095289603 0.1977613 0.16557664
-0.073969848 0.19953287 0.1618025
-0.05312711 0.20645815 0.16623136
-0.047387142 0.20473 0.15960692
-0.020905651 0.20857844 0.16026269
0.046426225 0.20517258 0.15957433
0.072386123 0.20065947 0.16372716
-0.042565655 0.21135752 0.16527323
-0.026768532 0.21278171 0.15375462
-0.006854835 0.2126755 0.16090633
0.0059847496 0.2121124 0.16094816
0.025560798 0.21165168 0.160354
0.037666611 0.20894198 0.1621401
0.051664326 0.21276309 0.1537914
-0.040603112 -0.21260367 0.18469061
-0.018081978 -0.21428546 0.18668343
-0.013737395 -0.2160446 0.1854663
0.01349376 -0.21756421 0.18533999
0.040311713 -0.21407552 0.18456885
-0.092580527 -0.19774039 0.18080476
-0.067137569 -0.20896448 0.18393855
0.068554498 -0.20309635 0.18090263
0.089442901 -0.20089898 0.18355587
-0.11954316 -0.17827752 0.18134128
-0.11253358 -0.19022493 0.18338954
-0.080002569 -0.1899935 0.17651199
0.091413938 -0.19182532 0.18505016
0.10812828 -0.18680498 0.17831686
0.13214795 -0.1780107 0.18334933
-0.15191412 -0.16188447 0.18362543
-0.14333491 -0.16778898 0.17726985
-0.13261397 -0.17672212 0.1834539
0.11829475 -0.16787708 0.17741475
0.13851933 -0.16382582 0.18288632
0.1514485 -0.16319624 0.18351945
-0.16962251 -0.14425783 0.18401924
-0.15358502 -0.15297967 0.1730866
0.1692121 -0.14568689 0.18390432
-0.17375425 -0.12811284 0.18470946
-0.15406658 -0.13736756 0.17245241
0.16165753 -0.1285945 0.17845809
-0.1889381 -0.11927281 0.18379818
0.16709013 -0.11528527 0.18313204
0.18635659 -0.11788825 0.18152958
-0.20012902 -0.099797837 0.18552816
0.19991072 -0.10161792 0.18538322
-0.20296139 -0.080081515 0.17426576
-0.18698065 -0.085524619 0.17985579
-0.21505588 -0.065447263 0.18633868
-0.19827895 -0.059851289 0.1714779
0.19267172 -0.060156286 0.18623501
0.21180622 -0.072864562 0.18664451
-0.21238972 -0.056270096 0.17979598
0.20012012 -0.056466755 0.17333168
-0.21627663 -0.032676362 0.1820761
0.20415533 -0.032773368 0.17569858
-0.21923821 -0.0091519868 0.1838132
0.20721333 -0.0091519868 0.17749223
0.21955557 -0.0091519868 0.18611141
-0.21923821 0.014345963 0.1838132
0.20721333 0.014442111 0.17749223
0.21957076 0.016109239 0.18609992
-0.21629101 0.037896503 0.18208444
0.20414093 0.038091034 0.17568998
-0.21526058 0.061884888 0.17654726
-0.19832571 0.066895634 0.17144333
0.19457556 0.063898832 0.17788574
-0.20299037 0.085419677 0.17428264
-0.18701203 0.09267699 0.17983271
-0.17932844 0.094265379 0.18553311
0.17911468 0.09606149 0.18538965
-0.19230331 0.11731684 0.17046273
-0.16485274 0.11782217 0.18467218
0.16448304 0.11932079 0.18455172
0.16708274 0.11743461 0.17065319
0.18762678 0.11804526 0.17845079
-0.17382769 0.13359709 0.18475182
-0.14898218 0.13866901 0.18402159
0.14858246 0.14009129 0.18390667
0.16173176 0.13417506 0.17850092
-0.16064465 0.14698344 0.17465068
-0.13131985 0.15628776 0.18362662
0.13087326 0.15760823 0.18351945
0.14209588 0.14937922 0.17709568
-0.15370454 0.15863954 0.17315546
-0.11203589 0.17111562 0.18345505
0.11158881 0.1724128 0.18334933
0.13866462 0.17129114 0.1827803
-0.11966517 0.18412569 0.18141033
-0.091970742 0.18462953 0.18338954
0.09156128 0.18596447 0.18328017
0.10717782 0.1849204 0.1750485
-0.070247456 0.20036249 0.18225132
-0.046522815 0.20340115 0.18393855
-0.019937046 0.20711398 0.18468811
0.019666528 0.20859303 0.1845652
0.046286754 0.20573458 0.18235564
0.068873614 0.19532774 0.18355462
0.091696635 0.19959612 0.18484731
-0.038925715 0.20892678 0.18667969
-0.0072335633 0.21211229 0.18533769
0.0069918269 0.21061498 0.18546256
0.018115442 -0.21237883 0.18684262
-0.071217678 -0.20493397 0.19309579
-0.052208684 -0.20780382 0.18830846
-0.047577742 -0.20856147 0.19917233
-0.033725247 -0.20667106 0.1894623
-0.00062434486 -0.20919752 0.19694084
0.026730318 -0.20816344 0.19503291
0.046436928 -0.20496801 0.19315284
0.052805446 -0.20510486 0.1885348
-0.09468969 -0.18993483 0.19090874
0.095566653 -0.18687664 0.19116661
0.10562294 -0.17827563 0.2019107
-0.12006738 -0.16494894 0.1972626
-0.16715032 -0.14726172 0.18929791
-0.15061575 -0.15246877 0.19893086
-0.13421431 -0.15180571 0.19239879
0.14093299 -0.1501779 0.19149022
0.15969445 -0.15169568 0.19260804
0.16623543 -0.13737059 0.19431292
-0.17204037 -0.11155283 0.19093454
-0.19128697 -0.10369785 0.19481321
0.17971297 -0.10406462 0.18886298
-0.2005665 -0.079814158 0.20016077
0.19415905 -0.082804248 0.19799395
-0.19016676 -0.06090495 0.19112061
0.21320243 -0.059929062 0.19291317
0.19878387 -0.056269586 0.19985303
-0.22029564 -0.035001341 0.18861245
-0.20115948 -0.034601901 0.20091248
0.20939276 -0.03356133 0.19541068
0.22051868 -0.037697107 0.1883999
-0.20086959 -0.018883808 0.19141693
0.20224808 -0.014071561 0.1910376
-0.20483224 -0.0091519868 0.19814536
-0.2223071 0.01354102 0.19140005
-0.20483224 0.016262677 0.19814536
0.22364059 0.0087237777 0.19102201
-0.19918559 0.029614683 0.18862009
0.19941966 0.032281768 0.18840879
0.20270357 0.037895992 0.20211177
-0.20117506 0.04174754 0.20090079
0.21609615 0.041437153 0.18871772
-0.19107977 0.065507919 0.1868
0.19881275 0.061523646 0.19986968
0.21032649 0.066897862 0.19306481
-0.20059559 0.085063219 0.20017751
0.18935524 0.085418135 0.19441949
0.19905329 0.092680581 0.20155852
-0.19131614 0.10902905 0.19483
-0.17213561 0.11884452 0.19086379
0.17975692 0.10948686 0.18888836
-0.15070508 0.15804538 0.19898142
0.16633107 0.14470485 0.19424206
-0.12019868 0.1726024 0.19716677
0.13989913 0.15863675 0.19357105
-0.11831138 0.18621273 0.19239689
-0.11587638 0.18490154 0.19089851
0.093524233 0.18622978 0.19242547
0.11121257 0.18306033 0.19656165
-0.076570518 0.19845235 0.18928452
0.03896378 0.20704493 0.18683761
0.073770598 0.19993064 0.1885246
0.10520935 0.19425432 0.19030988
-0.041284941 0.21163009 0.18855688
-0.024059376 0.21296749 0.19150053
-0.00062424497 0.21298413 0.19152892
0.027776515 0.21166702 0.18826465
-0.021717163 -0.21182477 0.20756835
-0.011940985 -0.21332864 0.21012075
0.0059321686 -0.21366088 0.20679595
0.039354499 -0.21260378 0.20900816
-0.088389717 -0.1972377 0.20808043
-0.06139642 -0.20179339 0.20897645
-0.03887945 -0.20995347 0.20925148
-0.027216809 -0.20465842 0.20589671
-0.015098618 -0.20706487 0.20743795
0.020152779 -0.20779677 0.21119484
0.058225662 -0.20456205 0.20929688
0.08861085 -0.19957553 0.20786773
-0.11831577 -0.18443415 0.20467168
-0.11353662 -0.18279815 0.20737681
-0.095556915 -0.18985853 0.2173838
0.069614194 -0.19289681 0.21860318
0.093528479 -0.18444279 0.20468597
0.11127563 -0.19021004 0.20756385
-0.14180581 -0.16496156 0.21793686
-0.13119219 -0.1743816 0.20784494
0.10273062 -0.17656973 0.21716866
0.12689742 -0.16889361 0.21504864
0.15064742 -0.1618544 0.20782721
-0.15050818 -0.15952927 0.20803571
0.13682434 -0.15246798 0.21925786
0.16835602 -0.14422745 0.20826489
-0.17051557 -0.12770315 0.21019557
-0.1681132 -0.14168477 0.20849168
-0.14884612 -0.1382605 0.2081334
0.16004138 -0.12811087 0.20497337
-0.18402922 -0.12072662 0.20922001
-0.1622958 -0.1151042 0.20442076
0.18549138 -0.11658701 0.20889008
-0.19265868 -0.099982597 0.214883
0.17765553 -0.1036963 0.21494436
0.19887151 -0.099782348 0.20994028
-0.18216801 -0.086048543 0.21522111
0.18694916 -0.079813778 0.22020528
-0.21008912 -0.067530192 0.21164881
-0.1945668 -0.060178362 0.20587951
0.21074264 -0.070951633 0.21134773
-0.20970984 -0.056097705 0.20542988
-0.21562022 -0.031376515 0.21072689
-0.19579752 -0.028173842 0.21729556
0.21902046 -0.034952976 0.21337013
0.19960263 -0.018917084 0.21648474
-0.21644071 -0.0091519868 0.2093087
0.21126586 -0.0091519868 0.21182093
-0.21687734 0.01855832 0.21329191
0.2112731 0.015304503 0.21182501
0.2210494 0.013557709 0.21646461
-0.21360114 0.037724622 0.20767237
-0.19649853 0.024781652 0.21379952
0.19792783 0.029598493 0.21337567
-0.21605109 0.057842575 0.21081996
-0.20973861 0.061265826 0.20544642
-0.19129489 0.065151796 0.20740561
0.19033934 0.061709471 0.21115145
0.21606483 0.065095916 0.20634258
-0.17746884 0.091038495 0.21023104
0.18697804 0.085062705 0.22022158
-0.18223126 0.093374319 0.21517345
0.17807069 0.094249792 0.20994568
-0.18872193 0.11125209 0.21476221
-0.16279304 0.11754082 0.21374054
0.16448432 0.11587167 0.20954455
0.17769951 0.10902646 0.21496925
0.18611822 0.1192449 0.2157321
-0.17058882 0.13310549 0.21023715
-0.14744417 0.13609256 0.20849587
0.14771512 0.13863844 0.20826748
0.16010053 0.13359553 0.20500684
-0.16552509 0.144813 0.21495241
-0.14894286 0.14577268 0.20806184
-0.13204932 0.15515552 0.20710783
0.13007104 0.15628767 0.20782585
0.13883492 0.15147547 0.21722046
0.15968171 0.1562492 0.20640734
-0.14179972 0.16674252 0.20567995
-0.11059613 0.16878609 0.20784624
0.11078703 0.17111543 0.20763539
0.12449802 0.17038091 0.2140664
-0.1170373 0.18272366 0.21161854
-0.090513989 0.18231249 0.20777319
-0.067782857 0.19166948 0.20808043
0.090731226 0.18464421 0.20756109
-0.094274126 0.19453421 0.20633678
-0.072773241 0.20105392 0.2162174
-0.064908169 0.20171674 0.20497987
-0.042607948 0.20405498 0.2098904
-0.018202392 0.20449136 0.20924738
0.0088094221 0.20791231 0.21011657
0.018678438 0.20709909 0.20900682
0.044180188 0.20308638 0.21303503
0.071624368 0.19451334 0.20933603
-0.027214611 0.20910805 0.21961036
-0.012047308 0.21202078 0.20885246
-0.00062434486 0.21357135 0.2106346
0.02313677 0.21326053 0.21082544
0.052557338 0.20907018 0.21968651
0.010682478 -0.21331365 0.23455098
-0.070518926 -0.20062742 0.23132965
-0.062215701 -0.20126821 0.23318021
-0.041216191 -0.20411177 0.23532251
-0.021680696 -0.20893431 0.23630705
-0.0076226839 -0.20679973 0.23521206
0.00081116258 -0.20706713 0.22846515
0.023926252 -0.20279476 0.23677923
0.041796178 -0.20529577 0.23248327
0.06436865 -0.20658749 0.23264545
0.076959513 -0.1936992 0.22780848
0.08713156 -0.19722281 0.23230663
-0.1077436 -0.18025696 0.23106501
-0.08532951 -0.1923704 0.23279218
-0.05420319 -0.1930529 0.22879487
0.079750672 -0.19291601 0.22906488
0.1059609 -0.18279004 0.22972071
-0.12825885 -0.16955256 0.23252463
-0.10800187 -0.16697797 0.22107401
0.12993439 -0.17436661 0.23204742
0.13361306 -0.16678901 0.22143996
-0.14612778 -0.15337181 0.2278343
0.14924128 -0.15949889 0.23225906
-0.16485679 -0.13559903 0.2314209
0.14071387 -0.14314008 0.22743584
0.16158991 -0.13587353 0.23110038
-0.19035387 -0.11191379 0.2223255
-0.18085384 -0.11521647 0.23409709
-0.16285437 -0.11242217 0.22977246
0.16537906 -0.11201372 0.22248191
0.18278046 -0.12072651 0.23355868
0.19704522 -0.096555963 0.2346648
-0.19530892 -0.084716894 0.23000747
0.19433197 -0.086050361 0.23707312
-0.20612895 -0.060407307 0.23691997
0.20774676 -0.063855127 0.23193613
-0.21033831 -0.055848833 0.22640915
0.19350569 -0.055960122 0.2244373
-0.20847802 -0.032526653 0.23168544
0.20004436 -0.032590162 0.22761816
0.2132284 -0.034602497 0.22260891
-0.21715569 -0.012250968 0.23539582
0.1917946 -0.01176052 0.23611301
-0.21113032 -0.0091519868 0.23318677
-0.19702704 -0.0091519868 0.23596622
0.2029117 -0.0091519868 0.22924125
-0.21111614 0.014199364 0.23317872
-0.19702704 0.016466852 0.23596622
0.2029117 0.014260848 0.22924125
-0.21209155 0.038917206 0.22962809
0.1952939 0.039112914 0.22779858
-0.18512933 0.054996163 0.23692608
0.2132284 0.041749038 0.22260891
-0.20464717 0.061073601 0.22951689
0.19203182 0.061667874 0.23083387
0.20669979 0.067388475 0.22760622
-0.19617425 0.084781714 0.22472054
-0.17360181 0.084328115 0.23532647
0.17621103 0.091022812 0.23467243
0.19437914 0.093377359 0.23703715
-0.16151598 0.11480946 0.23190084
0.16205849 0.11518747 0.23356187
-0.16413005 0.13278843 0.23374501
-0.14425951 0.13075788 0.23328829
0.14618638 0.13607737 0.2327636
0.15688995 0.13310471 0.23041381
-0.14477974 0.15763693 0.22298668
-0.1269303 0.14906155 0.23274127
0.12863787 0.15392835 0.23225906
0.16118856 0.1457773 0.23008654
-0.10780613 0.16785726 0.23363411
0.10933807 0.16877101 0.23204917
0.13359328 0.1715582 0.23509026
-0.11241242 0.18182732 0.22902223
-0.087489709 0.17750214 0.23244849
-0.06469442 0.18684024 0.23279068
0.066533946 0.19166927 0.23230508
0.090965912 0.18140493 0.23015851
0.10220139 0.18348195 0.22752959
-0.043747284 0.20157267 0.23128174
-0.023841981 0.20750736 0.22806889
-0.012331555 0.20345226 0.234346
0.0062622814 0.20448364 0.23163596
0.019785151 0.20488784 0.22898023
0.044945788 0.19879501 0.23483519
0.077415481 0.20172442 0.22747561
0.0015437368 0.21344532 0.22885072
-0.057485394 -0.20008646 0.23853831
-0.023842681 -0.20601085 0.24019209
-0.00062424497 -0.20601091 0.24019219
-0.11725643 -0.17888042 0.2404581
-0.092166245 -0.1817406 0.24981765
0.063463494 -0.18951704 0.23962158
0.06905105 -0.18580095 0.25165567
0.09308894 -0.17819427 0.24533053
-0.1040118 -0.17652306 0.24230701
-0.099276997 -0.1669223 0.24488962
-0.14071199 -0.15755083 0.2503565
-0.13428737 -0.15200703 0.24436578
0.11611237 -0.1575944 0.25042576
0.12453936 -0.15322122 0.24389148
0.1504 -0.12743762 0.25384453
0.1750668 -0.11242647 0.25181964
-0.18909767 -0.10286383 0.25189739
-0.17923221 -0.10324743 0.24214144
0.16428275 -0.10293653 0.25200909
0.17340079 -0.10340872 0.23959336
-0.18858171 -0.079476796 0.24733946
0.18256511 -0.079602644 0.24468875
-0.18284242 -0.06066332 0.24682382
-0.19074708 -0.051880993 0.24802573
0.1910775 -0.055969302 0.24942131
-0.21570508 -0.038212337 0.24013442
-0.1924784 -0.0348147 0.23944801
0.19333273 -0.033076093 0.24484327
0.21639633 -0.030146424 0.23858693
-0.21395501 -0.018030319 0.24494284
0.19071488 -0.016449755 0.25060141
0.1976193 -0.0091519868 0.25305849
-0.2165356 0.016352002 0.24282908
-0.19077133 0.014480446 0.23959325
0.1933831 0.015535933 0.24658874
0.21603829 0.022905998 0.24242418
0.19510047 0.031173009 0.24509206
-0.20672068 0.042617451 0.24431467
-0.1924942 0.04217314 0.23943573
-0.19647604 0.06096445 0.25172856
-0.18290597 0.068113171 0.24677517
0.19110619 0.061073221 0.24943709
-0.18861048 0.084613405 0.24735545
0.18259409 0.0847812 0.24470465
-0.18909273 0.10464528 0.23958173
0.16427921 0.10470819 0.23968005
-0.17929028 0.10846476 0.24217361
0.17432603 0.11430073 0.24568397
-0.16452391 0.13466419 0.24306783
0.13985498 0.13473429 0.24317925
-0.13437721 0.15750672 0.24441481
0.13100442 0.15763693 0.24325505
0.13956198 0.14960936 0.24456555
-0.140709 0.15914217 0.23813757
-0.1252061 0.1716962 0.24227983
-0.099494345 0.17489883 0.24472873
0.11610977 0.15918519 0.23820701
-0.092265055 0.18536443 0.2437937
0.0690495 0.18728702 0.23950098
0.089113936 0.18382163 0.24492314
-0.074260674 0.19411221 0.24395213
-0.054196645 0.19772972 0.24249214
0.045646247 0.19331205 0.24941957
0.079737328 0.19766247 0.24262744
-0.046812695 -0.19474185 0.26612237
-0.026448853 -0.19778679 0.26345319
0.0019353267 -0.19950083 0.26326001
0.022470029 -0.19473344 0.26610878
0.034036618 -0.20442764 0.25854421
0.060947802 -0.20123833 0.25748771
-0.073467709 -0.18467276 0.26129091
-0.060508601 -0.1907555 0.2615065
0.039533403 -0.1907624 0.26228604
0.076898254 -0.17770575 0.26850381
0.084061861 -0.19234031 0.25706437
0.10683122 -0.1830187 0.25669113
-0.12318069 -0.16119277 0.25767297
-0.10975743 -0.17151429 0.26255712
0.075980812 -0.17120978 0.26655811
0.09214028 -0.16839226 0.26760012
0.11143646 -0.16694625 0.26757103
0.12698276 -0.1695075 0.25677428
-0.14254865 -0.14619574 0.25791082
-0.11994462 -0.1531381 0.26690575
0.12052155 -0.15200703 0.26461905
0.14632232 -0.1546091 0.25700575
-0.15942623 -0.12915197 0.25637823
-0.12517552 -0.14004783 0.25816059
0.13985728 -0.13309523 0.25544673
0.1637027 -0.13629444 0.25760067
0.17958735 -0.11518559 0.25848809
-0.17540751 -0.10576555 0.25949204
-0.16820672 -0.10320044 0.26288456
0.16561627 -0.10324743 0.26215187
-0.18829553 -0.082618743 0.2657809
-0.17814 -0.079427339 0.26830775
-0.16554904 -0.086919427 0.26006103
0.17500913 -0.079476796 0.2672801
0.19322021 -0.089798912 0.25982082
0.1949919 -0.060666077 0.26884332
0.20486251 -0.06037543 0.26156753
-0.19831777 -0.046357788 0.26304764
0.18374242 -0.047966834 0.26966846
-0.20052724 -0.032488488 0.25398085
0.2046115 -0.034815766 0.261363
0.21072875 -0.019765574 0.26447371
-0.20262221 -0.0055604177 0.26084533
-0.18082118 -0.0034163091 0.26637024
0.20913725 -0.0091519868 0.25784403
-0.20298336 0.014162905 0.25534648
0.1894953 0.014431381 0.26448578
0.20912166 0.016468067 0.2578561
-0.20052724 0.037521016 0.25398085
-0.17718533 0.040962838 0.2630595
0.18386248 0.054964192 0.26157424
0.20501445 0.042447422 0.26550236
-0.16699964 0.072871536 0.26104686
0.19505525 0.068117306 0.26879415
-0.1886375 0.088635921 0.25816441
-0.17816898 0.084547468 0.26832354
0.16387829 0.088726357 0.2583034
0.1736865 0.084455125 0.2635625
-0.16009645 0.097407751 0.25974828
-0.16609077 0.11461343 0.26389575
-0.13879564 0.12160496 0.25858706
0.13933596 0.12087359 0.26495761
0.16224901 0.10906839 0.26033759
-0.15424345 0.13265441 0.255261
-0.12184385 0.14068806 0.25791082
0.14300166 0.13074251 0.25760403
0.15045896 0.13278766 0.25387672
-0.14044535 0.1484645 0.26664504
-0.12300137 0.15274704 0.26089269
-0.10249279 0.15567461 0.25767297
0.11552115 0.1474649 0.26342762
0.12314201 0.15327664 0.26083729
-0.11658137 0.16979893 0.25538048
-0.082258068 0.16918121 0.25759417
0.094664857 0.16803864 0.26099488
0.1090555 0.16943496 0.26205355
-0.089429885 0.18025984 0.26508904
-0.070488766 0.18401255 0.264474
-0.05934646 0.17847773 0.2579765
-0.035587113 0.18658762 0.2584931
-0.0083668502 0.18962094 0.25957662
0.020958602 0.18984719 0.26098305
0.058936521 0.18560542 0.26005012
0.072845742 0.17982468 0.26713467
0.086231455 0.17748715 0.25668794
-0.047119204 0.19629698 0.25784695
-0.02369119 0.19792473 0.25701311
-0.0144278 0.20141488 0.25969619
0.0063460465 0.19846259 0.257783
0.022469379 0.19611622 0.25403586
0.040292226 0.19574155 0.25748447
-0.0013750682 -0.19508384 0.2855953
0.027892025 -0.19498032 0.28406429
-0.069698416 -0.1799022 0.28590697
-0.043950509 -0.17872488 0.2802825
-0.020064555 -0.18102573 0.28572989
0.022769902 -0.18225653 0.27115381
0.045424506 -0.17991918 0.28593397
0.05569762 -0.18508837 0.28390348
0.078778751 -0.18393734 0.28232712
-0.094097234 -0.16846463 0.28058094
-0.07214532 -0.17140055 0.28380913
0.068670869 -0.17480721 0.27780318
0.10166363 -0.1746574 0.28191292
0.12191349 -0.16116239 0.28199658
-0.14000326 -0.14595665 0.27555791
-0.10943698 -0.15050913 0.28259289
0.1110464 -0.1490366 0.27986515
0.1412726 -0.14614996 0.28225598
-0.13814051 -0.1304708 0.27939183
0.13890305 -0.13369671 0.27803272
0.15829058 -0.12706757 0.28298506
-0.1639182 -0.11926351 0.27711168
-0.14865243 -0.11950744 0.284105
0.12035523 -0.12520629 0.28430843
0.1393366 -0.11932582 0.27720743
-0.16944098 -0.098539039 0.27992657
-0.15442462 -0.10325 0.28212339
0.14403693 -0.098043993 0.28060508
0.15459698 -0.10320044 0.28288502
0.17413187 -0.10571878 0.28396899
-0.16709942 -0.0913487 0.28562808
0.16387919 -0.087030597 0.27064434
0.17775247 -0.086924545 0.2822488
0.18666907 -0.078226119 0.28564981
-0.18846512 -0.068518884 0.28519848
0.1637294 -0.068592682 0.2853083
-0.18548432 -0.05587358 0.27231744
0.18291107 -0.055896781 0.27159429
-0.19056618 -0.034238014 0.27986026
0.16617379 -0.035853926 0.28522018
0.18700972 -0.032488488 0.27383199
-0.19218712 -0.0091519868 0.2759769
0.18947716 -0.0091519868 0.27517912
-0.19218712 0.01415011 0.2759769
0.18947716 0.014162905 0.27517912
-0.18986589 0.037492864 0.27470952
0.18700972 0.037521016 0.27383199
-0.18842945 0.050538115 0.28567922
0.16369821 0.050611913 0.28578886
-0.1869887 0.06556356 0.27260071
0.164717 0.071531571 0.27931783
0.18293984 0.06096445 0.27160993
-0.14613692 0.085914873 0.28563535
-0.16353826 0.10480537 0.28302473
-0.13059983 0.10787551 0.28458333
0.13901238 0.10484968 0.2830928
0.15328738 0.10023399 0.28397429
0.17783241 0.094541661 0.28218645
-0.15446858 0.1084686 0.28214687
0.13751025 0.1215436 0.28299034
0.15465555 0.10840602 0.28291649
-0.14042094 0.13294393 0.27966964
-0.11421513 0.12812938 0.28372115
0.11512503 0.1332504 0.28431112
0.12055817 0.14062721 0.28225774
0.14056925 0.13265441 0.27536571
-0.10974521 0.15707175 0.27960372
-0.094799213 0.14322615 0.28345752
-0.074406154 0.15669258 0.28338414
0.091780633 0.15630725 0.27749151
0.10393855 0.15661152 0.28308189
0.13770612 0.14792207 0.28041741
-0.051348202 0.16597101 0.28380737
-0.026657024 0.17285757 0.28452009
0.080990314 0.16915093 0.28191125
-0.069697715 0.18120098 0.27382934
-0.043632258 0.18457955 0.27723438
-0.022916852 0.18764488 0.28318822
0.0024339852 0.18359722 0.28352964
0.022096841 0.18629453 0.27497023
0.039866462 0.18388428 0.27837837
0.057284158 0.18122421 0.28365812
-0.039647494 -0.1848461 0.29002088
-0.023586014 -0.18425797 0.29283491
0.0054166634 -0.18110493 0.29024237
0.024323467 -0.18096788 0.29350954
-0.092657939 -0.16145508 0.29979253
-0.077272192 -0.17114733 0.29162601
0.048518624 -0.16717118 0.29051757
0.068400219 -0.16147222 0.29981941
-0.11613419 -0.15490848 0.28955576
-0.081238344 -0.15281029 0.29712147
0.090619788 -0.15363123 0.29581064
-0.13952869 -0.13180056 0.29638726
-0.12446402 -0.12753786 0.29287663
0.11029483 -0.12996328 0.29664075
0.12756419 -0.12734915 0.29516506
-0.12205026 -0.1145203 0.29335722
-0.16353902 -0.10330287 0.29524657
-0.13981691 -0.10332775 0.30095562
0.13989599 -0.10329939 0.29871672
-0.16547559 -0.079436466 0.28804728
0.16457583 -0.079427339 0.28823426
-0.17830053 -0.06123681 0.2876021
-0.1884286 -0.048881877 0.29803467
-0.17266762 -0.055882908 0.29190257
-0.15655714 -0.047058687 0.29640687
0.16369821 -0.048947133 0.2981301
0.17196833 -0.055873331 0.29219705
0.19702414 -0.046277046 0.28782469
-0.17766194 -0.032473911 0.29457968
-0.1636591 -0.035224922 0.29417902
0.17634138 -0.032474536 0.294541
-0.18702921 -0.023402516 0.29705265
0.16414125 -0.024279535 0.30371112
-0.189549 0.00020958856 0.29541576
-0.17519566 -0.0091519868 0.29236567
0.16467217 0.00034349225 0.2956084
0.17908162 -0.0063582947 0.29361153
0.20093103 -0.0018199547 0.29140371
-0.1752028 0.015502538 0.29236954
-0.16380009 0.01731731 0.29054558
0.17867331 0.014150235 0.29579115
-0.1901001 0.031897295 0.29439723
-0.17767653 0.037491608 0.29458743
0.16515657 0.031879459 0.29455602
0.1761072 0.039171819 0.29119113
-0.17832786 0.041867688 0.29637778
-0.16043745 0.049429655 0.29088888
-0.17269671 0.060943641 0.2919181
0.17198281 0.060929649 0.29220474
-0.16436988 0.086336717 0.29400963
0.13875172 0.088167459 0.30003744
0.1646048 0.084547468 0.28824985
-0.16939396 0.1002286 0.29330838
0.14399587 0.099717967 0.29399699
-0.13953786 0.11288583 0.30153465
-0.12224972 0.12254877 0.29320464
0.11486462 0.11724953 0.3021574
0.12692215 0.12346113 0.29680526
0.14083767 0.10846924 0.30214986
-0.14579804 0.12746336 0.29705697
-0.12455346 0.13290639 0.29292381
-0.11578764 0.14145516 0.29714072
0.091504835 0.14148074 0.29718077
0.12397239 0.12981781 0.29646474
-0.081376247 0.15844101 0.29719269
0.089549378 0.15787126 0.30205882
-0.095585816 0.16443785 0.28967476
-0.069446601 0.16740058 0.29513586
-0.046414677 0.17055398 0.30015135
-0.023497479 0.17207573 0.30257192
-0.00062429492 0.17207573 0.30257192
0.027367633 0.17164631 0.29389605
0.045256726 0.16741748 0.29516274
0.069034107 0.16245127 0.28913218
-0.055737048 0.18433954 0.28781185
-0.036557715 0.18865015 0.29241937
0.026524907 0.18520458 0.29677093
-0.012746906 -0.17789058 0.31241298
0.018776268 -0.18096498 0.31034517
0.04619354 -0.17816728 0.30904818
-0.069447346 -0.1661731 0.30717003
-0.044645872 -0.16645204 0.31288397
-0.023497878 -0.17089735 0.31455731
-0.0098710703 -0.16535348 0.31235173
-0.00062434486 -0.1709058 0.31457049
0.022271123 -0.16936526 0.31216145
0.045257226 -0.16619009 0.30719662
0.070867829 -0.17135477 0.30827463
0.093898751 -0.16209362 0.30781874
-0.08944118 -0.14791033 0.31516016
-0.059969414 -0.15544537 0.31070244
-0.020007497 -0.15466227 0.31992656
0.023809455 -0.15927705 0.31481713
0.067763992 -0.15022981 0.31911254
0.11429706 -0.14862388 0.30789787
-0.10982817 -0.13423595 0.30968201
0.066534296 -0.1403829 0.31896996
0.091505386 -0.14018364 0.3092761
0.11075225 -0.1275385 0.31300986
0.13373062 -0.13351603 0.30818182
-0.13921522 -0.11585231 0.31422037
-0.12666115 -0.11958174 0.30993068
0.11486462 -0.11590537 0.31430048
0.14225048 -0.11388775 0.31256533
-0.14256439 -0.098128229 0.31099635
-0.12502173 -0.10341129 0.31973475
-0.15783221 -0.083051778 0.30987385
0.13875252 -0.086702384 0.31223628
0.15885498 -0.085361294 0.30910203
-0.1566854 -0.073277369 0.31247449
-0.1441378 -0.06167639 0.30935875
0.17700645 -0.061156668 0.31236345
-0.15964268 -0.055895772 0.31138843
0.15913503 -0.055882908 0.31177819
-0.166389 -0.037283909 0.31454784
0.16415213 -0.032473911 0.31441855
0.17592429 -0.035226803 0.3165105
-0.14700884 -0.0123452 0.31919444
0.18381706 -0.022522196 0.31551945
-0.1895417 0.0015073568 0.30792689
-0.16862808 0.0070432844 0.31916144
-0.16762805 -0.0091519868 0.31559056
0.16556589 -0.0038900166 0.31187725
0.18265775 -0.0091519868 0.31119204
-0.16762805 0.014150611 0.31559056
0.16447629 0.015676424 0.31558681
0.18265775 0.016857214 0.31119204
-0.1653143 0.037493367 0.31437302
-0.14620912 0.03679413 0.31473476
0.16415213 0.037491862 0.31441855
0.15591419 0.055802085 0.31237131
0.17594047 0.042997338 0.31649774
-0.16145085 0.064685136 0.31182677
-0.13990282 0.068779707 0.31088877
0.13874647 0.068470746 0.3123439
0.15916401 0.060943641 0.31179363
-0.15245762 0.084584989 0.30760753
0.14485133 0.085852019 0.31024337
0.15192461 0.084560148 0.30798402
-0.1389659 0.10052874 0.31872654
-0.1215639 0.092739075 0.31100214
0.11465731 0.10057271 0.31879306
0.12931393 0.10781346 0.30911022
-0.12508118 0.10866957 0.31976542
-0.10575345 0.11419947 0.30993068
0.13453458 0.122564 0.31585497
-0.1110402 0.12988451 0.31336725
-0.086245053 0.12938517 0.30964383
0.089571789 0.13103537 0.31774712
0.11187815 0.13048798 0.31061524
-0.092332073 0.14885519 0.30871212
-0.069205068 0.153523 0.31601095
-0.065672517 0.14280145 0.30957958
-0.04247357 0.15209378 0.31004208
-0.01676942 0.15765558 0.31098855
0.045034081 0.15384002 0.31542334
0.069592863 0.1546572 0.31136805
0.093522221 0.14318037 0.30789602
-0.070949629 0.1620905 0.31548125
-0.05668477 0.15916966 0.3114239
-0.026986737 0.1666448 0.31621903
0.011133054 0.1601387 0.31234184
0.025368836 0.17279692 0.30904227
