ply
format ascii 1.0
comment PCL generated
element vertex 1349
property float x
property float y
property float z
element camera 0
property float view_px
property float view_py
property float view_pz
property float x_axisx
property float x_axisy
property float x_axisz
property float y_axisx
property float y_axisy
property float y_axisz
property float z_axisx
property float z_axisy
property float z_axisz
property float focal
property float scalex
property float scaley
property float centerx
property float centery
property int viewportx
property int viewporty
property float k1
property float k2
end_header
-0.33393949 -0.13264704 -0.26783752
-0.31496054 -0.13210714 -0.27563035
-0.24534053 -0.13281406 -0.26542735
-0.31665465 -0.11506562 -0.26462662
-0.29810241 -0.11475056 -0.26974308
-0.27981278 -0.11451708 -0.27353311
-0.2620635 -0.1145107 -0.2736398
-0.2456041 -0.11514802 -0.26328743
-0.28114131 -0.097298495 -0.26394534
-0.26305073 -0.09718255 -0.26609612
0.18153247 0.31158444 -0.26985013
0.19926071 0.31152138 -0.27036178
0.21689969 0.31132799 -0.27193069
0.16402066 0.3121599 -0.26517642
0.16375405 0.32931215 -0.27012372
0.3058576 0.32932457 -0.27002859
0.39507988 0.3474566 -0.26736057
0.46620682 0.36523601 -0.26738453
-0.2820504 -0.34768701 -0.25738454
-0.24768862 -0.33152416 -0.24636328
-0.48031172 -0.31315038 -0.24929786
-0.24656239 -0.31224233 -0.25550687
-0.49881884 -0.29557961 -0.24676383
-0.47835073 -0.29401147 -0.25808191
-0.24586964 -0.29358882 -0.26113129
-0.22987175 -0.25988242 -0.24525774
-0.31805322 -0.09775129 -0.25554276
-0.29944623 -0.097481035 -0.26055562
-0.2461209 -0.097559966 -0.25909126
-0.30097944 -0.080130093 -0.25007284
-0.28253442 -0.079953641 -0.25389123
-0.26414981 -0.079777978 -0.25769746
-0.24677476 -0.079958677 -0.25378275
-0.26562834 -0.062355541 -0.24639952
-0.24756303 -0.062317677 -0.24738276
0.11118417 0.31440979 -0.24690962
0.12884736 0.31352311 -0.25410855
0.14644219 0.3127498 -0.26038766
0.12893611 0.33170995 -0.25180233
0.14647433 0.33067736 -0.2596916
0.32665595 0.33255038 -0.24537921
0.41511232 0.34938481 -0.25344491
-0.26587641 -0.34976923 -0.24450397
-0.24960968 -0.35199001 -0.23076594
-0.5204047 -0.31575483 -0.23149157
-0.50038755 -0.3145147 -0.23997092
-0.23094404 -0.31509939 -0.23597193
-0.519283 -0.29704449 -0.23619223
-0.23037231 -0.29638898 -0.24092305
-0.23001361 -0.27799615 -0.24402952
-0.22998971 -0.24204728 -0.24423623
-0.22998127 -0.2240786 -0.24430931
-0.23004311 -0.2061719 -0.24377394
-0.23016679 -0.18830641 -0.2427026
-0.23015836 -0.17032771 -0.24277556
-0.23031458 -0.15245961 -0.24142301
-0.23033848 -0.13449144 -0.24121571
-0.23039204 -0.11653595 -0.2407521
-0.23054707 -0.098620549 -0.23940933
-0.31981453 -0.080405779 -0.24410248
-0.23075318 -0.080705017 -0.23762429
-0.3025552 -0.062628739 -0.2392993
-0.28395826 -0.062462658 -0.24361598
-0.23099211 -0.062773012 -0.23555529
-0.30411676 -0.044958748 -0.22862291
-0.28541854 -0.044821508 -0.23307717
-0.26712447 -0.044763386 -0.23496675
-0.24874532 -0.04467658 -0.23778367
-0.23155937 -0.044896491 -0.23064291
0.093588307 0.2981917 -0.23199582
0.11153907 0.29780054 -0.23538363
0.12948841 0.29756159 -0.23745322
0.075546861 0.31635571 -0.23111033
0.09340357 0.3152613 -0.23999536
0.23709759 0.31489196 -0.24299479
0.25628293 0.31651193 -0.22984254
0.34632728 0.33426976 -0.23224163
0.43458655 0.35068104 -0.24409044
0.45426375 0.35202351 -0.23440266
0.47315645 0.35266542 -0.22976875
0.49143499 0.37089452 -0.2286967
-0.32368627 -0.3720547 -0.21895528
-0.30525288 -0.37173301 -0.22085536
-0.28709829 -0.37171626 -0.22095454
-0.26947707 -0.3723878 -0.21698964
-0.2333301 -0.35448897 -0.21530759
-0.23194501 -0.33445868 -0.22730303
-0.54203606 -0.31787592 -0.21698964
-0.21511835 -0.31808364 -0.2155695
-0.56037754 -0.29979849 -0.2163173
-0.53969014 -0.29838571 -0.22651279
-0.21465972 -0.29931235 -0.21982491
-0.21446979 -0.28093299 -0.2215873
-0.21450722 -0.2628406 -0.22123992
-0.21455804 -0.24475709 -0.22076845
-0.21447915 -0.22653678 -0.22150052
-0.21480304 -0.20870167 -0.21849513
-0.21498275 -0.19069663 -0.21682787
-0.21504983 -0.1725776 -0.216205
-0.21527696 -0.15456314 -0.21409774
-0.21535096 -0.13641796 -0.21341085
-0.21548563 -0.11829667 -0.21216154
-0.21555704 -0.08191178 -0.21149886
-0.3230463 -0.063251898 -0.22311175
-0.2155503 -0.063696459 -0.21156132
-0.30592391 -0.027162949 -0.21626735
-0.28720319 -0.027072253 -0.22019756
-0.26866779 -0.027003454 -0.22317374
-0.25012287 -0.026924381 -0.22659945
-0.23230889 -0.026981005 -0.22415161
-0.27020547 -0.0090614241 -0.21142387
-0.2516427 -0.0090178233 -0.21425974
-0.23340067 -0.0090109874 -0.21469665
0.039423071 0.30048335 -0.2121489
0.057578444 0.299696 -0.21896756
0.075642571 0.29901177 -0.22489381
0.057561141 0.31757456 -0.22121513
0.36583784 0.33564615 -0.22172368
-0.25263438 -0.37421352 -0.20620847
-0.2170254 -0.35730726 -0.19787431
-0.2158553 -0.337318 -0.20873129
-0.56306994 -0.31952444 -0.2057184
-0.58151489 -0.30136633 -0.20500183
-0.19870511 -0.30235046 -0.1978997
-0.19873929 -0.28407767 -0.19755793
-0.19883686 -0.26587752 -0.19658315
-0.19896495 -0.24769765 -0.19530296
-0.21560425 -0.10014816 -0.211061
-0.21585935 -0.045572437 -0.2086935
-0.21609741 -0.027388895 -0.20648491
-0.28883889 -0.0091081206 -0.20839274
-0.21657482 -0.009205753 -0.20205498
-0.29058415 0.0090317167 -0.19579756
-0.27190909 0.0090517215 -0.1984055
-0.25312576 0.0090811569 -0.20221901
-0.23456806 0.0090994146 -0.20458674
-0.21712905 0.0090403482 -0.19691241
0.0027413517 0.30247834 -0.19487166
0.021153022 0.30141616 -0.20407069
0.14872453 0.30061918 -0.2109735
0.16747639 0.30176544 -0.20104611
0.021135373 0.31996858 -0.20177758
0.039423071 0.3187882 -0.21136117
0.2763795 0.31900418 -0.20960844
0.29611447 0.32072708 -0.19561994
0.38599521 0.33745632 -0.20789099
0.40542382 0.33846602 -0.20017481
0.49527735 0.35558054 -0.20873117
-0.23582906 -0.37633762 -0.19366634
-0.21902353 -0.3787649 -0.17933404
-0.20066342 -0.36046651 -0.17833126
-0.19973007 -0.34056234 -0.18765795
-0.58507723 -0.32161999 -0.19139135
-0.19907159 -0.32120374 -0.19423747
-0.6241405 -0.30441636 -0.18299079
-0.6028387 -0.30294061 -0.19364071
-0.60625398 -0.28624907 -0.18096483
-0.58569717 -0.28519464 -0.18902266
-0.19909194 -0.22949696 -0.19403422
-0.19923934 -0.21129695 -0.19256115
-0.19953224 -0.19320869 -0.1896342
-0.19961515 -0.17489773 -0.18880582
-0.19985911 -0.15669774 -0.18636835
-0.20012021 -0.13847223 -0.18375909
-0.20042682 -0.1202345 -0.1806953
-0.20066726 -0.10191382 -0.17829263
-0.30992931 -0.0094085019 -0.18888211
-0.29291883 0.027365424 -0.1789484
-0.2736885 0.027365474 -0.18480873
-0.25480136 0.027365524 -0.18861473
-0.23603591 0.027365575 -0.19187462
-0.21807554 0.027365474 -0.18813014
0.0025327727 0.28559765 -0.18132412
0.021032963 0.28482702 -0.18847418
-0.015802976 0.30349573 -0.1860615
0.18638468 0.30291837 -0.1910603
-0.015855551 0.32218486 -0.18378472
0.0026993118 0.32115555 -0.19214153
0.31557101 0.32192329 -0.18590832
0.33495849 0.3229008 -0.17797101
0.42534962 0.33978209 -0.19011843
0.44496018 0.34073496 -0.18283713
0.46409813 0.34125572 -0.17885828
0.51844805 0.35899815 -0.18406653
-0.29382256 -0.39844847 -0.17242622
-0.27497101 -0.39799124 -0.17500842
-0.25693384 -0.39864755 -0.17130125
-0.23928669 -0.39998952 -0.16372228
-0.20206025 -0.38129863 -0.16437304
-0.18335009 -0.34392309 -0.16582942
-0.62847167 -0.32513452 -0.16736186
-0.18288526 -0.32462266 -0.17086148
-0.60720277 -0.32365999 -0.1774435
-0.64587653 -0.30602357 -0.17139173
-0.18281594 -0.30599311 -0.17161155
-0.64850253 -0.28870842 -0.16217196
-0.62742299 -0.28753412 -0.17114604
-0.18289363 -0.28758317 -0.17077065
-0.18291515 -0.26908553 -0.17053771
-0.1832301 -0.25095102 -0.16712809
-0.18335488 -0.23254219 -0.16577733
-0.18361211 -0.21425596 -0.16299295
-0.20077157 -0.083493613 -0.17725027
-0.20080635 -0.06503059 -0.17690265
-0.20085016 -0.046564728 -0.17646492
-0.2009753 -0.028111188 -0.17521465
-0.20110184 -0.0096383933 -0.17395031
-0.20133069 0.0088459309 -0.17166328
-0.20158592 0.027365474 -0.16911292
-0.27541554 0.045885418 -0.17161155
-0.25659007 0.045866359 -0.17409241
-0.23784059 0.045849696 -0.17624593
-0.21946052 0.04585718 -0.17527914
-0.20223749 0.045954663 -0.16260207
-0.23946118 0.064550087 -0.16221106
-0.22080004 0.064540163 -0.16284978
-0.034828246 0.28724509 -0.16603732
-0.016095199 0.28645059 -0.17340791
0.039423071 0.28735709 -0.16499746
-0.053274691 0.30545872 -0.16906106
-0.034484163 0.3045176 -0.17721164
0.20577055 0.30461124 -0.17640042
-0.05350624 0.32473922 -0.16304505
-0.034618385 0.3235313 -0.17285252
0.35412127 0.32355204 -0.17268455
0.37372693 0.32452455 -0.16478932
0.48295692 0.34153509 -0.17672253
0.50183183 0.34180358 -0.17467308
-0.22148988 -0.40127724 -0.1564492
-0.1850009 -0.38407853 -0.14795852
-0.18383977 -0.36334446 -0.16052842
-0.65077108 -0.32705849 -0.15420735
-0.16643637 -0.32821003 -0.14633524
-0.69024402 -0.30940396 -0.14699543
-0.66808033 -0.30776766 -0.1588043
-0.16646209 -0.30953759 -0.1460315
-0.66965926 -0.28985551 -0.15340662
-0.18388921 -0.19594686 -0.15999317
-0.18420574 -0.17762767 -0.15656698
-0.18440068 -0.15915431 -0.15445673
-0.18468335 -0.14071435 -0.15139627
-0.18492296 -0.12219854 -0.14880228
-0.18509844 -0.10360536 -0.14690316
-0.18526441 -0.084978156 -0.14510655
-0.2773501 0.064632952 -0.15682888
-0.25845051 0.064599678 -0.15898728
-0.20306575 0.064671464 -0.15432537
-0.26023024 0.083550461 -0.14453781
-0.24134165 0.083518483 -0.14592588
-0.22243047 0.083477072 -0.14772117
-0.072813898 0.28925169 -0.14741755
-0.053746015 0.28823888 -0.15681565
0.058073029 0.28846478 -0.154719
-0.091380857 0.30765963 -0.15000129
-0.072263241 0.30658126 -0.15934002
0.22543523 0.30638376 -0.16105044
0.24474266 0.3073467 -0.15271044
-0.091676675 0.32702214 -0.14451134
-0.072484545 0.32578579 -0.15454841
0.39286721 0.32500252 -0.16090703
0.41237983 0.32573086 -0.15499437
0.43163061 0.32619023 -0.15126467
0.45127398 0.32689318 -0.14555573
0.52404124 0.34423116 -0.15612149
-0.26199836 -0.42476663 -0.1301825
-0.20427841 -0.40379879 -0.14220762
-0.1867741 -0.40617919 -0.12876308
-0.16800153 -0.38748372 -0.12785149
-0.16707015 -0.36684883 -0.13885057
-0.1666401 -0.34729481 -0.14392948
-0.71250635 -0.31100276 -0.13545728
-0.71304005 -0.29243138 -0.13372374
-0.69104147 -0.29104212 -0.14433944
-0.16667709 -0.29115283 -0.14349258
-0.16685322 -0.27267277 -0.1414125
-0.16707355 -0.25422078 -0.13881063
-0.16735297 -0.23580402 -0.13551056
-0.16757777 -0.21727195 -0.13285601
-0.16800949 -0.19892457 -0.12775779
-0.18548933 -0.066347912 -0.14267159
-0.18560317 -0.047643282 -0.14143884
-0.18579689 -0.028939495 -0.13934219
-0.18597493 -0.010200938 -0.13741446
-0.18608928 0.0085727889 -0.13617671
-0.18607205 0.027365524 -0.13636303
-0.18616065 0.046164148 -0.13540399
-0.18640959 0.06500423 -0.13270926
-0.27966982 0.083675884 -0.13910294
-0.20421478 0.083589524 -0.1428436
-0.26228046 0.1027915 -0.1278919
-0.24335435 0.10277284 -0.1284951
-0.22418949 0.10268334 -0.13139975
-0.20552471 0.10273398 -0.12975395
-0.11137009 0.29125357 -0.12884331
-0.092044763 0.29030102 -0.13768065
0.076911934 0.28978747 -0.1424464
0.095794089 0.29043031 -0.13648295
-0.13028613 0.31021428 -0.12787843
-0.11071212 0.30886889 -0.13952792
0.26427674 0.30843246 -0.14330709
0.28318158 0.30862531 -0.1416378
0.30259261 0.30933291 -0.13551044
0.32196549 0.30990785 -0.13053036
-0.11115918 0.32852983 -0.13226831
0.47117227 0.32771266 -0.13890338
0.49102175 0.32843131 -0.13306963
0.51001573 0.32854471 -0.13214815
0.52904552 0.32867151 -0.13111889
-0.24390477 -0.42595911 -0.12372839
-0.22546792 -0.42673343 -0.11953723
-0.20739985 -0.42830759 -0.11101651
-0.16941676 -0.40929958 -0.11113894
-0.15015861 -0.37075615 -0.11468124
-0.14979729 -0.35107517 -0.11937523
-0.14975467 -0.33207226 -0.1199286
-0.73519325 -0.31271014 -0.12313616
-0.14981911 -0.31327051 -0.11909139
-0.75762713 -0.29525 -0.112185
-0.73470503 -0.29361439 -0.12468314
-0.15009394 -0.29481348 -0.11552119
-0.15031525 -0.27621579 -0.11264658
-0.16824478 -0.18030237 -0.1249789
-0.16848978 -0.16164622 -0.12208581
-0.16872844 -0.14294045 -0.11926699
-0.16901124 -0.12422304 -0.11592746
-0.16917762 -0.10538042 -0.11396277
-0.18698722 0.083968036 -0.12645638
-0.18777987 0.10309967 -0.11787558
-0.24521416 0.12224457 -0.11238849
-0.22607747 0.12218694 -0.11388123
-0.20686641 0.12209216 -0.11634696
-0.13083035 0.29220426 -0.12002313
0.114863 0.29140523 -0.12743592
0.13400933 0.29220709 -0.11999595
0.15309638 0.29260337 -0.11632013
-0.14986277 0.31129423 -0.11852431
0.34115309 0.31023732 -0.12767732
0.36076584 0.31090304 -0.12191069
0.380059 0.31122872 -0.11909187
0.39975515 0.31183821 -0.1138134
0.4189164 0.31198543 -0.11253798
-0.15002829 0.33048746 -0.11637402
-0.13047302 0.32940304 -0.12518048
0.55095017 0.33049262 -0.1163336
-0.18921745 -0.42991558 -0.1023134
-0.15075201 -0.39101973 -0.10697258
-0.78011692 -0.31569776 -0.10157394
-0.75808841 -0.31442529 -0.11075819
-0.78118831 -0.29706228 -0.098337173
-0.15064183 -0.25773197 -0.1084038
-0.15089068 -0.2390739 -0.1051712
-0.15132907 -0.22061236 -0.099476457
-0.15158716 -0.20184672 -0.096124172
-0.16946051 -0.086571015 -0.11062229
-0.16958031 -0.067636095 -0.10920715
-0.1698527 -0.048734799 -0.10599041
-0.17005748 -0.029765559 -0.10357225
-0.17019534 -0.010746876 -0.10194373
-0.17040429 0.0082902666 -0.099476457
-0.1705752 0.027365474 -0.097457886
-0.17078257 0.046475004 -0.095009208
-0.26453155 0.12235123 -0.10961545
-0.18855548 0.12235662 -0.10947955
-0.24705252 0.1419557 -0.096467972
-0.22762844 0.14181612 -0.099490285
-0.20834479 0.14171994 -0.10157394
-0.18958348 0.14186855 -0.098350763
-0.17049611 0.29453537 -0.098391891
-0.15061668 0.29342106 -0.10873079
0.17239073 0.29330087 -0.10984695
0.19175404 0.29394469 -0.1038729
0.21104109 0.29432693 -0.10032701
0.23015514 0.29439029 -0.099737048
0.24945745 0.29468191 -0.097031713
0.26875994 0.29492509 -0.094774961
-0.18987945 0.31399366 -0.095146775
-0.16971755 0.31255716 -0.10758626
0.43817657 0.3121894 -0.11077189
0.45754051 0.31244552 -0.10855365
0.4774133 0.31301126 -0.10365415
0.49708378 0.31340334 -0.10025835
0.51680303 0.31379342 -0.096880555
0.53602761 0.31386819 -0.096234083
-0.16995329 0.33191285 -0.10480225
-0.17119265 -0.43215978 -0.09016633
-0.15176633 -0.4123702 -0.09379673
-0.13326168 -0.3947528 -0.084929824
-0.13291326 -0.37475255 -0.089959025
-0.13281271 -0.35538074 -0.091410041
-0.13281655 -0.33625159 -0.091354609
-0.80372864 -0.31756034 -0.088132501
-0.13311943 -0.31771949 -0.086982846
-0.8049075 -0.29885313 -0.084652185
-0.13330016 -0.29888961 -0.084374547
-0.13359606 -0.28022414 -0.080103278
-0.15179709 -0.18297666 -0.093397141
-0.15217784 -0.16423541 -0.088451028
-0.15244567 -0.14531639 -0.084971428
-0.15267783 -0.12631528 -0.081955433
-0.15281397 -0.10720052 -0.080186844
-0.17093542 0.06561242 -0.093203783
-0.17093894 0.084736973 -0.093162656
-0.17112947 0.10393002 -0.090912461
-0.17146105 0.12322194 -0.086996675
-0.17187262 0.14261763 -0.082136393
-0.24922565 0.16206811 -0.077648044
-0.22943422 0.16179413 -0.082734466
-0.20996046 0.16164894 -0.085429549
-0.19077453 0.16164729 -0.085457206
-0.15254724 0.27692685 -0.08365202
-0.13311657 0.27658948 -0.087024331
-0.11406679 0.27678642 -0.085054755
-0.095182665 0.27734759 -0.079448223
-0.19063362 0.29576498 -0.086982608
0.28829935 0.29538602 -0.09049809
0.30756739 0.29550985 -0.089350462
0.32692516 0.29570073 -0.087578654
0.34649345 0.29605189 -0.084318995
0.36607477 0.29637277 -0.081343055
0.38560045 0.29661459 -0.079099655
0.40476522 0.29656491 -0.079559565
0.42419565 0.2967062 -0.078248501
-0.21003684 0.31520399 -0.084666133
0.55617636 0.31445077 -0.091189027
-0.21031091 0.3347303 -0.081927657
-0.19019148 0.33351824 -0.091768861
-0.23011491 -0.45395228 -0.076418996
-0.21141312 -0.45501181 -0.070913553
-0.19262359 -0.45606518 -0.065440536
-0.15320957 -0.43495277 -0.075048327
-0.13405785 -0.41597465 -0.073438048
-0.11544945 -0.37917486 -0.062603235
-0.11540248 -0.35969836 -0.063366055
-0.11553567 -0.34066147 -0.061203361
-0.85139436 -0.32121527 -0.061754942
-0.8269248 -0.31917372 -0.076488614
-0.85055882 -0.30154085 -0.064114451
-0.82758862 -0.30017224 -0.074572325
-0.13386104 -0.26144138 -0.076279044
-0.13415885 -0.24265093 -0.071980119
-0.13451627 -0.22388035 -0.066821575
-0.1348193 -0.2049578 -0.062447667
-0.15305564 -0.088121764 -0.077047586
-0.1533238 -0.06900809 -0.073564053
-0.15350839 -0.049807064 -0.071166277
-0.15375075 -0.03058668 -0.068018198
-0.15402952 -0.011325037 -0.06439662
-0.15425685 0.0079975184 -0.061443686
-0.1725463 0.16225514 -0.074180365
-0.25108698 0.18230408 -0.061528444
-0.23125854 0.18204072 -0.065806985
-0.21148199 0.18176852 -0.070225358
-0.19199231 0.18164231 -0.072274566
-0.17324102 0.18203029 -0.065976143
-0.17364159 0.25979969 -0.06124568
-0.15397087 0.25943804 -0.065158367
-0.13474393 0.25958806 -0.063535452
-0.19233739 0.27843922 -0.068538666
-0.17244321 0.27775297 -0.075398088
-0.076327384 0.2781581 -0.071348548
-0.05726739 0.27876067 -0.065327644
-0.038023636 0.27906734 -0.062263846
-0.018694952 0.27921012 -0.060835481
-0.23137709 0.29816565 -0.064707041
-0.21085939 0.29690036 -0.076446652
0.44415757 0.29718825 -0.073774219
0.46380097 0.29742408 -0.071587324
0.48313814 0.29745299 -0.071320653
0.50273359 0.29763004 -0.069677591
0.52243608 0.29785278 -0.067610145
0.541475 0.29770121 -0.069016814
0.56115615 0.29789358 -0.067229986
-0.25095147 0.31773999 -0.06270206
-0.23047087 0.31653762 -0.073115826
0.57838756 0.31609648 -0.076935649
-0.2305842 0.33594528 -0.072064281
-0.15535519 -0.45958015 -0.047175884
-0.17405209 -0.45780545 -0.056397915
-0.13526499 -0.43846938 -0.056014538
-0.1161717 -0.4199695 -0.050875545
-0.11563941 -0.39905638 -0.059518576
-0.87611753 -0.32326716 -0.046946764
-0.11582022 -0.32193193 -0.056582689
-0.87665117 -0.30398056 -0.045472145
-0.11608828 -0.3030962 -0.052229881
-0.11638809 -0.28425685 -0.047361732
-0.11658124 -0.26514259 -0.044225335
-0.13500357 -0.18582268 -0.059787512
-0.13522562 -0.16668865 -0.05658257
-0.13552424 -0.14758182 -0.052272677
-0.13574269 -0.12833743 -0.049119949
-0.13601822 -0.10908896 -0.045142531
-0.15443993 0.027365474 -0.059065223
-0.15454581 0.046762317 -0.057689667
-0.15470979 0.066192083 -0.055559754
-0.15491128 0.085665807 -0.052942157
-0.15510222 0.1051756 -0.050461769
-0.15518466 0.12466943 -0.04939115
-0.15526274 0.14417702 -0.048376799
-0.15516704 0.1635786 -0.049619555
-0.15517476 0.18304369 -0.049519658
-0.25288811 0.20275214 -0.045930386
-0.23272946 0.20232065 -0.052158713
-0.21277341 0.2019631 -0.057320714
-0.19308299 0.20174488 -0.060467243
-0.17371589 0.20175192 -0.060368061
-0.15521652 0.2025412 -0.048977017
-0.21368563 0.22206441 -0.048205137
-0.19378737 0.22170751 -0.052842379
-0.17409539 0.22147319 -0.055886507
-0.1551308 0.22191924 -0.05009079
-0.19408903 0.24141826 -0.049576879
-0.17409059 0.24087921 -0.055943489
-0.15471962 0.24092245 -0.055431843
-0.13590312 0.24165319 -0.046803594
-0.21400788 0.2613017 -0.044984937
-0.19374132 0.26052979 -0.053340793
-0.11601985 0.26052979 -0.053340793
-0.23302925 0.28035682 -0.049377084
-0.21260878 0.27939731 -0.058966041
0.00063497201 0.27948815 -0.0580585
0.020015473 0.27966422 -0.056298614
0.039423071 0.27995455 -0.053398013
0.058858812 0.2800301 -0.052643061
0.078306392 0.28010696 -0.051873684
0.097795486 0.28031278 -0.049819589
0.11719015 0.28010848 -0.051859379
0.13666978 0.28020701 -0.050875545
0.1561501 0.28027406 -0.050204873
0.17547169 0.28002724 -0.052671552
0.1952959 0.2806589 -0.046360016
0.2147007 0.28054419 -0.047504663
0.23408246 0.28042257 -0.048719645
0.2535944 0.28047705 -0.048176765
0.27307242 0.28048557 -0.048090935
0.2923688 0.28031123 -0.049833775
0.31192315 0.28040123 -0.048934102
0.33159378 0.28058001 -0.047147036
0.35108769 0.2805931 -0.047018409
0.37061542 0.28063011 -0.046646237
0.39015877 0.28067461 -0.04620254
0.40973002 0.28073329 -0.045615077
-0.27227324 0.30009979 -0.046760798
-0.25160563 0.29899225 -0.057036877
0.58246869 0.29888824 -0.058001757
-0.27156276 0.31891462 -0.052528977
-0.27211997 0.33890858 -0.048005223
-0.25131416 0.33748525 -0.059561014
-0.13674393 -0.46198735 -0.034667969
-0.11695569 -0.44177073 -0.038145065
-0.097748466 -0.40374509 -0.031832933
-0.09766037 -0.38388488 -0.033468127
-0.097776569 -0.36463353 -0.031311512
-0.097920336 -0.34542385 -0.02864325
-0.9014923 -0.32547778 -0.030992866
-0.90227997 -0.30615434 -0.028861165
-0.11690954 -0.24621665 -0.038893819
-0.11717515 -0.22710663 -0.034581304
-0.11742292 -0.20790349 -0.03055799
-0.13633546 -0.089806862 -0.040563345
-0.13662291 -0.070437811 -0.036414862
-0.13684008 -0.050973669 -0.033280253
-0.13711506 -0.031480595 -0.029310942
-0.13724181 -0.011893375 -0.027481556
-0.25435886 0.22322015 -0.033193469
-0.23414505 0.22277129 -0.039023638
-0.13671789 0.22307767 -0.035043597
-0.25496811 0.24325217 -0.027917266
-0.23460823 0.24267571 -0.034725547
-0.21420166 0.24197097 -0.043048859
-0.11758824 0.24325597 -0.027873755
-0.25479209 0.2627376 -0.029441357
-0.23431581 0.26199871 -0.03743875
-0.097374193 0.26187509 -0.038778901
-0.27407977 0.28208646 -0.032093525
-0.25358424 0.2813051 -0.039901614
0.42954651 0.28094566 -0.043493629
0.44903642 0.28093562 -0.043594241
0.46871927 0.28104043 -0.042546153
0.48832425 0.28109217 -0.042029262
0.50794518 0.28114831 -0.041469097
0.52772427 0.2812821 -0.040131807
0.54721892 0.2812632 -0.040318727
0.56629252 0.28104335 -0.042517543
0.58669591 0.28145647 -0.038389921
0.60854363 0.28248852 -0.028077006
-0.29281956 0.30097714 -0.038620472
-0.29265186 0.32037267 -0.039901614
-0.29351082 0.34071502 -0.033337831
-0.19722641 -0.48537496 -0.015613794
-0.17757392 -0.48553655 -0.014806986
-0.11820249 -0.46521443 -0.017899632
-0.098611392 -0.44589552 -0.015819073
-0.09806364 -0.42437649 -0.025984049
-0.098160125 -0.32641983 -0.024193525
-0.92617148 -0.30763668 -0.017533541
-0.098443292 -0.30745286 -0.018938541
-0.09858375 -0.28807881 -0.01633215
-0.098831393 -0.26889414 -0.011736274
-0.11767326 -0.18864205 -0.026492953
-0.11796034 -0.1693638 -0.021831512
-0.11820697 -0.1499684 -0.017826557
-0.1184906 -0.13054816 -0.013221145
-0.13744438 0.0077135507 -0.02455771
-0.13765857 0.027365424 -0.021466374
-0.13806808 0.047086645 -0.015555382
-0.1382308 0.066844083 -0.013206601
-0.13831025 0.086609952 -0.012059927
-0.13837346 0.1063861 -0.011147738
-0.13830414 0.16559771 -0.012148023
-0.13798282 0.18505961 -0.016786575
-0.13750899 0.20429739 -0.023625135
-0.27644044 0.24452154 -0.012927413
-0.098857559 0.24466358 -0.011250854
-0.27523771 0.26336113 -0.022692323
-0.078493953 0.26319948 -0.024441004
-0.059293903 0.26428622 -0.012677431
0.3357234 0.2644057 -0.011383295
0.35547134 0.26440161 -0.011427522
0.37506846 0.2642917 -0.012618661
0.39494881 0.26438251 -0.011633277
0.41456693 0.26429835 -0.012545109
0.43435431 0.26432434 -0.012265921
0.45406285 0.26430243 -0.012500882
0.47362098 0.26420057 -0.013603091
0.49341184 0.264229 -0.013294578
0.51292801 0.2641179 -0.014498711
0.53273362 0.26415461 -0.014102459
0.55236614 0.2641083 -0.014601469
0.57194221 0.26404065 -0.015335202
0.59121346 0.26384693 -0.01743114
0.61219484 0.26437446 -0.01172173
-0.29549673 0.28348061 -0.018162966
-0.31494254 0.32267013 -0.020005703
-0.15832934 -0.48679081 -0.0085403919
-0.13926288 -0.48883834 0.0016897917
-0.09955328 -0.46897861 0.0016601086
-0.079681672 -0.42920277 0.0012737513
-0.07949733 -0.40867603 -0.0027171373
-0.079481587 -0.3888008 -0.0030579567
-0.079612389 -0.36941943 -0.00022614002
-0.07979846 -0.35016945 0.0038022995
-0.099103011 -0.24968672 -0.0066958666
-0.099374093 -0.23040074 -0.0016651154
-0.099618189 -0.21099107 0.0028647184
-0.11869625 -0.11098893 -0.0098816156
-0.1189789 -0.091436088 -0.005292058
-0.11916301 -0.071750939 -0.002302289
-0.11948214 -0.052087188 0.0028795004
-0.1385408 0.12623434 -0.0087321997
-0.13853672 0.14600545 -0.0087910891
-0.11955731 0.20621842 0.0041000843
-0.11869896 0.22501789 -0.009837389
0.59600526 0.24602287 0.0048000813
0.61601627 0.24607314 0.0053963661
-0.039818905 0.26509142 -0.0039608479
-0.020225883 0.26596135 0.00545609
0.099083044 0.26600525 0.0059331656
0.11893023 0.26588699 0.0046513081
0.1387749 0.26580992 0.0038172007
0.15858549 0.2656903 0.0025225878
0.17834496 0.26551723 0.00064980984
0.1980201 0.26526099 -0.0021244287
0.21778214 0.26517752 -0.0030281544
0.23751321 0.26507366 -0.0041533709
0.2571432 0.26487839 -0.0062674284
0.27680361 0.26474595 -0.0076996088
0.29648349 0.26465189 -0.0087174177
0.31617317 0.26457992 -0.0094987154
-0.31651899 0.30420914 -0.0086288452
-0.33738801 0.32484776 -0.0011459589
-0.31628418 0.34354976 -0.010323405
-0.33843648 0.34556299 0.0060225725
-0.1200467 -0.49091145 0.012047052
-0.080008566 -0.45036107 0.0083512068
-0.080074161 -0.33112621 0.0097714663
-0.080188937 -0.3115353 0.012256742
-0.080382384 -0.29211581 0.016444564
-0.080622427 -0.27274826 0.021641731
-0.099865548 -0.19151661 0.0074551105
-0.10014205 -0.17201325 0.012586474
-0.10040911 -0.15241881 0.01754272
-0.10058934 -0.13264869 0.020887375
-0.11972899 -0.03231658 0.0068879128
-0.1199637 -0.012481267 0.010699153
-0.12014274 0.0074196029 0.013606191
-0.12029993 0.027365424 0.016159058
-0.12052707 0.047359288 0.019846797
-0.12028236 0.18707092 0.015873313
-0.10013235 0.22673033 0.012406468
-0.079949245 0.24621458 0.0070669651
0.35969138 0.24754971 0.022835016
0.3794888 0.24740797 0.021158934
0.39922318 0.2472433 0.019213796
0.41901162 0.24712725 0.017843485
0.43886954 0.24706095 0.017060995
0.45857695 0.24692221 0.015422583
0.47825441 0.24678117 0.013756156
0.4981057 0.24673542 0.013216257
0.5175972 0.24652864 0.010773897
0.5373714 0.24646269 0.0099958181
0.55714262 0.24640062 0.0092630386
0.57676297 0.24628168 0.0078582764
0.63892293 0.24718209 0.018490911
-0.00035575405 0.26603848 0.0062910318
0.019509284 0.26633081 0.0094573498
0.039423071 0.26635996 0.0097714663
0.059331447 0.2662659 0.0087547302
0.079261236 0.26639447 0.010145307
-0.33885798 0.30609885 0.0089042187
-0.35932517 0.32642657 0.012526393
-0.35997704 0.34688565 0.01676023
-0.10077903 -0.49338523 0.024407268
-0.080718026 -0.47322252 0.023711443
-0.061144024 -0.45535657 0.035390258
-0.060910866 -0.43417075 0.029332876
-0.060856543 -0.41386488 0.027921438
-0.06090036 -0.39399293 0.02905941
-0.061065406 -0.37458843 0.033347607
-0.061220415 -0.35507977 0.037374854
-0.080897748 -0.2533831 0.027602911
-0.081139885 -0.23385429 0.03284502
-0.081354745 -0.21419016 0.037497044
-0.10083856 -0.11289614 0.025511861
-0.10109029 -0.093074545 0.030183315
-0.1013651 -0.073197566 0.035283446
-0.10158408 -0.053210042 0.039347291
-0.12072875 0.067403391 0.023122191
-0.1209263 0.087496333 0.026329875
-0.12093469 0.10754438 0.026466131
-0.12104207 0.12765612 0.028209686
-0.12093843 0.14763652 0.026526809
-0.12073154 0.16750062 0.02316761
-0.1011968 0.2081624 0.032160044
0.54158121 0.22822866 0.03187108
0.56136322 0.22811165 0.030350447
0.58092034 0.22792014 0.027860641
0.60027385 0.22766936 0.024603844
0.6200645 0.22758673 0.023530245
0.64103073 0.22790124 0.027618051
-0.081182793 0.22837527 0.033774257
0.50235605 0.22864063 0.037222028
0.52204645 0.22845854 0.034856439
-0.060725361 0.24769194 0.024513006
-0.041068673 0.24871771 0.036626458
0.2205644 0.24876046 0.037130356
0.2404575 0.24850324 0.034094095
0.26037395 0.24831636 0.03188622
0.28020909 0.24808592 0.029165864
0.30004081 0.2478881 0.02682972
0.31992841 0.24776238 0.025345445
0.33978805 0.24763303 0.02381742
-0.36167434 0.30813351 0.027784944
-0.38163367 0.32812038 0.027193546
-0.38215876 0.34857067 0.030441642
-0.16268936 -0.51833826 0.048098207
-0.14216173 -0.51738894 0.04353106
-0.1226053 -0.51948041 0.053593278
-0.0816129 -0.49712375 0.043086052
-0.061582774 -0.47766373 0.046789408
-0.06137649 -0.33551297 0.041429877
-0.061580405 -0.31604627 0.046727896
-0.06175603 -0.29640761 0.051290631
-0.081544884 -0.19440912 0.041613698
-0.081734218 -0.17456338 0.045712709
-0.081972599 -0.15472811 0.050873756
-0.082196161 -0.13479352 0.05571425
-0.10184098 -0.033176318 0.044114709
-0.1020407 -0.013052845 0.047820807
-0.10225014 0.0071263071 0.051707506
-0.10246938 0.027365474 0.055776119
-0.10240512 0.16919366 0.054583788
-0.1018716 0.18884508 0.044682741
0.64756221 0.18953584 0.055899978
-0.082186855 0.20978045 0.055512667
0.52594292 0.20981038 0.055946469
0.54589868 0.20969659 0.054304957
0.56577075 0.20956269 0.05237174
0.5852868 0.20932007 0.048868537
0.60460508 0.20903112 0.044698119
0.62436169 0.20889825 0.042779207
0.64417088 0.20878975 0.041215062
-0.061814889 0.22984137 0.052820086
0.34351945 0.23009649 0.056132555
0.36336553 0.22982939 0.052665591
0.38332897 0.22966295 0.050503492
0.40309316 0.22940433 0.047143459
0.42315528 0.22932975 0.046174049
0.44301811 0.22916292 0.044007182
0.46300679 0.22907202 0.042825103
0.48282436 0.22891141 0.040740371
-0.021173332 0.24955231 0.046481609
-0.0011014119 0.2502501 0.054722905
0.10023233 0.25033271 0.055698633
0.12041916 0.25010461 0.053005695
0.14056474 0.24987723 0.050318003
0.16066065 0.24963422 0.047451377
0.18060771 0.24922714 0.042641163
0.20063633 0.24903356 0.040357351
-0.38539934 0.3105804 0.050487876
-0.40407419 0.32974997 0.041307211
-0.42672637 0.35164326 0.055388808
-0.4044404 0.35017526 0.043469906
-0.10287126 -0.52148426 0.06323421
-0.08297468 -0.52342445 0.072569728
-0.062242731 -0.50129676 0.063935637
-0.041945592 -0.4608466 0.065105319
-0.041795962 -0.43964392 0.060245991
-0.041833319 -0.41954464 0.061459064
-0.041884139 -0.39949736 0.063109636
-0.041983567 -0.37966767 0.066338658
-0.042142101 -0.36006919 0.071487188
-0.061969243 -0.27681157 0.056830168
-0.062175579 -0.2571108 0.062190771
-0.062334023 -0.237203 0.066307425
-0.062498406 -0.21724606 0.070578098
-0.082405485 -0.11476782 0.06024611
-0.082654431 -0.094712049 0.065636039
-0.082897179 -0.074568018 0.070891619
-0.10261982 0.047657374 0.05856812
-0.10278987 0.067997769 0.061723709
-0.10293006 0.088373832 0.064325571
-0.10296369 0.10872924 0.064949393
-0.10294183 0.12905456 0.064543843
-0.10268512 0.14917246 0.059779644
0.65150607 0.1701847 0.072977543
-0.082892112 0.19045225 0.070781708
0.56935513 0.19042152 0.070280433
0.58919722 0.19026148 0.067682624
0.60881543 0.19004895 0.064231753
0.62816387 0.18977666 0.059810758
0.67053699 0.1902335 0.067229271
0.426743 0.21083276 0.070703506
0.44687268 0.21071796 0.069043398
0.46679276 0.21052395 0.06624496
0.48665762 0.21032494 0.063374639
0.50628388 0.21005011 0.059406757
-0.042054325 0.23105891 0.068636656
0.24319729 0.23113973 0.06968534
0.2634263 0.23100482 0.067932844
0.28342676 0.23070189 0.063997984
0.30358267 0.23056521 0.062222004
0.32359922 0.23034844 0.059406877
0.019134935 0.25053507 0.058086634
0.039423071 0.25066119 0.059577703
0.059726395 0.25070184 0.060059428
0.080003172 0.2505559 0.058335066
-0.40875298 0.3125684 0.068934083
-0.45007807 0.3333036 0.072083235
-0.42697608 0.3315388 0.056799173
-0.44975659 0.35348532 0.070343137
-0.063088 -0.52619439 0.085896134
-0.042644389 -0.50607312 0.087799549
-0.042217001 -0.48288491 0.073919654
-0.042211205 -0.33998892 0.073731303
-0.042421632 -0.32047448 0.080565095
-0.042610683 -0.30076948 0.086704731
-0.062700242 -0.19730578 0.075821877
-0.062892534 -0.17726576 0.080817938
-0.063100815 -0.15717751 0.086229086
-0.08310964 -0.054323018 0.075491548
-0.083352722 -0.03402254 0.080754757
-0.083528735 -0.013618438 0.084565401
-0.083739743 0.0068382472 0.089133501
-0.083449073 0.17071617 0.082840443
0.57299185 0.1710186 0.088450551
0.59298611 0.17088185 0.085912108
0.61269689 0.17068399 0.082239866
0.63229358 0.17047206 0.078309536
0.6730684 0.17044666 0.077836871
0.47041586 0.1915531 0.088656902
0.49036172 0.19134313 0.085246563
0.51002729 0.19105391 0.080549598
0.52980393 0.19082578 0.076844811
0.54959798 0.19062144 0.073527217
-0.062687516 0.21116456 0.075491667
0.38681945 0.21128106 0.077175498
0.40680563 0.21105675 0.073935509
0.32673791 0.21206784 0.088529944
0.34683004 0.21180964 0.084802866
0.36694193 0.21159491 0.081702352
-0.021984529 0.23205738 0.08160758
0.16255507 0.2325854 0.088466525
0.18272707 0.23208542 0.081971049
0.2030085 0.2318473 0.078877091
0.22319055 0.2315516 0.075035453
-0.4733825 0.33504882 0.087196469
-0.47301027 0.35532293 0.085262299
-0.12572986 -0.55066991 0.10433006
-0.043212824 -0.5304268 0.10625994
-0.022434406 -0.48811349 0.10108769
-0.022324272 -0.46661332 0.096318841
-0.022326484 -0.44604778 0.096414685
-0.022344571 -0.42559722 0.097197771
-0.022362292 -0.40513211 0.09796524
-0.022433292 -0.38501018 0.10103965
-0.022505574 -0.36484933 0.10416937
-0.04276333 -0.28083351 0.091662288
-0.042873278 -0.26067182 0.095232964
-0.043012612 -0.24055046 0.099757671
-0.043169737 -0.22041297 0.10486066
-0.063265227 -0.1369359 0.090500593
-0.063437536 -0.11663941 0.094977498
-0.063687533 -0.09636727 0.10147262
-0.083902873 0.027365424 0.092665672
-0.084069408 0.047947429 0.096271038
-0.084223799 0.06858097 0.099613786
-0.084318541 0.089236259 0.10166514
-0.084340028 0.10987429 0.10213017
-0.084155038 0.13034728 0.0981251
0.65892851 0.13061638 0.10511792
0.67918366 0.13055272 0.10346258
-0.083880067 0.15066858 0.092171669
0.5966807 0.15120049 0.10368752
0.61621749 0.15096426 0.098573089
0.63591486 0.15077743 0.094530821
0.65564835 0.15061051 0.090914369
0.67601079 0.15057598 0.090166807
0.49377066 0.17193057 0.10537493
0.51370919 0.17171335 0.10134435
0.53354645 0.17148471 0.097101808
0.55337626 0.17127228 0.093159556
-0.063371859 0.19183733 0.093271017
0.39028478 0.19247685 0.10365522
0.41023058 0.19216868 0.098653078
0.43033308 0.1919591 0.095248818
0.45044091 0.19177252 0.092219591
-0.04281386 0.21239851 0.093302965
0.24601901 0.21330178 0.10634065
0.26630715 0.21299794 0.10195374
0.28651282 0.21268274 0.097405434
0.30666915 0.21238196 0.093063951
-0.001668416 0.23282294 0.091550946
0.018817479 0.23342134 0.099325657
0.039423071 0.23362495 0.10196972
0.060056061 0.23369539 0.10288453
0.080669284 0.23359661 0.10160089
0.10128129 0.23355953 0.10112
0.1218277 0.23337699 0.09874928
0.14223456 0.23298851 0.093701363
-0.49762651 0.33720183 0.10584152
-0.49685803 0.35738438 0.10200191
-0.10540079 -0.55193001 0.11017644
-0.084955186 -0.55306649 0.11544871
-0.064443603 -0.55428803 0.12111592
-0.022712588 -0.51114368 0.11313343
-0.02259662 -0.34475264 0.1081121
-0.022727538 -0.32482135 0.11378062
-0.022863135 -0.30482769 0.11965215
-0.043334417 -0.20021765 0.11020875
-0.043486282 -0.17990799 0.1151408
-0.043659247 -0.15956974 0.12075794
-0.06389039 -0.075948 0.10674286
-0.064131379 -0.055478096 0.11300421
-0.064284138 -0.034858823 0.11697268
-0.064446732 -0.014182581 0.1211971
0.66230011 0.11041584 0.119717
0.6822955 0.11031671 0.11650264
0.60005969 0.13118702 0.11994493
0.61991078 0.13102393 0.11570799
0.63963115 0.13084961 0.11117768
0.70316917 0.13107586 0.11705375
-0.064401031 0.15195446 0.12000978
0.51720971 0.15200545 0.12111592
0.53726262 0.1518254 0.11721599
0.55712682 0.15161437 0.11264837
0.57685608 0.15138853 0.10775769
-0.063950524 0.17208837 0.10830557
0.41361615 0.17288484 0.12308633
0.43380252 0.17266329 0.11896944
0.45391253 0.17243683 0.11476839
0.47394165 0.17220491 0.11046696
-0.043455869 0.19312342 0.11415303
0.30953181 0.19358623 0.12166953
0.32988197 0.19334188 0.11770296
0.34989792 0.19295195 0.11137164
0.37009358 0.19270055 0.10729051
-0.022613004 0.21347366 0.10882127
-0.0021519288 0.21445279 0.1229558
0.18492678 0.21444163 0.12279296
0.20527673 0.21395081 0.11570799
0.22560731 0.21354966 0.10991848
-0.52172428 0.33911413 0.12240183
-0.52038693 0.3591046 0.11596739
-0.044008352 -0.55665451 0.13209546
-0.023046862 -0.53486401 0.1276077
-0.0023667738 -0.4950076 0.1369108
-0.0023007244 -0.47332022 0.13262057
-0.0022673979 -0.45207497 0.13045597
-0.0023017339 -0.43160746 0.13268614
-0.0023037568 -0.41076618 0.13281751
-0.0023287907 -0.39015308 0.13444328
-0.0023736209 -0.3697032 0.13735521
-0.022976328 -0.28463158 0.12455368
-0.023064237 -0.26424199 0.12836015
-0.023204342 -0.24401999 0.13442707
-0.023286037 -0.22347096 0.13796484
-0.043788686 -0.13905808 0.12496161
-0.043985121 -0.118599 0.13134122
-0.044143446 -0.097984374 0.13648272
-0.06458094 0.006564606 0.12468421
-0.06475582 0.027365424 0.12922752
-0.064875051 0.04822506 0.13232493
-0.065029368 0.06914641 0.13633442
0.64596814 0.090111464 0.13956392
0.6664381 0.090066917 0.13763511
0.68746048 0.090078741 0.13814604
0.60351068 0.11093398 0.1365484
0.62307197 0.11074386 0.13037407
0.64282125 0.11059289 0.12546742
-0.064847894 0.13163652 0.13161969
0.52050233 0.13194792 0.13971233
0.54057598 0.13177231 0.13515007
0.56006563 0.13149388 0.1279186
0.58010358 0.13134232 0.12398291
0.457129 0.15267721 0.13565993
0.47732404 0.15247995 0.13138986
0.49713197 0.15219513 0.1252228
-0.043992184 0.17334212 0.13157046
0.35313997 0.17376663 0.13944852
0.37319928 0.17339261 0.13250554
0.39340439 0.17312236 0.12749338
-0.023151629 0.19423124 0.13214457
0.24851689 0.19464044 0.13878882
0.26903325 0.19435473 0.13414776
0.28939646 0.19401428 0.12862217
0.018558394 0.21514755 0.13298178
0.039423071 0.21548131 0.13779998
0.1230058 0.21542653 0.13700938
0.14370602 0.21507476 0.1319313
0.16427463 0.21464284 0.1256963
-0.54427177 0.3609055 0.13058686
-0.023606919 -0.5609144 0.15185893
-0.0024933852 -0.51754838 0.14513433
-0.0024666265 -0.34964183 0.14339614
-0.0025380626 -0.32930422 0.148036
-0.0026146136 -0.30893591 0.15300798
-0.023371011 -0.20287958 0.14164388
-0.023519017 -0.1824415 0.14805257
-0.023631528 -0.16179833 0.15292478
-0.044286095 -0.077271059 0.14111543
-0.044457816 -0.05651544 0.14669204
-0.044597954 -0.035650365 0.15124333
-0.04470928 -0.014700679 0.15485847
-0.065324105 0.090213791 0.14399183
0.58642024 0.090480596 0.15554249
0.60653728 0.090378173 0.15111017
0.62593949 0.090206504 0.14367747
-0.065320283 0.11116013 0.14389265
0.54382908 0.11143313 0.15275836
0.56387013 0.11127692 0.14768744
0.5834797 0.11106654 0.14085126
0.4602904 0.13258226 0.15619385
0.48040169 0.13236041 0.1504283
0.50033861 0.13211894 0.14415741
-0.044450663 0.15317604 0.14645994
0.39657992 0.15342081 0.15175939
0.41679519 0.15315609 0.14602911
0.43699327 0.15291388 0.1407851
-0.023586929 0.1743888 0.15099359
0.29183245 0.17460422 0.15499198
0.31222194 0.17425708 0.14855063
0.33265454 0.1739812 0.14342928
-0.0025475211 0.19524768 0.14865029
0.18666005 0.19563632 0.15495837
0.20736578 0.1953081 0.14963043
0.22800583 0.19499463 0.14453816
0.060345404 0.21566652 0.14047122
0.081282482 0.21573286 0.14142907
0.10218321 0.21564589 0.14017451
-0.54723251 0.34164509 0.14432287
-0.56922835 0.36317319 0.14899909
-0.0027063787 -0.54138219 0.15896845
0.018280262 -0.4800621 0.16911209
0.018289987 -0.45869544 0.16784835
0.018285191 -0.43766791 0.16847169
0.01829621 -0.41629872 0.16704011
0.018282985 -0.39543629 0.16875827
0.018248811 -0.37494552 0.17319739
-0.0026904084 -0.28848571 0.15793157
-0.0027522817 -0.26786187 0.16194987
-0.0028322078 -0.24729386 0.16714132
-0.0029061958 -0.22661012 0.17194676
-0.023772262 -0.14115541 0.15901864
-0.023914009 -0.12042114 0.16515672
-0.02401159 -0.099503785 0.16938198
-0.044881187 0.0062893685 0.16044164
-0.044976719 0.027365424 0.16354394
-0.045110814 0.048498902 0.16789901
-0.045215175 0.069684416 0.17128849
0.61051375 0.069668502 0.17024183
0.52647293 0.090893775 0.17343426
0.54658282 0.09076032 0.1676631
0.56674731 0.09064433 0.16263759
0.48314703 0.11188432 0.16741049
0.50342578 0.11172961 0.16238606
0.5236659 0.11158165 0.15758038
-0.044882223 0.1327471 0.16047513
0.39931247 0.13321535 0.17263973
0.41969493 0.13299644 0.16695607
0.44006437 0.13279739 0.16178226
-0.023963347 0.15413825 0.16729283
0.33546239 0.15423939 0.16948307
0.35579631 0.15391479 0.16245317
0.37630212 0.15369514 0.15769756
-0.0028581358 0.17534961 0.16882551
0.2508395 0.17535694 0.16896045
0.27141732 0.17499813 0.16230226
0.018350229 0.19594829 0.16002297
0.039423071 0.19649331 0.16887629
0.060597718 0.19676267 0.17324829
0.12407796 0.19667523 0.17182863
0.14502436 0.19632742 0.16618228
0.16591662 0.19602346 0.16124606
-0.5738464 0.34457374 0.16968524
-0.59430891 0.3653557 0.16672039
-0.087896384 -0.58801198 0.17912769
-0.066635974 -0.58777702 0.17807519
-0.045299485 -0.58687317 0.17402625
-0.024356484 -0.58917028 0.18431592
-0.0029676557 -0.56610477 0.17593908
0.018177904 -0.5250088 0.18240833
0.018244516 -0.50209838 0.17375541
0.018221706 -0.35425904 0.17671859
0.018190084 -0.33359542 0.18082666
0.018145099 -0.31308213 0.18667006
-0.0029846132 -0.20587681 0.1770407
-0.0030523278 -0.18501158 0.18143845
-0.0031249896 -0.1641008 0.18615794
-0.024134859 -0.07856448 0.17472005
-0.024250776 -0.057532974 0.17973888
-0.024346642 -0.036404282 0.1838901
-0.024473205 -0.015232047 0.18937004
0.52908254 0.069944538 0.18817329
0.54930079 0.069855332 0.18237448
0.56962681 0.069781698 0.17760026
0.5902043 0.069733351 0.17444909
-0.045445062 0.091016598 0.17875409
0.4861556 0.091184281 0.18602145
0.50636744 0.091039598 0.17975581
-0.045380823 0.11216938 0.17666769
0.42236507 0.11246373 0.18622625
0.44282249 0.11229161 0.18063951
0.46309835 0.11210034 0.17443204
-0.02428139 0.13353959 0.18106449
0.35849807 0.13372368 0.18585086
0.3789793 0.13347667 0.17943299
-0.0031349733 0.15503959 0.18680656
0.27370939 0.15515788 0.18937004
0.29431477 0.15481135 0.1818639
0.31494755 0.15453067 0.17578673
0.018167682 0.17615312 0.18373656
0.18850699 0.17644951 0.18923318
0.20937183 0.17607051 0.18220437
0.23014379 0.17570367 0.17539716
0.081806235 0.19689816 0.17544782
0.10299078 0.1968793 0.17514288
-0.61933553 0.36736992 0.18307245
-0.59742135 0.388244 0.18019772
-0.0033970885 -0.59352702 0.20383143
0.018092532 -0.54855913 0.19349885
0.039423071 -0.46528977 0.20509386
0.039423071 -0.44397259 0.20569956
0.039423071 -0.42238048 0.20466149
0.039423071 -0.40105712 0.20526683
0.018116014 -0.29224029 0.19044828
0.018080637 -0.27142876 0.19504404
0.01804143 -0.2505959 0.20013726
0.018007534 -0.22962102 0.20454025
-0.0032044873 -0.14314483 0.19132149
-0.0032969974 -0.12215474 0.19733036
-0.0033789985 -0.10104081 0.20265651
-0.024607003 0.006022064 0.1951642
-0.024696387 0.027365424 0.19903433
-0.024709918 0.048743159 0.19962001
0.53231746 0.048795544 0.20644403
-0.024734601 0.070137255 0.20068932
0.4887304 0.070156612 0.20194864
0.5090031 0.070054643 0.19531882
-0.024686441 0.091474928 0.19860387
0.42504895 0.091636524 0.20559549
0.44535935 0.091460563 0.1979841
0.46576461 0.091316685 0.19174993
-0.02456934 0.11268868 0.19353318
0.36086395 0.113083 0.20634007
0.38163555 0.11291862 0.20099974
0.40210065 0.1127013 0.19394505
-0.0033771433 0.13436605 0.20253575
0.29659337 0.13451985 0.20653045
0.31728441 0.13423523 0.19913793
0.33797112 0.13398963 0.19276154
0.018009931 0.1558443 0.20422935
0.23205873 0.15578929 0.20303667
0.2528818 0.15544066 0.1954906
0.039423071 0.17675044 0.19482052
0.060823973 0.17717171 0.20263958
0.10370804 0.17736363 0.20620179
0.12505594 0.17722294 0.20358956
0.14630806 0.17700432 0.1995343
0.16743246 0.17670983 0.19406521
-0.60075867 0.34745628 0.19464886
-0.64517623 0.36966512 0.20170724
-0.62161905 0.38987228 0.19264138
-0.58116066 0.3911559 0.20244956
0.017939556 -0.57417291 0.2133708
0.039423071 -0.51016825 0.21568775
0.039423071 -0.48733702 0.20848894
0.039423071 -0.38007686 0.2082808
0.039423071 -0.35907993 0.21150994
0.039423071 -0.33814594 0.21560049
0.039423071 -0.3172088 0.22017515
0.017967921 -0.2086412 0.20968628
0.017926015 -0.18760516 0.21512997
0.017885022 -0.16647696 0.22045493
-0.0034717359 -0.079871573 0.20867991
-0.0035356544 -0.058552004 0.21283162
-0.0036027245 -0.037173226 0.21718776
-0.0036907643 -0.015748398 0.22290623
0.49124187 0.048880603 0.21748435
0.51176292 0.048835352 0.21161437
0.55398768 0.048805669 0.20774317
0.42735535 0.07046897 0.22224057
0.44802523 0.070376173 0.21621072
0.46845391 0.070268467 0.20921767
-0.0036770105 0.092015527 0.22201288
0.38384664 0.091944784 0.21895146
0.40449256 0.091789432 0.21222281
-0.003549587 0.11331075 0.21373665
0.31970331 0.11360549 0.2233094
0.34043631 0.11336917 0.21563542
0.017879231 0.13508469 0.22120738
0.25488439 0.13509612 0.22150493
0.27577269 0.13479704 0.21373665
0.039423071 0.15645081 0.21736217
0.1687856 0.15672804 0.22336185
0.19002089 0.15644917 0.21732748
0.21108457 0.15611161 0.21001613
0.082294926 0.17741697 0.20718896
-0.67106158 0.37184277 0.21938848
-0.64888644 0.39302993 0.21676886
0.039423071 -0.29617667 0.22453678
0.039423071 -0.27508438 0.22896481
0.039423071 -0.25391287 0.23328316
0.039423071 -0.23267457 0.23759711
0.01784171 -0.14528543 0.22608137
0.017806774 -0.12394869 0.23061991
0.017769543 -0.10255584 0.23545635
0.017731505 -0.08109235 0.24039769
-0.0037499256 0.0057789553 0.22674894
-0.0037992224 0.027365474 0.22995055
-0.0037908144 0.048972398 0.22940457
0.42975086 0.049050275 0.23952842
0.45035967 0.0489938 0.23217118
0.47086108 0.048937276 0.22485256
-0.0037680604 0.070556626 0.22792661
0.38625011 0.070718765 0.23846507
0.40701085 0.070611 0.23146594
0.34257436 0.092326388 0.23547387
0.36326319 0.092133418 0.22711802
0.017769679 0.11397906 0.23543859
0.27795821 0.11410548 0.23954642
0.29882842 0.11383388 0.23072588
0.039423071 0.1356684 0.23637581
0.21276024 0.13570112 0.23722541
0.23391604 0.1354171 0.22984505
0.061015386 0.15691942 0.22750461
0.082696125 0.15718453 0.23324788
0.10439754 0.15731429 0.23605752
0.12597623 0.1571953 0.23347735
0.14747947 0.15703316 0.22996831
-0.69793236 0.37435615 0.23979461
-0.67305195 0.39439806 0.2272234
0.061158024 -0.4290686 0.24603355
0.061162136 -0.40741593 0.24656785
0.061152812 -0.38549969 0.24535668
0.061172843 -0.36413044 0.24795854
0.061180945 -0.34251848 0.24901152
0.061198965 -0.32104871 0.25135171
0.061227635 -0.29970303 0.25507605
0.039423071 -0.21145834 0.24295485
0.039423071 -0.19013219 0.24795854
0.039423071 -0.16867468 0.25217474
0.039423071 -0.14719477 0.25708556
0.017699497 -0.059528835 0.24455571
0.017656261 -0.03793513 0.25017238
0.017620441 -0.016239753 0.25482523
0.017601244 0.0055435281 0.25731885
0.38832697 0.049172007 0.25532711
0.40897086 0.049103506 0.24644327
0.017620994 0.070969604 0.25475335
0.34462127 0.07096526 0.25446665
0.36558315 0.070853464 0.24720979
0.017687846 0.092571139 0.24606907
0.30089244 0.09273278 0.25306952
0.32178682 0.092526294 0.24412858
0.039423071 0.1145219 0.25306976
0.23572749 0.11461185 0.25599086
0.25704443 0.11441399 0.24956489
0.061177511 0.1361376 0.2485652
0.17017266 0.13632344 0.25339186
0.19148424 0.13598076 0.24448442
-0.69824815 0.39620095 0.24100113
-0.11382771 -0.60753077 0.26656067
0.061265931 -0.27843457 0.26005077
0.061300054 -0.25703537 0.26448369
0.061340973 -0.23564941 0.26979947
0.061372954 -0.21408324 0.2739538
0.039423071 -0.12566952 0.26255381
0.039423071 -0.10406165 0.26806152
0.039423071 -0.082344115 0.27291858
0.41165322 0.027365424 0.26694024
0.43299377 0.027365424 0.26293242
0.017586306 0.027365524 0.25925934
0.39035511 0.027365575 0.27179348
0.01759696 0.049191512 0.25787544
0.34657466 0.049304858 0.27259183
0.36746532 0.049234912 0.26350927
0.32373175 0.071105301 0.26356339
0.039423071 0.093045287 0.26659679
0.25873744 0.093159735 0.27155781
0.27990186 0.092950694 0.26249969
0.061326064 0.11497739 0.26786256
0.19304678 0.11515056 0.27348173
0.21439558 0.11485172 0.26378012
0.083068654 0.13647939 0.25744462
0.10498407 0.13663375 0.26145482
0.12685937 0.13666074 0.26215768
0.1486339 0.13657628 0.25996101
-0.72468448 0.3766717 0.25859439
-0.72625178 0.39926475 0.26441169
0.061414711 -0.19255106 0.27937818
0.061445355 -0.17083517 0.28335953
0.061491206 -0.14917965 0.28931522
0.039423071 -0.060516432 0.27662706
0.039423071 -0.038645744 0.28094745
0.039423071 -0.016716244 0.28577554
0.039423071 0.005301917 0.28872776
0.34848389 0.027365373 0.29030752
0.039423071 0.027365575 0.28814065
0.36945567 0.027365474 0.2807467
0.039423071 0.04938598 0.28314006
0.32557926 0.049377449 0.2820251
0.039423071 0.07130526 0.27655411
0.28174722 0.071424395 0.28429246
0.30285859 0.071271382 0.27435374
0.061445639 0.093433276 0.28339601
0.21602926 0.093592867 0.29030752
0.23745024 0.093374401 0.28085613
0.083395123 0.1153095 0.27864897
