ply
format ascii 1.0
comment PCL generated
element vertex 1342
property float x
property float y
property float z
element camera 0
property float view_px
property float view_py
property float view_pz
property float x_axisx
property float x_axisy
property float x_axisz
property float y_axisx
property float y_axisy
property float y_axisz
property float z_axisx
property float z_axisy
property float z_axisz
property float focal
property float scalex
property float scaley
property float centerx
property float centery
property int viewportx
property int viewporty
property float k1
property float k2
end_header
-0.56839013 -0.24208945 -0.40680945
-0.58802515 0.071586289 -0.40666783
-0.56808257 0.071536407 -0.40828907
-0.590509 -0.22347283 -0.39514399
-0.60956883 0.071853712 -0.39798611
-0.61358774 -0.22475651 -0.37998378
-0.573578 -0.22459856 -0.38184923
-0.61445481 -0.20524457 -0.37609971
-0.59421915 -0.20510358 -0.37793118
-0.59391278 0.052611671 -0.37935275
-0.61749691 -0.18634775 -0.36247253
-0.61543375 0.052788034 -0.37171447
-0.57814056 0.053060796 -0.35989809
-0.58014894 -0.20723575 -0.35023487
-0.59843725 -0.18663272 -0.3583616
-0.62076092 -0.16730252 -0.34785151
-0.60038906 0.033258315 -0.34930634
-0.63818532 0.053075757 -0.35925686
-0.64173883 -0.16754776 -0.34386981
-0.60290146 -0.16793072 -0.3376503
-0.64325047 0.033442792 -0.33732438
-0.62237197 0.033391904 -0.34063518
-0.64480752 -0.14817482 -0.3305819
-0.62479317 -0.14821741 -0.32978964
-0.66629857 0.033630583 -0.32513547
-0.60858816 -0.14921552 -0.31126738
-0.64851689 -0.12872535 -0.31452024
-0.629408 -0.12897496 -0.30911756
-0.64984465 0.013523281 -0.30877054
-0.62841189 0.013486261 -0.31357968
-0.67418826 -0.10927438 -0.2920742
-0.65208775 -0.10900562 -0.29905784
-0.67247164 0.01359644 -0.29926741
-0.6127069 0.013651151 -0.29215848
-0.61499184 -0.13024779 -0.28155804
-0.63409615 -0.10942671 -0.28811741
-0.67751724 -0.089216202 -0.27812433
-0.6567319 -0.08919099 -0.27894795
-0.6774596 -0.0068358975 -0.27836573
-0.63694298 -0.0068359394 -0.275365
-0.65593284 -0.0068358136 -0.28240812
-0.69645405 0.013707377 -0.28485596
-0.70106184 -0.089584939 -0.26615047
-0.64014155 -0.089742348 -0.26103735
-0.70113248 -0.068904296 -0.26586366
-0.6798448 -0.068846434 -0.26837063
-0.66042984 -0.068971947 -0.26293552
-0.68020701 -0.048199661 -0.26685274
-0.67993021 -0.027508849 -0.26801276
-0.66049951 -0.027550157 -0.26263356
-0.66148025 -0.048329927 -0.25838685
-0.64319921 -0.027667902 -0.2473408
-0.76818365 -0.0068359394 -0.24736977
-0.72849393 -0.069510877 -0.2395997
-0.64367992 -0.069381826 -0.24518752
-0.64430135 -0.04857596 -0.24240386
-0.76964754 0.36888999 -0.24193692
-0.74920958 0.39000711 -0.24027193
-0.75161958 -0.027793292 -0.23106396
-0.62816441 -0.0068358975 -0.2204448
-0.7097013 0.035078514 -0.23107874
-0.71156925 0.056210928 -0.22349572
-0.69109428 0.056263201 -0.22123039
-0.71242672 0.077333845 -0.22001481
-0.75423998 0.37178388 -0.22105253
-0.63044226 -0.049076814 -0.20987689
-0.77601385 -0.02789137 -0.21830797
-0.62891001 -0.027901623 -0.21698582
-0.060228143 -0.027994491 -0.20492232
-0.039069548 -0.027982766 -0.20645082
-0.017914874 -0.02799054 -0.2054317
-0.081377737 -0.0068358975 -0.20550692
-0.060194835 -0.0068358975 -0.20924914
-0.039069548 -0.0068358975 -0.20898008
0.0032291822 -0.0068358975 -0.20612144
-0.017920645 -0.0068358136 -0.20618129
0.024387896 -0.0068358136 -0.20571673
-0.060203932 0.014298491 -0.20806766
-0.039069548 0.014317358 -0.20562673
-0.73560071 0.035378043 -0.21162391
-0.060195297 0.035415649 -0.20918941
-0.039069548 0.035449687 -0.20697498
-0.017923757 0.035455696 -0.20658576
-0.06022099 0.056618452 -0.20585167
-0.039069548 0.056646265 -0.20465231
-0.017925141 0.05659727 -0.20676541
-0.73578274 0.077614129 -0.21090746
-0.69210368 0.077426501 -0.2170006
-0.73639011 0.098818898 -0.20851648
-0.712924 0.098453902 -0.21799612
-0.69259351 0.098571226 -0.2149477
-0.73579788 0.1198421 -0.21084785
-0.71320224 0.11956412 -0.21686697
-0.69399625 0.11992417 -0.20906973
-0.73584723 0.14096543 -0.21065366
-0.71361631 0.1407212 -0.21518588
-0.73611289 0.16214424 -0.20960784
-0.71367496 0.16181558 -0.2149477
-0.73641294 0.18334869 -0.20842683
-0.71487254 0.18323371 -0.21008587
-0.73676264 0.20458645 -0.20705009
-0.71621108 0.20477086 -0.20465219
-0.73829126 -0.091590069 -0.20103276
-0.63384992 -0.070562333 -0.19406736
-0.61269259 -0.049326506 -0.19365942
-0.61132258 -0.028030418 -0.20025051
-0.59189856 -0.028098579 -0.19140458
-0.081452638 -0.028027393 -0.20064163
0.0032749027 -0.028008148 -0.20315146
0.024562471 -0.028046597 -0.19815731
0.045989461 -0.028100679 -0.19113207
-0.61109126 -0.0068359817 -0.20136356
-0.10281243 -0.0068358975 -0.19335663
0.0456018 -0.0068358555 -0.203722
-0.10279986 0.014407452 -0.19390106
-0.081421398 0.014340051 -0.20267093
-0.017906796 0.014326856 -0.20438218
0.0032716691 0.01433463 -0.20336175
0.024496064 0.014352657 -0.20103264
0.045692943 0.014354715 -0.20076203
-0.10269286 0.035579618 -0.19853401
-0.081398517 0.035493053 -0.20415711
0.0032772161 0.035510786 -0.20300138
0.024695344 0.035674039 -0.19240367
-0.10273081 0.05682528 -0.19689095
-0.081421167 0.056691691 -0.20268595
0.0033035912 0.056723759 -0.20128834
0.024704777 0.056938402 -0.19199514
-0.10285506 0.078211501 -0.19151056
-0.081486017 0.077997148 -0.19847381
-0.060236342 0.077831253 -0.20385695
-0.039069548 0.077881217 -0.20223522
-0.017892467 0.077872351 -0.20252061
0.0033293031 0.077961855 -0.19961858
-0.060309961 0.099366352 -0.1942941
-0.039069548 0.099467419 -0.19166207
-0.017849592 0.099263825 -0.19695127
0.0033494756 0.09921167 -0.19830811
-0.69641697 0.14159751 -0.19892573
-0.73770726 0.22604346 -0.20333171
-0.71662891 0.22607502 -0.20295632
-0.73764622 0.24719203 -0.20357192
-0.71808213 0.24779373 -0.19705677
-0.73866582 0.26876259 -0.19955814
-0.71898985 0.26938161 -0.19337177
-0.73935109 0.29025334 -0.19686079
-0.74050254 0.31199732 -0.1923281
-0.74071401 0.33335543 -0.19149542
-0.7603783 0.35381863 -0.19759965
-0.73921317 0.35384426 -0.19740355
-0.73930126 0.3751086 -0.19705677
-0.72310483 -0.13509256 -0.17666721
-0.7423141 -0.11338811 -0.18519676
-0.72024381 -0.11326943 -0.18828142
-0.76532066 -0.049556531 -0.17871654
-0.59351575 -0.049485598 -0.18332434
-0.10307755 -0.049507994 -0.18187666
-0.081682235 -0.049448576 -0.18572915
-0.1245815 -0.028213885 -0.17642212
-0.10290056 -0.028112991 -0.18954062
0.067676231 -0.028185057 -0.18016756
-0.59481758 -0.0068359817 -0.17682004
-0.12435818 -0.0068358975 -0.18367469
0.06755238 -0.0068358555 -0.18338537
-0.61623704 0.014540745 -0.17660582
-0.12419765 0.014446238 -0.18888831
-0.12422474 0.035741694 -0.18800807
0.046136163 0.035766993 -0.18636763
-0.12435067 0.057124935 -0.18391848
0.046164259 0.05708947 -0.18545544
0.024755858 0.078264616 -0.18978322
0.046360463 0.078594066 -0.17908323
-0.081700042 0.099740341 -0.18457282
0.024745353 0.099522255 -0.19023788
0.046344005 0.099930994 -0.179618
-0.017699923 0.12138184 -0.17750871
-0.69922894 0.16352779 -0.18714249
-0.70047098 0.18518379 -0.18193758
-0.72117233 0.29158413 -0.18451214
-0.72294277 0.31372973 -0.17732513
-0.082026571 -0.17866403 -0.16336405
-0.74642652 -0.15688133 -0.16900837
-0.72621441 -0.15714881 -0.1640439
-0.081967652 -0.15697911 -0.16719127
-0.74592251 -0.13535455 -0.17099261
-0.10351079 -0.13571835 -0.16311693
-0.081927121 -0.13540861 -0.16982377
-0.10348474 -0.11419458 -0.16424465
-0.08194986 -0.11403662 -0.16834641
-0.12500501 -0.092771336 -0.16266859
-0.10342204 -0.09263926 -0.16695988
-0.081979513 -0.09265586 -0.16642034
-0.060554005 -0.092773773 -0.1625911
-0.12487381 -0.071189001 -0.16692924
-0.10334986 -0.071116172 -0.17008555
-0.081897296 -0.071077645 -0.17176056
-0.57362831 -0.049600735 -0.17585564
-0.57401758 -0.028233802 -0.17383254
-0.14630413 -0.028282756 -0.16746855
0.089523047 -0.028268006 -0.16939318
-0.55458808 -0.0068358975 -0.16317856
-0.57419479 -0.0068358136 -0.17291212
0.089487523 -0.0068358555 -0.1701622
-0.74503738 0.014557006 -0.17447662
-0.59527439 0.014556542 -0.17453802
0.067840427 0.014546081 -0.17590153
0.0896689 0.0146205 -0.16623545
0.068014018 0.035997521 -0.17139196
0.068109311 0.057471357 -0.16891599
-0.12463953 0.07873404 -0.17453802
0.068170957 0.0789565 -0.16731453
-0.10337508 0.10033995 -0.168993
0.068062529 0.10029612 -0.17013168
0.0037572533 0.12164444 -0.17182195
-0.72604328 0.33665097 -0.16473866
-0.8089233 0.39947572 -0.17553389
-0.78741056 0.39940637 -0.1760087
-0.082229033 -0.22263324 -0.15021384
-0.75136745 -0.20109907 -0.14955842
-0.10372854 -0.20081282 -0.15368795
-0.082106657 -0.20050299 -0.15816212
-0.060645327 -0.20101789 -0.15072846
-0.74892181 -0.17892137 -0.15918553
-0.72873092 -0.17925116 -0.15382814
-0.10360803 -0.17893848 -0.15890658
-0.060614042 -0.17919195 -0.15479231
-0.12524417 -0.1576415 -0.15490103
-0.10357367 -0.1573455 -0.16039407
-0.060587388 -0.15746081 -0.15825534
-0.039069548 -0.15788493 -0.15038526
-0.7057119 -0.13586342 -0.15997589
-0.12514424 -0.13594791 -0.15814674
-0.060568538 -0.1358299 -0.16070366
-0.039069548 -0.13630146 -0.15049458
-0.12509936 -0.11437304 -0.15960407
-0.060560673 -0.11429152 -0.16172516
-0.039069548 -0.11463563 -0.15278518
-0.14684831 -0.093058884 -0.15333021
-0.039069548 -0.093151458 -0.15032315
-0.61927849 -0.071303636 -0.16197264
-0.060563058 -0.071316488 -0.1614157
-0.55555785 -0.049876563 -0.15792966
-0.060595628 -0.049888037 -0.15718472
0.068628989 -0.049915224 -0.15541422
0.090385854 -0.04998767 -0.15071297
-0.55511969 -0.028337972 -0.16030109
-0.53484911 -0.02839151 -0.15334558
0.11164898 -0.028367179 -0.15651727
-0.53353536 -0.0068359394 -0.16076553
-0.51288784 -0.0068359394 -0.1557405
0.11167409 -0.0068357717 -0.15605128
-0.57703042 0.014682483 -0.15817773
0.1117034 0.014703115 -0.15550733
0.089880064 0.036147285 -0.16166329
0.11191218 0.036301754 -0.15163267
0.090123504 0.05776076 -0.15639305
0.090342656 0.079438947 -0.15164828
-0.12519106 0.10081605 -0.15662575
0.090402424 0.10105729 -0.15035415
-0.039069548 0.12264185 -0.15022945
0.06859491 0.12236149 -0.15629959
-0.81381482 0.38053676 -0.15788305
-0.75507367 -0.24550387 -0.13496923
-0.10400026 -0.24491525 -0.14192188
-0.082354516 -0.24490318 -0.14206326
-0.060738273 -0.24519196 -0.13865423
-0.75306427 -0.22319797 -0.14287877
-0.12573719 -0.22350499 -0.13889027
-0.10388017 -0.22287133 -0.14712179
-0.060680315 -0.22294348 -0.14618361
-0.039069548 -0.22384572 -0.1344645
-0.7312814 -0.2015205 -0.14347458
-0.12562789 -0.20159215 -0.14243972
-0.039069548 -0.20160416 -0.14226723
-0.14751923 -0.18035531 -0.13589931
-0.12545678 -0.1796104 -0.14799702
-0.039069548 -0.17967963 -0.14687181
-0.70892495 -0.15809348 -0.14651215
-0.14738896 -0.15848312 -0.1392833
-0.14717096 -0.13655767 -0.14494717
-0.14708306 -0.11484948 -0.14723122
0.13447711 -0.11530256 -0.13545799
0.15618028 -0.11530797 -0.13531613
0.11275575 -0.093593106 -0.1359781
0.1341438 -0.093442582 -0.14087021
0.1560853 -0.093571462 -0.13668692
-0.60144776 -0.071725823 -0.1436938
-0.039069548 -0.071653672 -0.14680922
0.09080638 -0.071773812 -0.141608
0.11242531 -0.071762167 -0.14211023
0.13385031 -0.071680777 -0.14563584
0.15596861 -0.071848691 -0.13837135
-0.75524193 -0.050240301 -0.13430679
-0.53644699 -0.050086208 -0.14432061
-0.039069548 -0.050073139 -0.14516628
0.11210977 -0.050029986 -0.14796591
0.13385898 -0.050067931 -0.14549506
0.15603948 -0.050193366 -0.13734841
-0.51488292 -0.028463786 -0.14396036
-0.4944436 -0.02852043 -0.13660812
0.13375591 -0.028439118 -0.14716876
0.15611258 -0.028522782 -0.13629329
-0.4945429 -0.0068359817 -0.13599372
0.13390718 -0.0068360236 -0.14471209
0.15625019 -0.0068358975 -0.13430679
-0.55743617 0.014762701 -0.14776266
-0.53636664 0.014785603 -0.14477491
0.13404135 0.014802873 -0.14253378
0.13424928 0.036493752 -0.13915753
0.11216453 0.057978727 -0.14694989
0.13441208 0.058219671 -0.13651371
0.11250482 0.079778098 -0.14063466
-0.14739078 0.10148533 -0.13923597
0.11274216 0.10160105 -0.13623035
-0.14746709 0.12324112 -0.137254
-0.1256651 0.12305745 -0.14123142
-0.10391378 0.12285256 -0.1456672
-0.082284585 0.12280927 -0.14660585
-0.06072557 0.1231003 -0.1403048
0.090681806 0.12291554 -0.14430511
-0.14757141 0.14506689 -0.13454342
-0.12582442 0.1449852 -0.1360569
-0.10402238 0.14472076 -0.14096439
-0.082382314 0.14475876 -0.1402576
-0.10415537 0.16672626 -0.13520563
-0.082458884 0.16672146 -0.13528454
-0.082692668 -0.29038614 -0.12009978
-0.75826043 -0.26835978 -0.12242472
-0.12627116 -0.26844066 -0.12154937
-0.10426186 -0.26760513 -0.13059437
-0.082504079 -0.267443 -0.13234925
-0.060828362 -0.26794171 -0.12695146
-0.14800724 -0.24649891 -0.12321985
-0.12602478 -0.2459628 -0.1295501
-0.039069548 -0.24638447 -0.12457061
-0.73405313 -0.22401819 -0.13222265
-0.14763945 -0.20226181 -0.13277555
0.13525429 -0.15936929 -0.12283814
0.15684223 -0.15921172 -0.12576163
0.11318234 -0.13733754 -0.12806129
0.13485458 -0.13727906 -0.12932837
0.15658304 -0.13727093 -0.12950265
-0.16955507 -0.11557388 -0.12840986
0.11293854 -0.11541311 -0.13258612
0.17880343 -0.11577231 -0.1232518
0.091342106 -0.093777031 -0.13000894
0.17873368 -0.093957134 -0.12415755
0.069597088 -0.072035857 -0.13026214
0.17859307 -0.072134607 -0.12598383
0.1785821 -0.050366156 -0.12612677
0.17859554 -0.028602414 -0.12595212
0.17876792 -0.0068358555 -0.12371266
0.15642084 0.014885319 -0.13184345
0.17899941 0.014971001 -0.12070537
0.15664338 0.036655702 -0.12863159
0.15684992 0.058470622 -0.12565064
0.13476591 0.080081701 -0.13076842
0.15721351 0.080400981 -0.12040269
-0.16945928 0.10182225 -0.13048387
0.13517596 0.10206769 -0.12410998
-0.1695829 0.12367735 -0.12780786
0.11309616 0.12359174 -0.12966084
-0.16986975 0.14576432 -0.12159693
-0.060826898 0.14546543 -0.12714195
-0.14766014 0.1669091 -0.13223851
-0.12591428 0.16685358 -0.13313878
-0.1479412 0.18913305 -0.12493598
-0.12613656 0.18906489 -0.12592041
-0.10429475 0.1888397 -0.12917018
-0.082609653 0.18909454 -0.12549162
-0.14811201 0.21124887 -0.12049818
-0.12622118 0.21104312 -0.12317204
-0.1044498 0.21109828 -0.12245643
-0.78415328 -0.31363502 -0.10676289
-0.78184479 -0.29083815 -0.11558282
-0.76110476 -0.29127389 -0.11122787
-0.10472468 -0.29134139 -0.1105541
-0.060966823 -0.29150036 -0.10896504
-0.039069548 -0.26985708 -0.10621583
-0.73799467 -0.24709141 -0.11622226
-0.17004055 -0.20329234 -0.11789906
0.15818414 -0.20408952 -0.10639298
0.13586764 -0.18177316 -0.11287844
0.1575563 -0.1816144 -0.11545503
0.1796599 -0.1818195 -0.11212552
0.11378933 -0.15969479 -0.11679733
0.17940484 -0.1597679 -0.11543894
0.20189708 -0.16017833 -0.10782409
0.17906201 -0.1377148 -0.1198926
0.20164554 -0.13813508 -0.11079478
0.091835141 -0.11592325 -0.11933458
0.20137419 -0.11612844 -0.11399937
0.20121031 -0.094210438 -0.11593437
0.22392647 -0.094501182 -0.1064893
0.20115349 -0.072351307 -0.11660564
0.22376157 -0.072543554 -0.1082741
-0.73804188 -0.050521635 -0.11603045
-0.51896697 -0.050462846 -0.11984491
0.20119272 -0.050519954 -0.11614227
0.22395618 -0.050673459 -0.10616744
-0.47650623 -0.028707677 -0.11226988
0.20129019 -0.028686751 -0.11499119
0.20157357 -0.0068359394 -0.11164451
-0.47673583 -0.0068358555 -0.11077881
-0.45540929 -0.0068358555 -0.10697198
0.2017692 0.015058573 -0.10933435
0.17921668 0.036821265 -0.11788309
0.20202237 0.036999017 -0.10634458
0.17951688 0.058739938 -0.11398315
0.1799131 0.080757283 -0.10883641
-0.19216809 0.10252031 -0.11234975
0.15756404 0.102405 -0.11534297
-0.19206713 0.12430469 -0.11422324
0.13562925 0.12418833 -0.11674941
0.15811726 0.12462199 -0.10735798
-0.19246307 0.1465576 -0.10687542
0.092083797 0.14617634 -0.11395133
0.1138341 0.1460678 -0.11596644
0.13610174 0.14643905 -0.10907745
-0.17001328 0.16775569 -0.11848938
-0.060912184 0.16790533 -0.1160624
0.11425726 0.16839465 -0.10811341
-0.17020589 0.18986866 -0.11431932
-0.082768112 0.21165708 -0.11519909
-0.12643519 0.23341951 -0.11622214
-0.1045827 0.23337907 -0.11670136
-0.7860781 -0.33639857 -0.099408388
-0.76382804 -0.31430918 -0.10050762
-0.083109282 -0.31511402 -0.093039751
-0.12701419 -0.29265597 -0.097418189
-0.74383736 -0.27112383 -0.092503786
0.15917228 -0.22710469 -0.092129946
0.18089059 -0.22679606 -0.096138477
0.13676991 -0.20465529 -0.098227739
0.20277549 -0.20470905 -0.097450852
0.18017061 -0.20415205 -0.1054914
0.20237443 -0.18243149 -0.10218692
0.22497396 -0.18286487 -0.095149755
0.22445066 -0.16055599 -0.10081458
0.092537776 -0.13844311 -0.10412216
0.22411089 -0.13842607 -0.1044929
0.24701978 -0.13887709 -0.094727993
0.22399037 -0.11644415 -0.10579741
0.24672623 -0.11675733 -0.097661257
0.24659668 -0.094733231 -0.09895575
0.24658699 -0.072756603 -0.099052906
0.2467149 -0.050802674 -0.097774506
0.22413172 -0.028769406 -0.10426724
0.24689646 -0.028833194 -0.095960379
0.22430746 -0.0068359394 -0.10236442
0.24728142 -0.0068360236 -0.092113733
0.22470607 0.015145516 -0.098049521
0.22499941 0.037175547 -0.094873905
0.20247969 0.059041277 -0.10094392
0.20276177 0.081102781 -0.0976125
-0.2144438 0.10277315 -0.10578132
0.18017803 0.10278803 -0.10539484
0.20310086 0.10324152 -0.093608141
-0.21497279 0.12509167 -0.097191572
0.18071108 0.1250324 -0.098470449
0.15879694 0.14706033 -0.097547889
0.18112662 0.14730138 -0.093072057
-0.19258104 0.16860572 -0.10468602
0.092774168 0.16895565 -0.099004269
0.13667825 0.1689119 -0.099715829
-0.23728323 0.19137773 -0.092536211
-0.19275922 0.19076514 -0.10137987
-0.061050225 0.19099021 -0.098130584
0.11496456 0.19120809 -0.094987512
-0.23707744 0.21317279 -0.09550631
-0.21454698 0.21251088 -0.10410619
-0.17081919 0.21274695 -0.10104084
-0.14870015 0.2343514 -0.10521781
-0.082965471 0.23459157 -0.10238051
-0.12678444 0.25630885 -0.1048795
-0.10490672 0.2565127 -0.10267103
-0.85500914 -0.40377948 -0.088810682
-0.83361638 -0.40410918 -0.08643055
-0.81313592 -0.40492713 -0.080528021
-0.85558027 -0.38198945 -0.086805582
-0.83484364 -0.38261822 -0.082001686
-0.81221884 -0.38236564 -0.083931804
-0.79107118 -0.38283673 -0.080331206
-0.85792404 -0.36093509 -0.078577042
-0.81336117 -0.36079782 -0.079692125
-0.78843433 -0.35947815 -0.09040606
-0.76917422 -0.36082619 -0.079462528
-0.76625776 -0.33737606 -0.090943098
-0.10519636 -0.31542769 -0.090129614
0.18193728 -0.24994338 -0.082541943
0.20403934 -0.24994481 -0.082525373
0.20331965 -0.22718972 -0.091024399
0.2262475 -0.2279335 -0.081363201
0.22553696 -0.20529082 -0.089055181
0.24845724 -0.20589295 -0.080363989
0.11585328 -0.18389064 -0.078494787
0.24778159 -0.18335968 -0.087115645
0.24734323 -0.16105822 -0.091495872
0.27033824 -0.16153973 -0.082558155
0.2699877 -0.1392889 -0.085810304
0.26974869 -0.11712809 -0.08802855
0.29273564 -0.11743758 -0.079987288
0.26962221 -0.095033638 -0.089201689
0.29254836 -0.095267273 -0.081608772
0.26948541 -0.072954774 -0.090471387
0.292503 -0.073150516 -0.082001805
0.26957661 -0.050928276 -0.08962512
0.29256731 -0.051054046 -0.081445217
0.26982421 -0.028899631 -0.0873276
0.29276025 -0.028957831 -0.079774022
0.29293448 -0.0068360236 -0.07826519
0.2701391 -0.0068358555 -0.084405661
0.24750926 0.015208548 -0.089836717
0.27045286 0.015272841 -0.081494451
0.24777178 0.037293542 -0.087213397
0.27068776 0.037415069 -0.079314947
0.22531296 0.059259832 -0.091479659
0.24825077 0.059468672 -0.082427144
0.22560467 0.081388861 -0.088321805
0.24851628 0.081652083 -0.079774261
0.22606458 0.10363665 -0.083343267
0.20354159 0.12549734 -0.088403463
0.22651096 0.12595436 -0.078511238
0.071175642 0.14750746 -0.089250565
0.20394516 0.14780974 -0.083637357
-0.26040053 0.17022881 -0.078330755
-0.23801649 0.17000577 -0.081952691
-0.21533157 0.16942611 -0.091365933
0.15926129 0.16945815 -0.090845346
0.18159898 0.16969892 -0.086936116
-0.25983608 0.191854 -0.085663199
0.09338358 0.1918439 -0.085810184
0.13728063 0.19155806 -0.08993423
0.15982865 0.1920622 -0.082656264
0.11550045 0.21397847 -0.085042715
0.13790433 0.21438128 -0.079806924
-0.17157169 0.23608467 -0.084748745
-0.14925021 0.25759768 -0.090926886
-0.12737012 0.28014094 -0.085859179
-0.79431462 -0.40667155 -0.067939162
0.20496833 -0.27305898 -0.071554303
0.22764795 -0.27355328 -0.066202879
0.22691928 -0.25065893 -0.074091077
0.24995391 -0.25139427 -0.06540823
0.2491575 -0.228549 -0.073366523
0.27232933 -0.22926363 -0.064083099
0.2713998 -0.20642331 -0.072708011
0.27092826 -0.1839776 -0.077083111
0.29397613 -0.18446025 -0.069244504
0.29351914 -0.16204396 -0.073202014
0.31675774 -0.16251037 -0.064547062
0.29312783 -0.1397149 -0.0765903
0.31633586 -0.14011297 -0.067972183
0.31606328 -0.11781485 -0.070185184
0.3158378 -0.095562689 -0.072015643
0.33907062 -0.095809981 -0.063983679
0.31589061 -0.073390834 -0.071587324
0.31593525 -0.05121154 -0.07122457
-0.74968904 -0.029042713 -0.068748951
-0.43940508 -0.029076708 -0.064331532
0.31609374 -0.02903351 -0.069937706
0.31627482 -0.0068359394 -0.068467975
0.29350775 0.015335914 -0.073300838
0.3165803 0.01539214 -0.065987706
0.29366368 0.037528485 -0.07194972
0.31686592 0.03765602 -0.063668728
0.27109832 0.059628733 -0.075505614
0.29410201 0.059798293 -0.068154097
0.27149928 0.081898034 -0.071785092
0.24895497 0.1039429 -0.075390577
0.27200639 0.10426264 -0.067079544
0.24952044 0.12635943 -0.06973958
0.22707291 0.14841378 -0.07242775
0.25011808 0.14888045 -0.063768148
-0.28262538 0.17029563 -0.077247381
0.071703412 0.17040098 -0.075538397
0.2045266 0.17032492 -0.076770902
0.22764491 0.17097369 -0.066235662
-0.28292888 0.19268534 -0.073662996
0.18252194 0.1925965 -0.074946523
0.20544253 0.19321948 -0.065954447
-0.06125151 0.21498367 -0.07198298
0.094191447 0.21526572 -0.06831944
0.16040497 0.21480238 -0.07433784
0.183246 0.21547958 -0.065540671
0.11650498 0.23763847 -0.066401243
0.13864943 0.2375277 -0.067707777
-0.17226265 0.25955033 -0.069789171
-0.14990519 0.28133681 -0.073909998
-0.105517 0.28110304 -0.076245308
-0.77557337 -0.38624695 -0.054272413
-0.12809631 -0.31842965 -0.062275529
0.18413529 -0.27468169 -0.053988695
0.2508648 -0.2744675 -0.056306481
0.16191891 -0.2524884 -0.052485943
0.27328241 -0.25225532 -0.055239558
0.29550087 -0.2298829 -0.056039691
0.29472524 -0.2071127 -0.062756658
0.31797802 -0.20767513 -0.05463922
0.31728292 -0.18501204 -0.060283065
0.3406781 -0.18554071 -0.051700473
0.3401342 -0.16297865 -0.055856466
0.33955061 -0.14046645 -0.060316205
0.36312509 -0.14090073 -0.050914645
0.33932674 -0.11812899 -0.062026858
0.3629421 -0.11850576 -0.052235126
0.36251652 -0.096077278 -0.055306315
0.33913141 -0.073577285 -0.063519597
0.36252582 -0.073768482 -0.055239677
0.33915526 -0.051332898 -0.063336968
0.36250037 -0.051454801 -0.055423141
0.33930504 -0.029093266 -0.06219244
0.36271304 -0.029157095 -0.05388844
-0.75332499 -0.0068359394 -0.053988457
0.33958322 -0.0068359817 -0.060067058
0.36304861 -0.0068360656 -0.051466465
-0.79735929 0.015466684 -0.056306481
0.34002954 0.015464038 -0.056656122
0.34039617 0.037807044 -0.053855062
0.31755531 0.060031213 -0.058071256
0.34092766 0.06022241 -0.04979372
0.29471183 0.082172476 -0.062872648
0.31799656 0.082430653 -0.054489136
0.29516447 0.10457545 -0.058953404
0.27252591 0.12670502 -0.06225884
0.29607528 0.12722215 -0.051065087
0.27340287 0.14940026 -0.054122329
0.25106835 0.17171058 -0.054272294
0.072275259 0.19358462 -0.060681701
0.22865452 0.19395709 -0.055306315
0.20634137 0.21626502 -0.055339575
0.16120274 0.23794138 -0.062823057
0.18423425 0.23879835 -0.052702904
-0.08366175 0.26071739 -0.057155848
0.1394974 0.26101467 -0.053938627
0.11732146 0.26126295 -0.051249146
-0.17298628 0.28331706 -0.054121971
-0.12832373 0.30555385 -0.054889441
-0.10633335 -0.34315497 -0.040896177
0.27427566 -0.27541754 -0.04602325
0.29656255 -0.25296611 -0.046845198
0.3201068 -0.2537697 -0.037355781
0.3189525 -0.23059961 -0.046727657
0.34240079 -0.23123023 -0.038536906
0.34146935 -0.20829767 -0.045653939
0.3650319 -0.20888662 -0.037153244
0.36418921 -0.18606201 -0.043235064
0.36358911 -0.16342533 -0.047566056
0.38728708 -0.16391462 -0.038486242
0.38669825 -0.14128885 -0.042511821
0.38644743 -0.11881394 -0.044226527
0.38631237 -0.096390046 -0.045150399
0.4099685 -0.09664356 -0.036916852
0.38622391 -0.073987409 -0.045754671
0.40985155 -0.074174069 -0.037676454
0.38622153 -0.051603392 -0.04577148
0.40996069 -0.051738866 -0.036967516
-0.7774815 -0.029212017 -0.046761274
0.38642043 -0.02923017 -0.044411421
0.41006732 -0.029292783 -0.03627491
0.38661951 -0.0068358555 -0.043049932
0.36346602 0.015527153 -0.048454285
0.38722783 0.015600817 -0.038891077
0.36394477 0.037943404 -0.044999242
0.3645879 0.06044025 -0.040357113
0.3416034 0.08273422 -0.044629693
0.36521918 0.083006009 -0.035802007
0.31863672 0.10494738 -0.049291492
0.34219998 0.10530204 -0.040070891
0.31946552 0.1276148 -0.042562366
0.29683 0.14991716 -0.04452908
0.32026905 0.15037489 -0.036038518
0.27425033 0.1722039 -0.046257854
0.29765052 0.17274815 -0.037423253
0.25189215 0.19459918 -0.046040058
0.27536267 0.19529912 -0.035937071
0.073117219 0.21753776 -0.038806677
0.22974633 0.2171773 -0.043486953
0.095104337 0.23914954 -0.048554897
0.20745325 0.23968685 -0.042209029
0.16229229 0.26164657 -0.047096729
0.18546638 0.26260728 -0.036697268
0.14042513 0.28484294 -0.038874149
-0.15089595 0.30627793 -0.048169494
-0.12921324 -0.34487477 -0.02600193
0.25407976 -0.29998517 -0.024180532
0.29790407 -0.27641481 -0.035227299
0.32160372 -0.27734089 -0.025202155
0.34355426 -0.25441602 -0.02972281
0.36707509 -0.2550354 -0.022408128
0.38974345 -0.23252696 -0.021691561
0.36606389 -0.23190993 -0.029705882
0.38860106 -0.20941681 -0.029502153
0.3880111 -0.18665943 -0.033535719
0.41163844 -0.1871191 -0.026070118
0.41112572 -0.16440421 -0.029400468
0.43493962 -0.16483888 -0.021333337
0.41074455 -0.14178014 -0.031876326
0.43451512 -0.14214566 -0.02395916
0.41021037 -0.11915587 -0.035345793
0.43419582 -0.11951809 -0.025933862
0.43377823 -0.096902072 -0.028517604
0.43373978 -0.074380182 -0.028755307
0.43385237 -0.05187615 -0.028058887
0.43407488 -0.02936653 -0.026682377
0.43447101 -0.0068360656 -0.024231672
0.41051769 -0.0068358136 -0.033349752
0.41103691 0.015669396 -0.029977322
0.43472725 0.015725872 -0.022646785
0.38786018 0.03810405 -0.034567833
0.41146827 0.038217887 -0.027175307
0.38817704 0.060624048 -0.032401443
0.41198182 0.060821801 -0.023839831
0.38883454 0.083249189 -0.02790606
0.365843 0.10563968 -0.031299949
0.38962871 0.10597951 -0.022476315
0.34297329 0.12800294 -0.034161925
0.36660308 0.12838832 -0.025814891
0.34376091 0.15080002 -0.028143883
0.32126653 0.17333218 -0.027940154
0.29875141 0.19585651 -0.027889132
0.2529844 0.21782106 -0.035125852
0.27658749 0.21863341 -0.024572253
0.23080169 0.24054605 -0.032062531
0.25414968 0.24127281 -0.023481965
0.096274197 0.2638517 -0.0232265
0.20864567 0.26339892 -0.028127074
0.11867003 0.28610906 -0.026223063
0.16350773 0.2857756 -0.029553175
-0.17416421 0.30838493 -0.028619528
0.3450523 -0.27798074 -0.018275261
0.36878598 -0.2787396 -0.010060549
0.39090198 -0.25576678 -0.0137707
0.41356909 -0.23315522 -0.013530493
0.41253597 -0.2100583 -0.020240664
0.4364813 -0.21064338 -0.011796594
0.43568289 -0.18769401 -0.016735315
0.45969737 -0.18820566 -0.008425951
0.45904511 -0.16532692 -0.012277365
0.45844674 -0.1425221 -0.015810609
0.48258215 -0.142919 -0.007220149
0.4580062 -0.11980766 -0.018411994
0.48225284 -0.12016691 -0.0090800524
0.45768201 -0.097154289 -0.020326138
0.48203355 -0.097462595 -0.010318398
0.45769942 -0.074577093 -0.020223498
0.48191482 -0.07479044 -0.010988832
0.45779198 -0.052005116 -0.019677043
0.48198485 -0.052145004 -0.010593653
0.45799458 -0.029429771 -0.018480301
0.48211271 -0.029495997 -0.0098712444
-0.78635931 -0.0068358975 -0.01181376
0.45830756 -0.0068358975 -0.016632557
0.48257291 -0.0068359394 -0.0072717667
0.45894045 0.015801007 -0.012895465
0.43534553 0.0383466 -0.018822432
0.45923138 0.038464215 -0.011178136
0.4359321 0.061021529 -0.015193701
0.41269642 0.083517201 -0.019198298
0.43656743 0.083761431 -0.011263847
0.41351622 0.10631055 -0.013873577
0.39066124 0.12886858 -0.015416384
0.41449815 0.12923446 -0.0074957609
0.36775678 0.15137428 -0.01748836
0.39168626 0.15186352 -0.0084087849
0.34492034 0.17386514 -0.01928401
0.36894572 0.17450416 -0.008907795
0.32238531 0.19648236 -0.018856525
0.34627593 0.19717064 -0.0089250803
0.30014807 0.21930924 -0.015793324
0.32377189 0.21993995 -0.0075992346
0.073829845 0.24154279 -0.020292044
0.27758157 0.24196136 -0.015347958
0.23208322 0.26431686 -0.018189788
0.2553758 0.26495987 -0.011229515
-0.19733235 0.28708071 -0.016512752
0.18670823 0.28667513 -0.020565033
0.2100576 0.28758708 -0.011453032
0.14190879 0.30987617 -0.014782429
0.16479391 0.31028494 -0.010988832
0.39293385 -0.27968016 0.00012111664
0.41469979 -0.25640902 -0.0061861277
0.43857312 -0.25702965 0.0011433363
0.43752772 -0.23378697 -0.0053237677
0.46132684 -0.23428872 0.0011951923
0.46043617 -0.2111792 -0.0040633678
0.48455423 -0.21173215 0.0039182901
0.48366737 -0.18865737 -0.0010906458
0.48315936 -0.16577509 -0.0039601326
0.50740713 -0.16622499 0.0043873787
0.50674373 -0.14328915 0.00079655647
0.50642705 -0.12048101 -0.0009175539
0.50621611 -0.097716786 -0.0020591021
0.53056163 -0.097976811 0.0063855648
0.50626409 -0.075002559 -0.0017998219
0.53056496 -0.075192079 0.006403327
-0.1301073 -0.052354731 0.0030332804
0.50630242 -0.052283548 -0.0015921593
0.53052145 -0.052403141 0.0061774254
0.50638235 -0.029562896 -0.0011597872
-0.85896266 -0.0068359394 0.005030036
0.50673413 -0.0068358975 0.00074470043
-0.88073403 0.015911775 0.0015072823
0.48302788 0.015863955 -0.0047023296
0.50727242 0.015928332 0.0036580563
0.48354489 0.038608812 -0.0017825365
0.46000081 0.0612192 -0.0066343546
0.48454499 0.061461665 0.0038661957
0.46095145 0.084076926 -0.001021266
0.43763089 0.1066642 -0.0046850443
0.46179974 0.10699798 0.0039879084
0.43862635 0.1296486 0.0014723539
0.41556162 0.15228498 -0.00058841705
0.39295667 0.17507002 0.00027692318
0.37022322 0.19781053 0.00031173229
0.34764344 0.22064248 0.0015245676
0.30140686 0.24284673 -0.00489223
0.32514131 0.24355897 0.0035190582
0.074769728 0.26637843 0.004126668
0.27920026 0.26596671 -0.00032901764
0.097444624 0.28894487 0.0021139383
0.23361801 0.2885755 -0.0015748739
0.12027831 0.31185979 0.0036234856
0.18838069 0.31159437 0.0011603832
0.052502379 -0.37312374 0.020381331
0.075079344 -0.37211236 0.012170553
0.12051812 -0.37160769 0.0080734491
0.14352244 -0.37201989 0.01142025
-0.15322717 -0.34930873 0.012397528
0.14387561 -0.34985802 0.017154574
0.41839856 -0.2813167 0.017838001
0.462713 -0.25772703 0.0093798637
0.48692566 -0.2583988 0.017312407
0.48539788 -0.23486519 0.0086829662
0.50970119 -0.23549035 0.016804457
0.50880647 -0.21228939 0.011961102
0.53318411 -0.2128472 0.020012617
0.50808817 -0.18922183 0.0080735683
0.53243524 -0.18971732 0.016121507
0.53181946 -0.1666849 0.012921572
0.5562464 -0.16711321 0.020872951
0.53122503 -0.14370659 0.0098330975
0.55572671 -0.14409652 0.018276095
0.5308094 -0.12081177 0.0076733828
0.55544966 -0.12116639 0.016891837
0.55524987 -0.098269664 0.015893936
0.55514485 -0.075399116 0.015369177
0.55529195 -0.052556016 0.016104102
0.530729 -0.029627945 0.0072556734
0.55549169 -0.029703792 0.017102242
0.53128541 -0.0068359817 0.010146856
0.55594081 -0.0068359394 0.019345999
0.53190678 0.016003044 0.013375759
0.50814289 0.038765088 0.008369565
0.53249925 0.038889725 0.01645422
0.50885803 0.061655 0.012240767
0.53306931 0.061820775 0.019416094
0.48516971 0.084336199 0.0073949099
0.50954598 0.084599927 0.015964031
0.48604935 0.10732037 0.012362599
0.46287531 0.13005808 0.010338664
0.48723608 0.13046119 0.019065261
0.43985963 0.15280727 0.0091012716
0.46418101 0.15328929 0.018048286
0.41689253 0.17554897 0.0080561638
0.4410426 0.1760639 0.016418934
0.39409953 0.19834951 0.0080910921
0.41808844 0.19888529 0.01582396
0.37148702 0.22125107 0.0094320774
0.39548928 0.22187915 0.017592549
0.34908468 0.24432272 0.012537241
0.37306011 0.24502119 0.020785213
0.30311525 0.26691189 0.0099028349
0.32694161 0.26767239 0.018136024
0.25728667 0.28952023 0.0078647137
0.28109396 0.29045877 0.017242193
0.21183644 0.31249905 0.0095541477
0.23559113 0.31360152 0.019784331
0.14366765 0.33579636 0.013777733
0.16651949 0.33581233 0.013917565
0.029819645 -0.37424496 0.029485226
0.1674415 -0.37396669 0.02722609
0.075459592 -0.35042346 0.022050142
0.51275635 -0.25975612 0.033340693
0.53432125 -0.23619223 0.025921583
0.55763453 -0.21338728 0.027808189
0.55668259 -0.1901443 0.023052096
0.58159107 -0.19073534 0.032650232
0.58092219 -0.16757447 0.029432178
0.58030242 -0.14447406 0.026450276
0.58007169 -0.12149159 0.02534008
0.60473496 -0.12180099 0.033375978
0.57973874 -0.098511197 0.023738146
0.60458612 -0.098786652 0.032685757
0.57984847 -0.075604603 0.024266005
0.60448313 -0.075788066 0.032207727
0.57983017 -0.052680228 0.024178147
0.6045022 -0.052805368 0.032296181
0.58012658 -0.029769219 0.025604486
0.60488766 -0.029834438 0.034084797
-0.81877494 -0.0068358555 0.025516391
0.58061397 -0.0068358136 0.027949333
0.55641872 0.016067548 0.02173388
0.58120137 0.01613705 0.030775189
0.55703127 0.039018016 0.02479434
0.58193707 0.039164584 0.03431499
0.55781108 0.06203492 0.028690577
0.53411448 0.084873401 0.024847031
0.55878437 0.085141666 0.033553123
0.51058596 0.10767574 0.021593094
0.53504789 0.1079875 0.029697061
0.5119037 0.13090742 0.028725863
0.4885655 0.15374854 0.02657342
0.46526086 0.17655697 0.024424553
0.48991412 0.17715827 0.034191012
0.44242495 0.1995188 0.024970531
0.46686387 0.20013681 0.033889651
0.41979235 0.22259483 0.026890993
0.3971383 0.24570543 0.028867006
0.35089386 0.26843247 0.0263623
0.37485874 0.26911643 0.033765674
0.30505854 0.29140848 0.026732206
0.32887763 0.29212123 0.033854246
0.25941139 0.31460521 0.029096603
-0.15394746 0.33779776 0.031111002
0.19041842 0.337396 0.02763164
0.0069896691 -0.37530968 0.038129687
0.099372834 -0.37601551 0.043861032
0.053071871 -0.35236627 0.038876057
0.16839775 -0.35261479 0.041028142
0.5593698 -0.23700494 0.0364784
0.58237934 -0.2139855 0.036442876
0.60628843 -0.19122392 0.040583253
0.60580933 -0.16805556 0.038360476
0.63054675 -0.16846743 0.046002626
0.60535777 -0.14492747 0.036265373
0.63012439 -0.14528993 0.044110775
0.62979805 -0.12215792 0.042648911
0.62950379 -0.099052809 0.041330814
-0.15441418 -0.076042801 0.04323709
0.62949979 -0.075998172 0.041313052
-0.15427369 -0.05291748 0.03958714
0.62980998 -0.05296547 0.042702436
0.62998509 -0.029906671 0.043486476
0.60535389 -0.0068359817 0.036247492
-0.1541158 -0.0068358555 0.03548491
0.63031161 -0.0068358136 0.044949412
-0.15414995 0.016180165 0.036372066
0.60618865 0.016209075 0.040120721
0.63088179 0.016265763 0.047503471
-0.15429971 0.039256025 0.040263057
0.60673749 0.039293215 0.042666674
-0.15442584 0.062377773 0.04354012
0.58262289 0.062240988 0.037614584
0.60796887 0.062489629 0.04837966
-0.1544382 0.085459054 0.043861032
0.58371365 0.085428163 0.042862654
0.56006682 0.10838266 0.039960742
0.58493102 0.10871976 0.048719645
0.536452 0.13128933 0.036993146
0.56129396 0.13170949 0.046091914
0.51309681 0.1542125 0.035183549
0.53770846 0.15466183 0.043522358
0.51460445 0.1777221 0.043344021
0.49144953 0.20075837 0.042862654
0.44407314 0.223232 0.035165906
0.46877915 0.22400439 0.045199275
0.42141598 0.24643111 0.037437081
0.4460879 0.24729431 0.047628641
0.39935219 0.27006203 0.044003844
0.076451004 0.2935175 0.047807574
0.35266876 0.29272884 0.039925098
0.099237055 0.31587949 0.04092145
0.28321677 0.31545034 0.036939859
0.30715382 0.31630594 0.044877887
0.12230352 0.33896357 0.041206121
0.21409081 0.33838275 0.036176801
0.2381203 0.33965153 0.047163844
-0.15502323 -0.40107843 0.059060693
0.14608654 -0.40029255 0.053055525
0.16943386 -0.40067571 0.055983067
-0.039069548 -0.37802967 0.060213923
-0.015948495 -0.3767727 0.050008297
0.60825819 -0.21490553 0.049721956
0.63165694 -0.19186386 0.050975442
0.65618277 -0.16906154 0.057026386
0.65522432 -0.1456947 0.052876234
0.65487647 -0.1224935 0.051369786
0.68070412 -0.12292838 0.062667847
0.65469444 -0.099337719 0.050581455
0.68037677 -0.099667713 0.061296105
0.65466541 -0.076209374 0.050455928
0.68018311 -0.076440953 0.060484648
0.65473163 -0.053089391 0.050742745
0.68032503 -0.053248275 0.061079621
0.65507936 -0.029974284 0.052248359
0.68063515 -0.030052233 0.062378883
0.65555596 -0.0068359394 0.054312348
0.65643626 0.016347662 0.058124185
-0.94137156 0.039436087 0.05194366
0.63179696 0.039430749 0.05160296
0.65735221 0.039592363 0.062090158
0.63303983 0.062692761 0.057170272
0.60879505 0.085716262 0.052212477
0.6337676 0.085969277 0.060430288
0.60982102 0.10903727 0.056972146
0.58616805 0.13210574 0.054671407
0.61118877 0.13250506 0.063318133
0.56281346 0.15520951 0.053683639
0.58751124 0.15561092 0.061133623
0.53942579 0.17828253 0.052445531
0.56395453 0.17871001 0.059384942
0.51629597 0.20142618 0.052499413
0.54094172 0.20196804 0.060322046
0.49306053 0.22452497 0.05196166
0.5177179 0.22515887 0.060196042
0.47038025 0.24788898 0.054653168
0.49502969 0.2486029 0.063083172
0.4237709 0.27086845 0.052732706
0.44782817 0.27139154 0.058394074
0.37701017 0.29366609 0.049292326
0.40157026 0.29465443 0.059168696
0.33102393 0.31699589 0.05128026
0.35528141 0.31792384 0.059889436
0.26219386 0.34077561 0.056900382
0.28604013 0.34149581 0.063137293
0.14633217 0.36396757 0.057044387
0.169195 0.36341214 0.052535295
0.19238937 0.36349839 0.053235054
0.21593858 0.36408502 0.057998061
-0.13201034 -0.40183428 0.064836264
-0.1089766 -0.40297586 0.073560119
-0.062392361 -0.40332371 0.076217771
-0.039069548 -0.40262869 0.070906758
-0.13216931 -0.37923494 0.069999099
-0.062379606 -0.37979668 0.074560523
0.68189549 -0.14637765 0.067659974
0.70703608 -0.10009902 0.075307012
0.70615792 -0.076701067 0.071742296
0.70598346 -0.053401653 0.071033597
0.70626092 -0.03012741 0.072160125
0.68126476 -0.0068358975 0.065017223
0.7068119 -0.0068359817 0.074396849
-0.92469734 0.016470196 0.074032903
0.68197757 0.016423637 0.068004608
0.70755231 0.01649604 0.077402592
0.68267894 0.039728556 0.070942998
0.65817022 0.062888123 0.065632343
0.68415076 0.063153192 0.077110767
0.65932959 0.086284012 0.070652604
0.63501376 0.10938534 0.066012025
0.66031623 0.10972831 0.074924588
0.63642263 0.13292104 0.07232368
0.61279315 0.15612972 0.070761442
0.58918798 0.17931446 0.069200873
0.56579214 0.20253921 0.068566084
0.54251778 0.22579902 0.068511844
0.51985776 0.24933901 0.071778536
0.47264445 0.27228075 0.06802249
0.49730355 0.27301082 0.075926304
0.42619747 0.29558769 0.068493843
0.45041811 0.29618031 0.074415207
0.37938219 0.31862655 0.066410422
0.40359801 0.31934008 0.073032618
0.31003571 0.34226933 0.06983602
0.33400571 0.34292227 0.075489044
0.24016105 0.36547151 0.069255233
-0.085829347 -0.40429413 0.083633304
0.73413122 -0.030266207 0.090184331
0.73414528 -0.0068360236 0.090239286
-0.94926131 0.016502259 0.078223467
0.70873106 0.039901555 0.082187653
0.71000397 0.063389815 0.087354898
0.68517029 0.086614341 0.081383109
0.68674868 0.11023161 0.087997437
0.66240776 0.13345954 0.083981395
0.63830233 0.15666768 0.080743074
0.61447626 0.17989138 0.078570127
0.64031553 0.18058074 0.089761257
0.59123778 0.20326647 0.079062939
0.61667454 0.2039389 0.088768959
0.5679003 0.22661409 0.079099536
0.59345371 0.22743189 0.089724541
0.54501945 0.25016341 0.081511021
0.5702883 0.25096932 0.091030359
0.52205479 0.27372637 0.083670139
0.47499692 0.29693064 0.081913352
0.49973357 0.29770494 0.089650989
0.42801309 0.32012194 0.080286622
0.45283955 0.32110354 0.089393735
0.35825461 0.34374419 0.082608461
0.38277316 0.34469965 0.090883017
0.26465857 0.36698323 0.081529379
-0.17974329 -0.40541169 0.09217155
-0.18026571 -0.1009668 0.10348201
-0.18009029 -0.077346347 0.099684119
-0.17988801 -0.053775515 0.095304966
0.73491687 -0.053744085 0.093276739
-0.17976031 -0.03028436 0.092540026
-0.17981988 -0.0068359817 0.093829751
-0.8619498 0.016674882 0.10064662
-0.17989826 0.016635593 0.095526576
0.73500115 0.016620759 0.093608499
-0.17995197 0.040124774 0.096689463
0.7367326 0.040182427 0.10042453
-0.18003732 0.06364812 0.098537326
-0.18011081 0.087191716 0.10012817
0.71173507 0.087014809 0.094382763
0.7134378 0.11074334 0.10129452
0.68834293 0.13395363 0.094677687
0.66422266 0.15726563 0.091840267
0.69028908 0.15785801 0.10283303
0.66625214 0.18124983 0.10062814
0.64239031 0.20465156 0.099054933
0.61887974 0.22814605 0.0989995
0.59528542 0.25160503 0.098537326
0.54720223 0.27457461 0.09285295
0.57240576 0.27538341 0.10160971
0.52510917 0.29876083 0.10020232
0.4778561 0.32211673 0.098796129
0.40648353 0.34491655 0.092760801
0.43137598 0.34599823 0.10212862
0.28947312 0.36864147 0.094991326
0.31343746 0.36917171 0.099295735
0.33633506 0.36856869 0.094401002
-0.20409684 -0.38404116 0.10902011
-0.15715435 -0.24300548 0.1144284
-0.18075232 -0.14851871 0.11401761
-0.93459427 0.04029702 0.10786617
0.73838681 0.063841924 0.10693634
0.71559769 0.1346643 0.11006296
0.69273531 0.18201676 0.11308408
0.66846114 0.20542327 0.11019349
0.64487684 0.22900769 0.11019361
0.62112784 0.25252736 0.10942984
0.59873599 0.27663329 0.11513889
0.55052865 0.29975519 0.11013758
0.50374699 0.32357416 0.11231875
0.52863985 0.32432804 0.11931276
0.45698327 0.34748775 0.11502659
0.36258996 0.37119672 0.11573696
-0.086434416 -0.38575506 0.12293434
-0.18114421 -0.17258975 0.12250221
0.71877307 0.15894213 0.12295306
0.673693 0.23075154 0.13284802
0.64903212 0.25416824 0.12880695
0.57718188 0.30128986 0.12547243
0.0084208958 0.34934247 0.13109076
0.032124706 0.34913537 0.12929726
0.055936359 0.34943625 0.13190293
0.48234206 0.34867209 0.12528455
0.00835035 0.37252337 0.126508
0.055825934 0.37274617 0.12831676
0.38690734 0.37181011 0.12071919
0.41234118 0.37329945 0.13281012
0.12737019 -0.41104677 0.13523233
-0.15804115 -0.38754487 0.13746834
-0.15841827 -0.29327294 0.14726639
-0.18170594 -0.1970177 0.13466442
-0.99037546 0.016946677 0.13595212
-0.89708644 0.016997816 0.14259756
-0.99003136 0.040712189 0.13483465
0.62790394 0.27900979 0.14086688
0.60314858 0.30238026 0.13636899
0.5556863 0.32622734 0.13693762
-0.039069548 0.35052618 0.14134228
-0.015293172 0.34980986 0.13513756
0.50872415 0.35042086 0.14042985
0.53357172 0.35106477 0.14600718
-0.20686418 -0.030806476 0.16037571
-0.20690566 -0.0068359394 0.16114569
-0.20694201 0.017145773 0.16181993
-0.20694095 0.041127402 0.16180074
-0.039069548 0.32883638 0.16114604
-0.086970314 0.35241973 0.15774119
-0.062962234 0.35155442 0.15024638
0.080491111 0.35184622 0.15277278
-0.18354452 -0.39210242 0.17447042
-0.15939513 -0.34374744 0.17264569
-0.15901999 -0.31870696 0.16289902
-0.18302698 -0.2467649 0.16326535
-0.20749609 -0.12714061 0.17210269
-0.20716548 -0.10289063 0.16596746
-0.20699599 -0.07880453 0.16282201
-0.20697108 -0.054807644 0.1623596
-0.20702924 0.065146767 0.16343915
-0.20711866 0.089192271 0.16509843
-0.087207548 0.33013007 0.17315018
-0.06309396 0.32950589 0.16735888
-0.1111687 0.35365972 0.16848063
-0.039069548 0.37776911 0.16909993
0.10554819 -0.41658616 0.17756152
0.12964591 -0.36836892 0.17746413
-0.18365674 -0.2719124 0.17690003
-0.20811382 -0.17588013 0.18356669
-0.20771895 -0.15139243 0.17623878
-0.11140674 0.33073774 0.17878795
0.05747728 0.33107799 0.18194592
-0.13546041 0.35462978 0.1768806
-0.2328749 -0.39444637 0.19350183
-0.18440086 -0.29749843 0.19301069
-0.20865346 -0.20064616 0.19358063
-0.18509766 -0.32323006 0.20809698
-0.20924771 -0.22563651 0.20460892
-0.20997842 0.35939732 0.21816909
0.083362781 -0.4231059 0.22738075
-0.2597571 -0.39916915 0.2318455
0.10765748 -0.3736535 0.22322893
-0.18566348 -0.3733207 0.22034693
-0.18563852 -0.34883025 0.21980727
-0.21058637 -0.2763623 0.22945082
-0.21001285 -0.25104049 0.21880794
-0.23525731 -0.080406338 0.23218822
-0.23524244 -0.031357627 0.23194647
-0.23520401 -0.0068357717 0.23132229
-0.21137781 -0.30222157 0.2441386
-0.23604329 -0.1545662 0.24495041
-0.23573613 -0.12975252 0.23996305
-0.23553064 -0.10506649 0.23662639
-0.40777731 -0.055997059 0.23959863
-0.23535289 -0.055906799 0.23374009
-0.23534918 0.017699068 0.23367965
-0.23531814 0.042226262 0.23317552
-0.23540756 0.066790856 0.2346276
-0.23550825 0.091383472 0.23626256
-0.26067346 0.31325859 0.24507248
-0.26039243 0.33744419 0.24101591
-0.21221747 -0.32839629 0.25972044
-0.23668818 -0.20445457 0.25542247
-0.2363238 -0.17943326 0.24950576
-0.4086464 -0.080751292 0.24712491
-0.2120112 0.28963539 0.25589252
-0.23616843 0.31344974 0.24698257
-0.23645686 0.33859178 0.25166583
0.034889519 0.3383064 0.24901712
-0.28722304 -0.40388131 0.27010357
-0.21279252 -0.37909943 0.27039254
-0.21278143 -0.35425958 0.27018595
-0.23786454 -0.25532955 0.27452385
-0.23729932 -0.22984445 0.26534581
-0.21247074 0.24088004 0.26442075
-0.2125849 0.26583102 0.26653922
-0.23786964 0.29136428 0.2746067
0.060399972 -0.42958134 0.27686298
-0.23858045 -0.28116331 0.28614855
-0.2380992 0.16731507 0.27833426
-0.28823704 0.29216513 0.28327632
-0.26330733 0.29214782 0.28308904
0.03569559 0.31714642 0.28392088
-0.014003506 -0.43295851 0.30266964
-0.31459475 -0.40759987 0.30029345
-0.33916765 -0.38195845 0.2951529
-0.23927826 -0.3071489 0.29747963
-0.24027412 -0.38409451 0.31365061
-0.24048051 -0.35930493 0.31700194
-0.2400929 -0.33349892 0.31070828
-0.26561716 -0.18303967 0.31642878
-0.26537043 -0.13255858 0.31286705
-0.26527947 -0.10737359 0.31155443
-0.26522082 -0.082219772 0.31070817
-0.26512712 -0.057071041 0.30935526
-0.2650305 -0.031942692 0.30796099
-0.26502174 -0.0068358555 0.30783451
-0.26502609 0.018270392 0.30789781
-0.2650612 0.043384537 0.30840456
-0.26511097 0.068511121 0.3091228
-0.26550105 0.093800247 0.31475294
-0.24031459 0.21956491 0.31430769
-0.23995884 0.26938677 0.30853128
0.011230294 0.32011306 0.31356609
0.011331286 -0.43524307 0.3201263
-0.41761458 -0.2591992 0.32479131
-0.26664078 -0.25969273 0.33120382
-0.26629412 -0.23406032 0.32619989
-0.26584828 -0.20841679 0.31976438
-0.26573339 -0.15794519 0.31810641
-0.26611233 0.11929897 0.32357574
-0.26739857 -0.38738409 0.34214115
-0.39403903 -0.33645043 0.34020197
-0.26727319 -0.28575146 0.3403312
-0.44480199 -0.1589855 0.34063268
-0.44524294 -0.13376498 0.34421194
-0.26688293 0.14503956 0.33469844
-0.26685172 0.27156457 0.33424783
-0.29404616 -0.38930064 0.35873878
-0.26822308 -0.36329696 0.3540417
-0.26825765 -0.33788538 0.35454118
-0.26780111 -0.31181127 0.34795082
-0.44625849 -0.18498099 0.35245705
-0.44659805 -0.10871806 0.3552146
-0.2681644 0.17134899 0.35319507
-0.29323238 0.27274323 0.3481673
0.01187687 0.34978893 0.35556245
0.037494414 -0.44069827 0.36181211
-0.32021111 -0.39021054 0.36661887
-0.4220078 -0.28765729 0.36283815
-0.44746983 -0.21103603 0.36229253
-0.44872624 -0.083646439 0.37249362
-0.3202185 0.27431306 0.36670661
-0.013536803 0.32508978 0.36329651
-0.37223458 -0.36562896 0.37568045
-0.3474645 -0.36663014 0.38496876
-0.32160389 -0.36642519 0.38306725
-0.29520816 -0.36542982 0.37383342
-0.29600233 -0.34084845 0.38415003
-0.29614878 -0.31533101 0.38605309
-0.29602957 -0.28949183 0.38450408
-0.29574895 -0.26351532 0.3808589
-0.29566061 -0.2377679 0.37971163
-0.29559785 -0.21205857 0.37889564
-0.29550284 -0.18633911 0.37766194
-0.29538763 -0.16062665 0.37616467
-0.29530972 -0.13495591 0.37515259
-0.29533851 -0.10934351 0.37552679
-0.29531646 -0.083709888 0.37524056
-0.29544181 -0.058110397 0.37686896
-0.29553002 -0.032481991 0.37801421
-0.2956199 -0.0068357717 0.37918234
-0.29586792 0.018843982 0.38240433
-0.29583395 0.044516928 0.38196254
-0.4504618 0.070300058 0.38658464
-0.29586619 0.070203073 0.38238227
-0.29622549 0.096026704 0.38704956
-0.013378991 0.30145085 0.38379657
-0.37419009 -0.34195623 0.39522088
-0.34879243 -0.3423692 0.39934444
-0.32254827 -0.34185624 0.39421976
-0.40017021 -0.3163507 0.3970921
-0.29694372 0.12210121 0.39637887
-0.42590135 0.19947445 0.39655745
-0.3734588 0.25038671 0.38791382
-0.29676205 0.25085667 0.39401972
-0.013332618 0.35348102 0.38982093
-0.37548709 -0.31737509 0.40818155
-0.34957361 -0.31733996 0.40780032
-0.32322806 -0.31682691 0.40224743
-0.40142339 -0.29154247 0.4087199
-0.35010487 -0.29195163 0.41355157
-0.32353503 -0.29130146 0.40587294
-0.32392251 -0.26579309 0.41044891
-0.32406908 -0.24001744 0.41217947
-0.32425958 -0.21424678 0.41442943
