ply
format ascii 1.0
comment PCL generated
element vertex 1273
property float x
property float y
property float z
element camera 1
property float view_px
property float view_py
property float view_pz
property float x_axisx
property float x_axisy
property float x_axisz
property float y_axisx
property float y_axisy
property float y_axisz
property float z_axisx
property float z_axisy
property float z_axisz
property float focal
property float scalex
property float scaley
property float centerx
property float centery
property int viewportx
property int viewporty
property float k1
property float k2
end_header
-0.76247501 0.26976031 -0.53718376
-0.7436583 0.27012208 -0.5338257
-0.76083851 0.28893003 -0.54263467
-0.74287796 0.28963903 -0.5364933
-0.76230472 0.30928868 -0.53775108
-0.070141047 0.092360817 -0.51660132
-0.050175719 0.092347838 -0.51693958
-0.030277766 0.092490174 -0.51323926
-0.070033178 0.1121565 -0.52010465
-0.050084449 0.11212014 -0.52089149
-0.030239511 0.11235891 -0.51572418
-0.090289891 0.13254373 -0.51163059
-0.070006251 0.13204001 -0.52097899
-0.050057068 0.13198078 -0.52207732
-0.030249551 0.13235831 -0.51507205
-0.090280205 0.15252401 -0.51188207
-0.070031643 0.15201449 -0.52015471
-0.050089352 0.15198223 -0.52067906
-0.030299049 0.15252547 -0.51185703
-0.070156097 0.17222467 -0.51611269
-0.050173983 0.17216223 -0.51701474
-0.76576132 0.25105658 -0.52623731
-0.74675208 0.2513558 -0.52324957
-0.72873569 0.25201973 -0.51661402
-0.70990145 0.25242537 -0.51256096
-0.72649795 0.27113032 -0.52447039
-0.70933074 0.27219197 -0.51462036
-0.72611511 0.29087225 -0.52581447
-0.74705476 0.31120205 -0.52221459
-0.070682466 0.052851859 -0.49901831
-0.050526313 0.052788597 -0.50175846
-0.030495152 0.052849509 -0.49911994
-0.070323169 0.072585315 -0.51068693
-0.05031779 0.07258226 -0.51078767
-0.030353915 0.072659023 -0.50829345
-0.010423705 0.073024079 -0.49643767
-0.010387626 0.092956498 -0.50112468
-0.090350449 0.11262057 -0.51005763
-0.010387234 0.11303093 -0.50117528
-0.010409119 0.13326021 -0.49833214
-0.090369835 0.17267917 -0.50955385
-0.030391999 0.17293786 -0.50581992
-0.090516955 0.19298516 -0.50573134
-0.070343316 0.19265403 -0.51003236
-0.050336689 0.19265899 -0.50996947
-0.030532919 0.19368285 -0.49666661
-0.070559487 0.21325657 -0.50301218
-0.050543293 0.21342506 -0.50102317
-0.090800777 0.21365076 -0.49835771
-0.75220561 0.23317146 -0.50460637
-0.73327029 0.23353295 -0.50069344
-0.71282494 0.23341124 -0.50201172
-0.69366771 0.23372406 -0.49862444
-0.69178694 0.25312135 -0.50560498
-0.67424411 0.25407705 -0.4960559
-0.69264585 0.27350697 -0.50241709
-0.71221453 0.29336625 -0.50421447
-0.73111272 0.31291983 -0.50826836
-0.071126372 0.032980919 -0.48460186
-0.050877482 0.03295086 -0.48655212
-0.030716103 0.032978285 -0.48476875
-0.01048846 0.053105723 -0.48802555
-0.010459915 0.15376477 -0.49173421
-0.010534901 0.17458858 -0.48199284
-0.11165282 0.21503331 -0.48203146
-0.030736271 0.21491238 -0.48345852
-0.67542207 0.2343771 -0.49155527
-0.65816861 0.23543049 -0.48015189
-0.091196492 0.23469836 -0.48807681
-0.070834875 0.23414488 -0.49406904
-0.050829854 0.23464867 -0.48861444
-0.65710014 0.25524765 -0.48435807
-0.091517389 0.25570983 -0.47973931
-0.071209878 0.25549468 -0.48188996
-0.67517805 0.27457735 -0.49248725
-0.051317979 0.012908937 -0.46747839
-0.030972496 0.012903951 -0.46811545
-0.010592408 0.033136096 -0.47452271
0.0096890368 0.073835805 -0.47007716
0.0096890368 0.09399391 -0.47417331
0.0096890368 0.11421999 -0.47542799
0.0096890368 0.13482693 -0.46925914
-0.11186174 0.19515783 -0.47750807
-0.010638326 0.19584689 -0.46855736
-0.70262766 0.21644427 -0.46536934
-0.68189067 0.21631962 -0.46684086
-0.11190766 0.2357665 -0.47651362
-0.031009763 0.23676586 -0.46569502
-0.11226615 0.25680944 -0.46875215
-0.0511804 0.25634065 -0.47343528
-0.091946274 0.27715212 -0.46859658
-0.071661264 0.27729923 -0.46723115
-0.031257316 -0.007426877 -0.44961584
-0.07203877 0.013005035 -0.45497084
-0.010714954 0.012977142 -0.45860326
0.0096890368 0.053758461 -0.45975494
-0.66354287 0.21698384 -0.45899606
-0.010776125 0.21769002 -0.45065701
-0.64430493 0.23782103 -0.45427477
-0.66304445 0.27797517 -0.46095824
-0.11275186 0.27826867 -0.45823658
-0.051630788 0.27873242 -0.45393324
-0.092589632 0.29940927 -0.45188153
-0.072230071 0.29976976 -0.44875848
0.277365 -0.15155992 -0.43438029
0.2359844 -0.13086072 -0.43673849
0.25624844 -0.1307065 -0.44007587
0.27680168 -0.13070963 -0.44000936
0.19510025 -0.11043302 -0.43297923
0.21513371 -0.1101492 -0.44035447
0.23526751 -0.1099625 -0.44520473
0.25557196 -0.10987805 -0.4473989
0.27676579 -0.11014853 -0.44036794
0.23593031 -0.089696445 -0.43737733
0.25646698 -0.08968614 -0.43770981
-0.01085533 -0.007426877 -0.44036782
-0.051826559 -0.007426783 -0.44545615
0.0096890368 0.033598192 -0.44450355
0.0096890368 0.15689707 -0.44087207
-0.64764899 0.21853316 -0.44069958
-0.010908611 0.2397449 -0.43344641
-0.64732867 0.25948662 -0.44199967
-0.031304669 0.25903222 -0.44654012
-0.11347486 0.30048296 -0.44258296
-0.093330041 0.32223427 -0.43264556
0.25725099 -0.15183803 -0.42922246
0.29899257 -0.15207861 -0.42475736
0.19565034 -0.13140102 -0.42503917
0.21596181 -0.1311906 -0.42959726
0.29864845 -0.13126653 -0.42795026
0.17516515 -0.1108493 -0.42216241
0.29942459 -0.11090373 -0.42074871
0.19577603 -0.090132199 -0.42322505
0.21584031 -0.089887373 -0.43117571
0.27824742 -0.090060189 -0.42556286
-0.052322265 -0.028097223 -0.42399144
-0.031578712 -0.028060675 -0.42874074
-0.011025771 -0.028141579 -0.41822696
0.0096890368 0.013259931 -0.42187989
-0.67237377 0.19925894 -0.42423332
-0.031633835 0.28183338 -0.42516029
-0.052170243 0.3018696 -0.43057394
-0.11412844 0.3227531 -0.4284327
-0.072867081 0.32279766 -0.42807078
-0.093885019 0.34472492 -0.41822696
0.25975433 -0.17413712 -0.40212309
0.27927765 -0.17332761 -0.41526771
0.13460131 -0.13233918 -0.40472972
0.1552102 -0.13215914 -0.40862322
0.17559306 -0.13185486 -0.41521347
0.15509748 -0.11128999 -0.41071498
0.17590438 -0.090534605 -0.41015828
-0.052765515 -0.049063198 -0.40479791
-0.031879231 -0.04899504 -0.40922129
-0.073680371 -0.028269239 -0.40165865
-0.2401972 -0.00742683 -0.40406168
-0.07326965 -0.007426877 -0.4149971
0.0096890368 0.1802159 -0.40077055
-0.65515232 0.2003361 -0.4102397
-0.63537556 0.22146699 -0.40605152
-0.63511562 0.24217501 -0.40714049
-0.011072425 0.26247206 -0.41216636
-0.031958669 0.30493096 -0.40406168
-0.052661486 0.32510924 -0.40930271
-0.11486346 0.34547186 -0.41251898
-0.073418632 0.34578088 -0.41015851
0.11438796 -0.15400538 -0.38900161
0.11411898 -0.13274281 -0.39599013
0.13495998 -0.11181922 -0.39696395
-0.032194354 -0.070251897 -0.38875341
-0.074191734 -0.049367249 -0.38505137
-0.011181224 -0.049167387 -0.3980329
-0.24118516 -0.028333021 -0.39336681
0.0096890368 -0.00742683 -0.38926351
-0.24116611 0.013477763 -0.39357281
-0.011240771 0.28559059 -0.39029741
-0.05312204 0.34850273 -0.38935995
-0.11582176 0.36910555 -0.39177108
-0.094772071 0.36863327 -0.39518023
-0.074106216 0.36965179 -0.38782907
-0.77047062 -0.26045159 -0.37008607
-0.76915443 -0.23897485 -0.37470734
-0.74928063 -0.23933417 -0.37046373
0.26211965 -0.19674984 -0.37651801
0.28288975 -0.19656575 -0.37917387
0.072869748 -0.15484843 -0.37335455
0.093745232 -0.15452512 -0.3793546
0.093678132 -0.13341045 -0.38153338
0.11468235 -0.11242021 -0.38135314
-0.011359606 -0.070572741 -0.37486053
-0.053233054 -0.070348889 -0.38455331
-0.64159405 0.20266449 -0.37999332
-0.011383878 0.3086668 -0.37170744
-0.032258805 0.32815591 -0.38456702
-0.13732627 0.34961045 -0.3808955
-0.1165996 0.39248723 -0.37493026
-0.095482349 0.39222449 -0.37672663
-0.75022328 -0.26073092 -0.36706221
-0.73145193 -0.26153225 -0.35838735
-0.73182446 -0.2404739 -0.3570044
0.24293716 -0.19826612 -0.35463059
0.052058846 -0.17690606 -0.35715961
0.073269516 -0.17697476 -0.35604393
0.30620468 -0.17686436 -0.35783708
0.051902719 -0.15517466 -0.36730039
0.073082775 -0.13421424 -0.36412978
-0.053726126 -0.091980353 -0.36320257
-0.032514721 -0.091834299 -0.36794484
-0.074893087 -0.070863381 -0.36227453
-0.22308937 -0.007426783 -0.36017752
-0.22324812 0.013749216 -0.35830259
-0.66730416 0.18297768 -0.3609097
-0.032581028 0.35186878 -0.36363804
-0.053623077 0.37244594 -0.36766458
-0.074761629 0.39371389 -0.36654341
-0.096282229 0.4164584 -0.35594499
-0.75478321 -0.28348622 -0.35060799
-0.7353676 -0.2841621 -0.34385395
-0.71389747 -0.26281035 -0.34455216
-0.75418615 -0.21961436 -0.35276234
-0.73552507 -0.22034509 -0.34326959
0.26442406 -0.21970594 -0.35157216
-0.054152232 -0.17767018 -0.34475183
-0.032847695 -0.1775738 -0.34631765
-0.011587767 -0.17764132 -0.34522164
0.0096890368 -0.17763595 -0.34530699
0.030926015 -0.17732267 -0.3503952
0.24321653 -0.17726503 -0.351331
-0.075607583 -0.15669575 -0.3390708
-0.054083545 -0.15622957 -0.34772563
-0.032874219 -0.15639825 -0.34459507
-0.011603672 -0.15647581 -0.34315538
0.0096890368 -0.15656044 -0.34158564
0.030943502 -0.15620802 -0.34812355
-0.054175925 -0.1138684 -0.34372568
-0.032841559 -0.11375325 -0.34671605
-0.075608894 -0.092724763 -0.33902776
-0.011534408 -0.092320524 -0.35215318
-0.65081066 0.18433121 -0.34137154
-0.011531027 0.33209419 -0.35259223
-0.032871805 0.37562081 -0.34475148
-0.054119352 0.39669281 -0.34617531
-0.11762741 0.4169614 -0.35267735
-0.075445801 0.41824731 -0.34432435
-0.71572918 -0.28479269 -0.33755374
-0.69589525 -0.28538415 -0.33164203
-0.67569548 -0.28586429 -0.32684505
-0.69547898 -0.26385149 -0.33328021
-0.67608315 -0.2645914 -0.32527137
-0.71595037 -0.24219248 -0.3367089
0.24513245 -0.22146623 -0.32870543
-0.054635148 -0.20039934 -0.3238405
-0.033170167 -0.20029333 -0.32537246
-0.011741566 -0.20030224 -0.32524264
0.0096890368 -0.20024122 -0.3261236
0.031084666 -0.19998744 -0.32978559
0.052548684 -0.20029525 -0.32534361
-0.075852707 -0.17851034 -0.33110964
-0.075779691 -0.13562988 -0.33348143
-0.05434392 -0.13549276 -0.33645082
-0.033082947 -0.13574277 -0.33103788
-0.01175414 -0.13608596 -0.32360899
-0.075841635 -0.11434019 -0.3314693
-0.011713134 -0.11443774 -0.32893586
-0.22563119 0.035358615 -0.3301599
-0.63363969 0.20701598 -0.32346463
-0.011679692 0.35584161 -0.33328021
-0.033202883 0.40004644 -0.32324731
-0.05461378 0.42125872 -0.32476568
-0.11870137 0.44193959 -0.32942557
-0.097212136 0.44155818 -0.33178556
-0.076113075 0.44303435 -0.32265425
-0.65866196 -0.28770307 -0.30847096
-0.65662009 -0.26535293 -0.31702721
-0.67961353 -0.24437466 -0.31093967
0.24699202 -0.24472989 -0.30674469
-0.70019156 -0.24405354 -0.31472945
0.26771587 -0.24395144 -0.3159368
-0.076404184 -0.20113654 -0.31320035
-0.70125061 0.18646583 -0.31056035
-0.63643098 0.18640903 -0.31137753
-0.011851219 0.38029781 -0.31099832
-0.097959459 0.46622667 -0.31236935
-0.72527099 -0.31005743 -0.30109751
-0.70282662 -0.30970609 -0.30435669
-0.65928012 -0.24480298 -0.30588078
-0.68421364 -0.22427143 -0.29226577
-0.66268456 -0.22432154 -0.29161477
-0.012002254 -0.22433965 -0.29137802
0.0096890368 -0.22391784 -0.29685807
0.031291716 -0.22345369 -0.30288935
-0.68341666 0.16584972 -0.29550099
-0.66108513 0.16567631 -0.29831684
-0.033548433 0.42494783 -0.30080342
-0.055121023 0.44624367 -0.30280137
-0.1200458 0.46826738 -0.30031812
-0.076827124 0.46841192 -0.29946506
0.24894418 -0.26843229 -0.28369081
-0.64187789 -0.24633464 -0.28779197
-0.64356124 -0.22517686 -0.28050268
0.053154264 -0.22475307 -0.28601015
-0.66610235 -0.20362432 -0.27729237
-0.64398515 0.16688631 -0.27866709
-0.012028832 0.40521261 -0.28792536
-0.033876371 0.45000982 -0.27950299
-0.055620838 0.47151232 -0.28115869
-0.099149853 0.49323216 -0.28144193
-0.077554524 0.49422368 -0.27584159
0.22899552 -0.27059466 -0.26028454
0.053515427 -0.24847192 -0.26255202
0.22806665 -0.24764226 -0.27235103
0.22818105 -0.22591881 -0.2708652
-0.6886614 -0.20383792 -0.27420986
-0.64626932 -0.20421441 -0.2687763
-0.66988683 -0.18280114 -0.26143396
-0.099898458 -0.18276675 -0.26199317
-0.012202784 0.43040958 -0.26532865
-0.1212503 0.4945074 -0.27423966
-0.056111652 0.49704513 -0.25990629
0.2301922 -0.29408097 -0.24473906
0.251459 -0.29315487 -0.25399244
-0.69612461 -0.18388022 -0.24391305
-0.64914703 -0.18311638 -0.25631535
-0.10016897 -0.16122797 -0.25496459
-0.01236717 0.45575362 -0.24397433
-0.034217257 0.47554252 -0.25736165
-0.12263831 0.52188259 -0.24418831
-0.10002597 0.51920521 -0.25868011
-0.078112826 0.51938421 -0.25771034
0.076129824 -0.27318999 -0.2321893
0.076016352 -0.25062692 -0.23710251
-0.67463082 -0.16195069 -0.2415545
-0.65257722 -0.16195558 -0.24146259
-0.65564644 -0.14049393 -0.22817242
-0.10083103 -0.14005093 -0.2377634
-0.18913963 0.080941528 -0.23931479
-0.67505538 0.14719281 -0.2397753
-0.65366936 0.14735678 -0.23673344
-0.63207626 0.16961178 -0.23440921
-0.034544092 0.5012542 -0.23613346
-0.056604918 0.52292478 -0.23854697
-0.10117699 0.54690319 -0.22877562
-0.079032362 0.54708195 -0.22784758
0.2316654 -0.31819373 -0.22560191
0.21039118 -0.29732996 -0.2122736
0.098780304 -0.27470058 -0.21583569
0.21024606 -0.27483621 -0.2143681
-0.057160776 -0.23025954 -0.21447754
-0.10157664 -0.20770501 -0.21839261
-0.70180935 -0.16306713 -0.2208358
-0.67835635 -0.14059699 -0.22594285
-0.6587767 -0.11883782 -0.21461809
-0.19057406 0.10383034 -0.21861053
-0.012506451 0.48087385 -0.22588098
-0.034903493 0.5276835 -0.21278965
-0.057169799 0.54973006 -0.21408677
0.21106535 -0.32067877 -0.20254266
0.076842859 -0.29842675 -0.20131373
0.099025056 -0.29776889 -0.20788693
-0.10244185 -0.23168857 -0.19591355
-0.079649881 -0.23077416 -0.20779276
-0.034964003 -0.23069204 -0.20885944
-0.70712346 -0.14182918 -0.19926345
-0.63997513 -0.1418401 -0.1990267
-0.68286365 -0.11912894 -0.20705521
-0.63972503 -0.1193947 -0.20014715
-0.66259253 -0.097064443 -0.19809496
-0.63743722 0.14877613 -0.2103951
-0.16965611 0.21675453 -0.19695711
-0.14714262 0.23902284 -0.19872677
-0.012682717 0.50712341 -0.20298338
0.21246165 -0.34538114 -0.18238866
0.23459564 -0.34478676 -0.18753672
0.099836275 -0.32294217 -0.18154192
0.12240568 -0.32303339 -0.1806953
0.12215826 -0.29984683 -0.18712294
-0.0579166 -0.25531423 -0.18174958
-0.26058012 -0.23265116 -0.18340993
-0.12544481 -0.16508307 -0.1834259
-0.12560345 -0.14271937 -0.17999172
-0.68652433 -0.097260825 -0.19171524
-0.64205039 -0.097321928 -0.18973064
-0.66583645 -0.07497935 -0.18404818
-0.6660096 0.12771274 -0.18329835
-0.19254631 0.12739664 -0.19014382
-0.17020687 0.1274952 -0.18801391
-0.71079296 0.15017855 -0.18436718
-0.17014422 0.19488558 -0.1890316
-0.14773017 0.19496925 -0.18782318
-0.19261345 0.2173537 -0.18917465
-0.14750078 0.21713008 -0.19208026
-0.19230014 0.23944876 -0.19369698
-0.16978763 0.23935366 -0.19482136
-0.19301945 0.26285112 -0.18331444
-0.17031567 0.26258036 -0.18624723
-0.14771731 0.26241267 -0.18806171
-0.035352383 0.55559093 -0.18363345
-0.08006978 0.5760054 -0.19415641
-0.10282801 0.57766181 -0.18588102
-0.05792914 0.57859743 -0.18120646
0.19083661 -0.3470785 -0.16768944
0.19072147 -0.32423347 -0.169559
-0.10345809 -0.25635049 -0.16951072
-0.080638617 -0.25582787 -0.17568314
-0.035654292 -0.25681508 -0.16402388
-0.28407016 -0.21079858 -0.17374098
-0.26129392 -0.21066409 -0.17568302
-0.26217243 -0.18866783 -0.1661725
-0.12601168 -0.18836121 -0.17115271
-0.12609497 -0.12058009 -0.16934967
-0.1258343 -0.097775795 -0.17499316
-0.6917156 -0.075304665 -0.16996169
-0.64454246 -0.075105883 -0.17856753
-0.1260801 -0.075311393 -0.16967189
-0.67007655 -0.05274459 -0.16568816
-0.64739245 -0.052742846 -0.16580117
-0.12628049 -0.052749902 -0.16533303
-0.1262514 -0.030083569 -0.1659627
-0.12613963 -0.007426877 -0.16838288
-0.12612325 0.0152086 -0.16873729
-0.69167715 0.1283215 -0.1701225
-0.6458711 0.12820625 -0.17261624
-0.62497467 0.1512392 -0.16468668
-0.17112544 0.150786 -0.17309833
-0.1710137 0.17327595 -0.17491281
-0.14845179 0.17330553 -0.17443132
-0.19339272 0.19565497 -0.17792702
-0.21590926 0.21817149 -0.17855132
-0.21630558 0.24116728 -0.1734035
-0.012913639 0.5350374 -0.17298591
-0.12608232 0.55828702 -0.16962326
0.19175197 -0.37155265 -0.15282571
0.21387972 -0.37043259 -0.16192055
0.12321188 -0.34799534 -0.15974927
0.14581467 -0.34774101 -0.16195285
0.16874781 -0.34826714 -0.15739632
0.14577654 -0.32496431 -0.16277862
0.16891953 -0.32588786 -0.15420973
-0.12694854 -0.21238321 -0.15086949
-0.69664168 -0.052996427 -0.14931905
-0.67319751 -0.030189639 -0.15217376
-0.64989299 -0.030171059 -0.15460026
-0.14966172 0.12915957 -0.15197825
-0.14914951 0.15141168 -0.16148329
-0.21737164 0.19692771 -0.1595546
-0.21764164 0.26536992 -0.1560477
0.16942897 -0.3725467 -0.14475584
0.14674377 -0.30437866 -0.14183736
0.19236605 -0.30427691 -0.14285457
-0.058949191 -0.28197968 -0.13703716
-0.12752053 -0.23610941 -0.13848555
-0.2643992 -0.16731152 -0.14206719
-0.24200258 -0.16759416 -0.13682306
-0.67724121 -0.007426877 -0.13466418
-0.65307945 -0.0074267359 -0.14032674
-0.17330973 0.10694729 -0.13762999
-0.15022409 0.10679686 -0.14154184
-0.63026083 0.12970534 -0.14016235
-0.035982739 0.58630615 -0.14269042
-0.10529597 -0.28339082 -0.12176132
-0.081985027 -0.28244904 -0.13195705
-0.12795649 -0.25977692 -0.12904644
-0.24296424 -0.14523761 -0.12546647
-0.70108461 -0.030355023 -0.13070095
-0.63313526 -0.030384846 -0.12682641
-0.6329602 -0.0074266889 -0.1276387
-0.68017107 0.015568484 -0.12197757
-0.65564197 0.015515802 -0.12884796
-0.63451397 0.015580479 -0.12042987
-0.65816492 0.038632192 -0.11754668
-0.17449723 0.084666468 -0.11834729
-0.1514497 0.084652551 -0.11879754
-0.6806246 0.10762542 -0.12001383
-0.65640795 0.10741747 -0.12541676
-0.01325915 0.5662778 -0.12810266
-0.24407637 -0.12277481 -0.11233282
-0.7048254 -0.007426877 -0.11502564
-0.70816272 0.015729776 -0.10104084
-0.68275428 0.038736191 -0.11079204
-0.63676482 0.038748421 -0.10998726
-0.68386674 0.061928734 -0.10597491
-0.66068441 0.061922148 -0.10626054
-0.6385296 0.06202516 -0.10179973
-0.6845274 0.085135385 -0.10311401
-0.66081578 0.085056692 -0.10567236
-0.70761168 0.10826688 -0.10334969
-0.63612938 0.10789796 -0.1129353
0.0096890368 0.52265853 -0.11524284
-0.24581045 -0.10033576 -0.091854215
-0.19969396 0.062367499 -0.086975932
-0.17585537 0.062152162 -0.096293807
-0.71014446 0.085454911 -0.092736483
-0.63875496 0.085208014 -0.10075426
-0.61706537 0.10863876 -0.093685985
-0.59528726 0.10891467 -0.086516261
-0.61666054 0.13176197 -0.095633864
-0.75835592 0.62097359 -0.085766792
-0.24743009 -0.077550232 -0.072727442
-0.71333158 0.039219595 -0.079380989
-0.62194341 0.039360709 -0.070216298
-0.17739668 0.039344527 -0.071265936
-0.61974353 0.062510215 -0.080800176
-0.61885303 0.085690573 -0.085085154
-0.59667766 0.085860468 -0.079568982
-0.57363921 0.085905582 -0.078097105
-0.55072087 0.085974723 -0.075851917
-0.52771688 0.086035073 -0.073895693
-0.50462776 0.086085401 -0.072263241
-0.48144433 0.086122468 -0.071059465
-0.57253063 0.10901707 -0.083857298
-0.54999298 0.10917362 -0.079791546
-0.52700633 0.10924615 -0.077908754
-0.50390095 0.10929817 -0.076555014
-0.48080552 0.10935749 -0.075011373
-0.45823988 0.10955547 -0.069871902
-0.59560436 0.13225628 -0.084931731
-0.57308936 0.13243982 -0.080954194
-0.55021751 0.13254975 -0.078576446
-0.52700937 0.13258126 -0.077891588
-0.50392705 0.13265036 -0.076400757
-0.48119417 0.13282548 -0.072607279
-0.61921108 0.15562122 -0.08336246
-0.64497387 0.17961966 -0.071902394
-0.76013023 0.59909737 -0.078781962
-0.73799336 0.60006517 -0.073947072
-0.73657894 0.62223679 -0.079689026
-0.75962615 0.64532542 -0.08076632
-0.15415108 -0.21807842 -0.068666101
-0.20191593 0.016084814 -0.054904819
-0.20161158 0.039528772 -0.059297681
-0.60065168 0.062997051 -0.05971384
-0.57749408 0.063035198 -0.058066487
-0.55443674 0.063088864 -0.055739403
-0.53113151 0.063115068 -0.054609179
-0.45884511 0.086279906 -0.065941095
-0.43697658 0.086608082 -0.05528748
-0.74210638 0.11004122 -0.057250381
-0.43582022 0.10981239 -0.063194036
-0.74219191 0.13355075 -0.056903243
-0.45875207 0.13310559 -0.06654501
-0.43647376 0.13346669 -0.058725595
-0.59879786 0.15639654 -0.068976402
-0.57709032 0.15687138 -0.060164452
-0.55348474 0.1568322 -0.060891986
-0.53018785 0.15688346 -0.059939265
-0.50748515 0.15712877 -0.055391669
-0.67196679 0.20412144 -0.055721998
-0.64822549 0.2040458 -0.056816339
-0.67203665 0.227651 -0.055409074
-0.64864874 0.22769386 -0.054852605
-0.67141247 0.25092211 -0.058205009
-0.67148989 0.27444038 -0.05785799
-0.67145121 0.29791182 -0.058031678
-0.67142791 0.32138842 -0.058135629
-0.67135435 0.34483704 -0.058465362
-0.67121494 0.3682442 -0.059089541
-0.67129624 0.39177147 -0.058725476
-0.67121494 0.4152033 -0.059089661
-0.67120337 0.43867514 -0.059141517
-0.67120725 0.46215686 -0.059124351
-0.6712653 0.48567811 -0.058863997
-0.67062706 0.50867498 -0.061723232
0.0096890368 0.50858134 -0.062277079
-0.69489068 0.53275096 -0.058239698
-0.67074686 0.53222907 -0.061186314
-0.6947825 0.55615026 -0.058708072
-0.67124593 0.55610549 -0.058950901
-0.76358968 0.57839024 -0.06516397
-0.74106431 0.57909912 -0.06148088
-0.71791738 0.57935244 -0.060164332
-0.6940183 0.57899594 -0.06201756
-0.67183489 0.58009374 -0.05631268
-0.71618474 0.60137057 -0.067425013
-0.69509506 0.6033861 -0.057354689
-0.71821523 0.62655425 -0.05891633
-0.74070621 0.64916891 -0.062934399
-0.24967611 -0.054584131 -0.046203494
-0.22637506 0.016179502 -0.042596936
-0.17933728 0.016201608 -0.039754629
-0.2265479 0.039820593 -0.04035151
-0.50783855 0.063145079 -0.053304315
-0.48447222 0.063167751 -0.052329183
-0.46198082 0.063323587 -0.045573711
-0.41521421 0.086995959 -0.042684436
-0.76800668 0.11040586 -0.04777658
-0.41431019 0.11035068 -0.049208403
-0.77031231 0.1343917 -0.038700581
-0.4154985 0.13430236 -0.040632606
-0.48459333 0.15733398 -0.051580191
-0.46180579 0.15759641 -0.04671061
-0.62568295 0.18083152 -0.052224994
-0.62836605 0.20525828 -0.039315581
-0.69756132 0.25189823 -0.046675563
-0.64900506 0.25134587 -0.053199887
-0.69731915 0.27537644 -0.047724128
-0.64948565 0.27507654 -0.050970316
-0.69687164 0.29874957 -0.049661994
-0.6495533 0.29864994 -0.050656319
-0.69700462 0.32236356 -0.049086213
-0.64936167 0.32209834 -0.051545262
-0.6971699 0.34600276 -0.048370361
-0.6493091 0.34560776 -0.051789165
-0.69763803 0.36981434 -0.046343327
-0.64989549 0.36947858 -0.049068689
-0.69787228 0.39352456 -0.045328856
-0.65041506 0.39335057 -0.046658039
-0.69730306 0.41676831 -0.047793984
-0.64990675 0.41659901 -0.049016356
-0.69791675 0.44072363 -0.045136452
-0.65022296 0.44037071 -0.047549367
-0.69711345 0.46377483 -0.04861486
-0.65068644 0.4642697 -0.045398831
-0.69661784 0.48698792 -0.050760746
-0.65076572 0.48791417 -0.045031428
-0.69624358 0.51025707 -0.052381635
-0.65099585 0.51168263 -0.043963313
-0.65030581 0.53471166 -0.047165036
-0.72131991 0.55851555 -0.045906067
-0.65088266 0.55877745 -0.044489026
-0.67418152 0.60569853 -0.045801163
-0.25068992 -0.031097792 -0.034230471
-0.22741866 -0.007426877 -0.029040217
-0.20415725 -0.00742683 -0.022554398
-0.72354728 0.063531533 -0.036572695
-0.44102773 0.063739069 -0.02758956
-0.22695673 0.063566953 -0.035040975
-0.77080369 0.087178364 -0.03676641
-0.74793333 0.087275833 -0.0335958
-0.39388755 0.11127225 -0.025268912
-0.25058252 0.11087835 -0.035498977
-0.62975645 0.22940475 -0.032625914
-0.65248656 0.58380133 -0.037047863
0.24787019 -0.38851652 -0.015095592
0.2716732 -0.38849461 -0.015274167
0.29558718 -0.38862437 -0.014220953
0.31981459 -0.38911974 -0.010198593
0.27116954 -0.3639912 -0.021221757
0.29541907 -0.36458939 -0.016040921
0.31979492 -0.36524129 -0.010395288
0.27157804 -0.34074011 -0.016397595
0.29617226 -0.34165725 -0.0078874826
-0.22814919 -0.031210775 -0.019550204
-0.41939339 0.064086862 -0.01252389
-0.27558541 0.11143748 -0.020972967
-0.27582371 0.13532947 -0.018393278
-0.44266731 0.15923083 -0.016379952
0.34421921 -0.38974714 -0.0051063299
0.3690061 -0.39069828 0.0026175976
0.34457964 -0.36623821 -0.0017621517
0.32088238 -0.34255815 0.00047135353
-0.206203 -0.031414963 0.0069736242
-0.30150792 0.13620263 0.00050723553
0.29916933 -0.41752392 0.024556637
0.32259268 -0.41660848 0.017561555
0.34639332 -0.416282 0.015066981
0.37052348 -0.4163726 0.015758634
0.39503703 -0.41685915 0.019476414
0.41975737 -0.41749522 0.024337173
0.3938854 -0.3916232 0.010126114
0.41974542 -0.39336231 0.02424562
0.36983752 -0.36757529 0.0098178387
0.39545321 -0.36908066 0.022855282
0.34639138 -0.34412915 0.015048862
0.17821881 -0.32041079 0.018363595
0.29832295 -0.32011366 0.015394688
-0.63955963 0.016619537 0.01453948
-0.25464118 0.1367532 0.012431145
0.27563474 -0.41843373 0.031509519
0.44461066 -0.41818613 0.029616952
0.46966103 -0.41898069 0.035688639
0.4453575 -0.39468759 0.035006762
0.4217937 -0.37104857 0.039897442
0.37271631 -0.34625223 0.034748793
0.32374394 -0.32148179 0.029066086
0.17923389 -0.29807532 0.037201285
0.20318452 -0.2976701 0.032815695
-0.20815539 -0.055836644 0.035154223
-0.6444577 -0.00742683 0.038105607
0.49604252 -0.42082727 0.049799204
0.4716351 -0.39643407 0.049185514
0.39918235 -0.34823355 0.053132176
0.34974203 -0.32319033 0.046139121
0.15542945 -0.29890758 0.046213269
0.30155611 -0.29929397 0.050394535
-0.16083895 -0.20231582 0.055445194
-0.64820528 -0.031793334 0.056136131
-0.257249 0.065374322 0.043228269
0.42485696 -0.44701645 0.06330502
0.44862974 -0.4463675 0.058621883
0.4729223 -0.44627947 0.05798614
0.49790823 -0.44682419 0.061917305
0.52357978 -0.44790459 0.069715261
0.5222162 -0.42232966 0.061280131
0.49843407 -0.39842281 0.065332294
0.44881642 -0.37336636 0.059969306
0.42585608 -0.35015273 0.070940018
0.37636277 -0.32521081 0.066328406
0.13190711 -0.3007502 0.066159248
0.32725114 -0.30056101 0.064111829
0.15649235 -0.27656621 0.06922543
0.18073358 -0.27621111 0.065031767
0.20515695 -0.2761952 0.064843893
0.22961517 -0.27622545 0.065200806
-0.67601871 -0.056405939 0.072128057
0.54934257 -0.44896159 0.077342987
0.54929775 -0.42439708 0.077078104
0.52518648 -0.40018672 0.079653859
0.47602493 -0.37558672 0.079199076
0.40314591 -0.32711044 0.085312128
0.35356656 -0.30217895 0.081626296
0.13243455 -0.27746704 0.079862356
-0.16255705 -0.17967287 0.087329626
-0.21123581 -0.081068449 0.079615831
-0.65187043 -0.056431293 0.073769927
0.57597452 -0.4506067 0.089216232
0.60308611 -0.45247456 0.10269666
0.57647461 -0.42635527 0.092040777
0.55260599 -0.4022755 0.096612453
0.50332665 -0.377655 0.097110629
0.45306718 -0.35227647 0.090646982
0.43004215 -0.32887325 0.10292709
0.3801342 -0.30378288 0.098989725
0.10859153 -0.27940857 0.10279274
0.33083561 -0.27916619 0.099930048
0.13333341 -0.25471568 0.10321593
0.15788393 -0.25441825 0.099354148
0.18252832 -0.25434008 0.098337531
0.20723617 -0.25436074 0.098606229
0.23202926 -0.25447142 0.10004497
-0.68032312 -0.081356883 0.092098117
-0.65523148 -0.081306882 0.089941144
0.63092029 -0.45471323 0.11885285
0.6038118 -0.42826372 0.10662389
0.57997274 -0.40414587 0.11179841
0.53077394 -0.37963039 0.11421764
0.4800249 -0.35399005 0.10654688
0.4071025 -0.30548701 0.11743557
0.35727736 -0.28053203 0.11605847
0.10900058 -0.25570568 0.1160779
-0.16365911 -0.1560109 0.10778093
-0.6842736 -0.10656423 0.11042595
-0.6588313 -0.10646687 0.10726035
-0.63620102 -0.081952661 0.11790121
-0.63653928 -0.057136763 0.11959076
0.25793809 0.51389611 0.11569011
0.23335516 0.53931242 0.1191833
0.25797242 0.53879654 0.11613595
0.63162005 -0.43033999 0.12248909
0.65900058 -0.43197662 0.13499594
0.55892044 -0.38190275 0.13389766
0.50753981 -0.35592225 0.12447596
0.45732033 -0.33071607 0.12134099
0.43407464 -0.3069931 0.13374078
0.38395911 -0.28189149 0.13211465
0.33430159 -0.25712883 0.13456428
0.10959883 -0.23222387 0.13550603
0.13445328 -0.23200256 0.13231051
0.15929765 -0.23183981 0.12996197
0.18424611 -0.2318574 0.13021624
0.20921779 -0.23189673 0.13078368
0.23430672 -0.23204447 0.1329174
-0.68894428 -0.13218278 0.13209522
-0.6627661 -0.13195558 0.12619197
-0.63875198 -0.10718706 0.13064647
0.25941065 0.49201638 0.13481927
0.28422177 0.49172357 0.13291764
0.20925756 0.51644045 0.13142943
0.23349656 0.51479077 0.12122393
0.28335848 0.51503289 0.12272274
0.20904683 0.54080701 0.12800753
0.28362912 0.54045331 0.12591898
0.66051573 -0.45799923 0.14256632
0.60934722 -0.40719897 0.13658583
0.63719928 -0.40903339 0.1514796
0.58694232 -0.38389635 0.15116239
0.5353663 -0.35787842 0.14262545
0.48481798 -0.33251512 0.13931739
0.46133447 -0.3085238 0.15031064
0.41082263 -0.28320619 0.14763939
0.084819943 -0.25786313 0.14410412
0.36089626 -0.25828922 0.14963758
0.25952697 -0.23228101 0.13633049
-0.69299859 -0.15800288 0.15090477
-0.66659164 -0.15771145 0.14459765
-0.64142579 -0.13264135 0.14400566
-0.24094948 0.092828609 0.14673007
0.28570127 0.46932164 0.15038979
0.21032892 0.49417302 0.14882588
0.23498476 0.49323031 0.14270449
0.31084821 0.49450514 0.15098417
0.18483624 0.51801485 0.14116764
0.31049174 0.51897788 0.14712536
0.18506148 0.54374355 0.14534771
0.68865043 -0.43492103 0.15749526
0.66391003 -0.41002446 0.15952539
0.56314605 -0.3596268 0.15884852
0.51224393 -0.33408758 0.15503073
0.48871052 -0.30996662 0.16593063
0.43794468 -0.28453341 0.16331363
0.38762161 -0.2593818 0.16383278
0.085021406 -0.23342389 0.1528275
0.11040962 -0.20886792 0.16183722
0.13547549 -0.20868504 0.15886819
0.16057761 -0.20861161 0.15767419
0.18570533 -0.20858847 0.15729642
0.21092527 -0.20866306 0.15850997
0.23631723 -0.20887408 0.16193676
0.26190412 -0.20919888 0.16721082
-0.67029923 -0.18372007 0.16243553
-0.64448816 -0.15839089 0.15930629
-0.19184797 -0.10819526 0.16339362
-0.64351714 0.19355974 0.15445483
0.16082703 0.49636647 0.16307414
0.18561003 0.49520442 0.15552723
0.1605859 0.52071232 0.15785336
0.69221622 -0.41188738 0.17465103
0.61513096 -0.38582814 0.16789138
0.59150356 -0.36157477 0.17692387
0.53991395 -0.33566129 0.17075634
0.46527046 -0.28583786 0.1787163
0.41465524 -0.26053068 0.17875648
0.36422133 -0.23534057 0.18049037
-0.67332309 -0.20980081 0.17698419
-0.69714779 -0.18413602 0.17015481
-0.64758754 -0.18438594 0.17479169
0.18706612 -0.1848039 0.18254912
-0.19304755 -0.083453067 0.18287253
0.28835097 0.44856539 0.18168104
0.26207215 0.47210097 0.1693933
0.13597474 0.49771616 0.17183924
0.71972024 -0.43851718 0.18497455
0.72114432 -0.4139728 0.19158185
0.64389467 -0.38795024 0.18626964
0.62013131 -0.36351824 0.1949563
0.56761867 -0.33711243 0.18525779
0.51665181 -0.31160438 0.18366015
0.54423755 -0.31288323 0.19750202
0.49267626 -0.28705093 0.19304454
0.4418115 -0.2616165 0.19286168
-0.67670768 -0.23622581 0.1932683
0.3911168 -0.23628359 0.19410193
-0.70077407 -0.21041615 0.18697822
-0.65007937 -0.21043238 0.18724144
0.16178441 -0.18487141 0.18380189
0.21251898 -0.18490307 0.18438816
0.23816727 -0.18513198 0.18863976
0.26403528 -0.18546912 0.19489515
0.26396638 0.45027247 0.19400001
0.11134866 0.47545627 0.19233334
0.11133927 0.50082439 0.19202852
0.6722461 -0.38967118 0.2011745
0.64859629 -0.36521494 0.21069992
0.59606135 -0.33885461 0.2026664
0.57196569 -0.31412318 0.21092594
0.5205493 -0.28839993 0.2089752
-0.72993302 -0.26246896 0.20393431
-0.70664066 -0.2632589 0.21419632
-0.68112165 -0.26328266 0.21450496
0.46917343 -0.26269597 0.20688331
-0.73024374 -0.23706111 0.20532644
-0.70382512 -0.23677079 0.20113385
-0.65367025 -0.23705119 0.20518291
0.4182913 -0.23726563 0.2082777
-0.73136091 -0.21185447 0.21033025
-0.72982794 -0.18593083 0.20346391
0.29024053 -0.18595964 0.20399582
-0.16866529 -0.13482276 0.20068455
-0.11779658 -0.13491251 0.2030139
-0.19413067 -0.058381796 0.20045996
-0.19500956 -0.033014052 0.21473145
0.26459575 0.42591467 0.20217586
0.060827885 0.45282289 0.21240616
0.086217254 0.47725195 0.20460999
0.75415224 -0.41816515 0.22562003
0.70083374 -0.39139596 0.21611178
0.72803009 -0.39225233 0.22352791
0.67743349 -0.36698148 0.2270925
0.62447429 -0.34043559 0.21846342
0.60049623 -0.31567401 0.2277149
-0.73507047 -0.28992179 0.22694707
0.54843479 -0.28962705 0.22346556
-0.65807617 -0.26425958 0.22719598
0.49648458 -0.26363498 0.21908247
0.4454349 -0.23811588 0.22054911
0.39435691 -0.21258299 0.22216189
-0.16946554 -0.10980102 0.21553481
-0.19548243 -0.00742683 0.2224102
-0.65790182 0.22366232 0.22632492
0.26654097 0.4035362 0.22744513
0.0096890368 0.42944708 0.22916853
0.035393417 0.42954752 0.22993731
0.29170522 0.4284164 0.22129333
0.0096890368 0.45362201 0.21817446
0.035296034 0.45349917 0.21728706
0.24074511 0.48035818 0.22584808
0.75719565 -0.39406821 0.23925304
0.7068488 -0.36891711 0.24505186
0.65319568 -0.34205034 0.23459899
0.62909997 -0.31713235 0.24350095
-0.71115518 -0.29061553 0.2351408
-0.68729204 -0.29138201 0.24419236
0.57623613 -0.2907002 0.2361418
0.52419609 -0.26468042 0.23266196
0.47263005 -0.23889722 0.2318294
0.50025839 -0.23980179 0.24488413
0.42148194 -0.21332335 0.23418236
0.44876227 -0.21404947 0.2459749
0.087018758 -0.13630976 0.23931575
0.11258532 -0.13604724 0.23249543
-0.17029315 -0.084561974 0.23089337
0.24202625 0.43143231 0.24433911
0.24128933 0.45577383 0.23370314
0.76202273 -0.37062252 0.26087558
0.73476839 -0.36996642 0.25478971
0.68240762 -0.34378621 0.25194466
0.65844816 -0.31883132 0.26189196
0.60471165 -0.29200277 0.25152361
0.55214149 -0.26573756 0.24639487
0.58027083 -0.26678216 0.25996578
0.52803516 -0.24068262 0.25759745
0.47646421 -0.21488246 0.25949991
0.39726412 -0.18829536 0.24733913
0.42465758 -0.18897566 0.25996554
0.06136895 -0.16246642 0.2475493
0.061580315 -0.13715507 0.26127768
0.087483928 -0.11115326 0.25945771
0.11327052 -0.11100843 0.25474763
0.13906123 -0.11092461 0.25202882
0.16492303 -0.11091619 0.25175524
0.19081351 -0.11092649 0.252092
-0.17156266 -0.059212901 0.25445223
-0.17152287 -0.007426783 0.25371444
-0.17150696 0.018458232 0.25341928
-0.17192928 0.044464041 0.26125658
0.26907369 0.38165 0.26034653
0.0096890368 0.40656942 0.2520709
0.035539184 0.40617567 0.24887311
0.24294771 0.40725541 0.25763977
0.061382856 0.43197066 0.24845266
0.71226048 -0.34570214 0.2710892
0.63408291 -0.29360744 0.27047145
0.60932064 -0.26813623 0.27755451
0.55613005 -0.24161589 0.27106774
0.50398529 -0.21555157 0.270365
0.45214084 -0.18961269 0.27179193
0.0096890368 -0.16314282 0.26218855
0.035664212 -0.16327791 0.26511478
0.40028954 -0.16366695 0.27354002
0.11387414 -0.085565709 0.27435076
0.13985145 -0.085524075 0.27255917
0.16588885 -0.085526854 0.27266586
0.1919658 -0.085545577 0.273476
0.21815652 -0.085602157 0.27593064
-0.17201377 -0.033384282 0.26282454
-0.17243962 0.070628181 0.27072716
0.035712004 0.38291761 0.2713232
0.24366723 0.38253674 0.26802492
0.74148154 -0.34718764 0.28593481
0.7680009 -0.34735978 0.2876544
0.68888396 -0.32090148 0.28430271
0.66405666 -0.29534841 0.29103434
0.58502567 -0.24279183 0.28804183
0.53183621 -0.21628568 0.28228617
0.47983548 -0.19026157 0.28383064
0.42752832 -0.16411653 0.28327262
0.0096890368 -0.13805437 0.28464615
0.035810269 -0.13803302 0.2840879
0.061903756 -0.11185633 0.28228617
0.087951258 -0.085688941 0.27969396
0.24458548 -0.085725591 0.28127897
0.2712554 -0.085896753 0.28868723
0.14065717 -0.059814088 0.29349291
0.16684683 -0.059812725 0.29340661
0.19301423 -0.059805434 0.29293191
0.24469838 0.35814315 0.2829082
0.061942734 0.38447601 0.28481793
0.71824282 -0.3223395 0.29987121
0.63896674 -0.26962596 0.29690635
0.61388612 -0.24385163 0.30334067
0.56024063 -0.21716091 0.29649544
0.50774711 -0.19092193 0.29608464
0.53581071 -0.19156936 0.30810106
0.45537651 -0.16472831 0.29651701
0.48314124 -0.16524407 0.30768752
0.40304255 -0.13854484 0.297382
0.0096890368 -0.11251457 0.30366635
0.035971686 -0.11255737 0.30505621
0.062305562 -0.086351752 0.3083843
0.32548475 -0.086375736 0.30942941
0.29824722 -0.08612451 0.29855061
0.088421226 -0.059914935 0.30004466
0.11447352 -0.059819121 0.29381669
0.21938172 -0.059850212 0.29582536
0.24600726 -0.059942078 0.30180049
0.27285382 -0.060059812 0.30945146
-0.12145463 -0.03365555 0.29805279
-0.14819674 0.045201778 0.3091681
-0.64812231 0.22938523 0.30892837
-0.67331642 0.25526753 0.30334067
0.035909109 0.35965422 0.29692793
0.062123187 0.35961214 0.29653871
0.80110478 -0.37675413 0.3177712
0.80188906 -0.35071352 0.32116759
0.74761784 -0.32368195 0.3144033
0.77570778 -0.32440013 0.32217681
0.69404829 -0.29696348 0.31010509
0.72306597 -0.29806185 0.32307684
0.66943818 -0.2713263 0.31899738
0.64401692 -0.24529977 0.32424116
0.58890253 -0.21804996 0.31093287
0.56431067 -0.19230069 0.3216722
0.51112401 -0.16577478 0.31917298
0.43077415 -0.13901582 0.30962551
0.45853931 -0.13944156 0.32068515
-0.12198231 -0.11276392 0.31176186
0.37825593 -0.11273174 0.3107152
0.40597153 -0.11310216 0.32274747
-0.12238823 -0.086673252 0.32230842
0.35305917 -0.086666055 0.32200122
-0.1219462 -0.060080837 0.31082416
0.30004916 -0.060219459 0.31983018
0.088982061 -0.033857811 0.32432878
0.11512494 -0.033785842 0.31497157
0.14142168 -0.033773471 0.31335497
0.16775711 -0.033771496 0.31311488
0.19410768 -0.033772342 0.3132242
0.22062142 -0.033793509 0.31595516
0.24737947 -0.03383702 0.32160652
-0.12189922 -0.007426877 0.30960381
-0.12248969 0.019009043 0.32494426
0.062371679 0.33501038 0.31267834
0.24657358 0.33473969 0.30997407
0.22106269 0.362477 0.32312071
0.69946003 -0.27272314 0.33714354
0.61797202 -0.21900369 0.3264178
0.593274 -0.19311309 0.33674526
0.53960472 -0.16640152 0.33274364
0.4866927 -0.13992788 0.33331811
0.43368959 -0.11342691 0.3332957
0.036197238 -0.086951435 0.33435667
0.38071567 -0.086932428 0.33353901
0.062671423 -0.060409158 0.33214772
0.32740605 -0.060379714 0.33022833
0.27435312 -0.033893276 0.32892799
0.30152273 -0.033957154 0.33723247
0.14213055 -0.0074269711 0.33177245
0.22180091 -0.007426877 0.33510816
0.11573613 -0.007426783 0.33482063
0.16861174 -0.007426783 0.33161795
0.19513217 -0.007426783 0.33223605
0.24862169 -0.007426783 0.33953643
-0.12298566 0.045642991 0.33782995
-0.14894269 0.071889162 0.3253181
-0.1492867 0.098556928 0.33276582
-0.14941734 0.12516166 0.33559465
-0.14927751 0.23102303 0.33256698
0.089095891 0.33666968 0.32925832
0.22183633 0.33731225 0.33568335
0.089052141 0.36293444 0.32736409
0.22191536 0.39049742 0.33696663
0.80737722 -0.32650208 0.34493196
0.75344145 -0.29961532 0.34142172
0.78153306 -0.30019516 0.34827077
0.72942495 -0.2739957 0.35367143
0.67412978 -0.24662529 0.3433758
0.64783555 -0.22014219 0.34490943
0.62254417 -0.19394799 0.35224164
0.5686034 -0.16711663 0.34822655
0.51489484 -0.14037582 0.34495425
0.46167454 -0.1137764 0.34464276
0.40860251 -0.087209478 0.34553242
0.43654081 -0.087461695 0.35644531
0.35500488 -0.060552202 0.34144413
0.38291433 -0.060744915 0.35393989
0.32906455 -0.034041539 0.34818172
0.27568272 -0.007426877 0.34619999
0.30303973 -0.007426877 0.35514736
0.089600891 -0.007426783 0.35112536
0.11632001 0.019230966 0.35378337
0.1428248 0.01920039 0.34980905
0.16941077 0.019193335 0.34891725
0.19603583 0.019194182 0.34900653
0.22280517 0.01921262 0.35141551
0.24973424 0.019244887 0.35559487
-0.12345961 0.072462261 0.35014379
-0.14971109 0.15197332 0.34195435
-0.14975622 0.17859253 0.34293175
-0.14983629 0.20527343 0.34466505
-0.65478164 0.25836146 0.34353137
0.089448109 0.3116096 0.34450936
0.22226629 0.31143901 0.34266496
0.24936895 0.31214648 0.35032213
0.75937718 -0.27517253 0.3689599
0.70510668 -0.24814817 0.36535585
0.67859811 -0.22147769 0.36659396
0.65239555 -0.19488297 0.36959171
0.59759766 -0.16776551 0.36227572
0.54360908 -0.14090669 0.35875261
0.57248056 -0.14142489 0.37221038
0.49006796 -0.11417791 0.3576771
0.51824772 -0.11449184 0.36787808
0.46470934 -0.087724537 0.36783266
0.4110527 -0.060942188 0.36675155
0.3568919 -0.034134671 0.36030006
0.33068219 -0.007426877 0.36569357
0.27682519 0.019286845 0.36104083
0.30438897 0.019363986 0.37108088
0.14343099 0.046069901 0.36555851
0.17004436 0.04602484 0.36263525
0.1967981 0.046032835 0.36315203
0.22364292 0.046061624 0.36501837
0.25065866 0.046122018 0.36893749
-0.12385313 0.099406943 0.36036766
-0.12415954 0.12642179 0.36832881
-0.71293402 0.28697523 0.36756253
-0.68706429 0.28735331 0.3720293
0.089870855 0.28657314 0.3628149
0.11675958 0.28701714 0.36805844
0.22325152 0.28622162 0.35866296
0.11649652 0.31299552 0.35951519
0.81380737 -0.30227026 0.3727752
0.78713965 -0.27551326 0.37338531
0.73499608 -0.24919593 0.38047564
0.7093662 -0.22271204 0.38663769
0.62728202 -0.16853791 0.37900066
0.60194349 -0.14203018 0.38793671
0.54735219 -0.11495953 0.3830651
0.49322391 -0.088016033 0.38045287
0.43937203 -0.061137207 0.37943172
0.38507336 -0.034240037 0.37397337
0.41346994 -0.03434559 0.38768566
0.35875884 -0.007426783 0.37895536
0.090207994 0.019412812 0.37741387
0.33226803 0.019454675 0.38286078
0.11690132 0.046179403 0.37266207
0.2778677 0.046208944 0.37458384
0.30561566 0.046377998 0.38556731
0.14402874 0.073177047 0.38108861
0.17073743 0.073097363 0.37764037
0.19755319 0.073086359 0.37716472
0.22446769 0.073115148 0.37841117
0.2515493 0.073193133 0.38179266
0.27891317 0.073340267 0.38816452
0.14411707 0.26142922 0.38338327
0.1710069 0.26143625 0.38347435
0.19757271 0.26097849 0.37752724
0.14388904 0.28781316 0.37745917
0.19772546 0.28805906 0.38036215
0.76536888 -0.25032398 0.39675796
0.79250073 -0.2503683 0.3973999
0.73945814 -0.22365458 0.40194368
0.68321478 -0.19601399 0.3905828
0.65780002 -0.16945463 0.39884412
0.6317187 -0.14265089 0.40405893
0.57661939 -0.11541344 0.39781237
0.52195626 -0.088311099 0.3932333
0.4676089 -0.06129986 0.38998961
0.49644387 -0.061510779 0.40369129
0.44208252 -0.034451421 0.40143812
0.38713431 -0.0074269711 0.39309657
0.36048767 0.019557593 0.39623106
0.33365345 0.046567276 0.39785826
0.11775064 0.073619477 0.400244
0.30673796 0.073586553 0.39882135
0.1447307 0.10060658 0.39932597
0.17141964 0.10039341 0.39241052
0.19823936 0.10031617 0.3898983
0.22521025 0.10033368 0.39046884
0.2524085 0.10044844 0.39419401
0.27987841 0.10064892 0.40070343
0.22599335 0.12776341 0.40318477
0.17141752 0.2890754 0.39236486
0.19841167 0.31609774 0.39309609
0.76955003 -0.22452994 0.41615617
0.7967965 -0.2245599 0.41664231
0.71357667 -0.19693483 0.40767479
0.68798923 -0.17021899 0.41539168
0.60613078 -0.11587074 0.41266143
0.55110914 -0.088640027 0.40746737
0.52563441 -0.061736934 0.41838121
0.47083923 -0.034553308 0.41467416
0.41575944 -0.0074266889 0.40751338
0.38898894 0.019665968 0.41030467
0.36210182 0.046790514 0.41236079
0.33492911 0.073883265 0.4116677
0.30787271 0.10100368 0.41222239
0.1721907 0.12799115 0.4091047
0.19903341 0.12781918 0.40463424
0.25327063 0.12789614 0.40663767
0.28098238 0.12821975 0.41504419
0.22700781 0.15556218 0.41965747
0.74398506 -0.1977998 0.42372417
0.71841782 -0.17097963 0.43186224
0.66224623 -0.14337629 0.42290998
0.63649243 -0.11643623 0.43102121
0.5805338 -0.088975973 0.42202652
0.554865 -0.061944652 0.43186235
0.4995617 -0.034642112 0.42619193
0.44463268 -0.007426783 0.42214274
0.4177092 0.019774623 0.42439902
0.39072871 0.047007453 0.42644799
0.36347896 0.074216858 0.42612171
0.33613741 0.10138948 0.42474806
0.14602262 0.12890659 0.43289101
0.30900833 0.12862739 0.42563295
0.20002449 0.15571789 0.42302632
0.25437865 0.15569963 0.42263103
0.28224462 0.15610659 0.43144143
0.77402508 -0.19851078 0.43691802
0.74943131 -0.17181404 0.44992721
0.69322073 -0.14413312 0.44257545
0.66737294 -0.11704094 0.45065928
0.61049694 -0.089354999 0.43844199
0.584575 -0.062177863 0.44702542
0.52903563 -0.03476093 0.44163549
0.47366434 -0.007426877 0.43626189
0.50280148 -0.007426877 0.44957292
0.44687152 0.019897109 0.4403199
0.41974837 0.047247626 0.44205856
0.39228442 0.074557878 0.44088328
0.36485279 0.1018543 0.43985009
0.33752385 0.12917104 0.43975616
0.17404239 0.15692666 0.4491955
0.31039122 0.15659268 0.44196439
0.77789938 -0.17204344 0.45489252
0.72393352 -0.14478149 0.45942056
0.64102519 -0.089775048 0.45662165
0.6149193 -0.062447764 0.46455514
0.55856752 -0.034870714 0.4559108
0.53223819 -0.0074269711 0.46353197
0.47618303 0.020013951 0.45550811
0.44885018 0.047468327 0.45638466
0.42157236 0.074949794 0.45785451
0.39396271 0.1023655 0.45645559
0.36642212 0.1297783 0.45553184
0.33943683 0.15744698 0.46046531
0.75347745 -0.14516546 0.46939433
0.78274751 -0.14547303 0.47738457
0.72792274 -0.11792444 0.479352
0.69810647 -0.11757374 0.46796274
0.67206699 -0.090224251 0.47606647
0.64556855 -0.062720865 0.48228276
0.58899873 -0.035013143 0.47439027
0.56195116 -0.0074265948 0.47788823
0.50563729 0.020125899 0.47003889
0.53500539 0.020221105 0.4824512
0.47867912 0.047748294 0.4745816
0.45101777 0.075322427 0.47398317
0.42331043 0.1028721 0.47290671
0.39573821 0.13044773 0.47293079
0.75783402 -0.11826321 0.49035525
0.70168239 -0.090466022 0.48654306
0.675596 -0.062918983 0.49516773
0.61945647 -0.035143625 0.49134564
0.59245938 -0.007426877 0.4957974
0.56502187 0.020339826 0.49783301
0.50828183 0.047972284 0.48912394
0.48091725 0.075731084 0.49168396
0.45317113 0.1034437 0.49146605
0.73194218 -0.090763867 0.49943459
0.70621532 -0.063148901 0.51009738
0.64955652 -0.03524711 0.50480664
0.67913556 -0.035320394 0.51432621
0.62233865 -0.007426877 0.50836432
0.59506339 0.020448295 0.51190484
0.53789806 0.04817389 0.50222802
0.51064384 0.076065615 0.50617027
0.4263736 0.13146798 0.49943435
0.65287977 -0.007426877 0.52357638
0.62584531 0.020580187 0.52907026
0.56773454 0.048377562 0.5154525
0.54129046 0.076510124 0.52542222
0.60096985 0.048885755 0.54844224
0 0 0 1 0 0 0 1 0 0 0 1 0 0 0 0 0 1273 1 0 0
