ply
format ascii 1.0
comment PCL generated
element vertex 1350
property float x
property float y
property float z
element camera 0
property float view_px
property float view_py
property float view_pz
property float x_axisx
property float x_axisy
property float x_axisz
property float y_axisx
property float y_axisy
property float y_axisz
property float z_axisx
property float z_axisy
property float z_axisz
property float focal
property float scalex
property float scaley
property float centerx
property float centery
property int viewportx
property int viewporty
property float k1
property float k2
end_header
0.051999725 0.35141689 -0.44778347
0.068210319 0.35205689 -0.4431653
0.08454527 0.35301632 -0.43624103
0.0034589283 0.36871845 -0.43983769
0.019731224 0.36735728 -0.44914424
0.068111651 0.36729446 -0.44957399
0.08434549 0.36797938 -0.44489169
0.10070451 0.36891633 -0.43848526
0.035860237 0.3844322 -0.44300067
0.051987123 0.38344377 -0.44942045
0.084285803 0.38374317 -0.44747627
0.10055913 0.38440055 -0.44320619
0.11691836 0.38513845 -0.43841302
0.068256147 0.40106311 -0.44018865
0.084364705 0.40043733 -0.44405973
0.10059431 0.40075991 -0.44206417
0.11691478 0.40133533 -0.43850601
-0.062219817 0.27341288 -0.42086935
-0.045839187 0.27332458 -0.42175138
-0.061892916 0.28899688 -0.42794669
-0.045432393 0.28852534 -0.43232036
-0.029176425 0.28853455 -0.43223715
-0.013054926 0.28917694 -0.42627597
-0.061797101 0.30504945 -0.43002141
0.019557595 0.30544561 -0.42658937
-0.062214483 0.32243863 -0.42098486
0.052173905 0.32192487 -0.42515707
-0.045712937 0.33825493 -0.42503142
0.068384483 0.33736217 -0.4318527
0.084877223 0.33866897 -0.42186677
0.10104282 0.35422775 -0.4274981
0.11719488 0.36997777 -0.43122864
0.13386175 0.37124422 -0.42256975
0.13344932 0.38620302 -0.431499
0.1501507 0.38745034 -0.4233979
0.13338308 0.40223601 -0.43293333
0.14998549 0.40328175 -0.42646396
0.16673334 0.40444776 -0.41925037
0.11739357 0.41965273 -0.42606676
0.13369007 0.41961551 -0.42628622
0.15019137 0.42023265 -0.42264295
-0.079270437 0.25827295 -0.40780556
-0.062741235 0.25810906 -0.40957999
-0.04645421 0.25846073 -0.40577245
-0.078822911 0.27388901 -0.41611052
-0.029632408 0.27375707 -0.41742861
-0.013513673 0.27485973 -0.40641165
-0.078747913 0.29012245 -0.4175024
0.0031161867 0.29011446 -0.41757631
0.019374432 0.29170734 -0.40279567
-0.079162806 0.30738407 -0.40980303
0.035860237 0.30688122 -0.41415656
0.068675011 0.32342434 -0.41298258
0.10159913 0.34029639 -0.40943134
0.11772239 0.35560977 -0.4175235
0.13465628 0.35729411 -0.40536761
0.15071878 0.37266502 -0.41285551
0.16775194 0.37414899 -0.40271032
0.16702163 0.38880956 -0.41456866
0.18401222 0.39013264 -0.40597498
0.18361475 0.40566668 -0.41171193
0.20065416 0.4069733 -0.40362883
0.16687863 0.42120677 -0.41689098
0.18376908 0.42246112 -0.40948451
-0.096760616 0.24325986 -0.39087009
-0.080003396 0.24297757 -0.39420342
-0.06357348 0.24320135 -0.39156139
-0.096205413 0.25900462 -0.39988589
-0.030374434 0.25961021 -0.39333069
-0.096088082 0.27532214 -0.4017911
0.002667889 0.27665633 -0.38845825
-0.096655577 0.2928088 -0.39257586
0.052374132 0.30861452 -0.3991462
0.085475825 0.32552272 -0.39594662
0.11866519 0.34244296 -0.39302897
0.15175581 0.3589232 -0.39361095
0.18493307 0.37561539 -0.39268374
0.2012174 0.39162043 -0.39631212
0.21790707 0.40844995 -0.39449418
0.20079067 0.4237532 -0.40185523
0.2179253 0.42503625 -0.39427865
-0.097686514 0.22783953 -0.37583554
-0.081015021 0.22787081 -0.37543011
-0.11398245 0.24404725 -0.38157165
-0.047415074 0.24411185 -0.38080847
-0.1139598 0.26066628 -0.38189852
-0.014252964 0.26135895 -0.37439942
0.035860237 0.29372847 -0.3840425
0.069169357 0.31072453 -0.3808738
0.10252753 0.32757524 -0.37928092
0.13583545 0.34416917 -0.37983775
0.16904771 0.36057785 -0.38166964
0.18646783 0.36212134 -0.37053132
0.2023253 0.37718964 -0.38192034
0.21989238 0.37877977 -0.37104845
0.21860629 0.39317182 -0.38623631
0.23610048 0.39463982 -0.37670052
0.23530982 0.40994298 -0.38525927
0.25297791 0.41163471 -0.37479424
0.23529178 0.42653057 -0.38545489
0.25290883 0.42821911 -0.3754847
-0.098925784 0.21254034 -0.35571241
-0.1324258 0.22919223 -0.35826492
-0.11480153 0.22830801 -0.36974943
-0.064834982 0.22873153 -0.36424923
-0.13247293 0.24607264 -0.35765231
-0.031421628 0.24593119 -0.35932219
-0.1151519 0.27903482 -0.36469209
0.019114442 0.27860144 -0.36902201
0.052634507 0.29574585 -0.36532271
0.086218327 0.31269667 -0.36379516
0.11977206 0.32942402 -0.3642714
0.1533004 0.346118 -0.36494672
0.20416942 0.36386263 -0.3579644
0.2375108 0.38018614 -0.36143339
0.25379634 0.3961924 -0.36661625
0.27165642 0.3977578 -0.35644865
0.27081454 0.41333747 -0.36426032
0.27076682 0.43004522 -0.36470318
-0.13336083 0.21320504 -0.34611845
-0.11589164 0.21265808 -0.35401511
-0.082533285 0.21312641 -0.34725475
-0.049009342 0.23064521 -0.33938849
0.00208693 0.26354599 -0.3507241
0.035860237 0.28063583 -0.34869325
0.069677956 0.2976301 -0.34783912
0.10347803 0.31447291 -0.34841239
0.13724284 0.33125961 -0.34936678
0.17089066 0.34784573 -0.35174382
0.18860663 0.3494271 -0.33966029
0.22199389 0.36548847 -0.34623075
0.25532392 0.38166076 -0.35135174
0.27331936 0.38317204 -0.3410182
0.28975818 0.39943665 -0.34554398
0.28896084 0.41524699 -0.35244894
0.30749309 0.41742417 -0.33898056
0.28919241 0.43245983 -0.35044384
-0.13493872 0.1975453 -0.32562089
-0.11746575 0.19719584 -0.33129442
-0.10069706 0.19746347 -0.32695043
-0.15183237 0.21447279 -0.32782042
-0.15195261 0.23164515 -0.32640028
-0.015194207 0.24810587 -0.33364236
0.01881602 0.26543671 -0.33025575
0.052904099 0.28247628 -0.3303014
0.08697997 0.29946482 -0.33081532
0.12096851 0.3162311 -0.33318686
0.15490143 0.33300021 -0.33523512
0.17269179 0.33456922 -0.32249713
0.20651278 0.35101533 -0.32752287
0.23987311 0.36692548 -0.33586025
0.2578966 0.36834112 -0.32564366
0.29144442 0.38464606 -0.33094072
0.30820811 0.40134093 -0.33317554
0.32638818 0.41979361 -0.32432413
0.30817163 0.43533424 -0.33347166
-0.2396453 -0.28347588 -0.30753851
-0.22161314 -0.28239173 -0.31457961
-0.2048922 -0.28302589 -0.31046033
-0.23907652 -0.26558137 -0.3121562
-0.22131258 -0.26484612 -0.31718266
-0.20460689 -0.26544207 -0.31310773
-0.23914662 -0.24847667 -0.31158733
-0.22137797 -0.24777971 -0.31661642
-0.2046769 -0.24835597 -0.31245804
-0.23905078 -0.23118685 -0.31236517
-0.22133926 -0.23058663 -0.31695163
-0.2046444 -0.23113514 -0.31275976
-0.23918521 -0.21413936 -0.31127381
-0.22140336 -0.21350838 -0.31639659
-0.20468065 -0.21399771 -0.31242335
-0.23919809 -0.19696115 -0.31116915
-0.22149685 -0.1964509 -0.31558692
-0.20468691 -0.19682299 -0.31236517
-0.23910367 -0.17968728 -0.31193578
-0.20478451 -0.17973872 -0.31145942
-0.22151023 -0.17930642 -0.31547105
-0.23906937 -0.16247416 -0.31221437
-0.22155434 -0.16218652 -0.31508923
-0.20488092 -0.16263925 -0.31056488
-0.23911515 -0.14532533 -0.3118428
-0.22160912 -0.14506945 -0.31461453
-0.20492855 -0.14548418 -0.31012309
-0.23873666 -0.12787929 -0.31491566
-0.2213833 -0.12773913 -0.31657004
-0.2049273 -0.1282841 -0.31013477
-0.23869532 -0.11069115 -0.31525123
-0.22136062 -0.11057448 -0.31676674
-0.20496115 -0.11110917 -0.30982077
-0.23873097 -0.093551397 -0.31496179
-0.2213513 -0.093420744 -0.31684768
-0.20494233 -0.093895569 -0.30999517
-0.23874521 -0.076396629 -0.31484604
-0.22126454 -0.076227054 -0.31759858
-0.20516314 -0.076821461 -0.30794644
-0.23855424 -0.059150238 -0.31639671
-0.22121787 -0.059063729 -0.31800294
-0.20525862 -0.059653375 -0.30706036
-0.23848164 -0.04197206 -0.3169862
-0.22117922 -0.041909616 -0.31833768
-0.23845032 -0.024815995 -0.31724036
-0.22117388 -0.024771933 -0.31838381
-0.23835501 -0.0076476596 -0.3180145
-0.22123253 -0.0076520033 -0.31787574
-0.25701854 0.0092216842 -0.30636048
-0.23852721 0.0094584748 -0.3166163
-0.22146609 0.0094407648 -0.315853
-0.23900363 0.026548091 -0.31274819
-0.22210091 0.02651133 -0.31035566
-0.2397573 0.043680001 -0.30662894
-0.15282224 0.19812974 -0.31613064
-0.066829875 0.21494126 -0.32105851
-0.032893259 0.23278986 -0.31152928
0.0014634505 0.25008842 -0.31022763
0.035860237 0.26744699 -0.30849397
0.070225365 0.2842795 -0.31228399
0.10449664 0.30113351 -0.31533229
0.13867602 0.31794545 -0.31833768
0.19069816 0.33617371 -0.30947173
0.22443114 0.35233387 -0.3174485
0.24258097 0.35376036 -0.30654728
0.27606142 0.36973605 -0.31557524
0.30977711 0.38618246 -0.32043648
0.32842782 0.38789338 -0.30873835
0.32699651 0.40341944 -0.31967592
0.3278439 0.4387674 -0.31320035
-0.22339889 -0.30205664 -0.2991147
-0.20650412 -0.30264044 -0.2955035
-0.18968749 -0.28609043 -0.29055607
-0.18909223 -0.2678706 -0.29650438
-0.18937173 -0.25095361 -0.29371119
-0.25808519 -0.094712019 -0.29821002
-0.25794065 -0.07735315 -0.29931426
-0.25762448 -0.059940528 -0.30173039
-0.25740537 -0.042599369 -0.30340457
-0.20543091 -0.042504366 -0.30546176
-0.25742832 -0.025355171 -0.30322921
-0.20582293 -0.025409359 -0.30182421
-0.25710407 -0.0080265738 -0.30570698
-0.20607698 -0.0082187764 -0.29946709
-0.25743598 0.026400715 -0.30317068
-0.2576628 0.043639995 -0.3014375
-0.22335279 0.043625243 -0.29951394
-0.24078992 0.060906153 -0.29824531
-0.15479866 0.18223459 -0.29279041
-0.13689876 0.18183744 -0.30015957
-0.11986221 0.18202376 -0.29670465
-0.17202552 0.19949669 -0.29393542
-0.085116595 0.19916533 -0.29931438
-0.17198409 0.21678935 -0.29438353
0.087797634 0.28596827 -0.2954092
0.12225239 0.30280414 -0.29983091
0.15659712 0.31962803 -0.3037672
0.17467415 0.3211821 -0.29030764
0.20878196 0.33758077 -0.2980454
0.26093292 0.35523176 -0.29530323
0.29436356 0.37111005 -0.30566025
0.3127161 0.37236893 -0.29657507
0.34737203 0.38972414 -0.29622197
0.3461338 0.40565452 -0.30515802
0.34606585 0.42281267 -0.30564868
-0.20763436 0.0087287612 -0.2850163
-0.25919369 0.060906056 -0.28973913
-0.25941548 0.078275241 -0.28804457
-0.24213544 0.078280918 -0.28732097
-0.26090047 0.095819153 -0.27669728
-0.17377183 0.18319145 -0.27503085
-0.051078323 0.21739545 -0.2856344
-0.01634796 0.2349333 -0.28368366
0.018466758 0.2522344 -0.28488564
0.05321316 0.26914114 -0.29015374
0.10560413 0.28757367 -0.27936554
0.1402299 0.30443537 -0.28469527
0.19286434 0.32257962 -0.27820563
0.22702549 0.33896464 -0.28681064
0.24539705 0.34028858 -0.27606201
0.27928308 0.35649106 -0.2856822
0.29749784 0.35742864 -0.27851653
0.33097461 0.37338021 -0.28927732
0.34963158 0.37467739 -0.27991509
0.36691138 0.39195719 -0.280954
0.36588815 0.40830398 -0.28794968
0.36646339 0.42630953 -0.28401685
-0.28012639 0.096015841 -0.26392758
-0.10412611 0.18339421 -0.27126956
-0.19235599 0.20134687 -0.2638911
0.035860237 0.25397125 -0.26437557
0.07085108 0.27085119 -0.27164268
0.12366369 0.28919518 -0.26316392
0.15839566 0.30597696 -0.27039051
0.21124999 0.32399079 -0.26598501
0.26388505 0.34155202 -0.26580358
0.31594715 0.35849822 -0.27034247
0.33451578 0.35956153 -0.26221788
0.36879501 0.37631792 -0.26807523
0.38697141 0.39446184 -0.26383066
0.3867906 0.4118365 -0.26500511
-0.28209427 0.078570276 -0.24972582
-0.1579759 0.1666349 -0.25526893
-0.14073583 0.16686381 -0.25031447
-0.19349156 0.18440311 -0.25254357
-0.069859549 0.20186581 -0.25546432
-0.19343892 0.21965177 -0.25306976
-0.034822006 0.21994117 -0.24889147
-0.17553422 0.23706822 -0.25595248
0.00060921907 0.23716132 -0.25474393
0.053560138 0.25560489 -0.24507964
0.088717587 0.2723355 -0.25557411
0.1418598 0.29057193 -0.24940681
0.17669828 0.30737281 -0.25743985
0.19501954 0.30848712 -0.24709773
0.22971085 0.32524773 -0.2550981
0.24821357 0.32634774 -0.24557221
0.28235704 0.34261668 -0.25715935
0.30109593 0.34382424 -0.24735618
0.3531194 0.36053964 -0.25474393
0.37173381 0.36142462 -0.24798262
0.3883591 0.37815508 -0.25481725
-0.17685875 0.16726561 -0.24161386
0.018055908 0.23894952 -0.23151445
0.071541175 0.25715131 -0.22681928
0.10684884 0.27387187 -0.23894238
0.16026331 0.29194039 -0.23573112
0.2135818 0.30971628 -0.23569405
0.26679394 0.32736808 -0.23673642
0.28555 0.32843083 -0.22753215
0.3199397 0.34498551 -0.2379266
0.3385224 0.3457647 -0.2316016
0.35674968 0.34614113 -0.22854471
0.39079937 0.36260423 -0.2389673
0.40920404 0.38091496 -0.23489916
0.40846828 0.39802784 -0.23944998
-0.19626391 0.16804034 -0.22484076
-0.21507421 0.18637326 -0.21598339
-0.21440497 0.20391479 -0.22219312
-0.017877903 0.22212055 -0.21743464
0.035860237 0.24055235 -0.21069217
-0.16059496 0.25736129 -0.22433925
0.089745305 0.25848472 -0.2110728
0.12512718 0.27514678 -0.22514141
0.14359525 0.2763761 -0.21183336
0.17880397 0.29318973 -0.22324753
0.19738026 0.29421276 -0.21302426
0.23228146 0.3108969 -0.22474027
0.25089324 0.31177801 -0.21656406
0.30451599 0.32956189 -0.21773744
0.3233676 0.33044434 -0.21009588
0.3750746 0.34656033 -0.22514141
0.39410871 0.34750479 -0.21747255
0.41103071 0.36461565 -0.22359931
-0.054439534 0.20538576 -0.19830751
-0.21728766 0.22364408 -0.1954447
0.10820206 0.25984618 -0.19499493
0.16226473 0.27759939 -0.19858968
0.21611401 0.29523599 -0.2027998
0.26971683 0.31275168 -0.20752871
0.28859878 0.31364456 -0.19924331
0.3420895 0.33110845 -0.20434403
0.36055258 0.33148307 -0.20109963
0.37895063 0.3317669 -0.19864094
0.41373762 0.34881282 -0.20685446
0.43349651 0.36817053 -0.19643426
0.43367279 0.38638914 -0.19539356
-0.20013158 0.24243821 -0.18619287
0.053990245 0.2422061 -0.18920732
0.12686929 0.26112613 -0.1798799
0.18108119 0.27873755 -0.18627024
0.23490703 0.29614308 -0.19373405
0.25381619 0.29702511 -0.18492222
0.30766574 0.31459129 -0.19046009
0.32667753 0.31537113 -0.18322229
0.39773178 0.33230984 -0.19393992
0.41706941 0.33319834 -0.18624449
0.43545929 0.35152367 -0.18484461
-0.00063646585 0.22514136 -0.1738342
0.072430849 0.24375929 -0.16903329
0.14568391 0.26224965 -0.16661215
0.19992508 0.27965936 -0.17629266
0.21875787 0.28038335 -0.16845465
0.27274999 0.29779586 -0.17721987
0.29172999 0.29849946 -0.17018926
0.31083375 0.29921645 -0.16302431
0.34558278 0.31597182 -0.17765045
0.36418915 0.316273 -0.17485476
0.38281649 0.31655821 -0.17220974
0.40160084 0.31692442 -0.16880965
0.42096201 0.31764066 -0.16216528
0.43879923 0.33563718 -0.16512299
0.091116726 0.24509434 -0.15168881
0.16459543 0.26320422 -0.15533757
0.23778753 0.2811904 -0.1597172
0.25679749 0.28184339 -0.15264869
0.3298879 0.29980356 -0.15715754
0.3488791 0.30027336 -0.15246212
0.36776543 0.30061546 -0.14904523
0.38657254 0.30086705 -0.14652967
0.017331937 0.22766079 -0.13746798
0.11001419 0.24629101 -0.13614452
0.18358964 0.26403403 -0.14553809
0.20266263 0.26477569 -0.13677943
0.27589771 0.28247914 -0.14576614
0.29504135 0.28306124 -0.13946378
0.31411704 0.28351149 -0.13458979
0.40543568 0.30113012 -0.14390159
0.42494363 0.30176702 -0.13753545
0.44286209 0.31990734 -0.14113319
-0.35687855 0.042204246 -0.11492324
-0.35561126 0.06090625 -0.1227628
0.12906247 0.2473105 -0.12289941
0.22183877 0.26548263 -0.12843251
0.24088088 0.26592672 -0.12318623
0.25998431 0.26635313 -0.11815035
0.33326185 0.28395739 -0.1297642
0.35238004 0.28433192 -0.12571001
0.37135991 0.28457251 -0.12310421
0.39032269 0.28477713 -0.12088978
0.40952286 0.28510368 -0.11735463
0.14817111 0.24809077 -0.11276257
0.16741048 0.248835 -0.10309637
0.27918947 0.26680002 -0.11287296
0.29849321 0.26726049 -0.10743415
0.31763503 0.26754096 -0.10412347
0.33674499 0.26776439 -0.10148466
0.35594377 0.26801914 -0.098478198
0.42980972 0.28602007 -0.10743415
0.44748497 0.30413881 -0.11383677
-0.38036719 0.023067284 -0.086658955
-0.36098197 0.023111634 -0.089540362
0.035860237 0.23043157 -0.097474217
0.18657881 0.24930452 -0.097000003
0.20581397 0.24974346 -0.091293812
0.22501229 0.25005805 -0.087207675
0.24430692 0.25040299 -0.082726717
0.37513176 0.26823863 -0.09588325
0.39432576 0.26843867 -0.093520761
0.41399547 0.26888043 -0.088304281
-0.38203719 0.0039200559 -0.076797485
-0.36359528 0.0038409978 -0.07337451
0.054888502 0.23216049 -0.072520733
0.26349157 0.25059888 -0.080183148
0.28260958 0.2507132 -0.078696966
0.30187145 0.25091404 -0.076088071
0.32121351 0.25114158 -0.073132634
0.34051245 0.25131378 -0.070896983
0.35972676 0.2514157 -0.069570899
0.37906462 0.25157514 -0.067500234
-0.30947623 -0.36117187 -0.052113056
-0.3287611 -0.34209651 -0.051432729
-0.30931395 -0.34179717 -0.053284526
-0.32856855 -0.32270312 -0.052749515
-0.30919778 -0.32249177 -0.054122686
-0.32848603 -0.30344006 -0.053313613
-0.30918178 -0.30330491 -0.054238439
-0.32838669 -0.28417006 -0.053992748
-0.30909774 -0.28405181 -0.054844975
-0.32826206 -0.26488757 -0.054844975
-0.30911374 -0.26490271 -0.054729342
-0.32817972 -0.24565388 -0.055408001
-0.30917579 -0.24579267 -0.054281712
-0.32811007 -0.22643887 -0.055884123
-0.30914974 -0.22660227 -0.054469347
-0.34813011 -0.20788716 -0.050274014
-0.32801515 -0.20721261 -0.056532979
-0.30915773 -0.20744126 -0.054411769
-0.34800074 -0.18860348 -0.051114321
-0.32803413 -0.18807428 -0.05640316
-0.30924985 -0.18834008 -0.053747058
-0.34795618 -0.16938373 -0.051403761
-0.32801729 -0.16891129 -0.056518555
-0.30929592 -0.16919798 -0.053414702
-0.34784251 -0.15013033 -0.052142143
-0.32803413 -0.1497696 -0.05640316
-0.30934599 -0.15005332 -0.053053141
-0.34751087 -0.13077949 -0.054296136
-0.32794139 -0.13056847 -0.057037592
-0.30940211 -0.13090628 -0.052648425
-0.34739974 -0.11156084 -0.055018187
-0.32798564 -0.11144187 -0.05673492
-0.30954245 -0.11179519 -0.051635742
-0.34730193 -0.092358798 -0.055653214
-0.3280426 -0.092316121 -0.056345582
-0.30969295 -0.092673123 -0.050549269
-0.3472864 -0.073195189 -0.055754304
-0.32800251 -0.073148653 -0.056619406
-0.34702224 -0.053958651 -0.057469726
-0.32797298 -0.05398858 -0.056821465
-0.38606089 -0.034985054 -0.053038836
-0.36673316 -0.034949485 -0.053964019
-0.34690696 -0.034785684 -0.058218718
-0.32785708 -0.034809034 -0.057613969
-0.38401887 -0.015435416 -0.065096855
-0.36557338 -0.015557442 -0.061138272
-0.34651938 -0.01556981 -0.060736179
-0.32778963 -0.015651729 -0.058074832
-0.34633365 0.0035770386 -0.061942697
-0.32778963 0.0034877174 -0.058074951
-0.34612378 0.022707652 -0.063305616
-0.32785285 0.022620481 -0.057642698
-0.34610832 0.041807715 -0.063405991
-0.32786968 0.041762456 -0.057527423
-0.34649727 0.060906056 -0.060879946
-0.32808477 0.060906202 -0.056057096
-0.34715539 0.080056965 -0.05660522
-0.32835081 0.080075152 -0.054238319
-0.348003 0.099292323 -0.051099777
-0.32871878 0.099282965 -0.051722527
0.074146271 0.23319322 -0.05761385
0.39884579 0.25195116 -0.062617183
0.43794045 0.27151954 -0.057138443
-0.311349 -0.40203956 -0.038597822
-0.29176316 -0.40162104 -0.040862918
-0.27330077 -0.40283534 -0.034289837
-0.33007872 -0.38207266 -0.042424202
-0.31013715 -0.38120177 -0.047343373
-0.29092839 -0.38121974 -0.047241807
-0.27279544 -0.38278639 -0.038392782
-0.32914481 -0.36173129 -0.048809648
-0.29068336 -0.36167961 -0.049114347
-0.27268374 -0.36334199 -0.039299607
-0.34998634 -0.3442328 -0.038217425
-0.29060933 -0.3423799 -0.049679637
-0.27274498 -0.34413826 -0.038802505
-0.34946445 -0.32441854 -0.04160738
-0.29065299 -0.32322714 -0.049346209
-0.34922868 -0.30492848 -0.043138504
-0.29073083 -0.3041074 -0.048751593
-0.3489081 -0.28538543 -0.045220852
-0.29082197 -0.28499267 -0.048054934
-0.34884092 -0.26608998 -0.045657396
-0.29101968 -0.26597381 -0.046544313
-0.34842932 -0.24652551 -0.048330665
-0.29116619 -0.24688344 -0.045424819
-0.29122144 -0.22769539 -0.045002699
-0.34826177 -0.22718538 -0.049418807
-0.29134718 -0.20855884 -0.044041872
-0.29145584 -0.18939443 -0.043211341
-0.29154357 -0.17020237 -0.042540908
-0.29175934 -0.15108304 -0.040892124
-0.29198307 -0.13194288 -0.039182782
-0.36911085 -0.093368649 -0.039255619
-0.36850199 -0.073881373 -0.043021917
-0.30979937 -0.073517069 -0.049781322
-0.40839511 -0.0549866 -0.035214305
-0.38916656 -0.055010375 -0.034700751
-0.36776584 -0.054415617 -0.047575712
-0.3098315 -0.054324437 -0.049549222
-0.40801626 -0.035588827 -0.037353754
-0.30986971 -0.035130087 -0.049273849
-0.30991191 -0.015932206 -0.04896915
-0.30995005 0.0032710209 -0.048693419
-0.31014523 0.022461124 -0.047285318
-0.31023583 0.041678578 -0.046631455
-0.310395 0.060906056 -0.045482874
-0.36808303 0.080141515 -0.045613766
-0.34871107 0.11859179 -0.046500683
-0.3292127 0.11854926 -0.048345327
-0.31104931 0.11872437 -0.040760756
-0.34983325 0.1380448 -0.039211869
-0.32974845 0.13787632 -0.044682384
-0.31132269 0.13805774 -0.038787842
-0.33080107 0.15739597 -0.03748548
-0.31183004 0.15748692 -0.035126328
0.093552984 0.23398432 -0.046195269
0.11294182 0.23433974 -0.041067362
0.13242449 0.23472176 -0.035551548
0.15162437 0.23455243 -0.037997842
0.17093337 0.23457153 -0.037719607
0.19012684 0.23445609 -0.039387345
0.20945574 0.23450169 -0.038729429
0.22864737 0.23441441 -0.03998661
0.24788399 0.23438014 -0.040483236
0.26710898 0.23434277 -0.041023612
0.28636512 0.23433255 -0.041169524
0.30555138 0.23427893 -0.041942716
0.32496333 0.23436786 -0.040658593
0.34424949 0.23437499 -0.040556192
0.36360788 0.23441948 -0.039913416
0.38352409 0.23473814 -0.035316944
0.42047855 0.25321519 -0.046195269
-0.31396082 -0.4249565 -0.019748807
-0.29346684 -0.42339835 -0.027844667
-0.27444935 -0.42395252 -0.024964571
-0.33237526 -0.40423352 -0.026722908
-0.25532335 -0.40498763 -0.022640944
-0.25496456 -0.38502526 -0.025747895
-0.25487754 -0.36550939 -0.026501536
-0.41023859 -0.074863106 -0.02480197
-0.29325649 0.1189855 -0.029451609
-0.29345137 0.13839115 -0.027962685
-0.2937412 0.15784784 -0.025747895
-0.33313704 0.17743155 -0.021514416
-0.312931 0.17716989 -0.027180672
-0.29430684 0.17743576 -0.021425605
-0.25622073 -0.42589548 -0.014869332
-0.23813882 -0.42837799 -0.0019701719
-0.23732013 -0.40740311 -0.0095667839
-0.23692709 -0.38724449 -0.013213634
-0.23688367 -0.36769155 -0.013616562
-0.3738232 -0.11467266 -0.010105371
-0.39397398 -0.075859264 -0.0063143969
-0.2757479 0.099857092 -0.01442194
-0.27560103 0.11930504 -0.015614033
-0.27550933 0.1387485 -0.016358852
-0.25766501 0.1391795 -0.002361536
-0.27563405 0.15824805 -0.015345931
-0.25751036 0.15869623 -0.0037004948
-0.27597392 0.17784399 -0.012586594
-0.25765976 0.17831405 -0.0024067163
-0.29578045 0.19746409 -0.010165334
-0.27674094 0.19766913 -0.006359458
0.30964202 0.21735293 -0.0039862394
0.32905212 0.21727492 -0.0052484274
0.34870929 0.21733072 -0.004347086
0.40546793 0.23598346 -0.017341137
-0.29832354 -0.4501985 0.0092673302
-0.27761203 -0.44848636 0.00071310997
-0.25872564 -0.4497095 0.0068238974
-0.21994773 -0.43103224 0.011821985
-0.21920347 -0.4099808 0.0043852329
-0.21879673 -0.38964081 0.0003207922
-0.20042636 -0.39197654 0.01351285
-0.20037144 -0.37218541 0.012918472
-0.21869111 -0.36987317 -0.00073468685
-0.21873182 -0.35035795 -0.00032770634
-0.20039254 -0.35253635 0.013147116
-0.21931559 -0.2727854 0.0055054426
-0.21948698 -0.25336742 0.0072182417
-0.21969053 -0.2339602 0.0092521906
-0.21984872 -0.21447282 0.010833144
-0.22011232 -0.1950665 0.013467073
-0.43476671 -0.095969602 0.0029784441
-0.4149566 -0.095899716 0.0018452406
-0.4349567 -0.076415583 0.0040067434
-0.25844401 0.060906153 0.0043852329
-0.25838286 0.080522195 0.0038555861
-0.25819781 0.10011403 0.0022530556
-0.25793466 0.11966509 -2.6226044e-05
-0.23972207 0.13964382 0.012720346
-0.23946127 0.15923527 0.010300756
-0.23931226 0.17883722 0.0089179277
-0.31668529 0.19800724 -8.6426735e-05
-0.25823098 0.19814855 0.0025401115
0.25245371 0.21842861 0.013482332
0.27141413 0.21794194 0.0055811405
0.29042363 0.21756046 -0.00061416626
0.36911619 0.21773231 0.0021775961
-0.24054533 -0.45241854 0.020359516
-0.2017075 -0.43402663 0.02738142
-0.20084527 -0.41250494 0.01804769
-0.18196239 -0.39454123 0.027997971
-0.1818189 -0.37445217 0.026303411
-0.18186975 -0.35476023 0.026904225
-0.20049113 -0.33301282 0.014214158
-0.18194018 -0.33509463 0.027735949
-0.20059401 -0.31347981 0.015327811
-0.18207078 -0.31552029 0.02927804
-0.20076334 -0.29402941 0.017160892
-0.20093149 -0.27454892 0.018981218
-0.20106307 -0.25499168 0.020405412
-0.20129544 -0.23553853 0.022921085
-0.20145726 -0.2159643 0.024672627
-0.20172459 -0.1964774 0.027566433
-0.22043765 -0.17567664 0.016717672
-0.2019597 -0.17691383 0.030111551
-0.2206856 -0.15617117 0.019195437
-0.22098622 -0.13666813 0.022199631
-0.43756774 -0.11662944 0.018139362
-0.22129834 -0.11712675 0.025318623
-0.22158962 -0.097524509 0.028229117
-0.2217842 -0.077825502 0.030173302
-0.24076352 0.0213883 0.02238369
-0.24085778 0.04114059 0.023258686
-0.24083462 0.060906105 0.023044109
-0.24082306 0.080669232 0.022936344
-0.24040338 0.10037231 0.019042492
-0.24007711 0.12003551 0.016015172
-0.22158039 0.14011855 0.028136611
-0.22116908 0.15976366 0.024027109
-0.28021881 0.21894559 0.021877289
-0.259891 0.21864006 0.016916275
0.23343208 0.21896364 0.022168875
-0.22256535 -0.45594516 0.037979245
-0.18326236 -0.43709981 0.043349862
-0.18235731 -0.41520494 0.032661676
-0.16354406 -0.41766426 0.045973301
-0.16314776 -0.39681244 0.040825248
-0.16302919 -0.37665063 0.039284825
-0.16307588 -0.3568598 0.039891481
-0.16314058 -0.3370955 0.040731668
-0.16324729 -0.31739825 0.042118073
-0.18216099 -0.29585588 0.030343175
-0.16335532 -0.2976819 0.043521643
-0.18233505 -0.27630475 0.032398939
-0.16348152 -0.27797487 0.045160651
-0.18248838 -0.25669187 0.034209847
-0.18266167 -0.23707826 0.036255956
-0.1828602 -0.21746536 0.038600564
-0.18311584 -0.1978838 0.041619539
-0.18339056 -0.17827658 0.044864178
-0.20222385 -0.15733756 0.032971025
-0.20253302 -0.13775504 0.036318064
-0.20284875 -0.11812568 0.039735913
-0.2030616 -0.098375201 0.042040348
-0.20334843 -0.07863231 0.045145273
-0.2220332 -0.058121663 0.032661676
-0.22215402 -0.038330179 0.033868909
-0.22231218 -0.01853158 0.035449743
-0.22257778 0.0012665913 0.038103342
-0.22285953 0.021103095 0.040918469
-0.22291872 0.041000042 0.041510463
-0.22292343 0.060906105 0.041557074
-0.22288445 0.080809496 0.041167855
-0.22264311 0.10067575 0.038756251
-0.22211683 0.12043931 0.033497572
-0.20322727 0.14060192 0.043833733
-0.20274818 0.16032644 0.038647532
0.31504986 0.20050086 0.04619205
0.21452737 0.21972123 0.034473181
-0.20411566 -0.4590418 0.053450942
-0.16448463 -0.43995598 0.058191776
-0.14464058 -0.42042947 0.060940027
-0.14417727 -0.39918977 0.054252744
-0.14403351 -0.37883428 0.052178144
-0.14404112 -0.35886371 0.052287936
-0.14412062 -0.33905143 0.053435326
-0.1442187 -0.31926045 0.054850698
-0.14433436 -0.299483 0.056520224
-0.14444469 -0.27966991 0.058113098
-0.14456065 -0.25984219 0.05978632
-0.16364038 -0.25829494 0.047224283
-0.16380672 -0.23859446 0.049385309
-0.16405435 -0.21897425 0.052602291
-0.16428201 -0.19927882 0.055559516
-0.164515 -0.1795442 0.05858624
-0.18360236 -0.15855652 0.047365189
-0.16474126 -0.15975557 0.061525583
-0.4650293 -0.13944969 0.058333635
-0.44348532 -0.13882121 0.05016911
-0.18387434 -0.13885255 0.050576925
-0.18411502 -0.11907366 0.053419471
-0.18438028 -0.099268854 0.056551814
-0.18467423 -0.079433963 0.060023427
-0.20365039 -0.058849182 0.048414111
-0.20387629 -0.038984079 0.050859451
-0.20400101 -0.019047651 0.052209496
-0.20427552 0.00087215751 0.055181384
-0.20450117 0.020845823 0.057623863
-0.20468923 0.0408604 0.059660077
-0.20473887 0.060905963 0.060197234
-0.20470092 0.080952808 0.059786439
-0.20446765 0.10096066 0.05726099
-0.2040576 0.12088563 0.052822232
-0.1840924 0.16088462 0.053152323
0.29589868 0.20092666 0.054095626
0.33530641 0.20064758 0.048915386
0.19564113 0.22068702 0.050153613
-0.185387 -0.46204194 0.068440914
-0.14560869 -0.44317427 0.074913859
-0.1255341 -0.42327696 0.076352954
-0.12502533 -0.40163976 0.068091035
-0.12485904 -0.38107193 0.065391064
-0.12483363 -0.36091536 0.0649786
-0.10543573 -0.36298183 0.077761769
-0.12487076 -0.34092146 0.06558156
-0.1249842 -0.32109943 0.067423582
-0.12509488 -0.30124298 0.069220543
-0.12523216 -0.28141534 0.071450233
-0.1253894 -0.26159319 0.07400322
-0.14476883 -0.24014233 0.062791467
-0.12556958 -0.24177487 0.076929092
-0.14499953 -0.22043134 0.066121101
-0.14519441 -0.20061733 0.068934083
-0.1453864 -0.18075603 0.071705341
-0.46605486 -0.15993655 0.063662767
-0.14561202 -0.16089328 0.074961901
-0.16495095 -0.13990512 0.064249277
-0.14579603 -0.14093426 0.077617764
-0.16514029 -0.11999428 0.066708684
-0.16543904 -0.10013334 0.070589781
-0.16574118 -0.080214962 0.074514389
-0.18498643 -0.059555743 0.06371057
-0.16600963 -0.060215849 0.078002095
-0.18522957 -0.039589193 0.066581845
-0.18543686 -0.019565444 0.06902945
-0.18563102 0.0004995428 0.07132268
-0.18591754 0.020582914 0.074705958
-0.18616815 0.040721714 0.077665687
-0.18610306 0.10126309 0.076897264
-0.1855339 0.12128641 0.070175767
-0.18487914 0.14117496 0.062443376
-0.1653998 0.16153617 0.070080042
-0.14576606 0.1819903 0.077185273
0.27721205 0.20169461 0.068345547
0.17693646 0.2221361 0.073683739
-0.16716309 -0.46695456 0.092985988
-0.12639892 -0.44615379 0.090395808
-0.10615052 -0.42598808 0.091026902
-0.10566568 -0.40410772 0.082029343
-0.10548927 -0.38333511 0.07875514
-0.085873738 -0.38545179 0.0912534
-0.085830405 -0.36501113 0.090314984
-0.10548753 -0.34294474 0.078723192
-0.085879713 -0.34489372 0.091382623
-0.085953027 -0.32483599 0.092969775
-0.10556272 -0.32295614 0.080118537
-0.10567088 -0.30303112 0.082125783
-0.10577141 -0.28305647 0.083991289
-0.10593724 -0.26320243 0.087068796
-0.10610519 -0.24330558 0.090185761
-0.12575908 -0.22192763 0.080006123
-0.10626397 -0.22334222 0.0931319
-0.12592626 -0.20199706 0.082720637
-0.12608084 -0.1820056 0.085231066
-0.12625267 -0.16199918 0.088020563
-0.12644874 -0.14198007 0.091204524
-0.14604379 -0.12099797 0.081194043
-0.14629671 -0.10101113 0.084844351
-0.14653131 -0.080954075 0.08823061
-0.14678557 -0.060857769 0.091900706
-0.16625412 -0.040151004 0.081177831
-0.16647069 -0.02002624 0.083991051
-0.16670014 0.00013795868 0.086971998
-0.16700231 0.020333521 0.090897441
-0.18635274 0.060906105 0.079845667
-0.18638535 0.081110261 0.080230832
-0.16724548 0.10152715 0.094055891
-0.16671751 0.12167946 0.087197781
-0.16613427 0.14170401 0.079621077
-0.14690006 0.14213286 0.093553305
-0.14636591 0.16214286 0.085843444
-0.12650056 0.18267666 0.092046499
0.25858927 0.20264284 0.085940003
-0.10706133 -0.44952807 0.10792899
-0.086572841 -0.42882627 0.10638964
-0.086075872 -0.40651575 0.095629811
-0.066121995 -0.38781571 0.10521138
-0.066047758 -0.36710751 0.10328305
-0.066076055 -0.3468391 0.10401809
-0.066128924 -0.32665274 0.10539138
-0.086039156 -0.3047919 0.094834328
-0.066203877 -0.30652481 0.10733926
-0.086135149 -0.28474754 0.096913099
-0.066290349 -0.2864058 0.10958517
-0.086272687 -0.26478165 0.09989059
-0.086415038 -0.24478213 0.10297275
-0.086545631 -0.22470765 0.10580027
0.44305775 -0.22413222 0.10046077
0.46361789 -0.22426556 0.10169971
-0.10641694 -0.20332302 0.095970869
-0.086681053 -0.20460008 0.10873234
0.44322091 -0.20387839 0.10152042
0.46332014 -0.203712 0.099857926
-0.47217876 -0.18295267 0.09548378
-0.10656676 -0.18325439 0.09875071
0.44347969 -0.18366557 0.10320127
0.46347296 -0.18344396 0.10080314
-0.10672039 -0.16314906 0.10160184
0.44342187 -0.1632528 0.10282588
0.46383956 -0.16327342 0.10307074
-0.10689197 -0.14302564 0.10478628
0.44338161 -0.14285459 0.10256445
0.46402699 -0.14298281 0.1042304
-0.12667626 -0.12194739 0.094899178
-0.10709576 -0.12289453 0.10856807
0.44364819 -0.12259838 0.10429573
0.46457726 -0.12282974 0.10763407
-0.12691346 -0.10186756 0.098750949
0.44370106 -0.10223015 0.10463905
0.46489796 -0.10253678 0.10961783
-0.12711215 -0.081694812 0.10197723
0.44363311 -0.081814408 0.10419774
-0.1273184 -0.061477777 0.10532594
0.44364318 -0.061428796 0.10426319
-0.14696187 -0.040661681 0.094444871
-0.12750694 -0.041198235 0.10838783
0.44364819 -0.041040931 0.10429573
-0.14718015 -0.020445209 0.097595572
0.44364572 -0.020651069 0.10427964
-0.14744753 -0.00019641593 0.10145533
0.44372621 -0.00027389824 0.10480249
-0.14771798 0.020110905 0.1053586
0.44373375 0.02011859 0.10485172
-0.16729042 0.040591192 0.094639659
-0.14793693 0.04048416 0.10851896
0.42410445 0.040472176 0.1100775
0.44356015 0.040521063 0.103724
0.44371113 0.060906056 0.1047045
-0.167533 0.060906153 0.097791195
0.42390528 0.060906202 0.10871565
-0.16763695 0.081255674 0.099141479
-0.14790966 0.10174379 0.10812569
-0.14745884 0.12201245 0.10161817
-0.12740201 0.14253718 0.10668409
-0.12698065 0.16268161 0.099841714
-0.10695896 0.18332249 0.10602927
-0.10664396 0.20341016 0.10018396
0.23970012 0.20359401 0.10359335
-0.087460786 -0.45293155 0.12561393
-0.066745192 -0.43159989 0.12140226
-0.06632635 -0.40915221 0.11052072
-0.046321575 -0.41163939 0.12456799
-0.046146695 -0.39013207 0.1188885
-0.0460806 -0.36928329 0.11674201
-0.046076532 -0.34877774 0.11661005
-0.04610702 -0.32843843 0.1176002
-0.046172645 -0.3082419 0.11973131
-0.046255205 -0.28808448 0.12241244
-0.06639339 -0.26630548 0.11226261
-0.046328221 -0.26784778 0.12478387
-0.066502362 -0.24618171 0.11509347
0.4447583 -0.24576746 0.11150646
0.4657698 -0.24617223 0.11501098
-0.066622347 -0.22604524 0.11821115
0.4248887 -0.22574638 0.11543941
-0.066741362 -0.20585798 0.12130296
-0.086812973 -0.18444027 0.11158848
-0.066861287 -0.18562557 0.12441885
-0.086955085 -0.16425526 0.11466491
-0.087138712 -0.14409216 0.11864054
0.42519745 -0.14400823 0.11755073
-0.087292269 -0.1238226 0.12196541
0.42523855 -0.12353618 0.11783123
-0.1072727 -0.10267442 0.11185169
-0.087453887 -0.10351285 0.12546456
0.42537141 -0.10309854 0.11873972
-0.10745093 -0.08240515 0.11515939
0.42519745 -0.082534045 0.11755073
0.46526963 -0.08223027 0.11191702
-0.10761359 -0.062071424 0.11817801
0.42482841 -0.061926011 0.11502743
0.46563399 -0.061886478 0.11417091
-0.10779448 -0.041704524 0.12153482
0.42449135 -0.041365329 0.11272287
-0.1277152 -0.020881649 0.11176932
-0.10797402 -0.021284822 0.12486684
0.42430139 -0.02087101 0.11142433
-0.1279199 -0.00051145628 0.11509347
0.42431101 -0.00042810291 0.11149001
-0.12813427 0.019907389 0.11857474
0.42435908 0.020011511 0.11181843
-0.12830229 0.040385861 0.12130296
-0.14810291 0.060906105 0.11091506
-0.12844414 0.060906012 0.1236062
-0.14816895 0.081353642 0.1118679
-0.12843293 0.081442676 0.12342358
0.42460686 0.081366487 0.11351252
0.4450039 0.081363238 0.11310112
-0.12822588 0.10192759 0.12006211
0.42603222 0.10197677 0.12325788
-0.12787627 0.1223072 0.11438501
-0.10770443 0.14294298 0.11986363
-0.10738704 0.16322562 0.1139735
-0.087136418 0.18390279 0.11859107
-0.086846396 0.20406388 0.11231184
-0.066913679 0.20478953 0.12578011
-0.046701957 -0.43446708 0.13692117
-0.026117161 -0.41425395 0.13933516
-0.025954071 -0.39239889 0.13227332
-0.0055019855 -0.37339732 0.14219058
-0.025888614 -0.37133583 0.12943888
-0.025882848 -0.35071442 0.12918913
-0.0054913759 -0.35260996 0.14150119
-0.025905926 -0.33027959 0.13018858
-0.005503282 -0.33204728 0.14227462
-0.025954455 -0.309982 0.13229001
-0.025998816 -0.28962862 0.13421082
-0.026065279 -0.26936325 0.13708878
-0.046424922 -0.24766327 0.1279242
-0.026139252 -0.24909128 0.14029181
-0.046523396 -0.22743659 0.13112223
-0.046607684 -0.2071148 0.13385999
-0.046694223 -0.18675725 0.13666999
-0.066988528 -0.16536112 0.12772465
-0.046783004 -0.16636285 0.13955343
-0.067128301 -0.14507098 0.13135576
-0.067269072 -0.12472676 0.13501346
-0.06739603 -0.10430394 0.1383121
-0.067537546 -0.083850726 0.14198875
-0.087574407 -0.083100915 0.12807405
-0.087715968 -0.062670097 0.1311388
-0.087881804 -0.042212296 0.13472915
-0.088048831 -0.021699924 0.13834572
-0.10816659 -0.00081966817 0.12844014
-0.088207796 -0.0011278801 0.14178705
-0.10833538 0.019707307 0.13157248
-0.10849105 0.040284462 0.13446152
-0.10864255 0.060906056 0.13727295
-0.10867144 0.081553385 0.13780916
-0.10846764 0.10214262 0.134027
0.40809694 0.10226579 0.14202249
-0.10814956 0.12262458 0.12812388
-0.087887987 0.14340501 0.13486302
-0.0875168 0.16372035 0.12682676
-0.067483231 0.1642496 0.14057708
-0.06715396 0.18452317 0.13202298
-0.046726201 0.20543236 0.13770866
-0.046569113 0.22576487 0.13260734
-0.067645088 -0.45662054 0.1447823
-0.026460413 -0.43765914 0.15419865
-0.0056735501 -0.41673249 0.15333378
-0.0055561624 -0.3946743 0.14570928
0.015082771 -0.37542084 0.15470755
0.015093476 -0.35442916 0.15331674
0.015088385 -0.3337591 0.15397823
-0.0055278838 -0.3115871 0.14387298
0.015074011 -0.31324592 0.15584517
-0.0055616125 -0.29117969 0.14606345
-0.0056154244 -0.27089921 0.14955831
-0.005666241 -0.25054243 0.15285909
-0.026216507 -0.2287855 0.14363754
-0.0057114325 -0.23009558 0.1557945
-0.026284609 -0.20838837 0.14658618
-0.026340757 -0.18789797 0.14901745
-0.026416562 -0.16744217 0.15230012
-0.04690202 -0.14599954 0.14341867
-0.026495695 -0.14694694 0.15572631
-0.04701462 -0.12556237 0.14707541
-0.04710358 -0.10502149 0.14996409
-0.047208901 -0.084464863 0.15338457
-0.0676146 -0.063263848 0.14399076
-0.047298793 -0.063832432 0.156304
-0.067743078 -0.04269724 0.14732862
-0.067894667 -0.022097889 0.15126717
-0.068056509 -0.0014440678 0.15547156
-0.088350818 0.019502405 0.14488328
-0.088500395 0.040179335 0.14812207
-0.088666767 0.060906012 0.1517241
-0.088726237 0.081670493 0.15301156
-0.088555023 0.10237794 0.14930463
-0.088248178 0.12296038 0.14266133
-0.068102285 0.12328377 0.15666091
0.40837437 0.1229918 0.14402461
0.4288899 0.12296344 0.14279592
-0.067784682 0.14382201 0.14840925
-0.047198463 0.16472945 0.15304565
-0.046935197 0.18509926 0.14449608
-0.026508637 0.18564397 0.15628695
-0.026339196 0.20603809 0.14894986
-0.026205234 0.22641388 0.14314926
-0.0056939162 0.22712268 0.15465677
-0.04750124 -0.46010295 0.16287839
-0.005899772 -0.44021401 0.16802752
0.014989464 -0.41912162 0.16682816
0.01505045 -0.39690918 0.15890598
0.035860237 -0.39889565 0.1706351
0.035860237 -0.37736082 0.16670859
0.035860237 -0.35622224 0.16496313
0.035860237 -0.33545327 0.1655618
0.035860237 -0.31488174 0.16765058
0.0150532 -0.29281357 0.15854871
0.035860237 -0.29433447 0.17017162
0.015033528 -0.27232134 0.16110396
0.035860237 -0.27374706 0.17268026
0.01500777 -0.25188091 0.16445029
0.014984451 -0.23135494 0.16747928
-0.0057530515 -0.20958026 0.15849781
0.014962407 -0.21076564 0.17034328
-0.0057955422 -0.18902856 0.16125739
0.01494018 -0.19013466 0.17323065
-0.0058431178 -0.16846234 0.16434753
-0.0058971345 -0.1478807 0.1678561
-0.026570305 -0.12638554 0.15895724
-0.0059507601 -0.12724343 0.17133939
-0.026651014 -0.10579053 0.16245162
-0.026733104 -0.085145071 0.16600657
-0.026790861 -0.064396054 0.16850746
-0.047413003 -0.043185387 0.16001308
-0.026872139 -0.043647852 0.17202687
-0.047533844 -0.022488069 0.16393733
-0.047656085 -0.0017311312 0.1679076
-0.068172976 0.019292824 0.15849757
-0.047760699 0.019095752 0.17130506
-0.068283796 0.040077172 0.16137695
-0.047845956 0.03997954 0.17407393
-0.068450153 0.060906105 0.16569877
-0.068551004 0.081788316 0.16831899
-0.06839025 0.10260633 0.16414237
-0.047704127 0.12357929 0.16946781
-0.047448162 0.14421445 0.16115522
-0.02689318 0.14457728 0.17293811
0.41201642 0.14449635 0.17030895
-0.026712563 0.165194 0.16511703
-0.005881574 0.1861316 0.16684544
-0.0057685152 0.20660673 0.15950203
0.01495368 0.20725213 0.17147672
0.014986034 0.22789961 0.16727364
-0.027127635 -0.46399292 0.18309021
0.014854671 -0.44322744 0.18433833
0.035860237 -0.42149815 0.18025076
0.056862861 -0.40115178 0.18395698
0.056828216 -0.3794215 0.17945564
0.056809872 -0.35808662 0.17707264
0.077958077 -0.36007231 0.18997002
0.056814786 -0.33723041 0.17771125
0.07796371 -0.33907691 0.19033587
0.056827813 -0.31651041 0.1794039
0.056846194 -0.29585522 0.18179107
0.056868475 -0.2752257 0.18468547
0.035860237 -0.25319508 0.1758312
0.05689241 -0.25457641 0.18779457
0.035860237 -0.2325898 0.17893732
0.035860237 -0.21195288 0.18220663
0.035860237 -0.19123919 0.18518865
0.014918301 -0.16945514 0.17607236
0.035860237 -0.17046705 0.18802083
0.014893588 -0.14876041 0.17928302
0.014866546 -0.12803712 0.18279576
-0.0060005523 -0.10653691 0.17457318
0.014840107 -0.10725492 0.18623054
-0.0060459413 -0.085765511 0.17752159
0.014814936 -0.086411044 0.18949986
-0.0060890317 -0.064941779 0.18032026
-0.0061343424 -0.04408038 0.18326342
-0.026959989 -0.022854101 0.17583084
-0.0061934032 -0.023201313 0.1870991
-0.027047295 -0.002001483 0.17961133
-0.02713244 0.018910997 0.18329823
-0.027193334 0.039888356 0.18593538
-0.047973905 0.060906202 0.17822933
-0.027257573 0.060906153 0.18871653
-0.048045758 0.081882656 0.18056226
-0.047942545 0.1028076 0.17721069
-0.027234267 0.10296901 0.18770766
-0.027078044 0.12384439 0.18094301
-0.0061468929 0.14492044 0.18407822
-0.0060398281 0.16565622 0.17712438
0.014824048 0.16608708 0.18831646
0.014903028 0.18664949 0.17805648
0.035860237 0.18716824 0.189291
0.035860237 0.20788626 0.18324625
0.035860237 0.22866383 0.17968047
0.035860237 -0.44612512 0.2000221
0.056949724 -0.42415205 0.19524014
0.078093126 -0.40365556 0.19874167
0.077993773 -0.38149604 0.19228864
0.099375576 -0.38370124 0.20592988
0.099321082 -0.36216626 0.20357072
0.099306867 -0.34092256 0.20295501
0.077983029 -0.3181991 0.19159091
0.099330023 -0.31991264 0.2039578
0.078013659 -0.29739809 0.19358015
0.099373937 -0.29900488 0.20585954
0.078053221 -0.27663776 0.19614995
0.078084752 -0.25577793 0.19819832
0.05691465 -0.23385568 0.19068444
0.078132018 -0.23499633 0.20126832
0.056939632 -0.21312608 0.19392955
0.078181833 -0.21418421 0.20450342
0.056964003 -0.19233911 0.1970948
0.056987211 -0.17149056 0.20010972
0.035860237 -0.14964738 0.19080627
0.057005461 -0.15054609 0.20248055
0.035860237 -0.12882063 0.19410431
0.057027943 -0.1296033 0.20540142
0.035860237 -0.10794349 0.19741023
0.035860237 -0.087014869 0.20070624
0.014794411 -0.06548892 0.19216645
0.035860237 -0.066022813 0.20372903
0.014774516 -0.044522505 0.19475079
0.035860237 -0.044958185 0.20607102
0.014743932 -0.023559127 0.19872403
-0.0062523521 -0.0022627227 0.19092846
0.014720831 -0.0025119744 0.20172489
-0.0063009821 0.01874486 0.19408679
0.014697272 0.018580154 0.20478499
-0.006349992 0.039800994 0.19727015
-0.0063815564 0.060906012 0.19932032
-0.027298186 0.081958942 0.19047534
-0.0064012744 0.082036853 0.2006011
-0.0063591562 0.10312545 0.19786549
-0.0062727593 0.12410559 0.19225371
0.014703233 0.12437703 0.20401049
0.014763344 0.14529371 0.19620228
0.035860237 0.16652329 0.19965351
0.056991667 0.18769482 0.20068884
0.056945823 0.20850523 0.19473338
0.078208946 0.20912656 0.20626473
0.056926601 0.22943695 0.1922363
0.078185081 0.23020542 0.20471454
0.057126299 -0.44947949 0.21817815
0.078285888 -0.42698881 0.21126187
0.099539578 -0.40607572 0.21303189
0.12096174 -0.38587669 0.21938753
0.12087525 -0.36416909 0.21657908
0.12084027 -0.34274903 0.21544278
0.12087034 -0.32163933 0.21641934
0.12091026 -0.30055651 0.21771598
0.099416703 -0.27806172 0.20771098
0.12095407 -0.27946916 0.21913874
0.099463999 -0.2571128 0.20975924
0.12101327 -0.25841793 0.22106147
0.099513412 -0.23614205 0.21189892
0.099572331 -0.21517952 0.21444964
0.078227952 -0.19330023 0.20749915
0.099653095 -0.19426535 0.21794713
0.07827799 -0.17239152 0.21074891
0.099725828 -0.17326775 0.22109699
0.07832022 -0.15139392 0.21349275
0.07836064 -0.13034566 0.2161175
0.057048984 -0.10860401 0.20813453
0.078400031 -0.10925311 0.21867597
0.057077691 -0.087616116 0.2118634
0.078448832 -0.088154063 0.22184539
0.057098962 -0.066526368 0.21462703
0.057121102 -0.045398254 0.21750271
0.035860237 -0.023869444 0.20880532
0.057140272 -0.024214085 0.21999288
0.035860237 -0.0027577393 0.21235919
0.035860237 0.018409532 0.21586907
0.014674749 0.039720502 0.20771098
0.035860237 0.039630413 0.21942341
0.035860237 0.060906056 0.22184539
0.014655039 0.06090625 0.2102716
0.014643464 0.082122929 0.21177495
0.014661701 0.10330328 0.20940578
0.035860237 0.1034898 0.22152472
0.035860237 0.12463702 0.21526563
0.035860237 0.14564198 0.20751679
0.057126027 0.14596933 0.21814287
0.057065167 0.16693079 0.21023619
0.07842496 0.16731797 0.22029531
0.0782976 0.18821804 0.2120229
0.099651039 0.2097512 0.21785831
0.099656373 0.23102929 0.2180891
0.099868521 -0.42982414 0.22727537
0.12121783 -0.40856057 0.22770464
0.14275743 -0.38806215 0.23290586
0.14261514 -0.36611354 0.2292093
0.14256963 -0.34458956 0.22802687
0.14257792 -0.32327753 0.2282418
0.14262342 -0.30208883 0.22942424
0.14267865 -0.28091291 0.23085892
0.14274845 -0.25975847 0.23267233
0.12109399 -0.23741205 0.22368276
0.14282179 -0.23858629 0.23457801
0.12115669 -0.21630727 0.22571909
0.14289454 -0.21738307 0.23646832
0.1212614 -0.19529732 0.22911954
0.12135696 -0.17420995 0.23222339
0.0997971 -0.15221678 0.22418272
0.1214328 -0.15302536 0.23468602
0.12150709 -0.13179941 0.23709881
0.099851996 -0.13106917 0.22655964
0.099908218 -0.10988866 0.22899425
0.099972829 -0.088689938 0.23179221
0.10005337 -0.067480087 0.23527992
0.078501865 -0.067018718 0.22529018
0.078549512 -0.045817319 0.22838509
0.10012329 -0.04619896 0.23830712
0.078582898 -0.024539191 0.23055398
0.078625202 -0.0032412596 0.23330116
0.057162356 -0.0030002184 0.22286201
0.057188064 0.018250603 0.22620177
0.078671463 0.018094871 0.23630619
0.057218533 0.039547823 0.23015928
0.057241336 0.060906056 0.23312163
0.035860237 0.08221665 0.22395039
0.057256564 0.082302295 0.23509991
0.05723428 0.10365422 0.23220527
0.057186551 0.12488508 0.22600532
0.078642085 0.12507896 0.23439813
0.078544825 0.14627531 0.22808063
0.10010912 0.14657129 0.23769391
0.099911526 0.16765827 0.22913742
0.099782676 0.18875092 0.22355795
0.12139404 0.18920675 0.23342717
0.12126195 0.21035899 0.22913766
0.12138131 0.23194838 0.23301363
0.078748144 -0.45374873 0.24128664
0.12171906 -0.43278214 0.24398243
0.14310089 -0.41095284 0.24182892
0.16475481 -0.39022496 0.24628484
0.16452563 -0.36797857 0.24132276
0.18662931 -0.36986274 0.25356066
0.16445301 -0.34630436 0.2397505
0.18651344 -0.34800974 0.25141025
0.16446052 -0.3248947 0.23991323
0.18647714 -0.32639462 0.25073683
0.16449474 -0.30355838 0.24065399
0.18653208 -0.30501121 0.25175631
0.16455153 -0.28227052 0.24188304
0.1865959 -0.28363249 0.25294042
0.16462673 -0.2610102 0.24351168
0.16470288 -0.23972677 0.24516034
0.16480343 -0.21847089 0.24733746
0.14299518 -0.1962177 0.23908293
0.16489574 -0.19716491 0.24933612
0.14309531 -0.17501104 0.2416842
0.16497725 -0.17580844 0.2511009
0.1432019 -0.15377732 0.24445379
0.16508244 -0.15446426 0.25337839
0.14330521 -0.13249485 0.2471379
0.1215743 -0.110522 0.2392813
0.14338844 -0.11113895 0.24929976
0.12163939 -0.089207351 0.24139512
0.14344864 -0.089717701 0.25086439
0.12172018 -0.067883834 0.24401891
0.143544 -0.068314493 0.25334191
0.12181006 -0.046531182 0.24693811
0.10017289 -0.024844158 0.24045539
0.12187551 -0.025109265 0.24906313
0.10023595 -0.0034697466 0.243186
0.12197414 -0.0036794208 0.25226641
0.1003025 0.017944776 0.24606705
0.078717545 0.039477453 0.23929954
0.10033686 0.039413862 0.24755549
0.10036875 0.060906056 0.24893606
0.078752875 0.060906153 0.24159396
0.078764573 0.082358241 0.24235356
0.10035113 0.08240293 0.24817288
0.078720048 0.10376603 0.23946202
0.10030501 0.10386924 0.24617589
0.12204094 0.10399652 0.25443614
0.10023136 0.12527718 0.2429868
0.12193039 0.12545873 0.25084603
0.12174195 0.14678781 0.24472547
0.14355524 0.14706212 0.25363362
0.12156485 0.1680368 0.23897445
0.14339682 0.16844255 0.24951792
0.14323887 0.1897603 0.24541426
0.14316078 0.2111268 0.24338508
0.14340732 0.23298144 0.24979055
0.14383535 -0.43577948 0.26091099
0.16523507 -0.41346824 0.25668252
0.18696615 -0.39241168 0.25981164
0.20889974 -0.3716926 0.26544654
0.20869498 -0.34957644 0.26212156
0.20865881 -0.32789084 0.26153469
0.20870741 -0.3063941 0.26232314
0.20877524 -0.28492403 0.26342499
0.18669814 -0.26231796 0.25483763
0.20886463 -0.26347718 0.26487672
0.18677489 -0.24092324 0.2562623
0.20896658 -0.24203019 0.26653242
0.18685567 -0.219514 0.25776148
0.20906186 -0.22054665 0.26807916
0.18694741 -0.19810049 0.25946379
0.20918678 -0.1990837 0.27010763
0.18704417 -0.17666869 0.26125956
0.18715492 -0.15522906 0.26331484
0.16522411 -0.13313973 0.25644505
0.18725097 -0.1337391 0.26509726
0.16531701 -0.11170286 0.25845683
0.18734616 -0.1122206 0.26686347
0.16541006 -0.090235353 0.26047122
0.18742755 -0.090661198 0.26837397
0.16551171 -0.06874536 0.26267231
0.14363322 -0.046867039 0.25565958
0.16561353 -0.047221798 0.26487672
0.14370567 -0.025370214 0.25754189
