ply
format ascii 1.0
comment PCL generated
element vertex 1124
property float x
property float y
property float z
element camera 1
property float view_px
property float view_py
property float view_pz
property float x_axisx
property float x_axisy
property float x_axisz
property float y_axisx
property float y_axisy
property float y_axisz
property float z_axisx
property float z_axisy
property float z_axisz
property float focal
property float scalex
property float scaley
property float centerx
property float centery
property int viewportx
property int viewporty
property float k1
property float k2
end_header
0.16477387 -0.066504173 -0.25810021
0.17832017 -0.066498011 -0.25836527
0.16456789 -0.052897029 -0.26032996
0.17811552 -0.052895717 -0.26041013
0.15119968 -0.025785767 -0.25811625
0.16426367 -0.032555252 -0.26362324
0.17795376 -0.039328314 -0.26202649
0.15109299 -0.012222734 -0.25937611
0.17313512 -0.016774973 -0.26517856
0.15091191 0.0013074558 -0.2615146
0.17084949 0.0012455881 -0.26552874
0.15083405 0.014832709 -0.26243412
0.17082718 0.014755774 -0.26576352
0.1507387 0.028337523 -0.26356018
0.16387308 0.028205361 -0.26785147
0.17777474 0.028329529 -0.26381546
0.15069613 0.041848976 -0.26406288
0.16395456 0.041737076 -0.26696956
0.17790818 0.041909683 -0.26248205
0.15076101 0.055411223 -0.26329684
0.16410819 0.055318456 -0.26530641
0.17827921 0.055620167 -0.2587744
0.15085977 0.069006875 -0.26213044
0.1643108 0.068953946 -0.26311314
0.15100613 0.082655162 -0.2604019
0.16453609 0.082638443 -0.2606743
0.15129428 0.096446007 -0.25699925
0.16617079 -0.12161033 -0.2429781
0.17984287 -0.12160112 -0.24314958
0.16573127 -0.10770133 -0.2477361
0.1792904 -0.10765819 -0.24866998
0.19361091 -0.10794744 -0.24240625
0.15246564 -0.094224572 -0.24316603
0.16537774 -0.093901426 -0.25156307
0.1789054 -0.093864694 -0.25251728
0.19317141 -0.094096914 -0.24648392
0.15221155 -0.080444515 -0.24616653
0.16508903 -0.080181986 -0.25468868
0.17859457 -0.080153286 -0.25562322
0.15192676 -0.066702068 -0.24953008
0.15167037 -0.05301661 -0.25255769
0.13889049 -0.025785724 -0.24170285
0.1513842 -0.039375179 -0.25593734
0.13868612 -0.012107082 -0.24435776
0.13853498 0.0015412495 -0.24632114
0.13837728 0.015157435 -0.24836969
0.13823117 0.028746761 -0.25026762
0.13803686 0.042282801 -0.25279194
0.13809596 0.055931833 -0.25202411
0.19362766 0.056383308 -0.24225074
0.13806733 0.069531471 -0.25239605
0.1786623 0.069393978 -0.25494641
0.13812149 0.08319141 -0.25169253
0.1792092 0.083327591 -0.2494815
0.13823055 0.096911818 -0.25027585
0.16500343 0.096541882 -0.25561517
0.13835353 0.11066788 -0.24867827
0.15164302 0.11034442 -0.25288081
0.16565923 0.1106803 -0.2485159
0.1386717 0.12466322 -0.24454528
0.15204632 0.12436064 -0.24811804
0.16725628 -0.14980291 -0.2312274
0.18112464 -0.14986435 -0.23034114
0.15363728 -0.13614008 -0.22932976
0.16665745 -0.13562393 -0.23770988
0.180444 -0.1356589 -0.23714274
0.19460714 -0.1359041 -0.23316211
0.15320024 -0.12206757 -0.23449099
0.19414185 -0.12190667 -0.23747981
0.1528039 -0.1080969 -0.23917145
0.13982317 -0.080954909 -0.22958696
0.13949838 -0.067065224 -0.23380619
0.13931943 -0.053269535 -0.23613065
0.13909231 -0.039504983 -0.23908114
0.12612459 -0.011983 -0.22823411
0.12600157 0.0017924272 -0.23000962
0.12582208 0.015521646 -0.23260039
0.12566082 0.029219154 -0.23492795
0.12561572 0.042945277 -0.23557895
0.12558548 0.056671303 -0.23601544
0.12545386 0.070311815 -0.23791528
0.19458044 0.070554525 -0.23340988
0.12539071 0.083983868 -0.23882675
0.1254328 0.097747147 -0.23821914
0.18004908 0.097548246 -0.24108905
0.1255182 0.11156787 -0.23698646
0.18096972 0.11196029 -0.23188925
0.12569225 0.12551594 -0.2344746
0.1663831 0.12499048 -0.24067962
0.12583812 0.13946517 -0.23236889
0.13897872 0.13870879 -0.24055672
0.15272683 0.13875258 -0.24008149
0.1672578 0.13957216 -0.23121083
0.12612689 0.1536531 -0.22820097
0.13934796 0.15289667 -0.23576003
0.15331906 0.153164 -0.2330879
0.13992028 0.1674428 -0.22832561
0.16858122 -0.17857677 -0.21688443
0.18261199 -0.1786959 -0.21547878
0.15455449 -0.16456246 -0.21849793
0.16790108 -0.16411991 -0.22424716
0.1818364 -0.16419834 -0.22322881
0.19621922 -0.16458508 -0.2182039
0.21066219 -0.1649605 -0.21332812
0.15410088 -0.15031371 -0.22385508
0.19533445 -0.15013643 -0.22641355
0.14102149 -0.13708295 -0.21402019
0.14064644 -0.12290819 -0.21889228
0.14038917 -0.10887919 -0.22223443
0.1400822 -0.094876826 -0.22622216
0.12722813 -0.081487097 -0.21230578
0.12698555 -0.067480892 -0.21580732
0.12672821 -0.053525299 -0.21952158
0.12635729 -0.032706261 -0.22487539
0.21018453 -0.025785679 -0.21746457
0.11321539 0.0020432565 -0.21372497
0.11308715 0.015909486 -0.21580732
0.11294265 0.029735617 -0.21815348
0.11286564 0.043567825 -0.21940416
0.11285892 0.057433527 -0.21951318
0.11279802 0.071250007 -0.22050208
0.1128171 0.085131437 -0.22019207
0.19605102 0.085157767 -0.21976465
0.1127841 0.098958924 -0.22072834
0.11273718 0.11276081 -0.22149014
0.11283775 0.1267537 -0.21985692
0.1825151 0.12704249 -0.216447
0.11290749 0.14072558 -0.21872449
0.11310582 0.15492378 -0.21550405
0.16859987 0.15480582 -0.21668255
0.12649971 0.16803604 -0.22281951
0.15412985 0.16796145 -0.22351283
0.12697679 0.1826756 -0.21593344
0.14070784 0.18242608 -0.21809471
0.15602665 -0.19392389 -0.20111233
0.16944419 -0.19332981 -0.20754272
0.1833943 -0.19331892 -0.20766169
0.19802064 -0.19388902 -0.20148903
0.21234781 -0.19414394 -0.19873005
0.15533696 -0.17922276 -0.2092576
0.19698979 -0.17907052 -0.21105385
0.21138519 -0.17940821 -0.20706666
0.1419335 -0.16581924 -0.20217305
0.14140902 -0.15134388 -0.20898598
0.12797458 -0.12384368 -0.20153165
0.12776041 -0.10969269 -0.20462298
0.12754224 -0.095586851 -0.20777208
0.11409023 -0.067857064 -0.19951928
0.2120668 -0.067819066 -0.20116383
0.11388996 -0.053783115 -0.20277125
0.21156599 -0.053741187 -0.20550078
0.11357927 -0.032773782 -0.20781618
0.21092381 -0.039720699 -0.21106231
0.11332308 -0.011857782 -0.21197611
0.10009187 0.016296625 -0.19904757
0.099959843 0.030248545 -0.2014975
0.099923439 0.044231039 -0.20217305
0.099822216 0.058147665 -0.20405179
0.099758357 0.07207264 -0.20523673
0.099792801 0.086091861 -0.20459759
0.099767998 0.10004465 -0.20505774
0.09976203 0.11401723 -0.20516849
0.099824503 0.12809576 -0.20400912
0.099982895 0.14235651 -0.20106953
0.10010852 0.15660159 -0.19873857
0.11336371 0.16927582 -0.21131629
0.11367992 0.18380168 -0.20618188
0.15586811 0.18417092 -0.20298475
0.11400213 0.1984186 -0.20094979
0.12755637 0.1976034 -0.20756805
0.1419493 0.19829325 -0.2019679
0.17150393 -0.22365698 -0.18524516
0.15686385 -0.20892489 -0.19122553
0.17043042 -0.2083604 -0.19686621
0.18446173 -0.20834741 -0.19699526
0.19892091 -0.20873363 -0.19313562
0.21389385 -0.20951377 -0.18534094
0.14308996 -0.19521369 -0.18715024
0.14243077 -0.18036959 -0.19571328
0.12908486 -0.16710219 -0.18550646
0.1287234 -0.15260902 -0.19072372
0.12832761 -0.13816576 -0.19643617
0.11507611 -0.12481485 -0.18351054
0.11485142 -0.11049929 -0.187159
0.21372208 -0.11051445 -0.18682873
0.11456797 -0.096203119 -0.19176179
0.21334329 -0.096266747 -0.19010884
0.11431772 -0.081994608 -0.19582528
0.21287824 -0.082046583 -0.1941365
0.10080887 -0.054045387 -0.18574136
0.1006075 -0.032843422 -0.1894787
0.19983239 -0.032859996 -0.18467808
0.10037278 -0.011718239 -0.19383454
0.19954628 -0.011668055 -0.18733281
0.10022655 0.0023075808 -0.19654793
0.19940686 0.002429653 -0.18862641
0.086798601 0.01666363 -0.18315291
0.19914351 0.016480718 -0.19106978
0.086719252 0.030760422 -0.1848706
0.19867927 0.030437004 -0.19537753
0.086656936 0.044845115 -0.18622005
0.19849752 0.044427749 -0.19706398
0.086642064 0.058956359 -0.18654186
0.086612366 0.073045418 -0.18718505
0.086603127 0.087151781 -0.18738478
0.086582676 0.1012383 -0.18782794
0.086603932 0.11538754 -0.18736756
0.086710811 0.12970079 -0.18505359
0.086767167 0.1439486 -0.1838333
0.10024463 0.17090365 -0.19621259
0.1711347 0.17165478 -0.18924212
0.10041556 0.1853191 -0.19304049
0.10069738 0.20003687 -0.18781048
0.11463723 0.21378089 -0.19063705
0.12867063 0.21366991 -0.19148499
0.17279513 -0.23940466 -0.17126751
0.18724456 -0.2396448 -0.16918755
0.14449729 -0.22542198 -0.16886842
0.15777613 -0.22417352 -0.18045199
0.18588455 -0.22392297 -0.1827774
0.20018692 -0.22407261 -0.18138814
0.21583074 -0.22545449 -0.16856682
0.14378236 -0.21023275 -0.17815578
0.13007563 -0.19668655 -0.17120564
0.12961176 -0.1818779 -0.17790103
0.1157501 -0.15386701 -0.17256629
0.21577035 -0.15410788 -0.16908991
0.11534215 -0.13922794 -0.17919052
0.21512862 -0.13950768 -0.17464745
0.2144594 -0.12498008 -0.18044311
0.10169853 -0.11132734 -0.16923165
0.10140906 -0.096863538 -0.17460346
0.10119023 -0.082523078 -0.17866433
0.2013091 -0.082759753 -0.17097557
0.10097471 -0.06824626 -0.18266398
0.20080332 -0.068407811 -0.17566884
0.20042378 -0.054146148 -0.17919052
0.087256677 -0.032905813 -0.17323506
0.087078489 -0.011589221 -0.17709315
0.086961381 0.0025680605 -0.17962861
0.073165558 0.04547989 -0.1697278
0.073166244 0.059733782 -0.16971016
0.073161475 0.073980421 -0.16983402
0.073158406 0.088227808 -0.16991377
0.073189773 0.10253595 -0.16909873
0.073213995 0.11684233 -0.16846943
0.08687567 0.15832829 -0.18148422
0.087010369 0.17280519 -0.17856789
0.087145902 0.18732917 -0.17563355
0.087396592 0.20220523 -0.17020595
0.15879531 0.20242575 -0.16841626
0.10113119 0.21520436 -0.1797601
0.1438946 0.21560512 -0.17669761
0.11566047 0.23017536 -0.17402196
0.17428547 -0.25563303 -0.15513396
0.18872027 -0.25571832 -0.15444124
0.1455061 -0.24119486 -0.15576386
0.1590247 -0.24004672 -0.16570735
0.20217545 -0.24036646 -0.16293705
0.13069797 -0.21182719 -0.16222322
0.11651808 -0.18338557 -0.16009581
0.11612487 -0.16856676 -0.16648078
0.10244316 -0.15505545 -0.15541303
0.10217588 -0.14038678 -0.16037321
0.10194886 -0.12583449 -0.16458607
0.088049114 -0.097576633 -0.15607822
0.087882571 -0.083107412 -0.15968418
0.087608069 -0.068639725 -0.16562736
0.087532535 -0.054329846 -0.16726255
0.07377509 -0.040160686 -0.15389192
0.07360132 -0.018620845 -0.1584065
0.073397763 0.002813343 -0.16369498
0.073309354 0.017059986 -0.16599214
0.073253952 0.031297497 -0.16743124
0.073278569 0.13124713 -0.16679192
0.0733364 0.14566165 -0.16528916
0.073407367 0.16013354 -0.16344547
0.073531128 0.17478155 -0.16023004
0.073688507 0.18957986 -0.15614116
0.087671384 0.21723323 -0.16425645
0.088137619 0.23292713 -0.15416217
0.10179411 0.23108478 -0.16745794
0.13048369 0.23138173 -0.16531587
0.17566511 -0.27195299 -0.14019895
0.14657842 -0.25727114 -0.14183366
0.16033779 -0.25624076 -0.15020025
0.2041062 -0.2568785 -0.14502203
0.13226882 -0.24306716 -0.13954973
0.13144639 -0.22730236 -0.15142035
0.11753943 -0.21369985 -0.14351106
0.11695842 -0.19837332 -0.15294564
0.10309235 -0.18480228 -0.14336538
0.10272747 -0.16982494 -0.15013707
0.08869905 -0.14151776 -0.14200699
0.088445276 -0.12675527 -0.14750135
0.088185489 -0.11207122 -0.15312588
0.07433451 -0.098220229 -0.13935769
0.074245527 -0.083662093 -0.14166951
0.074076608 -0.069091722 -0.14605808
0.073938765 -0.0546012 -0.14963937
0.059792724 -0.025785724 -0.14113998
0.059689436 -0.011338306 -0.14449453
0.059611365 0.0030700229 -0.14702964
0.059548572 0.017450705 -0.14906919
0.059511513 0.03182593 -0.15027261
0.059502605 0.046217572 -0.15056205
0.059475891 0.060578164 -0.15142941
0.059480339 0.074979991 -0.15128493
0.059483953 0.089382246 -0.15116739
0.05946004 0.10372445 -0.15194416
0.05948646 0.11818047 -0.15108621
0.059531845 0.13270192 -0.14961219
0.059595168 0.14729981 -0.14755583
0.059670109 0.16196711 -0.14512205
0.059759278 0.17672184 -0.14222586
0.073865697 0.20450456 -0.15153801
0.074133642 0.21980877 -0.14457631
0.14787683 -0.27394637 -0.1249671
0.16167384 -0.27270892 -0.13442254
0.19035527 -0.27222729 -0.13810337
0.13309853 -0.25902757 -0.12757361
0.1181082 -0.2291501 -0.13427544
0.10360052 -0.20012948 -0.13393509
0.089252017 -0.17137238 -0.1300348
0.088968292 -0.15638818 -0.13617766
0.074907005 -0.14259693 -0.12448382
0.074710779 -0.1277208 -0.12958181
0.074529059 -0.11294053 -0.13430321
0.060268987 -0.084154665 -0.12567282
0.060119603 -0.069450483 -0.13052428
0.060046043 -0.054858714 -0.13291323
0.045696687 -0.025785767 -0.12480903
0.059907395 -0.040287517 -0.13741601
0.04563348 -0.011207847 -0.12754595
0.045570031 0.0033276659 -0.13029337
0.045539971 0.017854355 -0.13159502
0.045485929 0.032328982 -0.13393521
0.045464262 0.046821345 -0.13487315
0.045450471 0.061315235 -0.13547039
0.045460023 0.075854331 -0.13505697
0.045455776 0.09036307 -0.13524091
0.045480829 0.10495684 -0.13415587
0.045531236 0.11965181 -0.13197327
0.045551479 0.13426977 -0.13109672
0.045599915 0.14901392 -0.12899935
0.045686387 0.16395545 -0.12525499
0.05991134 0.1917569 -0.13728774
0.060097147 0.20700298 -0.1312536
0.074557044 0.2357796 -0.13357627
0.089048505 0.25018466 -0.13444114
0.10334926 0.24957646 -0.13859808
0.118149 0.25030568 -0.13361299
0.16360091 -0.29038718 -0.11166489
0.17788428 -0.28976214 -0.11617577
0.20713721 -0.27500239 -0.11689746
0.11174186 -0.2381622 -0.11845565
0.097062439 -0.20880879 -0.11902177
0.0825013 -0.17968209 -0.1170001
0.07514783 -0.15763171 -0.11822712
0.060687847 -0.12866445 -0.11206996
0.060540929 -0.11374709 -0.11684144
0.053218853 -0.091772959 -0.11578119
0.045940273 -0.069825955 -0.11426127
0.045859497 -0.055092029 -0.11775911
0.045772988 -0.040409982 -0.12150514
0.031322505 -0.011074505 -0.11021328
0.031283341 0.003597755 -0.11275709
0.031250637 0.018240228 -0.11488116
0.031218294 0.032850947 -0.11698198
0.031207768 0.0621376 -0.11766553
0.031212384 0.047495302 -0.11736584
0.031214545 0.076815322 -0.11722553
0.031219879 0.091493905 -0.11687887
0.031231279 0.10620517 -0.11613846
0.031261481 0.12102173 -0.11417675
0.031272624 0.13576378 -0.11345315
0.031327009 0.15077649 -0.10992062
0.045788925 0.17902939 -0.12081492
0.045886967 0.1941492 -0.11656976
0.060326781 0.22252813 -0.12379575
0.060657423 0.23862274 -0.11305809
0.075183131 0.2526902 -0.11730981
0.149675 -0.29178071 -0.10160816
0.1942469 -0.29211217 -0.099215627
0.13439026 -0.27604517 -0.10892916
0.1198521 -0.26168987 -0.10595834
0.10538047 -0.2475296 -0.10090327
0.09051621 -0.21778756 -0.10266423
0.075736597 -0.18822622 -0.10293043
0.061090417 -0.15896411 -0.098996162
0.060880709 -0.14374714 -0.10580659
0.04626637 -0.11451857 -0.10014093
0.046172552 -0.099573299 -0.10420346
0.031508584 -0.070198596 -0.098127246
0.031461146 -0.055346742 -0.10120833
0.03142995 -0.040550664 -0.10323453
0.031383347 -0.025785679 -0.10626137
0.016708037 0.0038303696 -0.097639918
0.016694216 0.01859697 -0.09943521
0.016682107 0.033342689 -0.10100806
0.016681153 0.048120078 -0.10113204
0.016682914 0.062911928 -0.10090339
0.016681667 0.077686116 -0.10106528
0.016686287 0.092504695 -0.10046506
0.016697375 0.10739075 -0.099024773
0.016709656 0.12231095 -0.097429395
0.031391956 0.16591211 -0.10570228
0.031468038 0.18119049 -0.10076046
0.046065379 0.20976305 -0.10884416
0.046238646 0.22546662 -0.10134149
0.061123352 0.25552538 -0.097926497
0.13592903 -0.29384387 -0.086719036
0.1209893 -0.27885047 -0.087492228
0.10634158 -0.26450935 -0.083067417
0.090997554 -0.23368001 -0.092242956
0.076590881 -0.219982 -0.080735564
0.076068126 -0.2037892 -0.094317079
0.061627548 -0.19003643 -0.081552505
0.061335679 -0.17437488 -0.091031194
0.046541758 -0.1448305 -0.088216424
0.046409067 -0.12964016 -0.093962073
0.031743731 -0.11531687 -0.082854033
0.03167098 -0.10021314 -0.087579012
0.031592369 -0.085170381 -0.092685103
0.016831353 -0.070579752 -0.081620336
0.016804842 -0.055595431 -0.085064411
0.016778572 -0.040664263 -0.088477015
0.016756169 -0.025785679 -0.091387033
0.0018999876 -0.010847524 -0.080735564
0.016728889 -0.010956756 -0.094930887
0.0018999876 0.0040556919 -0.083009124
0.0018999876 0.018947203 -0.08427
0.0018999876 0.033808097 -0.085896969
0.0018999876 0.048700612 -0.086051822
0.0018999876 0.063631207 -0.085325956
0.0018999876 0.078583732 -0.084405661
0.0018999876 0.093598202 -0.08270812
0.0018999876 0.10856627 -0.082057714
0.01673081 0.13735335 -0.094681501
0.016759874 0.15253291 -0.090905905
0.016791137 0.16779919 -0.086844802
0.01682283 0.18313409 -0.082727551
0.031559419 0.19665997 -0.094825268
0.031663395 0.21232156 -0.088071465
0.031781286 0.22820537 -0.080414534
0.04644322 0.24147372 -0.092483163
0.091636114 -0.250126 -0.07841754
0.077035323 -0.23616469 -0.069188476
0.061872464 -0.20570312 -0.073598504
0.046941664 -0.17592466 -0.070899844
0.046731826 -0.16028124 -0.079986215
0.031928983 -0.14590177 -0.070821285
0.031851865 -0.13061723 -0.075830221
0.016952103 -0.11609831 -0.065934777
0.01690579 -0.10081477 -0.071950793
0.016871938 -0.085673571 -0.076348186
0.0018999876 -0.070868537 -0.069119692
-0.013125715 -0.055837177 -0.069365621
0.0018999876 -0.055761442 -0.074274421
-0.02813915 -0.040805332 -0.070162416
-0.0130874 -0.040773101 -0.074342966
0.0018999876 -0.040748119 -0.077578783
-0.028138846 -0.025785679 -0.070182204
-0.013077533 -0.025785767 -0.075624824
0.0018999876 -0.025785679 -0.079557776
-0.013095243 -0.010790527 -0.073323846
-0.013106798 0.0042279474 -0.071823239
-0.013110199 0.019244809 -0.071381211
-0.013117157 0.034282938 -0.070477247
-0.013115722 0.049292896 -0.070664048
-0.013125487 0.06436719 -0.069395304
-0.01312799 0.079410121 -0.069070458
-0.013145515 0.094578356 -0.06679368
0.0018999876 0.12362823 -0.08031714
0.0018999876 0.1387735 -0.077910542
0.0018999876 0.15403853 -0.074607253
0.0018999876 0.16953364 -0.069513321
0.016874949 0.19883867 -0.075957298
0.016941467 0.21487798 -0.067316413
0.031938218 0.24455826 -0.070221543
0.046830967 0.25877711 -0.07569313
0.076953948 0.27443027 -0.071302772
0.15246904 -0.31186691 -0.065312266
0.12249355 -0.29712114 -0.063066363
0.10733189 -0.28183451 -0.064689398
0.092537731 -0.26748627 -0.058897018
0.077663034 -0.25307482 -0.052880049
0.062256917 -0.22194576 -0.061112761
0.047126696 -0.19161692 -0.062888026
0.03207754 -0.1615846 -0.061172485
0.017061075 -0.14707442 -0.051778316
0.017005667 -0.13152541 -0.05897665
0.0018999876 -0.10140985 -0.056486726
0.0018999876 -0.086074859 -0.063313842
-0.01320171 -0.071090885 -0.059493542
-0.028303714 -0.055989385 -0.059473872
-0.043490443 -0.040915877 -0.055798411
-0.043469254 -0.025785679 -0.056715846
-0.02823819 -0.010716543 -0.063729763
-0.028334051 0.0044482909 -0.057503223
-0.028376598 0.01962924 -0.054739952
-0.028388752 0.034791756 -0.053950429
-0.02839645 0.049955364 -0.053450346
-0.02840138 0.065118447 -0.053130269
-0.028410781 0.080302015 -0.052519679
-0.028424507 0.095512316 -0.051627994
-0.013155703 0.10971554 -0.065470338
-0.01317177 0.12493186 -0.063382983
-0.013191996 0.14022611 -0.060755491
-0.013214809 0.15559186 -0.057792068
-0.013249771 0.17116112 -0.053250313
0.0018999876 0.18503228 -0.065114498
0.0018999876 0.20087998 -0.058279991
0.017001074 0.23093279 -0.059573174
0.13848878 -0.31413975 -0.049772263
0.10876597 -0.3005839 -0.038076282
0.093483925 -0.28527349 -0.038411498
0.062749609 -0.2387594 -0.045112491
0.047408726 -0.20782062 -0.050675631
0.032390326 -0.19348244 -0.040856242
0.032236986 -0.17747074 -0.05081594
0.017138921 -0.16293609 -0.041666508
0.0018999876 -0.13256192 -0.039741039
0.0018999876 -0.11689399 -0.048707366
-0.013348692 -0.10202913 -0.040400267
-0.013269669 -0.086464226 -0.050665498
-0.028502161 -0.071388885 -0.046584368
-0.043840434 -0.056279302 -0.040643454
-0.059151903 -0.025785679 -0.038543463
-0.04370277 -0.010584772 -0.046604395
-0.043859866 0.0047208257 -0.039801955
-0.043937527 0.0200518 -0.03643918
-0.043919906 0.035307478 -0.037202001
-0.043900188 0.050547954 -0.038056016
-0.043881893 0.065778077 -0.038848042
-0.0439023 0.081086338 -0.037964582
-0.043934941 0.096440822 -0.036551118
-0.028463438 0.11084975 -0.049099326
-0.028484955 0.12613901 -0.047701716
-0.028519541 0.14152174 -0.045455217
-0.028565256 0.15700567 -0.042485952
-0.028633306 0.17268077 -0.038066149
-0.013288148 0.18684818 -0.04826498
-0.013328353 0.20263945 -0.043042183
0.0018999876 0.21701051 -0.05000329
0.0018999876 0.23352937 -0.039731145
0.017098812 0.24779309 -0.046876311
0.032299191 0.26300669 -0.046775579
0.12481084 -0.31769899 -0.025438309
0.078389972 -0.27055365 -0.033993602
0.063245974 -0.25583321 -0.028992295
0.047742911 -0.2244384 -0.036204934
0.032551214 -0.20969307 -0.030406356
0.017286373 -0.19503596 -0.022511601
0.01721237 -0.17890945 -0.032124877
0.0018999876 -0.16427964 -0.022274256
0.0018999876 -0.14826138 -0.032503128
-0.013480998 -0.13345259 -0.023213267
-0.013412552 -0.11766094 -0.032104492
-0.028859919 -0.10268548 -0.023347259
-0.028708892 -0.08700344 -0.033156753
-0.044175666 -0.071861282 -0.026127458
-0.059250563 -0.041073326 -0.035339594
-0.059644282 -0.010399718 -0.022552848
-0.059651274 0.066541135 -0.022325873
-0.043975163 0.11183979 -0.03480947
-0.044006024 0.12723425 -0.033473134
-0.044061247 0.1427388 -0.031081796
-0.044174239 0.15851125 -0.026189208
-0.044267509 0.17427334 -0.022150397
-0.028715653 0.18852392 -0.032717586
-0.0288225 0.20463301 -0.025777698
-0.013404295 0.21908274 -0.033177018
-0.013488384 0.2358167 -0.022253633
0.0018999876 0.25071374 -0.025798321
0.017258776 0.26603135 -0.026096702
0.079282202 -0.28888527 -0.01081264
0.063916564 -0.27385202 -0.0072143078
0.048100416 -0.24138771 -0.020724535
0.032798797 -0.22662786 -0.01432538
0.017385118 -0.21160734 -0.0096844435
0.0018999876 -0.1802557 -0.014637232
-0.013548296 -0.14937197 -0.014470935
-0.029006993 -0.11850663 -0.013794541
-0.044379126 -0.08749117 -0.017317533
-0.05996402 -0.056717671 -0.012169123
-0.059735619 0.0050321892 -0.019586802
-0.05976687 0.020464491 -0.018571973
-0.059704717 0.035819046 -0.020590186
-0.075615488 0.051729854 -0.0073506832
-0.059709497 0.051226195 -0.020434976
-0.075614691 0.082734838 -0.0073715448
-0.059674807 0.0819702 -0.021561742
-0.059681807 0.097377956 -0.02133441
-0.059733387 0.11288944 -0.019659281
-0.059759211 0.12836227 -0.018820643
-0.059853766 0.14403696 -0.015749574
-0.059945408 0.15975054 -0.012773871
-0.060070485 0.17561838 -0.0087116957
-0.044377208 0.19017459 -0.017400265
-0.044521872 0.20632356 -0.011136293
-0.028956909 0.22106946 -0.017047644
-0.029104752 0.23775454 -0.0074447393
-0.013577422 0.25280768 -0.01068747
0.094995566 -0.30507246 -0.0056833029
0.048482701 -0.25869933 -0.0041708946
0.033033654 -0.24372144 0.0009291172
0.017495578 -0.22852844 0.0046650171
0.0018999876 -0.19668254 -0.0030665398
-0.013686141 -0.18164694 0.0034356117
-0.013607868 -0.16535646 -0.0067322254
-0.029232536 -0.1503157 0.00085508823
-0.029115723 -0.13434069 -0.0067322254
-0.044807091 -0.1191998 0.0012142658
-0.044648528 -0.10336655 -0.0056518316
-0.060451049 -0.088136733 0.0036475658
-0.06021386 -0.072371103 -0.0040552616
-0.076087765 -0.041383207 0.0049194098
-0.075939871 -0.025785679 0.0010769367
-0.07581684 -0.010242401 -0.0021191835
-0.075832658 0.0053073 -0.0017082691
-0.075763777 0.020812541 -0.0034980774
-0.075656645 0.036259603 -0.0062812567
-0.091801547 0.067915738 0.0074361563
-0.075661488 0.067287982 -0.0061553717
-0.091789767 0.083519027 0.00718081
-0.075672396 0.098330036 -0.0058721304
-0.07571321 0.11391813 -0.004811883
-0.075737067 0.12948844 -0.0041918755
-0.075832658 0.14522626 -0.0017085075
-0.075967118 0.16109535 0.0017849207
-0.07610736 0.17703329 0.0054284334
-0.06020933 0.19159697 -0.0042023659
-0.060423665 0.20792803 0.0027581453
-0.044701431 0.22275512 -0.0033613443
-0.044864271 0.23921169 0.0036900043
-0.029311938 0.25512165 0.0060124397
0.0018999876 0.26900622 -0.0057566166
0.064701416 -0.29269177 0.018274426
0.048893105 -0.27641571 0.013599873
0.033274084 -0.26109141 0.016545773
0.01762047 -0.24587247 0.020888925
0.0018999876 -0.23027608 0.022128582
0.0018999876 -0.21323097 0.0078932047
-0.013766445 -0.19811641 0.013867497
-0.02950519 -0.18281163 0.018564463
-0.029355317 -0.16643454 0.0088298321
-0.045163639 -0.15128872 0.016652942
-0.044967487 -0.13514315 0.0081592798
-0.06091103 -0.12000225 0.01858592
-0.060681835 -0.104013 0.011142612
-0.076718599 -0.088680536 0.021309018
-0.076522872 -0.072839439 0.016223907
-0.07631252 -0.057070747 0.010758638
-0.092434354 -0.025785636 0.021136761
-0.092268407 -0.010090932 0.017543912
-0.092100583 0.0055478215 0.013910294
-0.091952547 0.021140672 0.010705113
-0.10818695 0.037121098 0.021697283
-0.091928415 0.036766548 0.010182858
-0.1081492 0.052820828 0.020996571
-0.091872312 0.052357871 0.0089682341
-0.10813585 0.068530768 0.020748734
-0.10812075 0.084234998 0.02046895
-0.10817707 0.10001674 0.021513939
-0.09181235 0.099164069 0.0076700449
-0.09186691 0.11486457 0.0088510513
-0.091911182 0.13056627 0.0098096132
-0.092050195 0.14645627 0.012819409
-0.092161402 0.16233718 0.015227199
-0.092276342 0.17826305 0.017715573
-0.076296918 0.19316562 0.010353446
-0.092482656 0.19444038 0.022182345
-0.076497704 0.20940736 0.015570045
-0.076699935 0.2257341 0.020824432
-0.060636848 0.22436158 0.0096818209
-0.060873985 0.24100374 0.01738286
-0.04517008 0.25663486 0.016931891
-0.013752043 0.27160287 0.011996746
0.080747403 -0.30963632 0.027254105
0.033575397 -0.27918896 0.036116481
0.0018999876 -0.24745229 0.035548091
-0.013848076 -0.21476249 0.024471998
-0.029686116 -0.19950931 0.030315757
-0.045552343 -0.18396011 0.033484697
-0.045354445 -0.16754897 0.024915218
-0.061371133 -0.15232784 0.033528209
-0.061108589 -0.13605081 0.025001764
-0.077162065 -0.12066008 0.032830358
-0.076935329 -0.1046211 0.02693975
-0.092983529 -0.073227495 0.033026695
-0.092716411 -0.057324458 0.027243137
-0.092568435 -0.041530479 0.024039507
-0.10886622 -0.025785767 0.03430295
-0.10871116 -0.0099841468 0.031425476
-0.10853432 0.0057668984 0.028143525
-0.10829803 0.021442033 0.023758531
-0.10826136 0.11585021 0.023078203
-0.10824683 0.13156691 0.022808313
-0.1083155 0.14740999 0.024082661
-0.10849808 0.16346829 0.027470946
-0.10863849 0.1795 0.030076504
-0.10885799 0.19573024 0.034150124
-0.092721909 0.21076912 0.027362704
-0.093062647 0.22744806 0.034739733
-0.077065259 0.24269612 0.030315638
-0.061245441 0.25836873 0.029446244
-0.029649496 0.27393439 0.027937293
0.049570184 -0.29591668 0.042918324
0.017745692 -0.26347136 0.037155867
-0.029987607 -0.23305514 0.049898267
-0.013950691 -0.23184454 0.037801743
-0.029838003 -0.21621366 0.04018116
-0.045804042 -0.20070052 0.044383287
-0.061816901 -0.18507786 0.048004866
-0.061583094 -0.16862264 0.040411711
-0.077755071 -0.15323375 0.048237324
-0.077462316 -0.13689291 0.040631413
-0.093770988 -0.12145668 0.050075531
-0.093439892 -0.10523556 0.042907238
-0.093224324 -0.089201897 0.038239956
-0.10962126 -0.073580563 0.04831481
-0.10928897 -0.057553969 0.042148113
-0.10904001 -0.041634295 0.037527919
-0.12560877 -0.025785811 0.049222589
-0.1254113 -0.0098717697 0.046015978
-0.12526937 0.006006632 0.043711066
-0.12510811 0.021842364 0.041092753
-0.1249655 0.037647042 0.038776875
-0.12523952 0.05367652 0.0432266
-0.12498711 0.069379613 0.039127946
-0.12505469 0.085299671 0.040225029
-0.12543987 0.10155421 0.046479821
-0.12536643 0.11738911 0.045287609
-0.12573439 0.13375734 0.051262379
-0.10914572 0.21216948 0.039489746
-0.093583472 0.24475087 0.046015978
0.065900497 -0.313788 0.057215571
0.017914217 -0.28201336 0.059047699
0.0018999876 -0.26542339 0.054062128
-0.030227918 -0.25068098 0.065507054
-0.014058325 -0.24920201 0.0517838
-0.046290312 -0.23461038 0.065439463
-0.046039131 -0.21754217 0.054562926
-0.062120803 -0.20184293 0.057874322
-0.078306496 -0.18619871 0.062563896
-0.094500363 -0.17038622 0.065867186
-0.078048274 -0.16969265 0.055855155
-0.094223604 -0.15395047 0.059875131
-0.093967974 -0.13763168 0.054340482
-0.11019118 -0.10585082 0.058891177
-0.10991539 -0.089680225 0.053772926
-0.12588833 -0.041759253 0.05376184
-0.12649052 0.15075117 0.063540339
-0.10989322 0.22974153 0.053361416
0.034051292 -0.29907173 0.067026615
0.0018999876 -0.28417122 0.076566935
-0.0304594 -0.26848111 0.080542326
-0.014194159 -0.26719788 0.069428921
-0.046569362 -0.25197598 0.077522397
-0.062774546 -0.23597804 0.079105377
-0.079001561 -0.21994939 0.080622077
-0.062429696 -0.21877483 0.067905784
-0.078616835 -0.20292267 0.070626616
-0.095031351 -0.18733796 0.077363133
-0.11061805 -0.12222974 0.066812754
-0.12669483 -0.057934385 0.066857696
-0.14353248 -0.041944873 0.077875257
-0.14316827 -0.025785593 0.072618127
-0.14349307 -0.0096308999 0.077306271
0.01811534 -0.30144671 0.085174203
-0.014334446 -0.28553656 0.087653041
-0.046914473 -0.26985794 0.092466474
-0.063143343 -0.2534374 0.091082335
-0.079469003 -0.237345 0.092766523
-0.095546439 -0.20443751 0.088515043
-0.20985945 -0.025785679 0.094765782
-0.17701602 -0.025785679 0.091635823
-0.19339199 -0.025785636 0.092835903
-0.16045938 -0.025785636 0.087848306
0.0018999876 -0.30322972 0.098798871
-0.030760869 -0.28707254 0.10012329
-0.063609846 -0.27144751 0.10623252
-0.11272521 -0.14041097 0.10591686
-0.22703339 -0.042138092 0.10297525
-0.2101237 -0.042095203 0.097406387
-0.19416294 -0.042124249 0.10118163
-0.17767273 -0.042110488 0.099391103
-0.16107383 -0.042083062 0.095830441
-0.22687396 -0.025785679 0.10149586
-0.21100113 -0.0094086789 0.10617399
-0.1945561 -0.0094143115 0.10543764
-0.17784703 -0.00944506 0.10144937
-0.16106406 -0.0094892159 0.095703006
-0.014534283 -0.30516839 0.11361265
-0.047441464 -0.2889401 0.11528587
-0.080217473 -0.2557146 0.11221254
-0.2451905 -0.058731027 0.11860466
-0.24443883 -0.042208277 0.11209488
-0.26234534 -0.025785724 0.124143
-0.24444018 -0.025785679 0.11210668
-0.24481136 -0.0093382299 0.11532128
-0.2279225 -0.0093697626 0.11122513
0.018369317 0.35300893 0.11816704
0.03487546 0.35343236 0.12055826
0.051693249 0.33936483 0.13485003
0.051470712 0.3542566 0.12521374
0.068231158 0.35561854 0.1329062
-0.26427639 -0.04242181 0.13982117
0.068550132 0.34078994 0.14326501
0.085507654 0.34208807 0.15092921
0.085154474 0.35718477 0.1417532
0.10229398 0.35905787 0.15233183
0.085289598 0.37448451 0.14526391
-0.21708231 0.007903941 0.16694081
-0.19999102 0.0078627095 0.16427219
-0.2169252 0.024712369 0.16537094
-0.20015185 0.024727218 0.16601348
-0.21682762 0.041515034 0.16439581
-0.20006169 0.041534815 0.16503763
-0.2169079 0.058371197 0.16519821
-0.20006397 0.058366042 0.16506231
-0.21695486 0.075224131 0.16566753
-0.20003775 0.075183168 0.16477847
-0.21682018 0.09198679 0.16432178
-0.19995567 0.091963559 0.16388977
-0.21693385 0.10888125 0.16545761
-0.20008223 0.10886915 0.16525984
-0.2169017 0.12569252 0.16513646
-0.19998758 0.12562996 0.16423535
-0.21703279 0.14262415 0.16644621
-0.20014842 0.14258786 0.16597641
-0.2172198 0.15962327 0.16831446
-0.20035067 0.15961069 0.16816616
0.10263334 0.34356993 0.15967941
0.10254716 0.37680301 0.15781331
-0.20165049 -0.093635872 0.18223667
-0.21855906 -0.076660827 0.18169737
-0.20099793 -0.076510146 0.17517245
-0.184462 -0.076611683 0.17956805
-0.23568103 -0.05972578 0.18321538
-0.21776399 -0.059580166 0.17375278
-0.20049495 -0.059518103 0.16972744
-0.18432644 -0.059645068 0.17796779
-0.23471488 0.0080164485 0.17425072
-0.18381684 0.007980939 0.17194951
-0.23470148 0.02491463 0.17412627
-0.18401803 0.02491926 0.17432547
-0.23454325 0.041769531 0.17265809
-0.1840328 0.041826304 0.17449987
-0.23465453 0.058698107 0.17369056
-0.18394528 0.058689419 0.17346644
-0.23446153 0.075512126 0.17189968
-0.18383157 0.075522393 0.17212331
-0.23439193 0.092360303 0.17125392
-0.18378843 0.092379734 0.17161405
-0.23449099 0.10929486 0.17217326
-0.18382946 0.10929027 0.17209852
-0.23450038 0.12618592 0.17226028
-0.18387157 0.12620915 0.17259574
-0.23470013 0.1432143 0.17411387
-0.18385577 0.14308318 0.1724093
-0.2347659 0.16016598 0.1747241
-0.18395795 0.16007216 0.17361581
-0.23503204 0.17729887 0.1771934
-0.21727929 0.17653359 0.16890931
-0.20046629 0.17658068 0.16941738
-0.18410981 0.17713401 0.17540944
-0.21749157 0.19360578 0.1710304
-0.20059235 0.19358101 0.17078221
-0.23550121 0.19465828 0.18154705
-0.18424501 0.19420391 0.17700613
-0.2179198 0.21094339 0.17530978
-0.20084839 0.21075396 0.17355359
-0.18431906 0.21122032 0.17788029
-0.21841986 0.22842942 0.18030679
-0.20127575 0.22818397 0.1781801
-0.18446408 0.22834708 0.17959321
-0.065848745 0.34683228 0.1789428
0.1204879 0.34691921 0.17945552
0.12004059 0.36239046 0.17115462
0.12034649 0.3803165 0.17683136
-0.20305279 -0.16242081 0.1974169
-0.18580879 -0.16230118 0.19547307
-0.20261088 -0.14508373 0.19263339
-0.18552864 -0.14505848 0.19216502
-0.22001645 -0.12820865 0.19626045
-0.20211384 -0.12779264 0.18725276
-0.18528783 -0.12788816 0.18932092
-0.21959138 -0.11097474 0.19201303
-0.2017954 -0.11065884 0.18380558
-0.18512334 -0.11079636 0.18737876
-0.21902297 -0.093762055 0.1863333
-0.18489952 -0.093712837 0.18473542
-0.16883136 -0.094078213 0.19660354
-0.23674652 -0.076924272 0.19310212
-0.16867791 -0.076959126 0.19461024
-0.16873653 -0.059912972 0.19537163
-0.16848674 0.0082916468 0.19212699
-0.16852184 0.025340728 0.19258273
-0.16856961 0.042402212 0.19320309
-0.1687004 0.059514578 0.19490206
-0.16864766 0.076542914 0.19421721
-0.16855302 0.09353137 0.19298804
-0.16851793 0.11054865 0.19253206
-0.16847116 0.12754834 0.19192457
-0.16844293 0.1445571 0.19155777
-0.16834076 0.16147909 0.19023013
-0.16827559 0.17842497 0.18938422
-0.16837381 0.19557017 0.19065988
-0.23611341 0.21222766 0.18722737
-0.16850525 0.21278168 0.19236755
-0.16859888 0.22996248 0.19358337
-0.21951036 0.24671935 0.19120359
-0.20191616 0.24596916 0.18511283
-0.18490484 0.24593048 0.18479836
-0.16878441 0.2473094 0.19599378
-0.20281695 0.26423004 0.19486415
-0.18549971 0.26383203 0.19182324
0.104031 0.33167282 0.18993962
-0.066148877 0.36549526 0.18868995
0.13852264 0.36700439 0.19721365
0.036241241 -0.3691982 0.20926809
0.053288985 -0.36837894 0.20394695
0.070356473 -0.36806816 0.20192778
0.087502547 -0.36819589 0.20275795
0.10503963 -0.36958447 0.21177709
-0.18726903 -0.21495475 0.21271777
-0.17006986 -0.21495248 0.21269214
-0.20440429 -0.19770598 0.2120477
-0.1866217 -0.19716913 0.20507324
-0.1697588 -0.1974445 0.2086513
-0.20367253 -0.17996505 0.20412612
-0.18616956 -0.17966071 0.19973373
-0.1695573 -0.18009721 0.20603383
-0.2215074 -0.16326715 0.21115899
-0.16931005 -0.1627537 0.20282185
-0.22051845 -0.14554949 0.2012769
-0.16921961 -0.14556935 0.2016468
-0.16903311 -0.12834562 0.19922435
-0.1689596 -0.11121556 0.19826937
-0.23781471 -0.094275594 0.20301354
-0.28999561 -0.025785724 0.20922947
-0.15281215 0.19768748 0.21181583
-0.15283535 0.21491374 0.21215069
-0.15285055 0.23213179 0.21236992
-0.15286037 0.24934371 0.21251154
-0.22111125 0.26584437 0.20720077
-0.16903508 0.26480404 0.19924963
-0.18697798 0.28328732 0.20928085
-0.16984487 0.28335503 0.20976949
0.122021 0.33457723 0.20790648
-0.083840989 0.35147464 0.2063545
0.13891998 0.35101923 0.20366549
-0.083837047 0.36860466 0.20625186
0.13942587 0.38679188 0.21188033
0.019175634 -0.37129861 0.2229104
0.12263562 -0.37074453 0.21931231
0.10534456 -0.35336012 0.21837914
0.1226503 -0.35353652 0.21958458
-0.18804842 -0.23300217 0.22192204
-0.17060244 -0.23278868 0.21961069
-0.20530446 -0.21572305 0.2217921
-0.15364303 -0.21589382 0.22380853
-0.15346824 -0.19841702 0.22128522
-0.22232331 -0.18101723 0.21931255
-0.15341425 -0.18109995 0.22050607
-0.1533522 -0.16378763 0.21961069
-0.15343134 -0.14659888 0.22075284
-0.15358533 -0.12944262 0.22297537
-0.2390177 -0.11182776 0.2141757
-0.15367913 -0.11221848 0.22432935
-0.15386437 -0.095014364 0.22700298
-0.29068682 -0.0085747819 0.21451128
-0.25663367 0.0086853839 0.21770537
-0.2569091 0.025976162 0.22009075
-0.1537613 0.11257978 0.22551548
-0.15352675 0.12964104 0.22212994
-0.15328932 0.14664684 0.21870303
-0.15311083 0.16367212 0.21612656
-0.15297298 0.1807116 0.21413696
-0.1530526 0.2669026 0.21528649
-0.20461279 0.28398341 0.2143048
-0.15326507 0.28454435 0.21835315
0.1574322 0.37168545 0.22365236
0.14080413 -0.3730461 0.23426044
0.019225553 -0.35497144 0.22939515
-0.18909656 -0.25150883 0.23429978
-0.17144738 -0.25113732 0.23058653
-0.15444279 -0.25161409 0.23535168
-0.2064902 -0.23417602 0.23462856
-0.15396938 -0.23361152 0.22851872
-0.22415511 -0.19967422 0.23761654
-0.15399566 -0.077750921 0.22889805
-0.15402377 -0.060435418 0.22930348
-0.27517533 -0.0084684324 0.22830963
-0.27582252 0.008929573 0.23356414
-0.15410176 0.0088813528 0.23042941
-0.15431528 0.02628604 0.23351157
-0.15408541 0.043541137 0.23019373
-0.15417257 0.060921233 0.23145163
-0.15402919 0.078167111 0.22938192
-0.15402104 0.095486149 0.22926438
-0.1372003 0.21763979 0.23744535
-0.13714674 0.23492698 0.23657584
-0.13716297 0.25234017 0.23683929
-0.13705435 0.26949233 0.23507547
-0.13711187 0.286991 0.2360096
-0.18889755 0.30377379 0.23194969
-0.17145647 0.30359161 0.23070455
-0.15424615 0.30385625 0.23251402
0.1406263 0.33837089 0.23137283
0.15805615 0.3559292 0.23265815
0.15864022 0.3921881 0.24108851
0.0018999876 -0.37433568 0.24263668
0.159261 -0.37547684 0.25004888
0.0018999876 -0.35767287 0.2478652
-0.19088714 -0.27115113 0.2554456
-0.17249842 -0.26994348 0.24423993
-0.15505488 -0.26993775 0.24418688
-0.13816549 -0.27090031 0.25311804
-0.13781333 -0.25281993 0.24739993
-0.1376898 -0.23517044 0.24539399
-0.13767509 -0.21770146 0.24515522
-0.13772987 -0.20032302 0.24604452
-0.13785839 -0.18301386 0.24813128
-0.13811037 -0.16579606 0.25222313
-0.13776095 0.18370564 0.24654937
-0.13750613 0.20074926 0.24241149
-0.13761137 0.30555379 0.24412048
-0.10329003 0.35991099 0.25616884
-0.10328384 0.37741902 0.25603497
-0.13889427 -0.28977492 0.26495206
-0.17395885 -0.28957397 0.26321149
-0.15624788 -0.28936556 0.26140642
-0.12150708 -0.27259982 0.26888788
-0.20860884 -0.25383693 0.25756323
-0.12148955 -0.2549378 0.26856291
-0.12162181 -0.23753734 0.27101707
-0.13846569 -0.14860567 0.25799251
-0.13867094 -0.13121387 0.2613256
-0.13894585 -0.11381434 0.26578951
-0.13915668 -0.096314102 0.26921332
-0.12095397 0.27257395 0.25862348
-0.12099522 0.29023042 0.25938904
-0.12129062 0.30858865 0.26487112
0.17807801 0.36180583 0.26735795
0.17726001 0.37754241 0.25673187
0.17824171 0.39743444 0.26948428
0.1971503 -0.3630363 0.28453469
-0.015783364 -0.36176935 0.2758733
-0.015856918 -0.3454099 0.28542769
-0.12184457 -0.29095256 0.27515101
-0.12177853 -0.22013772 0.27392566
-0.12199008 -0.20277151 0.27785146
-0.12236502 -0.18555509 0.28480923
-0.13937068 -0.078762099 0.27268779
-0.10446081 0.29329666 0.28151679
-0.10460082 0.31146678 0.2845484
0.16088317 0.34517503 0.27346289
0.19693537 0.38201547 0.28199637
-0.14042152 -0.31042877 0.28975177
-0.12261053 -0.31038123 0.28936553
-0.10497961 -0.29298469 0.29274952
-0.10495406 -0.27511176 0.29219639
-0.10511587 -0.25765339 0.29569948
-0.10521525 -0.2400161 0.29785109
-0.12276755 -0.16826285 0.29227936
-0.14035359 0.32984811 0.28864849
-0.12270573 0.33023047 0.29113209
-0.10517228 0.3311218 0.29692066
-0.10469352 0.34729135 0.28655529
0.17983375 0.34787512 0.29016566
-0.1227668 0.36602408 0.29226553
0.19812979 0.36667395 0.29610181
0.19846515 0.40308374 0.3000623
-0.15909018 -0.3119905 0.30243111
-0.10554804 -0.31231385 0.30505657
-0.087591104 0.29638234 0.30378509
-0.087824993 0.31516922 0.30986166
0.2175464 0.38753653 0.31317914
-0.034221668 -0.35088047 0.32490849
-0.088510454 -0.31509912 0.32767034
-0.088072054 -0.29570183 0.31628048
-0.12416592 0.35241202 0.31823015
0.20022532 0.35283539 0.3208487
0.21827713 0.3709057 0.32108963
-0.12428108 0.38880923 0.32036674
-0.034342039 -0.37008491 0.33272684
-0.070790492 0.3194941 0.33943093
-0.088809326 0.33705154 0.33543551
0.2386132 0.39301464 0.34411907
0.21964875 0.40971178 0.33593774
-0.071362823 -0.31883696 0.3580178
-0.14381509 0.37493074 0.3448565
0.23981841 0.37684527 0.35616195
-0.053209707 0.3232424 0.36505806
-0.071659409 0.34201142 0.36764979
-0.14522064 0.36040601 0.36767948
0.25978282 0.39787886 0.37159264
0.24025756 0.41425896 0.3605504
-0.053680129 -0.35926646 0.38542807
-0.053494506 -0.33968776 0.37739015
0.24161154 0.36144069 0.3740803
0.28256458 -0.32516131 0.40936482
0.28321815 -0.30710387 0.415025
0.28430054 -0.34583959 0.42439878
-0.054610115 0.35094827 0.42569733
-0.035839017 0.35160428 0.42995834
-0.073848546 -0.34771699 0.43874395
0.30575725 -0.32964292 0.44575191
0.30532989 -0.31025124 0.4422822
-0.16881409 0.39151546 0.44278395
-0.017143765 0.35508919 0.45259416
0.30870777 -0.2942425 0.46970701
-0.17069384 0.37693319 0.46991551
0.021547306 0.36716056 0.53099966
0.041266002 0.36787447 0.53563559
-0.19517221 0.38806596 0.53878105
-0.21918383 0.39628336 0.58961391
-0.22173442 0.42148307 0.619735
-0.24857381 0.41254351 0.69019687
-0.27804708 0.42643651 0.77613735
-0.30701756 0.43759072 0.84513581
0 0 0 1 0 0 0 1 0 0 0 1 0 0 0 0 0 1124 1 0 0
