ply
format ascii 1.0
comment PCL generated
element vertex 1268
property float x
property float y
property float z
element camera 1
property float view_px
property float view_py
property float view_pz
property float x_axisx
property float x_axisy
property float x_axisz
property float y_axisx
property float y_axisy
property float y_axisz
property float z_axisx
property float z_axisy
property float z_axisz
property float focal
property float scalex
property float scaley
property float centerx
property float centery
property int viewportx
property int viewporty
property float k1
property float k2
end_header
-0.71912313 -0.26278713 -0.52153027
-0.6953249 -0.26295435 -0.52017319
-0.67164892 -0.26317385 -0.51839066
-0.65578723 -0.26330101 -0.51735818
-0.63988113 -0.26341766 -0.5164113
-0.62381697 -0.2634795 -0.51590872
-0.60728753 -0.26336285 -0.51685572
-0.59156132 -0.26356179 -0.51524138
-0.5753721 -0.26358071 -0.51508677
-0.55915785 -0.26359037 -0.51500916
-0.54292864 -0.26359394 -0.51498008
-0.52703166 -0.26374543 -0.51375043
-0.51113713 -0.2639066 -0.51244175
-0.49507031 -0.26399612 -0.5117141
-0.47889629 -0.26403925 -0.51136446
-0.46279821 -0.26412302 -0.51068461
-0.44673625 -0.26423076 -0.50980985
-0.71236819 -0.24702314 -0.51786458
-0.68851674 -0.24717648 -0.51653683
-0.67216051 -0.24713293 -0.51691377
-0.65623224 -0.24723335 -0.51604402
-0.63989717 -0.24719653 -0.51636314
-0.62372637 -0.24721667 -0.51618898
-0.60778785 -0.24732266 -0.51527059
-0.59166861 -0.24736618 -0.51489317
-0.57540405 -0.24735618 -0.5149802
-0.55934471 -0.24742663 -0.51437032
-0.54326785 -0.24749373 -0.5137893
-0.52740246 -0.24765261 -0.51241279
-0.51135933 -0.24774455 -0.51161695
-0.49517456 -0.24777932 -0.51131594
-0.47921219 -0.24791732 -0.51012087
-0.46282455 -0.2478645 -0.5105778
-0.62815189 -0.2814647 -0.50250101
-0.59585238 -0.2816211 -0.50130606
-0.57877445 -0.28130084 -0.50375366
-0.56236452 -0.28126231 -0.50404704
-0.54570311 -0.28110629 -0.50523925
-0.52936333 -0.28109369 -0.50533676
-0.5131014 -0.28111783 -0.50515139
-0.49741253 -0.28143007 -0.50276542
-0.48091415 -0.28134432 -0.50342119
-0.46458748 -0.28134432 -0.50342119
-0.44863227 -0.28154796 -0.50186443
-0.42424726 -0.28162056 -0.50131047
-0.39999035 -0.28177515 -0.50012898
-0.384249 -0.2821596 -0.49719059
-0.36803001 -0.28226152 -0.49641275
-0.35182002 -0.28237751 -0.49552608
-0.33562383 -0.28251299 -0.49449074
-0.31932798 -0.28258654 -0.49392831
-0.30291149 -0.28257367 -0.49402702
-0.28664339 -0.28267965 -0.49321735
-0.1553115 -0.28256202 -0.49411583
-0.13856371 -0.28206694 -0.49789882
-0.12217116 -0.282031 -0.49817419
-0.10597001 -0.28231299 -0.49601901
-0.43076432 -0.26439369 -0.50848663
-0.41466147 -0.26449567 -0.5076586
-0.39053836 -0.26468128 -0.50615203
-0.36603871 -0.26465544 -0.50636172
-0.34990185 -0.26476237 -0.50549304
-0.33397391 -0.2650176 -0.50342119
-0.31805646 -0.26530239 -0.50110972
-0.30176011 -0.26533744 -0.50082529
-0.28547052 -0.26538083 -0.50047231
-0.26938266 -0.26559007 -0.49877381
-0.25315821 -0.26570633 -0.49782991
-0.23680618 -0.26572198 -0.49770236
-0.22054365 -0.26582381 -0.49687552
-0.20431337 -0.26597056 -0.49568379
-0.18786338 -0.26590273 -0.49623561
-0.17119616 -0.26557666 -0.49888194
-0.15440084 -0.26504299 -0.50321567
-0.13777563 -0.26464692 -0.50643015
-0.12142336 -0.26457608 -0.50700545
-0.10526247 -0.26479724 -0.50521004
-0.089146048 -0.26514652 -0.50237381
-0.073212966 -0.26595002 -0.49585128
-0.44733331 -0.24824217 -0.50730765
-0.43128201 -0.24836481 -0.50624466
-0.40723416 -0.24858139 -0.50436962
-0.38309434 -0.24876899 -0.50274587
-0.36687613 -0.24883451 -0.50217807
-0.35077378 -0.24897486 -0.5009625
-0.33456406 -0.24905968 -0.50022709
-0.31835353 -0.24915147 -0.49943185
-0.30215418 -0.24925937 -0.49849844
-0.28596288 -0.24938311 -0.49742675
-0.26976281 -0.2495127 -0.49630451
-0.2535269 -0.24962763 -0.49530923
-0.23719922 -0.24967889 -0.49486542
-0.22066352 -0.24955243 -0.49595976
-0.20436797 -0.24963555 -0.49524033
-0.17148349 -0.24952291 -0.49621594
-0.15471072 -0.2490721 -0.50011909
-0.13823812 -0.24892157 -0.50142348
-0.12192175 -0.24895664 -0.50111961
-0.10563323 -0.24904048 -0.50039375
-0.089367554 -0.24918105 -0.4991765
-0.073120192 -0.24939105 -0.49735785
-0.7270928 -0.23273702 -0.49996197
-0.7101717 -0.23256788 -0.50153124
-0.69278723 -0.23225033 -0.50447714
-0.67585641 -0.23205991 -0.50624466
-0.65959769 -0.23207456 -0.50610816
-0.6431787 -0.2320379 -0.50644946
-0.62678385 -0.23200732 -0.50673246
-0.61110806 -0.23222089 -0.50475085
-0.59462613 -0.23216292 -0.50528812
-0.57848394 -0.23222406 -0.50472164
-0.56268787 -0.23241587 -0.50294161
-0.54685134 -0.23260276 -0.50120783
-0.53115487 -0.2328546 -0.49887192
-0.5152542 -0.23303892 -0.49716115
-0.49871197 -0.23296994 -0.49780059
-0.47496507 -0.23331977 -0.49455428
-0.13887852 -0.2333267 -0.49449074
-0.12246387 -0.23330225 -0.49471772
-0.10617808 -0.23345317 -0.49331629
-0.14024957 -0.3009651 -0.47964859
-0.27065533 -0.28303429 -0.49050736
-0.2543031 -0.28310031 -0.49000239
-0.23793629 -0.28316009 -0.48954642
-0.22174165 -0.28339887 -0.4877212
-0.20558301 -0.28370589 -0.48537552
-0.18919787 -0.28379706 -0.48467875
-0.17223325 -0.28319767 -0.489259
-0.089925647 -0.28295404 -0.49112117
-0.074202165 -0.28443694 -0.47978878
-0.057418238 -0.26729918 -0.48489773
-0.18826094 -0.24991825 -0.49279249
-0.057083946 -0.25011355 -0.49110126
-0.041300554 -0.25170884 -0.47728515
-0.45080426 -0.23351283 -0.49276292
-0.43448684 -0.23355547 -0.49236751
-0.41805521 -0.23354591 -0.49245644
-0.40173361 -0.23359057 -0.49204135
-0.38553518 -0.23370253 -0.49100268
-0.36935276 -0.23383172 -0.48980415
-0.35310054 -0.23393215 -0.48887229
-0.33715352 -0.23421894 -0.48621094
-0.32087225 -0.23432727 -0.48520625
-0.30467182 -0.23449689 -0.48363268
-0.28839591 -0.23463225 -0.48237622
-0.27205476 -0.23473552 -0.48141789
-0.25553095 -0.23471504 -0.48160779
-0.23908061 -0.23474967 -0.48128808
-0.22244895 -0.23463875 -0.48231626
-0.20595855 -0.23463754 -0.48232639
-0.18947408 -0.23464191 -0.48228633
-0.17229204 -0.23394924 -0.48871362
-0.15549831 -0.23356815 -0.49224901
-0.089827657 -0.23353745 -0.49253559
-0.073470756 -0.23363116 -0.49166548
-0.057171483 -0.23386703 -0.48947704
-0.041153055 -0.23483671 -0.48047876
-0.15649529 -0.21815263 -0.48228633
-0.13976194 -0.21788831 -0.48492765
-0.12319094 -0.21776779 -0.48613143
-0.10680772 -0.21786733 -0.48513663
-0.090371311 -0.21791218 -0.48468876
-0.073901027 -0.21791317 -0.48467863
-0.057515416 -0.21807171 -0.48309433
-0.041312132 -0.21867818 -0.47703457
-0.15723786 -0.30162767 -0.47486615
-0.12429728 -0.30187714 -0.47306621
-0.108 -0.30235073 -0.4696486
-0.091519028 -0.30256194 -0.46812284
-0.058437806 -0.28624451 -0.46597707
-0.041987378 -0.27006823 -0.46241498
-0.17423685 -0.21931539 -0.47066796
-0.14086415 -0.20252147 -0.47299552
-0.12410657 -0.20230685 -0.47531843
-0.10757203 -0.20231706 -0.47520781
-0.091052517 -0.20234954 -0.47485614
-0.074518919 -0.202369 -0.47464538
-0.058005381 -0.20242848 -0.47400177
-0.041657005 -0.20283808 -0.46956754
-0.12526117 -0.18691845 -0.4616828
-0.10841142 -0.18669651 -0.46430409
-0.09179835 -0.18671454 -0.46409082
-0.075185776 -0.18673773 -0.46381688
-0.058578286 -0.18677568 -0.46336997
-0.042071495 -0.18701071 -0.46059382
-0.12664017 -0.32248434 -0.44539773
-0.075571388 -0.30402631 -0.45755529
-0.025810469 -0.2380868 -0.45032239
-0.192305 -0.22060598 -0.45776975
-0.025563922 -0.22071026 -0.45672798
-0.025648173 -0.20422634 -0.45453894
-0.025916632 -0.18811403 -0.44756413
-0.10934462 -0.17100184 -0.45218122
-0.092547446 -0.17091745 -0.4532789
-0.075886548 -0.17098223 -0.45243776
-0.059198346 -0.17102642 -0.45186305
-0.042560164 -0.17116871 -0.45001388
-0.093307674 -0.15496492 -0.44230592
-0.076522619 -0.15497869 -0.44210899
-0.11033791 -0.32337955 -0.43927801
-0.093954667 -0.32430249 -0.43296731
-0.059947614 -0.30674186 -0.43795848
-0.043072339 -0.28978458 -0.43892515
-0.026402552 -0.25659847 -0.43493938
-0.026235562 -0.17199527 -0.43927801
-0.11088002 -0.15566267 -0.43223584
-0.059816096 -0.15509701 -0.44039905
-0.043081451 -0.15521288 -0.43872774
-0.026615355 -0.15585838 -0.4294107
-0.094206169 -0.13896646 -0.42933714
-0.077215016 -0.13887241 -0.430866
-0.060398627 -0.13895097 -0.42958868
-0.043646012 -0.13914089 -0.42650449
-0.14680439 -0.32785317 -0.40869069
-0.077735126 -0.32584494 -0.42242062
-0.027200941 -0.27600721 -0.41419673
-0.11210445 -0.13976744 -0.41632998
-0.026993316 -0.13956663 -0.41959107
-0.095088229 -0.12275545 -0.41660583
-0.077914581 -0.12259918 -0.41950643
-0.061069671 -0.12272681 -0.4171356
-0.044178192 -0.12284293 -0.41498268
-0.11296666 -0.3454572 -0.40512979
-0.096370921 -0.34654084 -0.39809179
-0.061793435 -0.32858256 -0.40370417
-0.044520605 -0.31095263 -0.40756929
-0.010827657 -0.17552656 -0.39340377
-0.010728475 -0.1581298 -0.39662504
-0.11309704 -0.12346509 -0.40343595
-0.027441647 -0.12322231 -0.40794301
-0.096047476 -0.10639991 -0.40276015
-0.078647763 -0.10617644 -0.40760112
-0.061780151 -0.106345 -0.40395081
-0.044820625 -0.10647792 -0.40107369
-0.027866069 -0.10666997 -0.39691627
-0.079475462 -0.089629397 -0.39416122
-0.062422026 -0.08971113 -0.39203894
-0.13163137 -0.34833258 -0.38645446
-0.079919875 -0.34825712 -0.38694465
-0.046049666 -0.33285922 -0.37446392
-0.028220136 -0.29648596 -0.38771749
-0.011308964 -0.21131769 -0.37777305
-0.011095677 -0.19343716 -0.3846997
-0.010918435 -0.14136085 -0.39045572
-0.011060085 -0.12441254 -0.3858552
-0.011330601 -0.1075865 -0.37707019
-0.096919522 -0.089782827 -0.39017344
-0.045406867 -0.089851908 -0.38838077
-0.02833965 -0.089996926 -0.3846122
-0.097827345 -0.072987907 -0.37707007
-0.080226302 -0.072837047 -0.38196909
-0.063137561 -0.072935872 -0.37876022
-0.046047125 -0.073066421 -0.37451899
-0.11592171 -0.36874628 -0.36674237
-0.098861456 -0.36948973 -0.36214387
-0.063624099 -0.35090727 -0.36973107
-0.029131275 -0.31698346 -0.36404538
-0.01166876 -0.24716492 -0.36608791
-0.011496041 -0.2292196 -0.37169731
-0.11565846 -0.090553083 -0.37016225
-0.011687208 -0.090732895 -0.36548901
-0.028818492 -0.073138669 -0.37217188
-0.098737404 -0.055991858 -0.36393428
-0.081069887 -0.055891719 -0.36827099
-0.063844934 -0.055952627 -0.36563337
-0.046664488 -0.056056246 -0.36115277
-0.029336605 -0.056112517 -0.35871065
-0.13548216 -0.37291124 -0.34097874
-0.08221221 -0.37149781 -0.34972179
-0.0475544 -0.35519445 -0.34188557
-0.012447167 -0.28504634 -0.34080875
-0.012101751 -0.26617259 -0.3520261
-0.012139816 -0.07379704 -0.35079026
-0.099697143 -0.038804699 -0.35008168
-0.081864521 -0.038723316 -0.35536766
-0.064641118 -0.0387927 -0.35085773
-0.04736321 -0.038867224 -0.34602499
-0.029930595 -0.038909428 -0.34327841
-0.10142422 -0.39316845 -0.32515383
-0.11896051 -0.39281052 -0.32726741
-0.065486491 -0.37385017 -0.33516991
-0.030195337 -0.3384265 -0.33640015
-0.012958605 -0.30479839 -0.3241992
-0.012526873 -0.056585733 -0.33822012
-0.10073029 -0.021412371 -0.33516967
-0.082803726 -0.021374352 -0.34011674
-0.065435529 -0.02140511 -0.33611524
-0.048004273 -0.021435667 -0.33214569
-0.030459482 -0.021455685 -0.32953727
-0.083813056 -0.0037905707 -0.32372737
-0.084503323 -0.39530826 -0.3125186
-0.012976322 -0.039212063 -0.32362378
-0.11959174 -0.021536261 -0.31906748
-0.013388488 -0.021604281 -0.31023812
-0.10175626 -0.0037905201 -0.32036114
-0.031027827 -0.0037905201 -0.31477118
-0.066228494 -0.0037903688 -0.32139993
-0.048655327 -0.0037904193 -0.31804979
-0.084709793 0.014031559 -0.30916619
-0.13950771 -0.39853942 -0.29343939
-0.067532375 -0.3979021 -0.29720271
-0.049189616 -0.37848791 -0.30648184
-0.031533014 -0.3613897 -0.30164647
-0.013771024 -0.32616052 -0.29781497
-0.013954919 -0.0037903688 -0.29184294
-0.102901 0.014072703 -0.30383825
-0.06702733 0.014051627 -0.30657554
-0.049478587 0.014100386 -0.30022562
-0.031709943 0.014124891 -0.2970494
-0.085752577 0.032114424 -0.29223347
-0.12239251 -0.41838685 -0.28268433
-0.10404086 -0.41755441 -0.28738546
-0.086711019 -0.41945162 -0.27667046
-0.014493417 0.014299504 -0.27435446
-0.10399644 0.032179117 -0.28802657
-0.068028122 0.03217952 -0.28800321
-0.050278876 0.032257978 -0.28289902
-0.032381903 0.032308854 -0.27959144
-0.086860284 0.050482176 -0.27424657
-0.069408864 -0.42198187 -0.26237953
-0.050750691 -0.40205452 -0.27268398
-0.032702435 -0.38418117 -0.27126396
-0.014661711 -0.34830087 -0.26888931
-0.10514195 0.050545711 -0.27149272
-0.068957388 0.050562754 -0.27075803
-0.051125277 0.050705601 -0.26457369
-0.03316411 0.050828129 -0.25926948
-0.087943882 0.069114804 -0.25665092
-0.10664377 -0.44248536 -0.2498157
-0.015484635 -0.37054762 -0.2421639
-0.015310619 0.032798205 -0.24781525
-0.12477653 0.051002488 -0.25171506
-0.10661066 0.069310598 -0.25029385
-0.069998041 0.069275096 -0.25144565
-0.052054431 0.069490254 -0.24445713
-0.033940453 0.069655389 -0.23909926
-0.12592217 -0.44488403 -0.23683262
-0.089214787 -0.44503519 -0.23601425
-0.052474778 -0.42676648 -0.23535633
-0.034113664 -0.40850443 -0.23459911
-0.12631142 0.069880828 -0.23177624
-0.10786341 0.08828181 -0.23221195
-0.089256063 0.088161297 -0.23534393
-0.071132466 0.088351943 -0.23039365
-0.053049911 0.088640161 -0.22290421
-0.071717411 -0.4480792 -0.21953809
-0.14559421 -0.42920893 -0.22156131
-0.016455766 -0.39398396 -0.21062553
-0.12769994 0.088992819 -0.21373844
-0.034894701 0.088971034 -0.21430731
-0.10931508 0.10766406 -0.21125901
-0.090620086 0.10757461 -0.21319497
-0.072442576 0.10790317 -0.20608091
-0.10983698 -0.46963418 -0.20372581
-0.091901824 -0.47181746 -0.1923821
-0.054389011 -0.4528136 -0.19391191
-0.035614494 -0.43380436 -0.19560647
-0.12915404 0.10842197 -0.19484913
-0.054172259 0.10824846 -0.1986047
-0.11083704 0.12742363 -0.18929112
-0.092085034 0.12741733 -0.18940711
-0.12977967 -0.47290659 -0.18672228
-0.073993251 -0.4747192 -0.17730379
-0.017553661 -0.41860288 -0.17497051
-0.035974856 0.10881945 -0.18624389
-0.13084418 0.12830707 -0.17289412
-0.073858663 0.1279349 -0.1798017
-0.0553785 0.12832896 -0.17248893
-0.11324389 -0.4981102 -0.15455127
-0.056205776 -0.47909287 -0.15457785
-0.037029039 -0.45929039 -0.15885544
-0.037155908 0.12924126 -0.15555894
-0.11243342 0.14758758 -0.16624963
-0.093614012 0.1476903 -0.16457951
-0.094633803 -0.49941742 -0.14802027
-0.018577423 -0.44334462 -0.1417228
-0.13240336 0.14842556 -0.15263939
-0.075229317 0.14831932 -0.15436542
-0.056579534 0.14880449 -0.14648557
-0.11411503 0.16819128 -0.14197767
-0.095086053 0.16828133 -0.1406765
-0.13435741 -0.50357336 -0.12725604
-0.076245114 -0.50192046 -0.13551438
-0.03820565 0.14992528 -0.128286
-0.13373306 0.16864941 -0.1353662
-0.076547787 0.16902824 -0.12989759
-0.057662223 0.16950297 -0.12304473
-0.11526661 0.18858002 -0.12535596
-0.11649668 -0.5268808 -0.10760128
-0.097171336 -0.52704412 -0.10681605
-0.058005128 -0.50590205 -0.11562073
-0.038581047 -0.48602968 -0.1185329
-0.039143581 0.17082828 -0.10391784
-0.13512775 0.18920401 -0.1172483
-0.096474156 0.18913573 -0.11813664
-0.077652067 0.18980789 -0.10940456
-0.058516946 0.19018246 -0.10453928
-0.11654443 0.20937875 -0.10691226
-0.15533514 0.30632147 -0.10652626
-0.1357803 0.306045 -0.10877192
-0.11638796 0.30599579 -0.10917079
-0.097063601 0.30607036 -0.10856521
-0.077709183 0.30609742 -0.10834491
-0.058358345 0.30614316 -0.10797322
-0.039001275 0.30618727 -0.10761499
-0.01970366 0.30649123 -0.10514688
-0.00030595064 0.30646402 -0.10536754
0.019079011 0.30651164 -0.10498118
0.038473003 0.30651003 -0.10499513
0.057866786 0.30631122 -0.10660923
0.077247187 0.30629599 -0.1067332
0.096622497 0.30625519 -0.10706401
0.1159873 0.30618563 -0.10762882
0.13534893 0.30613819 -0.10801458
0.15473166 0.30617714 -0.10769784
0.174097 0.30615667 -0.10786307
0.19364186 0.30655256 -0.10464978
-0.17465983 0.32562229 -0.1071465
-0.15473674 0.32477868 -0.1135931
-0.13528258 0.32456356 -0.11523724
-0.11598946 0.3246046 -0.11492229
-0.096714288 0.3246944 -0.11423755
-0.077458128 0.32485572 -0.11300349
-0.05814248 0.32490239 -0.11264694
-0.038904872 0.32523316 -0.11011958
-0.019614939 0.32550681 -0.10802829
-0.0002995804 0.32581887 -0.10564363
0.019059874 0.32606828 -0.10373831
0.07726673 0.32600862 -0.10419416
-0.15548351 0.34532821 -0.10477412
-0.13602003 0.34520581 -0.10565758
-0.11665812 0.34525934 -0.10527122
-0.0973396 0.34542382 -0.10408366
-0.078441635 -0.52955139 -0.094752431
-0.019788336 -0.4697212 -0.1023972
-0.15584539 0.19049326 -0.10050082
-0.15673001 0.21080627 -0.090053558
-0.13622418 0.20970953 -0.10300541
-0.097637072 0.21002728 -0.099253297
-0.078503147 0.21050508 -0.093610644
-0.059235062 0.21089631 -0.088991761
-0.13680597 0.22981685 -0.095447779
-0.11751714 0.2300548 -0.092872143
-0.1373191 0.24995117 -0.088781834
-0.15690641 0.26955721 -0.087970853
-0.15643236 0.28843561 -0.093568921
-0.13700104 0.28851134 -0.092914224
-0.11759154 0.28864002 -0.091798663
-0.098050654 0.2885547 -0.09253788
-0.078479126 0.28837922 -0.094056368
-0.058968995 0.28829911 -0.094752431
-0.039571423 0.28852418 -0.092802525
-0.020147342 0.2887626 -0.090738177
-0.00068478286 0.2889674 -0.088963747
0.018839076 0.28891742 -0.089397073
0.03836637 0.28871563 -0.091142893
0.057866786 0.28852889 -0.092760682
0.077340916 0.28832144 -0.094557405
0.096770309 0.28798604 -0.097463369
0.11624196 0.28808537 -0.096601844
0.13571106 0.2881256 -0.096254587
0.15513147 0.28800356 -0.097310305
0.17465566 0.28818178 -0.095767856
0.19423296 0.28842273 -0.093680263
0.21374729 0.28848553 -0.093137026
0.23343533 0.28882381 -0.090207458
-0.17566088 0.30757976 -0.096310019
0.21319149 0.30685887 -0.102162
0.23280188 0.30720526 -0.099350333
0.25246355 0.30756432 -0.096435308
0.27206805 0.3077749 -0.094724417
0.29163611 0.30790192 -0.09369421
0.31151614 0.30839342 -0.089704514
0.33124611 0.30864301 -0.087676764
-0.313232 0.32824531 -0.08710289
-0.29306144 0.32764187 -0.091714978
-0.2734541 0.32753041 -0.092565656
-0.25377759 0.32733157 -0.094084144
-0.23398665 0.32697678 -0.096796393
-0.21445188 0.3268823 -0.097518682
-0.19475761 0.32656458 -0.09994638
0.038456306 0.32618767 -0.10282588
0.057866786 0.32613507 -0.10322678
0.096684977 0.32616413 -0.10300565
0.11612155 0.32631984 -0.10181618
0.1355641 0.32642314 -0.10102701
0.15508178 0.32674059 -0.09860146
0.17464282 0.327075 -0.09604609
0.19433962 0.32764351 -0.091700912
0.21409562 0.32819584 -0.087481022
0.23361355 0.32817569 -0.087634802
-0.43025944 0.34766036 -0.087942719
-0.41041926 0.34742412 -0.089648604
-0.39068478 0.3472499 -0.090905666
-0.37093446 0.34704697 -0.092370391
-0.35104498 0.34670535 -0.094835639
-0.33152583 0.34666285 -0.095141888
-0.31191993 0.34653375 -0.096073866
-0.29214951 0.34622577 -0.098296046
-0.27258071 0.34609497 -0.099239349
-0.25323147 0.34619501 -0.098518133
-0.23375419 0.34615457 -0.0988096
-0.21423656 0.3460567 -0.09951663
-0.19517857 0.34658006 -0.09574008
-0.17526226 0.34590313 -0.1006254
-0.078023717 0.34564218 -0.10250783
-0.058708604 0.3459357 -0.10038972
-0.039379735 0.34629697 -0.097782373
-0.020077337 0.34695807 -0.093011737
-0.50823784 0.36710569 -0.08848834
-0.48857239 0.36700752 -0.089159369
-0.46876922 0.36680511 -0.090542555
-0.44912449 0.36670306 -0.091240525
-0.42934296 0.36648887 -0.092704892
-0.40985456 0.36648887 -0.092704892
-0.39034399 0.36647061 -0.092830539
-0.37093207 0.36653596 -0.092384338
-0.35165775 0.36673176 -0.091044903
-0.33235222 0.3669177 -0.08977437
-0.31300482 0.36708114 -0.088656068
-0.2936132 0.3672162 -0.087732911
-0.13866846 -0.53443563 -0.071253538
-0.059823018 -0.53339463 -0.076262355
-0.040034976 -0.51287955 -0.080758929
-0.039804261 0.19155158 -0.086752892
-0.040146675 0.21183917 -0.077856779
-0.15714125 0.23076364 -0.085197449
-0.098411188 0.2306266 -0.086682916
-0.079032853 0.23089468 -0.083780408
-0.059654344 0.23125184 -0.079914331
-0.040333759 0.23189078 -0.07299602
-0.15727074 0.25046292 -0.083668232
-0.1181947 0.2505205 -0.083092451
-0.098778635 0.25075841 -0.080716491
-0.079295084 0.25093859 -0.078914285
-0.059823018 0.25120404 -0.076262236
-0.040368106 0.25162026 -0.072103977
-0.13751091 0.26973817 -0.086290717
-0.1181986 0.27008897 -0.083036184
-0.098661736 0.27013445 -0.082614899
-0.079188854 0.27032077 -0.08088541
-0.059649777 0.27041495 -0.080012798
-0.040167298 0.2707049 -0.077320933
-0.020701934 0.27119994 -0.072727203
-0.17660713 0.28930205 -0.086066604
0.2532984 0.28935698 -0.085590005
0.27321851 0.28987098 -0.08113873
0.29330119 0.29050252 -0.07566905
-0.19648644 0.30925962 -0.082670927
0.35111621 0.30900905 -0.084706664
0.37102941 0.30937213 -0.081757426
0.39113837 0.30987692 -0.077659369
-0.35343441 0.32916754 -0.080055118
-0.3331368 0.32856253 -0.084678531
0.25326821 0.32839191 -0.085982442
0.27303165 0.32873699 -0.083345175
0.29267123 0.32884923 -0.082488418
0.31230861 0.32894099 -0.08178556
0.33182806 0.32887685 -0.082277536
0.351181 0.32863227 -0.084145546
0.37098268 0.32889512 -0.082136869
0.39080644 0.3291491 -0.080196023
0.41065466 0.32939798 -0.07829392
0.43077642 0.32986546 -0.074722052
0.45050341 0.32995057 -0.074071527
-0.47101924 0.34880024 -0.079717159
-0.45036766 0.34806409 -0.085029125
-0.54836953 0.36777374 -0.083920836
-0.52814978 0.36735335 -0.086794853
-0.27504525 0.36828774 -0.080406904
-0.15709375 0.36750492 -0.085758328
-0.56985736 0.36892068 -0.076078415
-0.25595358 0.36887118 -0.076417565
-0.72744119 0.38886344 -0.073958516
-0.68854022 0.38905531 -0.072713017
-0.66762966 0.38836983 -0.077165723
-0.6473341 0.38798776 -0.079646826
-0.62738866 0.387784 -0.08096981
-0.60720289 0.38742697 -0.083289027
-0.58768481 0.38745299 -0.083120465
-0.56773889 0.38721308 -0.084678531
-0.5482021 0.38722175 -0.084622502
-0.52847981 0.38710728 -0.085365653
-0.50915414 0.38725844 -0.084383965
-0.48949888 0.38718504 -0.084860921
-0.4702768 0.38742697 -0.083289027
-0.45103094 0.3876693 -0.081715226
-0.43198889 0.3880941 -0.078956485
-0.413645 0.38913599 -0.072188854
-0.72564632 0.40755406 -0.079787612
-0.70634192 0.40770659 -0.078843832
-0.68695706 0.40782261 -0.078124762
-0.66758543 0.4079527 -0.077320933
-0.64750189 0.40767446 -0.079040885
-0.62860376 0.40809187 -0.076459885
-0.6090014 0.40809867 -0.076417565
-0.59018123 0.4086037 -0.073293447
-0.11962101 -0.55597478 -0.062505364
-0.099799141 -0.55562121 -0.064145803
-0.080615997 -0.55772173 -0.054400921
-0.021015804 -0.49680668 -0.062533855
-0.021291453 0.23368412 -0.053581715
-0.020974074 0.25244236 -0.063889146
-0.0011599921 0.27166775 -0.068386793
0.018422853 0.27231705 -0.062362552
0.31388855 0.29161924 -0.065997601
0.41206878 0.31105578 -0.068088531
0.43274081 0.31189302 -0.061291456
0.4713507 0.33093461 -0.06655252
0.49227288 0.33188704 -0.059275389
0.4524886 0.35136923 -0.061177135
0.51181096 0.35147023 -0.060448289
0.43298757 0.35158706 -0.059604526
0.47238377 0.35150975 -0.060162306
0.49219772 0.35157117 -0.059718966
0.53229368 0.35202956 -0.056410193
-0.57140231 0.40916717 -0.069806814
-0.041591492 -0.54086512 -0.040319204
-0.001610972 0.2539463 -0.048858762
0.03804886 0.27366066 -0.049897075
0.057866786 0.274483 -0.042263627
0.077774778 0.27492142 -0.038197279
0.33506632 0.29320896 -0.052230239
0.45476311 0.31372643 -0.046404004
0.51376843 0.33318028 -0.049392343
0.53508955 0.33424208 -0.041277289
0.5532456 0.35288221 -0.050257325
0.57404327 0.35356236 -0.045348287
0.59517103 0.35441229 -0.039214849
0.57510805 0.37419349 -0.040028691
0.59558821 0.37460616 -0.037207723
-0.061816771 -0.56231385 -0.033096075
-0.022145461 -0.52387011 -0.025847316
-0.022206556 0.21641119 -0.023863196
0.097736135 0.27529511 -0.034730792
0.11770149 0.27543822 -0.033402801
0.13785598 0.27617157 -0.02659595
0.15787192 0.2762239 -0.026111722
0.17807128 0.27668676 -0.021817327
0.35687348 0.29521632 -0.034847379
0.37816915 0.29649299 -0.023789763
0.47778156 0.31614441 -0.026772022
0.55688012 0.33553854 -0.031371713
0.61755085 0.35600641 -0.027710915
0.6161918 0.37507296 -0.034015894
-0.12351696 -0.58824921 -0.0062725544
-0.10266212 -0.58570778 -0.017656565
-0.083162069 -0.58805293 -0.0071517229
-0.14384872 -0.56859374 -0.0039600134
-0.002589982 0.23803654 -0.0064663887
0.017727278 0.25711635 -0.017183661
0.19835109 0.27717808 -0.017257571
0.21874225 0.2777417 -0.012028933
0.4003011 0.29835746 -0.007643342
0.50067693 0.31825322 -0.009652257
0.58026689 0.33777872 -0.014253378
-0.043174084 -0.56961918 0.00079739094
0.037640713 0.25914848 0.0031226873
0.057866786 0.2602424 0.014053226
0.2395536 0.27883342 -0.0018974543
0.26003736 0.27924851 0.0019521713
0.28064001 0.27973905 0.0065053701
0.30156842 0.28052807 0.013826251
0.42171568 0.29941699 0.0015320778
0.52376932 0.3203156 0.0070924759
0.60449553 0.34038314 0.0056473017
-0.10558663 -0.61674082 0.029831529
-0.064099506 -0.59329426 0.016326189
-0.023535226 -0.55325407 0.019286752
-0.02391516 0.20066431 0.031625509
0.07823509 0.26099747 0.021599174
0.098706573 0.26166815 0.028300405
0.32276145 0.28148076 0.022665501
0.34373534 0.28207806 0.028208613
0.44429085 0.30128112 0.017676592
0.54697067 0.32227886 0.023031116
-0.12671836 -0.61907434 0.039936066
-0.085802659 -0.61951685 0.04185164
-0.14711499 -0.59823763 0.038470149
-0.0037308373 0.22206745 0.042934299
0.016966838 0.2416092 0.032208562
0.11921459 0.26204988 0.032116532
0.13973668 0.26228663 0.034482241
0.1603553 0.26267958 0.038408399
0.18120728 0.26344731 0.046078801
0.36563888 0.28346348 0.041063428
0.46799657 0.30380687 0.039550066
0.57149619 0.32493231 0.044575453
-0.066184819 -0.62404859 0.061475039
-0.045075405 -0.60085523 0.050195336
0.037265047 0.24343036 0.051923394
0.057866786 0.24428225 0.061145544
0.20201938 0.26392162 0.050817728
0.22295743 0.26448196 0.056416988
0.24375525 0.26471508 0.058747768
0.26460138 0.26496443 0.061239481
0.38740063 0.28455153 0.051160216
0.49141425 0.30588636 0.057558537
-0.14923067 -0.62508291 0.065953612
-0.025438663 -0.58692861 0.08110249
-0.025166038 0.18303327 0.072248936
0.016325276 0.22468781 0.073878884
0.078616232 0.24520281 0.071110725
0.099456131 0.24574557 0.076985836
0.12036903 0.24621852 0.082105756
0.2862218 0.2660836 0.072422981
0.3074263 0.26656574 0.077239752
0.41002724 0.28622407 0.066677928
0.43280527 0.2878283 0.081564188
0.51484483 0.30778548 0.074005604
-0.1512063 -0.65191704 0.091617823
-0.12970953 -0.64988685 0.083109856
-0.10893647 -0.65015316 0.084226131
-0.088608965 -0.6524688 0.093930006
-0.19368213 -0.63266265 0.098775625
-0.17182869 -0.63023269 0.08825314
-0.0046704374 0.204667 0.083620071
0.03695602 0.22622792 0.092067122
0.14134218 0.24663572 0.086621642
0.16240148 0.24709277 0.091569662
0.18359582 0.24766763 0.097792268
0.32909143 0.26743421 0.085918784
0.35103664 0.26843873 0.095956326
0.45619738 0.28971624 0.099082232
0.53817314 0.3094528 0.088445067
0.60173309 0.33089635 0.092998266
-0.65881956 -0.67831886 0.1139226
-0.63763279 -0.67821437 0.11349845
-0.61607951 -0.67773688 0.11156011
-0.59531409 -0.67804182 0.11279774
-0.57418728 -0.6779815 0.11255324
-0.5532425 -0.67811811 0.11310744
-0.53235948 -0.67833489 0.11398757
-0.51171422 -0.67884946 0.11607683
-0.61702323 -0.65759015 0.1153909
-0.59507698 -0.65673435 0.11180425
-0.57377374 -0.65648562 0.11076248
-0.55251569 -0.65626842 0.10985172
-0.53138739 -0.65617919 0.10947776
-0.510346 -0.65618312 0.10949409
-0.48922309 -0.65609002 0.10910392
-0.46822181 -0.65614027 0.10931528
-0.44715121 -0.6561054 0.10916901
-0.42584425 -0.65574884 0.10767484
-0.40480509 -0.65573716 0.10762596
-0.38363552 -0.65553194 0.1067661
-0.36256912 -0.6554662 0.10649014
-0.34146196 -0.65532684 0.10590649
-0.32050982 -0.65543908 0.10637677
-0.29959929 -0.65564036 0.10722029
-0.27860188 -0.65569848 0.1074636
-0.25765881 -0.65587676 0.10821056
-0.23674634 -0.65614802 0.10934758
-0.21588969 -0.65659457 0.11121821
-0.19490069 -0.65677327 0.11196709
-0.17335649 -0.65541971 0.10629559
-0.068693191 -0.65768373 0.11578262
-0.38482407 -0.63620609 0.11411822
-0.36338979 -0.63567537 0.11182022
-0.34193915 -0.63506305 0.10916901
-0.32084718 -0.6349805 0.1088115
-0.29956746 -0.63455677 0.10697699
-0.27844203 -0.63436949 0.10616589
-0.25727859 -0.63408142 0.104918
-0.23604214 -0.63359529 0.10281348
-0.21496934 -0.63341224 0.1020211
-0.047141787 -0.63384193 0.10388136
-0.026413616 0.16477035 0.11276519
0.015724827 0.20691924 0.11287928
0.057866786 0.22739309 0.10582542
0.078945167 0.22807178 0.11384082
0.20483778 0.2481599 0.10312092
0.2260052 0.24841715 0.10590649
0.24720463 0.24865998 0.10853553
0.37344486 0.26971051 0.10866535
0.47875518 0.29083139 0.109429
0.56167775 0.31109133 0.10263562
0.62577909 0.33275014 0.10804832
-0.4501594 -0.68115866 0.12545109
-0.72366691 -0.67971152 0.11957645
-0.70217699 -0.67938507 0.11825073
-0.68053174 -0.6788978 0.11627257
-0.49110284 -0.67944551 0.11849642
-0.47043303 -0.68001425 0.12080514
-0.72548544 -0.66011268 0.12596095
-0.70349401 -0.65940672 0.12300301
-0.68174845 -0.65887839 0.12078881
-0.6603294 -0.65861642 0.11969125
-0.63840395 -0.65786308 0.11653411
-0.51483399 -0.6401248 0.13108695
-0.49279132 -0.63916528 0.12693191
-0.47099504 -0.63842463 0.12372541
-0.44926468 -0.63770485 0.12060845
-0.42777473 -0.637236 0.11857784
-0.40641338 -0.63689977 0.11712253
-0.0055397935 0.18642914 0.12126422
0.036642037 0.20845698 0.1328547
0.10008918 0.22843255 0.11810327
0.12140806 0.22919413 0.12709665
0.26897749 0.24954228 0.11808717
0.29058546 0.25008446 0.12395561
0.31240201 0.25074464 0.13110352
0.39547074 0.27051273 0.11668122
0.41839138 0.27190465 0.13059163
0.50206029 0.2923384 0.12341356
0.5877071 0.31411368 0.12881005
-0.53697556 -0.64112157 0.13540328
-0.23999238 -0.62078452 0.13946736
-0.027453799 0.14552055 0.14654613
0.057866786 0.20934002 0.14432704
0.14277546 0.22970824 0.13316917
0.16415116 0.23003514 0.13702774
0.18565515 0.23048829 0.14237797
0.20726514 0.23097844 0.14816689
0.33478653 0.25182775 0.14282727
0.35681131 0.25244769 0.1495384
0.4410359 0.27294263 0.14096355
0.52519524 0.2936005 0.13512194
-0.34986314 -0.6261152 0.16334569
-0.32841539 -0.62613392 0.16342998
-0.0063721873 0.16751345 0.1573081
0.015144441 0.18846011 0.15057623
0.079253897 0.21008058 0.15394652
0.10075244 0.21063785 0.16118395
0.12232296 0.21106341 0.16671312
0.22893888 0.23143376 0.15354359
0.25062919 0.23180795 0.15796459
0.37968469 0.25366384 0.16270351
0.46458569 0.2744908 0.15643334
0.54938734 0.295396 0.15178263
0.61455071 0.31737345 0.15703881
-0.22161806 -0.62725663 0.16845918
-0.0067785271 -0.45630774 0.17490315
-0.028416272 0.12563397 0.17780328
0.036363773 0.18973655 0.16900229
0.057866786 0.19064377 0.18209624
0.14408363 0.21175154 0.17565322
0.1658002 0.21207631 0.1798712
0.18755297 0.21235308 0.18346715
0.27274677 0.23257759 0.16705203
0.29479575 0.2331385 0.17367673
0.31674749 0.23351677 0.17814493
0.40209067 0.25437734 0.17042828
0.42517191 0.25548375 0.18240464
0.48795843 0.27576894 0.16920602
0.51120931 0.27685013 0.18000817
0.57405835 0.29732123 0.16964734
-0.007120762 -0.50202841 0.18972242
-0.0073130466 -0.48177588 0.19804823
-0.0071159936 0.14783597 0.18951571
0.014629338 0.16915925 0.18403316
0.079542965 0.19129506 0.19149768
0.10132428 0.19176809 0.19832551
0.20941259 0.21270351 0.18801808
0.23132084 0.21302703 0.192222
0.25338587 0.21345285 0.19775367
0.33930209 0.23434718 0.18794954
0.36169988 0.23493546 0.19489872
0.44805479 0.2563349 0.19161808
0.53517538 0.27825537 0.19405186
0.59965187 0.2996093 0.19087684
-0.0075789876 -0.4400956 0.20956409
-0.029413614 0.10530999 0.21019316
0.036097147 0.17036666 0.20363808
0.057866786 0.17114024 0.21619916
0.12324567 0.19234614 0.20666766
0.14516334 0.19262683 0.21071732
0.16714919 0.19291782 0.21491873
0.27552569 0.21386848 0.20315099
0.29783019 0.21435809 0.20951164
0.38470688 0.23589218 0.2061969
0.40743664 0.23653884 0.21383202
0.471663 0.2575545 0.20482099
0.49516112 0.25858611 0.21598876
0.55890131 0.27940279 0.20551753
-0.0078694932 -0.42012021 0.22214317
-0.0081379525 -0.39981902 0.23376775
-0.0079452731 0.1278336 0.22542465
0.014094632 0.14941202 0.21876359
0.079806857 0.17173004 0.22577775
0.1018601 0.17218274 0.23312843
0.18922143 0.19324149 0.21959019
0.21134169 0.19353439 0.22381818
0.23354307 0.19384526 0.22830641
0.25590563 0.19424829 0.23412311
0.32068172 0.21522193 0.22073412
0.34324339 0.21572988 0.22733343
0.43036774 0.23723942 0.22210765
0.45392719 0.23824646 0.23399889
0.5190571 0.25974688 0.22855425
0.5844906 0.28146401 0.22611344
-0.0085400008 -0.38009569 0.25117731
-0.030279245 0.0843556 0.23830545
0.013606936 0.12898915 0.25044012
0.035847552 0.15034419 0.23606157
0.057866786 0.15097003 0.24767494
0.12399073 0.17254002 0.23892939
0.14618935 0.17285472 0.24403763
0.1684293 0.1731095 0.24817729
0.27839667 0.1946864 0.24044573
0.30113927 0.19525075 0.24859023
0.36641246 0.21659932 0.23862624
0.38924795 0.21713017 0.24552369
0.41206732 0.21758488 0.2514292
0.47775775 0.23930417 0.24649143
0.54395926 0.26135078 0.2459178
-0.031124186 0.062952809 0.26574516
-0.0086260848 0.10703096 0.25490451
0.035600014 0.12981008 0.26821792
0.080047742 0.15147617 0.25706983
0.10233209 0.15183811 0.26378477
0.19074935 0.17338632 0.25267076
0.213342 0.17389543 0.26093936
0.23580061 0.17414337 0.26496446
0.32395825 0.1957781 0.25620317
0.34694749 0.19634233 0.26434731
0.43602845 0.21865752 0.26536381
0.50217092 0.24057674 0.26151872
0.56898338 0.26287904 0.26246083
0.61144024 0.28406754 0.25213063
-0.0092353709 0.085678943 0.28128743
0.013146143 0.10801112 0.28036952
0.057866786 0.13027564 0.27829766
0.12469655 0.15214574 0.26949215
0.14715633 0.15246618 0.27544188
0.16969736 0.15277229 0.28112233
0.25829929 0.17437167 0.26867294
0.28112161 0.17481323 0.27584422
0.30395469 0.17518248 0.28183854
0.37018517 0.19698571 0.27363253
0.39325464 0.19744219 0.28022289
0.4593178 0.21923788 0.27290201
0.48343608 0.2201934 0.2853142
0.52643299 0.24164878 0.27418065
0.59377646 0.26416442 0.27637494
0.03537932 0.10864685 0.29688621
0.080280483 0.13069172 0.28730404
0.10278806 0.13097332 0.29340136
0.12535663 0.13118918 0.2980746
0.14796606 0.13135836 0.3017385
0.19231324 0.15306373 0.28653002
0.21490888 0.15325166 0.29001701
0.23763289 0.15350477 0.2947166
0.26047409 0.15379299 0.30006349
0.32674435 0.17546122 0.2863642
0.34984395 0.17588779 0.29329002
0.37309384 0.17633933 0.30062151
0.41671783 0.1980633 0.28918588
0.44039673 0.19872551 0.29874361
0.50721359 0.22088292 0.29427195
0.55066556 0.24260867 0.28551686
0.57539415 0.24372256 0.2986691
0.61875278 0.26543471 0.29012775
-0.0098097436 0.063886032 0.3061583
0.012733858 0.086475469 0.30714846
0.057866786 0.10908774 0.3083452
0.080492683 0.10933905 0.31486917
0.17067178 0.13157538 0.30643845
0.19347134 0.13181408 0.31160355
0.21634531 0.13204834 0.31667387
0.28333592 0.15403789 0.30460894
0.30629587 0.15430064 0.30948663
0.32935324 0.15457666 0.31460595
0.39677861 0.17696244 0.31074131
0.46413827 0.19934531 0.30769074
0.48785502 0.19988817 0.3155266
0.53139722 0.22170028 0.30488884
0.55564284 0.22247134 0.3149066
0.59970033 0.24454994 0.30843866
-0.010356303 0.041691598 0.32982528
0.012363382 0.064464524 0.33121169
0.035168484 0.087002739 0.32427454
0.057866786 0.08731702 0.33448279
0.10319449 0.10952874 0.31980002
0.1259547 0.10968929 0.32397223
0.14873749 0.10979785 0.32679164
0.17159459 0.10993727 0.33041382
0.19451489 0.11008294 0.33419728
0.23925547 0.13225098 0.32106364
0.26223668 0.13245605 0.32550406
0.28531072 0.1326758 0.33026195
0.30841896 0.13287435 0.3345592
0.35263091 0.15492871 0.3211391
0.37605929 0.15530573 0.32813692
0.42043272 0.1774924 0.31934762
0.44414416 0.17798719 0.32737899
0.51192015 0.20053348 0.3248421
0.53590453 0.20108272 0.33277035
0.58024597 0.22333084 0.32607198
0.60466689 0.2240428 0.33532095
-0.010845903 0.019113757 0.35102558
0.034987133 0.064848341 0.34783304
0.080687724 0.087493248 0.34020615
0.10355905 0.087593943 0.34347796
0.12648179 0.08769615 0.34679568
0.14945644 0.087799214 0.35013998
0.2176144 0.11031488 0.3402251
0.24072553 0.1104962 0.3449347
0.26392752 0.11068781 0.34990942
0.33173043 0.13314129 0.34033978
0.35510242 0.13339512 0.34583604
0.37869 0.13370512 0.35254729
0.39977968 0.1557689 0.33673143
0.4235158 0.15618101 0.34437883
0.46809623 0.1785336 0.3362546
0.49195164 0.17898208 0.34353566
0.51596028 0.17944697 0.35108328
0.5599016 0.20158733 0.3400532
0.58456188 0.20230754 0.35044813
-0.01122145 -0.0037905201 0.36728728
0.011975769 0.042100426 0.35638773
0.034818631 0.042305745 0.36972213
0.057866786 0.065049984 0.35656178
0.080867164 0.065210633 0.36351573
0.10390674 0.065269426 0.36606157
0.12698559 0.065328315 0.36861122
0.17250665 0.087921336 0.35410941
0.19559787 0.088030145 0.35764432
0.21877532 0.088157311 0.3617692
0.24202178 0.088286951 0.36598372
0.28713459 0.11084346 0.35395515
0.31039834 0.11099654 0.35793447
0.33380497 0.11118376 0.3627975
0.35736996 0.111403 0.36849439
0.40236208 0.1340076 0.35909557
0.42603555 0.13427278 0.36483657
0.44759426 0.15668544 0.35374272
0.47138992 0.15702398 0.36002505
0.49549964 0.15744269 0.36779332
0.53979743 0.17980225 0.35685158
0.56394422 0.18023765 0.36392355
0.60956758 0.20309724 0.36184669
-0.011580218 -0.026939448 0.38282251
0.011675425 0.01930516 0.37589586
0.057866786 0.042443097 0.37863898
0.081029877 0.042535674 0.38465261
0.15015437 0.065425232 0.37280571
0.17331505 0.065478474 0.37511289
0.19654675 0.06554947 0.37818801
0.21987058 0.06563963 0.38209486
0.24326248 0.065733008 0.38612998
0.26538533 0.088439986 0.37095106
0.28876933 0.088570528 0.37519097
0.31220138 0.08869487 0.37922752
0.33583844 0.088866711 0.38480997
0.38113248 0.11166147 0.37521064
0.40491566 0.11189245 0.38121057
0.45011711 0.13465086 0.37302077
0.4741894 0.13498358 0.3802284
0.49820179 0.13526258 0.38626814
0.51943707 0.15775894 0.37366581
0.5433386 0.15803339 0.37875688
0.56760496 0.15839885 0.38553882
0.58853763 0.1807908 0.37290335
0.61353731 0.18143296 0.3833338
0.011418104 -0.0037904193 0.39260912
0.03466817 0.019408124 0.38926756
0.057866786 0.019474177 0.3978442
0.081166655 0.019509373 0.40241992
0.10422907 0.042571776 0.3869977
0.12747176 0.042612717 0.38966238
0.15076903 0.042660519 0.39276743
0.17412427 0.042712554 0.39613664
0.19746196 0.042741295 0.39800334
0.22090252 0.042791113 0.40124488
0.24431971 0.042822678 0.40329707
0.26670223 0.065821454 0.38995886
0.29026419 0.06592875 0.39460969
0.31387374 0.066029593 0.39897716
0.35958919 0.089047223 0.39067054
0.38341555 0.0892234 0.39639509
0.40733021 0.089399777 0.40212131
0.42887682 0.11215016 0.38790512
0.45284382 0.11237919 0.39385676
0.47685888 0.11259621 0.39949405
0.52211905 0.13548514 0.39108551
0.54620922 0.13573579 0.39651406
0.57063264 0.13605462 0.40341628
0.59240544 0.15889511 0.39474845
0.011089075 -0.027179359 0.41398048
0.034529589 -0.0037905201 0.40726936
0.057866786 -0.0037905201 0.41486406
0.081276834 -0.0037905201 0.4167335
0.10471477 -0.0037906209 0.41854477
0.10450305 0.019527625 0.4047929
0.12786961 0.019543761 0.4068898
0.15129627 0.019566955 0.40989017
0.17471686 0.019579461 0.411533
0.19825837 0.019608201 0.41524565
0.22175446 0.019622017 0.41705549
0.24534062 0.019643798 0.41987431
0.26790845 0.042885404 0.40736949
0.29151914 0.042939961 0.41091156
0.31525987 0.043008134 0.41534626
0.33898449 0.043062389 0.41886699
0.33764562 0.066154242 0.40437388
0.36142042 0.066260129 0.40896928
0.38543847 0.066403426 0.41516542
0.43130869 0.089570105 0.40764916
0.45541954 0.089751326 0.41353881
0.47965497 0.089940205 0.41967273
0.50095218 0.1128109 0.40507245
0.52491558 0.11297165 0.40924966
0.54922432 0.11319936 0.41516554
0.57352567 0.11340468 0.42049932
0.59553337 0.1364702 0.41241515
0.61733979 0.15938909 0.40391505
0.034374699 -0.027282523 0.42739046
0.057866786 -0.027321752 0.43246257
0.081412315 -0.027336173 0.43433344
0.1049707 -0.027342426 0.43516815
0.12857252 -0.027359165 0.43732727
0.15173483 -0.0037905201 0.42413318
0.17526956 -0.0037905201 0.42589247
0.19890262 -0.0037905201 0.42919433
0.22246216 -0.0037905201 0.4301883
0.24617217 -0.0037905201 0.43337739
0.12820625 -0.0037903185 0.42146742
0.26987389 -0.0037904193 0.43573797
0.2688908 0.019656707 0.42154813
0.292568 0.019679498 0.4245373
0.31638786 0.019711366 0.42866719
0.34036434 0.019750997 0.43380463
0.36316666 0.043178663 0.42641866
0.38721287 0.043258935 0.43162954
0.41136727 0.043342836 0.43708289
0.40948728 0.066533521 0.42080188
0.43354571 0.066649392 0.42581165
0.45774186 0.066775747 0.43128431
0.48211819 0.066918045 0.43744981
0.50370455 0.090070099 0.42389047
0.52770233 0.090176687 0.42735016
0.55228353 0.090384126 0.4340893
0.59872687 0.11378779 0.43045223
0.62117589 0.13703676 0.42467868
-0.012872871 -0.0509503 0.43879616
0.010571212 -0.051086038 0.44761646
0.034201451 -0.051121332 0.44989622
0.057866786 -0.051160764 0.4524678
0.081552871 -0.051162578 0.4525913
0.10522849 -0.051152091 0.45191181
0.12890603 -0.051149972 0.45176804
0.15267202 -0.051193137 0.45456922
0.15219073 -0.02737147 0.43893874
0.17586999 -0.027391033 0.44149196
0.19949989 -0.027396075 0.44212568
0.22325324 -0.027417354 0.44486868
0.24702759 -0.027435707 0.44726765
0.27081069 -0.027450936 0.44925916
0.29481643 -0.027485525 0.45374501
0.29365623 -0.0037905201 0.43867338
0.34175211 -0.0037905201 0.44882786
0.36592397 -0.0037906209 0.45397151
0.31758985 -0.0037904193 0.44286215
0.36440533 0.019789319 0.43879616
0.38861096 0.019834194 0.44460237
0.41284922 0.019875037 0.44991696
0.4370141 0.019906199 0.45397151
0.43559289 0.043425128 0.44243252
0.45983618 0.043499853 0.44728792
0.48395967 0.0435532 0.45073926
0.50797164 0.043588899 0.4530648
0.50621021 0.067000531 0.4410218
0.53027648 0.067070924 0.44406974
0.55478573 0.06719809 0.44956744
0.57929564 0.067313358 0.45456922
0.57674527 0.090551026 0.43951023
0.6012032 0.090702899 0.44443858
0.17642574 -0.05121411 0.45593035
0.20017564 -0.051226918 0.45675623
0.2241088 -0.051288232 0.46074617
0.24800438 -0.051325042 0.46312845
0.27211973 -0.051402289 0.46815383
-0.20420066 -0.02761481 0.47054756
0.31904292 -0.027533829 0.46002162
0.34307122 -0.027557528 0.46310794
0.36736822 -0.027598269 0.46840346
-0.2755703 -0.0037906209 0.46958959
-0.25178882 -0.0037905201 0.46994364
-0.20381665 -0.0037906209 0.46601307
-0.17964891 -0.0037905201 0.46109807
0.38998315 -0.0037905201 0.45733464
0.41437235 -0.0037905201 0.46310794
-0.299546 -0.0037904193 0.47096431
-0.22773656 -0.0037904193 0.4674257
0.43870968 -0.0037904193 0.46773779
0.4612942 0.019940486 0.45842946
0.48592353 0.019990506 0.4649123
0.51037335 0.0200256 0.4694854
0.53219157 0.043641843 0.45650852
0.55703831 0.043749548 0.46350205
0.60383046 0.067422271 0.45927703
0.62680495 0.11473836 0.45514643
-0.013934787 -0.075592138 0.48477805
0.010064363 -0.075494118 0.48053706
0.033966221 -0.075492099 0.48045337
0.057866786 -0.07546638 0.47934258
0.081757024 -0.075461142 0.47911203
0.10565372 -0.07547082 0.47953117
0.12952928 -0.075453073 0.47875631
0.15345807 -0.07548403 0.48009694
0.296534 -0.05152401 0.47605669
0.32098621 -0.051630501 0.48297107
-0.30118233 -0.027727149 0.48513544
-0.27702832 -0.027711621 0.48311818
-0.2530379 -0.027706275 0.48242533
-0.22866911 -0.027668457 0.47752106
0.39182526 -0.027644657 0.4744271
0.41659573 -0.027705669 0.48236239
0.44123366 -0.02775095 0.48823011
-0.39722118 -0.0037905201 0.48713458
-0.37275049 -0.0037905201 0.48339093
-0.32369718 -0.0037905201 0.47359192
0.46339053 -0.0037905201 0.47444808
-0.34827554 -0.0037904193 0.47917497
0.48811761 -0.0037904193 0.48074687
0.51291168 -0.0037904193 0.48683965
-0.39674434 0.020136328 0.4838742
-0.37278542 0.020134512 0.48364317
-0.34893453 0.020138949 0.48421061
-0.32512674 0.020146614 0.48519886
-0.30114353 0.020143589 0.48479927
-0.27740219 0.020157304 0.48658693
0.53514969 0.020073602 0.47572267
0.56004995 0.020123016 0.48213136
0.5823229 0.043887302 0.47244418
0.60766888 0.044018399 0.48095644
0.6302821 0.091612123 0.47396767
0.34560037 -0.05174607 0.49048603
0.37054831 -0.051895421 0.50018036
0.46638599 -0.027821038 0.4973377
-0.42195892 -0.0037905201 0.4922384
-0.47120383 -0.0037904193 0.49969208
-0.44644585 -0.0037904193 0.49530447
0.5384059 -0.0037904193 0.49687159
-0.5679853 0.020280635 0.50262392
-0.54347241 0.020262988 0.5003289
-0.51878399 0.020236569 0.49689257
-0.49407873 0.02020712 0.49306262
-0.46977344 0.020193104 0.49124587
-0.44569424 0.020188564 0.49065483
-0.42153004 0.020179389 0.48945248
-0.25367361 0.020174144 0.48877776
-0.23048407 0.020238888 0.49716818
0.585693 0.020201676 0.49234402
-0.54426217 0.04437983 0.50443256
-0.54650348 -0.0037905201 0.51607907
-0.52145422 -0.0037905201 0.51134574
-0.49648419 -0.0037905201 0.50664842
0.56417537 -0.0037906209 0.50765073
0.58970541 -0.0037906209 0.51603615
-0.64438748 0.020425148 0.52138579
-0.61836278 0.020360608 0.51299345
-0.59287971 0.020311294 0.50658453
0.61273539 0.020334186 0.50957215
-0.69248509 0.044619236 0.5199877
-0.66715467 0.044544209 0.51511419
-0.64213175 0.044485312 0.51128185
-0.61758858 0.04445627 0.5094012
-0.59287971 0.044413008 0.50658429
-0.56856048 0.044396166 0.50549757
-0.52040917 0.04439909 0.50568926
-0.49642 0.044408269 0.50628603
-0.47381565 0.044544209 0.51511419
-0.71911293 0.020490194 0.52982342
-0.69443488 0.020477185 0.52815831
-0.6697979 0.020465083 0.52655971
-0.7173633 0.044661388 0.52272093
0 0 0 1 0 0 0 1 0 0 0 1 0 0 0 0 0 1268 1 0 0
