# .PCD v0.7 - Point Cloud Data file format
VERSION 0.7
FIELDS x y z normal_x normal_y normal_z curvature
SIZE 4 4 4 4 4 4 4
TYPE F F F F F F F
COUNT 1 1 1 1 1 1 1
WIDTH 584
HEIGHT 1
VIEWPOINT 0 0 0 1 0 0 0
POINTS 584
DATA ascii
-0.075027175 0.14180185 -0.4554778 0.17358561 -0.98479885 -0.006275476 0.034969326
-0.064464264 0.14180183 -0.45425668 -8.7773606e-06 -1 -2.560104e-07 1.3008767e-05
-0.054194033 0.14180185 -0.45583129 7.0578872e-06 -1 -3.3221586e-05 1.2937457e-05
-0.045195121 0.14180185 -0.45571393 0 -1 0 0
-0.034953058 0.14180185 -0.4544386 1.9714967e-06 -1 3.5669025e-05 4.4102426e-06
-0.02433178 0.14180185 -0.45505232 2.3026307e-06 -1 3.1489184e-05 3.9869137e-06
-0.015729591 0.14180183 -0.45615873 -2.8142504e-06 -1 -2.9149543e-05 8.1009912e-06
-0.0039216885 0.14180185 -0.45489702 1.3460935e-07 -1 1.5214482e-08 0
0.0055820378 0.14180185 -0.45641893 5.0193398e-06 -1 -6.7549059e-05 4.1392582e-06
0.015224259 0.14180185 -0.45615238 -6.9619446e-08 -1 -6.7624183e-05 1.2689624e-05
0.02495623 0.14180185 -0.45399252 5.4818503e-07 -1 -3.1802356e-05 4.1916865e-06
0.035832081 0.14180185 -0.45621592 0 -1 0 0
0.04443828 0.14180185 -0.45492774 1.8811413e-06 -1 1.3538672e-08 0
0.055248316 0.14180185 -0.45542136 -5.0223152e-06 -1 -1.0035933e-07 0
0.064655326 0.14180185 -0.45604941 -0.00094486692 -0.99999958 -3.4179335e-05 8.0591963e-06
0.074065275 0.14180185 -0.45414522 -0.14739613 -0.98876333 -0.024928305 0.030707043
0.085597336 0.14180185 -0.45468917 -0.53988922 -0.84173381 -0.0019668606 0.091018319
0.093784094 0.14158288 -0.45344016 -0.63667434 -0.7699151 0.043318596 0.092134655
-0.09386199 -0.14160183 -0.44449791 0.66406661 0.74722213 0.025974251 0.10371253
-0.085121274 -0.14180185 -0.44526601 0.40295663 0.91495275 0.022077216 0.083498895
-0.074824557 -0.14180185 -0.44572687 0.19509648 0.98075861 -0.0070707947 0.03772499
-0.06480401 -0.14180185 -0.44542143 0.002111455 0.99999762 -0.00051334465 1.8719182e-05
-0.055160146 -0.14180183 -0.44488636 -1.5765435e-06 1 -6.5236018e-05 7.9871525e-06
-0.044558428 -0.14180185 -0.4438521 3.2878286e-06 1 3.4618908e-05 4.4637154e-06
-0.034313653 -0.14180185 -0.44539839 -4.7844787e-06 1 -3.573094e-05 4.5141428e-06
-0.025755294 -0.14180183 -0.44343626 1.6927968e-06 1 -6.4807071e-05 8.5955035e-06
-0.017221594 -0.14180185 -0.44573453 -2.2953132e-06 1 -3.8148184e-05 1.33692e-05
-0.0069329715 -0.14180185 -0.44483078 -7.1722212e-07 1 3.60622e-05 8.0245954e-06
0.0061669061 -0.14180183 -0.44537571 -8.9803365e-07 1 -7.3659896e-09 8.9396808e-06
0.015214757 -0.14180185 -0.4450219 -2.3995171e-06 1 2.124672e-07 9.6344729e-06
0.024142666 -0.14180185 -0.44438395 3.1654263e-06 1 -3.1750078e-05 8.467804e-06
0.036331713 -0.14180185 -0.44520548 2.1756139e-06 1 -2.5527319e-07 0
0.045493666 -0.14180185 -0.44343138 -2.1859792e-06 1 3.418338e-05 0
0.054067437 -0.14180185 -0.44461197 -7.790225e-06 1 -7.0698479e-05 4.3224918e-06
0.065138638 -0.14180185 -0.44499308 -0.0015061719 0.99999893 3.1345064e-06 1.0492111e-05
0.07586994 -0.14180185 -0.44425941 -0.19008908 0.98171556 0.010037469 0.035618186
0.085329138 -0.14180183 -0.44432023 -0.42948717 0.90306622 0.0035059825 0.077028207
0.09313532 -0.14156798 -0.44596598 -0.65277779 0.75668764 -0.036125347 0.10304996
-0.096328847 -0.1344417 -0.4437528 0.88451779 0.46649635 -0.0030897935 0.077630378
0.096328847 -0.13567075 -0.44449452 -0.83403635 0.55159605 0.011187287 0.073842287
-0.096328847 -0.12509267 -0.44622031 0.96181595 0.27190179 -0.031297501 0.057449646
0.096328847 -0.12409034 -0.44395974 -0.96334428 0.26638797 -0.031704213 0.054994967
-0.096328847 -0.11403765 -0.44507581 0.99840605 0.05643208 -0.00089108397 0.0073255464
0.096328847 -0.11489819 -0.44540909 -0.99838209 0.056858838 0.00046485101 0.006932009
-0.096328847 -0.10617837 -0.44449055 1 -8.0653417e-06 -5.1454143e-05 1.6630675e-05
0.096328847 -0.10332268 -0.44453418 -1 -1.5396419e-05 -7.0564594e-05 1.6242624e-05
-0.096328847 -0.096276529 -0.44512084 1 -2.4324841e-06 -5.5124696e-05 1.6982989e-05
0.096328847 -0.093825534 -0.4450523 -1 -2.2676973e-05 -5.314816e-05 1.6798278e-05
-0.096328847 -0.084436677 -0.44585559 1 -6.9485259e-06 -1.7028275e-05 1.5543144e-05
0.096328847 -0.085445538 -0.44446135 -1 -1.2461018e-05 -3.3583179e-05 1.0897576e-05
-0.096328847 -0.074262984 -0.44287217 1 -1.4434524e-05 -3.469954e-05 1.6918872e-05
0.096328847 -0.074116521 -0.44473374 -1 -1.3155418e-05 -3.8821494e-05 1.6865932e-05
-0.096328847 -0.065877669 -0.44594461 1 -5.5397077e-06 -5.9881935e-05 1.2265708e-05
0.096328847 -0.065672927 -0.44552985 -1 -1.7911691e-06 -5.7483452e-05 1.6222282e-05
-0.096328847 -0.055340122 -0.44642353 1 -4.0975433e-06 -2.6218356e-07 1.0762963e-05
0.096328847 -0.053895846 -0.44530192 -1 -7.0608849e-06 -3.4797409e-05 1.0745464e-05
-0.096328847 -0.044376306 -0.4448449 1 -1.6488266e-07 -1.9276102e-05 1.0367573e-05
0.096328847 -0.044970762 -0.44441015 -1 -5.8579049e-06 -3.4700766e-05 1.0599086e-05
-0.096328847 -0.033732932 -0.44567215 1 2.9599462e-06 -4.0544062e-05 1.2035765e-05
0.096328847 -0.035434127 -0.44465524 -1 -5.5473761e-06 -5.1992622e-05 1.0541695e-05
-0.096328847 -0.024220478 -0.44501776 1 -1.3169901e-06 -6.4510961e-05 1.3262703e-05
-0.016292732 -0.024234945 -0.44467726 0.64349681 0.76527959 -0.016091153 0.090516217
-0.0045087477 -0.028348977 -0.44422784 0.012627689 0.99991769 0.0022751722 0.046561319
0.0054461574 -0.025907665 -0.44514742 -0.30900517 0.95049804 -0.032700256 0.080875106
0.011511141 -0.021532554 -0.44399539 -0.72024739 0.69336569 0.022083052 0.088612691
0.096328847 -0.025397867 -0.44502723 -1 1.3153511e-08 -7.1309703e-05 1.6589063e-05
-0.096328847 -0.014734588 -0.44410205 1 -2.9272787e-06 -0.00010739405 1.6505886e-05
-0.022821121 -0.016480489 -0.44468677 0.93554682 0.35297629 -0.012642056 0.082371593
0.015243513 -0.014785844 -0.44367552 -0.97542197 0.21802776 0.031872731 0.07297305
0.096328847 -0.013174304 -0.44507971 -1 -9.1320517e-06 -6.7903624e-05 1.7224243e-05
-0.096328847 -0.0046909791 -0.44565004 1 -2.5704985e-06 -8.6810433e-05 1.0907464e-05
-0.02430542 -0.0040522963 -0.44529152 0.96783394 -0.2509715 0.017626546 0.054950535
0.01635216 -0.0049281367 -0.44475216 -0.97229862 -0.23373865 -0.0012825789 0.065250896
0.096328847 -0.0057695601 -0.44447529 -1 -5.1238885e-07 -3.0761381e-05 1.6967871e-05
-0.096328847 0.0059820055 -0.44477338 1 2.0062973e-06 -3.1092648e-05 1.5928519e-05
-0.022127422 0.002368975 -0.44611573 0.88166767 -0.47128943 -0.023418207 0.082721688
-0.017870728 0.0077744722 -0.44434541 0.5676437 -0.82211936 0.043593943 0.071914949
0.0085686827 0.0086929295 -0.44546175 -0.54063189 -0.84111702 -0.015472651 0.079658806
0.012679834 0.0042253016 -0.4439739 -0.82399589 -0.56583273 0.029395388 0.074921794
0.096328847 0.0049431976 -0.44636187 -1 3.6634304e-07 -6.2666513e-05 1.6806673e-05
-0.096328847 0.014435519 -0.44661209 1 2.1760591e-06 -4.7299345e-05 1.6004034e-05
-0.012459241 0.011242046 -0.44396225 0.34398228 -0.93897498 -0.001475765 0.084185712
-0.0047454075 0.012873848 -0.44437471 0.02387842 -0.99865788 0.045958679 0.074103847
0.0029738953 0.011703354 -0.44586796 -0.24492246 -0.96953064 -0.0048270188 0.077090651
0.096328847 0.013982013 -0.44375503 -1 -1.7103341e-07 -5.2581403e-05 1.0758282e-05
-0.096328847 0.026229445 -0.44425109 1 1.1582512e-06 -5.6916819e-05 1.3542139e-05
0.096328847 0.024772372 -0.44494897 -1 4.3893888e-06 -4.6396697e-05 1.6385753e-05
-0.096328847 0.035735078 -0.44479436 1 5.5758796e-06 -7.7363678e-05 1.5604322e-05
0.096328847 0.03443861 -0.44537172 -1 1.6475424e-06 -5.2170501e-05 1.078342e-05
-0.096328847 0.045131635 -0.4455266 1 -2.2662687e-06 -6.1937339e-05 1.6443273e-05
0.096328847 0.045692492 -0.44440183 -1 2.5718921e-06 -4.5247689e-05 1.6337315e-05
-0.096328847 0.054524723 -0.44472903 1 4.4179483e-06 6.5844382e-08 1.0953869e-05
0.096328847 0.05423842 -0.44410464 -1 9.0785733e-07 -6.6388122e-05 1.0526027e-05
-0.096328847 0.065246791 -0.44565859 1 1.0475011e-05 -6.2775791e-05 1.6724407e-05
0.096328847 0.066141114 -0.44549936 -1 1.3133576e-05 -9.0020512e-05 1.6383199e-05
-0.096328847 0.074308693 -0.44635376 1 -1.3216188e-06 -9.2359987e-05 1.0766867e-05
0.096328847 0.07518284 -0.44477168 -1 1.0713321e-05 -5.783571e-05 1.0473797e-05
-0.096328847 0.08463829 -0.44725096 1 5.5806095e-06 -3.3419521e-05 1.6858154e-05
0.096328847 0.085469082 -0.44505695 -1 2.3368837e-06 -6.8539994e-05 1.0598477e-05
-0.096328847 0.095816016 -0.44556522 1 4.7329122e-06 -4.5955872e-05 1.619163e-05
0.096328847 0.094521172 -0.44556856 -1 1.5147236e-05 -7.4018557e-05 1.5978363e-05
-0.096328847 0.10362115 -0.44477633 1 1.757274e-05 -3.7419071e-05 1.3310492e-05
0.096328847 0.10494248 -0.44395095 -1 8.0745176e-06 -7.0948998e-05 1.6432998e-05
-0.096328847 0.11453807 -0.44562113 0.9987886 -0.049201433 -0.00079307001 0.0062240777
0.096328847 0.11560333 -0.44567138 -0.99444157 -0.10525904 -0.002542695 0.015055036
-0.096328847 0.12480386 -0.44532409 0.96164227 -0.27389893 -0.014950732 0.058016576
0.096328847 0.12440133 -0.44413793 -0.95889765 -0.28125459 0.037566207 0.060043786
-0.096328847 0.13418967 -0.44479468 0.89121687 -0.45030743 0.054365881 0.069917366
0.096328847 0.13472018 -0.44474253 -0.88848382 -0.45848635 0.019669304 0.079436876
-0.094099931 0.1415185 -0.44378337 0.7063182 -0.70452476 0.068988226 0.095301256
-0.085737571 0.14180185 -0.44509393 0.39013422 -0.92075491 -0.0023532121 0.080264285
-0.075505905 0.14180185 -0.44402996 0.17600173 -0.98436046 0.0076122452 0.03550994
-0.064916246 0.14180185 -0.44551533 0.0013591914 -0.99999911 -3.6073347e-05 1.6250198e-05
-0.055976357 0.14180185 -0.44536087 4.4762101e-06 -1 3.2421829e-07 4.3978675e-06
-0.046412963 0.14180185 -0.4455598 2.155085e-06 -1 -7.6208111e-05 1.3135224e-05
-0.034522735 0.14180185 -0.44362536 -7.1334688e-07 -1 -3.5049005e-05 0
-0.02509346 0.14180185 -0.44570717 1.0616423e-06 -1 -4.028013e-09 4.5102502e-06
-0.015850656 0.14180185 -0.44508287 -4.2894417e-06 -1 -3.891989e-05 1.4853636e-05
-0.0057916422 0.14180183 -0.44498304 -5.3318354e-07 -1 -3.3795593e-05 1.2776086e-05
0.0048262672 0.14180185 -0.44438717 4.9350734e-07 -1 -3.5016245e-05 4.0397445e-06
0.015539014 0.14180185 -0.44427985 4.025851e-07 -1 -3.7442489e-05 1.3069917e-05
0.024464708 0.14180185 -0.44502836 -5.0672161e-06 -1 7.5451135e-05 0
0.034498923 0.14180183 -0.44475812 -1.9683974e-07 -1 3.5432957e-05 1.2795924e-05
0.044934664 0.14180185 -0.44428495 -5.5836772e-06 -1 4.2534368e-05 9.3933659e-06
0.056466091 0.14180185 -0.44403407 4.5662391e-06 -1 5.1484199e-07 4.5444617e-06
0.065316953 0.14180185 -0.4444204 -0.0031463483 -0.99999505 -7.9934733e-05 2.7224036e-05
0.075732581 0.14180185 -0.44597131 -0.19982193 -0.97982913 -0.0024584839 0.043560088
0.085349455 0.14180185 -0.44539601 -0.38414669 -0.92288238 -0.026818803 0.073312946
0.0940696 0.14140326 -0.44657955 -0.69353449 -0.71708918 -0.069231145 0.091320165
-0.092745528 -0.1414718 -0.43586233 0.65576309 0.75489521 -0.010389819 0.10123166
-0.08519312 -0.14180183 -0.43400791 0.49238056 0.87036806 0.0045662238 0.08002717
-0.074482366 -0.14180185 -0.43478501 0.16896886 0.98543489 0.01917219 0.036585137
-0.064403571 -0.14180183 -0.43471512 0.0015257776 0.99999887 5.938733e-05 1.6046004e-05
-0.054697402 -0.14180185 -0.43502522 -4.912285e-06 1 -2.0124107e-05 1.8436334e-05
-0.04629346 -0.14180185 -0.43482018 -5.4185875e-06 1 -5.295773e-05 4.3930536e-06
-0.033577871 -0.14180183 -0.43667904 1.9045743e-06 1 -6.4760505e-05 8.2099286e-06
-0.024961127 -0.14180185 -0.43534049 -6.6248367e-06 1 -3.5138033e-05 1.3320376e-05
-0.014798663 -0.14180185 -0.4354012 -1.0902215e-06 1 -1.6772217e-05 8.9616542e-06
-0.0055170259 -0.14180185 -0.43522137 -8.6337587e-07 1 1.7946024e-05 0
0.0052414052 -0.14180185 -0.43330929 -9.2189055e-07 1 -2.9080727e-05 7.9122428e-06
0.01668535 -0.14180185 -0.43656686 9.73967e-08 1 -1.7178278e-05 8.4108106e-06
0.023038549 -0.14180183 -0.43558744 2.682651e-06 1 -5.7849637e-05 8.1298858e-06
0.034452219 -0.14180185 -0.43531767 -1.8293534e-06 1 -8.3244345e-08 8.2377337e-06
0.044993874 -0.14180185 -0.43465862 -2.1554472e-06 1 3.3230564e-05 0
0.054490797 -0.14180185 -0.43375969 -4.9278201e-06 1 -1.9041492e-07 1.3045609e-05
0.064165026 -0.14180185 -0.43454286 -0.00043892019 0.99999994 3.3722532e-05 0
0.074178174 -0.14180185 -0.43536997 -0.13372216 0.99098396 0.0083076013 0.030158853
0.084936634 -0.14180185 -0.43601629 -0.42736703 0.90395516 -0.014919704 0.077136144
0.093186572 -0.14169009 -0.43537304 -0.66523677 0.74338061 0.069609001 0.10507318
-0.096328847 -0.13458401 -0.43599615 0.91876215 0.39465532 0.01110336 0.075712383
0.096328847 -0.13480212 -0.43478087 -0.90188384 0.43197003 0.0027216764 0.072060578
-0.096328847 -0.1260094 -0.43483937 0.94356453 0.33117008 0.0035177413 0.059133653
0.096328847 -0.12468857 -0.43425509 -0.95387191 0.30017075 0.0050835679 0.061924655
-0.096328847 -0.11427689 -0.43520436 0.99839765 0.056224458 -0.0063962736 0.0077413665
0.096328847 -0.11432238 -0.4354018 -0.99802423 0.062830165 9.2774651e-05 0.0082054287
-0.096328847 -0.10469928 -0.43464756 1 -5.8187043e-06 -6.5182641e-05 1.7001505e-05
0.096328847 -0.10480745 -0.43438905 -1 -3.4401032e-06 -5.3964937e-05 1.6701913e-05
-0.096328847 -0.095672578 -0.43587399 1 -4.2041675e-06 -3.5127166e-05 1.377179e-05
0.096328847 -0.093959823 -0.43341902 -1 -2.0702722e-05 -9.1278387e-05 1.0931001e-05
-0.096328847 -0.084780663 -0.43357381 1 -1.6776672e-05 -3.5857589e-05 1.0809046e-05
0.096328847 -0.083283886 -0.43524718 -1 1.5417138e-05 -8.4266743e-05 1.3857636e-05
-0.096328847 -0.074466243 -0.43455341 1 -1.3500554e-06 -5.9346847e-05 1.3340159e-05
0.096328847 -0.075518392 -0.43345451 -1 5.4772926e-07 -8.7981796e-05 1.6984295e-05
-0.096328847 -0.063549459 -0.43479243 1 -7.2908983e-07 -7.8376346e-05 1.65766e-05
0.096328847 -0.065227553 -0.43531793 -1 -8.9727955e-06 -0.00012586568 1.671254e-05
-0.096328847 -0.054250751 -0.43287373 1 -4.9214314e-06 -5.496003e-05 1.0848018e-05
0.096328847 -0.05617531 -0.43448767 -1 -1.3124683e-06 -9.6605254e-05 1.3431399e-05
-0.096328847 -0.045376588 -0.43600127 1 -3.0279198e-06 -6.7217828e-05 1.6199043e-05
0.096328847 -0.044636484 -0.43390265 -1 -1.1176409e-05 -5.4842596e-05 1.3323825e-05
-0.096328847 -0.035870556 -0.43511939 1 1.0349154e-06 -6.6850254e-05 1.0618592e-05
0.096328847 -0.035337456 -0.43571314 -1 -7.3294968e-06 -3.6034202e-05 1.0650286e-05
-0.096328847 -0.025132153 -0.43564555 1 -5.4746451e-06 -3.4199831e-05 1.6087704e-05
-0.020711079 -0.020224608 -0.43212634 0.83360815 0.54988408 0.052201353 0.086951084
-0.015187317 -0.024965808 -0.43355525 0.50763512 0.86128378 0.022289593 0.090239033
-0.0049544084 -0.028417176 -0.43480781 0.037913423 0.99915659 0.015770398 0.051085737
0.0050518448 -0.026121322 -0.43549719 -0.36433601 0.93123353 -0.0079619037 0.070928492
0.011670012 -0.021325298 -0.43401498 -0.77502835 0.63159704 0.020403 0.079381332
0.096328847 -0.025223963 -0.4338294 -1 -5.6329623e-06 -6.078041e-05 1.7021615e-05
-0.096328847 -0.014017748 -0.43456429 1 -1.2026727e-05 -8.8932225e-05 1.3256353e-05
-0.023624904 -0.014515002 -0.4353075 0.97613949 0.21249004 -0.044717811 0.071987584
0.014638993 -0.016487084 -0.43483216 -0.94273901 0.33266899 0.02397104 0.069096215
0.096328847 -0.015377573 -0.43646705 -1 -2.1181015e-06 -4.9215891e-05 1.7192426e-05
-0.096328847 -0.0042089899 -0.4354285 1 2.1192363e-06 -7.6603479e-05 1.6704013e-05
-0.024514318 -0.004922288 -0.43554798 0.97654176 -0.21530092 -0.0034236666 0.057747964
0.016332539 -0.0048687565 -0.43471205 -0.97267723 -0.2304607 0.02805219 0.065810375
0.096328847 -0.0042184982 -0.43618718 -1 -5.3161048e-06 -7.9549311e-05 1.7260245e-05
-0.096328847 0.0039534457 -0.43426993 1 4.5974068e-07 -6.3636508e-05 1.6118614e-05
-0.022261651 0.0022875781 -0.43438452 0.91748708 -0.39676955 -0.02813076 0.084960587
-0.017644875 0.0078777438 -0.43513426 -0.64124876 0.76517767 0.057472259 0.087773472
0.007816961 0.009269719 -0.43829149 0.53469414 0.84345162 0.051880285 0.069250658
0.012874943 0.0040268409 -0.43556929 -0.82685924 -0.56215084 -0.017034825 0.082875937
0.096328847 0.0037250714 -0.43459699 -1 2.1068925e-06 -4.3294342e-05 1.380399e-05
-0.096328847 0.014245509 -0.43473759 1 2.9344853e-06 -1.6733784e-05 1.0780576e-05
-0.013288053 0.010896916 -0.43236953 0.35496101 -0.93469077 0.018862572 0.076108962
-0.0046541998 0.012863562 -0.43346328 0.019910149 -0.9987247 0.046397276 0.074852034
0.0037095107 0.011460553 -0.4342753 -0.21376185 -0.97620738 0.036401119 0.061243989
0.096328847 0.015482622 -0.43490773 -1 2.0226457e-06 -7.0528484e-05 1.0752206e-05
-0.096328847 0.024247004 -0.4338094 1 1.5229915e-06 -6.1391438e-05 1.6649063e-05
0.096328847 0.024759062 -0.43405023 -1 1.6408434e-05 -6.9917231e-05 1.0813305e-05
-0.096328847 0.03387513 -0.43459898 1 5.5045948e-06 -5.1966814e-05 1.5631989e-05
0.096328847 0.034471657 -0.43520746 -1 3.8965813e-06 -3.1663614e-05 1.6840033e-05
-0.096328847 0.045711979 -0.43458748 1 7.0159399e-06 -3.1382235e-05 1.5987389e-05
0.096328847 0.044813864 -0.43558556 -1 -2.5025256e-06 -6.3506799e-05 1.6646427e-05
-0.096328847 0.056657661 -0.43375877 1 9.0682661e-06 1.8327601e-05 1.0618052e-05
0.096328847 0.056026995 -0.43495947 -1 8.9089281e-06 -7.0647424e-05 1.6519843e-05
-0.096328847 0.065461956 -0.43426549 1 8.8238075e-06 1.0270066e-06 1.1447265e-05
0.096328847 0.063654386 -0.4344137 -1 4.8851202e-06 -8.7864442e-05 1.6655304e-05
-0.096328847 0.07293801 -0.43402737 1 6.5436307e-06 -1.7694991e-05 1.0676556e-05
0.096328847 0.075160958 -0.43292257 -1 1.0468802e-05 -3.0171173e-05 1.0858063e-05
-0.096328847 0.08517316 -0.43450239 1 1.0086845e-05 -3.4279718e-05 1.6293388e-05
0.096328847 0.084584303 -0.43449134 -1 1.3301462e-05 -5.0765153e-05 1.0763298e-05
-0.096328847 0.095377021 -0.43479604 1 1.3893895e-05 -0.00011560714 1.6309141e-05
0.096328847 0.094668277 -0.43455741 -1 7.9146866e-06 -5.0712333e-05 1.0645366e-05
-0.096328847 0.10458454 -0.43393546 1 1.1942187e-05 -3.139456e-05 1.0885236e-05
0.096328847 0.10571977 -0.43372384 -1 2.6711068e-05 -6.4069041e-05 1.5981192e-05
-0.096328847 0.11468036 -0.43519518 0.99868882 -0.051180497 0.0010734611 0.0068141422
0.096328847 0.11527561 -0.43538719 -0.99829757 -0.058253445 -0.0029173538 0.0069891606
-0.096328847 0.12522654 -0.43474364 0.96166402 -0.27402189 -0.010692751 0.063398957
0.096328847 0.12439809 -0.43538761 -0.96397048 -0.26487586 -0.024528807 0.053769384
-0.096328847 0.13522521 -0.43577865 0.85746145 -0.51454288 0.0023436386 0.080948241
0.096328847 0.13519044 -0.43584216 -0.88292831 -0.46950743 0.00064356474 0.080576025
-0.093759134 0.14172947 -0.43401021 0.70446908 -0.70845747 0.042559564 0.093546927
-0.085638195 0.14180183 -0.43530056 0.47936982 -0.87725401 -0.025098789 0.083977804
-0.076541565 0.14180185 -0.43372798 0.17881675 -0.98377484 0.014550398 0.03727331
-0.064705715 0.14180185 -0.4353959 0.00035420319 -0.99999994 -9.827354e-06 8.4917265e-06
-0.054911099 0.14180185 -0.43545395 2.383332e-06 -1 1.363338e-08 4.4632061e-06
-0.046619397 0.14180185 -0.4355894 1.1305306e-06 -1 1.7385946e-05 0
-0.034509018 0.14180185 -0.43511519 -1.8787617e-06 -1 -1.9270195e-05 0
-0.024455557 0.14180185 -0.4344421 -3.149737e-06 -1 1.708078e-05 0
-0.01659801 0.14180185 -0.43419728 7.3080145e-07 -1 -1.7877977e-05 4.6198661e-06
-0.005951969 0.14180183 -0.43524674 -7.1640193e-07 -1 -5.2277148e-05 8.0074969e-06
0.0037330834 0.14180183 -0.43552512 1.8015644e-06 -1 1.6071172e-05 4.1781718e-06
0.014630324 0.14180185 -0.43517897 2.3489177e-07 -1 3.4267297e-05 4.3086388e-06
0.024339538 0.14180183 -0.4353143 4.4331396e-06 -1 -6.5229717e-05 1.3262395e-05
0.035167005 0.14180185 -0.43401334 -6.4931238e-09 -1 3.282159e-05 4.4455005e-06
0.044364065 0.14180185 -0.43606672 -4.2106217e-07 -1 1.7706605e-05 0
0.055016749 0.14180185 -0.4361352 4.1350461e-07 -1 1.5430091e-05 0
0.065513045 0.14180183 -0.43651482 -0.0012224074 -0.99999923 -4.8938651e-05 1.1945786e-05
0.074550368 0.14180183 -0.4359934 -0.19725399 -0.97994822 -0.028147761 0.038866621
0.085892372 0.14180185 -0.43574569 -0.51113391 -0.85901815 0.028808953 0.088271134
0.093529738 0.14154834 -0.43500784 -0.63824022 -0.76959205 0.01943207 0.1029801
-0.092901736 -0.14176968 -0.42381272 0.63138723 0.77486485 0.030571928 0.089363508
-0.084235787 -0.14180183 -0.42458016 0.38379872 0.92334187 0.011760565 0.083191693
-0.075777583 -0.14180185 -0.42441583 0.19089551 0.98158437 0.0071442816 0.038095325
-0.063034512 -0.14180185 -0.42453638 0.00015722301 1 9.1164155e-05 4.2878173e-06
-0.05448062 -0.14180185 -0.4244549 4.151666e-06 1 -6.0360886e-05 8.1658536e-06
-0.045261532 -0.14180185 -0.42510679 7.0525793e-06 1 -3.3027452e-05 0
-0.03515882 -0.14180185 -0.42660934 4.341735e-07 1 -1.8057515e-05 4.4690205e-06
-0.025317099 -0.14180185 -0.42565054 -0 1 -0 4.4024691e-06
-0.014746436 -0.14180185 -0.42422861 -1.4623303e-06 1 1.7498734e-05 0
-0.006276601 -0.14180185 -0.42587599 7.3825299e-07 1 -1.7293833e-05 0
0.006905661 -0.14180185 -0.42405286 -2.5800002e-06 1 -1.7328199e-05 8.1919125e-06
0.01464627 -0.14180183 -0.4240883 1.347307e-08 1 1.8449442e-05 1.3619324e-05
0.0243451 -0.14180183 -0.42583504 1.2386907e-06 1 3.0933119e-05 4.4372396e-06
0.034886226 -0.14180185 -0.42481473 -1.0015792e-06 1 -1.9170931e-05 4.1227245e-06
0.04470323 -0.14180183 -0.42495677 1.6600759e-05 1 -4.735629e-05 4.4595949e-06
0.054579664 -0.14180185 -0.42542478 1.9046042e-06 1 -5.2758824e-05 1.3145775e-05
0.064090118 -0.14180183 -0.42376125 -0.00071226456 0.9999997 -5.9057511e-05 2.0254614e-05
0.075690098 -0.14180185 -0.42619222 -0.2002828 0.97970277 -0.0083236862 0.043703377
0.085463479 -0.14180183 -0.42486778 -0.4402028 0.89779693 0.013495365 0.081401385
0.093941033 -0.14163265 -0.42423296 -0.73115385 0.68064886 0.046164736 0.10071465
-0.096328847 -0.13625897 -0.42606243 0.86176586 0.5073005 0.0023859488 0.073075138
0.096328847 -0.13453262 -0.42530733 -0.89675772 0.44142064 0.031199235 0.074156262
-0.096328847 -0.12562175 -0.42533851 0.95657521 0.29141945 0.0062184753 0.055704117
0.096328847 -0.12316546 -0.42488194 -0.97642261 0.21506761 -0.018567516 0.04590857
-0.096328847 -0.11569089 -0.42658192 0.99499851 0.099704899 -0.0060801511 0.013675365
0.096328847 -0.11386642 -0.42512405 -0.99849588 0.054684497 0.0039588725 0.007004892
-0.096328847 -0.10676107 -0.42588517 1 -3.8171988e-06 -3.5822577e-05 1.6219483e-05
0.096328847 -0.10509194 -0.42611188 -1 -1.5109738e-05 -6.5985252e-05 1.0938592e-05
-0.096328847 -0.095937319 -0.42522752 1 -7.8082921e-06 -4.9721497e-05 1.0850338e-05
0.096328847 -0.0941061 -0.42509964 -1 -1.9968951e-05 -8.5330794e-05 1.59108e-05
-0.096328847 -0.085633636 -0.42709428 1 -2.4486551e-06 -5.4814038e-05 1.0726599e-05
0.096328847 -0.085327186 -0.42563966 -1 -1.291912e-05 -6.0806888e-05 1.0882013e-05
-0.096328847 -0.075520113 -0.42611092 1 -2.8512554e-06 -3.0282061e-05 1.060165e-05
0.096328847 -0.074714676 -0.42600381 -1 -9.6720687e-06 -3.1194668e-05 1.6824468e-05
-0.096328847 -0.064946845 -0.42472154 1 -1.0427544e-05 -8.1504375e-05 1.3248314e-05
0.096328847 -0.066157192 -0.42491603 -1 -9.2227665e-06 -6.5232685e-05 1.6250609e-05
-0.096328847 -0.055796403 -0.42520553 1 3.7694797e-06 -7.0205337e-05 1.3348116e-05
0.096328847 -0.056154206 -0.42436713 -1 -7.5772386e-06 -2.8266422e-05 1.6854272e-05
-0.096328847 -0.044291951 -0.42404935 1 -8.4331723e-06 -3.6547633e-05 1.3576928e-05
0.096328847 -0.045203205 -0.42662072 -1 -2.4694111e-06 -7.9576137e-05 1.6645172e-05
-0.096328847 -0.034973614 -0.42316139 1 -0 -0 1.3435291e-05
0.096328847 -0.034351274 -0.42677772 -1 1.9337094e-06 -5.5197888e-05 1.3553566e-05
-0.096328847 -0.025610805 -0.42459247 1 -1.1368378e-06 -3.317036e-05 1.0493041e-05
-0.020424612 -0.020597948 -0.42797148 0.82803309 0.56053561 0.012693723 0.092626072
-0.015094014 -0.025066322 -0.42579666 0.50022703 0.86575168 -0.015714237 0.094653532
-0.0047482611 -0.028314041 -0.42509773 0.043841846 0.99873722 -0.024533818 0.050601359
0.005466525 -0.026068037 -0.42581725 -0.32139266 0.94603437 -0.041540988 0.074275076
0.011134338 -0.021945817 -0.42668137 -0.76912779 0.63802326 -0.036997203 0.075220652
0.096328847 -0.024077581 -0.4243488 -1 -3.8159874e-06 -4.1751293e-05 1.7176426e-05
-0.096328847 -0.016188016 -0.42524686 1 -4.6281057e-06 -3.4800847e-05 1.084108e-05
-0.023462659 -0.014889845 -0.42360854 0.98950779 0.13749695 0.044372745 0.070087992
0.015173333 -0.015157707 -0.42415702 -0.97361213 0.22061922 0.05836698 0.06790553
0.096328847 -0.014702108 -0.42486966 -1 -4.3456993e-07 -4.4790759e-05 1.0807431e-05
-0.096328847 -0.0044387002 -0.42456391 1 -1.0619985e-06 -5.1978466e-05 1.0928095e-05
-0.02446948 -0.0049453331 -0.42472133 0.97967994 -0.2001767 -0.012510174 0.060785588
0.016276902 -0.0046208124 -0.42396691 -0.98143768 -0.1905199 0.021963619 0.067834079
0.096328847 -0.0047500934 -0.42453995 -1 -2.2728189e-07 -5.3741314e-05 1.6540684e-05
-0.096328847 0.0055922675 -0.42690051 1 -9.0748307e-07 -5.3224619e-05 1.6824588e-05
-0.022164527 0.002392241 -0.42494878 0.89609504 -0.44382676 -0.0056088036 0.098981939
-0.017019549 0.0084762285 -0.42580676 -0.64341706 0.76385367 0.050418958 0.10386485
0.0077587054 0.0093144178 -0.42545852 -0.53530121 -0.84464532 -0.0051807379 0.082087927
0.012672953 0.0043530324 -0.42510918 -0.7922681 -0.6101597 -0.0040507992 0.088450678
0.096328847 0.00436011 -0.42341119 -1 3.2214205e-06 -7.2953924e-05 1.6112046e-05
-0.096328847 0.014397635 -0.42429969 1 1.6694781e-06 -1.5681899e-05 1.6749003e-05
-0.01274416 0.011109005 -0.42381749 0.33670431 -0.94144553 0.01762145 0.066079408
-0.0050326451 0.012926407 -0.42613608 0.016158462 -0.99957472 -0.024273781 0.07629136
0.0051544318 0.01082914 -0.42439753 -0.38626164 -0.92222726 0.017285571 0.083969072
0.096328847 0.015618792 -0.42638788 -1 5.9905956e-06 -6.4469699e-05 1.6584663e-05
-0.096328847 0.025035696 -0.42448089 1 3.1905552e-06 -2.0362505e-08 1.0747834e-05
0.096328847 0.025035156 -0.42589608 -1 3.352287e-06 -8.8139815e-05 1.6328398e-05
-0.096328847 0.0345251 -0.4250429 1 2.66862e-06 -8.1017963e-05 1.066983e-05
0.096328847 0.035589304 -0.42487067 -1 4.6228088e-06 -6.9602538e-05 1.6747324e-05
-0.096328847 0.04481589 -0.42535144 1 4.847424e-06 -1.7332666e-05 1.675788e-05
0.096328847 0.044967301 -0.42475396 -1 7.3004321e-06 -5.8563903e-05 1.3519547e-05
-0.096328847 0.055647943 -0.42488143 1 4.44225e-06 -1.5224902e-05 1.6514945e-05
0.096328847 0.054350771 -0.42426571 -1 6.462858e-06 -4.9211983e-05 1.5561978e-05
-0.096328847 0.063809082 -0.42473197 1 4.5771668e-07 1.9721125e-05 1.1638744e-05
0.096328847 0.064971544 -0.42406955 -1 8.050366e-06 -1.9175555e-05 1.3359501e-05
-0.096328847 0.073858947 -0.42579713 1 3.1143998e-06 -5.9131471e-05 1.3235959e-05
0.096328847 0.076151803 -0.42554501 -1 1.0782322e-05 -6.2713923e-05 1.1809158e-05
-0.096328847 0.084231563 -0.42504674 1 1.8331464e-05 -6.8693305e-05 1.6484844e-05
0.096328847 0.083814859 -0.42533872 -1 1.3633306e-05 -4.8492209e-05 1.6245078e-05
-0.096328847 0.095416702 -0.42493924 1 1.3902563e-05 -3.4245175e-05 1.3377713e-05
0.096328847 0.096477136 -0.42505351 -1 1.4762788e-05 -3.0789466e-05 1.6064336e-05
-0.096328847 0.10556873 -0.42512083 1 1.5254562e-05 -1.8807068e-05 1.1665365e-05
0.096328847 0.10426021 -0.42452654 -1 9.7610864e-06 -6.595283e-05 1.6169026e-05
-0.096328847 0.11569992 -0.42516303 0.99602336 -0.086849429 0.01986702 0.013354823
0.096328847 0.11575491 -0.42441466 -0.99816406 -0.060502753 0.0028114545 0.0074511357
-0.096328847 0.12461435 -0.42505762 0.95937091 -0.28198841 -0.0094973221 0.058385007
0.096328847 0.12539817 -0.42373082 -0.95782638 -0.28713554 0.011034635 0.057442646
-0.096328847 0.13536678 -0.4261364 0.89424556 -0.44591224 -0.03856295 0.074408568
0.096328847 0.13397168 -0.42548266 -0.92866915 -0.37036264 -0.020129129 0.073829763
-0.093805246 0.14149791 -0.42427343 0.64252007 -0.76603407 0.018965753 0.10417384
-0.084991165 0.14180183 -0.42633334 0.42346263 -0.90573817 -0.017825549 0.073274791
-0.07446254 0.14180185 -0.42458007 0.16843624 -0.98563576 0.012299055 0.035860401
-0.064647853 0.14180185 -0.42342117 0.0014389895 -0.99999899 0.00010798701 1.6146392e-05
-0.053858016 0.14180185 -0.42447442 -4.0263799e-06 -1 1.7001443e-05 4.262864e-06
-0.043991085 0.14180185 -0.42608637 5.5286368e-06 -1 3.2749522e-05 0
-0.033516314 0.14180185 -0.42427158 -8.7796707e-06 -1 -3.7471706e-05 8.5350257e-06
-0.025038118 0.14180185 -0.42588869 4.6097884e-06 -1 1.7056876e-05 4.3970326e-06
-0.01672269 0.14180185 -0.42505112 -1.0897122e-06 -1 4.2167367e-09 0
-0.0057829819 0.14180185 -0.4254925 -7.9368092e-06 -1 -7.3339434e-05 1.3609435e-05
0.0053947978 0.14180185 -0.4238641 2.2066105e-07 -1 -1.6786826e-05 4.2474558e-06
0.014299011 0.14180185 -0.42459926 -3.4870611e-06 -1 6.836423e-09 0
0.027601946 0.14180183 -0.42600051 5.8610308e-06 -1 -7.5224474e-05 4.2141346e-06
0.034753241 0.14180185 -0.4260211 3.5821993e-06 -1 -0.0001040576 1.2852152e-05
0.045619778 0.14180185 -0.42477158 -2.1257506e-06 -1 -1.3695654e-08 4.2722368e-06
0.056163549 0.14180185 -0.42601711 0 -1 0 0
0.06496872 0.14180185 -0.42423496 -0.00081574387 -0.9999997 2.0185882e-05 1.6523692e-05
0.074972861 0.14180185 -0.42571962 -0.17911524 -0.9838196 -0.0041034375 0.036142483
0.085138179 0.14180185 -0.42619288 -0.37074342 -0.92748964 -0.048085786 0.069945559
0.09347938 0.14162631 -0.42565584 -0.70203388 -0.71075112 -0.04451267 0.094900683
-0.094141364 -0.1417111 -0.41356352 0.70131022 0.70917702 0.072331466 0.082474045
-0.084371597 -0.14180185 -0.41511142 0.36401075 0.93105978 0.024974892 0.075639971
-0.076937921 -0.14180185 -0.41352618 0.19693296 0.98027033 0.016955195 0.041498415
-0.065138012 -0.14180185 -0.41396073 0.0004998676 0.99999988 1.9773013e-05 1.641119e-05
-0.055809189 -0.14180185 -0.41647625 1.6876739e-06 1 -1.7921075e-05 0
-0.043913782 -0.14180185 -0.41524839 -8.8170855e-06 1 3.0179412e-05 0
-0.034722123 -0.14180185 -0.41439644 -2.3839327e-06 1 -1.6641974e-05 4.2730794e-06
-0.026350889 -0.14180185 -0.41457975 1.18743e-06 1 -4.6741643e-05 0
-0.016554777 -0.14180185 -0.41504109 4.1443687e-07 1 3.5939862e-05 0
-0.0051690312 -0.14180185 -0.41573179 -0 1 -0 1.3226397e-05
0.0050736382 -0.14180183 -0.41476992 -1.7246145e-07 1 3.4285553e-05 1.2882912e-05
0.013696131 -0.14180185 -0.41480684 -4.6102525e-07 1 -3.9107268e-05 1.2824286e-05
0.026021507 -0.14180185 -0.41637942 8.1307121e-07 1 -1.9171155e-05 4.5445408e-06
0.034088261 -0.14180185 -0.41620147 -5.4096868e-06 1 1.6811257e-05 0
0.045596339 -0.14180185 -0.41645011 -4.7997514e-08 1 1.4122808e-05 0
0.05331903 -0.14180185 -0.41432658 -2.7719236e-06 1 -5.0433286e-05 1.2678019e-05
0.06346944 -0.14180185 -0.41603562 -6.6986679e-08 1 -3.5259225e-05 7.9351057e-06
0.076256022 -0.14180185 -0.41429979 -0.20688581 0.97835183 -0.0051014512 0.041807443
0.086157642 -0.14180185 -0.41622105 -0.46170491 0.88702595 0.0036857307 0.077551283
0.093907267 -0.14153244 -0.41478246 -0.80599201 0.58968526 0.051460739 0.08242593
-0.096328847 -0.13444431 -0.41455445 0.91103792 0.40965515 0.046826202 0.062369395
0.096328847 -0.13367021 -0.4154588 -0.89814568 0.43531093 -0.061957877 0.072280034
-0.096328847 -0.12426163 -0.41476572 0.96641719 0.25697026 0.0020262955 0.056167398
0.096328847 -0.12424396 -0.4173117 -0.97375733 0.2274275 0.008565288 0.044872757
-0.096328847 -0.11600608 -0.41709894 0.99588889 0.089412831 0.014510077 0.013981377
0.096328847 -0.11412218 -0.41516525 -0.99882275 0.04825455 0.0049524605 0.0061137271
-0.096328847 -0.10425738 -0.41585869 1 -8.3636296e-06 -3.4923305e-05 1.0783445e-05
0.096328847 -0.10576369 -0.41304055 -1 -1.469263e-05 1.3065541e-06 1.7183815e-05
-0.096328847 -0.094610788 -0.41499752 1 -2.9493997e-06 -8.6128566e-05 1.0624158e-05
0.09632884 -0.096348599 -0.41590875 -1 -5.4667394e-06 -4.9499748e-05 1.6591173e-05
-0.096328847 -0.085840128 -0.41483459 1 -1.2196216e-05 -6.1448874e-05 1.0610986e-05
0.096328847 -0.084247001 -0.4149237 -1 -1.3612108e-05 -6.8753019e-05 1.5934045e-05
-0.096328847 -0.07544899 -0.41507825 1 -1.0051313e-05 -5.3330623e-05 1.0859192e-05
0.096328847 -0.073581994 -0.41431239 -1 -5.344169e-06 -3.3826407e-05 1.3841778e-05
-0.096328847 -0.06455677 -0.4157843 1 -3.7432523e-07 -4.7866033e-05 1.6747754e-05
0.096328847 -0.065916315 -0.41567424 -1 -5.2312012e-06 -3.4567827e-05 1.0919919e-05
-0.096328847 -0.054040425 -0.41453543 1 -5.1990473e-06 -5.2811494e-05 1.0981411e-05
0.096328847 -0.055213358 -0.41503087 -1 -9.334839e-06 -2.0832285e-05 1.0847542e-05
-0.096328847 -0.045345403 -0.41469294 1 -2.7309572e-06 -3.3589669e-05 1.3550388e-05
0.096328847 -0.043500531 -0.41566935 -1 -5.7134698e-06 -6.4397311e-05 1.6000324e-05
-0.096328847 -0.036197294 -0.41457748 1 -7.8731546e-07 -1.758838e-05 1.0804054e-05
0.096328847 -0.0349712 -0.41466555 -1 -3.4877155e-06 -5.1990948e-05 1.0711447e-05
-0.096328847 -0.024459267 -0.41462231 1 -4.6221116e-06 -3.3965411e-05 1.5610205e-05
-0.020642359 -0.020314168 -0.41826025 0.82638764 0.56300348 -0.01051784 0.093231328
-0.01646037 -0.024343463 -0.41371268 0.60405052 0.79630566 0.031941254 0.09824013
-0.0051613105 -0.028408993 -0.41620126 0.03609053 0.9992137 0.016417595 0.048552934
0.0054795747 -0.02589098 -0.41503552 -0.31409976 0.94866747 0.037031077 0.062775359
0.011829474 -0.021137275 -0.41361299 -0.75464678 0.65489101 0.040324256 0.086001255
0.096328847 -0.025726162 -0.41571587 -1 -2.4690416e-06 -7.1350005e-05 1.6615048e-05
-0.096328847 -0.013882817 -0.41614696 1 -5.4869415e-06 -0.00010788025 1.6761289e-05
-0.023249207 -0.015571895 -0.41406024 0.96626133 0.2573601 0.010239026 0.066812702
0.014910308 -0.015578179 -0.41405952 -0.98468947 0.17014244 0.037922423 0.070055291
0.096328847 -0.014820767 -0.41673931 -1 -4.3557498e-06 -3.1227708e-05 1.6693471e-05
-0.096328847 -0.0049138679 -0.4147211 1 -6.0398838e-07 -1.7403361e-05 1.0932678e-05
-0.024265746 -0.0038426567 -0.41541848 0.97533548 -0.22028923 -0.013906912 0.058941092
0.016141346 -0.0038811911 -0.41529432 -0.97318196 -0.22893837 -0.022448914 0.063650116
0.096328847 -0.0055986671 -0.41533464 -1 -8.8630929e-07 -5.1261519e-05 1.0632157e-05
-0.096328847 0.0047768522 -0.41498658 1 9.1664162e-07 -1.8327763e-05 1.6937465e-05
-0.022057449 0.0026352413 -0.41525134 0.86619049 -0.49958697 -0.011262545 0.081661053
-0.018258767 0.0074862614 -0.41367698 0.68482035 -0.72846413 0.01900088 0.088002309
0.0085428506 0.0087127509 -0.41491255 0.52473241 0.850748 0.029728498 0.076521941
0.012793437 0.0041040797 -0.41566396 -0.83376491 -0.55131567 -0.029783281 0.077771775
0.096328847 0.0039017224 -0.41717604 -1 1.5062809e-06 -4.4931599e-05 1.5504504e-05
-0.096328847 0.014753529 -0.41448817 1 1.2120579e-06 -2.0904619e-05 1.1149549e-05
-0.012553114 0.011202156 -0.4142541 0.36801857 -0.92909962 0.036553942 0.07473629
-0.0048990566 0.012900922 -0.41458949 0.023993539 -0.99964035 0.011975086 0.074680045
0.0031122428 0.011684701 -0.4154776 -0.2768634 -0.96087879 -0.007652476 0.074754626
0.096328847 0.015784079 -0.41347489 -1 -4.1200706e-06 -8.2851853e-05 1.0815019e-05
-0.096328847 0.024863768 -0.41350541 1 3.6236042e-06 -5.3062264e-05 1.0808059e-05
0.096328847 0.026370335 -0.41567862 -1 7.5979469e-06 -8.2196224e-05 1.6625407e-05
-0.096328847 0.03400065 -0.41490266 1 4.3541554e-06 -3.1929696e-05 1.6607151e-05
0.096328847 0.035269145 -0.41564319 -1 8.6390253e-07 -4.8797432e-05 1.3408432e-05
-0.096328847 0.044120893 -0.41449842 1 1.1649911e-06 -9.1645168e-05 1.6766662e-05
0.096328847 0.045207854 -0.41547853 -1 4.4363965e-06 -5.1330611e-05 1.081764e-05
-0.096328847 0.055301081 -0.41392893 1 7.4431223e-06 -1.6954033e-05 1.3533954e-05
0.09632884 0.054689292 -0.41495904 -1 5.2685868e-06 -3.4506331e-05 1.0712473e-05
-0.096328847 0.065107256 -0.41536418 1 1.0536597e-05 -4.0232997e-05 1.3821709e-05
0.096328847 0.065516144 -0.4156546 -1 6.4614587e-06 -1.6952614e-05 1.0755093e-05
-0.096328847 0.076208539 -0.41376898 1 1.091236e-05 -7.322507e-05 1.7111779e-05
0.096328847 0.07581985 -0.41315818 -1 1.1542477e-05 -6.4259417e-05 1.6840082e-05
-0.096328847 0.085554965 -0.41558298 1 2.2023978e-06 -7.9461395e-05 1.3515128e-05
0.096328847 0.085836507 -0.41544083 -1 2.0925958e-05 -5.3516193e-05 1.0892049e-05
-0.096328847 0.094083659 -0.41584444 1 6.8097352e-06 -5.2131592e-05 1.0755193e-05
0.096328847 0.094426773 -0.41501442 -1 4.0127743e-06 -5.4069656e-05 1.1034236e-05
-0.096328847 0.10458898 -0.41538787 1 1.2129983e-05 -3.469878e-05 1.0849197e-05
0.096328847 0.10442583 -0.41540477 -1 1.1930063e-05 -5.3885855e-05 1.0882704e-05
-0.096328847 0.11476987 -0.41631734 0.99820483 -0.058441211 -0.013104754 0.008990542
0.096328847 0.11508381 -0.41435024 -0.99858785 -0.053083889 0.0021103586 0.0074953148
-0.096328847 0.12568578 -0.41511726 0.9492321 -0.31451014 -0.0064694225 0.069199264
0.096328847 0.12610574 -0.415277 -0.94960928 -0.31317058 -0.012899021 0.061071932
-0.096328847 0.13567315 -0.41636932 0.83896005 -0.54410988 -0.0095083788 0.082722478
0.096328847 0.13460508 -0.41716966 -0.85106379 -0.52504218 0.0046037631 0.071159206
-0.094722666 0.14139873 -0.41632819 0.70865113 -0.70504218 -0.027003383 0.091076463
-0.084034719 0.14180185 -0.41402179 0.36187983 -0.93096489 0.04845028 0.070081204
-0.074691378 0.14180185 -0.41509292 0.16956778 -0.98551607 -0.0021759106 0.036406036
-0.065847881 0.14180185 -0.41423383 0.0033599471 -0.99999428 0.00039894119 3.0244777e-05
-0.054500908 0.14180185 -0.41617367 -8.2263448e-08 -1 1.7733455e-05 0
-0.045633625 0.14180185 -0.41485393 1.1174257e-07 -1 -1.7155013e-05 1.2796863e-05
-0.035507396 0.14180185 -0.41665459 -1.463255e-06 -1 3.6590234e-05 4.3848295e-06
-0.025564898 0.14180185 -0.41424954 6.5211856e-07 -1 -1.5889556e-05 0
-0.014857604 0.14180183 -0.41490772 -1.3532861e-06 -1 -8.2882383e-05 9.1075672e-06
-0.0056764157 0.14180185 -0.41550139 4.114178e-07 -1 -3.5131146e-05 8.4091471e-06
0.0045100083 0.14180183 -0.41440716 -3.1021855e-06 -1 -4.5965251e-05 1.2994009e-05
0.015640883 0.14180185 -0.41558278 3.0562826e-06 -1 -6.8339221e-05 1.2615955e-05
0.025532963 0.14180185 -0.41483569 1.1015111e-06 -1 1.1284776e-07 9.4158522e-06
0.035039436 0.14180185 -0.41582733 2.0501216e-06 -1 -3.3420594e-05 4.243434e-06
0.04520873 0.14180185 -0.41418254 7.5841319e-07 -1 -3.614583e-05 4.2334723e-06
0.053657219 0.14180185 -0.41462564 -3.4867253e-07 -1 1.7055034e-05 0
0.063995495 0.14180185 -0.41495338 -0.0009497031 -0.99999958 3.2813736e-05 1.2003891e-05
0.074477896 0.14180185 -0.4145011 -0.17137901 -0.98520517 -0.00029559043 0.038328111
0.085108146 0.14180185 -0.41380021 -0.42634606 -0.90443659 0.014951251 0.071534097
0.093751103 0.14161685 -0.41571262 -0.68411314 -0.72850198 -0.035696529 0.093005113
-0.094890349 -0.14150599 -0.40447533 0.77775395 0.62709689 0.042990282 0.08373072
-0.084190808 -0.14180185 -0.40421087 0.41791543 0.90841883 -0.011039072 0.078541949
-0.075990528 -0.14180183 -0.40547982 0.19644788 0.98050594 0.004017923 0.037068035
-0.063979842 -0.14180185 -0.40552464 8.1410388e-07 1 6.1457191e-05 0
-0.055162534 -0.14180185 -0.40400651 3.9730294e-06 1 -7.2179837e-08 0
-0.044798609 -0.14180185 -0.40420669 -1.979367e-06 1 3.2511551e-05 4.5396896e-06
-0.035857916 -0.14180185 -0.40559122 4.2386341e-06 1 1.9084238e-05 4.5341403e-06
-0.025577024 -0.14180185 -0.404405 -1.0501137e-06 1 1.0688791e-08 1.3400972e-05
-0.014158464 -0.14180185 -0.40491694 -2.0144341e-06 1 -1.5938292e-07 1.292307e-05
-0.0049583046 -0.14180185 -0.40521029 1.5722734e-06 1 3.183556e-05 0
0.0044285655 -0.14180185 -0.40347779 5.3924975e-07 1 -2.6100384e-05 8.0029731e-06
0.015599728 -0.14180185 -0.40551379 -1.0744639e-06 1 3.6112171e-05 0
0.024646131 -0.14180185 -0.40597016 9.7323891e-07 1 1.7933246e-05 0
0.035632234 -0.14180186 -0.40555352 2.082335e-06 1 3.1732061e-08 4.0562777e-06
0.044020567 -0.14180185 -0.40572608 4.2649531e-06 1 1.8927997e-07 0
0.055838898 -0.14180185 -0.40487868 4.4755589e-06 1 -5.3073625e-05 4.1288363e-06
0.064491659 -0.14180183 -0.40428707 -2.841108e-06 1 -5.0375216e-05 1.264099e-05
0.074501649 -0.14180185 -0.40491357 -0.16078225 0.98686856 -0.015476503 0.035016153
0.084906667 -0.14180186 -0.40413994 -0.34466541 0.93857163 0.0169985 0.076872118
0.094743088 -0.14149393 -0.405981 -0.80760401 0.5896666 -0.008305816 0.075606115
-0.096328847 -0.13590574 -0.40409425 0.88847345 0.45256206 0.076173484 0.074236102
0.096328847 -0.13506626 -0.40493071 -0.92398417 0.38123623 0.030204525 0.066184603
-0.096328847 -0.12421066 -0.40594709 0.96941781 0.24487622 0.016273065 0.048148416
0.096328847 -0.12430722 -0.40482721 -0.96159381 0.27447641 5.903218e-05 0.054238275
-0.096328847 -0.11451811 -0.40424544 0.99858606 0.053026468 0.0037625879 0.0079445904
0.096328847 -0.1148392 -0.40448496 -0.99865794 0.051764078 0.0016734452 0.0075543718
-0.096328847 -0.10619476 -0.40436846 1 -8.5322663e-06 -1.5745227e-05 1.0697919e-05
0.096328847 -0.1053086 -0.40520477 -1 -8.3310879e-06 -3.567119e-05 1.6687589e-05
-0.096328847 -0.09552402 -0.40653685 1 -2.3796781e-06 -6.1720588e-05 1.5954496e-05
0.096328847 -0.094803445 -0.40422946 -1 -1.8805054e-05 -4.6933954e-05 1.6834983e-05
-0.096328847 -0.084639035 -0.40564439 1 -3.7768689e-06 -8.900775e-05 1.645086e-05
0.096328847 -0.085395902 -0.40339866 -1 -1.3811453e-05 -3.7699632e-05 1.3409407e-05
-0.096328847 -0.074652545 -0.40274334 1 -6.6945368e-06 -7.4404074e-05 1.0899139e-05
0.096328847 -0.075768359 -0.40596712 -1 -1.7343436e-05 -8.9652458e-05 1.6976723e-05
-0.096328847 -0.064557731 -0.4043214 1 4.5085565e-07 -1.9819488e-05 1.2247952e-05
0.096328847 -0.064612992 -0.4051033 -1 -5.6955482e-06 -5.1609437e-05 1.0771157e-05
-0.096328847 -0.055733204 -0.40640116 1 -7.1764334e-06 1.7130964e-07 1.4002821e-05
0.096328847 -0.054625068 -0.40445814 -1 3.6917997e-06 -6.017369e-05 1.1403828e-05
-0.096328847 -0.045251336 -0.4040986 1 -4.0634336e-06 -3.6304747e-05 1.0950661e-05
0.096328847 -0.043922398 -0.40516382 -1 -4.6464697e-06 -3.1094052e-05 1.0575508e-05
-0.096328847 -0.03433834 -0.4052119 1 -1.364106e-06 -7.0907445e-05 1.0811766e-05
0.096328847 -0.035685334 -0.4044528 -1 -5.4664533e-06 -3.4492474e-05 1.6353908e-05
-0.096328847 -0.024961622 -0.4047001 1 -2.3160198e-06 -1.7932372e-05 1.1054298e-05
-0.020329589 -0.020721791 -0.40504444 0.8105706 0.58564103 -0.00012673636 0.085705541
-0.015477308 -0.024762334 -0.40408871 0.51434571 0.85549062 -0.059868962 0.081591427
-0.0037877671 -0.028297512 -0.40476426 0.018327897 0.99983114 0.0013385367 0.042450573
0.0057957605 -0.025698317 -0.40557009 -0.3657029 0.93073106 0.0010134771 0.071343631
0.011863446 -0.021092998 -0.40544134 -0.74942517 0.66193342 -0.014358281 0.073506236
0.096328847 -0.025383661 -0.40558082 -1 -4.5818965e-06 -9.0712572e-05 1.6431066e-05
-0.096328847 -0.014508056 -0.40483344 1 -2.0314098e-06 -1.4967631e-05 1.0769039e-05
-0.02278997 -0.016454715 -0.40367496 0.96979392 0.24284977 -0.022886455 0.057695266
0.015160054 -0.01515349 -0.40432402 -0.96686852 0.25470176 -0.017094139 0.070556968
0.096328847 -0.01569766 -0.40629223 -1 -1.0770876e-06 8.9890762e-08 1.3541559e-05
-0.096328847 -0.0054639792 -0.40467954 1 -9.9517581e-07 -3.8252132e-05 1.3368252e-05
-0.024563251 -0.0056094704 -0.40504906 0.97866106 -0.20533115 -0.0078473473 0.056377839
0.016276736 -0.0051311958 -0.40475312 -0.97362167 -0.22699912 -0.023074005 0.056502119
0.096328847 -0.0047910581 -0.40551201 -1 -3.3720653e-07 -5.0402108e-05 1.0575726e-05
-0.09632884 0.0027210482 -0.40649199 1 -7.5695846e-07 -1.6861446e-05 1.631651e-05
-0.022254709 0.0022618531 -0.40367427 0.9089852 -0.41638115 0.019302314 0.08349435
-0.017742556 0.0078492761 -0.40470478 0.63225496 -0.77436793 -0.024657035 0.078594968
0.0085164132 0.008733036 -0.40254056 0.5833391 0.81152582 0.033781935 0.077880025
0.013044722 0.0036188632 -0.40445301 -0.84748769 -0.53077579 0.0064522224 0.070743792
0.096328847 0.0058146096 -0.40428561 -1 2.1568276e-06 -6.8981266e-05 1.631512e-05
-0.096328847 0.015540054 -0.40643737 1 5.2708629e-06 -3.4052246e-05 1.7135933e-05
-0.012021813 0.011423234 -0.40457261 0.32661968 -0.94515586 -0.00024587641 0.065459862
-0.0032987623 0.012829634 -0.40507281 0.016534587 -0.99958879 -0.023430012 0.070972592
0.0033748245 0.011570024 -0.4045372 -0.25359079 -0.96729332 -0.0059459768 0.069216453
0.096328847 0.015712125 -0.40395272 -1 2.5224322e-06 -3.3397413e-05 1.05402e-05
-0.096328847 0.025106808 -0.40469247 1 4.7195613e-06 -1.5707605e-05 1.6050299e-05
0.096328847 0.024634922 -0.40490636 -1 4.7274602e-06 -6.2857369e-05 1.5777827e-05
-0.096328847 0.035167102 -0.40496561 1 8.793475e-06 -6.2429972e-05 1.6665399e-05
0.096328847 0.035514958 -0.40633664 -1 5.4464967e-06 -3.4195073e-05 1.6839043e-05
-0.096328847 0.045029603 -0.40563741 1 6.2853469e-06 -5.3870819e-05 1.6650418e-05
0.096328847 0.044752661 -0.4041391 -1 6.0588281e-06 -6.7765846e-05 1.0827438e-05
-0.096328847 0.054974649 -0.4054926 1 4.3936011e-06 -7.2799849e-05 1.6508886e-05
0.096328847 0.054459326 -0.40288949 -1 1.0689786e-05 -5.2835861e-05 1.6084125e-05
-0.096328847 0.064542741 -0.40378031 1 6.8120494e-06 -7.076461e-05 1.6550468e-05
0.096328847 0.063835382 -0.405507 -1 5.5903038e-06 -1.5461341e-05 1.670609e-05
-0.096328847 0.074552536 -0.40418607 1 1.6976164e-05 -4.4022287e-05 1.6126778e-05
0.096328847 0.075654455 -0.40535718 -1 1.7742661e-05 -7.4941032e-05 1.1390728e-05
-0.096328847 0.084812313 -0.40409032 1 1.1371438e-05 -5.3176358e-05 1.6640472e-05
0.096328847 0.084266722 -0.4045518 -1 1.3944915e-05 -4.1238574e-05 1.6063379e-05
-0.096328847 0.094241098 -0.40372729 1 1.2007558e-05 -5.0668019e-05 1.3589681e-05
0.096328847 0.093947239 -0.40529802 -1 1.9985077e-05 -3.0750311e-05 1.0859548e-05
-0.096328847 0.10450209 -0.40691605 1 2.4732613e-05 -1.8287101e-05 1.3440789e-05
0.096328847 0.10474434 -0.40471631 -1 1.1539973e-05 -3.1887299e-05 1.6691894e-05
-0.096328847 0.11440435 -0.40657601 0.99841183 -0.055603791 -0.0090559786 0.0074373232
0.096328847 0.1144798 -0.40430114 -0.99853832 -0.053728558 0.0058726426 0.0068044499
-0.096328847 0.12540323 -0.40440273 0.94839215 -0.31631085 0.02235624 0.061588168
0.096328847 0.125029 -0.4052729 -0.96050102 -0.27691013 0.02754315 0.051722646
-0.096328847 0.13464954 -0.40466931 0.85040408 -0.52580428 -0.018516395 0.078795217
0.096328847 0.13530853 -0.40483889 -0.88101262 -0.47279343 0.016824443 0.074915394
-0.09364257 0.14155601 -0.40527922 0.66449976 -0.74708724 0.017337602 0.10163686
-0.084703475 0.14180185 -0.40566799 0.41406924 -0.91023856 -0.0035187583 0.077364959
-0.074424878 0.14180185 -0.40520728 0.1658594 -0.9861474 -0.0019650864 0.036483284
-0.067041434 0.14180185 -0.40468305 0.001635288 -0.99999863 -0.00017639817 2.5598038e-05
-0.053705323 0.14180185 -0.40487784 -2.0872294e-06 -1 -3.6060232e-05 0
-0.044957586 0.14180185 -0.40375137 -2.289853e-06 -1 -1.5233161e-05 7.8027779e-06
-0.034845989 0.14180185 -0.40459651 -2.7243693e-06 -1 -3.4517016e-05 4.3304562e-06
-0.02505644 0.14180185 -0.40458584 -2.0825726e-06 -1 -3.160457e-05 0
-0.015591474 0.14180185 -0.40511543 2.0852085e-06 -1 -5.1201714e-05 4.337001e-06
-0.0054335436 0.14180185 -0.40541378 9.5857138e-07 -1 -3.1982407e-05 7.9522542e-06
0.0041936859 0.14180183 -0.40604314 8.1805792e-06 -1 -8.7997367e-05 1.3096701e-05
0.015728872 0.14180183 -0.4044989 -2.8419961e-07 -1 -5.4246892e-05 1.2886934e-05
0.024455488 0.14180185 -0.40512371 -4.482732e-07 -1 -3.827153e-05 1.3350998e-05
0.034811553 0.14180185 -0.40416318 -4.6187924e-06 -1 1.4242073e-05 0
0.044532884 0.14180185 -0.4048664 0 -1 0 0
0.0555792 0.14180185 -0.40503448 6.7824344e-06 -1 -1.71314e-05 9.0682761e-06
0.066239759 0.14180185 -0.40346843 -0.0038679163 -0.99999255 -1.255367e-05 2.4740213e-05
0.075854644 0.14180185 -0.40432248 -0.19295597 -0.98119682 0.0045609544 0.03759221
0.08568649 0.14180185 -0.40489268 -0.420854 -0.90674579 0.026341956 0.077121072
0.094725966 0.14125229 -0.40425339 -0.71471477 -0.69894552 0.025649864 0.095337495
-0.093266964 -0.14155668 -0.3939791 0.63596821 0.7708534 -0.036460493 0.095603764
-0.086752847 -0.14180185 -0.39561179 0.40446267 0.91353732 -0.043121099 0.070671752
-0.075070553 -0.14180185 -0.39279765 0.1581164 0.98718929 -0.021365978 0.02901002
-0.065447934 -0.14180185 -0.39597395 0.0011195046 0.9999994 -5.8389931e-05 1.6701793e-05
-0.05536535 -0.14180185 -0.39350539 1.6556095e-07 1 1.4650432e-05 0
-0.044869866 -0.14180185 -0.39388031 2.4523013e-06 1 8.2023796e-08 4.3521331e-06
-0.034271203 -0.14180185 -0.3961556 2.831775e-06 1 -5.7878391e-05 1.344636e-05
