# .PCD v0.7 - Point Cloud Data file format
VERSION 0.7
FIELDS x y z normal_x normal_y normal_z curvature
SIZE 4 4 4 4 4 4 4
TYPE F F F F F F F
COUNT 1 1 1 1 1 1 1
WIDTH 593
HEIGHT 1
VIEWPOINT 0 0 0 1 0 0 0
POINTS 593
DATA ascii
-0.10070316 -0.20755929 0.12561357 -0.60010511 0.61455363 0.51205242 0.07232824
-0.096087068 -0.2036853 0.12507457 -0.51946372 0.63299948 0.5739941 0.067216769
-0.084581412 -0.20321512 0.12824996 0.10965396 0.56341892 0.81886208 0.051513232
-0.075089529 -0.20422122 0.12640984 0.36029467 0.42168972 0.83208507 0.066842414
-0.067246936 -0.20632775 0.12174309 -0.70954639 -0.096465401 -0.69802457 0.082394868
-0.092358395 -0.19655631 0.1209344 -0.48089904 0.6273312 0.61252892 0.077950396
-0.084417813 -0.19602153 0.12338667 -0.070388876 0.57560641 0.81469172 0.078194574
-0.076855622 -0.19722727 0.1237882 0.16351964 0.50288403 0.84874558 0.067604914
-0.068366103 -0.1991927 0.121035 -0.50177205 -0.28362212 -0.81718016 0.070490941
-0.15272298 -0.47197932 0.13174883 -0.30139911 0.87879533 -0.36996958 0.10027583
-0.14916298 -0.47150767 0.13356768 -0.43162134 0.87704682 -0.21093106 0.076102942
-0.17043582 -0.4628118 0.13293627 0.22783023 0.81846529 -0.5274542 0.028464215
-0.16557002 -0.46328872 0.13571969 0.16295117 0.86311555 -0.47799429 0.043225463
-0.15435149 -0.46736401 0.13760439 -0.17236216 0.90741843 -0.38325337 0.079083018
-0.14577857 -0.46570301 0.13495767 -0.5805949 0.80262595 -0.13675216 0.07330025
-0.19333936 -0.45198932 0.13290039 0.36445603 0.75769168 -0.54136419 0.0027558759
-0.1853829 -0.45439544 0.13497458 0.36693078 0.77614862 -0.51279157 0.0001021685
-0.17600286 -0.45766291 0.13676359 0.36560869 0.77955645 -0.50854909 0
-0.14150888 -0.4576019 0.13318598 -0.71498787 0.69689816 -0.055904258 0.060326915
-0.13828222 -0.45219192 0.13507377 -0.75605106 0.65448475 -0.0060404176 0.048361816
-0.21358056 -0.44214839 0.13328974 0.36165652 0.75777888 -0.54311669 0.0028278956
-0.203941 -0.44431078 0.13694936 0.36667788 0.77628785 -0.51276165 7.0945411e-05
-0.1986932 -0.44842154 0.13447307 0.36702445 0.76663792 -0.52683896 0.0010515215
-0.13455774 -0.44567063 0.13599966 -0.81457931 0.57920623 0.031316526 0.021923307
-0.24022843 -0.43004885 0.13249825 0.4300901 0.78185475 -0.45135978 0.062252972
-0.23354796 -0.43259165 0.1334438 0.37773055 0.76030892 -0.52844101 0.02069422
-0.22400704 -0.43593532 0.13523276 0.34088382 0.75910473 -0.55457938 0.0039430237
-0.21794181 -0.43869838 0.13539912 0.35983157 0.76898789 -0.52837384 0.0011492408
-0.13084686 -0.43858185 0.13424228 -0.86756247 0.48748428 0.098460935 0.0042272536
-0.12800388 -0.43353036 0.13461517 -0.8643443 0.49405631 0.093900226 0.0048891874
-0.25452274 -0.42386395 0.1316084 0.53446776 0.7035743 -0.46832412 0.11302744
-0.24585168 -0.42576656 0.13496497 0.47311509 0.71891385 -0.50923961 0.054295424
-0.23729822 -0.42784685 0.13796616 0.35895464 0.7645821 -0.53531832 0.013597565
-0.12313858 -0.42473161 0.1345553 -0.86490262 0.50093919 0.031676289 0.029465765
-0.26485264 -0.41521856 0.13508792 0.74614209 0.37009048 -0.5534482 0.11803268
-0.25589806 -0.41912651 0.13783258 0.63459778 0.54035544 -0.55254108 0.086772673
-0.11691502 -0.41353437 0.13474147 -0.81863898 0.56520128 0.10187168 0.078300312
-0.086279199 -0.41110796 0.13964026 0.44508234 0.89547783 -0.0046025491 0.1384975
-0.079999112 -0.41269085 0.13969588 0.16856256 0.54491699 -0.82137215 0.12192396
-0.26349881 -0.40609413 0.13528246 0.91161335 -0.069350474 -0.40515631 0.10719761
-0.11258136 -0.40513977 0.1360123 -0.78453791 0.59201008 0.18445706 0.13154753
-0.10601755 -0.40355089 0.1380402 -0.72129172 0.66476154 0.1945001 0.17918152
-0.093628451 -0.40567997 0.13797829 0.51382524 0.64658022 -0.56384182 0.27447364
-0.088186383 -0.40901038 0.13893095 0.47668645 0.76164097 -0.43894547 0.20134759
-0.25677726 -0.39386472 0.13486625 0.91415077 -0.34449199 -0.21366723 0.036398016
-0.11212595 -0.39712748 0.13729532 -0.82663107 0.49789912 0.26225466 0.12937535
-0.10557099 -0.39510965 0.1355684 -0.86700457 0.39123836 0.30860272 0.14133823
-0.097318448 -0.3960751 0.13887493 0.87605679 0.071514048 -0.47687554 0.22457461
-0.25233153 -0.38551262 0.13339728 0.86822891 -0.48463359 -0.10634282 1.6128897e-05
-0.10372609 -0.38721696 0.13613012 -0.91191012 0.34373692 0.22419827 0.11441897
-0.09970367 -0.38217908 0.13349301 -0.8993032 0.38671514 0.20421858 0.071662955
-0.24656756 -0.37542054 0.13483094 0.89655 -0.42038545 -0.13955034 0.016642202
-0.094922192 -0.37437356 0.13724868 -0.88172656 0.45669425 0.1182731 0.022820272
-0.24144089 -0.36586815 0.13349459 0.9297803 -0.31568924 -0.18933807 0.06586504
-0.23872407 -0.36141887 0.13556418 0.89477307 -0.34381258 -0.2849105 0.10440524
-0.090467975 -0.36514205 0.13186395 -0.86406487 0.49318033 0.1008218 0.00052128849
-0.088929318 -0.36311403 0.13526455 -0.86790848 0.48510647 0.10680163 0.00013697038
-0.24485965 -0.35246164 0.1305408 0.95851666 -0.12101889 -0.25807035 0.20029847
-0.23561354 -0.35435885 0.13347805 0.87291825 -0.39348647 -0.28841317 0.13740686
-0.085575849 -0.35724056 0.13608995 -0.8929745 0.42675129 0.14310773 0.0096917767
-0.25136244 -0.34230685 0.13090473 0.43078971 0.24208805 -0.86937541 0.22518307
-0.24601333 -0.34447628 0.13128591 -0.30464697 0.84287679 0.44356388 0.27732319
-0.23447204 -0.34699202 0.13282782 0.77322787 -0.55237824 -0.31144342 0.14612703
-0.22871096 -0.34387803 0.13355526 -0.77771705 0.60453922 0.17230351 0.12007102
-0.080917567 -0.34786063 0.13170268 0.94085377 -0.20863657 -0.2669549 0.065379083
-0.077971213 -0.34355557 0.13630398 0.92506343 -0.25089759 -0.28514555 0.056305736
-0.2554079 -0.33924356 0.13019317 0.17649288 0.27893609 0.94395179 0.14675075
-0.2250468 -0.33661777 0.13509682 0.82307947 -0.56234282 -0.079439633 0.078303292
-0.072842911 -0.33324873 0.13336821 0.91079491 0.13615555 -0.38976189 0.092128016
-0.22044721 -0.32823789 0.13476112 0.81585932 -0.57373738 -0.072104797 0.035703868
-0.21745576 -0.32308862 0.13590603 0.83844596 -0.54169935 -0.059751678 0.022220468
-0.092740595 -0.32150474 0.13237999 0.50594097 0.68193448 -0.52819413 0.028139165
-0.083052069 -0.3250306 0.13399792 0.62563449 0.61138946 -0.4845455 0.053885598
-0.074849181 -0.3288244 0.13421966 0.84886074 0.32722449 -0.41516221 0.093228839
-0.06993936 -0.32754806 0.13962194 0.83497268 0.33712155 -0.43493634 0.075879708
-0.21350908 -0.31553996 0.13399431 0.86777472 -0.4873178 -0.097408652 0.0048881769
-0.11329268 -0.31231385 0.13155498 0.43482429 0.5356378 -0.72389221 0.073280141
-0.10523878 -0.31529108 0.13282958 0.440559 0.63205934 -0.63750196 0.042966332
-0.095403887 -0.31817093 0.1355371 0.44943443 0.68649328 -0.57160789 0.019186482
-0.21028373 -0.30961257 0.133527 0.8730821 -0.47462317 -0.11162701 0.0001914945
-0.20796564 -0.30588374 0.13559833 0.87013286 -0.48111561 -0.106754 2.307576e-05
-0.13379651 -0.30260155 0.13155903 0.14634721 0.6168139 -0.77338421 0.068799317
-0.12541609 -0.30546185 0.13307811 0.29112127 0.56958735 -0.76864725 0.08530578
-0.11423591 -0.30483136 0.13776007 0.43215451 0.36954987 -0.82260287 0.095952339
-0.20194954 -0.29474255 0.13434076 -0.79779625 0.60291481 0.0038574138 0.034482922
-0.15408149 -0.29231316 0.13259844 0.2143259 0.77827007 -0.59022027 0.032416858
-0.14559387 -0.29587355 0.13329753 0.13967584 0.72939169 -0.6696853 0.058827844
-0.13455035 -0.29661536 0.13739088 0.066061251 0.5907371 -0.80415517 0.092870079
-0.12578976 -0.2952055 0.13671286 0.038974766 0.24164739 -0.96958107 0.11053631
-0.11255827 -0.2951827 0.13353212 0.39547324 -0.00085512409 -0.91847712 0.10015139
-0.10672688 -0.29384997 0.13620329 0.44925022 -0.071648896 -0.89052832 0.088485852
-0.19679077 -0.28578711 0.13597262 -0.72115541 0.689475 -0.067521237 0.055837635
-0.17433898 -0.28193384 0.13379622 0.13722441 0.87983799 -0.45503262 0.047484417
-0.16539457 -0.28494838 0.1356563 0.30840206 0.80248326 -0.51079237 0.0045827175
-0.158048 -0.28713551 0.13762406 0.24792786 0.79243314 -0.55729836 0.024545643
-0.13427161 -0.28554627 0.13605486 -0.27959356 0.39814177 -0.87367648 0.094846293
-0.12503625 -0.28508139 0.13204607 -0.094186224 0.020654475 -0.99534029 0.1176782
-0.1149113 -0.28393367 0.13204096 -0.02884751 -0.1636726 -0.98609281 0.11926369
-0.10432794 -0.28538176 0.13540676 0.51779926 -0.35849968 -0.77676374 0.12063655
-0.099548951 -0.28811884 0.13855788 0.76133347 -0.22644851 -0.60752976 0.12005807
-0.19345564 -0.27902514 0.1326216 -0.38560516 0.88378781 -0.26500502 0.085153908
-0.18578546 -0.27474797 0.13699946 -0.28253356 0.89840657 -0.33621472 0.081687957
-0.17620014 -0.27780923 0.13873652 0.096291296 0.90904921 -0.40541038 0.050807141
-0.13303797 -0.27589291 0.13609563 -0.4966366 0.44803983 -0.74337912 0.085769631
-0.12607738 -0.2770007 0.13407375 -0.46501294 0.16349253 -0.87007654 0.13476166
-0.11587971 -0.27473569 0.13108671 -0.24555372 -0.20744032 -0.94692755 0.17354356
-0.10429735 -0.2745904 0.13572453 0.63528979 -0.35338613 -0.68667692 0.20471221
-0.095171712 -0.27564734 0.13470119 -0.76420385 0.49645129 0.41173857 0.14431235
-0.089943826 -0.27464467 0.13680759 -0.86647558 0.43546915 0.24410371 0.15012625
-0.12505303 -0.26414639 0.13434702 -0.81143206 0.13328049 -0.5690468 0.13492133
-0.11744829 -0.26769274 0.13608089 -0.60819101 0.11345527 -0.78564084 0.24015114
-0.086477667 -0.26549417 0.13512512 -0.91192269 0.40158311 -0.084427975 0.15687293
-0.12457169 -0.2558749 0.13463071 0.93332756 -0.19570966 0.30099407 0.16437238
-0.10372069 -0.25067958 0.13101934 0.71559316 0.67923611 -0.1629869 0.27520108
-0.094377846 -0.25399414 0.13270976 -0.50075078 0.85350293 -0.14415735 0.26000726
-0.085415676 -0.25602871 0.13586776 -0.89792824 0.36162847 -0.25089768 0.15770891
-0.079284936 -0.25298887 0.13318588 -0.92033982 0.33805293 -0.19670993 0.105551
-0.12256861 -0.24560271 0.13587317 0.8942973 -0.43321085 -0.11207463 0.16730776
-0.11673726 -0.24303445 0.13496597 0.94641227 -0.2946898 -0.13214293 0.16647238
-0.10558322 -0.24628815 0.13636504 0.47859362 0.74873298 -0.45863611 0.27461123
-0.09723971 -0.24831267 0.13929965 -0.15613458 0.29259142 -0.94340456 0.26824793
-0.077012748 -0.24484989 0.13385597 -0.85978615 0.31148082 -0.40465719 0.092340782
-0.12045383 -0.23933181 0.13505451 0.90712458 -0.37733293 -0.18639971 0.11364143
-0.11771262 -0.23478997 0.13419625 0.86291087 -0.43064645 -0.26443976 0.11168984
-0.075868696 -0.235119 0.13435432 -0.80655515 0.10972437 -0.58088672 0.070060283
-0.11175839 -0.22681968 0.13513069 0.74317485 -0.48429349 -0.46168262 0.10283011
-0.10541292 -0.22298349 0.13754448 0.58295119 -0.49627694 -0.64333278 0.073104538
-0.095486216 -0.22056617 0.13970123 0.19590344 -0.55858952 -0.8059774 0.066356994
-0.08331006 -0.22422418 0.13909863 -0.43434358 -0.3155942 -0.84365034 0.068412624
-0.074619755 -0.22544731 0.13226141 -0.82419366 0.014563459 -0.56612074 0.058134671
-0.1045997 -0.21666722 0.13169619 0.62903917 -0.58026415 -0.51730382 0.058346704
-0.094655126 -0.21556243 0.13584314 -0.16750965 0.60887295 0.77538013 0.068942755
-0.084659167 -0.21376419 0.13428433 0.20844173 0.47495529 0.85496753 0.069264814
-0.076678559 -0.21475995 0.13164143 -0.43922055 -0.28283271 -0.8526963 0.082957506
-0.093227312 -0.2086567 0.13111596 0.2075927 -0.57317078 -0.79270458 0.081247896
-0.083883971 -0.20745289 0.13085708 0.18423095 0.49731618 0.84778279 0.053083289
-0.16258472 -0.46182212 0.14010704 0.14975303 0.8679207 -0.47359037 0.047276612
-0.15384287 -0.46205151 0.14606354 -0.071741171 0.90347767 -0.4225888 0.087463818
-0.14526451 -0.46471223 0.14572755 -0.33287203 0.88206559 -0.3334015 0.079467416
-0.18325968 -0.45074901 0.14206055 0.36806679 0.77725089 -0.51030183 0
-0.17325149 -0.45430279 0.14386652 0.36434326 0.77856362 -0.51097226 0.00017336519
-0.16627625 -0.45721111 0.14446795 0.23663425 0.83104962 -0.50334954 0.026632121
-0.15646301 -0.45923662 0.14846121 0.026655059 0.88013017 -0.47398353 0.074784786
-0.14025395 -0.45784485 0.144556 -0.62934548 0.74760246 -0.21216667 0.076105468
-0.13793005 -0.45365024 0.144564 -0.64932668 0.7426995 -0.16362248 0.074196063
-0.20386869 -0.44042102 0.14292657 0.36808538 0.77725965 -0.51027513 9.2688679e-06
-0.19488145 -0.44375604 0.14432932 0.36814457 0.77723944 -0.51026314 4.3442233e-05
-0.18680674 -0.44666725 0.14571945 0.36805341 0.77727538 -0.51027411 1.5544007e-05
-0.17833705 -0.44929838 0.14782111 0.3681308 0.77720755 -0.51032162 0
-0.13326222 -0.44482574 0.14277196 -0.80532545 0.59073019 0.049887568 0.019066773
-0.2224789 -0.43140608 0.14323427 0.36710402 0.77602577 -0.51285332 0
-0.21483737 -0.43445817 0.14409733 0.36600864 0.77668345 -0.51264066 4.3511482e-05
-0.20531078 -0.43740731 0.14647695 0.3680923 0.77726293 -0.51026487 7.0896538e-05
-0.19721834 -0.43977523 0.1487074 0.36807668 0.77727395 -0.51025939 0
-0.1303627 -0.43948212 0.14228357 -0.85720026 0.5076676 0.086494714 0.002935142
-0.12757109 -0.43523556 0.14588407 -0.87048692 0.48002654 0.10875218 4.9483322e-05
-0.24435377 -0.42133856 0.14279045 0.45101839 0.71186775 -0.53835559 0.018605119
-0.23323622 -0.42533177 0.14472722 0.36726376 0.77514619 -0.51406771 6.0576342e-05
-0.22628464 -0.42794186 0.1457659 0.36730528 0.77524 -0.51389682 4.6896857e-05
-0.12244213 -0.42598706 0.14594363 -0.86062258 0.49777716 0.10745548 0.0029914775
-0.11939917 -0.42066061 0.14670689 -0.83837396 0.5320065 0.118736 0.037450299
-0.2632966 -0.41213164 0.14260705 0.84001696 0.16413654 -0.51713699 0.081596747
-0.25517973 -0.4143526 0.14562261 0.74316841 0.4766956 -0.46953368 0.07274881
-0.24747784 -0.41791692 0.14574888 0.54100364 0.67012405 -0.50818181 0.036976755
-0.11781899 -0.41730219 0.14441839 -0.82501936 0.55260825 0.11818253 0.040624712
-0.093829922 -0.41088459 0.14404358 -0.31485763 0.51590896 -0.7966823 0.28227311
-0.084971875 -0.41314369 0.14356376 0.3832559 0.84510654 -0.37270609 0.11625781
-0.075725459 -0.41372332 0.14258121 0.42191187 0.36754942 0.82879305 0.12365749
-0.26224235 -0.40592176 0.14476383 0.92920852 -0.0028844441 -0.3695446 0.074401014
-0.25956962 -0.40072793 0.14311749 0.95443696 -0.079573885 -0.28760755 0.069829904
-0.11368661 -0.40402445 0.14395878 -0.78504914 0.60096216 0.15014075 0.12673378
-0.10725811 -0.405568 0.14563514 -0.7347123 0.67380583 0.07863611 0.19841379
-0.096331514 -0.40730405 0.14689612 -0.40251189 0.80852413 -0.42927015 0.28227443
-0.085735269 -0.40456438 0.14656973 0.42118758 0.72260433 -0.54812783 0.19384633
-0.079428405 -0.40870547 0.14357524 -0.021030758 0.40399656 -0.91451865 0.13620602
-0.25611672 -0.39485812 0.1447729 0.94301283 -0.18463792 -0.27683151 0.067382224
-0.11141069 -0.39543748 0.14522801 -0.85764092 0.49847904 0.12637584 0.12474422
-0.10641758 -0.3939819 0.1427754 -0.87779838 0.44848865 0.1683089 0.15744436
-0.095402636 -0.3947517 0.14488804 0.99835938 -0.057188004 -0.0028487407 0.25547826
-0.089998998 -0.39876384 0.14347492 0.75101691 0.53976339 -0.38030115 0.24262899
-0.25216082 -0.38734215 0.14308468 0.91050863 -0.34822002 -0.22297296 0.031038167
-0.24857506 -0.38162327 0.14651129 0.87656617 -0.46728566 -0.11522036 0.00096161466
-0.10470066 -0.38759026 0.14513017 -0.92411357 0.36335665 0.11826237 0.11329573
-0.098609865 -0.38373137 0.14706425 -0.93435359 0.34210017 0.099753767 0.090148292
-0.24547227 -0.3757976 0.14550194 0.88150805 -0.44948301 -0.14459793 0.0068487641
-0.094016194 -0.37410972 0.14346643 -0.88457304 0.45293769 0.11125589 0.027947925
-0.24148802 -0.36864704 0.14570174 0.89078212 -0.42235264 -0.16770636 0.022312254
-0.23796527 -0.36183688 0.1436677 0.87644482 -0.40575612 -0.25924215 0.056488514
-0.090424605 -0.36815417 0.14586841 -0.88330048 0.46019965 0.089422964 0.0080727693
-0.08790639 -0.36364031 0.14602 -0.86066186 0.49805892 0.10582268 0.00071604451
-0.23467739 -0.35665429 0.1470869 0.90204728 -0.37799835 -0.20839374 0.052503489
-0.08325085 -0.35499769 0.14495161 -0.88407177 0.44983119 0.12676397 0.0030925092
-0.23051842 -0.34902889 0.14656457 0.89735353 -0.38981014 -0.20689279 0.088417962
-0.22821192 -0.3442499 0.14378221 0.88352424 -0.45523953 -0.11019009 0.08874774
-0.080201857 -0.348905 0.1422921 -0.91443521 0.36727858 0.17004341 0.023790807
-0.077379569 -0.3440772 0.14350922 0.93284327 -0.28923514 -0.21481709 0.052829117
-0.22281183 -0.3353951 0.14584522 -0.81866485 0.57305741 -0.037323561 0.12521447
-0.21865222 -0.33214957 0.14897411 0.84895325 -0.52806056 0.020746756 0.096851848
-0.072710223 -0.33616909 0.14588214 0.95919806 -0.14625818 -0.24196625 0.059721991
-0.22023511 -0.32969782 0.1431126 -0.78647965 0.61145794 -0.086999714 0.089379735
-0.21735072 -0.32557085 0.14610671 -0.79700923 0.6019839 -0.048904285 0.10040074
-0.082281105 -0.32122809 0.14034624 0.60987496 0.58902353 -0.53019226 0.060934063
-0.074626751 -0.32323694 0.14280759 0.76577437 0.41432288 -0.49185988 0.074157543
-0.067856066 -0.32628074 0.14671879 0.89438117 0.15621515 -0.41914091 0.081081949
-0.21166152 -0.31471297 0.14536533 0.83106858 -0.55434209 -0.045054063 0.040613338
-0.20905289 -0.31015188 0.14604247 0.85934657 -0.50400859 -0.086595923 0.008092667
-0.10211644 -0.31058481 0.14225058 0.57260317 0.5103308 -0.64162928 0.084882602
-0.094295077 -0.31271246 0.14465152 0.54751205 0.62161136 -0.56020522 0.055099696
-0.085766248 -0.31551638 0.1465326 0.5401755 0.65403247 -0.52957702 0.030120982
-0.20701757 -0.30600697 0.14391479 0.86529499 -0.49102777 -0.10077793 0.0047165407
-0.11157838 -0.30417034 0.14288254 0.59905809 0.31068239 -0.73797417 0.10007292
-0.1068371 -0.30534935 0.14450012 0.62995493 0.35407028 -0.69122428 0.095445618
-0.09713535 -0.3099412 0.146824 0.63787609 0.52952915 -0.5592075 0.067942567
-0.2019556 -0.29694232 0.14425947 0.85857248 -0.50342739 -0.097026847 0.0013967101
-0.19894512 -0.29146478 0.14407222 -0.81244379 0.5813055 0.044934053 0.025765758
-0.14312935 -0.29118899 0.14221105 0.011414485 0.70319349 -0.71090698 0.071294196
-0.13910259 -0.29155686 0.14112575 -0.025674867 0.68356258 -0.72944015 0.072961688
-0.10297417 -0.29815626 0.1456075 0.80507207 0.028132284 -0.59250969 0.11512614
-0.094718792 -0.29268277 0.14897604 0.91449058 0.037243661 -0.40288955 0.10981902
-0.19451983 -0.28351763 0.14427118 -0.73651069 0.67564118 -0.03257411 0.055604186
-0.16296782 -0.2824212 0.14125627 0.2449535 0.81440198 -0.52606761 0.014890629
-0.15283254 -0.28499523 0.14464635 0.093891054 0.77225673 -0.62833428 0.051081307
-0.14429195 -0.28681484 0.14656572 -0.088302068 0.74443275 -0.66183281 0.070988789
-0.13883118 -0.28439328 0.14369281 -0.26747212 0.64735574 -0.71371508 0.077017203
-0.10156921 -0.28541297 0.14090914 0.77559239 -0.23016047 -0.58777767 0.13071647
-0.095036305 -0.28532758 0.14565904 0.93375671 -0.099203914 -0.34388521 0.11479225
-0.19188543 -0.27818596 0.14166769 -0.50724292 0.83948058 -0.19487712 0.097653069
-0.18728881 -0.27264887 0.14714931 -0.49520624 0.84055835 -0.21961893 0.084056213
-0.17468977 -0.2747533 0.14448091 0.033688765 0.888264 -0.45809615 0.065320961
-0.16585319 -0.2776145 0.14649677 0.16241118 0.86388916 -0.47677895 0.030944394
-0.15764868 -0.27988312 0.14895937 0.14206249 0.81299734 -0.5646711 0.046349991
-0.13727137 -0.27543426 0.1451668 -0.4536033 0.64636022 -0.61356539 0.083022133
-0.10147619 -0.27243307 0.14038153 0.8935442 -0.19910401 -0.40241319 0.26734447
-0.09488415 -0.27464578 0.14354452 0.92550266 -0.36630672 -0.096251085 0.15513477
-0.088159963 -0.27226463 0.14320892 -0.95966202 0.2613396 -0.10368403 0.11449198
-0.18554282 -0.26951057 0.14581478 -0.26406574 0.91748977 -0.29745898 0.088883713
-0.17763868 -0.2697612 0.149958 -0.028337749 0.9198764 -0.39118341 0.078877263
-0.13284361 -0.26651496 0.147147 -0.66478705 0.67135334 -0.32763216 0.10448403
-0.12737474 -0.26323825 0.144593 -0.80457741 0.57022035 -0.16584326 0.14664717
-0.11320069 -0.26271728 0.14672375 0.43070969 0.67779118 -0.59589285 0.29047513
-0.106996 -0.26544648 0.14704221 0.68632454 0.69257009 -0.22204785 0.28870049
-0.092461273 -0.26516876 0.14730878 0.92088217 -0.031238392 0.38858747 0.18698503
-0.087049097 -0.264819 0.14349212 0.96523619 -0.15953751 0.20704328 0.15182146
-0.12524228 -0.25463843 0.14482233 -0.84630972 0.53152961 0.035158683 0.1398903
-0.11832483 -0.25504816 0.14849555 -0.58692092 0.73177153 0.34645987 0.20773692
-0.090810657 -0.25605378 0.14722647 -0.81023741 -0.030361606 -0.58531487 0.16454022
-0.085550696 -0.25421488 0.14448777 -0.83367383 0.15033576 -0.5314011 0.1536036
-0.12277625 -0.24651147 0.14418297 -0.77480334 0.5899744 0.22717814 0.14783618
-0.11585496 -0.24384479 0.14387964 0.72512788 -0.53372771 -0.43511409 0.17964366
-0.10508017 -0.24176207 0.14577536 0.29454139 -0.46007901 -0.83759934 0.17074293
-0.094721667 -0.24713533 0.14435555 -0.46347508 -0.23535334 -0.85428321 0.18107152
-0.084808327 -0.24572642 0.14565431 -0.72765332 -0.0094483281 -0.68587995 0.1007487
-0.11328866 -0.23553082 0.14430316 0.63650572 -0.51584011 -0.57338423 0.13273954
-0.10571973 -0.2350862 0.14731468 0.35678571 -0.52105153 -0.77537686 0.12470543
-0.09300562 -0.23469575 0.14782418 -0.21392044 -0.37491733 -0.90203941 0.14239496
-0.083670117 -0.23487765 0.14289063 -0.5893954 -0.050794344 -0.80624628 0.10367363
-0.10342432 -0.22607718 0.14175554 0.43052182 -0.49450076 -0.75506288 0.090656325
-0.095360614 -0.22502108 0.1425733 0.13040544 -0.45933223 -0.87864006 0.082266837
-0.087814182 -0.22732228 0.1426574 -0.35606557 -0.28073952 -0.89129263 0.073371574
-0.1505938 -0.46033376 0.15102373 -0.10298354 0.89328748 -0.43752903 0.074437194
-0.14385203 -0.46140817 0.1533024 -0.3067449 0.88339829 -0.35428089 0.077355705
-0.16493756 -0.45155829 0.1540442 0.29946467 0.81257051 -0.50005007 0.011254736
-0.15504645 -0.45585239 0.15463808 0.049706995 0.87924773 -0.4737643 0.068131253
-0.14349717 -0.45905969 0.15519935 -0.32634097 0.87933367 -0.3468053 0.083896592
-0.13757865 -0.45554507 0.15602586 -0.55451065 0.80026948 -0.22822517 0.081971645
-0.18504453 -0.44088787 0.15579401 0.36817595 0.77726626 -0.51019961 0
-0.1742897 -0.44718122 0.15396552 0.36820027 0.77716953 -0.51032937 0
-0.1621197 -0.4492389 0.15960987 0.26820877 0.82132298 -0.50348049 0.017679421
-0.13322549 -0.44702649 0.15304516 -0.70750904 0.70302087 -0.072059594 0.057754684
-0.1296027 -0.44091567 0.15499872 -0.7767086 0.62959927 -0.018125756 0.040007025
-0.21283883 -0.430004 0.15232377 0.36817026 0.77723116 -0.5102573 5.2598702e-05
-0.20379291 -0.43272325 0.15470684 0.3681795 0.77719468 -0.51030612 0
-0.1950499 -0.437388 0.15390781 0.36815009 0.77722591 -0.51027966 0
-0.18485875 -0.4388392 0.15904862 0.36809444 0.77723747 -0.51030219 0.00010814567
-0.12668438 -0.43544388 0.15408346 -0.83930862 0.54088622 0.054799821 0.011965651
-0.23517329 -0.42018566 0.15116882 0.37176931 0.77497989 -0.51107121 4.2789903e-05
-0.22503307 -0.42289868 0.1543507 0.36822546 0.77714914 -0.51034218 0
-0.21596853 -0.42694443 0.15472659 0.36816445 0.77717 -0.51035458 0
-0.20960662 -0.42768145 0.15819307 0.36810663 0.77715468 -0.51041961 0
-0.12201582 -0.42704737 0.15423667 -0.86596382 0.48890638 0.10524811 0.0019989759
-0.1192183 -0.42176464 0.15318975 -0.83513063 0.54249352 0.090870969 0.029550698
-0.2527054 -0.41189894 0.15114494 0.67485267 0.55255395 -0.48914 0.064300798
-0.24560304 -0.41371489 0.15350202 0.60771483 0.61252332 -0.50546801 0.053129792
-0.23507003 -0.41774693 0.15495813 0.3719334 0.7751109 -0.51075304 0.0001337718
-0.22780608 -0.41894871 0.15836719 0.36814681 0.77723098 -0.51027447 0
-0.11505171 -0.41462761 0.15494287 -0.83468056 0.54731953 0.061234482 0.047232822
-0.26178488 -0.40684962 0.1522869 0.85047174 0.26363292 -0.45518741 0.076385014
-0.25656033 -0.40506363 0.15620738 0.81061709 0.29110664 -0.50809133 0.083260708
-0.24628296 -0.40933222 0.15968744 0.63399518 0.56143606 -0.53182673 0.06234822
-0.11184628 -0.40576139 0.15485059 -0.82634246 0.56305677 -0.01118737 0.094090633
-0.10623467 -0.40445849 0.15273292 -0.78015327 0.60099161 -0.17369531 0.16770223
-0.096539848 -0.40458208 0.15173535 -0.7551859 0.51142079 -0.41005251 0.23988558
-0.25488651 -0.39464226 0.15386124 0.93573272 -0.17981267 -0.30343291 0.054012448
-0.11130724 -0.39695442 0.15294831 -0.85747504 0.509938 -0.068554811 0.11682902
-0.10533103 -0.39475915 0.15511757 -0.90913808 0.40643683 -0.090977505 0.12940942
-0.098992899 -0.39686653 0.15285929 -0.92252111 0.37543669 -0.089454226 0.19941966
-0.25187311 -0.38935599 0.15456492 0.92213517 -0.25788414 -0.28837886 0.050917186
-0.24850023 -0.38364354 0.15627876 0.9260087 -0.31005859 -0.21534064 0.040140897
-0.10379475 -0.3882035 0.15241858 -0.91255277 0.40874609 0.013192822 0.097084522
-0.09819524 -0.38446 0.15617222 -0.91392344 0.40180874 0.057390805 0.079603493
-0.2438217 -0.37501308 0.15545335 0.8710748 -0.47883555 -0.10929396 5.6117311e-05
-0.093721516 -0.376082 0.15481533 -0.89372784 0.4227815 0.15002154 0.046449486
-0.24050859 -0.368788 0.15435505 0.8733325 -0.46919495 -0.13094459 0.0045350948
-0.23846301 -0.36522031 0.15492681 0.87198752 -0.46937326 -0.13901992 0.004709248
-0.09032011 -0.36932334 0.15202157 -0.88023865 0.4549059 0.13505724 0.012498202
-0.086908281 -0.36420515 0.15674686 -0.87361383 0.47242984 0.11665755 0.010054266
-0.23265865 -0.3548826 0.155578 0.88780379 -0.42797425 -0.16924082 0.039066561
-0.08265052 -0.35606766 0.15471244 -0.86955154 0.48169118 0.10887454 0.0010542286
-0.07939101 -0.35078606 0.15745114 -0.87210208 0.47721171 0.10819835 4.5256977e-05
-0.22613014 -0.34343746 0.1563071 0.9497807 -0.30587813 -0.065994889 0.13247378
-0.076982655 -0.34601119 0.15552099 -0.8932507 0.42578197 0.14426671 0.011677963
-0.2401149 -0.3300159 0.15890381 0.77426946 0.38666329 0.5009973 0.23037148
-0.23267339 -0.33419588 0.15577368 0.92288262 0.32846475 -0.20099384 0.26639479
-0.22485816 -0.33648551 0.1536734 0.89895135 -0.4291268 0.087958388 0.1891377
-0.2174423 -0.33119211 0.15490428 -0.81172556 0.58359432 -0.022787098 0.14022486
-0.072363295 -0.33754334 0.15494812 0.94018865 -0.2422263 -0.23952365 0.053954486
-0.069218159 -0.33222026 0.15656295 0.94076949 -0.18392509 -0.28482339 0.06590835
-0.24328934 -0.32493034 0.15818278 0.37014523 0.823277 -0.43035734 0.16445571
-0.23545656 -0.32494703 0.15565792 0.10983294 0.9696486 -0.21844493 0.27167174
-0.22650696 -0.32550663 0.15402655 -0.6817199 0.71584928 -0.15105537 0.20598869
-0.21685725 -0.32701313 0.15427649 -0.79676557 0.60424745 -0.0070487042 0.11963525
-0.066207059 -0.32475793 0.15454744 0.93422288 -0.044843592 -0.35385966 0.07846757
-0.24395871 -0.31918481 0.15861394 0.34732211 0.87545466 -0.33607504 0.11034191
-0.23649123 -0.31902894 0.15958391 -0.071451627 0.2370199 -0.96887368 0.22179767
-0.21160278 -0.31654316 0.15413941 -0.79492128 0.60478669 0.048303928 0.061626963
-0.20910481 -0.31279033 0.15757382 -0.79180735 0.60908276 0.045379799 0.055631854
-0.083918788 -0.31155789 0.15389499 0.59904581 0.61690927 -0.51045769 0.04909854
-0.075362913 -0.31466219 0.15533809 0.62838417 0.59621835 -0.49965695 0.049244296
-0.06640552 -0.31711155 0.1580684 0.82333857 0.3551591 -0.44269127 0.079471879
-0.20474379 -0.30435306 0.15502591 0.86360991 -0.49501678 -0.095584378 0.0042459504
-0.10257224 -0.3031249 0.15163383 0.69396061 0.49185219 -0.52583271 0.09071169
-0.095713519 -0.30473256 0.15504628 0.69887602 0.53271723 -0.47726795 0.078936353
-0.086424686 -0.30833548 0.15699594 0.54020369 0.65473557 -0.52867883 0.040484302
-0.20073834 -0.29757041 0.15706626 0.86981511 -0.48178932 -0.10630482 0
-0.19862686 -0.29351285 0.15595748 0.86455673 -0.49347448 -0.094997332 0.00083194126
-0.096480913 -0.29577294 0.15469731 0.91858125 0.22053789 -0.32798105 0.12593794
-0.19458862 -0.28612241 0.15551184 -0.81514734 0.57894439 0.018927587 0.026489487
-0.15240085 -0.28057572 0.1516898 0.13104036 0.82701606 -0.54669261 0.049893886
-0.14635299 -0.28126428 0.15460086 -0.13330826 0.84353942 -0.52025968 0.074789755
-0.093414448 -0.28490582 0.15337059 0.98648435 -0.049274538 -0.15627125 0.097085312
-0.19058803 -0.27899 0.15592763 -0.73742419 0.67539078 -0.0072752717 0.05547677
-0.18735123 -0.27300218 0.15528002 -0.63150644 0.76818556 -0.10531227 0.085352324
-0.16322266 -0.2735956 0.15451606 0.12900935 0.85763186 -0.49781948 0.036010537
-0.15510964 -0.27689514 0.15534225 0.13523844 0.85429573 -0.50188571 0.048314884
-0.14159861 -0.27797511 0.15462832 -0.14009754 0.85375971 -0.50146496 0.087057129
-0.096802175 -0.2752687 0.15435161 0.97171217 0.068851024 0.22590926 0.13504815
-0.088971198 -0.27130738 0.15010433 -0.95826906 0.20946693 -0.19453545 0.10895489
-0.18322629 -0.26622635 0.15647386 -0.33688408 0.90499091 -0.25980848 0.086490005
-0.17646347 -0.26615095 0.156305 -0.15092875 0.91295153 -0.37913066 0.080586679
-0.16798519 -0.26888946 0.15824926 0.090897799 0.89920783 -0.42797536 0.056606818
-0.13631113 -0.26591602 0.15458949 -0.53074324 0.8040489 -0.26798677 0.098724805
-0.12507816 -0.26249018 0.15702535 -0.43148002 0.86116719 0.26873055 0.1307541
-0.10297262 -0.26285771 0.15533112 0.58479804 0.39937359 0.70605379 0.19833784
-0.09517704 -0.26510829 0.15494655 0.85938495 0.10687231 0.50003576 0.16575389
-0.089011975 -0.26508588 0.15253648 0.90125304 0.049065411 0.4305062 0.12295534
-0.12160413 -0.25472623 0.15254404 -0.59100246 0.66284925 0.45972496 0.16466443
-0.11536185 -0.25491035 0.15559769 -0.098765925 0.73469877 0.67116547 0.13431922
-0.10503652 -0.2561571 0.15673143 0.27695838 0.63152307 0.72420484 0.18498021
-0.093786858 -0.25526416 0.15397379 -0.61830765 -0.20226473 -0.75946349 0.16172747
-0.088241339 -0.25624833 0.15170781 0.82777178 0.05370976 0.55848813 0.13901369
-0.12173804 -0.24931414 0.15104508 -0.54497057 0.70294797 0.45702425 0.12544681
-0.11268204 -0.24659546 0.15456797 -0.22395509 0.70803946 0.66971958 0.1410411
-0.10549977 -0.24492931 0.15357295 0.084400617 -0.51824617 -0.85105658 0.13647555
-0.096560709 -0.24599263 0.1541836 -0.35908407 -0.33596829 -0.87073761 0.14034723
-0.089294381 -0.24406517 0.15022455 -0.58421516 -0.18767108 -0.78960252 0.10740979
-0.10096402 -0.23811314 0.15132125 0.11984511 -0.41018182 -0.90409511 0.13112436
-0.09857668 -0.23842382 0.15128766 -0.04465241 -0.39256206 -0.91864097 0.11935105
-0.15591741 -0.45094794 0.1614805 0.16341022 0.8383888 -0.52000111 0.039332245
-0.1444222 -0.45508671 0.16346808 -0.16290787 0.92896414 -0.33239549 0.090411291
-0.13608472 -0.45415005 0.1654713 -0.44299176 0.86084729 -0.2504003 0.088390574
-0.18001167 -0.44033563 0.16026562 0.36811149 0.77722454 -0.51030964 1.6156569e-05
-0.17232916 -0.44197717 0.16330686 0.36813536 0.77719164 -0.51034248 9.6009993e-05
-0.16567057 -0.44509074 0.16336714 0.36281723 0.78049332 -0.50911087 5.4270058e-06
-0.15390745 -0.44786826 0.16762151 0.1679 0.85557109 -0.48970151 0.038716365
-0.1479979 -0.44914445 0.16994035 0.0026663765 0.88310266 -0.46917227 0.065395005
-0.13198981 -0.44692555 0.16269913 -0.70879054 0.69874012 -0.096840903 0.055204388
-0.12825438 -0.44116101 0.1671436 -0.69500983 0.71771073 -0.043042522 0.057027504
-0.19431297 -0.43224105 0.16227958 0.36807549 0.77720702 -0.51036215 0
-0.18476434 -0.43519777 0.16466361 0.36813107 0.77723199 -0.51028419 6.1478284e-05
-0.17620441 -0.4376193 0.16714953 0.3680791 0.7772001 -0.51037014 0
-0.16878664 -0.43990692 0.16901571 0.36809403 0.77730024 -0.51020694 5.0757946e-05
-0.12574287 -0.43584859 0.16362157 -0.81488568 0.57862467 0.033981789 0.019921053
-0.21369252 -0.42223334 0.16354458 0.36821747 0.77716053 -0.51033074 0
-0.20392133 -0.42594051 0.1649459 0.36817771 0.77719986 -0.51029938 0
-0.19669831 -0.42888734 0.16566749 0.36813003 0.77724969 -0.51025802 0
-0.12102982 -0.42723283 0.16314569 -0.86527967 0.49126437 0.099751309 0.00083292974
-0.11831473 -0.42265657 0.16462529 -0.87355721 0.4738254 0.11129826 0.0037587225
-0.24382335 -0.41016617 0.16019136 0.62067384 0.57960254 -0.52803868 0.061006021
-0.23312342 -0.41250148 0.16435239 0.41573769 0.74685609 -0.51900685 0.0088657076
-0.22573592 -0.41616869 0.16409524 0.36811498 0.77718163 -0.51037258 0
-0.214377 -0.41873148 0.16838501 0.36822662 0.77713972 -0.51035565 0
-0.11334479 -0.41359875 0.16424829 -0.85182977 0.52061081 0.057882592 0.03936927
-0.25483447 -0.40231973 0.16349381 0.84494078 0.31530464 -0.43203947 0.084922746
-0.24477983 -0.40660158 0.16493112 0.6113925 0.59256935 -0.5244624 0.048088953
-0.23753294 -0.40818205 0.1677511 0.54762191 0.64838296 -0.52887607 0.042950217
-0.1107306 -0.40872669 0.16356197 -0.86174333 0.5031606 0.065021902 0.040581208
-0.10820816 -0.40487313 0.16674039 -0.85051906 0.52331805 0.052494016 0.040639829
-0.25282019 -0.39357501 0.16593352 0.93134236 -0.018720565 -0.36366326 0.06696979
-0.10348348 -0.39621842 0.16618286 -0.85256821 0.52261245 0.0019412538 0.075290136
-0.25078985 -0.38898548 0.1617499 0.93877578 -0.16953328 -0.29993096 0.068643004
-0.24684803 -0.38235685 0.16396774 0.94728488 -0.22831815 -0.22477162 0.042891655
-0.097246461 -0.3843956 0.16364422 -0.88552719 0.43720627 0.15713759 0.093202494
-0.24221228 -0.37432551 0.1655075 0.89701176 -0.41857767 -0.14199488 0.010391485
-0.093178265 -0.37630427 0.16580334 -0.88231939 0.42078134 0.2108451 0.080186777
-0.089101478 -0.37070382 0.16824903 -0.88911653 0.41219792 0.19890869 0.070064709
-0.23685279 -0.36466742 0.16559753 0.88581872 -0.44942939 -0.11549193 0.0064540254
-0.086849883 -0.36572316 0.16410381 -0.89807147 0.3948653 0.19377573 0.047260575
-0.23304825 -0.35749733 0.16423844 0.90819955 -0.39315787 -0.14352867 0.026977044
-0.22923633 -0.35087472 0.16542023 0.91205454 -0.38051248 -0.1528623 0.04533454
-0.081785701 -0.35670695 0.16468614 -0.87538058 0.46682858 0.12561786 0.0086409291
-0.079224445 -0.35193825 0.1640352 -0.86603963 0.49025619 0.098102622 0.0022057602
-0.22472864 -0.34314653 0.1634374 0.92729896 -0.32587868 -0.18417308 0.14027333
-0.075519428 -0.34555382 0.16542169 -0.87157685 0.47803172 0.10880964 5.7791538e-05
-0.23325013 -0.33532104 0.16397949 0.71573979 -0.094500057 -0.69194382 0.25431907
-0.22334838 -0.336907 0.16637991 0.83588922 -0.40477106 -0.37074184 0.16795361
-0.21753156 -0.33328545 0.16666003 0.84149557 -0.48644319 -0.23507082 0.12991872
-0.07139682 -0.33770823 0.16360429 -0.92784822 0.33969691 0.15396 0.030099168
-0.068576813 -0.3332701 0.16656847 -0.92341024 0.30862471 0.22817616 0.043785211
-0.25106335 -0.32069305 0.16334954 0.021630811 0.32819134 -0.94436359 0.12368825
-0.24542299 -0.32448307 0.16407317 0.51501071 0.63292533 -0.57807392 0.10008164
-0.23300342 -0.32532987 0.16794516 0.36882177 -0.55533093 -0.74537116 0.25421083
-0.22461171 -0.32422179 0.16513102 -0.64296323 0.73874134 0.2021376 0.21228652
-0.21511166 -0.32589367 0.1652139 -0.78594053 0.60121429 0.14435644 0.11206637
-0.063863441 -0.32420972 0.16408002 0.9130578 0.037413396 -0.40611026 0.092107959
-0.2541779 -0.3163422 0.16403601 0.064280421 0.28523681 -0.95629913 0.12482104
-0.24460447 -0.3169845 0.16353501 0.24169987 0.53008807 -0.81276548 0.1173355
-0.23770672 -0.31849658 0.16357481 0.12991421 0.8387658 -0.52876681 0.20345147
-0.21171322 -0.31876731 0.16331422 -0.80383611 0.59016699 0.074500695 0.065958619
-0.20782396 -0.31186324 0.16385385 0.81665957 -0.57192737 -0.077242315 0.043825552
-0.073309898 -0.31119183 0.16210519 0.60937148 0.57867992 -0.54202944 0.052134179
-0.064911224 -0.3145445 0.16384023 0.79719758 0.39124113 -0.45978954 0.083607659
-0.059235197 -0.31560433 0.16580118 0.83420438 0.25376073 -0.48960042 0.082542509
-0.20290291 -0.30321735 0.16494313 0.8643266 -0.49847338 -0.066811085 0.0089581385
-0.092648007 -0.30141672 0.16304578 0.65347064 0.62779778 -0.42290199 0.07871186
-0.08504384 -0.3036319 0.16515671 0.55564165 0.68815082 -0.46659499 0.047160462
-0.075378992 -0.3083452 0.16494878 0.60141826 0.60965949 -0.51634425 0.050365083
-0.069408424 -0.30937827 0.16768198 0.66645825 0.55262929 -0.50043398 0.075994715
-0.20049275 -0.29856035 0.16356185 0.86976683 -0.48219657 -0.10484375 3.5428817e-05
-0.19813065 -0.29414529 0.16288383 0.86876547 -0.4844079 -0.10293438 5.2767558e-05
-0.10033235 -0.29475534 0.16752671 0.76310557 0.57369387 -0.29756573 0.095505096
-0.097303838 -0.29620343 0.16513668 0.74206132 0.56782281 -0.35626143 0.091969013
-0.08837378 -0.29948276 0.16907485 0.60120839 0.6855514 -0.41057006 0.05721873
-0.19293267 -0.28533551 0.1654965 0.84148383 -0.53658777 -0.063075602 0.010853633
-0.09691485 -0.28483081 0.16359678 0.93683946 0.33925831 0.085061535 0.11828674
-0.19040504 -0.27979612 0.16107793 -0.75894076 0.65108567 -0.0098131504 0.049064782
-0.18682902 -0.27408594 0.16446425 -0.7141028 0.69595736 -0.075502835 0.056534223
-0.16095164 -0.27018797 0.16134492 0.11931053 0.86846685 -0.48117602 0.034815468
-0.15484002 -0.27200931 0.1629791 0.17159911 0.86460292 -0.47224522 0.033158787
-0.1436974 -0.27553847 0.16504946 0.020263726 0.90598702 -0.42282024 0.073910289
-0.13412872 -0.27228394 0.16648804 -0.18976225 0.98083454 -0.044204041 0.12265847
-0.10081907 -0.27060527 0.16489638 0.74073398 0.4834545 0.46645993 0.12062642
-0.095955312 -0.27581275 0.16474997 0.81578016 0.47782734 0.3258585 0.10372151
-0.18208891 -0.26567683 0.16514596 -0.48504841 0.84933841 -0.2082119 0.085070424
-0.17446962 -0.26142767 0.16579619 -0.25099638 0.90559191 -0.34191245 0.080372415
-0.16484579 -0.26636946 0.16435245 0.081423357 0.88297498 -0.46230456 0.054309778
-0.15650828 -0.268832 0.1666155 0.17598364 0.87380987 -0.45330575 0.028347006
-0.13270767 -0.26690158 0.16167387 -0.37454647 0.92718595 0.0064193727 0.11367525
-0.12561247 -0.26370662 0.16512126 -0.2078439 0.93692672 0.28101459 0.11574691
-0.11465111 -0.26260978 0.16469367 0.18481459 0.7866621 0.58907241 0.10836952
-0.105786 -0.26634631 0.16591227 0.51735365 0.64566362 0.56166148 0.11133951
-0.097897328 -0.2697928 0.16030601 0.76398861 0.33578905 0.55096912 0.13006441
-0.17580689 -0.25917846 0.16856733 -0.31996742 0.90331846 -0.28572118 0.07942652
-0.11401933 -0.25821623 0.16278104 0.044089567 0.69477218 0.71787721 0.12560104
-0.10563914 -0.25566095 0.16141529 0.22261347 0.48750642 0.84426349 0.12462536
-0.099524349 -0.25980741 0.16102153 0.56611073 0.37661374 0.73326725 0.12181093
-0.13490836 -0.45120198 0.17495708 -0.23482095 0.91796952 -0.31967333 0.087566927
-0.16252145 -0.44045296 0.17270322 0.36569193 0.77843088 -0.51021051 0
-0.15468138 -0.44310102 0.17432493 0.26780516 0.82305026 -0.5008679 0.015335588
-0.14479271 -0.44702145 0.17548625 0.052611463 0.89504081 -0.44287029 0.059167672
-0.13310277 -0.44799787 0.17386898 -0.42518672 0.86376595 -0.27041554 0.096426971
-0.1288753 -0.44373381 0.17372151 -0.60134548 0.7882517 -0.13054816 0.082308456
-0.18510725 -0.43078223 0.17114212 0.36804882 0.77721304 -0.5103724 0
-0.17460427 -0.43304837 0.17526652 0.36813378 0.77728635 -0.51019949 0
-0.16482027 -0.43709499 0.17615998 0.36812967 0.77724373 -0.5102672 7.4907708e-05
-0.15946549 -0.43990356 0.17574447 0.3465642 0.78825611 -0.50847375 0.001172345
-0.12356996 -0.43438119 0.17475297 -0.77181989 0.63532943 -0.025508946 0.038862914
-0.20336488 -0.42178899 0.17167114 0.36812955 0.77722645 -0.51029366 0
-0.19436444 -0.42520663 0.17295764 0.36806211 0.77726454 -0.51028425 1.1598255e-05
-0.18605836 -0.42746654 0.17550671 0.36805499 0.77719969 -0.51038826 0.000191442
-0.12059249 -0.42820022 0.17110795 -0.84695166 0.52640343 0.07464768 0.0072008604
-0.11807076 -0.42489275 0.17675504 -0.84774786 0.52557552 0.071371607 0.0074357069
-0.22346474 -0.41227597 0.17166302 0.36817092 0.77717835 -0.51033717 0
-0.21464743 -0.41357568 0.17604351 0.36813128 0.77724123 -0.51026988 7.0424558e-06
-0.20628512 -0.41827789 0.17491291 0.36815774 0.77721071 -0.5102973 0
-0.1995609 -0.4184939 0.17943436 0.3681199 0.77724969 -0.51026529 0
-0.11343696 -0.41574678 0.17322798 -0.86321628 0.49651062 0.091295727 0.010801887
-0.10995434 -0.41015637 0.17639253 -0.86768818 0.49111092 0.07698901 0.011405011
-0.24339597 -0.40249568 0.17218371 0.71397233 0.51195413 -0.47764692 0.069393247
-0.23515774 -0.40426162 0.17543618 0.53806001 0.6607911 -0.52330351 0.035673026
-0.22662687 -0.40744051 0.17674764 0.37292475 0.77499211 -0.51021016 5.8451191e-05
-0.10747869 -0.40530756 0.17467822 -0.82650214 0.5548532 0.095037483 0.031257104
-0.055898163 -0.40130779 0.17617188 -0.0095345285 0.288201 -0.95752245 0.057505045
-0.25141102 -0.39490283 0.17484084 0.86770284 0.20463446 -0.45300835 0.074002765
-0.24518521 -0.39911929 0.17603615 0.75310117 0.40872866 -0.5155381 0.070410997
-0.10274144 -0.39660802 0.17402032 -0.79631948 0.59793317 0.091384508 0.086054489
-0.094828971 -0.39129481 0.17766535 -0.7595588 0.64269876 0.10004298 0.15908591
-0.083365612 -0.39214647 0.17594233 0.21889661 -0.17801553 -0.95937204 0.26350895
-0.074495427 -0.39485595 0.17661169 -0.14147219 -0.30945337 -0.940332 0.16290188
-0.065466128 -0.39489618 0.17737906 0.06521602 0.25959468 -0.96351308 0.080206752
-0.058201261 -0.39901447 0.17619601 0.17429139 0.43213281 -0.88480711 0.072412871
-0.24677365 -0.38479868 0.1756417 0.95373887 -0.11922201 -0.27598605 0.065237246
-0.10064122 -0.38640797 0.17575711 -0.80934858 0.55826271 0.18247633 0.098902345
-0.096395411 -0.38497323 0.17469096 -0.81996942 0.52570909 0.22645096 0.098790951
-0.084744826 -0.38597414 0.17232826 0.7863462 -0.35674128 -0.50437623 0.22610535
-0.075841159 -0.38676769 0.17611064 0.013293776 -0.025500538 -0.99958646 0.21963017
-0.24256876 -0.37679178 0.17376629 0.92930496 -0.29102555 -0.22736844 0.036395073
-0.2392235 -0.37138367 0.17663313 0.90325093 -0.39080977 -0.17721601 0.018235911
-0.093759723 -0.37554431 0.17457753 -0.89218962 0.4070746 0.19567309 0.099966004
-0.086408474 -0.37500313 0.17654584 -0.94279218 0.30191723 0.14138214 0.1617386
-0.2364395 -0.36593166 0.17470852 0.86974853 -0.4817147 -0.10718387 3.9198821e-05
-0.085065581 -0.3649371 0.17514245 -0.91650951 0.38755944 0.0990358 0.057923868
-0.23281558 -0.35956278 0.17550178 0.88504291 -0.44851688 -0.12462632 0.0068453327
-0.22944736 -0.35294703 0.17308415 0.91033173 -0.36938661 -0.18668061 0.038139429
-0.081606582 -0.35851502 0.17434525 -0.91269165 0.38946223 0.12374586 0.038089503
-0.077818714 -0.3522034 0.17673965 -0.87982559 0.46456718 0.10042047 0.0095139537
-0.22502561 -0.34537652 0.17496087 0.88620102 -0.41309637 -0.20976001 0.044903852
-0.074389167 -0.34546858 0.17428444 -0.87057382 0.47994843 0.10840061 2.9406709e-05
-0.22121014 -0.33743 0.17282741 0.84032798 -0.43809426 -0.3192527 0.10705041
-0.21805942 -0.3332828 0.17533089 0.87713629 -0.43743041 -0.19820832 0.084168695
-0.071028203 -0.33956534 0.17503594 -0.8788864 0.46016923 0.12570992 0.002164481
-0.067873158 -0.33366278 0.17410591 -0.91878968 0.34072888 0.1993221 0.030103464
-0.21352868 -0.32460439 0.17490965 0.83555943 -0.53477019 -0.12594126 0.078080438
-0.062205147 -0.32345441 0.17422703 0.95499212 -0.1804837 -0.23540519 0.057233326
-0.21066296 -0.3189927 0.17292984 -0.81071079 0.58376235 0.044379644 0.066939466
-0.20722723 -0.31329429 0.17522182 -0.84171146 0.5339244 -0.080289349 0.056998633
-0.06036301 -0.31967968 0.17219582 0.95066476 -0.041859593 -0.30738291 0.080024719
-0.057393458 -0.31384903 0.17491646 0.87488562 0.14838973 -0.46103749 0.074528478
-0.20183015 -0.30335844 0.17436066 0.86233324 -0.50415117 -0.047043018 0.018752325
-0.082471803 -0.30116013 0.17077713 0.51947784 0.71688396 -0.46499485 0.033724472
-0.074280366 -0.30297589 0.17392008 0.5130794 0.69848424 -0.49886796 0.028999941
-0.065864816 -0.30597049 0.17542902 0.66882944 0.51618409 -0.53499651 0.075629026
-0.057093173 -0.30843192 0.1780069 0.82086021 0.32927087 -0.46665761 0.074459381
-0.20000941 -0.29936248 0.17115192 0.85553843 -0.51507264 -0.052479513 0.01416098
-0.19688448 -0.29492694 0.17662306 0.83866906 -0.54105371 -0.062410221 0.015808037
-0.10033955 -0.29174909 0.17222376 0.73561329 0.64503956 -0.20687462 0.090277113
-0.094546922 -0.293933 0.17307557 0.66276157 0.70327097 -0.25721008 0.076748341
-0.084475987 -0.29714337 0.17544994 0.51543641 0.74470347 -0.42396009 0.034694035
-0.19269559 -0.28697985 0.17488788 0.86873752 -0.48409835 -0.10461298 1.9402276e-05
-0.18992335 -0.28161016 0.17323998 0.84056139 -0.53864384 -0.057613537 0.011876428
-0.11394146 -0.28056049 0.17886218 0.50890404 0.85980755 -0.04180542 0.093433946
-0.103012 -0.28563362 0.17542632 0.74180329 0.66472358 -0.088715732 0.10444267
-0.099144459 -0.28405675 0.17357732 0.78468454 0.61743623 0.055160958 0.12310526
-0.18615188 -0.27502725 0.17427073 -0.79031283 0.61226118 0.023277186 0.034388889
-0.14474288 -0.27106333 0.17170349 0.1026695 0.91509527 -0.38994807 0.054278731
-0.13419572 -0.27348077 0.17530146 0.085576639 0.97775155 -0.19151643 0.08167389
-0.12548794 -0.27330148 0.17649618 0.24741051 0.96890563 0.00315056 0.094545178
-0.11614075 -0.2745465 0.17627585 0.39318857 0.88903743 0.23455331 0.13154668
-0.10584135 -0.27580553 0.17281586 0.58111489 0.72434688 0.37098125 0.11408338
-0.18226945 -0.2683228 0.17565882 -0.68900698 0.71820205 -0.097238012 0.071207531
-0.17904246 -0.2622211 0.17441505 -0.56607592 0.79264849 -0.226421 0.089360476
-0.1635929 -0.26142001 0.17279541 0.010341588 0.90291196 -0.429701 0.074111134
-0.15406024 -0.26449901 0.17498162 0.16863169 0.87101132 -0.46141395 0.033077564
-0.1455507 -0.26766959 0.17629027 0.14236443 0.90673649 -0.39693996 0.047136262
-0.13946094 -0.26823545 0.1798211 0.21469337 0.91884387 -0.33110824 0.052690282
-0.12257177 -0.2653589 0.17134166 0.10751892 0.93461174 0.33902895 0.10103663
-0.11716764 -0.26545957 0.17222871 0.21603701 0.91962516 0.32805115 0.099787734
-0.17469597 -0.25635388 0.1754749 -0.41060606 0.87288445 -0.26358184 0.08324527
-0.16638976 -0.25717521 0.17724381 -0.078442678 0.9300521 -0.35895661 0.085880585
-0.14131373 -0.44379339 0.18291287 0.025747674 0.91017592 -0.41342089 0.060742285
-0.13337651 -0.44538444 0.18546325 -0.22073741 0.89084715 -0.39707217 0.082512058
-0.12748489 -0.4436819 0.18486369 -0.39265782 0.87965816 -0.26836774 0.082240321
-0.16418505 -0.4322359 0.1840198 0.36809114 0.77725774 -0.51027381 3.5119781e-05
-0.15525448 -0.43625873 0.18433395 0.31860545 0.80770433 -0.49608895 0.0049552168
-0.14549363 -0.43843833 0.18805487 0.18979755 0.86305976 -0.46808627 0.032014742
-0.12254032 -0.43456692 0.18401961 -0.71155781 0.69176161 -0.12309116 0.053843848
-0.19170642 -0.42040944 0.18218222 0.36816573 0.77717108 -0.51035196 0
-0.18480201 -0.42280731 0.18351015 0.36805502 0.77725422 -0.51030517 7.6705132e-05
-0.17543499 -0.42550102 0.1861636 0.36807293 0.7772463 -0.51030433 2.0886389e-06
-0.16934821 -0.42696658 0.18832189 0.36808807 0.77728635 -0.51023239 0
-0.11680973 -0.42432323 0.18449296 -0.8281588 0.55843419 0.048004217 0.015247677
-0.21055883 -0.41124693 0.18254006 0.36809874 0.77726573 -0.51025605 4.0941835e-05
-0.20576599 -0.41230306 0.1843885 0.36815715 0.77720028 -0.51031369 0
-0.19730416 -0.41835675 0.18127112 0.3681494 0.77718526 -0.51034224 0
-0.18881369 -0.41783571 0.18818927 0.36806273 0.7772854 -0.51025206 3.3097826e-05
-0.11222609 -0.41585785 0.18363951 -0.87197012 0.47777164 0.10678183 0.0013939926
-0.1097397 -0.41139436 0.18375899 -0.87096661 0.47843754 0.11186902 0.0027543956
-0.224957 -0.40327799 0.18429273 0.41408437 0.75551635 -0.50767028 0.0062241307
-0.21557093 -0.40727139 0.18498029 0.36807528 0.77721155 -0.51035553 2.8653838e-05
-0.20720918 -0.40861043 0.18897228 0.36813739 0.77722716 -0.51028693 1.8624866e-06
-0.1066886 -0.40628245 0.18556103 -0.84025413 0.53491604 0.088531792 0.022861235
-0.24540575 -0.39391264 0.18348855 0.86751163 0.27788058 -0.41256016 0.066467978
-0.23505889 -0.39645603 0.18739735 0.64323026 0.596129 -0.48050496 0.059876747
-0.22958517 -0.39794949 0.18907085 0.52829176 0.66623467 -0.52634513 0.036202636
-0.10187896 -0.39728624 0.18415129 -0.7845726 0.61616212 0.069210589 0.091055304
-0.096030481 -0.39190868 0.18463957 -0.79322374 0.60825741 0.028617211 0.13511655
-0.083424956 -0.39302698 0.18247432 -0.32328361 -0.073212013 -0.94346577 0.24310364
-0.074986756 -0.39397597 0.18234704 0.0024139257 0.67964822 -0.73353428 0.17336144
-0.067062989 -0.3938027 0.18102702 0.32532185 0.75646865 -0.56738079 0.08579535
-0.24620973 -0.38599831 0.18569252 0.91109699 0.10191102 -0.39939508 0.071344174
-0.10151549 -0.38801104 0.18357679 -0.82211548 0.56580496 0.063174039 0.10760704
-0.095653333 -0.38563374 0.18506484 -0.85196316 0.52310276 -0.022853684 0.10513909
-0.084652051 -0.38394976 0.18795748 -0.85216838 0.52275354 -0.023189325 0.1840823
-0.075861208 -0.38456187 0.18251844 0.58408773 0.56745344 -0.58037758 0.24370533
