# .PCD v0.7 - Point Cloud Data file format
VERSION 0.7
FIELDS x y z normal_x normal_y normal_z curvature
SIZE 4 4 4 4 4 4 4
TYPE F F F F F F F
COUNT 1 1 1 1 1 1 1
WIDTH 562
HEIGHT 1
VIEWPOINT 0 0 0 1 0 0 0
POINTS 562
DATA ascii
-0.03838595 -0.019518372 -0.35387415 0.74004281 0.67222327 0.021273606 0.026519433
0.038451273 -0.018932348 -0.35534552 -0.75003266 0.66095829 -0.024187824 0.026935104
0.042567868 -0.01294596 -0.35366401 -0.90310383 0.4272027 -0.043604337 0.038274705
-0.045414113 -0.0055575841 -0.35555559 0.98723149 0.15815851 -0.018970096 0.037350483
0.045423999 -0.0041662767 -0.35428554 -0.99699444 0.03160239 -0.07073535 0.038885228
-0.045029778 0.0050879512 -0.35495844 0.9856267 -0.16884021 -0.0057539437 0.028623842
0.044935502 0.0050863628 -0.35616326 -0.97795188 -0.20450224 -0.042295355 0.039540999
-0.041497163 0.013248447 -0.35362157 0.88448048 -0.46656257 0.0037064666 0.034773454
-0.03767281 0.017853055 -0.3553043 0.70249397 -0.71168524 0.0025284581 0.027300417
0.037567321 0.017912222 -0.3541536 -0.7195105 -0.69448096 -0.00088897959 0.0242656
0.041440614 0.01289007 -0.35568359 -0.86806816 -0.49567175 -0.027699798 0.039675552
-0.033049311 0.021974301 -0.35377434 0.61025625 -0.79217786 -0.0064574596 0.010608823
-0.024337444 0.027022857 -0.35403243 0.42880809 -0.9030599 -0.02462633 0.010108592
-0.018390941 0.029266484 -0.35570231 0.33187014 -0.94279397 -0.031649686 0.010029497
0.017492365 0.029488523 -0.35517821 -0.3382318 -0.9408654 -0.019276559 0.0091843838
0.024425169 0.026872121 -0.35482031 -0.45935544 -0.88797438 -0.022227356 0.013281747
0.032100033 0.022574835 -0.3541342 -0.60058177 -0.7993564 -0.018187918 0.01930294
-0.012511789 0.030837838 -0.3538079 0.20203869 -0.9788357 -0.032573961 0.010000186
-0.004486064 0.031938735 -0.35601264 0.042004779 -0.99857903 -0.032795064 0.0059778742
0.0049933163 0.031793211 -0.3551631 -0.057655271 -0.9979102 -0.029174276 0.0071478016
0.012315555 0.030840298 -0.35483146 -0.20235449 -0.97904444 -0.022903938 0.0090453308
-0.020889657 -0.03066422 -0.34501007 0.39523071 0.91851753 -0.010870966 0.013520667
-0.014232833 -0.032414906 -0.3448692 0.25703743 0.96630961 -0.013320497 0.01041288
-0.0059917341 -0.03373329 -0.34366339 0.075620569 0.99694866 -0.019362792 0.0091976114
0.0047034039 -0.033808596 -0.34466493 -0.077395022 0.99682897 -0.018497156 0.0055346657
0.015521777 -0.031950153 -0.34389511 -0.28196967 0.9594208 -0.0021758515 0.010815766
0.021481495 -0.030034751 -0.34190774 -0.39557418 0.91843158 -0.0021307117 0.013166283
-0.034039635 -0.023159629 -0.34452087 0.66335744 0.74830133 -0.0013847047 0.021150922
-0.02707026 -0.027680451 -0.34546426 0.51755494 0.85550439 -0.015782658 0.01364841
0.025475038 -0.028318176 -0.34490129 -0.47858238 0.87804258 -0.00046962383 0.0085808598
0.033827018 -0.022945534 -0.34473997 -0.65686733 0.75396121 -0.0082285684 0.011649238
-0.042386293 -0.013603233 -0.34538913 0.89049858 0.45478043 -0.01367485 0.038691048
-0.038845938 -0.018860206 -0.34341857 0.75256497 0.65851748 0.00082431117 0.024471872
0.038439482 -0.018580671 -0.34492537 -0.74752843 0.66415304 -0.01010316 0.026712166
0.041613866 -0.014285319 -0.34569013 -0.88771528 0.45974609 -0.024391739 0.039390277
-0.045412421 -0.0047453339 -0.3454062 0.99552035 0.094317891 0.0065815928 0.04463305
0.044978715 -0.0051140604 -0.34472254 -0.99649715 0.082155697 -0.015613959 0.034002926
-0.044991028 0.0047297426 -0.34503889 0.98453319 -0.17369343 -0.022914987 0.042066693
0.044312794 0.0056729787 -0.34499964 -0.96942067 -0.2406451 -0.04809919 0.037645709
-0.041970573 0.0121392 -0.34524325 0.88762563 -0.45889038 -0.039246317 0.036775619
-0.038310993 0.016934151 -0.34589428 0.736947 -0.6755681 -0.022734059 0.025075296
0.037192371 0.017716693 -0.34431958 -0.71056157 -0.70244074 -0.04098003 0.026061982
0.041160416 0.012665897 -0.34609652 -0.8675853 -0.49436143 -0.053874303 0.032365721
-0.032824621 0.021906011 -0.34467608 0.60487807 -0.79602557 -0.021582847 0.019533461
-0.025575645 0.026173586 -0.34493151 0.47499779 -0.87957633 -0.02688239 0.010456535
-0.01744278 0.029339846 -0.34561944 0.31884411 -0.94770557 -0.01387503 0.012308957
0.017684568 0.029131316 -0.34510574 -0.36419925 -0.9304533 -0.040194385 0.011908333
0.024890723 0.026277868 -0.34490168 -0.48330608 -0.87479216 -0.033969607 0.010926487
0.032834761 0.021527195 -0.34549251 -0.65439254 -0.75502163 -0.041384839 0.022833159
-0.012727525 0.030605637 -0.34516844 0.2410271 -0.97003001 -0.030784318 0.011167702
-0.0054980032 0.031537693 -0.34505743 0.084588699 -0.99617249 -0.022028288 0.0064406698
0.0043634861 0.031535696 -0.34416908 -0.06297119 -0.99764091 -0.027336048 0.0050360421
0.012070203 0.030590307 -0.34449831 -0.21022445 -0.97710568 -0.032713927 0.012163768
-0.021190709 -0.030451156 -0.33566025 0.39189824 0.91922528 -0.037955549 0.013194975
-0.015415055 -0.032021143 -0.33446789 0.30874547 0.95098251 -0.017562311 0.0091690663
-0.0040761433 -0.033772629 -0.33462015 0.032092754 0.99948037 -0.0030004184 0.007770299
0.0045081265 -0.033750374 -0.33453104 -0.058223113 0.99817294 -0.016149621 0.0063653849
0.015381279 -0.031880639 -0.33559322 -0.31360018 0.94933397 -0.020493558 0.0092759077
0.020698063 -0.030204445 -0.33588061 -0.39233863 0.91897464 -0.039445329 0.013456376
-0.033244979 -0.023725009 -0.33500457 0.63635349 0.77092648 -0.026954867 0.012809244
-0.025307503 -0.028485434 -0.33461905 0.47864094 0.8779068 -0.013510183 0.009071812
0.024955951 -0.028344495 -0.33578077 -0.47390938 0.88002503 -0.031076767 0.016036624
0.033341397 -0.023105962 -0.33501372 -0.68013948 0.7325983 -0.026646569 0.018544421
-0.042022865 -0.013962771 -0.33462927 0.88698751 0.46109012 -0.025474636 0.041528549
-0.039584965 -0.017815029 -0.33602744 0.76503575 0.64248276 -0.044002965 0.027642161
0.038171992 -0.018414073 -0.33227313 -0.77097744 0.63686234 0.00012418705 0.027458142
0.041047767 -0.014610151 -0.33335918 -0.86501098 0.50079197 -0.031038189 0.037558027
-0.045084707 -0.0059109973 -0.33536315 0.9919467 0.12632188 -0.0092031201 0.030641019
0.044472009 -0.0059485654 -0.33473375 -0.98621374 0.16547051 -0.0013731493 0.036345873
-0.044930395 0.0043180999 -0.33472717 0.97401553 -0.22645898 0.003176233 0.034379344
0.044438045 0.0035732572 -0.33438063 -0.98710889 -0.1578237 -0.026602104 0.040046986
-0.041693918 0.012338724 -0.33485845 0.88143539 -0.47229144 0.0035216946 0.037927076
-0.037391733 0.017580608 -0.33517218 0.69954836 -0.71394461 -0.030253114 0.027373426
0.036881931 0.017486097 -0.33523482 -0.71763092 -0.69587308 -0.027685469 0.025529256
0.040773936 0.012575353 -0.33605653 -0.86590713 -0.4971298 -0.055378493 0.039457165
-0.033041544 0.0215676 -0.3351036 0.60277969 -0.79727787 -0.031694621 0.012172881
-0.024879308 0.026235439 -0.3351078 0.47458127 -0.87984753 -0.025318006 0.011347407
-0.01716732 0.029189626 -0.33562955 0.30613011 -0.95024037 -0.057685919 0.01229886
0.01626461 0.029232778 -0.33616334 -0.31081611 -0.94962227 -0.040135782 0.011719199
0.024944849 0.025902187 -0.33526659 -0.48321557 -0.87527138 -0.020066548 0.014158981
0.031833392 0.021875264 -0.33316532 -0.56057763 -0.82740837 -0.033883296 0.013806637
-0.012699381 0.030393522 -0.33591783 0.20116606 -0.97888911 -0.036169462 0.0098545626
-0.0041542454 0.031376865 -0.33393058 0.034910209 -0.99935067 -0.0089118686 0.0062832101
0.004769227 0.031258333 -0.33487675 -0.11231358 -0.99257571 -0.046681166 0.0073165903
0.011880822 0.030420519 -0.33728358 -0.20584716 -0.97805554 -0.032160662 0.011129146
-0.020648805 -0.030561754 -0.32509872 0.39155108 0.91991872 -0.020911209 0.014534471
-0.015692104 -0.031873349 -0.32505047 0.30687189 0.95174402 -0.0035928844 0.0096610589
-0.0049153352 -0.033641994 -0.3261655 0.06221034 0.99803054 -0.008061693 0.0062368298
0.0048397821 -0.033600695 -0.32364661 -0.067301273 0.99773222 0.00098718912 0.0062824427
0.015543826 -0.031673305 -0.32538113 -0.31912416 0.94672769 -0.043202709 0.0092114592
0.020563945 -0.030123321 -0.32773289 -0.40309691 0.91351384 -0.05482075 0.01290963
-0.03358395 -0.023334339 -0.32435998 0.63799357 0.76983982 -0.017628076 0.011834849
-0.025975535 -0.028069148 -0.32483128 0.45697385 0.88940781 -0.011344193 0.0091002537
0.025531422 -0.027831549 -0.32640401 -0.51171672 0.85853261 -0.03267638 0.013102189
0.032955363 -0.023105215 -0.32451442 -0.69259298 0.72127068 -0.0091397502 0.019704893
-0.042207792 -0.013540693 -0.32476988 0.89556128 0.44478649 -0.011618489 0.037875321
-0.039218057 -0.018154135 -0.32549667 0.75745761 0.65231085 -0.027358063 0.025012227
0.038154069 -0.018248176 -0.32699338 -0.78482503 0.6179868 -0.04628069 0.03470704
0.041413609 -0.013235956 -0.32364035 -0.89959937 0.43616492 0.021936283 0.03524211
-0.045224473 -0.0049626781 -0.32513261 0.99855816 0.051756017 0.014248775 0.034355465
0.044147719 -0.005740724 -0.32427254 -0.98026025 0.19756302 -0.007668254 0.038077045
-0.044450272 0.0053112423 -0.32507756 0.96807241 -0.2494235 -0.024974016 0.033642102
0.043853741 0.0044129761 -0.32505015 -0.98476011 -0.17389828 0.0026315092 0.038097482
-0.040826447 0.013616656 -0.32634696 0.8804794 -0.47301179 -0.031872697 0.033290528
-0.03789765 0.016767221 -0.32466772 0.72795856 -0.68541372 -0.016862148 0.024795653
0.036978517 0.0168088 -0.32474589 -0.74170381 -0.66948855 -0.040749956 0.026360445
0.041261666 0.011154109 -0.32637027 -0.92072606 -0.3865132 -0.05358186 0.035218805
-0.032385148 0.021727789 -0.32485893 0.5957557 -0.80236745 -0.035800543 0.021994743
-0.024777057 0.026051072 -0.32648793 0.4787308 -0.8774063 -0.03122694 0.0097305365
-0.015451593 0.029443851 -0.32321376 0.26133364 -0.96511245 -0.016209194 0.0090742894
0.016199207 0.02893837 -0.32592663 -0.27267131 -0.96047556 -0.056009784 0.009489594
0.025493812 0.025293931 -0.3258777 -0.5036099 -0.86271238 -0.0458734 0.013043938
0.03147373 0.021837905 -0.32553786 -0.56889313 -0.82124931 -0.043704256 0.014410733
-0.011964509 0.030259714 -0.32595515 0.21632998 -0.97576201 -0.033011254 0.012808784
-0.0045870277 0.031116923 -0.32485962 0.09577807 -0.99508017 -0.02533876 0.0069279359
0.005623925 0.030915102 -0.32466584 -0.13413593 -0.99051446 -0.029809186 0.0078881579
0.010588442 0.030478768 -0.32802466 -0.18383816 -0.98227584 -0.036575165 0.010354334
-0.014841469 -0.032013841 -0.31455255 0.28870764 0.95738053 -0.0083902394 0.0084831193
-0.0048304051 -0.033538871 -0.31428263 0.075706825 0.99712992 -0.0006339901 0.0053224694
0.0047668256 -0.033485673 -0.31492507 -0.072676107 0.99722993 -0.01583172 0.0063781706
0.015145665 -0.031700786 -0.31607533 -0.32570153 0.94445765 -0.043797575 0.008528335
-0.033811525 -0.02297928 -0.31525379 0.68237984 0.73078054 -0.017821569 0.017679958
-0.026715083 -0.027623704 -0.31592193 0.50972152 0.86016858 -0.017148411 0.012350104
0.025701001 -0.027599894 -0.31662464 -0.51471877 0.8568278 -0.030175989 0.011660605
0.033389721 -0.02252261 -0.31534272 -0.70764309 0.70641416 -0.014847714 0.021721929
-0.042406492 -0.013041821 -0.31546879 0.89596057 0.44268081 -0.035892654 0.038897112
-0.038498864 -0.018876938 -0.31602493 0.75318027 0.65722895 -0.02774174 0.028465221
0.038564529 -0.017298965 -0.31422487 -0.83755529 0.54635251 -1.2879307e-05 0.041961558
0.041582201 -0.012426432 -0.31652939 -0.93430698 0.3533504 -0.047053993 0.038957186
-0.044912551 -0.0058524371 -0.31564286 0.98750842 0.15729947 -0.0091616176 0.035513252
0.044057027 -0.0039819214 -0.31419754 -0.998927 0.011743469 -0.044798896 0.036369473
-0.044712424 0.0041476944 -0.31478241 0.98390073 -0.17820919 0.013449226 0.03781677
0.04324403 0.0056225434 -0.31641445 -0.97370416 -0.22459975 -0.038146663 0.044942167
-0.041547354 0.011797891 -0.31455526 0.9032191 -0.42915282 -0.0047984421 0.029426025
-0.036558531 0.01792533 -0.31680641 0.69563597 -0.71744657 -0.036891233 0.026371628
0.03694934 0.016167838 -0.31510594 -0.76262504 -0.64592719 -0.034368072 0.03522677
0.040181205 0.012017976 -0.31456515 -0.91676122 -0.39931881 -0.0096663656 0.032757036
-0.032147765 0.021710549 -0.31612542 0.57293916 -0.81874108 -0.037465934 0.013775419
-0.026357703 0.024982762 -0.31373864 0.51540494 -0.85687745 -0.010898335 0.013396951
-0.016689315 0.028814236 -0.31411231 0.27608529 -0.96102357 -0.014508412 0.0086615095
0.015282623 0.028825555 -0.31429717 -0.26756221 -0.96321172 -0.025171848 0.0098297549
0.024549266 0.025370941 -0.31464994 -0.5022763 -0.86342841 -0.047010258 0.012222608
0.031482752 0.021305528 -0.31417131 -0.59227496 -0.80543268 -0.022102356 0.021197394
-0.010937063 0.030151207 -0.31644866 0.16481018 -0.9855361 -0.039448984 0.0095413821
-0.0058207894 0.030737657 -0.31531304 0.12921998 -0.99110049 -0.031970419 0.0081606973
0.0039467011 0.030774869 -0.31508282 -0.10464717 -0.99432671 -0.019059628 0.0059523624
0.010803685 0.030018307 -0.31475928 -0.18680833 -0.98193282 -0.030174758 0.010231533
-0.021138435 -0.030253753 -0.30507007 0.39261711 0.91960448 -0.013393961 0.014268756
-0.01574559 -0.03169632 -0.30457538 0.30235997 0.95316422 -0.007511592 0.0091859726
-0.0043678596 -0.033486489 -0.30532381 0.08583349 0.99630934 -0.00054679805 0.004532278
0.005241158 -0.033309575 -0.30409235 -0.066274069 0.99775416 -0.0097163431 0.0061808322
0.01439226 -0.031705949 -0.30582765 -0.33066598 0.94341439 -0.025084343 0.0089423945
-0.033916626 -0.022837309 -0.30366683 0.68253517 0.73081541 -0.0073935208 0.021817485
-0.024831081 -0.028493319 -0.30548745 0.46717006 0.88415819 -0.0040440257 0.0098612998
0.02533008 -0.027553726 -0.30520406 -0.52041209 0.85378963 -0.014646538 0.012149309
0.03355464 -0.022087362 -0.3048901 -0.69313604 0.71989775 -0.036189329 0.019282769
-0.042189136 -0.013185354 -0.30441687 0.90246773 0.42845374 -0.04448973 0.041416325
-0.038846802 -0.018342108 -0.30448946 0.75456959 0.65584856 -0.022078995 0.030316379
0.037670523 -0.01776435 -0.30286747 -0.81963241 0.57224214 -0.027234698 0.03914481
0.040939715 -0.012800334 -0.30314106 -0.94897044 0.31420207 -0.027059672 0.03315185
-0.044834249 -0.0051384377 -0.3043648 0.99745107 0.070540302 -0.010742651 0.03655028
0.043588594 -0.0053467285 -0.30575982 -0.99473715 0.092919126 -0.043175105 0.035064235
-0.044059727 0.0053307768 -0.30510491 0.96898985 -0.24281423 -0.045824215 0.046385754
0.043079019 0.0045408313 -0.30554959 -0.96907711 -0.23822473 -0.064331666 0.044986125
-0.041026201 0.012489813 -0.30559665 0.89503074 -0.44478935 -0.032899212 0.029713284
-0.037275225 0.016866531 -0.30527616 0.75524104 -0.65452951 -0.034670662 0.02524804
0.036399912 0.016361704 -0.30542234 -0.79131824 -0.60760111 -0.068090186 0.029769825
0.040720858 0.010413297 -0.3033798 -0.95457613 -0.29740158 -0.018349404 0.036832858
-0.032223791 0.021393508 -0.30498442 0.58118087 -0.81375539 -0.005573919 0.022982799
-0.024769099 0.02564414 -0.30474904 0.44115043 -0.89706898 -0.025564546 0.011382291
-0.015355325 0.02895201 -0.30495632 0.25991333 -0.96522683 -0.027968856 0.0086192647
-0.009187907 0.029991817 -0.30127397 0.14620225 -0.98901016 -0.021995952 0.007990906
0.01520644 0.028573059 -0.3053439 -0.27450925 -0.96132416 -0.022371737 0.0089778583
0.025163457 0.024718944 -0.30535978 -0.49875554 -0.86533648 -0.049353395 0.014583635
0.031351674 0.021074655 -0.30672392 -0.64758974 -0.76037192 -0.049619965 0.02173995
-0.0038933186 0.030654812 -0.30543122 0.055004489 -0.99828833 -0.019869674 0.0092924898
0.0053239823 0.030377334 -0.30363566 -0.14164223 -0.98978126 -0.016447185 0.0077758445
-0.02055316 -0.030346142 -0.29383677 0.38459513 0.92290878 0.018056896 0.015206944
-0.01543686 -0.031701367 -0.29546699 0.27448699 0.96158451 -0.0034746579 0.011491339
-0.00468062 -0.033371586 -0.29492182 0.034258783 0.9993878 -0.007103995 0.007128431
0.0044832551 -0.033318944 -0.29525155 -0.054048296 0.99808693 -0.030021705 0.0063056517
0.01375167 -0.031808019 -0.29434446 -0.2647815 0.96429431 0.0052153128 0.013036006
-0.033233702 -0.023362603 -0.29547748 0.67941749 0.73364586 -0.012478761 0.020967226
-0.026509803 -0.027563974 -0.29548186 0.49781084 0.86728126 0.0027421284 0.014215855
0.024550168 -0.027654052 -0.29535484 -0.49276254 0.87000406 -0.016672613 0.016394839
0.033034284 -0.022302384 -0.29456684 -0.70173293 0.71216947 -0.019634662 0.019813912
-0.042037543 -0.013255903 -0.29480022 0.8895238 0.4568851 0.0018667763 0.038199257
-0.038866173 -0.018179396 -0.29439169 0.7515136 0.65962023 0.011332444 0.029236352
0.037906345 -0.017163025 -0.2950215 -0.83598828 0.54726583 -0.04029467 0.046801675
0.040797889 -0.012511253 -0.29463592 -0.95357323 0.29726315 -0.04829983 0.038679399
-0.044815429 -0.004803821 -0.29540503 0.99445575 0.10224852 -0.024555579 0.042472705
0.043133933 -0.0054193414 -0.29495889 -0.99144423 0.11180504 -0.067363963 0.036572479
-0.044235788 0.0044802488 -0.29588255 0.97690803 -0.20920679 -0.04339581 0.045472708
0.042314902 0.0056805043 -0.29539135 -0.97080517 -0.23612525 -0.042216592 0.043305203
-0.041044984 0.01208975 -0.29620826 0.89600468 -0.44207215 -0.041807987 0.027523475
-0.037063606 0.016798751 -0.29504272 0.73565602 -0.67729086 -0.0093414411 0.022310762
0.036114238 0.016078509 -0.29548591 -0.80064738 -0.59752882 -0.043854058 0.030485991
0.040626064 0.010063811 -0.29615223 -0.93943352 -0.33708227 -0.061969057 0.036237553
-0.031651251 0.021475259 -0.29435393 0.58705121 -0.80954969 0.00046622712 0.021592073
-0.024888089 0.025228458 -0.29531136 0.45681533 -0.88869005 -0.0393667 0.015474267
-0.014321831 0.028905714 -0.29506776 0.25089979 -0.96728545 -0.037525184 0.010076699
-0.0093033994 0.029787576 -0.29371986 0.14787287 -0.98891854 -0.01318018 0.0084403586
0.0087383883 0.029857228 -0.29451543 -0.16585699 -0.985762 -0.027652949 0.0077547585
0.015600018 0.02816966 -0.29549479 -0.26625198 -0.96333361 -0.03313997 0.010528811
0.024065601 0.024929628 -0.29570097 -0.47630188 -0.87848264 -0.03747946 0.016641628
0.031190293 0.020626508 -0.2940037 -0.61929721 -0.78465545 -0.028049031 0.02569541
-0.0037328079 0.030425539 -0.2942282 0.063121773 -0.99774593 -0.022775913 0.0094495947
0.0032996512 0.030289978 -0.29564869 -0.067161001 -0.99753982 -0.020092702 0.010602485
-0.020689985 -0.030233756 -0.28422499 0.39038047 0.92061812 0.0080815144 0.01471686
-0.01419472 -0.031947035 -0.28499913 0.23571751 0.97182047 0.0014776388 0.011941181
-0.0047910581 -0.033277705 -0.28541276 0.037149124 0.99914461 -0.018165037 0.007062301
0.0056274794 -0.033046763 -0.28419623 -0.092940122 0.99567026 -0.0017000886 0.0090411492
0.014422616 -0.031490434 -0.28503898 -0.31085667 0.95041376 0.0090429718 0.012279132
-0.033532809 -0.022989262 -0.28566626 0.65341079 0.75698119 -0.0058141253 0.012861216
-0.025587587 -0.02794384 -0.28465024 0.48820913 0.87272131 -0.0030454821 0.0097558703
0.018905049 -0.029988527 -0.28305662 -0.41885981 0.90804684 0.0027189094 0.013637275
0.024621917 -0.027480613 -0.28471628 -0.50116116 0.8652932 0.010256614 0.016723903
0.032879245 -0.022175457 -0.28498343 -0.67624736 0.73658293 -0.01162497 0.024385482
-0.041753724 -0.013564906 -0.28407928 0.89115953 0.45307055 0.023702608 0.038413845
-0.038243603 -0.018851051 -0.28510258 0.75379038 0.65707779 0.0069896807 0.030847924
0.038011283 -0.016675528 -0.28516242 -0.85900992 0.50713271 -0.07013122 0.041468076
0.040709775 -0.012046659 -0.28509575 -0.93644524 0.34796163 -0.044642985 0.042537339
-0.044728577 -0.0044735842 -0.28568748 0.99918002 0.040256687 -0.0043207807 0.033333555
0.043022759 -0.00418963 -0.28579155 -0.99800128 0.039542034 -0.049293142 0.044095431
-0.043562192 0.006207149 -0.28549182 0.95943588 -0.27934557 -0.038062055 0.036682706
0.041750781 0.0061573237 -0.28470472 -0.97017908 -0.24229679 -0.0066990517 0.040129617
-0.040974319 0.011891112 -0.2863358 0.89208782 -0.45089033 -0.02961662 0.027655279
-0.037074599 0.016470302 -0.28367296 0.75011766 -0.66125929 -0.0077266111 0.023832316
0.036366154 0.01510911 -0.28564349 -0.83781266 -0.54443276 -0.040778279 0.033491634
0.040068109 0.010167161 -0.28506562 -0.94546717 -0.32464001 -0.026467713 0.034195777
-0.032292061 0.020849885 -0.28477675 0.5902248 -0.80714124 -0.012557651 0.019692419
-0.025409952 0.024775932 -0.28447014 0.46817005 -0.88353413 -0.013569733 0.014637989
-0.015750799 0.028334728 -0.28488225 0.26809961 -0.96287662 -0.031482283 0.0079730526
-0.0084294844 0.029649457 -0.28380835 0.1463366 -0.9891327 -0.014215884 0.0083449455
0.0067994636 0.029780814 -0.28525698 -0.16245767 -0.98611808 -0.034331869 0.007628323
0.015474233 0.027879583 -0.28488511 -0.28119373 -0.95889288 -0.0381382 0.0092537729
0.024446597 0.024224192 -0.28224117 -0.48119184 -0.87633848 -0.022030385 0.014593312
0.03056151 0.020604271 -0.28179237 -0.61030424 -0.79160547 -0.02982524 0.023524953
-0.0031340674 0.030235345 -0.28483966 0.02385688 -0.99953496 -0.018992286 0.0093149915
0.0024547088 0.030060329 -0.28517848 -0.061819304 -0.99763966 -0.029893966 0.01122648
-0.021046262 -0.030059354 -0.27407607 0.38523215 0.92281556 -0.0027540124 0.015428947
-0.014496122 -0.031792346 -0.27524173 0.26408187 0.96423948 -0.022427168 0.01259805
-0.0050193733 -0.033171993 -0.27542943 0.038021177 0.99907184 -0.020245319 0.0069426047
0.0052617183 -0.032985825 -0.27487978 -0.09185417 0.99569386 -0.012512403 0.0086794151
0.015349619 -0.031009547 -0.27493685 -0.31627434 0.9485873 0.012352736 0.013180205
-0.033727776 -0.022719154 -0.27381504 0.63828629 0.76964802 -0.015249282 0.011581927
-0.026141116 -0.02758098 -0.27430037 0.51066464 0.85970181 -0.011596668 0.013675346
0.019407367 -0.029667974 -0.27324489 -0.41015127 0.91199368 -0.0065985648 0.015097868
0.024133952 -0.027625868 -0.27603954 -0.50854218 0.8608948 -0.015652644 0.016872227
0.03220734 -0.022453856 -0.27482536 -0.65339679 0.75672388 -0.021013901 0.021609655
-0.042043529 -0.012916448 -0.27403221 0.8917197 0.4518176 0.026397174 0.038744386
-0.038430985 -0.018423626 -0.27242646 0.78559297 0.61873066 -0.0040191798 0.030976774
0.037317578 -0.01705629 -0.27546129 -0.82961982 0.556835 -0.040813088 0.040910263
0.040646952 -0.011585676 -0.27635652 -0.93882245 0.34353819 -0.024372291 0.044217747
-0.044346027 -0.0058313757 -0.27375656 0.99002939 0.14019525 0.013677646 0.033288851
0.042603478 -0.0045551569 -0.2760385 -0.99415743 0.10207795 -0.0350869 0.044074502
-0.043360386 0.0061249104 -0.27370521 0.95871753 -0.28379664 0.017896108 0.036712382
0.039771993 0.0097454209 -0.27224284 -0.94634831 -0.32254437 -0.019748339 0.031915095
0.041771602 0.0049104337 -0.27428401 -0.97787434 -0.20610067 -0.03583717 0.042137202
-0.040961634 0.011482493 -0.27463943 0.89255399 -0.45084539 -0.0092600854 0.028279046
-0.036293823 0.017065907 -0.27623445 0.73713475 -0.67487341 -0.034326065 0.022070469
0.036908373 0.01408533 -0.27539569 -0.83385402 -0.54893094 -0.057984971 0.03673574
-0.03112402 0.021276487 -0.27354062 0.54513037 -0.8382166 -0.015024014 0.012731054
-0.025456516 0.024521468 -0.27550104 0.4813576 -0.87648869 -0.0079074651 0.012891184
-0.015591796 0.028059639 -0.27434662 0.27690351 -0.96042985 -0.029982217 0.0071395743
-0.0062199528 0.029643359 -0.27414274 0.13774198 -0.98968285 -0.039432615 0.0083329389
0.0045134509 0.029663555 -0.2758221 -0.15515193 -0.98676425 -0.04716092 0.0072292336
0.01541217 0.027608035 -0.27543077 -0.30727127 -0.95076007 -0.040494218 0.0088664517
0.025541099 0.023422098 -0.27516696 -0.50764149 -0.86070704 -0.03851727 0.015009987
0.030692691 0.020139555 -0.27417061 -0.63015354 -0.77588189 -0.030228131 0.025323499
-0.0021166131 0.030114276 -0.27739394 0.0098474836 -0.99916404 -0.039675239 0.0092802746
-0.021007847 -0.030027952 -0.26885185 0.3840473 0.9229477 -0.025985161 0.01440419
-0.015542086 -0.03142608 -0.26468447 0.26812622 0.96336293 -0.0063433466 0.012229803
-0.0050128512 -0.033078667 -0.26516557 0.065137617 0.99755961 -0.025135435 0.0076029431
0.0059277336 -0.032776743 -0.26473826 -0.12551618 0.99207026 0.0064983922 0.010894521
0.01410971 -0.031242693 -0.26522383 -0.31547433 0.94881588 -0.014980157 0.014077773
-0.033144683 -0.023122184 -0.26483968 0.65243036 0.75756192 -0.020847486 0.025541652
-0.025294848 -0.027918177 -0.26355085 0.5145902 0.85738587 -0.009292894 0.014065173
0.018704418 -0.029753249 -0.26351017 -0.41071969 0.91172701 -0.0079479069 0.013821922
0.025840649 -0.026372083 -0.26487863 -0.57415855 0.81838596 -0.02421491 0.016023483
0.032858398 -0.021536466 -0.26516327 -0.718741 0.69408655 -0.040685367 0.028433766
-0.041472718 -0.013691518 -0.265365 0.8898133 0.45490968 -0.035907656 0.039921928
-0.038453721 -0.018230181 -0.26625124 0.75390375 0.65635937 -0.02866146 0.030037813
0.038559441 -0.014756408 -0.266458 -0.8612895 0.50502467 -0.055949677 0.044774059
0.040646929 -0.010847802 -0.26533648 -0.94471496 0.32307896 -0.055979025 0.048637949
-0.044462312 -0.0049175411 -0.2648392 0.99521822 0.088403776 0.041538022 0.041746736
0.041876022 -0.0065475125 -0.26382113 -0.99069858 0.13250828 -0.030951882 0.041053601
-0.043610573 0.0045814216 -0.26378739 0.96924877 -0.24444981 0.028303614 0.043784484
0.039603543 0.0094295014 -0.26384187 -0.93905497 -0.34368536 -0.0074923718 0.033773378
0.041315388 0.0052451058 -0.26506531 -0.97469866 -0.2235128 -0.0021356628 0.039221473
-0.04054945 0.011927075 -0.26517701 0.89619243 -0.44361222 -0.0068803122 0.02895649
-0.036291126 0.016761716 -0.26533934 0.73656565 -0.67532474 -0.037518419 0.023754926
0.035959698 0.014447433 -0.26471072 -0.85043699 -0.52541178 -0.026447296 0.041537434
-0.032054301 0.020521268 -0.26577786 0.58530843 -0.80995584 -0.037224527 0.021230336
-0.024706189 0.024594733 -0.26493621 0.48679581 -0.87350285 0.0047574909 0.013605322
-0.014567362 0.028102223 -0.26345339 0.25436506 -0.96698296 -0.015567036 0.0082141487
-0.0066735432 0.029384984 -0.26529199 0.12520969 -0.99084735 -0.050439075 0.008200516
0.0049352674 0.029304102 -0.26461858 -0.15034005 -0.98835438 -0.02352589 0.0071422947
0.015088052 0.027350595 -0.26466388 -0.27935368 -0.95998424 -0.019791543 0.01065552
0.025453601 0.023033066 -0.26425406 -0.54205608 -0.84010416 -0.02000609 0.013097131
0.030049518 0.020250492 -0.26457629 -0.63504267 -0.77010858 -0.060443565 0.026545918
-0.020605452 -0.030056981 -0.25917879 0.38491884 0.92239541 -0.032001723 0.014189909
-0.015982866 -0.031233544 -0.25415546 0.27149501 0.96243793 -0.0019372307 0.012380614
-0.0041118981 -0.033042856 -0.25496528 0.042071525 0.99906218 0.010231433 0.005646945
0.0050304071 -0.032781739 -0.25460884 -0.094536074 0.99545163 -0.01178879 0.0082046837
0.013558221 -0.031274799 -0.25508726 -0.2947517 0.95534736 -0.020805437 0.0119201
-0.033617962 -0.022629324 -0.25592074 0.68816471 0.72533762 -0.017737731 0.019625992
-0.025425367 -0.027777774 -0.25582245 0.49943519 0.86611533 -0.020215711 0.013762033
0.01852137 -0.029629551 -0.25155184 -0.41601521 0.90921175 -0.016289946 0.015641008
0.02556915 -0.026409836 -0.2558257 -0.57443792 0.81793678 -0.031631116 0.015153687
0.031744044 -0.022266703 -0.25563774 -0.65693945 0.75338143 -0.029104205 0.021531263
-0.041197404 -0.013961943 -0.2543394 0.89089555 0.45404765 -0.012073318 0.041400921
-0.038818095 -0.017541215 -0.25450751 0.78427595 0.62033683 0.0096689975 0.036936603
0.037251417 -0.016123261 -0.2549634 -0.82746142 0.5615226 -5.4785465e-07 0.038446222
0.040058214 -0.011215364 -0.2534413 -0.94653207 0.32138231 -0.028116494 0.047786754
-0.044215497 -0.005321797 -0.25564659 0.99733543 0.071976058 -0.011892161 0.046096757
0.041736748 -0.0054579731 -0.25531399 -0.98677218 0.16146575 0.014471645 0.043870732
-0.043436963 0.0048745717 -0.25462025 0.9712975 -0.23539649 0.03419929 0.045180656
0.039491434 0.0090896739 -0.25636423 -0.93579096 -0.34847298 -0.053495094 0.029689284
0.041390914 0.003641889 -0.25574166 -0.98437774 -0.16606544 -0.058504585 0.047225609
-0.040448561 0.011799553 -0.25641215 0.91466784 -0.4012427 -0.048857469 0.033709023
-0.036852367 0.015856804 -0.25430569 0.73988295 -0.67063463 -0.053125907 0.026600711
0.033489242 0.016491322 -0.25581616 -0.80199069 -0.59582531 -0.042463738 0.031679217
-0.0311461 0.020816471 -0.25557318 0.58388364 -0.81037396 -0.048723023 0.021263944
-0.024939565 0.024286887 -0.25545013 0.50957054 -0.85953355 -0.039242167 0.014730772
-0.014480554 0.027901696 -0.25488928 0.24869207 -0.96786267 -0.03733724 0.009448546
-0.0060602571 0.029190438 -0.25516781 0.125837 -0.99095863 -0.04653972 0.0082870349
0.0050337436 0.02905756 -0.25551951 -0.13699868 -0.98968798 -0.041822273 0.0061432719
0.014413246 0.027222142 -0.25455898 -0.27054241 -0.96223408 -0.030203702 0.0095183598
0.024508188 0.023229102 -0.25491551 -0.54138297 -0.83930665 -0.049688727 0.0130958
-0.020093538 -0.030065373 -0.24328138 0.38948208 0.92100787 -0.0069456007 0.014396093
-0.014806333 -0.031452693 -0.24375083 0.25306642 0.96735418 -0.013539543 0.013510001
-0.0056587541 -0.032847662 -0.24437344 0.059234619 0.99823028 -0.0052510072 0.0070301672
0.0042399522 -0.032777533 -0.24577188 -0.086035319 0.99620384 -0.01326008 0.0067072352
0.013849136 -0.031061774 -0.24515107 -0.3184666 0.94741565 -0.031347238 0.013276721
-0.031741504 -0.024088535 -0.24377264 0.59598988 0.80269259 -0.021925731 0.016262595
-0.025371907 -0.027733425 -0.24472421 0.50136441 0.86481869 -0.026876058 0.014147245
0.018300237 -0.029628031 -0.2466588 -0.40935296 0.91229028 -0.0125175 0.016143696
0.02535036 -0.026288092 -0.24529372 -0.58754253 0.80912006 -0.010886105 0.015451038
0.032142211 -0.0215875 -0.24567841 -0.73238361 0.67954749 -0.04277283 0.023296066
-0.041417513 -0.013383841 -0.24650969 0.89954734 0.43563089 -0.032253239 0.037652995
-0.038116306 -0.018388111 -0.24481639 0.76517397 0.64321172 -0.0280628 0.02989142
0.03702544 -0.015845774 -0.24633147 -0.82661188 0.56003553 -0.055434972 0.037855141
0.040347453 -0.010293042 -0.24820857 -0.94400394 0.32370618 -0.063803114 0.047522586
-0.044257298 -0.0046144607 -0.24577643 0.99667376 0.073543295 -0.035110045 0.043132242
0.041457817 -0.0050710724 -0.24600105 -0.98821396 0.14508858 -0.04881097 0.044482406
-0.043458439 0.00423116 -0.24627957 0.95821828 -0.28460658 -0.028578876 0.034823574
0.03900449 0.0089491215 -0.24332905 -0.92632252 -0.37572494 -0.027519401 0.034429371
0.040822394 0.0042489176 -0.24483448 -0.96879232 -0.24255376 -0.051080342 0.035360597
-0.040249053 0.011740133 -0.24454933 0.89066881 -0.45441425 -0.014720908 0.028279601
-0.036096714 0.01636274 -0.24527904 0.74271077 -0.66887981 -0.031312559 0.023848467
0.034753282 0.014761621 -0.24433057 -0.81050533 -0.58484769 -0.032160044 0.029378714
-0.031550609 0.020389622 -0.24823716 0.62627053 -0.7790367 -0.029783478 0.023653548
-0.026290033 0.023298133 -0.24603011 0.50970423 -0.85979104 -0.031001795 0.013128089
-0.014547613 0.027618207 -0.24423121 0.27625278 -0.96088964 -0.019378422 0.0074288552
-0.0059501692 0.028909402 -0.24520481 0.131263 -0.99127215 -0.012232178 0.0080973795
0.0051263184 0.028793354 -0.24572082 -0.13630004 -0.99005139 -0.034937318 0.0064740973
0.015434615 0.02669532 -0.24629359 -0.33584312 -0.94088352 -0.04413243 0.010878151
0.024483431 0.022857863 -0.24455887 -0.55149114 -0.83408886 -0.012383566 0.013706326
-0.015976775 -0.031075213 -0.23487064 0.27490577 0.96102768 -0.029201642 0.01175382
-0.0053586829 -0.032775376 -0.23436792 0.058264807 0.99819726 0.014400046 0.0069544879
0.0048550139 -0.032581642 -0.23557301 -0.098794781 0.99497324 -0.016363822 0.0096777389
0.013592185 -0.031034878 -0.23685452 -0.27922332 0.96000946 -0.020400994 0.01341256
-0.033825446 -0.022246223 -0.23399974 0.65751797 0.75336707 0.010398054 0.012494884
-0.024391301 -0.02814129 -0.23551959 0.43724746 0.89912999 -0.019492578 0.012390324
0.018421737 -0.029397128 -0.23438011 -0.37323719 0.92771792 -0.0057719788 0.0098868711
0.024421202 -0.026590891 -0.23393871 -0.57464856 0.81840014 -0.0003068058 0.015332291
0.03133573 -0.022004096 -0.23369795 -0.69532192 0.71864355 -0.0088812467 0.019888973
-0.04181603 -0.012609703 -0.23442636 0.94308364 0.33104616 0.031648148 0.043552574
-0.038499378 -0.017726485 -0.23424923 0.8028388 0.59554255 0.027909584 0.040997691
0.036761776 -0.015886122 -0.23492174 -0.82023066 0.57199681 0.006418034 0.037446443
-0.043943446 -0.0049149073 -0.23574822 0.99901366 0.043006208 -0.01105172 0.034341436
0.040989168 -0.0059073912 -0.23535986 -0.98889667 0.13861549 -0.053564057 0.048950586
-0.042205766 0.0073663169 -0.23462723 0.95352715 -0.30090898 -0.015484959 0.036157236
0.038344018 0.0094277347 -0.2353926 -0.89824063 -0.43568206 -0.057836577 0.037438381
0.040806182 0.0028634598 -0.23572826 -0.98189819 -0.18104243 -0.055674512 0.041090775
-0.040595274 0.010715453 -0.23566085 0.8886264 -0.45554891 -0.053086933 0.038752619
-0.035869576 0.016297396 -0.23497254 0.76712829 -0.64096504 -0.026035689 0.035251491
0.02929258 0.019557452 -0.23544022 -0.66923398 -0.74198133 -0.039868265 0.027320517
0.034051638 0.015055441 -0.2344847 -0.79956234 -0.59997594 -0.027000193 0.027274624
-0.030667806 0.02071807 -0.23998711 0.61756015 -0.78633654 -0.017153518 0.02415861
-0.025108377 0.023681667 -0.23615387 0.4951719 -0.86810839 -0.034533646 0.012383452
-0.015588662 0.027131606 -0.23504297 0.29113728 -0.95620084 -0.030316109 0.0098936986
-0.0052518132 0.028699894 -0.23509367 0.10165201 -0.99447209 -0.026307382 0.0074194372
0.0059077498 0.02842591 -0.23480847 -0.15230839 -0.9873386 -0.044324655 0.0070235911
0.014778915 0.026531681 -0.23553313 -0.34087536 -0.93962479 -0.03015391 0.010561203
0.024534838 0.022505878 -0.23500502 -0.55670178 -0.82992464 -0.03616767 0.014676331
-0.016188977 -0.030944161 -0.22456419 0.27213556 0.96225631 -0.0022406518 0.011360552
-0.0047676084 -0.032733314 -0.2256434 0.02212308 0.99960184 -0.017515864 0.0069988263
0.0045085945 -0.032499295 -0.22433588 -0.11012524 0.9938761 -0.009098012 0.010002431
0.013466137 -0.030910768 -0.2260928 -0.30467924 0.95215315 -0.023974957 0.012514081
-0.033134963 -0.022747211 -0.22597606 0.69054806 0.72264063 -0.030561654 0.020861968
-0.024272582 -0.028084669 -0.22420108 0.4450286 0.89547992 -0.0080825798 0.012116356
0.017500039 -0.029573863 -0.22580956 -0.36865231 0.92948872 -0.012090047 0.011113864
0.02429889 -0.026457716 -0.22501372 -0.55741394 0.83002597 -0.018616505 0.019915516
0.031680502 -0.021333896 -0.22465916 -0.71351045 0.69990152 -0.032258961 0.022780133
-0.041305371 -0.013188685 -0.22387053 0.92556047 0.37859553 0.0017574067 0.03336601
-0.038518086 -0.017544951 -0.22529711 0.82395029 0.56456554 -0.048700079 0.046258491
0.036980752 -0.014953995 -0.22558735 -0.86418629 0.50104225 -0.046245702 0.033606101
-0.043820251 -0.00497702 -0.22578946 0.99906808 0.036292713 -0.023363817 0.03914221
0.039974011 -0.0096268924 -0.22723295 -0.96415842 0.26123977 -0.046393022 0.037328627
0.040758792 -0.0052028773 -0.22645669 -0.99340516 0.093789592 -0.065952286 0.05122504
-0.042891733 0.0052660932 -0.22525193 0.96586299 -0.2536298 -0.052731488 0.045076247
0.038718574 0.0080247317 -0.22515123 -0.90805662 -0.41821259 -0.023053782 0.03316408
0.040570904 0.0021867307 -0.22542202 -0.97967058 -0.19515422 -0.046479233 0.048903041
-0.040400565 0.010645458 -0.22376959 0.93063629 -0.36592451 -0.0039130133 0.033917982
-0.034194645 0.01761239 -0.224415 0.70132512 -0.71237397 -0.025814632 0.025074322
0.029776789 0.018576741 -0.22322427 -0.67860335 -0.73448366 -0.0055893371 0.025919806
0.033357583 0.015283579 -0.22603732 -0.79057997 -0.61151743 -0.032088228 0.024166899
-0.030417768 0.020481274 -0.22438322 0.56171209 -0.82686782 -0.027732948 0.021990614
-0.024599545 0.023653533 -0.22533818 0.48968732 -0.87159687 -0.022918502 0.01315674
-0.014481793 0.02716646 -0.2248437 0.25876567 -0.96587533 -0.011193269 0.0068910657
-0.0044515911 0.028519152 -0.22461958 0.046351265 -0.99825591 -0.03656242 0.011921368
0.0051200627 0.028207498 -0.22544038 -0.16585849 -0.98573464 -0.028605176 0.0078706853
0.015978172 0.025832441 -0.22451989 -0.38298354 -0.92324519 -0.030692423 0.012878954
0.024062278 0.022344986 -0.22481048 -0.52139449 -0.85325497 -0.010182392 0.017489495
-0.01437543 -0.03133972 -0.21480131 0.25379318 0.96705121 -0.020024493 0.013114965
-0.0046155266 -0.032642931 -0.2146875 0.013148285 0.99985433 -0.010882393 0.0070493314
0.0046008648 -0.032386735 -0.21557403 -0.12393904 0.99226183 -0.0074520116 0.0086309966
0.013464018 -0.030721404 -0.21348685 -0.2955862 0.95521575 -0.013844484 0.014058786
-0.033265419 -0.022532398 -0.214399 0.69011235 0.72369826 -0.0023795285 0.02159784
-0.024994519 -0.027658889 -0.21407771 0.49415079 0.86936283 -0.0048224581 0.012842542
0.017867617 -0.029278064 -0.21467462 -0.38857585 0.921058 -0.025710166 0.011712388
0.024447586 -0.026199881 -0.21527039 -0.57099873 0.82093006 -0.0058470215 0.022142101
0.031219702 -0.021479813 -0.21526287 -0.7112596 0.70277286 -0.014837199 0.028599264
-0.041611254 -0.012455625 -0.21391562 0.95546412 0.29437113 -0.02083228 0.044862341
-0.038000956 -0.018069306 -0.21566658 0.82161182 0.56908864 -0.033046357 0.046204716
0.03690223 -0.014469875 -0.21417995 -0.888201 0.45906121 -0.01901917 0.04434967
-0.043517079 -0.006164406 -0.21598381 0.99440765 0.098567881 -0.037919588 0.045874894
0.039965849 -0.0083778081 -0.21412854 -0.98280323 0.18071856 -0.037928194 0.048419576
0.040600505 -0.0039502699 -0.2168043 -0.99356347 0.096360058 -0.059550155 0.051417314
-0.042635817 0.0051019937 -0.21480392 0.96931851 -0.24551685 0.011962361 0.047748439
0.038834296 0.0065488513 -0.21404876 -0.94421107 -0.32544187 -0.050528117 0.037616167
-0.040511016 0.010179469 -0.21729904 0.94503284 -0.32635894 -0.020069564 0.037602656
-0.035776149 0.015696593 -0.21421246 0.79751265 -0.60222793 -0.035987016 0.036497902
0.029539889 0.018368319 -0.21428926 -0.7068395 -0.70716697 -0.017111968 0.029747622
0.034152299 0.013878794 -0.21494418 -0.84293717 -0.53572828 -0.049518216 0.027084731
-0.030294027 0.020326763 -0.2151597 0.59978831 -0.79887247 -0.045352519 0.027809247
-0.025293821 0.023149308 -0.21470968 0.46511674 -0.88514942 -0.013300969 0.015666969
-0.014691487 0.026859438 -0.21449487 0.22509402 -0.97397137 -0.026691556 0.010296621
-0.0049397056 0.028267039 -0.21561354 0.07171791 -0.9969697 -0.030133488 0.0098907659
0.0042339102 0.028028356 -0.21522763 -0.13552861 -0.99041855 -0.026516965 0.011037514
0.014661363 0.025912676 -0.21481527 -0.30510804 -0.95181274 -0.031010583 0.010407913
0.023070436 0.022526752 -0.21498631 -0.49895632 -0.86644924 -0.017561004 0.020035997
-0.014096116 -0.03131175 -0.20463522 0.23881763 0.9710592 0.0031921316 0.014237074
-0.0048757461 -0.032536734 -0.20487304 0.067598812 0.99770141 -0.0047111646 0.0076678414
0.0062883873 -0.032050811 -0.20495832 -0.17056815 0.98532695 -0.0061114179 0.010745208
0.013333282 -0.030633777 -0.20502955 -0.27681839 0.96068203 -0.021483641 0.013930658
-0.032575931 -0.023020366 -0.20497452 0.61002332 0.79238194 0.001546326 0.016085271
-0.024530893 -0.027789665 -0.20475681 0.4930979 0.86985743 0.014229731 0.014661055
-0.019511297 -0.029900232 -0.20321696 0.37185621 0.92819721 0.013149436 0.013856816
0.01766493 -0.029196128 -0.20498815 -0.40076992 0.91567683 -0.030320982 0.01000894
0.024923936 -0.025654327 -0.20534633 -0.59660763 0.80168164 -0.036957569 0.01780941
0.030928358 -0.021384876 -0.20396042 -0.72754252 0.68495947 -0.038890831 0.027905894
-0.041587248 -0.01246902 -0.20602335 0.94095427 0.33829823 0.012623101 0.048145097
-0.038501598 -0.017253017 -0.20657514 0.84009635 0.5417009 -0.028251855 0.042939443
0.036055487 -0.015394043 -0.20583205 -0.85078168 0.52036357 -0.073431924 0.038844436
-0.043559439 -0.0049528503 -0.20602253 0.9947294 0.094987579 -0.038610127 0.041693233
0.039687049 -0.0076167234 -0.20472214 -0.98574924 0.15681815 -0.060881652 0.050256785
0.040361647 -0.0026493294 -0.20626907 -0.99733329 0.033652991 -0.064759374 0.050092015
-0.042571526 0.0052724835 -0.20521179 0.95836949 -0.28510481 -0.015593597 0.03691918
0.03855763 0.0061024637 -0.20487028 -0.94955939 -0.31180239 -0.033410091 0.038148046
0.040189132 0.0012850377 -0.20993009 -0.98565602 -0.15958555 -0.054906003 0.046442468
-0.036110274 0.015197651 -0.20462218 0.79366148 -0.60829395 -0.0089407135 0.039506186
0.028298078 0.018989606 -0.20458511 -0.69026589 -0.72302663 -0.027667712 0.028509449
0.033852652 0.013568779 -0.20505755 -0.83456093 -0.54941934 -0.040575705 0.034718271
-0.025509816 0.022768872 -0.20509672 0.4899762 -0.87133539 -0.026417254 0.014411078
-0.014323428 0.026701385 -0.20486477 0.23882718 -0.97090822 -0.017288057 0.010819866
-0.0056770858 0.027961314 -0.20581919 0.059694171 -0.99795777 -0.02273651 0.0096523324
0.0053394698 0.027582448 -0.20481151 -0.16638683 -0.98571664 -0.026040602 0.0072504366
0.015034258 0.02550751 -0.20493305 -0.30975536 -0.95039558 -0.028282475 0.010372711
0.022858638 0.022273928 -0.20499936 -0.51705825 -0.85574681 -0.018658424 0.018053113
-0.014008109 -0.031280287 -0.19627793 0.20436817 0.97878909 -0.014340064 0.010696643
-0.0037738108 -0.032511644 -0.19444641 0.010767349 0.999942 -0.00010552388 0.0070512518
0.0050357436 -0.032091357 -0.19470124 -0.14530292 0.9892925 -0.013690947 0.012639379
0.012199241 -0.030860344 -0.19486234 -0.28094411 0.95961058 -0.014764419 0.014454179
-0.032566361 -0.022931073 -0.1945006 0.68256277 0.7308203 -0.0031322946 0.022194669
-0.023812976 -0.028091399 -0.19585358 0.4424898 0.89673376 -0.0084454492 0.012741717
0.017070044 -0.029259453 -0.19617859 -0.37341017 0.92738867 -0.022697259 0.010001671
0.024469778 -0.025686622 -0.19365609 -0.57914501 0.81504208 -0.017247647 0.0241319
0.031266388 -0.020662723 -0.19323491 -0.72541881 0.68822223 0.010846672 0.029205788
-0.040936254 -0.013357266 -0.1941999 0.89769381 0.43808797 -0.047167558 0.047590766
-0.037740808 -0.0181021 -0.1950694 0.78334594 0.62080622 -0.031124163 0.042766422
0.03544382 -0.015702149 -0.19542632 -0.83956259 0.54314703 0.011221776 0.039078541
-0.043436337 -0.0051622875 -0.19428967 0.99895853 0.043724358 0.013039542 0.035332993
0.039630651 -0.0047951918 -0.19350542 -0.99633187 0.082862943 -0.021368373 0.046802767
0.040059365 -0.00064072845 -0.19477808 -0.99380279 -0.099950753 -0.048640806 0.053500317
-0.042438917 0.0048184223 -0.19483891 0.96600831 -0.25842682 0.0065993164 0.042767245
0.038560763 0.0050030658 -0.19496894 -0.97209442 -0.22668387 -0.060389455 0.045522299
-0.040149555 0.010040841 -0.19499718 0.93855679 -0.34507307 -0.0059646796 0.035822339
-0.035793319 0.015152833 -0.19562036 0.78723109 -0.61367506 -0.060581725 0.032663286
0.027917461 0.018904816 -0.19564788 -0.67029953 -0.74016106 -0.053480335 0.023727451
0.033817351 0.013209654 -0.19627874 -0.82643181 -0.56125182 -0.044798713 0.028441353
-0.024039105 0.023166558 -0.1956467 0.45520845 -0.88968235 -0.03536243 0.01537968
-0.013871319 0.026525833 -0.19534625 0.23271619 -0.97189635 -0.035504602 0.0104935
-0.0049816244 0.027703965 -0.19481267 0.048417345 -0.9982996 -0.032460935 0.0093420437
0.0054780347 0.027309334 -0.19450398 -0.13771059 -0.99030387 -0.018277636 0.0094087059
0.014918466 0.025211666 -0.19439624 -0.30194646 -0.95294744 -0.026823319 0.0098892935
0.023839325 0.021398803 -0.19448452 -0.52580678 -0.84994805 -0.033398408 0.018724704
-0.014477351 -0.031056628 -0.18412404 0.24179444 0.97024435 0.012702405 0.013581035
-0.0047333604 -0.032361936 -0.18506326 0.035012882 0.99924755 -0.016686352 0.0049743014
0.0046485313 -0.032019511 -0.18420169 -0.13335721 0.9909547 -0.01499077 0.01254809
0.011899323 -0.030819668 -0.18517737 -0.28602824 0.95814282 -0.012254233 0.013917933
-0.033207115 -0.022281233 -0.18484153 0.6828596 0.73051709 -0.0068823672 0.021320835
-0.024541417 -0.027621254 -0.18483335 0.4438715 0.89593214 -0.016842091 0.012488546
-0.018959682 -0.029914506 -0.1867446 0.37008005 0.92886835 -0.015630826 0.01484705
0.017810395 -0.028843254 -0.18535087 -0.39828315 0.91657412 -0.03553113 0.0099779423
0.02525527 -0.024970472 -0.18514468 -0.58512056 0.81092459 -0.0059457235 0.017211609
0.030896885 -0.020808674 -0.18652934 -0.73285407 0.67953384 -0.034040313 0.031189123
-0.041596483 -0.011847228 -0.18434182 0.9521721 0.30076635 -0.053925026 0.053151313
-0.038522672 -0.016814904 -0.18567391 0.85940576 0.51043862 -0.029564621 0.041962739
0.035106339 -0.01565304 -0.18520574 -0.83949387 0.5432688 -0.010444537 0.040538978
-0.043618087 -0.0039210822 -0.18450801 0.99936992 -0.031349536 -0.016641723 0.039328668
0.03940545 -0.0038015775 -0.18400447 -0.99396354 0.076875508 -0.078272976 0.048241705
-0.042141408 0.0052011819 -0.1859334 0.96302676 -0.26580954 -0.04387068 0.047658645
-0.039985918 0.0098567093 -0.18172872 0.93047506 -0.36612955 -0.012859824 0.037068959
0.037644688 0.0060642571 -0.18530747 -0.95836186 -0.27433705 -0.079256877 0.050982986
-0.035800252 0.014946313 -0.1851311 0.79306543 -0.60898805 -0.013445099 0.033764493
-0.029934989 0.019883513 -0.18860123 0.58834004 -0.80829573 -0.02267026 0.024762845
0.028479025 0.01794268 -0.1852773 -0.67100298 -0.73971915 -0.05070167 0.027963707
0.033268217 0.013244694 -0.1853293 -0.83429164 -0.54665971 -0.071557701 0.029736048
-0.025179217 0.022495788 -0.18556479 0.48979768 -0.87148428 -0.024766885 0.013190107
-0.014916109 0.026101876 -0.18485825 0.26638067 -0.96302295 -0.040352259 0.0078037763
-0.0047659464 0.027480461 -0.18465112 0.044138543 -0.99881303 -0.020600865 0.01099607
0.0048784493 0.027100496 -0.18398114 -0.16938746 -0.98548186 -0.011555756 0.0060656881
0.015360604 0.024770185 -0.18431446 -0.37732643 -0.92569131 -0.026839767 0.011202834
0.022869635 0.021558691 -0.18531047 -0.53273803 -0.8451845 -0.043050122 0.018794212
-0.014340443 -0.03102579 -0.17443536 0.22342494 0.97459441 -0.015716262 0.012797951
-0.0048062503 -0.032270838 -0.17562282 0.030065045 0.99937952 -0.01834921 0.0053097964
0.0047074822 -0.031918362 -0.17606463 -0.10332309 0.99454784 -0.014104955 0.011598053
0.011996639 -0.030610524 -0.17402251 -0.31234133 0.94996995 4.3918546e-05 0.015902191
-0.033264279 -0.022145728 -0.176232 0.70513928 0.70810157 -0.037024852 0.027149467
-0.024804389 -0.027447179 -0.17496645 0.47240433 0.8813774 0.0028457092 0.016056841
-0.019047566 -0.029788725 -0.1738261 0.37578234 0.92668986 -0.0057915715 0.014492074
0.016449148 -0.029146455 -0.17541732 -0.39019969 0.92046207 -0.022219935 0.010924639
0.025563953 -0.024583248 -0.17501359 -0.57634789 0.81700641 -0.017994124 0.017242879
0.030713996 -0.020614496 -0.17557947 -0.72525048 0.68803507 -0.02488908 0.038092401
-0.041714858 -0.011655155 -0.176467 0.95287019 0.30330041 -0.0068765054 0.051368095
-0.037599325 -0.017972872 -0.17489269 0.81608742 0.57759732 -0.019563485 0.05094118
0.035911001 -0.0138013 -0.17404521 -0.89867228 0.43768427 -0.028645562 0.053494483
-0.043313425 -0.0049301041 -0.17548938 0.99769878 0.067266658 -0.0085059907 0.044675447
0.038902327 -0.0055085085 -0.17548048 -0.99508262 0.064892873 -0.074829139 0.044285912
-0.041895609 0.0053971945 -0.17574728 0.96011138 -0.27591321 -0.045366123 0.045481533
-0.039886959 0.009777043 -0.17453265 0.92914289 -0.36860272 -0.02873284 0.040724345
0.037854772 0.0045686746 -0.17495759 -0.96353471 -0.26531813 -0.034744468 0.047977813
-0.034908943 0.015427774 -0.17420398 0.7687279 -0.63903779 -0.026233627 0.036754109
-0.029523088 0.019770429 -0.17403859 0.59048021 -0.80682772 0.019031063 0.022908628
0.027899519 0.017885989 -0.17353642 -0.64447898 -0.76437515 -0.01942846 0.025428751
0.032741398 0.01344476 -0.17440434 -0.83048809 -0.55595112 -0.034755893 0.029396554
-0.025204996 0.02216018 -0.17457151 0.4658322 -0.88486975 -0.0024183835 0.015882369
-0.014336206 0.025907008 -0.17451571 0.25428951 -0.967044 -0.01276008 0.0074527478
-0.0055055772 0.027138153 -0.17500973 0.053715877 -0.99800521 -0.033169694 0.011626989
0.0035479318 0.026940709 -0.17414349 -0.13668343 -0.99051189 -0.014276973 0.010353356
0.015943207 0.024262309 -0.17439735 -0.38949642 -0.92048949 -0.031489983 0.01599608
0.022937357 0.02117802 -0.17569984 -0.46787792 -0.88358635 -0.019117827 0.016190138
-0.013653133 -0.031092588 -0.16413055 0.23893966 0.97100478 0.0075840824 0.013846301
-0.0048140478 -0.032178622 -0.16556409 0.049153853 0.99861789 -0.018607758 0.0052817543
0.0051881308 -0.031734504 -0.1653811 -0.16867414 0.98553538 -0.016403263 0.012123154
0.012557211 -0.030297332 -0.16535899 -0.31370059 0.94949752 -0.0068061701 0.016089946
-0.033560462 -0.021779628 -0.16487275 0.71083772 0.7030322 -0.021339638 0.026394641
-0.025002746 -0.027280172 -0.16475241 0.50256872 0.86446017 0.011543809 0.013343467
-0.019779159 -0.029526368 -0.16503793 0.34206474 0.93963897 0.0083867842 0.012889509
