# .PCD v0.7 - Point Cloud Data file format
VERSION 0.7
FIELDS x y z normal_x normal_y normal_z curvature
SIZE 4 4 4 4 4 4 4
TYPE F F F F F F F
COUNT 1 1 1 1 1 1 1
WIDTH 571
HEIGHT 1
VIEWPOINT 0 0 0 1 0 0 0
POINTS 571
DATA ascii
-0.024780244 0.0060638636 -0.036099903 0.62206978 -0.014850588 0.782821 0.012073386
-0.017695006 0.008736684 -0.039889175 0.42590797 -0.01779562 0.90459144 0.01249091
0.025616208 0.0052598468 -0.03744293 -0.5880304 -0.020000372 0.80859154 0.014877822
0.032579791 0.0068199062 -0.031773034 -0.68640625 -0.0077086547 0.72717738 0.006590412
-0.03047072 0.016366621 -0.030706316 0.70154184 -0.049230743 0.71092576 0.013596145
-0.024507292 0.014221285 -0.035975177 0.60270119 -0.033027817 0.79728311 0.010109436
-0.018895529 0.014286763 -0.039354406 0.48769379 -0.044592205 0.87187517 0.014720019
0.02486641 0.014512259 -0.037856687 -0.54598135 -0.033634644 0.8371219 0.010794169
0.032068923 0.01535158 -0.032338675 -0.64584196 -0.032796007 0.76276636 0.011764183
-0.025378857 0.023999862 -0.035051484 0.61727184 -0.040192772 0.78572261 0.011640771
-0.017727483 0.02654372 -0.039155256 0.40983385 -0.062058549 0.9100467 0.013112104
0.024120456 0.02493692 -0.037611078 -0.49803689 -0.054915991 0.86541516 0.0095168678
0.030886387 0.021479791 -0.033115368 -0.62420446 -0.053558346 0.77942306 0.013503444
-0.024663063 0.034805689 -0.034842774 0.62359148 -0.05011427 0.78014249 0.010889861
-0.017254598 0.037940655 -0.038540635 0.4083187 -0.069685809 0.91017574 0.010957838
0.025318254 0.035407249 -0.036103737 -0.53945005 -0.088851891 0.83731657 0.015060313
0.031235456 0.035849612 -0.031264842 -0.6582973 -0.077842116 0.74872243 0.014753168
-0.02514217 0.044771612 -0.033898737 0.61568409 -0.030649766 0.78739685 0.01095337
-0.016667919 0.044631843 -0.038302127 0.3647801 -0.09243162 0.92649436 0.014571385
0.017484348 0.044974227 -0.03919176 -0.4069607 -0.085300781 0.90945411 0.010387685
0.026887223 0.042693052 -0.034732524 -0.5867421 -0.081752159 0.80563653 0.011935236
0.030317327 0.041133679 -0.031789944 -0.63006681 -0.077428453 0.7726711 0.01145352
-0.024073182 0.0571693 -0.03366752 0.58476657 -0.054692611 0.80935574 0.0089407274
-0.015529582 0.054913558 -0.038063817 0.39151707 -0.065516211 0.91783547 0.014291631
0.016611112 0.053917382 -0.038804617 -0.34843028 -0.071287222 0.93461996 0.013724799
0.026046935 0.054639697 -0.034250539 -0.59077436 -0.077903681 0.80306697 0.013788102
0.030798951 0.051456045 -0.030237243 -0.68036592 -0.076441571 0.7288751 0.01757247
-0.023288393 0.064134039 -0.033786412 0.53216898 -0.075387359 0.84327513 0.014027516
-0.014946489 0.066256382 -0.037606522 0.37944046 -0.065999873 0.92285913 0.013959469
0.01562559 0.064219519 -0.038449634 -0.3271341 -0.079661459 0.94161421 0.012152954
0.024398126 0.065417938 -0.034525309 -0.56156152 -0.06132273 0.82515955 0.017451702
-0.024497541 0.073383875 -0.03242166 0.60730463 -0.070895143 0.79129952 0.019067826
-0.01474767 0.074598648 -0.037150312 0.39418894 -0.046869405 0.91783345 0.012904338
-0.008601889 0.076443918 -0.039996199 0.27770239 -0.067676321 0.95828038 0.01859423
0.016259272 0.075550839 -0.037466653 -0.37054986 -0.058336481 0.92697883 0.013271684
0.024632806 0.075827807 -0.03375807 -0.57664216 -0.044747408 0.81577051 0.019360418
-0.024043918 0.083682813 -0.032268412 0.58046591 -0.052620567 0.81258255 0.010787125
-0.014926022 0.085139856 -0.036428813 0.39958656 -0.058973446 0.91479653 0.017893884
-0.0041139745 0.086211286 -0.039823636 0.14582044 -0.048709542 0.98811126 0.021645822
0.0050064898 0.084717989 -0.039692387 -0.13240078 -0.090222441 0.98708153 0.013087874
0.014776868 0.083903164 -0.037646893 -0.30746448 -0.079623893 0.94822234 0.014832105
0.024951305 0.085017227 -0.032893475 -0.56062788 -0.0067754369 0.82804018 0.017934509
-0.024054591 0.097668663 -0.031173591 0.56000262 -0.052886233 0.82680118 0.012045137
-0.014576589 0.095332794 -0.035992421 0.36377847 -0.085269667 0.9275744 0.017261082
-0.0053032376 0.095002316 -0.039101083 0.17622015 -0.0707715 0.98180342 0.018882396
0.0055954531 0.095520079 -0.039114024 -0.12272923 -0.092568912 0.98811364 0.016495913
0.015033631 0.095474511 -0.036808878 -0.32237685 -0.04864591 0.94536066 0.015565483
0.022226628 0.094984896 -0.033552606 -0.46805927 -0.046912342 0.882451 0.018485231
-0.021339491 0.10416707 -0.032264356 0.5217666 -0.04249822 0.85202909 0.016534803
-0.015036139 0.10553069 -0.035172779 0.43043283 -0.046976037 0.90139937 0.01885492
-0.0043884395 0.10620374 -0.038420584 0.11454523 -0.04703442 0.99230403 0.02273283
0.0043369504 0.1028439 -0.038716923 -0.11552483 -0.073697485 0.99056685 0.018885067
0.013660184 0.10500523 -0.036878534 -0.27715746 -0.069883339 0.95827973 0.018670008
0.024355773 0.10320996 -0.032031901 -0.57090431 -0.076070808 0.81748486 0.018551063
-0.023055609 0.11567304 -0.030720657 0.58339149 -0.035092507 0.81143266 0.02177541
-0.014089268 0.11387064 -0.035144165 0.3664574 -0.053129368 0.92891675 0.020942053
-0.0042061661 0.11358532 -0.038128231 0.16786303 -0.04079159 0.98496598 0.017072041
0.0050254716 0.11473894 -0.038080156 -0.076316476 -0.028546479 0.99667484 0.02194253
0.015175642 0.11498895 -0.035540007 -0.37292585 -0.051319197 0.92644083 0.020092335
0.022656262 0.11393946 -0.032100208 -0.50410849 -0.054159366 0.8619405 0.017147128
-0.021408217 0.12426762 -0.030985108 0.57631922 -0.036697481 0.81640029 0.021218345
-0.014749902 0.12598215 -0.034136873 0.4212746 -0.029707994 0.9064464 0.02352979
-0.0044975546 0.12597182 -0.037473895 0.13983244 -0.017569581 0.99001932 0.019476311
0.0027077023 0.12578835 -0.037497204 -0.053086542 -0.034481697 0.99799442 0.023079177
0.0141546 0.12494062 -0.035415381 -0.33576429 -0.048971493 0.94067216 0.015967056
0.023256164 0.12483323 -0.031090621 -0.56822485 -0.048008285 0.82147169 0.019565441
-0.021726074 0.13382667 -0.030632686 0.55261999 -0.043017652 0.83232242 0.019763231
-0.014853181 0.1365512 -0.033964507 0.42577267 -0.019495055 0.90462011 0.019910902
-0.0053324928 0.1354512 -0.03732533 0.16848415 -0.019686554 0.98550779 0.017841382
0.0057082456 0.13542494 -0.03737095 -0.10074359 -0.032875981 0.99436909 0.020639608
0.012771962 0.1358939 -0.035888929 -0.26666826 -0.0012944047 0.9637875 0.019893976
0.021102384 0.13579586 -0.031893402 -0.47014934 0.0032351229 0.88258094 0.018002698
-0.021517834 0.14454564 -0.030726168 0.54972303 0.017501216 0.83516371 0.020690134
-0.013349198 0.14531277 -0.034687869 0.40855423 0.030292129 0.91223121 0.023810977
-0.0043408368 0.14355126 -0.03725449 0.13287559 -0.0041080564 0.99112421 0.020482928
0.004790897 0.14366342 -0.037359361 -0.07858438 -0.024450334 0.9966076 0.020542692
0.014880143 0.14634176 -0.034827139 -0.377543 0.032185934 0.92543256 0.021018855
0.023346767 0.14581345 -0.030781388 -0.57537919 0.023019442 0.8175627 0.020242667
-0.021250678 0.15481266 -0.030848544 0.56434911 -0.00054280931 0.82553613 0.021539314
-0.014327631 0.1552456 -0.034227517 0.43630245 -0.00021294117 0.8998 0.022124488
-0.0066613466 0.15474565 -0.037204877 0.23362762 -0.030368973 0.97185177 0.017684964
0.00509967 0.15287971 -0.037344649 -0.095200181 -0.028724464 0.99504364 0.017396823
0.015388421 0.15634726 -0.034585409 -0.38494045 0.002319904 0.92293853 0.023737641
0.022862898 0.15664697 -0.030970538 -0.57470977 0.012335313 0.81826437 0.011327823
-0.022024261 0.16547506 -0.030465826 0.610021 0.010099573 0.79232085 0.023923213
-0.014045745 0.16509457 -0.034370892 0.39391297 -0.016228123 0.91900444 0.022975622
-0.0054774657 0.16512972 -0.037193298 0.15999418 -0.03299538 0.98656636 0.024035482
0.0034340594 0.16542034 -0.037318729 -0.073548421 0.016113674 0.99716151 0.019373383
0.015117271 0.16540426 -0.034691527 -0.38102654 -0.0164479 0.92441785 0.020794783
0.021253265 0.16558598 -0.03170529 -0.49466336 -0.019288065 0.86887056 0.017966008
-0.021419542 0.17413428 -0.030753072 0.52986395 -0.012968719 0.84798348 0.015601397
-0.015208639 0.17246668 -0.033837255 0.4543733 -0.019405151 0.89060003 0.022018377
-0.0064797443 0.17336944 -0.03710182 0.22823995 0.006827387 0.97358096 0.02283687
0.0039772568 0.17576228 -0.037302773 -0.067740098 0.012700749 0.99762213 0.020040315
0.013766021 0.1750609 -0.035427526 -0.32915142 0.011730043 0.94420427 0.021908104
0.023005532 0.17190424 -0.030842949 -0.52919555 0.0030375139 0.84849447 0.014740289
-0.021758582 0.186436 -0.030579979 0.55214936 0.021564445 0.83346629 0.014339591
-0.01522175 0.18392643 -0.033810243 0.4450736 -0.010440729 0.89543319 0.022377428
-0.0059201904 0.18494728 -0.03723802 0.18478714 -0.012344273 0.982701 0.021424688
0.0054220315 0.18492165 -0.037281089 -0.080311574 0.00097670441 0.99676937 0.019755337
0.014485359 0.18539505 -0.035033263 -0.37970611 0.01885782 0.92491502 0.020417303
0.021705123 0.1847931 -0.031414479 -0.50102627 0.00080594298 0.86543167 0.015411383
-0.020989407 0.19668356 -0.030945873 0.50852299 0.0043209908 0.86103755 0.017534889
-0.017058976 0.19548374 -0.032877449 0.46658 -0.0077815829 0.88444477 0.01954256
-0.0050513963 0.19545093 -0.037113734 0.10781459 0.018314425 0.99400228 0.019631259
0.0067607691 0.19502281 -0.037242912 -0.15630198 0.0011761346 0.98770857 0.020856664
0.01493955 0.19541708 -0.034775853 -0.435891 0.0022823166 0.89999664 0.016686572
0.022683451 0.19415832 -0.030910287 -0.5791586 -0.027715217 0.81474364 0.0173689
-0.02139817 0.20367695 -0.030742694 0.57545298 -0.026979549 0.81738973 0.023936385
-0.01526379 0.20464694 -0.033906244 0.46689448 0.0053938921 0.88429654 0.020382604
-0.004230368 0.20789149 -0.037154473 0.12475161 0.024775581 0.99187863 0.018480396
0.0070053171 0.20503511 -0.037212238 -0.13085836 -0.0081048151 0.99136794 0.027725156
0.015968654 0.20430742 -0.034324992 -0.46057919 -0.0038661209 0.88761026 0.019147115
0.021712435 0.20485961 -0.031332858 -0.52307558 0.0099036908 0.8522287 0.017239364
-0.020819506 0.21141087 -0.031017944 0.5160504 -0.0098030809 0.85650212 0.016967295
-0.015266012 0.21499759 -0.033915557 0.42456564 0.014777918 0.90527654 0.02366602
-0.0055396003 0.21605656 -0.037098885 0.14379662 0.015593868 0.98948437 0.017357821
0.0047746687 0.21318479 -0.037232663 -0.087807424 -0.00023340833 0.99613744 0.020067565
0.014182582 0.21464938 -0.035355952 -0.36193836 -0.019431042 0.9319995 0.020634511
0.022963192 0.21435949 -0.030697893 -0.55846125 -0.015383977 0.82938802 0.024486955
-0.020974668 0.2255045 -0.030932786 0.55768162 0.014565709 0.82992715 0.021808481
-0.014402939 0.22568965 -0.034522779 0.37299123 -0.0026028699 0.92783129 0.021286309
-0.0057961079 0.22480631 -0.037083898 0.16937904 -0.029975588 0.98509502 0.016631674
0.0046660132 0.22441649 -0.037222426 -0.10688981 -0.017749129 0.99411243 0.02273575
0.015289335 0.22504878 -0.034704313 -0.36968571 -0.0040618023 0.9291479 0.019141577
0.022018 0.22681554 -0.031101286 -0.50748974 0.001290896 0.86165679 0.017708261
-0.020881712 0.2341639 -0.030971795 0.55750424 0.0051838555 0.83015788 0.024389695
-0.016040144 0.23527797 -0.033710491 0.4392769 0.00057029439 0.89835149 0.022406604
-0.0052897758 0.23457085 -0.037084453 0.1181456 -0.0051305005 0.99298298 0.018774556
0.0035893072 0.23552874 -0.037200592 -0.081109129 -0.012766163 0.99662346 0.018656665
0.013555004 0.23630984 -0.035483412 -0.2925517 0.010909419 0.95618749 0.018261727
0.02288253 0.23445649 -0.03065821 -0.54185152 -0.010031489 0.84041429 0.016697265
-0.02043158 0.24720377 -0.031228442 0.55343419 0.020585075 0.83263844 0.021493053
-0.016006086 0.24451603 -0.0338053 0.47668737 0.010599775 0.87900889 0.015862374
-0.0040844376 0.2464525 -0.037147164 0.12348618 -0.0035344879 0.99234003 0.01886414
0.0038875313 0.2464647 -0.037155233 -0.078858063 0.026850965 0.99652421 0.017971234
0.015417677 0.2452358 -0.034687199 -0.42318204 0.0014366724 0.90604359 0.017647665
0.022771992 0.2446169 -0.030671502 -0.54323095 0.0019568433 0.83958095 0.01565861
-0.021437071 0.25390559 -0.03074076 0.57786864 -0.018049318 0.81593019 0.026838411
-0.016541066 0.25424069 -0.033671431 0.49619859 0.0006796809 0.86820883 0.019133996
-0.0047752117 0.25486422 -0.037049714 0.13221079 0.013958065 0.99112332 0.01530795
0.0045410222 0.25582302 -0.037168954 -0.07950598 0.031217718 0.99634552 0.018288389
0.014644995 0.2540873 -0.035168517 -0.40327108 -0.018031515 0.91490293 0.015098497
0.022135932 0.25559813 -0.031049926 -0.50763625 0.0060677612 0.86155015 0.016661907
-0.021150447 0.26514968 -0.031178402 0.54593217 0.01423806 0.83770841 0.018906387
-0.014867945 0.26429576 -0.034451377 0.4077892 -0.012967661 0.91298401 0.024328137
-0.0061976695 0.26576215 -0.03708994 0.18101381 0.014696845 0.98337072 0.020418057
0.0041996841 0.26655725 -0.037149835 -0.082681395 0.038414922 0.9958353 0.01864348
0.014999105 0.26435614 -0.035057608 -0.39279658 0.018204935 0.91944516 0.022599617
0.022489233 0.26715469 -0.030940762 -0.50167155 0.0080524534 0.86502075 0.01852189
-0.021550493 0.27242514 -0.031077694 0.56385177 0.0039323652 0.8258667 0.023623947
-0.015257939 0.27494016 -0.034290642 0.46033075 0.024334334 0.88741386 0.01856311
-0.0049426644 0.27083418 -0.036991049 0.12477969 0.006443725 0.9921636 0.017753564
0.0068494151 0.27501589 -0.037156191 -0.19101609 0.033313133 0.98102146 0.02234876
0.015744587 0.27507308 -0.034679823 -0.44141623 0.032489207 0.89671409 0.01877851
0.022193238 0.27436247 -0.031244805 -0.51546937 0.023928268 0.85657382 0.017989572
-0.021468841 0.28436941 -0.031465828 -0.49115789 -0.26861775 -0.82861841 0.045887578
-0.015094496 0.2848278 -0.034326743 -0.40352094 -0.24163206 -0.88248783 0.041756872
-0.0046598832 0.28325206 -0.037398331 0.11718793 0.12719262 0.98493093 0.029847002
0.0048313569 0.28574422 -0.037383031 0.10310827 -0.15452929 -0.98259318 0.037571795
0.015802445 0.28548673 -0.034681972 0.42740944 -0.24801522 -0.86937314 0.041933205
0.021661084 0.28501946 -0.031215504 0.4436155 -0.20001811 -0.87361205 0.04166247
-0.021950234 0.29555526 -0.031521305 -0.32941085 -0.50949377 -0.79492432 0.05491
-0.015158353 0.2957153 -0.034823794 -0.31159958 -0.48084748 -0.8195678 0.055078164
-0.0047608614 0.29424384 -0.03770246 -0.10085352 -0.37344798 -0.92215252 0.046976328
0.0065947934 0.29595938 -0.037200183 0.080630131 -0.39327475 -0.91587865 0.055441543
0.01563666 0.29303601 -0.035053551 0.39192584 -0.34710732 -0.85200393 0.054549821
-0.1028295 0.30919516 -0.033658907 -0.097422734 -0.93530703 -0.34016103 0.0049800533
-0.095295869 0.30841658 -0.034000933 -0.089534484 -0.92608553 -0.3665368 0.0056265951
-0.086988002 0.30770376 -0.034588546 -0.075052977 -0.92326623 -0.37675792 0.0063540335
-0.075036906 0.3071304 -0.035984423 -0.054878656 -0.91833508 -0.39198077 0.0061770924
-0.066053934 0.30536327 -0.033672825 -0.093674518 -0.92314482 -0.3728655 0.0050935098
-0.055677302 0.30514801 -0.034961112 -0.11776504 -0.90924764 -0.3992494 0.0055467063
-0.044171039 0.30404294 -0.034596905 -0.19757225 -0.83307904 -0.51666677 0.021294672
-0.036962021 0.30321792 -0.034037292 -0.26586986 -0.77550751 -0.57262665 0.039028365
-0.026251825 0.30320829 -0.035297822 -0.25115067 -0.6951744 -0.67353982 0.04068901
-0.015250201 0.30345351 -0.037507098 -0.18343338 -0.61114055 -0.76997364 0.039236739
-0.0057059554 0.30233538 -0.038323939 -0.092970371 -0.56870753 -0.81726867 0.036635157
0.0050130324 0.30208457 -0.037898589 0.042687852 -0.56794643 -0.82195777 0.046533883
0.015469889 0.30241355 -0.036800921 0.27755067 -0.51295722 -0.81230569 0.043877132
0.024286566 0.30484858 -0.036368158 0.29686931 -0.6699779 -0.68043971 0.034143262
0.036299579 0.30734825 -0.036340643 0.22755624 -0.79968023 -0.5556345 0.023734407
0.044355057 0.30756491 -0.034620624 0.17079869 -0.83964926 -0.51557428 0.01704802
0.055539429 0.30903146 -0.034095895 0.12133471 -0.89615202 -0.42683661 0.0023533835
0.065635473 0.30929983 -0.032557264 0.098881461 -0.90896362 -0.40497851 0.0017471957
0.07504116 0.309591 -0.031374231 0.10286196 -0.92298394 -0.37083685 0.0018524573
-0.14418724 0.3150402 -0.034119625 -0.64235109 -0.72228086 -0.25631118 0.071656093
-0.13548644 0.31324974 -0.034452952 -0.42745796 -0.84410685 -0.32367179 0.059641838
-0.12429608 0.31224883 -0.034816552 -0.18524449 -0.91761893 -0.35165319 0.013786178
-0.113888 0.31098655 -0.035072118 -0.10114021 -0.92489374 -0.36652741 0.0056981896
-0.10435566 0.31058654 -0.038378607 -0.10288668 -0.90405029 -0.41485822 0.0080239642
-0.098467462 0.31070578 -0.03998629 -0.090304457 -0.90220577 -0.42174631 0.0083699031
0.056265898 0.3103303 -0.038736202 0.086697809 -0.89834189 -0.43065697 0.0019645554
0.065407373 0.3106074 -0.037564296 0.076346099 -0.90457082 -0.41943181 0.0024562958
0.073874041 0.31086093 -0.036467034 0.07682281 -0.91424775 -0.3978056 0.0022941586
0.085872144 0.31112337 -0.034545407 0.081769459 -0.92491537 -0.37127513 0.0020407466
0.094681941 0.31166998 -0.034474753 0.076955177 -0.93190765 -0.3544375 0.0025398077
0.10556912 0.31274503 -0.035900522 0.079550087 -0.93329012 -0.35020193 0.0037533555
0.11440605 0.31331152 -0.035898399 0.072045349 -0.92538446 -0.37211967 0.0054968577
0.12362862 0.31375498 -0.035336789 0.1507941 -0.92945397 -0.33671409 0.011695138
0.13451347 0.31450132 -0.035518147 0.3517628 -0.88045931 -0.31789052 0.04992969
0.14443064 0.3164759 -0.034214977 0.79841423 -0.58217132 -0.15365994 0.080533504
-0.14661913 0.32371315 -0.034542486 -0.84919751 -0.47704238 -0.22648235 0.072562344
0.14693503 0.32336494 -0.034347545 0.87461126 -0.46129385 -0.14920861 0.068302929
-0.14668031 0.33700165 -0.036842853 0.98702621 0.14779139 0.06274461 0.023460595
0.14690201 0.33491975 -0.035226151 -0.98552781 0.15611041 0.06606517 0.023527022
-0.14670803 0.34506446 -0.034678821 0.99976838 0.017298613 0.012808374 0.00050804473
0.14688018 0.3447305 -0.033761613 -0.99965566 0.022621237 0.013299634 0.00076135242
-0.14674972 0.35501769 -0.035442043 0.99998933 0.0040092426 -0.0022898649 0
0.14684597 0.35386407 -0.036257461 -0.99998719 -0.0010291509 0.0049699652 3.5670218e-05
-0.1467918 0.36605793 -0.034417901 0.99998963 0.0039792662 -0.0022201766 4.0574332e-06
0.14682333 0.36474207 -0.033902049 -0.99999017 -0.002880194 0.0033751824 0
-0.14682509 0.37481132 -0.0335867 0.99999028 0.0038431811 -0.0021706021 0
0.14678624 0.37565181 -0.035705902 -0.99998951 -0.0029600984 0.0035035892 0
-0.14686522 0.38385487 -0.03656837 0.99999106 0.003671895 -0.0020884159 7.4950754e-06
0.14675879 0.38556361 -0.034841221 -0.99998862 -0.0032076375 0.0035331701 0
-0.14690706 0.39571697 -0.035972357 0.99999195 0.0034315321 -0.0020659599 0
0.14672644 0.39465061 -0.035744857 -0.99998808 -0.0033239606 0.0035813642 0
-0.14694148 0.4047806 -0.038158298 0.99999255 0.0032769821 -0.002036318 9.9464091e-07
0.14669582 0.40616718 -0.033136506 -0.9999873 -0.0035899491 0.0035568879 3.3016165e-06
-0.1469705 0.41534844 -0.035739042 0.99999309 0.0030589467 -0.0021089504 0
0.14665756 0.41497874 -0.034844216 -0.99998671 -0.0037479789 0.0035354358 0
-0.14699392 0.42458811 -0.034009259 0.9999935 0.0028834033 -0.002190704 0
0.14661229 0.42538172 -0.036261961 -0.99998617 -0.0039609233 0.003470466 8.3508503e-06
-0.14702895 0.43578726 -0.035531096 0.99999338 0.002852544 -0.0022492232 0
0.1465822 0.43380594 -0.035183188 -0.99998635 -0.0039803279 0.0033863238 0
-0.14706275 0.44648516 -0.037146784 0.99962002 -0.019511728 0.019473311 0.00089049496
0.14652614 0.44543856 -0.037922628 -0.99986148 -0.012491055 0.011001716 0.00025271846
-0.14708652 0.45711517 -0.034615472 0.9847362 -0.14748971 0.092420034 0.024448128
0.14648998 0.45627895 -0.035722677 -0.98691624 -0.13821162 0.083029352 0.022553191
-0.14710808 0.46426946 -0.035434011 0.89769411 -0.36509949 0.24667308 0.065586872
0.14646016 0.46425408 -0.034698479 -0.94067663 -0.30950245 0.13905282 0.055346966
-0.14705162 0.47499338 -0.034009125 0.81313699 -0.52095187 0.25964856 0.070846453
0.14642015 0.47449616 -0.033619337 -0.86936492 -0.44612888 0.21254101 0.062159888
-0.14312802 0.48121274 -0.035473902 0.61052758 -0.73299593 0.29995513 0.072701201
-0.13572636 0.48175982 -0.035253152 0.41859382 -0.85286182 0.31209937 0.047588024
-0.12502208 0.48243383 -0.035364646 0.19532989 -0.91454649 0.35419047 0.022794044
-0.11498992 0.48318186 -0.035041723 0.061939288 -0.93266606 0.35538357 0.0053644162
-0.10426838 0.48373821 -0.035590254 0.080923609 -0.93706101 0.33965853 0.0037133619
-0.095481001 0.4845652 -0.034675606 0.062078971 -0.9477241 0.31299415 0.001405822
-0.083381653 0.48539245 -0.03456131 0.071378514 -0.94236106 0.32689565 0.0014383775
-0.075689487 0.48599681 -0.034200434 0.078507096 -0.9372471 0.33971241 0.0013284433
-0.063991599 0.48685837 -0.033862937 0.081040889 -0.93604988 0.34240773 0.0010364649
-0.054083198 0.48690808 -0.036158308 0.080793656 -0.92641222 0.36774006 0.0015986748
-0.045411814 0.48853153 -0.033693291 0.084157497 -0.93403298 0.34713092 0.0012341297
-0.034684461 0.48857802 -0.036423858 0.087308407 -0.9226948 0.37551495 0.0014910172
-0.027116321 0.48860705 -0.038476251 0.087293103 -0.92068034 0.3804307 0.0014465674
-0.01740472 0.48935586 -0.039380208 0.07175079 -0.91668558 0.39311489 0.0019427215
0.022864521 0.48968872 -0.039580334 -0.062559359 -0.91097355 0.40769306 0.0050176107
0.033809576 0.48929113 -0.03891553 -0.058183879 -0.92601919 0.37296537 0.0053847716
0.045327865 0.48914012 -0.037566077 -0.066502795 -0.9266777 0.36992672 0.0063297511
0.056113798 0.48844928 -0.037637349 -0.067703478 -0.9227919 0.3793039 0.0064656106
0.066314615 0.48874235 -0.034415651 -0.073892646 -0.94006735 0.33288631 0.0051693502
0.075372554 0.48769557 -0.035217725 -0.072382286 -0.94266117 0.32580781 0.0046488675
0.085123383 0.48683476 -0.034879547 -0.069644429 -0.9447794 0.32022119 0.0035769928
0.095644414 0.48583564 -0.03501828 -0.071592309 -0.93799293 0.33918121 0.0054065431
0.10447195 0.48522091 -0.033833861 -0.068034887 -0.94263387 0.32682204 0.0040758913
0.11478996 0.48447356 -0.03386192 -0.061942324 -0.94780833 0.3127659 0.0037910875
0.12486848 0.48344019 -0.035369549 -0.20906746 -0.92019886 0.33094534 0.024757748
0.13465683 0.48306683 -0.034677066 -0.4496429 -0.85002786 0.2743609 0.061406262
0.14450125 0.48128477 -0.036628637 -0.78729826 -0.56313747 0.25107312 0.075832002
-0.041010533 0.49007609 -0.031007852 0.086159356 -0.93834317 0.3347964 0.0015960425
-0.032737277 0.490859 -0.031425487 0.08948344 -0.93933409 0.33112562 0.0020029324
-0.026100822 0.49142638 -0.031907905 0.084249385 -0.94382614 0.31952202 0.0018136976
-0.015116271 0.49192944 -0.033766173 0.067725897 -0.93321502 0.35287809 0.002565817
-0.0048057875 0.49253863 -0.035048906 0.024583584 -0.92944914 0.36813015 0.0022198076
0.0036297434 0.49205408 -0.036631022 -0.0070958189 -0.92456496 0.38095829 0.0025485544
0.015052649 0.49252293 -0.033859029 -0.050020531 -0.93315327 0.35598171 0.0034468144
0.02491577 0.49160799 -0.034612034 -0.068407707 -0.93880665 0.33758321 0.0053032967
0.035266526 0.4916729 -0.032884806 -0.063966572 -0.94046772 0.33380952 0.0056837033
0.044726003 0.49103892 -0.032868449 -0.082677938 -0.94390202 0.31970811 0.0052220142
0.053123087 0.49048498 -0.032918576 -0.081014417 -0.94408542 0.31959262 0.0045500831
-0.043668408 -0.49290255 -0.024143912 0.69851339 0.60372061 0.38418821 0.059818141
-0.03413881 -0.49523312 -0.024833132 0.43384105 0.84329343 0.31723499 0.04653082
-0.025589602 -0.49583381 -0.025652042 0.34191242 0.8819046 0.32456169 0.046273679
-0.016662817 -0.49644569 -0.025664479 0.18379754 0.95164889 0.24613607 0.022861008
-0.0045352639 -0.49704191 -0.024391819 0.03255282 0.9892959 0.14224584 0.0042914315
0.0054646381 -0.49716136 -0.024068909 -0.0064092465 0.99312872 0.11685201 0.0013254262
0.014003249 -0.49688148 -0.024448493 -0.067880675 0.98638785 0.14977048 0.0062173661
0.023963593 -0.4962377 -0.025887677 -0.1566361 0.9561457 0.24748835 0.024567382
0.035441756 -0.49530712 -0.026240677 -0.3921583 0.84771895 0.35718954 0.058902089
0.046271406 -0.49375048 -0.0242483 -0.62865222 0.68799263 0.36257771 0.068817772
0.052090991 -0.49081764 -0.024480486 -0.75195509 0.48522407 0.44623005 0.060808647
-0.047032204 -0.48458475 -0.024567353 0.81084281 0.32938206 0.48377827 0.056767043
0.052893858 -0.48605087 -0.025848169 -0.81925911 0.2855418 0.49727285 0.039397322
-0.046700284 -0.47489014 -0.023976043 0.87924922 0.10292472 0.46511006 0.029851392
0.048935547 -0.47290239 -0.029243002 -0.81377667 0.053709205 0.57869065 0.018509805
0.05287122 -0.47385889 -0.023697045 -0.86615855 0.1186448 0.48548195 0.030990683
-0.04470418 -0.46212235 -0.025414955 0.85680509 -0.083121181 0.50889677 0.0079949526
0.048414737 -0.46482301 -0.02859644 -0.81527376 -0.064468943 0.57547581 0.010431333
0.052173972 -0.46762404 -0.024356579 -0.86079496 -0.010653551 0.50884038 0.012099
-0.043932449 -0.45493516 -0.025003776 0.84814483 -0.10454331 0.51934671 0.0078821024
-0.039513767 -0.45106572 -0.029564917 0.81183934 -0.086234294 0.57747775 0.0057303999
0.047318339 -0.45633206 -0.028462358 -0.81429166 -0.10131027 0.57154649 0.010764142
0.051574979 -0.45612568 -0.023195216 -0.86449564 -0.099440694 0.4927057 0.010798126
-0.043151338 -0.44505563 -0.024636181 0.85627651 -0.079977155 0.51028818 0.0097300746
-0.039058506 -0.44312534 -0.028925195 0.80155414 -0.083080448 0.59212214 0.013009984
0.047098398 -0.44389561 -0.026889257 -0.81849128 -0.11737014 0.56240231 0.0097236596
0.051130101 -0.4459115 -0.021674173 -0.87361974 -0.11900552 0.47183284 0.010547643
-0.042512972 -0.43579111 -0.023861667 0.85095626 -0.1029662 0.51504493 0.010584594
-0.038323574 -0.43435895 -0.028452542 0.79686558 -0.097031131 0.59631383 0.010579108
0.047595866 -0.43493888 -0.024869703 -0.80658633 -0.10118476 0.58239174 0.011139291
-0.042799596 -0.42509958 -0.02177229 0.88189387 -0.097229786 0.46131286 0.010780996
-0.038128134 -0.42538244 -0.027408335 0.7802856 -0.089575432 0.61897546 0.012506288
0.046139229 -0.4256185 -0.024884811 -0.8276369 -0.10656818 0.55105382 0.009634329
-0.041650478 -0.4154686 -0.0219795 0.86751354 -0.11167943 0.4847143 0.012874506
-0.037407581 -0.41556033 -0.026784342 0.78086197 -0.10487299 0.61583781 0.011036728
0.045083776 -0.41600731 -0.024769796 -0.80945265 -0.1079184 0.57718277 0.011219582
-0.036262915 -0.40636277 -0.026723197 0.76879454 -0.1008628 0.6314916 0.012211467
0.039196976 -0.40333229 -0.029872198 -0.74470645 -0.084457234 0.6620267 0.013978675
0.044773124 -0.40613544 -0.023530826 -0.80826163 -0.093834981 0.58129865 0.011334439
-0.040083319 -0.39622721 -0.021240765 0.86439675 -0.10252891 0.49224591 0.01437319
-0.036057953 -0.39582449 -0.025568154 0.76776105 -0.098309964 0.63314939 0.012733678
0.039399125 -0.39363009 -0.028636068 -0.7516228 -0.05230213 0.65751624 0.015009916
0.042776261 -0.39460081 -0.024378141 -0.80922383 -0.085604876 0.58123016 0.012797765
-0.034590382 -0.38377103 -0.025662739 0.76913166 -0.058744594 0.63638467 0.014526481
0.03925002 -0.38605729 -0.028094456 -0.76733226 -0.053493358 0.63901454 0.017829938
0.042619284 -0.38599646 -0.023474997 -0.82147068 -0.07073947 0.56584615 0.015046485
-0.035634495 -0.375276 -0.024046097 0.80380213 -0.059129756 0.59195083 0.017144026
0.03884149 -0.37676352 -0.027807059 -0.74001729 -0.06473729 0.66946507 0.015354252
0.042708173 -0.37490362 -0.022029983 -0.84640723 -0.055825669 0.52960193 0.014577089
-0.034710415 -0.36429703 -0.024615834 0.76824313 -0.014809698 0.63998687 0.013730671
0.038058434 -0.36451483 -0.028315922 -0.72817558 -0.037535038 0.68436205 0.015224598
0.041821215 -0.36631411 -0.022308534 -0.84581244 -0.041339073 0.53187627 0.018011879
-0.0336142 -0.35572815 -0.025486019 0.74766588 -0.035540335 0.66312337 0.013572634
0.037923481 -0.35573831 -0.028120629 -0.72811693 -0.01975695 0.68516827 0.014565581
0.041468669 -0.35598549 -0.021912443 -0.83385706 -0.030832849 0.55111861 0.017115075
-0.03466389 -0.34536412 -0.02398159 0.76435846 -0.042025696 0.64342052 0.014050523
-0.029650226 -0.34592426 -0.029752828 0.6947729 -0.038990948 0.71817154 0.014126395
0.038149185 -0.34569585 -0.027489198 -0.74173909 -0.025337785 0.67020977 0.01416549
0.040487044 -0.34402299 -0.02431808 -0.81642276 0.0040612533 0.57744026 0.012514894
-0.033779871 -0.33449027 -0.024691338 0.77642268 -0.01743504 0.62997133 0.013207689
-0.02926169 -0.33380103 -0.029805772 0.70574832 -0.0039529144 0.70845169 0.016033476
0.039167713 -0.33608428 -0.025777344 -0.7756108 -0.0092764711 0.63114333 0.011852505
0.041493051 -0.33433095 -0.02206458 -0.8542136 -0.0042905109 0.51990449 0.016036713
-0.033368379 -0.32564604 -0.024959181 0.76282412 0.0023327745 0.6466018 0.013278948
0.036948163 -0.32393456 -0.027684363 -0.73698378 0.0046448731 0.6758945 0.013530836
0.04147226 -0.32471702 -0.021877453 -0.86194885 -0.0089068608 0.50691694 0.014898038
-0.03338933 -0.31467682 -0.024755837 0.76704836 0.016173035 0.64138544 0.01428324
-0.028877456 -0.31524187 -0.029694788 0.69516933 -0.0038295295 0.71883583 0.015969923
0.038214099 -0.31609455 -0.026084173 -0.74488652 -0.0237746 0.66676748 0.013375657
0.041523442 -0.31619987 -0.021626623 -0.85360336 -0.0047611729 0.52090174 0.012567183
-0.032998689 -0.30540925 -0.025128659 0.77215934 0.0071243932 0.63538903 0.013381535
-0.029457606 -0.30153719 -0.028978432 0.72536069 0.0092540095 0.68830681 0.016677514
0.037911192 -0.305857 -0.026097396 -0.73941207 -0.011105428 0.67316145 0.013366208
0.041440617 -0.30675104 -0.021387879 -0.85449874 -0.023820257 0.51890707 0.015564172
-0.033917945 -0.29611638 -0.024101563 0.80316067 0.0018393018 0.59575975 0.013702118
-0.029052904 -0.29734021 -0.029408308 0.70848769 -0.0067093852 0.70569122 0.017220575
0.03769495 -0.29445839 -0.026036296 -0.7373696 -0.027470667 0.67493075 0.014865727
0.040678579 -0.29520714 -0.022030326 -0.83576804 -0.020359034 0.54870504 0.015917055
-0.034105424 -0.28502581 -0.023867339 0.80137706 0.00089262531 0.59815884 0.013919484
-0.029172514 -0.28390536 -0.029241767 0.71567243 0.012534512 0.69832367 0.016070722
0.03699575 -0.28561869 -0.026998818 -0.72583789 -0.02269268 0.68749142 0.013772568
0.041569345 -0.28762555 -0.020532902 -0.85998154 -0.026233835 0.50965041 0.015940532
-0.033442192 -0.27546975 -0.024564628 0.76657599 -0.023781383 0.64171308 0.015128292
-0.029687461 -0.27615848 -0.028659573 0.71651894 -0.027020538 0.69704413 0.019570814
0.03683313 -0.27465785 -0.027192255 -0.7263937 0.00035155407 0.68727875 0.015530042
0.041193154 -0.27710935 -0.02067944 -0.86040175 -0.022328081 0.50912696 0.015631385
-0.033640645 -0.26657724 -0.024324367 0.7916674 -0.0076211686 0.61090481 0.01475435
-0.029621607 -0.26447389 -0.02869992 0.72379273 0.011906127 0.6899147 0.01814021
0.037756588 -0.26587364 -0.025649607 -0.75972199 -0.0056251092 0.65022379 0.014407317
0.040950961 -0.26307082 -0.02051636 -0.85763431 0.0047418722 0.51423818 0.015688067
-0.034420025 -0.25667286 -0.023448097 0.8053205 -0.014058586 0.59267294 0.017767366
-0.029048502 -0.25633532 -0.02930277 0.71587247 -0.023974448 0.69781935 0.017644886
0.037783105 -0.25543723 -0.025632167 -0.75887698 0.0061368034 0.65120512 0.012923075
0.040289141 -0.25562871 -0.021165829 -0.85276777 -0.0087850606 0.52221638 0.016292412
-0.034115642 -0.24501818 -0.023748552 0.80072725 0.010653512 0.59893435 0.018924393
-0.029340655 -0.24310033 -0.028998181 0.7170943 0.015847076 0.69679606 0.017772643
0.037793223 -0.24507464 -0.025635557 -0.7419371 -0.010014298 0.6703946 0.013234653
0.040370602 -0.24527876 -0.020686874 -0.84354556 0.0014023691 0.53705579 0.01471753
-0.033024255 -0.23529254 -0.024912113 0.77144074 -0.00063536922 0.63630086 0.015427198
-0.029302469 -0.23035336 -0.029235983 0.69804585 0.0085462602 0.71600211 0.01624817
0.037939597 -0.23597501 -0.02527231 -0.75353462 -0.023855051 0.65697527 0.011913736
0.04033909 -0.23482299 -0.020526052 -0.84568602 -0.027800124 0.5329563 0.019930476
-0.033745036 -0.22549161 -0.024138756 0.77183503 0.026529213 0.63526911 0.015810212
-0.029001815 -0.22423649 -0.029567529 0.70576477 0.029742122 0.70782173 0.016960612
0.037771598 -0.225555 -0.025621852 -0.74243826 -0.024967264 0.66944909 0.014221945
-0.03338537 -0.21397503 -0.024546688 0.79139704 -0.0086321719 0.61124152 0.014702494
-0.029146072 -0.21358939 -0.029416885 0.70639461 0.0030580226 0.70781153 0.019733431
0.037421651 -0.21472773 -0.02605268 -0.75918359 0.013991544 0.65072614 0.014757685
0.040240757 -0.21811792 -0.020993378 -0.84868598 -0.022654379 0.52841163 0.015573317
-0.034140851 -0.20383295 -0.023610249 0.81300229 -0.0017616062 0.58225787 0.01797024
-0.029169044 -0.20532405 -0.029396974 0.71616423 -0.0056527001 0.69790894 0.019549135
0.037013177 -0.20450951 -0.026685162 -0.74452871 0.012348382 0.66747624 0.015468054
0.040314279 -0.20057243 -0.021048425 -0.87629914 -0.012503913 0.48160511 0.013419276
-0.03457148 -0.1955229 -0.023162816 0.81197935 0.0032691509 0.58367705 0.017521804
-0.02925159 -0.19564547 -0.029312996 0.69275528 -0.0037280025 0.72116315 0.018078854
0.037063532 -0.19409533 -0.02637695 -0.74425083 -0.0022218758 0.66789645 0.014309742
-0.033996537 -0.18446131 -0.023910033 0.80090767 -0.0051408112 0.59876573 0.018499266
-0.028958779 -0.18339112 -0.029639799 0.6908319 0.020285191 0.7227307 0.017118335
0.036647603 -0.1851376 -0.026766459 -0.747316 -0.0063737743 0.66443825 0.015772922
0.040534593 -0.18235826 -0.02075064 -0.87347114 0.0094458451 0.4867844 0.013049653
-0.033103231 -0.17532718 -0.024940908 0.76099372 -0.0067771487 0.64872384 0.015690213
-0.02935138 -0.17484106 -0.029217128 0.69320893 -0.015833197 0.7205627 0.017631043
0.037464425 -0.17473091 -0.02591911 -0.76942557 -0.024518436 0.63826579 0.014308832
-0.033772148 -0.16532332 -0.024263857 0.76790917 -0.017557522 0.6403181 0.01629738
-0.029637476 -0.1670202 -0.028910106 0.71514279 -0.023573982 0.69858068 0.018438084
0.035881426 -0.16374815 -0.027585177 -0.73668915 0.0074831331 0.67619008 0.015815439
0.040180311 -0.16535674 -0.021852825 -0.8493194 -0.0011674728 0.52787793 0.016628182
-0.034352329 -0.15600957 -0.023574818 0.80972141 -0.014836686 0.58662683 0.014947114
-0.029284304 -0.15589991 -0.029302007 0.71452689 -0.019666845 0.69933146 0.018907076
0.036915909 -0.15316686 -0.026190203 -0.73038232 0.020065516 0.68274373 0.013319022
0.040158711 -0.15746446 -0.022007182 -0.84253061 -0.0203852 0.53826261 0.017983178
-0.034685042 -0.14532778 -0.023306398 0.81234205 -0.025715731 0.582614 0.014885011
-0.029615318 -0.14627084 -0.028947141 0.72752714 -0.044714693 0.68462032 0.017451597
0.035691492 -0.14476359 -0.027666476 -0.73877281 0.019387428 0.67367554 0.012785322
0.040581852 -0.14490749 -0.021033615 -0.86417443 0.01523941 0.50296152 0.016698483
-0.033433087 -0.13570359 -0.024732707 0.79308188 0.020169208 0.6087811 0.015940988
-0.02915485 -0.13403192 -0.029456705 0.72386044 -0.021688137 0.68960547 0.018627612
0.036105204 -0.13617246 -0.027015639 -0.73470956 -0.019096328 0.67811304 0.012396216
0.04049154 -0.13444006 -0.021245465 -0.86410445 0.0036787174 0.50329906 0.016729137
-0.034146585 -0.12496893 -0.023974655 0.77387017 0.050339356 0.63134062 0.014583793
0.036661934 -0.1246746 -0.026525717 -0.74253672 -0.001453674 0.66980374 0.013840493
0.040584855 -0.12570021 -0.021160932 -0.85297078 0.0044993362 0.52193916 0.016893713
-0.033851828 -0.11522111 -0.024687098 0.77280706 0.039550081 0.63340747 0.015221802
-0.029413812 -0.1138818 -0.029614914 0.70505989 0.050248209 0.70736527 0.016862808
0.036812857 -0.11579872 -0.026362387 -0.75242817 0.0084775053 0.6586197 0.014392445
0.041311018 -0.11699907 -0.020066632 -0.85420036 0.0013413293 0.51994222 0.017457938
-0.034409475 -0.10285887 -0.024904933 0.76178741 0.073765226 0.64361382 0.014055644
-0.029938016 -0.10296501 -0.029786333 0.69846755 0.07376036 0.71183038 0.0145085
0.03648093 -0.10474175 -0.027505929 -0.75558114 0.021521349 0.65470147 0.014687788
0.0406802 -0.10314268 -0.020656113 -0.86208749 0.035281993 0.50552988 0.016661888
-0.034082286 -0.095358618 -0.02578461 0.75442535 0.069122538 0.65273613 0.013628845
0.037863847 -0.096853867 -0.026038086 -0.75831217 0.028180024 0.65128219 0.012853815
0.040650319 -0.094623744 -0.021034522 -0.86267221 0.053594887 0.50291574 0.016870191
-0.04009087 -0.08082772 -0.020081582 0.87340021 0.037416201 0.48556364 0.015569248
-0.035427921 -0.08434315 -0.025097007 0.78206533 0.053825408 0.62086761 0.012891934
0.037700243 -0.08581917 -0.027390163 -0.75740212 0.050189506 0.65101689 0.012045154
0.040945966 -0.086021289 -0.021353666 -0.87046546 0.017122805 0.49193165 0.016585613
-0.040251523 -0.076884024 -0.020214088 0.86493063 0.019068228 0.50152904 0.014546257
-0.036128227 -0.074821249 -0.025040448 0.80389929 0.019351505 0.59445059 0.015803412
0.038740989 -0.073554136 -0.026802529 -0.76376045 0.044369347 0.64397305 0.013031573
0.040997051 -0.075215839 -0.02236096 -0.83939815 0.0012286436 0.54351568 0.015873061
-0.040248655 -0.066771552 -0.020790216 0.87668264 0.0040542451 0.48105213 0.013886055
-0.03667948 -0.064517848 -0.024781438 0.79614806 -0.00033475066 0.60510182 0.013710623
0.038307983 -0.065700717 -0.027993947 -0.76374894 0.014880991 0.64534181 0.013781701
0.041500911 -0.06422253 -0.021850733 -0.86068422 0.016546495 0.50887012 0.017081277
-0.036105726 -0.0548122 -0.025205314 0.79852211 0.0027335912 0.60195923 0.011039702
0.038375795 -0.054012407 -0.027506439 -0.76040143 0.0003544394 0.64945328 0.014468087
0.040686578 -0.053575471 -0.022920541 -0.84157157 0.0044570863 0.54012734 0.016297409
-0.03485908 -0.044230025 -0.0263658 0.75937849 -0.0098381285 0.6505748 0.01380882
0.0388439 -0.044223562 -0.026420265 -0.77451897 -0.035033181 0.63157988 0.0148231
0.041310515 -0.044090997 -0.021291634 -0.8593356 -0.0094283586 0.51132518 0.018720368
-0.040032431 -0.030969104 -0.020174097 0.86703789 0.012454179 0.49808663 0.015219339
-0.036577333 -0.036061779 -0.024218732 0.80883163 -0.028673608 0.58734077 0.011724193
0.037972912 -0.036305234 -0.027695723 -0.76129752 -0.031668134 0.64762884 0.012604899
0.041001793 -0.034551848 -0.02152619 -0.85296607 -0.0086694034 0.5218944 0.016706193
-0.040053613 -0.028676581 -0.020094879 0.86637044 -0.010505558 0.49929133 0.015271585
-0.035270426 -0.025203735 -0.025517058 0.76580364 -0.0036308994 0.64306414 0.013918304
0.03713192 -0.025372462 -0.028541747 -0.74941677 -0.019734042 0.66180444 0.011976334
0.040868577 -0.023086531 -0.022013372 -0.8332932 -0.000480783 0.55283105 0.014464358
-0.034749653 -0.01639474 -0.025964677 0.76698321 -0.011544132 0.6415633 0.013741395
0.038344465 -0.012153869 -0.026478469 -0.75872725 0.0078220973 0.65136141 0.012833503
0.041626021 -0.012855604 -0.020328559 -0.87062997 -0.00015480691 0.49193841 0.017787429
-0.035838988 -0.0051822755 -0.024524303 0.77911627 -0.030625837 0.626131 0.012633797
0.038021438 -0.0035607894 -0.026603356 -0.7681545 0.0010256007 0.64026368 0.01416925
0.041257571 -0.0055457884 -0.021451775 -0.8465578 -0.0095634395 0.53221095 0.01372257
-0.035656363 0.0053764009 -0.024710434 0.79358715 0.0041699372 0.60844231 0.013554055
0.037851032 0.0066239443 -0.02634188 -0.76676351 -0.022806292 0.64152437 0.015515431
0.04109633 0.0028422878 -0.021785859 -0.85781175 -0.018324832 0.51363724 0.017501155
-0.035074446 0.015065908 -0.025318019 0.77130628 -0.054660883 0.63411266 0.013703096
0.036349501 0.015167649 -0.028029762 -0.76493651 -0.033503149 0.64323366 0.011865051
0.040640995 0.012923357 -0.022294855 -0.86307687 -0.043358974 0.5032081 0.017410787
-0.035189196 0.024460865 -0.02454206 0.8009004 -0.055460185 0.59622377 0.015986701
0.036331087 0.025960593 -0.026990106 -0.74537814 -0.049829535 0.66477704 0.012332135
0.040685821 0.023758778 -0.021385191 -0.86891097 -0.067026414 0.4904092 0.014932125
-0.033792671 0.035626452 -0.025181806 0.76520944 -0.05406408 0.64150727 0.012613949
0.036513217 0.034514591 -0.025830708 -0.77746624 -0.073093139 0.62466288 0.013153722
0.040388793 0.037163459 -0.020348506 -0.88572317 -0.055235144 0.46091601 0.01162675
-0.033359583 0.043994382 -0.024929421 0.76898992 -0.062529646 0.63619536 0.013668611
-0.028744169 0.048834801 -0.029950198 0.70207632 -0.046880964 0.71055692 0.017089512
0.03643452 0.04466017 -0.024734152 -0.76914829 -0.08339531 0.63360566 0.014864088
-0.032811262 0.054514881 -0.024617586 0.77235335 -0.055684596 0.63274759 0.014321358
-0.029905118 0.055622593 -0.027913222 0.75128704 -0.037565392 0.65890568 0.01701555
0.035782151 0.055545837 -0.024419827 -0.77317262 -0.074698806 0.62978113 0.013627591
-0.03298815 0.066496558 -0.023328664 0.80817223 -0.047798585 0.58700329 0.016423419
-0.028465355 0.062907845 -0.029111391 0.69183427 -0.078292318 0.71779919 0.020439809
0.033288028 0.06461186 -0.026152803 -0.73289317 -0.081951737 0.67538995 0.013277545
-0.032361258 0.074927047 -0.023318704 0.82605046 -0.096386507 0.55529308 0.018263472
-0.028371025 0.075835682 -0.028136808 0.71312541 -0.046180494 0.69951373 0.0207447
0.033208493 0.077175297 -0.025098117 -0.76046354 -0.04939992 0.64749897 0.013822176
-0.031224933 0.084013566 -0.023880795 0.83088142 -0.058319665 0.55338502 0.016839359
-0.028871378 0.084422134 -0.026779512 0.73324907 -0.06375318 0.67696482 0.0245419
0.028553342 0.088524431 -0.029614421 -0.67744541 -0.054386787 0.73355967 0.019608593
0.032457452 0.085153073 -0.025188573 -0.74584305 -0.046936467 0.66446602 0.013651305
-0.032411013 0.093762182 -0.021578958 0.87084651 -0.066911377 0.4869799 0.015380462
-0.02840963 0.093493097 -0.026594516 0.7257362 -0.022992652 0.68758881 0.024248699
0.028431533 0.096897461 -0.028993495 -0.68368202 -0.044784859 0.72840452 0.022380179
0.032885645 0.096005797 -0.023598095 -0.8115527 -0.046287522 0.58244288 0.018138019
-0.031329926 0.10501772 -0.021939518 0.84856081 -0.056450423 0.52607787 0.016420415
-0.027329668 0.10488243 -0.026993042 0.70529062 -0.055536952 0.70673966 0.020013839
0.028595375 0.10556246 -0.027989702 -0.68815255 -0.0463298 0.72408527 0.021568459
0.032699332 0.10360842 -0.023090716 -0.82617813 -0.085143603 0.55693823 0.015992181
-0.031150807 0.11290195 -0.02149589 0.84982175 -0.057702716 0.52390218 0.017053455
-0.026377136 0.11465511 -0.027367618 0.69846362 -0.0446315 0.71425247 0.021344731
0.028537376 0.11272048 -0.027401395 -0.70478094 -0.066222884 0.7063275 0.02006183
0.032304421 0.11709278 -0.022304172 -0.84374201 -0.043942533 0.53494722 0.015118847
-0.030868346 0.12254685 -0.021036256 0.84153187 -0.040063284 0.53871989 0.015269197
-0.026755223 0.12564453 -0.026000202 0.69872737 -0.031343572 0.71470112 0.018619737
0.028302424 0.12687027 -0.026453622 -0.72860074 -0.032767978 0.68415439 0.026096838
0.031645998 0.12448565 -0.02246025 -0.84472853 -0.057080209 0.5321424 0.016184621
-0.030535841 0.13623975 -0.021021577 0.85924929 -0.017052431 0.51127273 0.019200461
-0.027003733 0.13485864 -0.025478298 0.71113533 0.0064015938 0.70302594 0.019881178
0.027939226 0.13514602 -0.02669102 -0.71208763 -0.020828238 0.70178157 0.0253966
0.031928673 0.13448682 -0.021723537 -0.85028058 -0.027551074 0.52560818 0.019522401
-0.030554196 0.14518958 -0.020990577 0.84059089 -0.0026157268 0.54166424 0.018828768
-0.026793776 0.14543699 -0.025712157 0.72868967 0.016562542 0.68464375 0.017420888
0.027460562 0.14518079 -0.02722672 -0.68507177 -0.0022845108 0.72847205 0.01939977
0.031346813 0.14412865 -0.022360539 -0.82987124 -0.012503797 0.55781484 0.017954571
-0.030466992 0.15653694 -0.021090604 0.84094834 0.023193423 0.54061812 0.024111478
-0.026550099 0.15452006 -0.026035815 0.70943421 -0.011592821 0.70467627 0.019493286
0.027488871 0.15508381 -0.027192105 -0.68173623 0.00065470737 0.73159784 0.021722147
0.030926365 0.1576443 -0.022760797 -0.82211739 -0.0022576682 0.56931365 0.014512323
-0.030490438 0.16630648 -0.021052459 0.83201838 0.0042188307 0.55473208 0.030314459
-0.026909843 0.16382155 -0.025612881 0.72844905 0.0039564879 0.68508857 0.0175483
0.027213037 0.16526535 -0.027353674 -0.6823718 0.014027049 0.73087066 0.021867558
0.031378798 0.16810872 -0.022100836 -0.82190359 0.0082426602 0.56956685 0.015283477
-0.030664261 0.17423628 -0.020826269 0.84474403 -0.01365141 0.53499645 0.022352578
-0.026414758 0.17392065 -0.026194273 0.72079611 0.011357658 0.69305408 0.018284462
0.026888769 0.17537475 -0.027853673 -0.67330503 -0.0024434777 0.73936081 0.021421097
0.031932913 0.17527138 -0.021344377 -0.84187716 0.016691567 0.53941107 0.020140626
-0.030507347 0.18602839 -0.021013828 0.84260088 0.012266929 0.5383988 0.020854225
-0.02618248 0.18532711 -0.026527263 0.72693843 0.012684793 0.68658549 0.018167326
0.027981499 0.18286748 -0.02647786 -0.68822581 -0.027318422 0.72498202 0.019121639
0.031686269 0.18570063 -0.021556256 -0.84192622 0.010658338 0.53948742 0.019825067
-0.030893786 0.19306345 -0.020520275 0.87330341 -0.0072747027 0.4871223 0.016557232
-0.027342137 0.19393517 -0.02514576 0.7353183 -0.0018400432 0.67771941 0.020508314
0.027151525 0.19576965 -0.027601449 -0.69383937 -0.025282042 0.71968579 0.020129113
0.030815024 0.19441704 -0.022562508 -0.78689438 -0.044255253 0.61549878 0.024034562
-0.030148206 0.20325203 -0.021451667 0.87374735 -0.017565515 0.48606277 0.017111864
-0.026258627 0.2045235 -0.026551232 0.71863663 -0.0095671993 0.69531995 0.023463363
0.027304873 0.20260251 -0.027378596 -0.67889106 -0.0086240368 0.73418838 0.019063298
0.031326123 0.20398171 -0.021854891 -0.8074553 -0.0015268945 0.58992684 0.020614088
-0.030553052 0.21219987 -0.020933218 0.87087488 -0.002483754 0.4914985 0.01602938
-0.026664801 0.21396515 -0.026061932 0.71254581 -0.014399251 0.70147783 0.017601637
0.027771508 0.21583366 -0.026716968 -0.69509059 0.01731926 0.71871352 0.019775897
0.031308033 0.21511489 -0.021896249 -0.81675941 0.0068319417 0.57693791 0.014733835
-0.031237964 0.22144115 -0.020061292 0.8669216 -0.0075198668 0.49838763 0.016849868
-0.026537398 0.22493884 -0.02624446 0.73192966 0.0085245641 0.68132675 0.017240847
0.027499827 0.22498019 -0.026995344 -0.68880451 -0.014232218 0.72480738 0.022596424
0.030728944 0.22557236 -0.022921277 -0.78914088 0.0062994515 0.61417991 0.022571718
-0.031005768 0.2380846 -0.020753404 0.87108004 0.014509753 0.4909268 0.017272111
-0.027157031 0.23495793 -0.025522081 0.72152072 -0.012338983 0.69228292 0.021009913
0.027466627 0.23435415 -0.027007081 -0.68930739 -0.0037069554 0.72445959 0.025256926
0.030918397 0.23341955 -0.022757804 -0.80967093 -0.025985986 0.58630854 0.014070375
-0.031003278 0.24020489 -0.02084388 0.85698789 -0.0007245146 0.51533592 0.016638124
-0.025270598 0.24512245 -0.027679054 0.68448144 0.011788511 0.72893488 0.020251138
0.026745997 0.24480599 -0.027754491 -0.69467658 -0.01569006 0.71915114 0.0255404
0.03183829 0.24570446 -0.021474766 -0.83021033 0.0043311068 0.55743343 0.01796584
-0.030820334 0.25213644 -0.021218032 0.86082554 0.0066043125 0.50885725 0.016476046
-0.025923043 0.25491107 -0.02694709 0.70587933 -0.029276561 0.70772684 0.020126665
0.027172094 0.25555345 -0.027320348 -0.68511772 -0.0045872908 0.72841799 0.023238013
0.031368319 0.25516433 -0.022227257 -0.84562218 0.011112513 0.53366613 0.017904172
-0.031227089 0.26477244 -0.020740071 0.84564394 -0.010556797 0.53364307 0.024898037
-0.025317917 0.26514021 -0.027594522 0.68379807 0.0012670917 0.72967017 0.021430252
0.02782145 0.26463357 -0.02659989 -0.69793338 0.022285083 0.7158159 0.022463573
0.032399721 0.26525494 -0.02084589 -0.84704095 0.021936078 0.53107476 0.019203119
-0.030859733 0.2780202 -0.021226937 -0.83412522 -0.15993454 -0.52787876 0.042085778
-0.026425535 0.27533752 -0.026308088 0.71692193 0.070219986 0.69360805 0.024486836
0.027547905 0.27566776 -0.026901701 -0.69005215 0.077358648 0.71961361 0.030485636
0.032082088 0.27364421 -0.021210313 -0.811517 0.10549309 0.57472724 0.035113689
-0.030812552 0.28350988 -0.021430863 -0.81055218 -0.24224566 -0.53321868 0.065966822
-0.025936931 0.28563258 -0.027221769 -0.61641866 -0.30098313 -0.72762442 0.06172562
0.027641186 0.28437111 -0.026959708 0.64111322 -0.22395249 -0.734043 0.053557839
0.031120777 0.28519562 -0.02271625 0.75708783 -0.29759479 -0.58159727 0.055962797
-0.031945117 0.29629329 -0.022183798 -0.60333246 -0.62505716 -0.49527103 0.07913141
-0.027130127 0.29604518 -0.026917176 -0.5266757 -0.53191191 -0.66308546 0.066448256
0.026455613 0.29387236 -0.027962944 0.53366011 -0.42143178 -0.7332136 0.066887416
0.034538873 0.296433 -0.022836057 0.5931378 -0.6138621 -0.5209232 0.073104985
0.041773308 0.29944649 -0.022039155 0.46119905 -0.7591725 -0.45929575 0.069432154
-0.13402091 0.30956754 -0.020971583 -0.43825153 -0.86711514 -0.23674212 0.067790456
