# .PCD v0.7 - Point Cloud Data file format
VERSION 0.7
FIELDS x y z normal_x normal_y normal_z curvature
SIZE 4 4 4 4 4 4 4
TYPE F F F F F F F
COUNT 1 1 1 1 1 1 1
WIDTH 576
HEIGHT 1
VIEWPOINT 0 0 0 1 0 0 0
POINTS 576
DATA ascii
0.13388371 -0.343135 -0.077897958 -1.0604322e-05 0.020831646 0.99978298 7.5106959e-07
0.14479174 -0.34451577 -0.077869192 1.0294148e-05 0.020815738 0.99978334 3.9637216e-06
0.15433605 -0.34406376 -0.077878609 7.0167084e-06 0.020826451 0.9997831 0
0.16521032 -0.34322208 -0.077896148 -3.0699673e-06 0.020826709 0.9997831 5.5420855e-06
0.1757689 -0.34542039 -0.077850342 -3.2464595e-06 0.020813229 0.9997834 1.9338297e-06
0.18580557 -0.34550047 -0.077848673 1.1299682e-05 0.020822722 0.99978322 8.9083989e-07
0.1956919 -0.34470361 -0.07786528 1.6055379e-06 0.020849619 0.99978262 0
0.20459533 -0.34482583 -0.077862732 3.6774745e-06 0.020828733 0.9997831 0
0.21513623 -0.34466159 -0.077866152 -2.2887234e-05 0.020819854 0.99978328 1.0646835e-06
0.2246215 -0.34448141 -0.077869907 -8.9277382e-06 0.0208192 0.99978328 1.590292e-06
0.235379 -0.34430268 -0.077873632 -8.7861503e-07 0.020844584 0.99978274 0
0.2461672 -0.34645835 -0.077828728 -5.2299168e-07 0.020820063 0.99978322 0
0.25392184 -0.34594104 -0.077839494 -5.0670756e-06 0.020812538 0.99978334 2.0964383e-07
0.26500911 -0.34346476 -0.077891096 -6.5610175e-06 0.020874532 0.99978209 0
0.27673739 -0.34761423 -0.07780464 -0.024243681 0.02130359 0.99947912 0.00087944278
0.28295323 -0.34576985 -0.077843063 -0.14157997 0.033754643 0.98935115 0.024235403
0.29471892 -0.34487158 -0.077861778 -0.4411577 0.025430789 0.89706928 0.077547386
0.30371734 -0.3449164 -0.075847968 -0.71340907 0.071597107 0.69708061 0.076080501
-0.25081661 -0.33106261 -0.073317826 0.50901866 0.6610623 0.55126822 0.081717521
-0.24445899 -0.33313563 -0.075360857 0.43200055 0.64379555 0.63158751 0.087863371
-0.23674583 -0.33602965 -0.076458447 0.32900411 0.53806007 0.77604616 0.073779546
-0.22488266 -0.33504811 -0.078066431 0.28389621 0.39035797 0.87579888 0.073399082
-0.21460778 -0.33533257 -0.078060508 0.1573856 0.20964487 0.96502781 0.043581553
-0.20582859 -0.33702999 -0.078025147 0.13566752 0.15622008 0.97836065 0.03050766
-0.19694243 -0.33536384 -0.078059852 0.015075536 0.052541804 0.99850494 0.0017338004
-0.18619961 -0.33538949 -0.078059323 4.5279862e-06 0.02080182 0.99978364 1.4913147e-06
-0.17449379 -0.33532581 -0.078060649 -1.2970623e-05 0.020826163 0.99978304 2.4278518e-06
-0.16393688 -0.33500502 -0.078067333 -3.3724741e-06 0.020811753 0.9997834 2.8813688e-06
-0.15545438 -0.33494034 -0.078068674 4.6809937e-06 0.020806789 0.99978346 2.3139523e-06
-0.14439505 -0.334562 -0.078076556 -8.2252936e-06 0.02082538 0.9997831 5.0843378e-06
-0.13556851 -0.33457896 -0.078076206 -9.5569912e-06 0.020831121 0.99978298 1.0344846e-05
-0.12622929 -0.33507118 -0.078065954 5.025659e-06 0.020800963 0.99978364 0
-0.11127162 -0.3334392 -0.078099944 -1.785554e-06 0.020823237 0.99978316 5.9994829e-07
-0.10566466 -0.334167 -0.078084797 -3.55212e-06 0.020807348 0.99978352 2.6000207e-06
-0.094328307 -0.33467233 -0.078074262 -6.1899391e-06 0.020799661 0.99978364 4.7714043e-06
-0.082770489 -0.33392116 -0.078089915 -2.562447e-06 0.020822769 0.99978316 1.3794505e-06
-0.074830674 -0.33737338 -0.078017987 -1.7646028e-06 0.020835787 0.99978298 4.8695244e-07
-0.064469635 -0.33626574 -0.078041069 -4.8919128e-06 0.020793047 0.99978381 5.2408445e-06
-0.05407384 -0.33555919 -0.078055792 -3.5955179e-06 0.020828988 0.99978304 2.0723796e-06
-0.046339415 -0.33431658 -0.078081682 -1.1242237e-06 0.020828864 0.99978304 3.082758e-06
-0.037291903 -0.33554897 -0.078056 -2.293809e-07 0.020813327 0.9997834 0
-0.0248484 -0.33614516 -0.07804358 -1.9244098e-06 0.020848425 0.99978268 0
-0.014956148 -0.33320075 -0.078104921 -1.6002094e-06 0.020855702 0.99978256 5.9737158e-06
-0.0046575782 -0.33485523 -0.078070454 4.2328296e-08 0.020833109 0.99978298 0
0.004257021 -0.33461607 -0.078075431 -7.8884636e-07 0.020838419 0.99978286 4.0342748e-06
0.016248386 -0.33509508 -0.078065455 -2.2287613e-06 0.020822223 0.99978316 0
0.02557035 -0.334676 -0.078074187 1.1872806e-06 0.020849815 0.99978262 2.2698989e-06
0.034758449 -0.33717611 -0.0780221 -1.3439991e-06 0.020831836 0.99978298 2.6554003e-06
0.044469625 -0.3355872 -0.078055203 -2.3754915e-06 0.020846345 0.99978274 0
0.054803804 -0.33542368 -0.078058608 -4.6458845e-07 0.020832257 0.99978304 0
0.064610951 -0.33543465 -0.078058384 8.4211155e-07 0.020841908 0.9997828 0
0.077142507 -0.33457699 -0.078076243 5.3272242e-06 0.020829296 0.99978304 4.2670226e-06
0.085193552 -0.33353299 -0.078097999 5.3360009e-07 0.020837346 0.99978292 4.7864442e-06
0.094664745 -0.33599553 -0.078046694 5.0465674e-06 0.020812342 0.9997834 4.1354679e-06
0.1043118 -0.33367613 -0.078095011 1.5792597e-06 0.020811077 0.9997834 5.7408943e-07
0.11767227 -0.33410311 -0.078086115 -5.3666663e-06 0.0208269 0.9997831 1.9076415e-06
0.1238346 -0.33451337 -0.07807757 -2.3564019e-06 0.020857815 0.99978244 0
0.13689962 -0.3352066 -0.078063138 -4.3432092e-06 0.020800708 0.99978364 0
0.14811094 -0.33681202 -0.078029685 -1.4061088e-06 0.020800319 0.99978369 3.4410432e-06
0.15525697 -0.33448946 -0.078078076 1.1370123e-05 0.020829218 0.9997831 1.7360254e-06
0.16483669 -0.33569953 -0.078052863 3.1122174e-06 0.020817179 0.99978328 1.2604393e-06
0.17621851 -0.33452541 -0.078077316 6.5485815e-06 0.020797737 0.99978375 4.8771058e-06
0.18470843 -0.33525634 -0.078062095 4.760025e-07 0.020808488 0.99978346 3.6084036e-06
0.19517425 -0.33429292 -0.078082167 1.3713011e-05 0.020828698 0.99978304 1.1395176e-06
0.20412686 -0.33302504 -0.078108579 -1.9876003e-05 0.020825982 0.9997831 0
0.21531583 -0.33580077 -0.078050755 -3.7694651e-06 0.020828241 0.99978304 0
0.22591472 -0.33563849 -0.078054138 -1.2177486e-05 0.020809591 0.99978346 0
0.23494661 -0.33406457 -0.07808692 1.3797723e-05 0.020833975 0.99978298 0
0.24526469 -0.33480242 -0.07807155 -4.0446907e-06 0.020839332 0.99978286 0
0.25298077 -0.33690977 -0.078027651 -5.1607517e-06 0.020826826 0.99978316 0
0.26541555 -0.33508331 -0.078065701 6.5225822e-06 0.020811075 0.9997834 2.2838512e-06
0.27627584 -0.3324948 -0.078119628 -0.028161585 0.019646132 0.99941027 0.0011863329
0.28445077 -0.33725601 -0.078020439 -0.22343677 0.0047782059 0.97470677 0.039088432
0.29335415 -0.33495986 -0.078068271 -0.38296634 0.036835 0.92302763 0.072815225
0.30391413 -0.33442008 -0.074188255 -0.78622341 0.064074941 0.61461139 0.081938058
-0.26271358 -0.32214957 -0.07509356 0.49013582 0.6835174 0.5408982 0.082035288
-0.25564662 -0.32669893 -0.075225942 0.44027954 0.6543774 0.61477154 0.081119768
-0.24504147 -0.32507989 -0.078274116 0.34789413 0.52455485 0.7770533 0.086849317
-0.23398407 -0.32399812 -0.078296646 0.21859735 0.34883267 0.91133469 0.073564172
-0.22703484 -0.32406181 -0.078295313 0.12316154 0.20404412 0.97118342 0.043802679
-0.21743262 -0.32529667 -0.078269586 0.048746713 0.1261777 0.9908092 0.014407424
-0.2037828 -0.32525802 -0.078270398 0.00047797943 0.01465664 0.99989247 0.00012742194
-0.19553879 -0.3231737 -0.078313813 0.0016366736 0.0049275043 0.99998659 0.00046573102
-0.18457881 -0.32385445 -0.078299642 0.00016471116 0.011636024 0.99993235 0.00025687699
-0.17258559 -0.32391351 -0.078298405 0.000521857 0.010164116 0.9999482 0.00035387115
-0.16601206 -0.32584146 -0.078258239 1.0384631e-05 0.020836856 0.99978286 0
-0.15540633 -0.32481232 -0.078279682 2.0332982e-06 0.020808466 0.99978346 3.2996873e-06
-0.1400584 -0.32006466 -0.078378595 0.0008088139 0.0010359377 0.99999917 0.00079615845
-0.13538988 -0.32516798 -0.078272268 -3.7004689e-08 0.020837631 0.99978286 0
-0.12689604 -0.32514632 -0.078272723 1.4250809e-05 0.020849716 0.99978256 0
-0.11543828 -0.32663298 -0.078241751 4.5096917e-06 0.020819791 0.99978322 0
-0.10369704 -0.32536721 -0.078268111 3.229738e-06 0.020836467 0.99978286 0
-0.096490167 -0.32420209 -0.078292392 0.00076867302 0.010695449 0.99994248 0.00030071076
-0.083236836 -0.32463664 -0.07828334 -3.6529625e-06 0.020857869 0.99978244 0
-0.073750041 -0.32384592 -0.07829982 -4.0791965e-06 0.020846387 0.99978262 3.8169054e-07
-0.064403087 -0.32437748 -0.078288741 1.2996622e-06 0.020860229 0.99978238 0
-0.054025054 -0.32529998 -0.078269526 -5.1070747e-06 0.020831667 0.99978298 5.9089371e-06
-0.045333561 -0.32291105 -0.078319289 0.0021362936 0.0022350373 0.99999523 0.00079535053
-0.033898775 -0.32610846 -0.078252681 -2.2372924e-06 0.020820564 0.99978322 4.8884021e-06
-0.025503272 -0.32453817 -0.078285389 -0.00050258491 0.010468977 0.9999451 0.00036038787
-0.017340321 -0.32459736 -0.078284159 -3.0334942e-07 0.02083539 0.99978292 9.2847944e-07
-0.0027171429 -0.32511535 -0.078273363 3.5511579e-07 0.020833587 0.99978298 0
0.0045901542 -0.32302055 -0.078317009 0.003281041 0.0057038772 0.99997842 0.00043694518
0.014622859 -0.32409593 -0.078294605 -1.4669921e-06 0.020841956 0.9997828 1.3834708e-06
0.024832202 -0.32564539 -0.078262329 9.022786e-07 0.020862626 0.99978232 0
0.035694201 -0.32472929 -0.078281403 -4.3596668e-07 0.02079308 0.99978387 5.3067888e-06
0.045722924 -0.32701728 -0.078233741 -3.1326254e-06 0.020829638 0.99978304 0
0.054414876 -0.32284519 -0.07832066 -0.00039639414 -0.0011285782 0.99999928 0.0008802379
0.06547004 -0.32513037 -0.07827305 0.00016809913 0.015586259 0.99987847 8.3989158e-05
0.076136619 -0.32634607 -0.078247719 2.4788822e-06 0.020800957 0.99978364 5.7108218e-06
0.083925612 -0.32421204 -0.078292191 -0.00043945003 0.014165381 0.99989957 0.00010588891
0.095974535 -0.32444859 -0.078287251 3.9792153e-06 0.02085031 0.99978256 2.7916681e-06
0.10588928 -0.32463816 -0.07828331 3.6345562e-06 0.020803884 0.99978358 4.1210083e-06
0.11490704 -0.32396504 -0.078297332 2.2641436e-06 0.020816334 0.99978334 4.6084456e-06
0.12299641 -0.32374954 -0.078301825 -0.00019507598 0.018331539 0.99983191 1.7517423e-05
0.13481385 -0.32396123 -0.078297406 -1.2847918e-06 0.020809786 0.99978346 1.3813251e-06
0.14496514 -0.32534626 -0.078268558 6.1705041e-06 0.020824376 0.99978322 0
0.15453427 -0.32541069 -0.078267217 4.699994e-06 0.020831773 0.99978298 0
0.16678092 -0.32684296 -0.07823737 -1.2525411e-05 0.020838825 0.99978286 4.1979632e-07
0.17524049 -0.32498711 -0.078276046 3.9442953e-06 0.020801703 0.99978364 0
0.18445301 -0.32505146 -0.078274697 -1.2736437e-05 0.020863177 0.99978232 0
0.19710319 -0.32546085 -0.078266174 -1.1346083e-05 0.020808531 0.99978346 9.6485948e-08
0.20496789 -0.32352373 -0.078306518 0.00044468485 0.0052362075 0.99998617 0.00064345956
0.21242109 -0.32483563 -0.07827919 -3.6387992e-06 0.020792859 0.99978381 4.5918569e-06
0.22589971 -0.32385954 -0.07829953 5.6034264e-06 0.020835038 0.99978298 5.1405505e-07
0.23375605 -0.32368058 -0.078303263 8.1764709e-05 0.012255265 0.9999249 0.00020841046
0.24396034 -0.32490379 -0.078277782 0.00023651218 0.012746693 0.9999187 0.00020978112
0.25398424 -0.32424837 -0.078291431 4.313227e-05 0.0079155276 0.99996865 0.00045239553
0.26565239 -0.32688606 -0.078236483 -3.4510119e-06 0.020848565 0.99978262 0
0.27419889 -0.32518399 -0.07827194 -0.010375761 0.020569557 0.99973458 0.00036656504
0.28471678 -0.32623175 -0.07825011 -0.16910908 0.013649337 0.98550278 0.024850948
0.29505876 -0.32262334 -0.078325287 -0.48843363 0.02995928 0.87208658 0.076805346
0.30367464 -0.32361826 -0.076098524 -0.59531057 0.027568838 0.80302256 0.086096354
-0.27541521 -0.31302026 -0.074179582 0.52219248 0.60345596 0.60262424 0.14605786
-0.26570165 -0.31548592 -0.077477105 0.35950166 0.35851923 0.86152333 0.11777107
-0.25478658 -0.31756467 -0.078430668 0.37187567 0.29949829 0.87864065 0.088740863
-0.24531388 -0.3163797 -0.078455359 0.19476873 0.092282705 0.97649837 0.08682403
-0.23473132 -0.31366062 -0.078512006 0.14020738 -0.051784411 0.98876703 0.04823377
-0.22508101 -0.31624448 -0.078458175 0.02372805 -0.11792888 0.99273854 0.027333295
-0.21542709 -0.31360126 -0.078513242 -0.0033156218 -0.14619419 0.9892503 0.026970852
-0.203173 -0.31790242 -0.078423642 0.0065184874 -0.048466694 0.9988035 0.010482807
-0.19299589 -0.31496945 -0.078484744 0.011947729 -0.12576865 0.99198765 0.022995561
-0.18538712 -0.31307456 -0.078524224 -0.019215303 -0.14569436 0.98914301 0.030746186
-0.17504515 -0.3140626 -0.078503639 0.001850914 -0.12384074 0.99230039 0.025790798
-0.16549683 -0.31378403 -0.078509435 -0.0092567522 -0.13664472 0.99057686 0.027069464
-0.15203826 -0.31370685 -0.078511044 -0.019940369 -0.17909245 0.98363018 0.03341138
-0.14539732 -0.31534025 -0.07847701 -0.023532635 -0.15546823 0.98756057 0.031065056
-0.1345796 -0.31351969 -0.078514941 0.033296369 -0.15921108 0.98668295 0.030599423
-0.1267755 -0.31537804 -0.078476235 -0.0044864039 -0.13745444 0.99049789 0.027759848
-0.11496661 -0.31424573 -0.078499816 0.0024340947 -0.14987621 0.9887017 0.026867602
-0.10583469 -0.31261858 -0.078533716 -0.013600689 -0.17562847 0.98436254 0.034115613
-0.096386671 -0.31730351 -0.078436114 0.0072327135 -0.095607474 0.9953928 0.023925044
-0.085005648 -0.31439948 -0.078496613 -0.0020588005 -0.17091928 0.9852829 0.028532412
-0.075256109 -0.31495956 -0.078484945 0.00028129434 -0.14731069 0.9890902 0.02714937
-0.0651737 -0.31553382 -0.078472987 0.0047518676 -0.13794377 0.99042869 0.024469659
-0.055236969 -0.31639069 -0.07845512 -0.004103323 -0.13262938 0.99115723 0.022442466
-0.045924906 -0.31472716 -0.078489788 0.013969303 -0.1436903 0.98952413 0.019513667
-0.034832235 -0.31564361 -0.078470692 0.014366145 -0.12558047 0.99197948 0.02164726
-0.025155496 -0.31493548 -0.078485444 0.00085164158 -0.12765637 0.99181807 0.023338737
-0.017376347 -0.31357712 -0.078513741 -0.0084241601 -0.14531793 0.98934919 0.024505083
-0.0055411919 -0.31474593 -0.078489393 -0.0029662969 -0.19854183 0.98008788 0.039434914
0.0061119129 -0.31541565 -0.078475438 0.0039714263 -0.16315112 0.98659313 0.027299011
0.014549194 -0.31294081 -0.078527011 0.0014458492 -0.16127425 0.98690856 0.030290758
0.025988558 -0.31516632 -0.078480639 -0.0067462674 -0.14798692 0.98896629 0.026337523
0.033889189 -0.31492561 -0.078485645 -0.020728871 -0.16525325 0.98603326 0.031791031
0.045650534 -0.31478098 -0.07848867 0.038657058 -0.16983481 0.98471409 0.031266037
0.052141953 -0.31555596 -0.078472517 0.00046179301 -0.15134738 0.98848057 0.027857307
0.067800827 -0.31609887 -0.078461207 0.025072129 -0.13293377 0.99080777 0.024361728
0.074662104 -0.31411788 -0.078502484 0.0079379929 -0.1396544 0.99016851 0.025374876
0.085527331 -0.31505838 -0.078482889 0.0045720264 -0.11923155 0.99285591 0.022030162
0.094761416 -0.31502384 -0.078483611 -0.020237707 -0.13444765 0.99071401 0.020521659
0.10541774 -0.31539762 -0.078475818 -0.0042246468 -0.11847425 0.99294811 0.023904309
0.11511549 -0.3153899 -0.078475989 8.8184825e-06 -0.12676182 0.99193317 0.022036567
0.12504411 -0.31425145 -0.078499697 0.020212144 -0.15965982 0.98696512 0.026768696
0.13594723 -0.31465828 -0.078491226 0.01342875 -0.14439319 0.98942924 0.026027789
0.14399227 -0.31411144 -0.07850261 -0.0081793945 -0.16142689 0.9868508 0.030086495
0.15464315 -0.31462547 -0.078491904 0.00053680973 -0.14279324 0.98975247 0.024273064
0.16514638 -0.313007 -0.078525625 -0.009992809 -0.15400325 0.98801982 0.027695691
0.17483909 -0.31552082 -0.078473255 0.001147948 -0.12628214 0.99199373 0.025389923
0.1838254 -0.31486186 -0.078486986 -0.0061419844 -0.15165666 0.98841417 0.023611136
0.19595197 -0.31435063 -0.078497633 0.0067446236 -0.15098776 0.98851264 0.025083739
0.20488296 -0.31651855 -0.078452468 0.0074082213 -0.120038 0.9927417 0.021764247
0.21304955 -0.31391197 -0.078506768 -0.012634459 -0.15458541 0.98789865 0.025151061
0.22554009 -0.31400654 -0.078504801 0.010546694 -0.14703242 0.98907542 0.024526501
0.23418514 -0.316035 -0.078462549 -0.013998794 -0.13252735 0.99108052 0.026012814
0.24584809 -0.31504324 -0.078483202 0.018682333 -0.15100747 0.98835611 0.025727043
0.25389582 -0.31329176 -0.078519695 -0.027355319 -0.14603314 0.98890138 0.023465712
0.26505375 -0.31758654 -0.07843022 0.0079320716 -0.15193772 0.9883582 0.027508488
0.2750431 -0.31664264 -0.078449883 -0.019925008 -0.14518446 0.98920387 0.022857307
0.28572279 -0.31612375 -0.078460693 -0.22203113 -0.11390479 0.96836346 0.04994297
0.29394573 -0.31297249 -0.078526348 -0.40178043 -0.076165773 0.91256303 0.072981372
0.30361682 -0.3155635 -0.07536386 -0.71193129 -0.054061569 0.70016509 0.070605367
-0.29125714 -0.30209032 -0.073912509 0.44925484 0.85565507 0.25695235 0.13974683
-0.28383428 -0.30595654 -0.076788746 0.57102942 0.72564578 0.38387954 0.14323474
-0.27213481 -0.30554226 -0.078681141 0.31812784 0.18098365 0.93061244 0.15370873
-0.26442903 -0.30510291 -0.07869029 0.25769755 -0.0082790134 0.96619016 0.15813351
-0.2537162 -0.30470952 -0.078698494 0.1582341 -0.19453543 0.96804851 0.11391611
-0.24353211 -0.30304658 -0.078733131 -0.059758905 0.37639737 -0.92452902 0.074528471
-0.23517573 -0.30683312 -0.078654245 -0.045269892 0.3242819 -0.94487661 0.075154215
-0.22677425 -0.30453297 -0.078702167 -0.027681846 0.44087407 -0.89714199 0.072842091
-0.21384512 -0.30584681 -0.078674786 0.0030907323 0.41666681 -0.90905404 0.068034671
-0.20585656 -0.30379939 -0.078717455 0.023529312 0.478306 -0.87787801 0.078466505
-0.19465658 -0.30404034 -0.078712434 0.026657578 0.50856394 -0.86061138 0.087604523
-0.18628468 -0.30503935 -0.078691624 0.041754495 0.40058419 -0.91530812 0.068449773
-0.17576252 -0.303628 -0.078721024 0.017936131 0.4015978 -0.91564053 0.073153421
-0.16422907 -0.30288807 -0.078736439 -0.037696447 0.4719815 -0.88080221 0.075288452
-0.15535276 -0.30602586 -0.078671068 0.014990577 0.43742943 -0.89912778 0.089510612
-0.14377633 -0.30541334 -0.078683831 -0.00040715872 0.44604626 -0.89500982 0.084470436
-0.13559324 -0.30384094 -0.078716591 0.015100622 0.45987526 -0.88785505 0.067994557
-0.12452175 -0.30363974 -0.078720771 -0.07570719 0.50226516 -0.86139309 0.068273559
-0.11430153 -0.30631837 -0.078664973 -0.0091114491 0.34509608 -0.93852311 0.062111527
-0.10645828 -0.3054103 -0.07868389 0.019757641 0.40856552 -0.91251516 0.07760223
-0.09494558 -0.30560246 -0.078679889 0.062231027 0.38147265 -0.92228305 0.068458259
-0.08492434 -0.30455723 -0.07870166 0.0083976947 0.43457493 -0.90059656 0.068755068
-0.074661903 -0.30399856 -0.078713298 -0.016116213 0.46754217 -0.88382387 0.073683269
-0.063508727 -0.30441505 -0.078704625 -0.038414709 0.45537615 -0.88946998 0.066568889
-0.055385876 -0.30683616 -0.078654177 -0.0034958133 0.3211889 -0.94700867 0.0585167
-0.042869687 -0.30403769 -0.078712478 -0.064113058 0.43325636 -0.89898753 0.064626433
-0.035681423 -0.30488238 -0.078694887 0.046308879 0.4465405 -0.89356428 0.074371599
-0.023291091 -0.30656585 -0.078659818 0.0075600315 0.39763293 -0.91751337 0.072058186
-0.016345035 -0.30321366 -0.078729652 0.01573161 0.44699818 -0.8943966 0.069986477
-0.0041761906 -0.30642664 -0.078662716 -0.031996183 0.34866863 -0.93669969 0.06649252
0.0040706852 -0.30528548 -0.078686491 0.04581121 0.40969786 -0.91107023 0.068163864
0.014601126 -0.3053678 -0.078684784 0.03087152 0.42893738 -0.90280658 0.079494894
0.024273651 -0.30401894 -0.078712873 0.023566037 0.50160515 -0.8647756 0.074749462
0.035578158 -0.30542454 -0.078683592 -0.04549408 0.44101459 -0.89634621 0.069981799
0.045865033 -0.30535328 -0.078685075 -0.035522155 0.46429822 -0.88496637 0.06117418
0.056176212 -0.30431414 -0.078706726 -0.052512642 0.45621914 -0.88831663 0.062999301
0.066886142 -0.30696547 -0.078651488 -0.026377931 0.34440026 -0.9384523 0.065328829
0.0755722 -0.30517972 -0.078688689 0.038305715 0.37634835 -0.925686 0.070420608
0.08468616 -0.30462563 -0.078700237 0.033390373 0.41999939 -0.90690988 0.078702785
0.095849864 -0.30437201 -0.078705519 0.022440616 0.45143151 -0.89202356 0.075205877
0.1076826 -0.30453131 -0.078702196 -0.022239845 0.3519513 -0.93575406 0.065348469
0.11505648 -0.30595309 -0.07867258 -0.035731342 0.3435483 -0.93845505 0.068472117
0.12592283 -0.30393431 -0.078714639 -0.022478135 0.46544787 -0.88478976 0.076055095
0.13636281 -0.30488142 -0.078694902 0.010138551 0.4806819 -0.87683648 0.06898693
0.14443105 -0.30442706 -0.078704365 0.032700654 0.45327288 -0.89077181 0.07183791
0.15346874 -0.30568692 -0.078678124 0.040868916 0.36991554 -0.92816603 0.063396811
0.16547203 -0.30554327 -0.078681119 0.0001978665 0.47971246 -0.87742573 0.074830025
0.17532814 -0.30427274 -0.078707591 -0.079466812 0.45903543 -0.88485676 0.070971929
0.18538728 -0.30565846 -0.078678712 -0.025254803 0.32307866 -0.94603503 0.055168699
0.19413821 -0.30464315 -0.078699872 0.051526457 0.38079455 -0.92322284 0.068804651
0.20394456 -0.30419698 -0.078709163 0.028316317 0.43217206 -0.9013465 0.075225994
0.21600837 -0.30357623 -0.078722097 -0.054779936 0.45897996 -0.88675618 0.074679561
0.22540158 -0.30627927 -0.078665785 -0.026511127 0.37666234 -0.92597121 0.067214549
0.2364063 -0.30544329 -0.078683197 -0.016848503 0.4307296 -0.90232372 0.076804593
0.24823684 -0.30248329 -0.078744866 -0.026558725 0.45756614 -0.88877892 0.072780542
0.25472304 -0.30494601 -0.078693554 0.044783659 0.45686707 -0.88840693 0.072954394
0.26530907 -0.30555579 -0.078680858 0.0099636922 0.38539296 -0.92269868 0.067117944
0.27401295 -0.30623251 -0.078666754 0.0056184926 0.37220746 -0.92813259 0.060957544
0.28671116 -0.30388084 -0.078715757 0.19618312 0.51617014 -0.83371496 0.090839252
0.29515612 -0.30475456 -0.078697547 -0.40386283 -0.31525004 0.85878527 0.10421107
0.30427632 -0.30617839 -0.074659303 -0.8008076 -0.19989567 0.56457853 0.094055824
-0.30194598 -0.29375049 -0.074670061 0.24057078 0.96916682 0.053303804 0.12820549
-0.29466668 -0.29434803 -0.07508637 0.26565757 0.96329337 0.038625456 0.15058973
-0.28454384 -0.29445058 -0.076559924 0.057297964 0.93189621 -0.35817069 0.17034093
-0.27547321 -0.29414836 -0.076534212 -0.040532056 0.84606785 -0.53153205 0.18530905
-0.26541832 -0.29281044 -0.074824192 -0.095376365 0.54872233 -0.83054632 0.16116795
-0.25614509 -0.29276314 -0.075846925 -0.0076903747 0.69169199 -0.72215176 0.085006453
-0.24577151 -0.29391852 -0.07595852 -0.047731612 0.71253371 -0.70001245 0.071434617
-0.23523532 -0.29350361 -0.075094037 0.01364461 0.72817177 -0.68525881 0.07780759
-0.22443694 -0.29463929 -0.076347001 -0.050453909 0.71907336 -0.69310015 0.087088592
-0.21704403 -0.29434243 -0.077178895 0.0093653537 0.73732167 -0.67547679 0.072755501
-0.20446242 -0.29548475 -0.07761351 -0.034803625 0.60733163 -0.79368573 0.086761989
-0.19605172 -0.29420471 -0.076438017 0.041252531 0.69240582 -0.72032809 0.077833571
-0.18553734 -0.29446092 -0.077065654 -0.068028085 0.6557833 -0.75187796 0.088675462
-0.17417271 -0.29407513 -0.076660864 -0.0013484862 0.66344607 -0.74822289 0.085819639
-0.16441108 -0.2942403 -0.077865504 0.0071374713 0.74805552 -0.66359788 0.07595966
-0.15473299 -0.29443824 -0.07857985 0.030190332 0.70562005 -0.70794696 0.082852602
-0.14632025 -0.29449236 -0.075685039 0.075207025 0.76945382 -0.63425916 0.079424314
-0.13551025 -0.29481813 -0.076672114 0.0078341654 0.71926475 -0.69469184 0.072516263
-0.12469961 -0.29322383 -0.075121075 0.0048470516 0.77157378 -0.63612139 0.073103085
-0.11449576 -0.29560143 -0.07833866 -0.0052137785 0.73138595 -0.68194389 0.075881988
-0.10561796 -0.29496634 -0.077326506 0.045906074 0.75327474 -0.656102 0.071053378
-0.096105292 -0.29467887 -0.076993555 0.054761946 0.63343728 -0.7718538 0.076689444
-0.084492758 -0.29393286 -0.076185696 -0.023354519 0.71331394 -0.70045549 0.070441656
-0.075491592 -0.29380134 -0.074617945 -0.031925216 0.85361511 -0.51992506 0.076145686
-0.063496627 -0.29399949 -0.076040111 -0.00079414574 0.69441009 -0.71957898 0.061692148
-0.055364013 -0.29412147 -0.076472618 0.031977315 0.70988768 -0.70358866 0.07182809
-0.045134477 -0.29432905 -0.075421371 -0.058577236 0.65465975 -0.75365067 0.078026466
-0.033471555 -0.29529989 -0.077804565 -0.026544381 0.75103134 -0.65973282 0.072633594
-0.024849564 -0.29477432 -0.076570846 -0.036948524 0.61904484 -0.784486 0.077486418
-0.015279364 -0.29404181 -0.075710304 -0.025919482 0.75517714 -0.65500808 0.062475465
-0.0056919535 -0.29491937 -0.076570131 0.024515269 0.58804274 -0.80845827 0.070357978
0.0047472846 -0.29489267 -0.077529863 0.034648214 0.64207608 -0.76585758 0.07370314
0.013844849 -0.29406792 -0.076887958 0.068152934 0.76661497 -0.63847995 0.06397339
0.023265336 -0.29315695 -0.073744096 -0.031360041 0.75976533 -0.64944077 0.066811167
0.035128821 -0.29325655 -0.076672539 -0.069488749 0.68217063 -0.7278837 0.056934528
0.045496378 -0.29324746 -0.075181648 -0.089625567 0.67063284 -0.73635519 0.052696194
0.05537869 -0.2934806 -0.075087652 8.9552515e-05 0.60874045 -0.79336941 0.06040005
0.063738123 -0.29529572 -0.07784608 -0.0052611744 0.58411974 -0.81165045 0.061432481
0.075006686 -0.29363874 -0.07709451 0.015799908 0.72183579 -0.69188392 0.062702
0.085315302 -0.29464614 -0.077751473 -0.038685583 0.70706958 -0.70608509 0.094470069
0.095607251 -0.29438099 -0.076553851 0.0071284804 0.72982311 -0.68359894 0.076101854
0.10361968 -0.29408339 -0.075504541 0.03898938 0.7918418 -0.60948044 0.082935438
0.11423415 -0.29371995 -0.077009879 0.024671715 0.67543507 -0.73700655 0.077908978
0.12683892 -0.29446971 -0.078423098 -0.028751973 0.64642698 -0.76243389 0.078841992
0.13397075 -0.29375002 -0.075483151 0.0047650286 0.71910506 -0.69488496 0.06631057
0.14497714 -0.29327214 -0.074628122 -0.014153047 0.81224889 -0.5831393 0.070803486
0.15467159 -0.29386917 -0.075706914 0.0057527679 0.70323533 -0.71093392 0.072570778
0.16581276 -0.29480186 -0.076997682 -0.040859174 0.70264119 -0.71037024 0.071046412
0.1747915 -0.29499829 -0.076348633 -0.016369067 0.79802477 -0.60240233 0.075293481
0.18460107 -0.29494876 -0.077429108 0.065808885 0.70856899 -0.70256609 0.075266384
0.19559513 -0.29351738 -0.074357815 0.020790342 0.84049314 -0.54142314 0.075997621
0.20401378 -0.29444522 -0.075758532 0.022101976 0.65045726 -0.7592212 0.078609884
0.21703659 -0.29478797 -0.07712023 -0.021371594 0.70221508 -0.71164405 0.071561903
0.22414337 -0.29391935 -0.075943515 0.00031039203 0.75413519 -0.65671915 0.071032941
0.23318738 -0.29439804 -0.077190712 0.0078585539 0.64651579 -0.76286018 0.071730658
0.24428163 -0.29531899 -0.077224299 0.015540083 0.6550467 -0.75542849 0.080391482
0.25537765 -0.29466376 -0.076458983 0.0001276173 0.66948515 -0.74282545 0.085828893
0.2641305 -0.29342774 -0.075467177 -0.05197737 0.72152942 -0.69042999 0.0794219
0.27473775 -0.29326397 -0.07613083 -0.044204812 0.71134353 -0.70145297 0.069083542
0.28453544 -0.29450756 -0.075893886 0.20240127 0.76501352 -0.61138207 0.078721307
0.29530448 -0.29374388 -0.075188853 0.32913825 0.69786704 -0.63612086 0.11834206
0.30262908 -0.29591814 -0.075514406 -0.66840672 -0.41068891 0.62013471 0.10334329
-0.081160903 -0.4506579 -0.065305024 0.26124486 0.89195311 0.36901337 0.060655784
-0.074656174 -0.4506579 -0.064846247 0.19951721 0.88943255 0.41122079 0.07413245
-0.063924991 -0.45065787 -0.064399637 0.082358815 0.92089552 0.3810097 0.076059349
-0.055640619 -0.45065787 -0.066566154 0.015242493 0.88947093 0.45673731 0.079346262
-0.044876274 -0.45065787 -0.06570556 -0.036071822 0.88569009 0.46287349 0.085281864
-0.033587109 -0.45065787 -0.06656982 -0.020788347 0.89654464 0.44246542 0.0859835
-0.025980992 -0.45065787 -0.066452228 -0.033216756 0.87545389 0.48215884 0.085785791
-0.016250754 -0.45065787 -0.062420078 -0.004594116 0.95648992 0.29172933 0.057338115
-0.0052991426 -0.4506579 -0.064657554 -0.019645633 0.88839841 0.45865276 0.090619661
0.0060736039 -0.45065787 -0.065283976 0.029892309 0.8830865 0.46825713 0.089962229
0.01348972 -0.45065787 -0.066283725 0.012254256 0.8979457 0.43993545 0.085175566
0.025388829 -0.45065787 -0.064849913 0.030492537 0.82392335 0.56588036 0.074414872
0.034760755 -0.45065787 -0.064704545 0.046161562 0.78232068 0.62116301 0.076599292
0.046756472 -0.4506579 -0.065733269 0.079099141 0.65483791 0.75161862 0.06588845
0.054794546 -0.45065787 -0.065343343 0.1215881 0.60992777 0.78307372 0.058184482
0.064443909 -0.4506579 -0.065690361 0.066528171 0.56277359 0.82392961 0.052425779
0.075679101 -0.4506579 -0.067594312 0.016710695 0.53834856 0.8425566 0.04095646
0.084061034 -0.45065787 -0.064675204 -0.063141115 0.56542885 0.82237673 0.053123157
0.094961606 -0.45065787 -0.064294413 -0.13719629 0.63765961 0.75800222 0.063422248
0.10542346 -0.45065787 -0.065937661 -0.12044169 0.72853696 0.674335 0.069434166
0.11596608 -0.45065787 -0.064207099 -0.029583227 0.83625603 0.54754061 0.080288455
0.1237189 -0.4506579 -0.064910695 -0.0076841302 0.85247678 0.52270859 0.075052388
0.13398694 -0.4506579 -0.063828371 0.0023091107 0.92456788 0.38101026 0.073519073
0.1436016 -0.4506579 -0.065680921 -0.034907877 0.88472974 0.4647955 0.082263902
0.1520001 -0.4506579 -0.063526466 -0.025925364 0.93497884 0.35375488 0.079562202
0.16601749 -0.45065787 -0.06457857 -0.024801834 0.90537894 0.42387941 0.080910787
0.17447734 -0.45065787 -0.06561099 -0.0032374496 0.8650853 0.50161433 0.093349457
0.18507521 -0.4506579 -0.065418139 0.0091595082 0.89156634 0.4527975 0.089613095
0.19558956 -0.4506579 -0.064540818 0.0025321669 0.96189761 0.27339819 0.05277108
0.2041136 -0.4506579 -0.064818591 0.018974686 0.92309248 0.38410962 0.084320545
0.21523859 -0.45065787 -0.065449782 -0.048599571 0.92577261 0.37494403 0.089058384
0.22487074 -0.4506579 -0.065555193 -0.019264076 0.92030233 0.39073342 0.083380915
0.23704669 -0.4506579 -0.063533813 0.014802563 0.93635529 0.35074151 0.075240694
0.24590634 -0.45065787 -0.063666321 -0.087510027 0.93890005 0.33287954 0.085875735
0.25645933 -0.45065787 -0.064267635 0.061632045 0.90133375 0.42871794 0.084095351
0.264954 -0.45065787 -0.065061644 0.0079505481 0.88625503 0.46312934 0.08795689
0.27704984 -0.4506579 -0.064327329 0.015178825 0.8993302 0.43700668 0.075960696
0.28470773 -0.45065787 -0.06492383 -0.13770477 0.90503979 0.40241832 0.091393225
0.29527912 -0.45065787 -0.066378519 -0.49046245 0.75897658 0.42825353 0.14728417
0.30227432 -0.45060581 -0.065360248 -0.57675225 0.73267496 0.3613092 0.12408355
-0.093996704 -0.44341123 -0.065592855 0.42233282 0.83048362 0.36322445 0.061250251
-0.08826156 -0.44752005 -0.065664604 0.374093 0.84372246 0.3849504 0.057560124
0.30427632 -0.44823119 -0.06438376 -0.64790314 0.6946193 0.31261078 0.12666529
-0.1117928 -0.4306618 -0.065815836 0.52281296 0.74787951 0.40907547 0.078143954
-0.10515475 -0.43541744 -0.066362657 0.50633901 0.75368541 0.4190217 0.065958165
0.30427632 -0.43498164 -0.065024905 -0.92067444 0.24965511 0.30005142 0.10868701
-0.12280605 -0.42277172 -0.0651033 0.52604973 0.79248852 0.30859965 0.062134501
-0.1152694 -0.42817107 -0.06569799 0.55962437 0.73127145 0.38995206 0.071849227
0.30427629 -0.42485052 -0.062797546 -0.96092188 0.013143389 0.27650738 0.049854569
-0.13557304 -0.41362518 -0.064620696 0.56200624 0.76024193 0.32585454 0.052604966
-0.12830608 -0.41883138 -0.065281145 0.55368865 0.73940212 0.38303187 0.068844795
0.30427632 -0.41302651 -0.064269133 -0.94391072 0.047195915 0.32681042 0.061209023
-0.15274227 -0.40132487 -0.066353135 0.54773623 0.75316417 0.36431956 0.071378462
-0.14494064 -0.40691409 -0.063852839 0.54944575 0.77194804 0.31969607 0.057423405
0.30427632 -0.40494284 -0.066096306 -0.89880151 0.083534323 0.43032289 0.07448145
-0.16576415 -0.39199576 -0.064308897 0.51069725 0.80041003 0.31389809 0.058492642
-0.1582588 -0.39737272 -0.066042632 0.497244 0.77368575 0.39263055 0.070378117
0.30427632 -0.39354134 -0.064089559 -0.93748438 0.041583199 0.34553403 0.062796928
-0.18052083 -0.3814238 -0.065227211 0.52162284 0.73258042 0.43730479 0.070425138
-0.17539519 -0.38509586 -0.064397633 0.53527528 0.76179063 0.3649047 0.060227983
-0.16922382 -0.38951719 -0.065107115 0.53001785 0.76041859 0.37529272 0.061465379
0.30427629 -0.38543761 -0.065420985 -0.93676454 0.010785751 0.349794 0.056155987
-0.19492559 -0.37110397 -0.063236475 0.52384228 0.80558157 0.27681708 0.055206627
-0.18670797 -0.37699124 -0.064930834 0.54624104 0.76108342 0.34981817 0.061885189
0.30427629 -0.37460855 -0.066047654 -0.92417204 -0.013665708 0.38173199 0.062411446
-0.21009794 -0.36023426 -0.062511474 0.56391203 0.76283681 0.31635937 0.054693501
-0.2042381 -0.36443233 -0.065035172 0.53029871 0.77865344 0.33538336 0.055116154
-0.19800754 -0.36889601 -0.063267931 0.53491491 0.77464598 0.3373273 0.065067925
0.30427632 -0.36746842 -0.065112762 -0.92818791 -0.015092068 0.37180567 0.057522323
-0.22396143 -0.35030219 -0.060950745 0.56108135 0.80198824 0.2049453 0.041133277
-0.21648356 -0.35565943 -0.066726789 0.52572906 0.77501929 0.35064805 0.055989258
0.30427632 -0.35599336 -0.063761607 -0.93624699 0.0076615945 0.35125893 0.059098352
-0.23372364 -0.34330836 -0.065822423 0.55284679 0.75795043 0.34622481 0.057910968
-0.22638258 -0.34856761 -0.066306598 0.57155216 0.72110856 0.39157453 0.062874511
0.30427632 -0.34659931 -0.063257441 -0.95250547 -0.0235448 0.30360982 0.053231347
-0.25104797 -0.33089691 -0.064794727 0.52359027 0.77658474 0.35038456 0.054192282
-0.24519536 -0.33508983 -0.064858958 0.56502932 0.77469224 0.28389063 0.05002382
-0.23997389 -0.33883056 -0.061659582 0.58907413 0.77950943 0.2129712 0.036140885
0.30427632 -0.3363542 -0.067142509 -0.90750462 8.0273014e-05 0.42004216 0.067471795
-0.26428163 -0.32141605 -0.064458765 0.62276351 0.73079479 0.2794719 0.090655692
-0.25644577 -0.32702979 -0.065533683 0.56977385 0.76780105 0.29298362 0.050208621
0.30427632 -0.32497969 -0.064814925 -0.94831461 0.014100848 0.31701824 0.054190982
-0.27344149 -0.31485379 -0.064754263 0.71143675 0.63770074 0.29528898 0.13123496
-0.26810387 -0.31867775 -0.064032666 0.69390994 0.63720459 0.33534971 0.10080631
0.30427632 -0.31358728 -0.064588986 -0.93693185 -0.11744173 0.32919019 0.06539084
-0.29172054 -0.30175832 -0.065660946 0.46873006 0.86918014 0.15753745 0.14966139
-0.28489906 -0.30664539 -0.063719943 0.59409273 0.79402429 0.12876035 0.12753917
0.30427632 -0.30597457 -0.062787853 -0.92166024 -0.32741553 0.20818622 0.081412897
-0.30313972 -0.29287717 -0.066281326 0.28642312 0.95580602 0.066308126 0.1062254
-0.29653275 -0.2951009 -0.063241437 0.26309595 0.96397495 -0.039152246 0.10382971
-0.28599483 -0.29276314 -0.063533977 0.23840107 0.97106278 -0.014210659 0.15381072
-0.27489525 -0.29276314 -0.065757856 0.09120068 0.98287362 -0.16013075 0.18375859
-0.265475 -0.29276314 -0.064697705 -0.25127056 0.9319874 -0.26127112 0.16343622
-0.25547904 -0.29276314 -0.065494493 -0.22813573 0.82956541 -0.50968158 0.13994835
-0.24395172 -0.29276317 -0.063987851 0.0039353115 0.94292784 -0.33297393 0.060498971
-0.23555249 -0.29276314 -0.064917319 0.01195142 0.9238385 -0.38259575 0.066293724
-0.22272083 -0.29276314 -0.066206813 -0.012556395 0.91135472 -0.41143021 0.066601939
-0.21481234 -0.2927632 -0.064825498 -0.015418196 0.94234192 -0.33429593 0.057861738
-0.20648019 -0.29276314 -0.065971643 0.0168158 0.90151489 -0.43242127 0.071395226
-0.191956 -0.29276314 -0.065638229 0.017989151 0.94363588 -0.33049613 0.056328971
-0.18366008 -0.29276314 -0.064992316 -0.026453033 0.93570197 -0.3517983 0.052124754
-0.17405677 -0.29276314 -0.065249003 -0.054769952 0.92084742 -0.3860572 0.057252306
-0.16494322 -0.29276317 -0.065432146 0.014720102 0.93597335 -0.35176277 0.059428047
-0.15462612 -0.29276314 -0.064683579 0.019357946 0.93477947 -0.35470062 0.06169682
-0.1448506 -0.29276314 -0.06327226 0.026546458 0.93552107 -0.35227215 0.059827741
-0.13575397 -0.29276314 -0.064666331 -0.011376382 0.90081769 -0.43404856 0.064161465
-0.12568213 -0.29276314 -0.065356709 0.024158405 0.91466624 -0.40348756 0.061289929
-0.11394776 -0.29276317 -0.06381584 -0.017597387 0.94018859 -0.3401995 0.055275403
-0.10431872 -0.29276314 -0.064856872 -0.0094384784 0.91848993 -0.39533177 0.067363113
-0.095011078 -0.29276314 -0.06382478 -0.044109274 0.94045788 -0.33703604 0.058881838
-0.084679939 -0.29276314 -0.063190386 0.026260084 0.94127917 -0.33660638 0.053923115
-0.074728981 -0.29276314 -0.065112337 -0.011069476 0.90085644 -0.43397588 0.061870761
-0.065218136 -0.29276314 -0.064004257 0.006666794 0.93223101 -0.36180237 0.06136198
-0.053723264 -0.29276314 -0.066935875 -0.0074430965 0.89586389 -0.44426626 0.069186382
-0.044751689 -0.29276317 -0.065610163 0.025178645 0.90455818 -0.42560598 0.07060127
-0.036954094 -0.29276317 -0.06674023 0.031799842 0.90431815 -0.42567283 0.070983037
-0.025955413 -0.29276314 -0.065641478 0.0098284855 0.92379248 -0.38276735 0.066057846
-0.014450334 -0.29276314 -0.065054618 -0.023522235 0.91318572 -0.40686408 0.06254711
-0.0058993464 -0.29276317 -0.065334029 -0.00043569069 0.91092813 -0.41256493 0.067072518
0.0049123559 -0.29276314 -0.06439174 -0.052353058 0.87678289 -0.4780283 0.0633021
0.015527366 -0.29276314 -0.065032288 -0.090456352 0.81735802 -0.56898463 0.064002201
0.025584886 -0.29276317 -0.065265238 -0.11520921 0.77360427 -0.62310779 0.060967173
0.034289736 -0.29276317 -0.062124804 -0.12713456 0.69502181 -0.70765918 0.064825796
0.044017371 -0.29276314 -0.062419027 -0.10531683 0.67793357 -0.72754002 0.047903389
0.053463411 -0.29276314 -0.067025542 0.00810319 0.65956092 -0.75160742 0.050641526
0.064899057 -0.29276317 -0.063876472 0.10272255 0.70291138 -0.70382082 0.059724141
0.072772406 -0.29276314 -0.066024013 0.10889516 0.75958347 -0.64122909 0.056140531
0.084207535 -0.29276314 -0.066319324 0.16824038 0.8163203 -0.55255455 0.072183251
0.096855082 -0.29276317 -0.065740921 0.05482655 0.86663491 -0.49592128 0.06409882
0.10652985 -0.29276317 -0.065933019 -0.050735284 0.91086268 -0.40957895 0.067688219
0.11714017 -0.29276314 -0.066356376 -0.033479035 0.91077644 -0.41154045 0.067329049
0.12506601 -0.29276314 -0.064717919 0.0097295661 0.92898661 -0.36998531 0.064799897
0.13379857 -0.29276314 -0.064171828 0.04542923 0.93945187 -0.33965617 0.063806899
0.14608039 -0.29276314 -0.066351272 0.010139205 0.91210115 -0.40983966 0.061706625
0.15457407 -0.29276314 -0.062909417 0.010524395 0.93976712 -0.34165326 0.058444314
0.16430013 -0.29276311 -0.064705074 0.0094950423 0.91053951 -0.41331291 0.064999022
0.17506449 -0.29276314 -0.065214686 0.022766396 0.90901375 -0.4161438 0.061303698
0.18497203 -0.29276314 -0.065609694 -0.026055781 0.91043884 -0.41282228 0.062801577
0.19553332 -0.29276317 -0.065023206 -0.033947408 0.92719185 -0.37304547 0.063353643
0.20598288 -0.29276314 -0.065087907 -0.066909656 0.9288367 -0.36439744 0.063168406
0.21442513 -0.29276314 -0.064410403 0.020435363 0.92700744 -0.37448567 0.065047562
0.22435658 -0.29276314 -0.065180615 0.021041341 0.93005699 -0.36681229 0.06279318
0.23391794 -0.29276314 -0.065625139 0.026206611 0.90922493 -0.41547954 0.065657631
0.24585414 -0.29276314 -0.064754099 -0.02877802 0.92550284 -0.37764585 0.065277413
0.25699526 -0.29276314 -0.0648892 -0.03613865 0.92974204 -0.36643392 0.064117104
0.26556614 -0.29276317 -0.064966515 0.014975074 0.9060747 -0.42285281 0.069259793
0.27376127 -0.29276314 -0.0641689 0.0010755985 0.9176442 -0.39740166 0.070174724
0.28508997 -0.29276314 -0.064985469 0.17919175 0.9011113 -0.39482754 0.079883948
0.29747 -0.29276314 -0.066813082 0.44982478 0.81267482 -0.37042859 0.11045735
0.30331513 -0.29434687 -0.064410955 0.59089762 0.78343564 -0.19253203 0.098741814
0.047884088 -0.4975116 -0.051431317 0.31185877 0.60854965 0.72966528 0.081257232
0.054480791 -0.49720284 -0.053445369 0.20991591 0.63916755 0.73986495 0.077267282
0.065597013 -0.49524122 -0.055844449 0.050899632 0.52378237 0.85033005 0.063914694
0.075143315 -0.49635997 -0.055509802 -0.0690993 0.54422057 0.83609164 0.067065828
0.08385586 -0.49748439 -0.05421605 -0.16252208 0.65335411 0.73940176 0.070173852
0.094296865 -0.49576548 -0.052581742 -0.28223145 0.53270686 0.79785258 0.067162625
0.047806866 -0.48355311 -0.051399332 0.32147011 0.27376211 0.90648288 0.048444379
0.054425132 -0.48562235 -0.053989239 0.22607306 0.28230461 0.93230629 0.049276572
0.067380577 -0.48613024 -0.056376927 0.068213984 0.34266695 0.93697709 0.050303001
0.077041544 -0.48338029 -0.056447525 -0.047443524 0.33272555 0.9418295 0.054153752
0.085181393 -0.48595223 -0.055327334 -0.1418927 0.38283303 0.91285563 0.066820353
0.095792174 -0.4833318 -0.051962361 -0.36494401 0.26100734 0.89369518 0.044848539
0.10026063 -0.48051035 -0.050111465 -0.44443905 0.1656189 0.88036597 0.026925236
0.046953451 -0.47603276 -0.051045835 0.3871004 0.19676921 0.90079695 0.033727594
0.054226696 -0.47618625 -0.054058515 0.29498169 0.21475856 0.93105567 0.029975962
0.064501546 -0.47516939 -0.055997897 0.13799922 0.22756498 0.96393484 0.032348316
0.07493934 -0.47515997 -0.056652233 0.01505093 0.26285771 0.96471721 0.031716522
0.086533196 -0.47418424 -0.05514105 -0.25838119 0.19532676 0.94609016 0.03239844
0.095676824 -0.47511908 -0.052010141 -0.39964539 0.19088726 0.89657444 0.029935282
0.047592744 -0.46367425 -0.051310644 0.27135327 0.46558362 0.84237725 0.090447776
0.055941112 -0.46514904 -0.05439439 0.24172343 0.39604813 0.88584179 0.071245104
0.06670697 -0.46473408 -0.056288254 0.1472557 0.42988083 0.89079642 0.059756212
0.074657366 -0.46681613 -0.056612723 -0.0015713311 0.32963464 0.94410729 0.052037459
0.085860305 -0.46513081 -0.055283636 -0.14566731 0.45010313 0.88101542 0.064828001
0.094326757 -0.46683031 -0.05256936 -0.3416622 0.38504663 0.8573249 0.069934823
-0.082141474 -0.45065787 -0.053075328 0.28103054 0.953125 0.1121365 0.026905615
-0.074642457 -0.45065787 -0.055544868 0.15860756 0.97350597 0.16471104 0.034246672
-0.064850576 -0.45065787 -0.055970144 0.046940282 0.98756081 0.15006709 0.026436418
-0.055361561 -0.4506579 -0.05534593 -0.0053742686 0.98881042 0.14908086 0.026186835
-0.044104777 -0.45065787 -0.055367328 0.0097014187 0.98966336 0.14308159 0.02851372
-0.035079952 -0.45065787 -0.054870903 -0.01246802 0.98780507 0.1551961 0.033289611
-0.025628014 -0.45065787 -0.055527985 -0.014856277 0.98318833 0.18198895 0.035057433
-0.014367248 -0.45065787 -0.054634877 0.0023327391 0.98514646 0.17170037 0.030917566
-0.0049897046 -0.4506579 -0.056727283 0.0034147264 0.9851923 0.17141882 0.033388205
0.0059122681 -0.4506579 -0.055842083 0.017226335 0.97766906 0.20944308 0.040785294
0.014896823 -0.4506579 -0.05592541 0.083220206 0.95580822 0.28196624 0.042385001
0.027027622 -0.45065787 -0.054235131 0.162541 0.88914907 0.42777836 0.064603485
0.036341049 -0.4506579 -0.055757239 0.19059739 0.83043778 0.52349365 0.072406635
0.045747519 -0.4519757 -0.054108288 0.27509534 0.73135811 0.62404966 0.075559117
0.053826209 -0.45406526 -0.054852508 0.20327057 0.67011058 0.71388578 0.061006837
0.065252401 -0.45334741 -0.05657696 0.068182476 0.62433165 0.7781781 0.057723101
0.075530969 -0.45471063 -0.057149481 0.038743667 0.57004595 0.82069868 0.051075861
0.084626563 -0.45365083 -0.056486614 -0.12829944 0.64148074 0.75633442 0.055461667
0.094497614 -0.4517628 -0.055097781 -0.17857061 0.71204406 0.67904776 0.072764106
0.10649965 -0.4506579 -0.05491649 -0.22641501 0.81743878 0.52965087 0.072480641
0.11773777 -0.4506579 -0.053764831 -0.19988665 0.89468473 0.39948043 0.068731874
0.12301017 -0.45065787 -0.055031642 -0.12912843 0.93205863 0.33851519 0.056613125
0.13763298 -0.4506579 -0.054317035 -0.042315986 0.97910482 0.1989046 0.034715187
0.14448543 -0.45065787 -0.054065622 -0.026789224 0.98629141 0.16282369 0.030682718
0.15503509 -0.45065787 -0.05503602 0.0039334418 0.99027514 0.13906699 0.028710386
0.16435775 -0.4506579 -0.055369679 0.0068093943 0.98733073 0.15852962 0.030753229
0.17515232 -0.45065787 -0.05412804 0.0032623624 0.98888803 0.14862627 0.029445369
0.18489435 -0.45065787 -0.055018909 0.0053040991 0.98346847 0.18100189 0.037517603
0.19567113 -0.45065787 -0.054366712 0.0071338448 0.98568332 0.16845605 0.040531784
0.20466413 -0.45065787 -0.056096233 -0.013750997 0.97867811 0.20493928 0.039882898
0.21403033 -0.45065787 -0.054695036 0.00039733812 0.98904288 0.14762793 0.031770878
0.2248724 -0.4506579 -0.055554055 0.0062208502 0.98623335 0.16524243 0.034634739
0.23443258 -0.45065787 -0.057086166 0.0092261219 0.98525101 0.17086631 0.0332762
0.24671811 -0.45065787 -0.054430429 -0.00071002397 0.98748881 0.15768741 0.03677094
0.25374189 -0.45065787 -0.056034785 -0.0079869609 0.98564637 0.16863365 0.03658215
0.2633712 -0.45065787 -0.054305092 -0.017401889 0.98602319 0.16569717 0.032363504
0.27583483 -0.45065793 -0.056085601 -0.0063813203 0.98434842 0.17611806 0.031101406
0.28424251 -0.4506579 -0.055916436 -0.1330971 0.98222733 0.13234302 0.051074963
0.29349339 -0.4506579 -0.053661268 -0.48291624 0.86938876 0.10466644 0.095211796
0.30282784 -0.4506579 -0.052091688 -0.66388071 0.7468577 0.038289219 0.093546383
-0.095833033 -0.44209561 -0.055706792 0.5193761 0.8359288 0.1774022 0.030905411
-0.086801536 -0.44856596 -0.055589091 0.40328813 0.90541112 0.1326247 0.025422884
0.30427632 -0.44673315 -0.054934885 -0.70133919 0.71046114 0.058036089 0.10157248
-0.11031649 -0.43171948 -0.058611084 0.59175187 0.78782725 0.17075686 0.032004248
-0.10630196 -0.43459553 -0.055985317 0.58266723 0.79963619 0.14519221 0.025282938
-0.098872572 -0.43991807 -0.055783182 0.52145219 0.8366195 0.16779602 0.031292982
0.30427632 -0.43582568 -0.055420455 -0.96388167 0.23756747 0.1203905 0.073378295
-0.1238955 -0.4219912 -0.055822007 0.56013906 0.80364692 0.20098715 0.03676096
-0.11724292 -0.42675722 -0.05566071 0.56741273 0.81365883 0.12649968 0.02337989
0.30427632 -0.42568216 -0.054384686 -0.98506629 0.062042363 0.16060829 0.034768034
-0.14016365 -0.41033641 -0.05502446 0.59287632 0.79104412 0.15082088 0.025128312
-0.1357304 -0.41351247 -0.054450899 0.58665574 0.80183089 0.11358801 0.021210685
-0.1273469 -0.41951859 -0.053470254 0.57911909 0.8021028 0.14578113 0.0270663
0.30427635 -0.41448426 -0.055567354 -0.98424441 0.024268841 0.17514004 0.031602249
-0.15151706 -0.40220261 -0.052919693 0.58349061 0.80387229 0.11544713 0.022346975
-0.14548133 -0.40652674 -0.053710513 0.57135189 0.80381137 0.16566317 0.02727692
0.30427632 -0.40522102 -0.055518322 -0.98919672 0.029521944 0.14359063 0.030473115
-0.16566482 -0.3920669 -0.054392815 0.58360863 0.80485809 0.10772385 0.016321404
-0.15844305 -0.39724073 -0.054401349 0.57216132 0.81143737 0.11916739 0.020223539
0.30427632 -0.39583647 -0.05626836 -0.98315227 0.019624362 0.18173206 0.033786926
-0.18101759 -0.3810679 -0.053477257 0.5730918 0.81231374 0.10822336 0.014179771
-0.17420878 -0.38594589 -0.056315854 0.56737828 0.81656247 0.10633729 0.014554496
-0.16924018 -0.38950545 -0.053025633 0.57782799 0.80983311 0.10141548 0.014427863
0.30427629 -0.38596079 -0.055047549 -0.98418498 -0.028160611 0.17489146 0.035482813
-0.1920127 -0.37319082 -0.056002785 0.59407532 0.78865117 0.15844153 0.029717674
-0.18498787 -0.37822354 -0.054647401 0.57449174 0.81089479 0.1113949 0.015626695
0.30427632 -0.37475306 -0.053863805 -0.99115855 0.016341478 0.13167226 0.024086133
-0.20439644 -0.36431885 -0.054868054 0.56545031 0.81091905 0.15058659 0.019130757
-0.1986496 -0.36843601 -0.056432243 0.57513356 0.80298448 0.15632404 0.028915383
0.30427632 -0.36548159 -0.054676801 -0.99014062 0.014125758 0.13936332 0.025564142
-0.22169346 -0.35192701 -0.053601727 0.57766801 0.80969501 0.10341029 0.016148951
-0.21472532 -0.35691911 -0.054921471 0.57938135 0.80923659 0.097228758 0.013462223
0.30427632 -0.35629535 -0.054116294 -0.99604207 0.0013993576 0.088872209 0.010911816
-0.23486921 -0.34248769 -0.056572601 0.57884872 0.79684478 0.17312621 0.029748762
-0.22890444 -0.3467609 -0.055523586 0.57329184 0.81155747 0.11274293 0.021147095
0.30427632 -0.34494638 -0.055005345 -0.99372494 -0.014916485 0.11085235 0.014325796
-0.25179669 -0.33036053 -0.050597675 0.57952189 0.81431508 0.032330289 0.0034337856
-0.24354956 -0.3362689 -0.053717177 0.57694054 0.81039286 0.10199524 0.014856012
-0.2394768 -0.33918667 -0.054152597 0.57703781 0.80863166 0.11463951 0.018808369
0.30427629 -0.33496386 -0.055954497 -0.98889023 0.022661038 0.14691007 0.029028643
-0.26298916 -0.32234204 -0.054852024 0.62094158 0.77623737 0.1090282 0.034268249
-0.25695378 -0.32666588 -0.053094339 0.57615423 0.8112886 0.09928263 0.015170698
0.30427632 -0.32765442 -0.05503542 -0.99491853 -0.0084290914 0.10033006 0.014327991
-0.28008068 -0.31009734 -0.055479594 0.65201926 0.75002909 0.11102851 0.11869746
-0.27335915 -0.31491277 -0.056366406 0.72177202 0.6672594 0.18387508 0.13738999
-0.26777416 -0.31891394 -0.055615574 0.77180755 0.62838548 0.097184002 0.10712072
