# .PCD v0.7 - Point Cloud Data file format
VERSION 0.7
FIELDS x y z normal_x normal_y normal_z curvature
SIZE 4 4 4 4 4 4 4
TYPE F F F F F F F
COUNT 1 1 1 1 1 1 1
WIDTH 594
HEIGHT 1
VIEWPOINT 0 0 0 1 0 0 0
POINTS 594
DATA ascii
0.12628043 0.065201104 0.023373844 -0.52093697 0.51461095 -0.68102878 0.015742788
0.13184515 0.068627514 0.026438599 -0.50930625 0.50935805 -0.69365805 0.016355751
0.018821821 0.072600782 0.024180649 0.51449591 -0.51449627 -0.68599391 6.5780193e-07
0.026954599 0.07781934 0.02636631 0.53736532 -0.48460609 -0.6902141 0.002372697
0.12413628 0.073901929 0.026839085 -0.52815831 0.50793952 -0.680475 0.01571364
0.13791019 0.075980626 0.027404649 -0.5276407 0.51664644 -0.67429346 0.016873827
0.1429446 0.075401992 0.023194866 -0.53147405 0.53171086 -0.65940803 0.017470231
0.02601964 0.082339808 0.022274744 0.54954904 -0.47542584 -0.68699783 0.0025580698
0.035296183 0.085757367 0.026668979 0.56938207 -0.45657444 -0.68362546 0.006329048
0.13554187 0.086415432 0.027670018 -0.51562923 0.54372168 -0.66218823 0.016100513
0.14590953 0.085655212 0.024659524 -0.52131504 0.53759724 -0.66273671 0.016348524
0.15453015 0.086712293 0.022988439 -0.53774357 0.52569169 -0.65915102 0.019325998
0.035663795 0.091166094 0.022888143 0.57869834 -0.43873957 -0.68747061 0.0075930688
0.04532598 0.096385553 0.026596716 0.58477706 -0.45722613 -0.6700598 0.012382831
0.051136777 0.097312391 0.02988315 0.56555563 -0.45111713 -0.6903913 0.017239781
0.1389011 0.090924636 0.028532505 -0.51124978 0.53742439 -0.67067039 0.016320618
0.14548668 0.094412692 0.026209353 -0.5162943 0.53062719 -0.67221642 0.017838037
0.15774223 0.096246332 0.025862515 -0.53899133 0.51657492 -0.66531104 0.016758621
0.1650518 0.095629275 0.021784931 -0.54224187 0.50910527 -0.66842026 0.019019242
0.037276477 0.10417262 0.023512315 0.58195949 -0.45020637 -0.67722768 0.014844556
0.045207653 0.10403193 0.02573207 0.58028948 -0.44745401 -0.68047702 0.013632619
0.054324355 0.10539966 0.026208386 0.54693657 -0.48836857 -0.679968 0.017371327
0.15652539 0.10531759 0.026109004 -0.53455579 0.496802 -0.68369424 0.016679246
0.16600606 0.10296756 0.024238706 -0.52149087 0.51097906 -0.68333578 0.016464422
0.045168012 0.11280326 0.02312539 0.56981647 -0.4834955 -0.66448575 0.021786235
0.053610932 0.1144833 0.024462771 0.53921098 -0.50127548 -0.67673802 0.018262597
0.062023386 0.11592521 0.024088489 0.52245814 -0.51746738 -0.67769092 0.016810188
0.071012959 0.11941122 0.028216168 0.50159329 -0.52789491 -0.68536931 0.018004274
0.16531764 0.11437545 0.026308209 -0.56679738 0.47159994 -0.67552519 0.028351558
0.17441441 0.11568536 0.025136551 -0.58472627 0.43145153 -0.68698233 0.056399684
0.18939388 0.11869758 0.020829607 -0.52234286 0.55089259 -0.65090352 0.12417605
0.057221532 0.12562886 0.02254634 0.53532231 -0.55554175 -0.63624161 0.022745598
0.06436982 0.12709115 0.025254661 0.53784841 -0.54330492 -0.6446231 0.015564367
0.074294008 0.12687601 0.025078341 0.53710556 -0.53571606 -0.65155655 0.01795418
0.16649875 0.1203901 0.029933361 -0.63691533 0.33020145 -0.69663894 0.078434214
0.17235878 0.12334083 0.027751392 -0.68549788 0.36099258 -0.63227916 0.12877005
0.18570675 0.12635833 0.024574058 -0.41080886 0.60776234 -0.67960364 0.17308576
0.1946315 0.12754607 0.023537744 0.32536563 -0.68556046 0.65126342 0.13822111
0.07667134 0.13539869 0.02280359 0.54370922 -0.51612604 -0.66181129 0.01645598
0.085701823 0.13547079 0.027188124 0.51912498 -0.52680016 -0.67304593 0.017976681
0.17745741 0.13628881 0.024946969 -0.38705426 -0.92123693 0.038876876 0.27126768
0.18119454 0.13255166 0.027729524 -0.418809 0.55043179 -0.72223532 0.16975074
0.19792429 0.1357207 0.027199149 0.32694706 -0.64983064 0.68616742 0.067123726
0.20346211 0.13705821 0.024048923 -0.39583024 0.65015709 -0.64854777 0.041795235
0.077104807 0.14475802 0.023111928 0.55236542 -0.52839464 -0.64474142 0.018815003
0.086609915 0.1477847 0.02530304 0.54172885 -0.51416224 -0.66495645 0.019095993
0.093265057 0.14467962 0.025953937 0.52287948 -0.51264882 -0.68102002 0.018617809
0.16706198 0.14668421 0.023424778 -0.73451132 -0.67253906 -0.090468086 0.079882033
0.20633908 0.14289151 0.026266148 -0.42336163 0.57763273 -0.69792926 0.021287801
0.21587625 0.14890221 0.023621293 -0.53351045 0.54074806 -0.65035224 0.0031756242
0.087178648 0.15496203 0.023014277 0.52154344 -0.51248133 -0.68216956 0.017427931
0.094829068 0.15512034 0.023964884 0.54424113 -0.50554371 -0.66949773 0.01618731
0.10669073 0.15597734 0.027549911 0.51094562 -0.52367425 -0.6816889 0.01685857
0.15848114 0.15526506 0.027408533 -0.73236936 -0.67998236 -0.035481509 0.01249666
0.16360661 0.15013959 0.029535873 -0.82174557 -0.56799543 -0.045993533 0.11169843
0.21479492 0.15138324 0.026293073 -0.52170283 0.52190775 -0.67486179 0.00027939957
0.22396845 0.15849757 0.024748679 -0.51643932 0.51779687 -0.68203878 0.00012413441
0.09735702 0.16394636 0.023909835 0.51908404 -0.53737086 -0.66466862 0.018301232
0.10662659 0.16684462 0.028688293 0.50469184 -0.52161634 -0.68789715 0.017443325
0.112778 0.1646658 0.025598999 0.48078638 -0.55137545 -0.68178403 0.023130482
0.12153441 0.16960292 0.028463483 0.36034319 -0.67548794 -0.64332646 0.082963742
0.1458818 0.1678644 0.024624124 -0.67830026 -0.73363441 -0.041101169 0.083352685
0.23489106 0.1674176 0.023246735 -0.52359968 0.5204621 -0.67450911 0.00064464647
0.10741528 0.1748914 0.023244753 0.48675871 -0.59501833 -0.63954598 0.036550198
0.11610454 0.17633367 0.02601227 0.37038639 -0.64497471 -0.66844714 0.080646701
0.12311272 0.1751256 0.0255052 0.38005984 -0.67856282 -0.62857544 0.094487809
0.13775454 0.17599165 0.027029915 -0.59698421 -0.78075218 -0.18448824 0.21724387
0.14183354 0.17191267 0.028201388 -0.52668095 -0.84189874 -0.11753134 0.1903121
0.23346944 0.17292678 0.028444856 -0.5144847 0.51450127 -0.68599838 1.3845361e-06
0.24583784 0.17587134 0.021376969 -0.52848828 0.51801479 -0.67257774 0.00056662853
0.117812 0.18377332 0.02438084 0.34868744 -0.6499812 -0.67523438 0.1191183
0.12242182 0.1869458 0.025458848 0.49324459 -0.59168631 -0.63766539 0.13116693
0.13040143 0.18235599 0.025187846 0.17937021 -0.77295166 -0.6085819 0.22068456
0.24669951 0.18191199 0.025261188 -0.5260241 0.52096611 -0.67222983 0.00060051057
0.12493211 0.19242483 0.023232292 0.60801429 -0.45089737 -0.65346009 0.14209157
0.13395897 0.19523609 0.027893972 0.67447358 -0.37670007 -0.63496643 0.10654564
0.25684652 0.19264002 0.025696961 -0.52085471 0.52192283 -0.67550498 0.00035193446
0.26116735 0.19076434 0.021049593 -0.53618366 0.54064071 -0.64823973 0.0030139233
0.13480289 0.20429789 0.021730585 0.66262233 -0.42967388 -0.61344284 0.044269826
0.14396352 0.20505518 0.028033081 0.58736569 -0.43954611 -0.67955929 0.01822711
0.26326793 0.20280455 0.028504323 -0.51452845 0.51450133 -0.68596566 0
0.27185714 0.20107417 0.02076461 -0.55418712 0.54007608 -0.63339919 0.0047274036
0.142892 0.2133957 0.020974061 0.57067645 -0.60251302 -0.55794847 0.031041594
0.15115222 0.21206528 0.028167035 0.51833338 -0.5198682 -0.67901957 0.00030890317
0.27490175 0.21244548 0.027009627 -0.51450133 0.51446784 -0.68601114 6.9623084e-06
0.28260559 0.21816455 0.025521066 -0.52147835 0.52004445 -0.67647177 0.00033902872
0.15375318 0.22274975 0.022104397 0.55712169 -0.54858369 -0.6234352 0.014115499
0.16086438 0.22627351 0.024794985 0.5263623 -0.51753956 -0.67460775 0.00039844718
0.28612339 0.2257223 0.028550988 -0.51449889 0.51445651 -0.68602145 1.6091321e-05
0.29453266 0.22613658 0.022554763 -0.54133242 0.5440833 -0.64104033 0.0040426943
0.16823426 0.23676974 0.022450212 0.53563708 -0.52195519 -0.66381902 0.0031654139
0.171902 0.23629531 0.025556844 0.51790559 -0.51714218 -0.68142331 0.00015794236
0.29540196 0.23113933 0.025654864 -0.51654822 0.52058756 -0.67982829 0.00026385378
0.30475557 0.23558965 0.021977391 -0.53421146 0.53809536 -0.65197504 0.0022527555
0.1727238 0.24376664 0.020569688 0.55209261 -0.60032517 -0.57862198 0.024123974
0.18349957 0.24382414 0.028608406 0.51450026 -0.51453197 -0.68596381 0
0.30525449 0.2435641 0.027584042 -0.52165043 0.52108419 -0.67553842 0.0005886202
0.31507212 0.24719463 0.022943713 -0.53148758 0.52984113 -0.66090041 0.00098294683
0.3211785 0.24991782 0.020406365 -0.55619663 0.55216092 -0.62109882 0.0046859551
0.18553595 0.25422984 0.022331396 0.53624946 -0.55433106 -0.63651675 0.0069686449
0.19397359 0.25563002 0.02760949 0.51448727 -0.5145064 -0.68599272 0
0.3159945 0.25534073 0.028361507 -0.51452065 0.51452774 -0.68595165 0
0.32310754 0.25571975 0.023311 -0.53455257 0.53013891 -0.65818417 0.0010812288
0.19617063 0.26236284 0.024207637 0.5235889 -0.51858622 -0.67596078 0.00027207812
0.20506927 0.26605231 0.028114546 0.51450944 -0.51446325 -0.68600845 1.1862463e-05
0.32593942 0.26585782 0.028790621 -0.51450682 0.5145092 -0.68597585 0
0.33461034 0.26729372 0.023364367 -0.52728939 0.53014183 -0.6640147 0.00081819709
0.34018174 0.26976791 0.021041462 -0.55022418 0.56466568 -0.61514723 0.0071691563
0.20578326 0.2743566 0.022421826 0.54873788 -0.53309894 -0.64396602 0.0089512896
0.21440683 0.27600288 0.027654782 0.51508856 -0.51565427 -0.68467838 3.080969e-05
0.33627841 0.2741079 0.027223965 -0.52258474 0.51924962 -0.67622858 0.00036332471
0.3458108 0.27885756 0.023636876 -0.52463931 0.52199513 -0.67251366 0.00058225583
0.21596588 0.28310969 0.023493975 0.51729423 -0.52386266 -0.67673826 0.0005256132
0.22252662 0.28440192 0.027445359 0.51548779 -0.51512843 -0.68477374 2.2373206e-05
0.34483537 0.28302926 0.027497241 -0.51828104 0.52002919 -0.67893624 0.00032724548
0.35477516 0.28723443 0.023196278 -0.51798046 0.52479154 -0.67549253 0.0004342469
0.22654013 0.29367387 0.023501523 0.51895016 -0.51989925 -0.67852449 0.0005341387
0.23052031 0.2926842 0.027228903 0.52050173 -0.51980966 -0.67740369 0.0005597549
0.2400635 0.29878148 0.029813353 0.51449573 -0.51448047 -0.68600595 8.8687711e-06
0.35675606 0.2947638 0.027357634 -0.51454633 0.51450449 -0.68594974 0
0.36165699 0.29732516 0.025603004 -0.51519984 0.51550657 -0.68470579 2.3576624e-05
0.23502906 0.30395186 0.022159711 0.52428174 -0.53124028 -0.66551661 0.001212923
0.2455776 0.3086516 0.026546327 0.51510024 -0.51467389 -0.68540692 9.2763903e-06
0.36604595 0.30271164 0.026351122 -0.51854151 0.51733816 -0.68079066 0.00017835273
0.37463525 0.30608392 0.02243836 -0.52701855 0.54196215 -0.65462083 0.0036188557
0.2492359 0.31326669 0.025828721 0.52163005 -0.52023631 -0.67620718 0.00069049001
0.25306585 0.31581652 0.02678881 0.51578027 -0.5165264 -0.68349928 8.07709e-05
0.37336293 0.31191912 0.027768973 -0.51645154 0.51848894 -0.68150353 0.00019568283
0.38700071 0.31732175 0.021592649 -0.55520231 0.52841932 -0.64227992 0.0040768869
0.25822929 0.32684439 0.022390485 0.543625 -0.53631932 -0.64562631 0.009228088
0.26588711 0.32698354 0.028029487 0.51450235 -0.5144344 -0.68603534 2.7622853e-05
0.38814855 0.32478577 0.026329774 -0.51863116 0.51820266 -0.68006456 0.00010222918
0.39350194 0.32455269 0.022139927 -0.55758566 0.53641212 -0.63353008 0.0043252027
0.26726931 0.33268619 0.024789166 0.52338374 -0.51985323 -0.67514598 0.00039227406
0.27526784 0.33585894 0.028408496 0.51449758 -0.5145101 -0.68598217 0
0.39772204 0.33441851 0.026374197 -0.51605576 0.51509058 -0.68437421 2.7026825e-05
0.40607557 0.33563739 0.021023218 -0.55349535 0.55391341 -0.62195081 0.0048052971
0.27532336 0.34416103 0.022223569 0.52715784 -0.54738384 -0.6499812 0.0039256876
0.2800543 0.34447736 0.025534533 0.52056748 -0.53039569 -0.66909641 0.0012323232
0.40498716 0.34395385 0.028076855 -0.51443452 0.51454383 -0.68600416 7.0935066e-06
0.4122602 0.34367675 0.022414286 -0.5339188 0.53298444 -0.65639788 0.0029173626
0.27911213 0.35040542 0.020381864 0.55218065 -0.57901812 -0.59986216 0.018536611
0.28728569 0.35666195 0.021819577 0.5324356 -0.55055088 -0.64296663 0.0061760307
0.29487798 0.35711214 0.027176207 0.51921117 -0.51777023 -0.67995131 0.00019734456
0.30106911 0.35975084 0.029840542 0.51449746 -0.5144363 -0.6860376 3.2607524e-05
0.41546714 0.35021496 0.024912722 -0.52559441 0.51884687 -0.67420208 0.00061868218
0.42357287 0.35759091 0.024365401 -0.52244806 0.52357495 -0.67299134 0.0005775172
0.30484033 0.36650169 0.027605815 0.52085215 -0.51926309 -0.67755359 0.00058428297
0.42320454 0.36343461 0.029024417 -0.51445848 0.51452583 -0.68599981 6.3295602e-06
0.43327987 0.36608943 0.023459017 -0.5248304 0.52310169 -0.67150396 0.00071820786
0.30740666 0.3748706 0.023253869 0.52574772 -0.52368259 -0.67033273 0.00076616724
0.31320179 0.37448761 0.027887437 0.51452875 -0.51445174 -0.68600255 7.0636806e-06
0.43743062 0.37549797 0.027402356 -0.52222478 0.52556032 -0.67161566 0.00061372551
0.4425391 0.37814 0.025552547 -0.51773041 0.52753818 -0.67354184 0.00066418847
0.31796873 0.38464537 0.023844322 0.52046502 -0.52375847 -0.67438364 0.00059977197
0.32287562 0.38794172 0.025052242 0.52205753 -0.5218938 -0.67459834 0.00060592889
0.44540706 0.38426122 0.027992457 -0.51448834 0.5145402 -0.68596655 0
0.45511559 0.38618946 0.02215722 -0.5319072 0.53865385 -0.65339643 0.002344647
0.46033883 0.38874426 0.020155946 -0.55627453 0.54715151 -0.6254468 0.0056153941
0.32332399 0.3912943 0.022874087 0.52944314 -0.53701621 -0.65673697 0.0032103581
0.33291018 0.39830631 0.024804737 0.52208042 -0.52311945 -0.67363054 0.00063328486
0.44961932 0.39065829 0.029631052 -0.51440322 0.51461279 -0.68597591 1.4610847e-05
0.45730722 0.39680251 0.028473303 -0.51436806 0.51463455 -0.68598604 1.2176258e-05
0.46327153 0.39595017 0.023360845 -0.52798909 0.52669662 -0.66619682 0.00078767398
0.47049138 0.39922109 0.020399138 -0.58136725 0.50200796 -0.64031249 0.0086005181
0.33662748 0.40283537 0.024195893 0.52393466 -0.52184898 -0.67317611 0.00054271164
0.34327868 0.4057312 0.027012387 0.51453716 -0.51445925 -0.68599075 0
0.46577206 0.40423024 0.027695497 -0.55412114 0.48006523 -0.68006402 0.003573498
0.47461486 0.40464687 0.021375876 -0.64328635 0.41647905 -0.64243901 0.015119643
0.34618634 0.41450164 0.022615349 0.54237169 -0.55182099 -0.63350344 0.009297723
0.35473803 0.41542223 0.028338676 0.51966089 -0.52028418 -0.67768508 0.00049299002
0.36073026 0.41975015 0.029586904 0.51454049 -0.51459759 -0.68588442 0
0.47803241 0.41655713 0.027745388 -0.73520488 0.25633615 -0.62750733 0.042526525
0.48309994 0.41437253 0.021142015 -0.80274785 0.1521626 -0.57657832 0.058739007
0.35775328 0.42660943 0.02220971 0.57662141 -0.55287498 -0.601529 0.016434062
0.36446795 0.42517996 0.028317848 0.51446337 -0.51451164 -0.68600672 3.1931163e-06
0.47862694 0.4271422 0.026606765 -0.86972892 -0.078216933 -0.48729235 0.073664539
0.48207605 0.4264451 0.022778094 -0.87388307 -0.14912423 -0.46269891 0.075273767
0.3671726 0.4329634 0.024508752 0.52049011 -0.52036971 -0.6769827 0.00077280437
0.37474 0.43979377 0.025061516 0.52364653 -0.51785743 -0.67647469 0.00068189146
0.47607258 0.43790761 0.024318155 -0.82708883 -0.52085143 -0.21127653 0.033597384
0.48040369 0.43218896 0.026733505 -0.8629427 -0.41871607 -0.28285483 0.045461617
0.37393346 0.44262093 0.022336185 0.53738213 -0.56378865 -0.62718648 0.0087393373
0.38413006 0.44792223 0.026007701 0.51817435 -0.52917266 -0.67191648 0.00070534402
0.46740413 0.44657606 0.027283657 -0.8025555 -0.58194292 -0.13132806 0.025347982
0.47322005 0.44076011 0.028853616 -0.84075946 -0.5037058 -0.19850434 0.034277659
0.38658822 0.45545223 0.022203796 0.54356855 -0.56044745 -0.6248455 0.010118308
0.39562991 0.45463648 0.029596921 0.51668882 -0.51903212 -0.68090993 9.5437194e-05
0.45664752 0.45733261 0.026028996 -0.70175898 -0.71223408 -0.016028851 0.0011562648
0.46113336 0.45284677 0.026809003 -0.73441285 -0.67627847 -0.057316922 0.006089123
0.39789069 0.46452042 0.023879522 0.5264864 -0.53425819 -0.66134733 0.0024019664
0.40434402 0.46694255 0.02690294 0.48235661 -0.54645407 -0.68463129 0.0026196409
0.4102121 0.46916398 0.029637907 0.42677924 -0.58388919 -0.69060338 0.010821194
0.44780332 0.4661769 0.026675504 -0.62624675 -0.77293652 -0.10190243 0.013801189
0.45236349 0.46161664 0.027634967 -0.65693414 -0.75026363 -0.074444942 0.0071308692
0.4064413 0.4728255 0.024063673 0.43084151 -0.60943407 -0.66555667 0.014783619
0.42985177 0.47625339 0.029713625 -0.089939661 -0.86005348 -0.50221401 0.067043521
0.43636626 0.47649279 0.025310379 -0.47991481 -0.84174269 -0.24728727 0.044598591
0.44336891 0.47061124 0.027671125 -0.56206661 -0.81184208 -0.15809371 0.030676676
0.4156636 0.48449481 0.021921089 0.080516189 -0.82913655 -0.55321747 0.058114778
0.42408428 0.48178735 0.026951801 -0.090661936 -0.86008376 -0.50203222 0.067466855
0.43273771 0.48054424 0.026264274 -0.37809846 -0.8806057 -0.28561366 0.053998817
-0.37200168 -0.45802152 0.034171443 -0.73774832 0.67487156 -0.016607083 0.018770589
-0.28625217 -0.45568842 0.034193091 0.70159739 0.71253425 0.0075006224 0.042603102
-0.36113042 -0.4471502 0.03714807 -0.70307678 0.7100721 -0.038478587 0.11923338
-0.35676676 -0.44278657 0.035995558 0.81143469 -0.57726961 0.091287814 0.17041172
-0.31630856 -0.4402203 0.039360177 0.066744938 0.79944408 0.5970211 0.10323212
-0.30182156 -0.44016403 0.039275732 0.74400413 0.66766357 0.026136957 0.17474563
-0.29729009 -0.44465047 0.034478769 0.65323651 0.75652367 -0.030885821 0.10113765
-0.35260195 -0.43727961 0.03755635 -0.6786207 0.7335031 0.038041938 0.25364682
-0.34718734 -0.43325981 0.030878058 -0.72167271 0.67125583 -0.16912751 0.20049359
-0.33571589 -0.43645707 0.033715319 0.010062687 0.8547858 0.51888341 0.089496396
-0.32427576 -0.43905786 0.037616517 -0.01122622 0.81310356 0.58201075 0.037048753
-0.31602669 -0.43842286 0.036664009 0.063088082 0.8041628 0.59105158 0.11041845
-0.3063097 -0.43475556 0.034124609 0.70585585 0.69723898 -0.12500077 0.19721432
-0.35176373 -0.4246282 0.035704963 0.84433705 0.02544833 0.53520775 0.083399512
-0.34855127 -0.42001918 0.030886289 0.84030831 0.046807259 0.54008436 0.068596199
-0.30450982 -0.42379943 0.035175867 0.82080299 -0.01533764 -0.57100552 0.081895813
-0.35240072 -0.41413456 0.036660463 0.83244038 0.031186732 0.55323631 0.03207425
-0.30346853 -0.41471484 0.036737785 0.84458745 -0.095019676 -0.52691877 0.02986034
-0.35245892 -0.40393659 0.036747795 0.86709219 0.19259557 0.45941061 0.022415416
-0.3038435 -0.4072566 0.03617537 0.86618489 -0.13089596 -0.4822759 0.015042695
-0.35403439 -0.39531595 0.039111041 0.88565511 0.26553947 0.38092509 0.027753796
-0.34910369 -0.39323455 0.03171492 0.85512018 0.44515005 0.26572698 0.028925085
-0.30549771 -0.39676929 0.03369401 0.87701088 -0.32131699 -0.35722166 0.024881274
-0.36190087 -0.38003972 0.035636976 0.79735798 0.58495724 0.14847636 0.020420928
-0.35734645 -0.38459411 0.032264799 0.79470283 0.58579761 0.15902348 0.021158814
-0.30188552 -0.38790536 0.035995979 0.86027211 -0.43667576 -0.2631467 0.029884219
-0.29762602 -0.38364577 0.035717491 0.84750372 -0.49810946 -0.1833699 0.026787052
-0.4577654 -0.37174559 0.035980515 0.64598125 -0.76332712 -0.0063144565 0.030707
-0.36957312 -0.3723675 0.036898486 0.72349644 0.68036538 0.11685862 0.011395324
-0.29170468 -0.3777245 0.034683216 0.78961092 -0.60242128 -0.1166325 0.019594295
-0.28726494 -0.37328479 0.036770005 -0.7575531 0.643116 0.11187091 0.015317825
-0.19733965 -0.37256134 0.038169824 0.69065511 0.72268403 0.026893444 0.0195655
-0.45216659 -0.3661468 0.037887536 0.71557921 -0.69692427 0.047361195 0.07763622
-0.44634253 -0.36032277 0.038591675 -0.60116708 0.79826951 -0.036931403 0.15227538
-0.38193509 -0.36000544 0.034496538 0.56298387 0.81035113 0.16241953 0.018601183
-0.37687564 -0.36506495 0.033309806 0.62288851 0.77472144 0.10870379 0.016278259
-0.28234094 -0.36836076 0.035324525 -0.68442261 0.72565043 0.070689656 0.0070775151
-0.20029122 -0.36960974 0.034468066 0.6958245 0.71688086 0.043705318 0.041859169
-0.44243512 -0.3564153 0.036258746 0.73537976 -0.67395031 0.07076373 0.14876436
-0.43691376 -0.35316429 0.034615159 0.73529011 -0.67083335 0.096597791 0.18804669
-0.42337424 -0.35052007 0.033839513 0.001907135 0.83097714 0.5563032 0.12806074
-0.41793323 -0.35136986 0.035114195 0.062227529 0.79230344 0.60694563 0.059441134
-0.40402463 -0.35097033 0.034514874 0.17344135 0.8679775 0.46533129 0.019263964
-0.39498925 -0.35172409 0.035645545 0.34495685 0.87877977 0.32977402 0.029856881
-0.38498616 -0.35695446 0.03721948 0.49127063 0.84643275 0.20543815 0.029588595
-0.27202451 -0.3580443 0.032951664 -0.56144708 0.80983764 0.17011812 0.022909215
-0.26277927 -0.35260653 0.036969218 -0.30238858 0.87047106 0.38838291 0.027751539
-0.25472546 -0.35069227 0.034097828 -0.25069934 0.88012642 0.4031468 0.02584691
-0.24534254 -0.35175154 0.035686702 -0.10866646 0.85543758 0.50637752 0.014407839
-0.23642857 -0.35152212 0.035342637 -0.02492133 0.82316852 0.56725001 0.052308444
-0.22559933 -0.35155538 0.035392519 -0.16114224 0.68855369 0.70705515 0.15232311
-0.21608424 -0.35378605 0.037841029 0.63881588 0.60127676 -0.47997972 0.20844327
-0.43718708 -0.34573612 0.035687897 0.86053759 0.041900519 0.50766081 0.19859798
-0.42505333 -0.34959805 0.032456473 -0.0058489786 0.8353014 0.54976124 0.15415281
-0.41387245 -0.34879902 0.031257953 0.21309502 0.81979978 0.53152496 0.055959485
-0.40567303 -0.34978563 0.032737855 0.18743736 0.85300207 0.48708797 0.020690264
-0.24186233 -0.34962642 0.032499071 -0.12323371 0.8336857 0.53831369 0.039797332
-0.23123491 -0.34799057 0.030045241 -0.25121617 0.81206542 0.52672583 0.12483096
-0.22341669 -0.34653163 0.031302962 0.59174556 -0.43765527 -0.67697495 0.18085772
-0.4400968 -0.338036 0.039174967 0.77500832 0.10109153 0.62381297 0.096392728
-0.43612957 -0.33009583 0.033224087 0.76157385 0.0406157 0.64680421 0.066378973
-0.21835735 -0.33478034 0.035374854 0.78258115 -0.068527013 -0.61876547 0.059362363
-0.43635678 -0.32672918 0.033564892 0.80619043 -0.012277854 0.59152859 0.055747658
-0.22063334 -0.32616174 0.031960871 0.78587067 -0.076394364 -0.61365396 0.042894337
-0.21699373 -0.32371911 0.037420306 0.83040404 -0.062097389 -0.55369037 0.037955552
-0.43559778 -0.31550157 0.032426398 0.83420062 -0.034069475 0.55040765 0.14037538
-0.22160146 -0.31836697 0.030508712 0.85128868 -0.088194549 -0.51723224 0.095969915
-0.21873717 -0.31449193 0.034805093 0.83762461 0.031896114 -0.54531431 0.13499171
-0.44056472 -0.30743721 0.039876811 0.86559254 0.15144248 0.47729951 0.17545083
-0.43615937 -0.30614907 0.035762981 0.81332809 0.56257397 0.14835027 0.19096413
-0.42566121 -0.30498931 0.034456655 -0.048448373 0.80299592 -0.59401202 0.15921175
-0.41817039 -0.30282211 0.037707441 -0.051220886 0.79278958 -0.60733944 0.033756517
-0.40332833 -0.30449384 0.035199843 -0.21807264 0.87547123 -0.43127066 0.016572554
-0.39549467 -0.30361202 0.036522523 -0.33759549 0.86012888 -0.38237092 0.022749271
-0.26554489 -0.30194363 0.037529252 -0.30674252 0.71402258 -0.62934947 0.067806646
-0.25839895 -0.30377114 0.033210311 -0.31895766 0.7205317 -0.61571115 0.087089233
-0.24371536 -0.3051866 0.034160729 0.042413495 0.79138899 -0.60983986 0.10973401
-0.23237866 -0.30468714 0.034909893 0.21740219 0.70977378 -0.67004287 0.21721466
-0.22321329 -0.30608472 0.032813504 0.89628893 0.30962345 -0.31748942 0.24301285
-0.21850945 -0.30506131 0.035396963 0.92258883 -0.037185308 -0.38398841 0.20139508
-0.44516167 -0.29677892 0.034435965 0.61760128 0.78521222 -0.044837072 0.12123927
-0.38482055 -0.29880074 0.032357842 -0.5604881 0.81005156 -0.17224869 0.018753683
-0.37846544 -0.2924456 0.033619277 0.62685627 -0.77050698 0.11562971 0.013157976
-0.26193315 -0.29765791 0.037721343 -0.38649604 0.63153446 -0.6721496 0.081485189
-0.25660679 -0.29706153 0.034173805 -0.47614089 0.57843328 -0.66234797 0.086103596
-0.24658601 -0.29168636 0.030689606 -0.50855911 0.48694658 -0.71010619 0.12084395
-0.21214049 -0.29816025 0.033136811 0.89310002 -0.36607453 -0.26146087 0.17440467
-0.45717597 -0.28476459 0.035726495 0.74834001 0.66297334 0.021299139 0.035057571
-0.3727788 -0.28675899 0.031526495 0.67774904 -0.73129207 0.076602824 0.0060996003
-0.36822954 -0.28220972 0.034958385 0.72138429 -0.68531442 0.099743403 0.007793928
-0.25363001 -0.28963783 0.037509013 -0.48480067 0.60174954 -0.63471711 0.11567782
-0.242468 -0.28437665 0.033083383 -0.57827401 0.47667524 -0.66210264 0.12784314
-0.23949459 -0.28133672 0.033133276 0.61315352 -0.39035842 0.68677729 0.12827276
-0.36372644 -0.27770662 0.034837402 0.78819436 -0.60332769 0.12143061 0.017518723
-0.35617006 -0.27015024 0.035031911 0.84514213 -0.46584061 0.26215917 0.024693426
-0.23770756 -0.27266139 0.038299516 0.73411006 -0.29040822 0.61379588 0.18113814
-0.2290452 -0.27148318 0.032686368 0.6075477 -0.40111303 0.68556118 0.081551239
-0.35314864 -0.26315883 0.037782349 0.85720587 -0.37225905 0.35583898 0.024249079
-0.30233273 -0.26417097 0.036520839 0.78903025 -0.13746093 -0.59877849 0.064281486
-0.29930204 -0.26511836 0.038877107 0.56843954 -0.48450884 -0.66492677 0.056080997
-0.23444635 -0.26862326 0.038882185 0.61503214 -0.35422495 0.70445734 0.089236163
-0.22368537 -0.26419219 0.034134727 -0.51448083 0.51450956 -0.68599522 3.8219494e-07
-0.35143954 -0.25390735 0.035218753 0.86698633 -0.23259591 0.44071969 0.022772737
-0.34842807 -0.25327599 0.030701503 0.86116254 -0.27201954 0.42942348 0.026637051
-0.30342606 -0.25576499 0.035148796 0.72393036 -0.21627989 -0.65509379 0.10913295
-0.29347652 -0.25668269 0.036919504 0.49732456 -0.50459969 -0.70572478 0.09554974
-0.28644344 -0.2518228 0.038549375 0.4676027 -0.53754717 -0.70170557 0.11948128
-0.22072059 -0.25993684 0.03510268 -0.51451093 0.51446968 -0.68600255 5.8445057e-06
-0.21529232 -0.25511202 0.034650106 -0.51448232 0.51449418 -0.68600553 9.6481972e-06
-0.35217971 -0.24563806 0.036328971 0.8408013 -0.15017025 0.52009815 0.011661907
-0.30309936 -0.24622639 0.037291545 0.68856615 -0.077716172 -0.72099704 0.13321005
-0.29125267 -0.2464347 0.030901402 0.4476023 -0.49251905 -0.74637598 0.118405
-0.28636807 -0.24665451 0.034729674 0.45253488 -0.48180053 -0.75038683 0.14455973
-0.2784991 -0.24254328 0.037547994 -0.32321882 0.61611509 0.71828389 0.13635369
-0.21158096 -0.24706078 0.037904993 -0.51451534 0.51448393 -0.68598861 0
-0.20492558 -0.24584424 0.033825852 -0.51452059 0.51449531 -0.68597615 0
-0.19586258 -0.24123298 0.030487057 -0.51451039 0.51451033 -0.68597239 0
-0.3543756 -0.23261903 0.03962284 0.7993229 -0.096358314 0.59312558 0.078086101
-0.34803689 -0.23724669 0.030114725 0.84525955 -0.085672185 0.52744347 0.064589806
-0.30386546 -0.234476 0.03614239 0.68576229 0.29009929 -0.66751218 0.19138165
-0.28205812 -0.23754548 0.031130381 -0.30636176 0.57938856 0.75528222 0.15639128
-0.27633068 -0.23563851 0.033995729 -0.32213423 0.67996186 0.65869683 0.12988998
-0.26928198 -0.23110735 0.035883889 -0.42152387 0.60818124 0.67263162 0.077192359
-0.20092095 -0.23633607 0.037953541 -0.51448584 0.51449913 -0.68599916 5.2585176e-07
-0.19515733 -0.23449044 0.035015039 -0.5145027 0.51453626 -0.68595874 0
-0.35119417 -0.22514109 0.034850653 0.63496119 -0.17151521 0.75326413 0.17060064
-0.34153876 -0.22131975 0.030931238 0.039200559 0.857306 -0.51331246 0.18333772
-0.32244632 -0.22108915 0.031277165 -0.028835038 0.81768227 -0.57494718 0.079757355
-0.30671251 -0.22627527 0.031871814 0.5118205 0.55515963 -0.65562004 0.24743266
-0.27246976 -0.22711167 0.03049629 0.36798757 -0.43763909 -0.82040066 0.097304285
-0.26461619 -0.22783217 0.036926821 0.51449853 -0.51449883 -0.68599004 0
-0.25876346 -0.22191229 0.036876488 0.51446587 -0.51451826 -0.68599987 4.4097815e-06
-0.19111431 -0.2287908 0.036257494 -0.51448977 0.51451349 -0.68598545 0
-0.18636444 -0.22283757 0.037160035 -0.51453292 0.51448452 -0.6859749 0
-0.35581917 -0.21408179 0.032141067 0.7539922 0.65687954 -0.002244141 0.15457717
-0.34487566 -0.2181983 0.035613436 -0.11925264 0.73885322 -0.66323048 0.15991393
-0.33588555 -0.21683587 0.037657086 -0.13668133 0.77388674 -0.61839926 0.060903389
-0.32261351 -0.21900143 0.03440873 0.0029914833 0.80504501 -0.59320629 0.052783914
-0.31982884 -0.21945633 0.033726379 -0.0015783984 0.85168195 -0.52405661 0.07359007
-0.30575353 -0.21791995 0.034840975 -0.31652567 0.79649276 -0.51518029 0.24836759
-0.29907978 -0.21305999 0.031693 -0.38940117 0.82214981 -0.41525447 0.20075327
-0.26211375 -0.21852648 0.031824399 0.51448458 -0.51450521 -0.68599564 3.1043598e-06
-0.25495744 -0.21462855 0.034268193 0.51450944 -0.51450408 -0.68597782 0
-0.24631375 -0.21268475 0.03929311 0.51447421 -0.51452339 -0.68598968 2.5140143e-06
-0.18376365 -0.21977723 0.037504677 -0.51453114 0.51447886 -0.6859805 0
-0.17506605 -0.2158802 0.033904247 -0.51451129 0.51447058 -0.68600154 3.9528973e-06
-0.36461979 -0.20528118 0.033893835 0.68797487 0.72573119 -0.0021848797 0.1033969
-0.35992885 -0.20997211 0.039859917 0.61256248 0.79033655 -0.011637476 0.18198344
-0.29263553 -0.20661573 0.036532182 0.019804124 0.96861118 -0.24779065 0.16517273
-0.28679785 -0.20077802 0.03519528 -0.31526983 0.92358238 -0.21817535 0.13017938
-0.24179199 -0.20101303 0.033930656 0.51453292 -0.51449198 -0.68596929 0
-0.17079654 -0.20581433 0.038251534 -0.51450837 0.51448393 -0.68599361 0
-0.16471098 -0.20379041 0.035205293 -0.51449591 0.5144977 -0.68599272 4.7649397e-07
-0.37179893 -0.19810209 0.035244357 0.71092528 0.703215 0.0086004119 0.018778965
-0.28358808 -0.19756827 0.038640469 -0.17253613 0.9691326 -0.17610601 0.097529955
-0.24227628 -0.19773409 0.031108204 0.51451033 -0.51448756 -0.6859895 0
-0.23587695 -0.19521627 0.034019358 0.5145539 -0.5144428 -0.68599045 0
-0.22929727 -0.19573566 0.039343666 0.51448029 -0.51452571 -0.68598348 0
-0.16079323 -0.19892958 0.035912603 -0.51450008 0.51448423 -0.68599975 5.0083459e-06
-0.15409827 -0.19222485 0.035919946 -0.51451808 0.51447344 -0.68599433 5.6545809e-06
-0.23263642 -0.18684728 0.030173007 0.51451647 -0.51449984 -0.68597573 0
-0.22291344 -0.18470451 0.035858177 0.51450896 -0.51449859 -0.68598229 0
-0.14394715 -0.18608592 0.032910787 -0.5145129 0.51448184 -0.68599188 1.8972349e-06
-0.13807346 -0.18185043 0.031682134 -0.5144937 0.51449871 -0.68599355 3.5226137e-07
-0.21735312 -0.17599393 0.033495471 0.51452374 -0.51449746 -0.68597203 0
-0.20755924 -0.17066945 0.036847517 0.514494 -0.51449281 -0.68599784 0
-0.14194532 -0.17829213 0.037254758 -0.51451224 0.51448846 -0.68598747 2.1337851e-06
-0.13340202 -0.17371762 0.034278169 -0.51450109 0.51449168 -0.68599331 2.0772163e-06
-0.12677318 -0.17194958 0.030632565 -0.51449132 0.51449776 -0.68599623 1.8133567e-06
-0.21084446 -0.16724613 0.03181611 0.51451516 -0.51451361 -0.68596643 0
-0.20579176 -0.16459917 0.033620421 0.51451623 -0.51450181 -0.68597436 0
-0.19790353 -0.16436648 0.039362073 0.51450104 -0.51450926 -0.68598026 0
-0.1323939 -0.16823314 0.037635446 -0.51450229 0.51448917 -0.68599451 4.2157417e-06
-0.12397714 -0.16529237 0.033528436 -0.51449764 0.51450008 -0.68598962 0
-0.11917239 -0.16172954 0.032597002 -0.51448911 0.51449996 -0.68599617 0
-0.20412874 -0.15909886 0.030742459 0.51448971 -0.51449913 -0.68599635 2.0334678e-06
-0.19540411 -0.15562476 0.034680363 0.51449484 -0.51451904 -0.68597752 0
-0.18935694 -0.15593576 0.039448965 0.51449728 -0.51449102 -0.68599665 2.6742089e-07
-0.12555188 -0.15841463 0.039867785 -0.51449531 0.5144968 -0.68599391 2.3197645e-06
-0.11618448 -0.15517062 0.035275251 -0.51449955 0.5144816 -0.68600202 1.0079146e-05
-0.10771053 -0.15024456 0.032614335 -0.51449454 0.51449651 -0.68599474 2.1258229e-06
-0.18434586 -0.14829333 0.037475474 0.51451379 -0.51449466 -0.68598163 0
-0.10664797 -0.14543292 0.035426144 -0.51450473 0.51448399 -0.68599647 4.3252203e-06
-0.18147439 -0.13605541 0.030450625 0.51449651 -0.51449001 -0.68599814 2.7554083e-06
-0.17480753 -0.13744447 0.036492568 0.51448143 -0.5145064 -0.68599701 1.0443665e-06
-0.16863538 -0.13308348 0.037850939 0.51450187 -0.51449639 -0.6859892 0
-0.096243203 -0.13470002 0.035672262 -0.51449388 0.51450104 -0.68599182 0
-0.088502087 -0.13239065 0.031598438 -0.51449788 0.51450962 -0.68598241 0
-0.16487236 -0.12349115 0.033478953 0.51450497 -0.51449281 -0.68598962 0
-0.15775833 -0.123523 0.038838364 0.51451057 -0.51450282 -0.68597794 0
-0.085510068 -0.12527452 0.03469152 -0.51450318 0.5144875 -0.68599504 3.816237e-06
-0.077300474 -0.12278962 0.030397991 -0.51449788 0.51449496 -0.68599337 1.1104717e-06
-0.16027313 -0.11816579 0.032934353 0.5145058 -0.51449037 -0.68599081 0
-0.15452632 -0.11182658 0.032490056 0.51450223 -0.51449031 -0.68599367 0
-0.14949566 -0.11182983 0.0362655 0.51448429 -0.51449537 -0.68600321 6.9117823e-06
-0.084121555 -0.11940888 0.03804937 -0.51449561 0.5145008 -0.68599069 0
-0.074909143 -0.11561409 0.033986151 -0.51449668 0.51449293 -0.68599588 2.8248237e-06
-0.1429812 -0.10744276 0.037861038 0.51448971 -0.51449645 -0.68599838 1.703829e-06
-0.073282026 -0.10763624 0.038749196 -0.51449597 0.51449567 -0.68599421 5.4655732e-07
-0.06651523 -0.10459547 0.035954677 -0.51449847 0.51449209 -0.68599498 2.9129983e-06
-0.13082498 -0.090720885 0.034436788 0.51449835 -0.5144937 -0.68599391 0
-0.12880456 -0.093088806 0.037728045 0.51450163 -0.51449901 -0.68598741 0
-0.063741386 -0.097606324 0.039116159 -0.51449269 0.51449811 -0.68599486 4.5894396e-07
-0.05485519 -0.095062338 0.034359492 -0.5144943 0.51450044 -0.68599194 0
-0.13497409 -0.089220583 0.030199729 0.51450163 -0.51449406 -0.68599129 0
-0.12548418 -0.083732769 0.0332013 0.51449043 -0.51450223 -0.68599349 1.750304e-06
-0.11829233 -0.081343941 0.036803573 0.51448995 -0.51450008 -0.68599546 2.1990281e-06
-0.04637637 -0.084587097 0.035856813 -0.51449436 0.51450229 -0.68599033 0
-0.038130045 -0.083626233 0.030392718 -0.51449949 0.51449275 -0.68599373 2.2326055e-06
-0.11352538 -0.076059021 0.036415108 0.51448882 -0.51449853 -0.68599755 3.4751829e-06
-0.10661715 -0.071929537 0.038499147 0.51449293 -0.51449794 -0.6859948 2.9210639e-07
-0.043734476 -0.07784237 0.038933933 -0.51449442 0.51450109 -0.68599135 0
-0.035064027 -0.073822804 0.035445776 -0.51449692 0.51449275 -0.6859957 2.3191876e-06
-0.11056533 -0.066246599 0.031275813 0.51449186 -0.51449931 -0.68599457 2.7520116e-06
-0.10499081 -0.065507859 0.034902655 0.51449597 -0.51449835 -0.68599224 0
-0.098456889 -0.060629286 0.03614416 0.51449001 -0.51449859 -0.68599653 3.0511453e-06
-0.031916909 -0.066659033 0.038458269 -0.51449591 0.51449651 -0.68599373 2.8737762e-07
-0.027135503 -0.066248208 0.03518033 -0.51449805 0.51449287 -0.6859948 2.0634334e-06
-0.018985249 -0.064485252 0.030389862 -0.5144968 0.51449376 -0.68599504 1.6407159e-06
-0.09548717 -0.054197691 0.033547767 0.51449192 -0.51449633 -0.68599683 1.7339105e-06
-0.086302586 -0.051632032 0.038511954 0.51449484 -0.51449603 -0.6859948 5.8896421e-07
-0.020808257 -0.057220228 0.037205879 -0.51449615 0.51449728 -0.6859929 0
-0.014846708 -0.054993078 0.034405079 -0.51449519 0.51449949 -0.68599206 0
-0.092730127 -0.047378492 0.030501137 0.51449394 -0.5144977 -0.68599421 9.662773e-07
-0.084467888 -0.043135505 0.033515573 0.51449186 -0.51449817 -0.68599546 2.3156797e-06
-0.011053532 -0.048128717 0.03670847 -0.51449656 0.51449519 -0.68599409 4.0601645e-07
-0.0051704003 -0.045246519 0.034457766 -0.51449662 0.51449591 -0.68599355 7.4990658e-07
0.0051859654 -0.040684916 0.030111695 -0.51449585 0.51449627 -0.68599385 1.1265771e-07
-0.085742347 -0.0399292 0.030155007 0.51449609 -0.51449507 -0.68599463 1.0996429e-06
-0.076029643 -0.038039289 0.036022097 0.5144949 -0.5144977 -0.68599355 1.8595034e-06
-0.067187324 -0.034413874 0.039934777 0.51449662 -0.51449519 -0.68599409 0
-0.0026931111 -0.037479129 0.038425341 -0.51449591 0.51449603 -0.68599403 1.0282706e-07
0.0075062998 -0.032195073 0.034738824 -0.51449555 0.51449668 -0.68599385 0
0.012888378 -0.031730231 0.0310509 -0.51449573 0.5144974 -0.68599302 0
-0.07399375 -0.028792538 0.030613955 0.5144977 -0.51449537 -0.68599319 0
-0.064428203 -0.021193456 0.032088805 0.51449758 -0.51449454 -0.68599385 0
-0.058893226 -0.025104091 0.039173018 0.51449627 -0.51449627 -0.68599361 0
0.008365429 -0.025703026 0.038963515 -0.51449591 0.51449627 -0.68599379 2.9428375e-07
0.012990506 -0.024033777 0.036746643 -0.51449525 0.51449668 -0.68599397 0
0.021809254 -0.02366583 0.030408543 -0.5144968 0.51449633 -0.68599308 0
-0.06312231 -0.017902905 0.030600313 0.51449776 -0.51449525 -0.68599325 0
-0.052623838 -0.012999296 0.034796461 0.51449656 -0.51449603 -0.68599349 0
-0.047829807 -0.012125825 0.037736878 0.51449758 -0.51449543 -0.68599331 0
0.018202035 -0.015450254 0.039275639 -0.51449651 0.51449674 -0.68599296 0
0.025308236 -0.014184365 0.034895405 -0.51449555 0.51449621 -0.68599421 0
-0.050773475 -0.0078405589 0.032315172 0.51449543 -0.51449573 -0.68599451 0
-0.049077839 -0.0059083402 0.032137748 0.51449287 -0.5144971 -0.68599546 9.0272607e-07
-0.037740424 -0.0027324297 0.038258873 0.51449424 -0.51449609 -0.68599528 1.3514412e-07
0.033484887 -0.0052324617 0.035476845 -0.51449746 0.51449573 -0.68599302 2.3297929e-08
0.040012594 -0.0026259394 0.032535959 -0.51449847 0.51449603 -0.68599212 0
-0.041744336 0.0017366987 0.031904086 0.51449525 -0.51449651 -0.68599427 6.1249784e-07
-0.033517521 0.0044300621 0.036054175 0.51449639 -0.51449585 -0.68599379 0
0.037029896 0.0010864604 0.037557278 -0.5144977 0.51449585 -0.68599284 0
0.047124773 0.0052157152 0.033083059 -0.51449674 0.51449573 -0.68599361 0
-0.025390349 0.015554454 0.033806264 0.51449531 -0.51449645 -0.68599421 3.0361011e-07
0.053627215 0.014671212 0.035297852 -0.51449513 0.51449704 -0.68599385 7.816368e-07
-0.015400659 0.0260201 0.033449292 0.51449567 -0.5144971 -0.68599343 0
-0.0069865063 0.027377458 0.038741902 0.51449603 -0.51449645 -0.68599355 3.7370216e-07
0.064715296 0.026143922 0.035586324 -0.51449627 0.51449674 -0.68599325 0
-0.010624826 0.031166144 0.033171639 0.51449579 -0.51449579 -0.68599439 0
-0.0018057101 0.036509022 0.035778817 0.51449633 -0.51449656 -0.68599325 6.3966627e-07
0.077217661 0.034707919 0.032632548 -0.46920711 0.54934388 -0.69142306 0.0042154314
0.080021128 0.035882719 0.031411052 -0.45406976 0.56883526 -0.68574554 0.0059438725
-0.0043061003 0.041239597 0.030355588 0.51449633 -0.51449531 -0.68599427 7.0835773e-07
0.0037234947 0.04237631 0.035525255 0.51449621 -0.51449537 -0.68599427 5.2078138e-07
0.016292607 0.049293928 0.039763872 0.51449525 -0.5144974 -0.68599355 0
0.07771799 0.042803459 0.038328953 -0.45340431 0.56607145 -0.68846762 0.0058133467
0.086580329 0.046719667 0.035231162 -0.44413385 0.57369524 -0.68819982 0.010391875
0.094896704 0.046147581 0.034177657 -0.44980469 0.57156938 -0.68628287 0.011708731
0.10448238 0.048615832 0.031951912 -0.47959122 0.53756404 -0.69355404 0.014225534
0.0097492561 0.052219275 0.032662354 0.51449573 -0.51449651 -0.68599391 0
0.011625852 0.052456792 0.033891663 0.51449621 -0.51449674 -0.68599319 0
0.025321662 0.058879498 0.039346494 0.51449728 -0.5144977 -0.68599176 0
0.088603795 0.053675149 0.038318366 -0.43723443 0.56869936 -0.6967116 0.01203645
0.092616186 0.055257298 0.036495686 -0.46752754 0.56520367 -0.67967844 0.013573169
0.10478982 0.054049373 0.033462252 -0.49689636 0.54224151 -0.67754567 0.016132804
0.11252385 0.05691538 0.03214547 -0.49637732 0.52043027 -0.69481075 0.015702739
0.025416333 0.064909369 0.034895092 0.51449758 -0.51449579 -0.68599296 5.9284048e-07
0.032292925 0.068045549 0.0377004 0.51963437 -0.50596118 -0.68846446 0.00038342737
0.09765026 0.064428836 0.039598785 -0.47420943 0.54283148 -0.69315171 0.015411762
0.104058 0.06505473 0.036960039 -0.50492233 0.53565812 -0.67684847 0.016361017
0.1150509 0.064096376 0.033301689 -0.5034588 0.53973234 -0.67469859 0.016342627
0.12295094 0.064819828 0.030253489 -0.52347463 0.50816268 -0.68391883 0.017125405
0.029414106 0.072713092 0.032040626 0.5204618 -0.50832134 -0.68609679 0.00044621091
0.037158899 0.075579248 0.035699602 0.5588057 -0.47337371 -0.68092108 0.0058072908
0.044245951 0.07768885 0.039432693 0.58068764 -0.45188749 -0.67719978 0.0069795838
0.11431437 0.071989462 0.032771174 -0.5106371 0.52788615 -0.67866492 0.018251033
0.12379763 0.0750295 0.035408337 -0.51922047 0.53306574 -0.66802013 0.015812969
0.13601536 0.079148471 0.031201662 -0.53140324 0.51794219 -0.67033303 0.016715055
0.036208458 0.081739545 0.030366551 0.55553329 -0.46143454 -0.69170874 0.0057144924
0.042200197 0.084341973 0.032908536 0.56197906 -0.46552736 -0.6837132 0.0092314966
0.053669885 0.089387879 0.037726372 0.5855996 -0.43208 -0.68584257 0.01131931
0.11702324 0.084104739 0.039825968 -0.52218211 0.52507532 -0.67202812 0.01619952
0.12279279 0.08419659 0.035567701 -0.52649605 0.53170204 -0.66339636 0.017336885
0.13398406 0.086840332 0.036937874 -0.51611322 0.54170251 -0.66346484 0.016745096
0.1467586 0.089013793 0.030543219 -0.52198499 0.5218389 -0.67469686 0.017958915
0.045405131 0.092198238 0.033026196 0.58721673 -0.44357708 -0.67706412 0.011393854
0.054632343 0.093493506 0.037236385 0.592664 -0.44467318 -0.67157656 0.013754408
0.061465349 0.095204808 0.039210275 0.5567891 -0.46923199 -0.6854248 0.01649827
0.1266356 0.092945859 0.039247543 -0.50177908 0.50873679 -0.69957453 0.017237436
0.13542128 0.093228564 0.034737714 -0.53061897 0.5242545 -0.66603351 0.017343525
0.14224155 0.096159093 0.033065327 -0.51382482 0.54031968 -0.66636235 0.016491426
0.15352142 0.09821187 0.032369666 -0.51451665 0.49002171 -0.70366991 0.016996248
0.047359433 0.10265294 0.032381695 0.56881589 -0.44744909 -0.69009984 0.016621275
0.055292267 0.10488465 0.035101376 0.57728016 -0.46248108 -0.67294794 0.01508927
0.062153716 0.10513568 0.032278392 0.54795963 -0.50729668 -0.66512424 0.018015143
0.14765215 0.10443798 0.034438465 -0.5406909 0.50081551 -0.67589742 0.017235316
0.15597954 0.10575621 0.03618433 -0.53371638 0.51377952 -0.67169738 0.016605487
0.16143048 0.10596441 0.032252267 -0.53778654 0.5099467 -0.6713717 0.01713568
0.056281827 0.11297906 0.031328902 0.53689325 -0.49394387 -0.68393356 0.01782801
0.065485582 0.11568411 0.036202934 0.55339456 -0.52281392 -0.6483981 0.016063893
0.075248733 0.115463 0.034354169 0.52487177 -0.53253216 -0.66401744 0.017238667
0.14818339 0.11198006 0.037362352 -0.51940626 0.50045145 -0.69265115 0.016755145
0.15421973 0.11690375 0.036527861 -0.52787977 0.5117256 -0.67784935 0.01910292
0.16417073 0.11519323 0.034784459 -0.55439079 0.50226492 -0.66361195 0.023021394
0.17276156 0.11553601 0.030932678 -0.53974181 0.48243579 -0.68987995 0.030745635
0.06938234 0.12151571 0.034751795 0.5127421 -0.51732451 -0.68517947 0.017392594
0.07333257 0.12589571 0.033095624 0.51915395 -0.54274291 -0.66023433 0.017374557
0.086555347 0.1257402 0.036293343 0.51757514 -0.54247391 -0.66169327 0.016973319
0.092531204 0.12967341 0.036658216 0.51675171 -0.51137525 -0.68663162 0.018617133
0.15785173 0.12496356 0.039848715 -0.62174857 0.35784277 -0.69669026 0.057287574
0.16627578 0.12607218 0.034362152 -0.66083437 0.35980994 -0.65866137 0.10408923
0.17437804 0.12443754 0.034062207 -0.58698833 0.38524619 -0.71206045 0.11217299
0.18393183 0.12658028 0.030838167 -0.41963044 0.5436945 -0.72684705 0.1159393
0.077633925 0.13380824 0.031721089 0.51035327 -0.52277368 -0.682823 0.018262733
0.085652627 0.13744703 0.032671787 0.51496303 -0.52785289 -0.67541426 0.018015614
0.094094671 0.13441528 0.035830572 0.51149368 -0.53065604 -0.67585373 0.01759102
0.10016713 0.13937832 0.035106454 0.50422597 -0.51790702 -0.69103444 0.017617114
0.16974531 0.13427626 0.037913062 -0.69225103 0.3033278 -0.65481341 0.16338252
0.17680947 0.13591458 0.032749701 -0.63776445 0.34335783 -0.68946493 0.20738553
0.18487695 0.13449255 0.036063533 -0.40400672 0.59212583 -0.69725573 0.1242749
0.19184355 0.13642485 0.032287825 -0.35865375 0.63923043 -0.68025863 0.10343406
0.089388661 0.14374927 0.033081375 0.52384531 -0.51616603 -0.67761242 0.01811251
0.095717348 0.14591107 0.036206525 0.51798856 -0.50855839 -0.68779075 0.019678175
0.10924323 0.14397001 0.038469777 0.523992 -0.48120967 -0.70275849 0.015813677
0.16622487 0.14752135 0.033136513 -0.78337282 -0.60836118 -0.12737216 0.17904814
0.17154422 0.14220196 0.031470262 -0.86273181 -0.48483965 -0.14361185 0.21610807
0.19287977 0.14170693 0.035472188 -0.33423999 0.62955666 -0.70138592 0.074467242
0.20249087 0.14781499 0.032844927 -0.44782257 0.56724644 -0.69114858 0.011492603
0.097879648 0.15454055 0.031356137 0.5218004 -0.50254738 -0.68932611 0.01705285
0.10480328 0.15483218 0.033995915 0.53169382 -0.50593317 -0.67921531 0.016990721
0.11593946 0.15210785 0.037388574 0.50376135 -0.51312172 -0.6949321 0.017615538
0.15713996 0.15660623 0.034482159 -0.70215714 -0.70408535 -0.10601485 0.057909563
0.16208762 0.15165859 0.039173115 -0.73423815 -0.65541828 -0.1769783 0.15487398
0.20575392 0.15674241 0.0370932 -0.51448041 0.51449734 -0.68600464 8.7823428e-06
0.21468994 0.15949215 0.032453485 -0.514489 0.51449436 -0.68600041 3.1368047e-06
0.10644597 0.16411515 0.030599946 0.51324648 -0.51465142 -0.686813 0.01779568
0.11743866 0.16600664 0.037425838 0.42161307 -0.57595462 -0.70037037 0.032379024
0.12299711 0.16711666 0.035159983 0.32771453 -0.63955945 -0.69538969 0.061948631
0.13295981 0.16694611 0.039025139 0.36938077 -0.64832801 -0.66575426 0.11973594
0.14692225 0.16682394 0.035640176 -0.56704724 -0.8031202 -0.18290831 0.19973287
0.15160713 0.16213907 0.036665834 -0.64261663 -0.75013429 -0.15602057 0.16388574
0.21449633 0.1626313 0.034953058 -0.51448727 0.51449853 -0.68599868 4.8092857e-06
0.22214551 0.16520937 0.031149715 -0.51452124 0.51450968 -0.68596482 0
0.11580086 0.17320298 0.030800229 0.42228103 -0.61612821 -0.66487938 0.053542059
0.12141643 0.1732727 0.034959625 0.38556874 -0.62037349 -0.68298876 0.087348923
0.13050851 0.17289913 0.032721896 0.28402296 -0.75041819 -0.59682792 0.1609987
0.14215605 0.17159015 0.03449887 -0.25306907 -0.86473727 -0.43380362 0.22515032
0.22735588 0.17296642 0.033059757 -0.51451558 0.51448804 -0.68598527 0
0.23628505 0.17941561 0.031199764 -0.51448786 0.51448488 -0.68600845 9.3342305e-06
0.12870839 0.18414305 0.032275837 0.48665684 -0.55373776 -0.67567706 0.1197554
0.13295849 0.18426527 0.035371725 0.56718445 -0.45254549 -0.68811661 0.10736806
0.23751448 0.18406202 0.033762496 -0.51452065 0.51448035 -0.68598723 0
0.24363247 0.1861366 0.030729946 -0.51449198 0.51449502 -0.68599772 3.040918e-06
0.13844082 0.19394103 0.032226682 -0.66135341 0.31760386 0.67951417 0.086086817
0.14467879 0.19214906 0.038249124 -0.66431004 0.31895167 0.67598969 0.047414307
0.24571618 0.19789392 0.037985116 -0.51448375 0.51449209 -0.68600607 1.0218407e-05
0.2537635 0.1968341 0.03115478 -0.51450342 0.51448554 -0.68599623 1.4125528e-06
0.15227719 0.20522936 0.034137696 0.51449978 -0.51449013 -0.68599552 0
0.16147263 0.20740414 0.039403189 0.51449358 -0.51454848 -0.68595654 0
0.24962997 0.20034552 0.036888491 -0.51447463 0.51450449 -0.68600363 1.003981e-05
0.2566376 0.20382538 0.034242671 -0.51451838 0.51450068 -0.6859737 0
0.16514924 0.21430063 0.03698827 0.51449519 -0.51448625 -0.6860019 7.2543921e-06
0.17294329 0.21963109 0.038835973 0.51453006 -0.51448977 -0.68597305 0
0.26513284 0.21429341 0.035722274 -0.51451707 0.51448709 -0.68598485 0
0.27037612 0.21542832 0.032640971 -0.51447022 0.51450557 -0.68600601 6.4727178e-06
0.16899446 0.22484693 0.031962447 0.51447725 -0.51450431 -0.6860019 1.7281153e-06
0.17348762 0.2261693 0.034340542 0.51450038 -0.51449811 -0.68598908 0
0.18162127 0.22736543 0.039543688 0.51447749 -0.51450455 -0.68600142 5.5979672e-06
0.26827163 0.2212209 0.038563773 -0.51447886 0.51450545 -0.68599975 2.6551304e-06
0.27499443 0.22277705 0.034688793 -0.51451641 0.5144763 -0.68599331 1.4833917e-06
0.28580478 0.22788519 0.030412147 -0.514489 0.51448452 -0.68600786 6.7802871e-06
0.17513141 0.23163974 0.031470586 0.51448637 -0.51449275 -0.68600357 4.8511256e-06
0.1836475 0.23368004 0.036327414 0.51446825 -0.51450783 -0.68600595 7.4392956e-06
0.19078021 0.2363275 0.039691344 0.51447749 -0.51450628 -0.68600005 3.5590776e-06
0.28476498 0.2350935 0.036598228 -0.51452762 0.51447284 -0.68598759 0
0.29269254 0.23799834 0.032831192 -0.51453286 0.51452184 -0.68594706 0
0.18513595 0.24309251 0.030384416 0.51450413 -0.51449162 -0.68599117 0
0.19453287 0.24846576 0.033402156 0.51448393 -0.51452684 -0.6859799 0
0.20065613 0.24952237 0.037202127 0.51449406 -0.51452118 -0.68597662 0
0.28568482 0.24000253 0.039590094 -0.51450413 0.5145036 -0.68598205 0
0.29636046 0.24532679 0.035576589 -0.51451272 0.51447093 -0.68600029 3.4843752e-06
