# .PCD v0.7 - Point Cloud Data file format
VERSION 0.7
FIELDS x y z normal_x normal_y normal_z curvature
SIZE 4 4 4 4 4 4 4
TYPE F F F F F F F
COUNT 1 1 1 1 1 1 1
WIDTH 565
HEIGHT 1
VIEWPOINT 0 0 0 1 0 0 0
POINTS 565
DATA ascii
-0.076539978 -0.033865836 0.051934265 -0.0060773264 0.43312383 -0.9013139 0.0098619498
-0.06580478 -0.033434685 0.052112848 0.0085614594 0.40163288 -0.9157607 0.010756606
-0.054522637 -0.034021687 0.051869705 -0.0085385237 0.44440889 -0.89578342 0.011767417
-0.044431448 -0.034350112 0.051733669 0.011610471 0.46380851 -0.88585943 0.0083167469
-0.034705333 -0.034717206 0.051581621 0.0059059779 0.43154719 -0.902071 0.011139518
-0.024443919 -0.033970021 0.051891107 0.011828063 0.43825656 -0.89877206 0.0073873745
-0.014815321 -0.03402603 0.051867913 0.0079427725 0.43253097 -0.90158415 0.012170006
-0.0057322201 -0.035189271 0.051386084 -0.0065105152 0.46207064 -0.88681924 0.008964045
0.0033188004 -0.03323514 0.052195504 0.013250048 0.38955852 -0.92090642 0.01175759
0.013769547 -0.03464682 0.051610772 0.0054817013 0.46085608 -0.88745797 0.009254775
0.024689313 -0.033635698 0.052029587 -0.018782116 0.41726539 -0.90859056 0.013070402
0.033107739 -0.034768622 0.051560316 -0.022849478 0.43471038 -0.90028042 0.0098856147
0.043161307 -0.033303894 0.052167024 -0.0044851443 0.40067217 -0.91621047 0.011134729
0.054749664 -0.033944771 0.051901568 -0.00019087331 0.46426019 -0.88569885 0.0087643703
0.065203421 -0.03370573 0.052000582 0.013068047 0.45016202 -0.89285129 0.0076816576
0.074880153 -0.033626135 0.052033555 0.011804789 0.42972761 -0.90288144 0.012912305
0.084047474 -0.033237848 0.05219439 0.0068822876 0.39520198 -0.91856849 0.012416289
0.093553104 -0.034196597 0.051797256 -0.022578947 0.42478296 -0.90501368 0.010225595
0.10561055 -0.035727702 0.051163051 -0.0021268104 0.43917623 -0.8983984 0.011696982
0.11364075 -0.031880539 0.0527566 -0.018296281 0.38914281 -0.92099565 0.0090003526
0.12499219 -0.032772567 0.052387111 0.011342603 0.40019959 -0.91635776 0.012098019
0.13285537 -0.03293233 0.052320935 -0.0066496222 0.38252747 -0.92392021 0.011635535
0.14685778 -0.033431787 0.052114051 0.025010481 0.44306338 -0.89614135 0.01078915
0.15601389 -0.034658492 0.051605936 -0.0036930996 0.45131034 -0.8923595 0.0077345828
0.16520575 -0.034168117 0.051809054 -0.0024747995 0.41463602 -0.90998393 0.010023224
0.17409261 -0.035242185 0.051364165 -0.012823232 0.4175837 -0.908548 0.0098889023
0.18463312 -0.034594718 0.051632348 -0.011786499 0.46259722 -0.88649029 0.0089517934
0.19390611 -0.033214606 0.052204013 -0.020931937 0.38117072 -0.92426759 0.010558175
0.20635004 -0.034130212 0.051824756 0.0029990701 0.4174903 -0.90867645 0.011322033
0.21428925 -0.034367535 0.051726453 -0.021450846 0.43513158 -0.90011138 0.010084294
0.22604527 -0.03514282 0.051405322 0.01435566 0.45933092 -0.8881492 0.0088348687
0.23410314 -0.034533057 0.051657889 -0.0092648426 0.4343363 -0.90070313 0.010656191
0.24526495 -0.033412002 0.05212225 0.031230157 0.35891417 -0.93284792 0.010390403
0.25473794 -0.035495333 0.051259305 -0.0099340603 0.46393868 -0.88581157 0.0090677263
0.26551098 -0.035570249 0.051228277 0.011813764 0.4415279 -0.89716983 0.01206063
0.27382639 -0.034036808 0.051863443 -0.0078020459 0.42016736 -0.90741307 0.011823946
0.28516954 -0.03370386 0.052001353 0.015933158 0.43443766 -0.90056092 0.010984434
0.29486436 -0.033990227 0.051882736 -0.010935562 0.45563763 -0.89009821 0.0088203549
0.30414551 -0.035795547 0.051134951 0.012460096 0.46765423 -0.88382363 0.0091099842
0.31327188 -0.034927521 0.051494502 -0.016057283 0.45697868 -0.88933265 0.0081412522
0.32568765 -0.033824485 0.051951393 -0.0090693785 0.43087929 -0.9023639 0.010811582
0.3356134 -0.033809405 0.051957637 -0.0071862405 0.4374176 -0.89922971 0.011990744
0.34398946 -0.035733912 0.051160485 -0.00073206762 0.45776153 -0.88907468 0.0079561705
0.35496849 -0.033506159 0.052083246 -0.010106015 0.41154152 -0.91133499 0.013039256
0.36561114 -0.034502074 0.051670723 0.011012397 0.43594936 -0.89990377 0.010065104
0.37514681 -0.033384696 0.05213356 0.020030957 0.43974841 -0.89789754 0.010593928
0.38546139 -0.035164606 0.051396299 -0.0086935433 0.46571767 -0.88489068 0.0082235811
0.3950043 -0.035193175 0.051384468 -0.012346009 0.43683159 -0.89945859 0.010365319
0.40380427 -0.034897521 0.051506922 -0.014904407 0.463247 -0.88610387 0.0077234437
0.41600606 -0.033627462 0.052033003 0.013827599 0.42637473 -0.90444094 0.010014188
0.42452303 -0.033454485 0.052104652 -0.00022738127 0.42564705 -0.90488917 0.0099144885
0.43446511 -0.033283591 0.05217544 0.0028114507 0.42329377 -0.90598804 0.010461982
0.44493765 -0.035508201 0.051253978 -0.0058104582 0.45001814 -0.89300048 0.008546086
0.4543803 -0.034376994 0.051722534 -0.01583562 0.42917508 -0.90308249 0.011028938
0.46360159 -0.035202634 0.051380541 -0.0019183279 0.434441 -0.90069824 0.011237546
0.4749673 -0.033705015 0.052000877 -0.028244216 0.42867818 -0.90301573 0.016406331
0.48713559 -0.035689823 0.051178746 -0.31713206 0.40849787 -0.85589528 0.07287097
0.49546799 -0.033913705 0.051914439 -0.58072764 0.34773338 -0.73609573 0.081625
0.5 -0.03495191 0.050846919 -0.66342187 0.35102805 -0.66079551 0.088425748
-0.45387009 -0.022831075 0.055175681 0.74794084 -0.095922299 -0.65679783 0.0037465796
-0.32562429 -0.025138805 0.056650978 0.59417373 -0.13091736 0.79361087 0.061413664
-0.31374872 -0.024666594 0.054224633 0.57240909 -0.080806322 0.8159768 0.16476734
-0.30537692 -0.024069106 0.055377923 -0.021664092 0.10380517 -0.9943617 0.14415184
-0.29605559 -0.022360729 0.055693887 0.18747672 0.11731274 -0.9752385 0.076756753
-0.28324959 -0.022535572 0.055740338 0.010486988 0.19055566 -0.98162037 0.0086485306
-0.27382335 -0.023988929 0.055467486 0.0082484875 0.25595638 -0.96665317 0.0063459827
-0.26568243 -0.025087863 0.054995686 0.0088424217 0.28499073 -0.95848948 0.0091089979
-0.25400698 -0.02475206 0.055224996 0.0047796471 0.25895134 -0.96587855 0.010339115
-0.24473722 -0.024109723 0.055418212 -0.0088768052 0.25905707 -0.96582121 0.0065832855
-0.23391968 -0.023387603 0.055501118 0.0044758674 0.20294808 -0.97917926 0.010042291
-0.22459039 -0.024789285 0.055110969 -0.0091031017 0.2294749 -0.97327197 0.008560718
-0.2146409 -0.02442511 0.055185735 0.0019792197 0.24593435 -0.96928447 0.0096106268
-0.205064 -0.024957456 0.05510544 -0.0081728855 0.23998639 -0.97074187 0.010506857
-0.19535215 -0.026992917 0.054658916 0.0081991255 0.28598207 -0.95819986 0.0083752908
-0.18494265 -0.025716364 0.05500035 -0.0010480037 0.24704964 -0.96900219 0.0068175369
-0.17437807 -0.026239533 0.054833736 -0.017108448 0.30805582 -0.95121449 0.0088502346
-0.16527309 -0.026887648 0.054591659 0.011861687 0.31025666 -0.95057881 0.010054725
-0.1545803 -0.024499653 0.055208102 -0.0092978738 0.25139254 -0.96784061 0.012531486
-0.14582644 -0.022870678 0.055696219 0.001639993 0.20168743 -0.97944856 0.0098483665
-0.13475288 -0.025395708 0.055073511 0.006493133 0.26258177 -0.96488792 0.0067838589
-0.1241193 -0.025398595 0.055005893 0.012643736 0.28247955 -0.95919001 0.0075530368
-0.11609236 -0.024633782 0.05533006 -0.011320308 0.22307049 -0.97473663 0.0080437912
-0.10486352 -0.024591494 0.055310033 -0.013837298 0.24845557 -0.96854448 0.010140704
-0.095064193 -0.023309853 0.055474766 -0.0039814645 0.20279235 -0.97921371 0.0092257205
-0.085677475 -0.025143065 0.055091724 -0.0033033905 0.261581 -0.96517587 0.010395705
-0.073679782 -0.023541061 0.055468168 0.018548189 0.18598811 -0.98237693 0.010126924
-0.065930493 -0.025780005 0.0549201 0.01576449 0.31495848 -0.94897455 0.009215951
-0.055285912 -0.024125187 0.055373907 0.002538872 0.21777733 -0.97599518 0.0094266124
-0.04468346 -0.026005417 0.054844655 0.0006448921 0.3258754 -0.94541246 0.0086339386
-0.034017213 -0.025982928 0.055001862 0.0064702262 0.2657595 -0.96401769 0.0067491294
-0.025211237 -0.02665887 0.054773971 0.0012361299 0.29977477 -0.95400918 0.009172502
-0.016230678 -0.025575284 0.05488864 -0.00066238153 0.30767626 -0.95149094 0.0097818142
-0.0059633385 -0.02340523 0.055507556 -0.012616701 0.19327895 -0.98106271 0.011028159
0.0043372246 -0.024328563 0.055216085 0.0026139759 0.26648879 -0.96383446 0.0084725535
0.016328642 -0.024389056 0.055261865 0.014470248 0.27495494 -0.96134824 0.0073889126
0.025429616 -0.025064584 0.055151049 0.012557767 0.24964155 -0.96825695 0.0070047458
0.033455644 -0.026343625 0.054780897 0.0011209187 0.29281271 -0.95616919 0.0081039537
0.043306582 -0.024985546 0.055151664 -0.0047508017 0.26983404 -0.9628951 0.010547548
0.055541687 -0.024325745 0.055269979 0.0088870013 0.21135804 -0.97736835 0.010683854
0.065026328 -0.024972897 0.055154398 -0.00094800326 0.28186247 -0.95945436 0.0091846539
0.075266384 -0.025504045 0.055019092 -0.02707136 0.27006692 -0.96246088 0.013049077
0.08554174 -0.025359944 0.055029653 0.018137772 0.28873557 -0.95723706 0.0091642048
0.095705271 -0.02569126 0.054971479 -0.0020320264 0.275473 -0.96130669 0.0080829374
0.10533781 -0.026105843 0.054986432 0.024950186 0.28474411 -0.95827883 0.0071523525
0.11528949 -0.026040465 0.054755118 -0.013227516 0.2981483 -0.9544279 0.0071994904
0.12567107 -0.024915246 0.055242162 -0.0060291789 0.30820787 -0.95129991 0.0083300984
0.13608769 -0.024400536 0.05530411 0.016174721 0.26277992 -0.96472025 0.010567278
0.1466527 -0.025629846 0.055040389 0.007329382 0.28204829 -0.95937222 0.0085570617
0.15461637 -0.022931879 0.055688161 -0.017400131 0.19134666 -0.9813683 0.0096693682
0.16434164 -0.025009599 0.05516408 0.011380726 0.25068763 -0.96800113 0.008652403
0.17570573 -0.025455348 0.055039655 -0.03989768 0.30456573 -0.95165533 0.0083635803
0.18486831 -0.025177136 0.055126984 0.0063593923 0.29600784 -0.95516437 0.0090085324
0.19374375 -0.023172937 0.055620462 -0.0044289278 0.23786086 -0.9712891 0.0086135296
0.20599125 -0.027194193 0.054579239 0.00051558024 0.32662231 -0.94515479 0.0084346756
0.21493252 -0.026183987 0.05479233 -0.0053130584 0.28084373 -0.95973879 0.008558902
0.22501013 -0.022551423 0.055738252 0.0095619941 0.18525173 -0.98264462 0.011731902
0.23383251 -0.022876661 0.055694301 -0.017612332 0.1855295 -0.98248082 0.010581228
0.24595465 -0.024412703 0.05527233 0.0036817407 0.23987925 -0.97079575 0.0082346732
0.25642887 -0.024362428 0.055446353 0.01499931 0.21870801 -0.97567511 0.0076500201
0.26393777 -0.026892209 0.054733984 -0.00080384244 0.31804657 -0.94807476 0.0096783442
0.27536026 -0.02463787 0.055309445 -0.0049952283 0.26107204 -0.9653064 0.0065171998
0.28446519 -0.024326973 0.055372134 -0.0071622361 0.25419435 -0.96712667 0.010519371
0.29470807 -0.023423055 0.055488169 -0.0041917204 0.18178844 -0.9833287 0.0104954
0.30587828 -0.02566967 0.055061579 0.021369487 0.25927436 -0.96556729 0.010919392
0.31615248 -0.027591325 0.054419994 0.0067159715 0.31531447 -0.94896352 0.0093779741
0.32491624 -0.026690835 0.054729939 -0.0013413635 0.31883255 -0.94781011 0.0096372897
0.33386353 -0.026136687 0.054708537 0.010655475 0.27595821 -0.96111059 0.011341532
0.34572062 -0.023752654 0.055402804 0.0064908429 0.21674797 -0.976206 0.0090727676
0.35449877 -0.0249309 0.055112883 0.012560337 0.28783453 -0.95759773 0.007825179
0.36586368 -0.026344258 0.054868154 0.0055751777 0.27454209 -0.96155894 0.0078273974
0.3749584 -0.025391117 0.055165481 -0.012027385 0.27126038 -0.96243089 0.011177739
0.38429236 -0.024216726 0.055311035 0.0048477352 0.20906387 -0.97788996 0.0090275612
0.39575124 -0.025626445 0.05507762 0.0022788337 0.2943202 -0.95570421 0.0091707222
0.40504915 -0.023676638 0.055488329 -0.0015632969 0.22353598 -0.97469443 0.0093034506
0.4134582 -0.025294827 0.055289693 -0.0065999147 0.30556467 -0.9521485 0.0089969803
0.42399362 -0.024785686 0.055110276 -0.0094128326 0.28284672 -0.95911896 0.0079858787
0.4356097 -0.024835728 0.055228017 0.011865561 0.24241655 -0.97009975 0.011724115
0.44517431 -0.026102051 0.054773431 0.010876224 0.28616413 -0.95811886 0.0078742681
0.45466843 -0.026163941 0.054992277 -0.0034877921 0.28414944 -0.95877373 0.012448345
0.46531883 -0.024383143 0.055246025 -0.0055630575 0.20673998 -0.97838008 0.0096202279
0.4744598 -0.024654754 0.055229604 -0.072643749 0.21471983 -0.97397041 0.015934113
0.48539224 -0.026519872 0.054750405 -0.28163022 0.22998661 -0.93155277 0.0579133
0.49474055 -0.023975665 0.055459041 -0.4236533 0.1725066 -0.88924652 0.070953749
0.5 -0.026138199 0.05349924 -0.72472084 0.21842362 -0.65350664 0.091601804
-0.45318595 -0.014950919 0.054683179 0.74618089 -0.10133028 -0.65798652 0.0043723201
-0.44882989 -0.012011126 0.05979567 0.70854074 -0.097079769 -0.6989603 0.0045109754
-0.32243884 -0.01627595 0.05408458 0.62975532 -0.074740089 0.7731896 0.10080333
-0.31466499 -0.01516809 0.05341506 0.76217389 -0.038817663 0.64620745 0.17330869
-0.3044565 -0.015858265 0.0565794 0.049100466 0.038885992 -0.99803662 0.13076533
-0.29611903 -0.016614201 0.056519903 0.24319762 0.085134156 -0.96623343 0.089729153
-0.28418788 -0.01470691 0.056737553 0.0060407543 0.051766284 -0.99864101 0.010147811
-0.27282685 -0.015278588 0.056693662 0.0025510301 0.089255646 -0.99600548 0.0089747859
-0.2639924 -0.015023879 0.056693211 0.01724899 0.046193231 -0.99878359 0.011980464
-0.25467685 -0.014203544 0.056788906 -0.0056104329 0.057433117 -0.99833357 0.010495177
-0.24479294 -0.015005488 0.056714207 0.0094973687 0.044980284 -0.99894273 0.011133543
-0.23474148 -0.013180351 0.056907319 0.0056792777 0.032093961 -0.99946868 0.010692087
-0.22558591 -0.014118208 0.056848507 0.0093925577 0.026837934 -0.9995957 0.011139303
-0.21533132 -0.015959674 0.056568597 -0.022828586 0.061369665 -0.99785399 0.0091027077
-0.20511019 -0.013553912 0.056858767 -0.025829701 0.03113061 -0.99918151 0.010524481
-0.19584933 -0.015342921 0.056679141 -0.013304123 0.072868884 -0.99725276 0.011355857
-0.18476659 -0.014563537 0.056789879 0.0073788236 0.045961771 -0.99891597 0.010689477
-0.17465733 -0.015025906 0.056691412 0.0096675064 0.040965024 -0.99911386 0.010080213
-0.16571598 -0.017016666 0.056443863 0.0054911189 0.082972184 -0.99653679 0.0090161646
-0.15577483 -0.015605836 0.056648791 -0.017570667 0.052962404 -0.99844193 0.0098014558
-0.14448252 -0.013444679 0.056834154 0.023704553 0.029049214 -0.99929684 0.010217218
-0.13467756 -0.014657458 0.056724153 0.023870405 0.065435998 -0.99757123 0.0095232809
-0.12511824 -0.01638368 0.056550253 -0.0069572362 0.092741385 -0.99566591 0.010273801
-0.11581486 -0.014021948 0.056792367 0.007608078 0.060811237 -0.99812025 0.011166051
-0.1047498 -0.013980634 0.056865495 -0.0061337752 0.040484436 -0.99916136 0.012651667
-0.095319919 -0.014635728 0.056738328 -0.00036977662 0.050776437 -0.99870998 0.0098721841
-0.086707152 -0.014128354 0.056760117 0.00044691659 0.034759603 -0.99939561 0.0094679482
-0.074272871 -0.0160855 0.05658951 0.006515034 0.083163954 -0.9965145 0.0062352875
-0.065359481 -0.015491748 0.056648597 -0.017846676 0.068949163 -0.99746054 0.0084780008
-0.053949952 -0.015327811 0.056689262 0.0047963574 0.054468431 -0.99850398 0.010608972
-0.045894966 -0.015966311 0.056605201 -0.010309966 0.062923931 -0.99796504 0.0083663035
-0.03264368 -0.01596424 0.056605473 0.0086212223 0.05483475 -0.99845821 0.0092043206
-0.025254365 -0.01475754 0.05672396 -0.0088942945 0.037978604 -0.99923897 0.0092879962
-0.014892631 -0.014067845 0.056789696 0.0044059237 0.020236533 -0.99978554 0.010546648
-0.0046650977 -0.014584398 0.056720324 -0.0037916366 0.064336196 -0.99792111 0.0088280188
0.0060722041 -0.01492474 0.056697465 0.01669181 0.058211036 -0.99816477 0.0084701693
0.015206878 -0.015519264 0.056619138 0.012236902 0.073605686 -0.99721241 0.009731384
0.025407422 -0.014989026 0.056672156 0.0050753513 0.060371224 -0.9981631 0.010773355
0.034560911 -0.016265374 0.056565832 -0.0047882679 0.083966114 -0.9964571 0.0095447637
0.043941125 -0.01635265 0.056554336 -0.0089722909 0.082821846 -0.99652398 0.0086792633
0.05451633 -0.014830296 0.056732766 -0.0028287177 0.045885313 -0.99894273 0.0093603628
0.065511979 -0.016485352 0.056485474 0.0055694953 0.096617118 -0.99530607 0.0070740646
0.074422985 -0.013440874 0.056895178 -8.9211426e-05 0.036716394 -0.99932569 0.011024336
0.084112659 -0.015586057 0.056655262 -0.01698623 0.069768593 -0.99741858 0.009015155
0.09281341 -0.015931483 0.056551568 -0.0069967904 0.10479949 -0.99446881 0.00678362
0.10554766 -0.013523204 0.056889124 0.017607734 0.040666964 -0.99901754 0.0098878015
0.11449365 -0.013598184 0.056839943 0.0071551073 0.029443406 -0.99954081 0.010234811
0.12424006 -0.015986647 0.05660253 -0.008987423 0.085916862 -0.99626172 0.0073673045
0.13224314 -0.017643826 0.056384347 -0.02158005 0.078442156 -0.99668503 0.0083015841
0.14354251 -0.016410286 0.056493621 -0.0021115185 0.064935304 -0.99788725 0.0096580684
0.15581757 -0.015137836 0.056668639 -0.0051128836 0.059492879 -0.99821568 0.0097879544
0.16429313 -0.016375719 0.056551304 -0.016053541 0.1002508 -0.99483263 0.01044262
0.17575409 -0.014598875 0.056741059 -0.0010299798 0.063245177 -0.9979974 0.012959327
0.18463163 -0.014784869 0.056707647 -0.019233281 0.061435603 -0.99792576 0.01027146
0.19540517 -0.015319194 0.056680791 0.030788001 0.06580171 -0.99735761 0.010684594
0.20671487 -0.015310903 0.056628142 0.01991876 0.070413947 -0.99731898 0.0085587958
0.2155529 -0.014784512 0.056714818 0.018156441 0.017420959 -0.99968338 0.010572799
0.22464138 -0.013804931 0.056838214 -0.0013062415 0.019069795 -0.99981731 0.010654039
0.23374645 -0.016090689 0.056588829 -0.01832458 0.067118734 -0.99757665 0.0089795832
0.24461494 -0.015297951 0.056693196 -0.011398583 0.073060349 -0.99726242 0.0095286919
0.25315225 -0.014303444 0.056771554 -0.018373001 0.043545518 -0.99888247 0.0099674053
0.26508674 -0.015226014 0.056664657 -0.0073555922 0.066785902 -0.99774021 0.0098806256
0.27568015 -0.015449584 0.056625307 0.01442756 0.07659018 -0.99695826 0.009702866
0.28338209 -0.015570931 0.056657255 0.011706528 0.082695901 -0.99650604 0.0095431376
0.29519442 -0.016178068 0.056562196 -0.0008322465 0.099917188 -0.99499542 0.01031777
0.30523255 -0.014578714 0.056787048 0.002364751 0.051039953 -0.99869382 0.010055849
0.31297487 -0.013997774 0.056826904 -0.0090328185 0.05002062 -0.99870729 0.010810517
0.32480338 -0.014234159 0.056777861 -0.0043102396 0.0516476 -0.99865603 0.011039204
0.3345215 -0.015782496 0.056609146 -0.01185962 0.083619468 -0.99642712 0.0091627501
0.34419042 -0.015214715 0.056687612 0.018571032 0.063707709 -0.99779582 0.010111813
0.35373014 -0.014601377 0.056770761 -0.018056151 0.044788815 -0.99883336 0.010728952
0.36621273 -0.016603317 0.056521345 0.019821888 0.10239761 -0.994546 0.010396007
0.37413481 -0.014801126 0.05672241 -0.011190506 0.05664536 -0.99833161 0.010288883
0.38435966 -0.016441539 0.056542635 0.015827855 0.13760771 -0.99036032 0.008500074
0.39562938 -0.015794225 0.056627862 0.0019466291 0.082625538 -0.99657875 0.0085734315
0.40569299 -0.015472564 0.056670208 0.022797277 0.047484286 -0.99861175 0.01034531
0.41313586 -0.01459692 0.056758974 -0.019348351 0.03220908 -0.9992938 0.010538639
0.42482179 -0.017087081 0.05645765 -0.021336863 0.060838599 -0.99791956 0.0085353386
0.43344784 -0.013810094 0.056774538 -0.011535909 0.041937172 -0.99905366 0.010740802
0.44619134 -0.014780477 0.056751065 0.0083649652 0.061198138 -0.99809062 0.01045881
0.45508671 -0.013557239 0.056852929 0.010314091 0.037150864 -0.99925643 0.010974212
0.46556395 -0.015905708 0.056613185 -0.0026888037 0.073845737 -0.99726599 0.0089094862
0.47345772 -0.016559457 0.05651556 -0.044151884 0.10931404 -0.9930262 0.011010957
0.48551485 -0.015273789 0.056696378 -0.30512244 0.047707092 -0.9511174 0.058784064
0.4956485 -0.014549226 0.056791767 -0.44447693 0.071847603 -0.89290446 0.064033881
0.5 -0.013302132 0.053694934 -0.71446121 0.064654104 -0.6966815 0.079328761
-0.45180976 -0.0051849252 0.054755241 0.7493816 -0.10624567 -0.65355873 0.0042093336
-0.44921958 -0.0036793724 0.057837509 0.7345686 -0.089927271 -0.67254895 0.0035599717
-0.32262826 -0.0068497909 0.055975158 0.67059135 -0.054738719 0.73980469 0.083840199
-0.31664985 -0.0052467166 0.053281661 0.685763 -0.0016974892 0.7278229 0.12978306
-0.30612296 -0.004256573 0.056220256 -0.028345859 -0.085332334 -0.99594921 0.16258757
-0.29709625 -0.0060740272 0.056459539 0.20717235 -0.078929931 -0.97511524 0.086262934
-0.28451052 -0.0050147879 0.056320082 0.011914617 -0.125065 -0.99207705 0.0082339579
-0.27463412 -0.0060752495 0.056459695 0.016362321 -0.10575065 -0.99425811 0.010594706
-0.26540038 -0.0032538599 0.05608825 0.011132365 -0.18058115 -0.98349708 0.0078702997
-0.25541899 -0.0058943192 0.056435872 -0.0089512756 -0.12654744 -0.99192017 0.0089564063
-0.24526305 -0.0049709706 0.056314312 -0.010284745 -0.12531702 -0.99206346 0.0088713681
-0.23366682 -0.0058336975 0.056427896 0.015633205 -0.12755473 -0.99170834 0.0084624123
-0.22274326 -0.0059296223 0.056440525 0.01561651 -0.12297482 -0.99228692 0.0092291273
-0.21391629 -0.0035914921 0.0561327 -0.004660835 -0.17463727 -0.98462182 0.0096834106
-0.20377947 -0.0055967425 0.056396697 -0.0015301376 -0.11569227 -0.99328393 0.0092882216
-0.19464058 -0.003132219 0.056072231 0.0026514691 -0.16394038 -0.98646665 0.0072370498
-0.18304123 -0.0053767213 0.056367725 0.01400715 -0.11673564 -0.99306422 0.0087663047
-0.17597528 -0.0030367218 0.056059659 -0.0079382146 -0.19509768 -0.98075163 0.0094199171
-0.164949 -0.0057084132 0.056411393 0.0080060689 -0.1156055 -0.99326295 0.009746368
-0.15550873 -0.004884582 0.056302942 -0.01556261 -0.12055822 -0.99258429 0.0089171007
-0.14478424 -0.0043450845 0.056231909 -0.0044788839 -0.14383388 -0.98959172 0.010175315
-0.13597898 -0.0055473717 0.056390192 0.0050640148 -0.10493479 -0.99446619 0.0094159842
-0.12475518 -0.006037591 0.056454733 0.0037227843 -0.11638999 -0.99319661 0.0092649292
-0.11750185 -0.0053356532 0.05636232 -0.012598174 -0.15273544 -0.98818684 0.0060878047
-0.10633685 -0.005397019 0.0563704 -0.010918411 -0.13503206 -0.99078107 0.0086723138
-0.095213607 -0.004740261 0.056283936 0.0026358699 -0.13050656 -0.99144387 0.0091337608
-0.08471901 -0.0045141955 0.056254182 0.0060458668 -0.15496205 -0.98790199 0.0067694322
-0.074323781 -0.0056363083 0.056401908 0.0039264024 -0.10520849 -0.99444246 0.010591411
-0.065779783 -0.0033912361 0.056106333 -0.0084047783 -0.18328212 -0.98302442 0.0087037943
-0.054078717 -0.006202173 0.056476403 -0.00074012851 -0.10643643 -0.9943192 0.010201068
-0.044689059 -0.0043946165 0.056238431 -0.018706035 -0.14789458 -0.98882616 0.0066065122
-0.035295557 -0.0051303729 0.056335296 0.0038988616 -0.10878892 -0.9940573 0.0094429515
-0.023686776 -0.0039911219 0.056185316 0.00039911445 -0.15525901 -0.98787373 0.0071730814
-0.013613717 -0.0048270538 0.056295354 0.017231336 -0.11692123 -0.99299169 0.0087379124
-0.0051998016 -0.0053180153 0.056359999 -0.0016151711 -0.12729223 -0.99186391 0.0085856812
0.0048604137 -0.0036025241 0.056134149 -0.0069056791 -0.13165724 -0.9912712 0.0084409788
0.015315003 -0.0035978856 0.056133538 -0.01016055 -0.15867981 -0.98727781 0.0063164448
0.023525558 -0.0053157662 0.056359705 -0.013811775 -0.11955056 -0.99273199 0.0088808807
0.033933934 -0.00675165 0.056548744 -0.011025565 -0.080500826 -0.99669355 0.011169665
0.044313062 -0.0048250612 0.056295101 -0.0092419656 -0.11396099 -0.99344224 0.0081744567
0.054192822 -0.0039059212 0.056174088 0.0019861155 -0.17307507 -0.98490661 0.00656443
0.067189619 -0.0039445027 0.056179166 0.0015730065 -0.16340244 -0.9865582 0.0064724572
0.075713374 -0.0048289038 0.056295611 0.0088070668 -0.10525588 -0.99440616 0.01055388
0.086776219 -0.0043957145 0.05623858 0.017592337 -0.12892988 -0.99149764 0.0081877476
0.094327047 -0.003201474 0.056081347 0.0010681096 -0.18734999 -0.98229265 0.0088052768
0.10551385 -0.0071106767 0.056596007 0.01293928 -0.0828624 -0.99647701 0.010239271
0.11443484 -0.0066938526 0.056541134 -0.0066714068 -0.09687683 -0.99527401 0.0090559507
0.12768421 -0.0047603236 0.056286585 0.0024390102 -0.11323325 -0.9935655 0.0095043909
0.13497265 -0.0046813106 0.056276176 -0.014271234 -0.12988047 -0.99142694 0.0083151115
0.14395644 -0.0058580129 0.056431092 0.0023988378 -0.10485452 -0.99448466 0.0097208293
0.15336302 -0.0038828496 0.05617106 0.0030707722 -0.1812011 -0.98344129 0.008448083
0.1652289 -0.005419448 0.056373358 -0.0037050657 -0.11709201 -0.99311411 0.00890397
0.17499523 -0.0059788856 0.056447007 0.0048353919 -0.12584634 -0.99203795 0.0094290674
0.18389836 -0.0045673694 0.056261174 0.011373443 -0.16090429 -0.9869045 0.0061930162
0.19550115 -0.0055635907 0.056392334 0.011543511 -0.11587059 -0.9931972 0.0084661664
0.20471117 -0.0059555043 0.05644393 -0.0010184087 -0.093949825 -0.99557644 0.0097182365
0.21465109 -0.005777454 0.056420486 0.021982502 -0.096083872 -0.99513048 0.010130953
0.22334121 -0.0041167573 0.056201853 0.0050672092 -0.16017024 -0.9870764 0.0062600677
0.23482397 -0.0058758846 0.056433447 -0.0029633557 -0.10716911 -0.99423635 0.010046963
0.24440973 -0.00574459 0.056416165 -0.019021066 -0.12907857 -0.99145198 0.0086688753
0.25494459 -0.0058378922 0.056428444 0.016113877 -0.12653036 -0.99183178 0.0085491054
0.26402262 -0.0063893525 0.056501046 -0.015815016 -0.086658441 -0.99611259 0.010606653
0.27514955 -0.0055413214 0.056389395 0.0093468549 -0.1127793 -0.99357611 0.0085445447
0.2841047 -0.0055574882 0.05639153 -0.013855003 -0.1100909 -0.99382496 0.0084101995
0.29495293 -0.0036892141 0.056145564 0.0113143 -0.15928189 -0.98716831 0.0063145943
0.30371705 -0.0042004422 0.056212872 0.0056034364 -0.17682429 -0.98422641 0.0083847651
0.31560487 -0.0043341587 0.056230471 -0.0063217347 -0.1346003 -0.99087977 0.0076128561
0.32593989 -0.0041068126 0.056200545 0.0043465886 -0.14966114 -0.98872775 0.0076152715
0.33361816 -0.005648064 0.056403454 -0.012017075 -0.097470522 -0.99516588 0.010664968
0.34560513 -0.0050407718 0.056323498 0.0030776917 -0.15032245 -0.9886322 0.0073663429
0.35560957 -0.0039384505 0.05617838 -0.016602563 -0.13326906 -0.99094081 0.0089994343
0.36499241 -0.0067330021 0.056546286 0.015249101 -0.087407239 -0.9960559 0.011394306
0.37653437 -0.0032438706 0.056086931 0.0037491764 -0.16270863 -0.98666704 0.0068421187
0.3864314 -0.0050022914 0.056318432 0.012766059 -0.15668488 -0.98756617 0.0062721968
0.39298835 -0.0061058551 0.056463718 -0.012520288 -0.11330308 -0.99348164 0.0088012796
0.40374443 -0.0049473844 0.056311205 -0.009653491 -0.14456046 -0.9894489 0.0059442371
0.41637215 -0.0047178981 0.056280993 0.0017946135 -0.11554597 -0.99330056 0.0076473905
0.425823 -0.0039378405 0.056178298 0.012649214 -0.12586041 -0.99196732 0.0082426379
0.43500799 -0.0034858515 0.056118786 0.0018160277 -0.18818755 -0.98213136 0.0093675964
0.44469377 -0.0055748406 0.05639381 -0.0014000294 -0.12217913 -0.99250704 0.0092016757
0.45492706 -0.0062394585 0.056481306 -0.012382999 -0.12060969 -0.99262273 0.010062407
0.46532047 -0.0057564569 0.056417719 -0.011678126 -0.096820258 -0.99523336 0.011643239
0.47509974 -0.0034595549 0.056115329 -0.078927264 -0.18216379 -0.98009533 0.019135591
0.48519447 -0.0030091591 0.056056038 -0.27005118 -0.11736578 -0.95566607 0.058131576
0.4954547 -0.0049588489 0.056312717 -0.48431835 -0.091904074 -0.87005138 0.067148581
0.5 -0.0057416363 0.053146094 -0.80009389 -0.081000105 -0.59438097 0.087646194
-0.44728601 0.0058846362 0.05866468 0.71943116 -0.10117459 -0.68715537 0.0044292375
-0.32112825 0.0052384678 0.056148734 0.64422667 -0.032455806 0.76414561 0.08930926
-0.31486341 0.0037036638 0.052565563 0.78707707 0.017900543 0.61659485 0.14772946
-0.30517897 0.0054460391 0.054047581 -0.057701971 -0.1680937 -0.98408085 0.15532455
-0.29473603 0.0057180566 0.054005727 0.14976896 -0.29683641 -0.94311053 0.087519825
-0.28414798 0.0048198379 0.05424995 0.024480103 -0.27414078 -0.96137792 0.0086448472
-0.27553269 0.0061211898 0.053838748 -0.0047778771 -0.31494319 -0.94909847 0.0093372259
-0.2654261 0.0059663532 0.053846337 -0.0078193815 -0.3523472 -0.93583667 0.0086115832
-0.25640103 0.0035591014 0.054828852 -0.017036835 -0.29620507 -0.95497239 0.0096000042
-0.24607226 0.006412894 0.053717915 -0.017553104 -0.3667385 -0.93015844 0.0092686666
-0.23774154 0.0050958772 0.054263446 -0.0099166362 -0.31653056 -0.94853055 0.0088793309
-0.22454876 0.0045913481 0.05436435 0.013679992 -0.26886654 -0.96308029 0.0088127963
-0.21603848 0.0056663062 0.053975098 -0.0021708838 -0.34003547 -0.94041008 0.0079799034
-0.20570536 0.0037175256 0.054728139 0.013208817 -0.26165348 -0.9650715 0.0094011854
-0.19505577 0.0055278428 0.05402803 -0.00320781 -0.3530817 -0.93558693 0.0086370204
-0.18356711 0.00472091 0.054357816 -0.0018810563 -0.34825268 -0.93739885 0.0086243888
-0.17279525 0.0042671254 0.054493189 0.00098326907 -0.33566478 -0.94198102 0.0079773441
-0.16290164 0.0053515355 0.054140531 0.012289167 -0.3477962 -0.93748969 0.0088666519
-0.15373658 0.0053846352 0.054136708 -0.0076305252 -0.28859222 -0.95742166 0.01191301
-0.14689498 0.0050994391 0.054167308 0.0056178723 -0.28859106 -0.95743597 0.0083570769
-0.13402358 0.0056025935 0.053997286 -0.017814863 -0.37105539 -0.92843986 0.0086212996
-0.12427059 0.0050292439 0.054189086 -0.0039094095 -0.35678828 -0.9341771 0.0078021507
-0.11475009 0.0041924426 0.054460209 0.0067867581 -0.31124619 -0.9503051 0.010830306
-0.10682999 0.0048838919 0.05422888 0.002083936 -0.32318735 -0.94633269 0.012728978
-0.094346926 0.0048294952 0.054266002 -0.0037887821 -0.31371504 -0.94950956 0.009179933
-0.085861973 0.0036574351 0.054742612 -0.0032200601 -0.26267353 -0.96487939 0.01154475
-0.074763909 0.0048794448 0.054285984 0.0094533637 -0.30217028 -0.95320708 0.0093801906
-0.06525398 0.0047409167 0.054388527 -0.0072926139 -0.3098059 -0.95077181 0.010324021
-0.056367803 0.0041582133 0.054624926 -0.006503392 -0.30584332 -0.95205969 0.010411482
-0.045323953 0.0048627905 0.054359991 -0.0036583971 -0.32958496 -0.9441188 0.0091124931
-0.034437604 0.0056198277 0.053974781 -0.0031419392 -0.34531039 -0.93848324 0.0094250366
-0.025252506 0.0043002027 0.054418445 0.016672293 -0.34117189 -0.93985301 0.0094968518
-0.01437408 0.0045769308 0.054440618 -0.0076739131 -0.31847218 -0.94790119 0.01160779
-0.0060639116 0.0064507029 0.053676873 -0.0022714655 -0.34899321 -0.93712246 0.01212647
0.0031609088 0.0057068351 0.054010376 -0.0077671804 -0.37101972 -0.92859244 0.0087825302
0.013152268 0.0066106161 0.053634603 0.003121404 -0.35638383 -0.9343344 0.0088071879
0.027645221 0.0049940757 0.054189384 0.0054242169 -0.3199968 -0.94740307 0.0070984792
0.034121837 0.0039283936 0.05457364 -0.0020515695 -0.31133762 -0.95029712 0.0082509276
0.045824211 0.0031883803 0.054939095 0.003179874 -0.24557115 -0.96937335 0.0096216211
0.055754047 0.005567411 0.05395513 -0.0073354067 -0.32609993 -0.9453069 0.010787528
0.065485932 0.0058099478 0.05396767 0.0053683706 -0.3705844 -0.92878324 0.0097733708
0.07476449 0.00383694 0.054563586 -0.0050315605 -0.27862445 -0.96038693 0.0094229653
0.085185505 0.0057913503 0.053975374 0.00046052525 -0.33444601 -0.94241482 0.0082142269
0.095141992 0.0057763187 0.053981595 -2.7017553e-05 -0.36161858 -0.93232614 0.0085218055
0.10534497 0.0053266552 0.054128878 -0.00044512856 -0.32717803 -0.94496262 0.007880982
0.11496408 0.0042030164 0.054465391 -0.0086549539 -0.35249066 -0.93577534 0.0086138407
0.1241334 0.0060342504 0.053829659 -0.0080563175 -0.34922192 -0.93700546 0.009845797
0.13456543 0.0045563672 0.054345369 -0.023639914 -0.29755503 -0.95441198 0.010851809
0.1449741 0.0045818128 0.05437405 0.0011738532 -0.31694183 -0.94844431 0.011891173
0.1553576 0.0043237093 0.054436047 0.0075049 -0.31932583 -0.94761521 0.0092095742
0.16522141 0.00307805 0.054971546 0.0062710121 -0.24699372 -0.96899676 0.0081356056
0.17391637 0.0053077233 0.05405185 -0.0005689403 -0.34429517 -0.93886131 0.0096048005
0.1849281 0.00591532 0.053880427 -0.011243997 -0.37107533 -0.92853475 0.0087755444
0.19603881 0.0035969408 0.054773565 0.020164387 -0.29960054 -0.95385158 0.0091065103
0.20456791 0.0055973437 0.054032091 0.0040003294 -0.34822798 -0.93740135 0.0088276993
0.21666907 0.0061153439 0.053821359 -0.012891988 -0.32521221 -0.94555318 0.010658756
0.22446012 0.0045892526 0.054424949 -0.016216112 -0.29770488 -0.95452029 0.01182962
0.23514318 0.0051606386 0.054130524 0.018098846 -0.32512602 -0.94549751 0.012409201
0.24614935 0.004126973 0.054563995 0.011521847 -0.27901587 -0.96021736 0.010375257
0.25447831 0.0051680636 0.054204315 0.0070186858 -0.31132486 -0.95027763 0.01074748
0.26333043 0.0049325046 0.054257475 -0.010103796 -0.33628362 -0.9417066 0.0086812573
0.27401742 0.0055863033 0.054031737 0.0044308291 -0.37027279 -0.92891252 0.009280704
0.28446952 0.004292103 0.054525029 -0.007318621 -0.29609665 -0.95512998 0.012634095
0.29401708 0.0059850244 0.053874604 -0.00072961778 -0.33716884 -0.94144392 0.011795929
0.30357012 0.0042312969 0.054528683 0.00760601 -0.28262216 -0.95920116 0.011637161
0.31660965 0.0057469136 0.05399378 0.0076980218 -0.35873011 -0.93340957 0.0091719804
0.3247667 0.004413804 0.054481637 0.01089603 -0.32165125 -0.94679552 0.0070371851
0.33610117 0.0031787253 0.054819036 0.010795434 -0.28149161 -0.959503 0.012696569
0.34656462 0.0049550738 0.054233745 -0.0058669983 -0.3138341 -0.94945967 0.010612873
0.35454997 0.0059356065 0.053884018 -0.0027709526 -0.34952766 -0.93692189 0.010036654
0.36565462 0.004480903 0.054374103 -0.0098059643 -0.34797722 -0.93745166 0.0088014305
0.37389734 0.0025745295 0.055044178 -0.023039205 -0.2755422 -0.9610129 0.01116755
0.3843511 0.0036116065 0.054647945 -0.0088819358 -0.29289132 -0.95610446 0.010035254
0.39497259 0.0045762341 0.054414246 0.0031039545 -0.32188392 -0.94677401 0.0082667787
0.40465388 0.0039443993 0.054498829 -0.0070297676 -0.29015622 -0.95695341 0.010206783
0.41523054 0.0057257488 0.05397677 0.012237984 -0.35943556 -0.93308967 0.0099139092
0.42375264 0.0065531656 0.053587485 0.0020184193 -0.35805422 -0.93369865 0.0092842262
0.4360975 0.0051152389 0.054255426 0.0040738401 -0.29032087 -0.95692068 0.0088615771
0.44457242 0.0051971157 0.054089125 -0.016310818 -0.33040571 -0.94369811 0.006765699
0.45580897 0.0029568118 0.055089895 -9.6664095e-05 -0.24592701 -0.96928835 0.0097336397
0.46628177 0.0042799567 0.054408368 0.0058464184 -0.2993989 -0.95411009 0.010235731
0.47491944 0.0037193813 0.054755595 -0.045867771 -0.26891568 -0.96207094 0.017010318
0.48418748 0.0054754834 0.054050662 -0.19280526 -0.31779996 -0.92834765 0.043889124
0.49607572 0.0047957902 0.054299515 -0.53096068 -0.23926364 -0.81291682 0.085978799
0.5 0.0034980653 0.05215222 -0.70243186 -0.21543738 -0.67836291 0.089428775
-0.45168459 0.013418358 0.051668521 0.76945513 -0.11946923 -0.627428 0.0037968699
-0.44785401 0.015432318 0.056263976 0.75322723 -0.10275306 -0.64968497 0.004230896
-0.32157621 0.015618852 0.058539864 0.67870981 0.0039599831 0.73439586 0.067940772
-0.31650352 0.014662208 0.053247802 0.73305488 0.031554196 0.67943716 0.10547619
-0.30441025 0.01253065 0.051183876 -0.16590606 -0.35542554 -0.91986299 0.22339581
-0.29490438 0.013520294 0.050773945 0.10308798 -0.44350329 -0.89032447 0.12207576
-0.28509101 0.012180238 0.051329017 0.098160006 -0.47019476 -0.87708694 0.027894365
-0.2742106 0.010841002 0.051883746 0.018875221 -0.40531263 -0.91398329 0.011844097
-0.26419544 0.01413613 0.050518859 0.0056458875 -0.47349265 -0.88077968 0.010926726
-0.25541577 0.012333343 0.051265594 -0.028080137 -0.44165248 -0.8967467 0.012371831
-0.24550237 0.012449123 0.051217634 -0.0006875947 -0.4433105 -0.89636785 0.012407764
-0.23614867 0.013078781 0.050956827 -0.013929201 -0.44367561 -0.89607918 0.012196817
-0.22527716 0.012528969 0.051184561 0.013780285 -0.45429084 -0.89074683 0.012381923
-0.21479106 0.013089482 0.050952397 0.011666437 -0.4406532 -0.89760149 0.013286288
-0.20317391 0.012152465 0.051340517 -0.0029910163 -0.44533876 -0.89535719 0.011863451
-0.19550298 0.012601787 0.051154397 0.0002472325 -0.44753936 -0.89426422 0.012456621
-0.18378022 0.012434677 0.051223621 -0.012002439 -0.44495252 -0.89547372 0.011616973
-0.17455278 0.012850523 0.051051378 0.005143384 -0.46185917 -0.88693833 0.011472207
-0.1659586 0.012171475 0.051332641 0.010495386 -0.44133246 -0.8972823 0.011380049
-0.15284397 0.012742322 0.05109619 0.0067371223 -0.46182904 -0.88694334 0.011645698
-0.14677331 0.011747158 0.051508404 -0.0030088972 -0.4305391 -0.90256691 0.012479298
-0.13642161 0.011758992 0.051503502 -0.012218699 -0.46170479 -0.88694948 0.011328257
-0.12345254 0.012677099 0.051123202 -0.0058190618 -0.45529109 -0.89032364 0.012288959
-0.11413196 0.01345598 0.050800581 0.010641517 -0.46297315 -0.88630843 0.011083958
-0.10462673 0.01399643 0.050576724 0.014225942 -0.48003742 -0.87713271 0.010117271
-0.095663257 0.012856272 0.051048994 -0.015265972 -0.44438714 -0.89570475 0.011794493
-0.084910236 0.012482261 0.05120391 0.0097092763 -0.45886475 -0.88845313 0.010865211
-0.074986324 0.013918882 0.050608844 -0.0022898261 -0.5031749 -0.86418158 0.0078783492
-0.064405404 0.012587382 0.051160369 0.011340853 -0.47390667 -0.88050205 0.010864345
-0.054864209 0.013399712 0.05082389 0.0034835062 -0.47360536 -0.88073033 0.011278599
-0.047627613 0.013294542 0.050867453 -0.007474801 -0.44500446 -0.89549714 0.010930861
-0.035397969 0.012551361 0.051175289 -0.022020942 -0.45871273 -0.88831174 0.012274578
-0.025458669 0.011316523 0.051686779 -0.0097021488 -0.42090598 -0.90705234 0.010689441
-0.014874987 0.013500481 0.050782152 0.0033543494 -0.48565322 -0.87414509 0.010215941
-0.0047498676 0.012710442 0.051109392 0.0075329822 -0.46220583 -0.88674068 0.012814317
0.0059686271 0.013382202 0.050831147 0.019696901 -0.47672784 -0.87883019 0.0098160338
0.016998354 0.013566738 0.050754707 0.0065654628 -0.47213885 -0.88149977 0.012073663
0.026549021 0.012748537 0.051093619 0.016199302 -0.47508627 -0.87979013 0.010442144
0.034558378 0.011887151 0.051450413 -0.0011774256 -0.42977625 -0.90293467 0.011339349
0.048210893 0.012047962 0.051383805 0.011210702 -0.45542407 -0.89020401 0.012851366
0.055923726 0.013322271 0.050855964 -0.0064302012 -0.4752413 -0.87983209 0.0090149986
0.065050051 0.013011769 0.05098458 0.008581521 -0.48229629 -0.87596607 0.010314901
0.07452064 0.012659487 0.0511305 -0.0027817972 -0.48793095 -0.87287784 0.0097787678
0.084695317 0.013335109 0.050850648 0.0030393775 -0.4614448 -0.8871637 0.012291575
0.090024747 0.014708981 0.050281577 -0.0048194695 -0.52493376 -0.85112947 0.0074345032
0.10469154 0.012550544 0.051175628 -0.0049978723 -0.46415949 -0.88573748 0.011796652
0.11317377 0.012497984 0.051197398 -0.0099384468 -0.46310896 -0.88624567 0.011451816
0.12510642 0.013449366 0.050803322 0.011210886 -0.47642478 -0.87914371 0.010210221
0.13694087 0.011520562 0.051602259 0.0093997503 -0.41915962 -0.9078638 0.011358679
0.1431929 0.012666628 0.051127546 -0.011059768 -0.47402987 -0.88043934 0.011174553
0.15532631 0.013459057 0.05079931 -0.00075075339 -0.47984317 -0.87735403 0.011363433
0.16623405 0.012029399 0.051391494 0.008196013 -0.43459791 -0.90058732 0.013485878
0.17443417 0.013543591 0.050764296 0.0073345457 -0.47950429 -0.87750882 0.011386714
0.18685198 0.012557154 0.051172886 0.021410441 -0.43652457 -0.89943755 0.013575054
0.19310194 0.012411314 0.051233295 -0.010510961 -0.44796699 -0.89398831 0.012636834
0.20514174 0.012578061 0.051164232 -0.004077876 -0.44926348 -0.89338994 0.012964721
0.21428297 0.013184495 0.050913036 -0.02272943 -0.45785272 -0.88873744 0.011687431
0.22349833 0.012699163 0.051114071 0.0061257556 -0.45795622 -0.88895369 0.011863844
0.23538904 0.012751047 0.051092573 0.011116909 -0.45704502 -0.88937408 0.012300146
0.24538262 0.012367779 0.051251329 -0.00031331045 -0.45947716 -0.88818955 0.011045218
0.2559815 0.013551557 0.050760996 0.013017834 -0.4761613 -0.87926155 0.010436923
0.266166 0.013023425 0.05097976 0.011457907 -0.47296599 -0.88100618 0.010607592
0.27440187 0.012759399 0.051089119 -0.013051142 -0.4706378 -0.88223004 0.010282821
0.28258774 0.013598721 0.05074146 -0.0022998194 -0.46897462 -0.88320863 0.010040139
0.29472587 0.012847902 0.051052459 -0.0040669548 -0.45442697 -0.89077473 0.011547269
0.30571583 0.011517228 0.051603641 0.012834247 -0.46172959 -0.8869279 0.011323296
0.31684199 0.01205166 0.051382273 -5.1910039e-05 -0.43678027 -0.89956826 0.011632594
0.32470128 0.012147155 0.051342715 0.0073220641 -0.45132473 -0.89232981 0.010365421
0.33353096 0.012122954 0.051352739 -0.014725132 -0.44570667 -0.89505798 0.0131448
0.3442916 0.012681379 0.051121436 -0.013510465 -0.44619802 -0.89483225 0.010026786
0.35441533 0.014188789 0.050497044 -0.014544538 -0.47510064 -0.87981129 0.0099108638
0.36424112 0.012740022 0.051097143 -0.0013906304 -0.44179675 -0.8971141 0.013398771
0.37409264 0.013718921 0.050691672 -0.016838476 -0.46618637 -0.88452625 0.0097648753
0.38541663 0.013223492 0.050896883 0.004737075 -0.49581763 -0.86841375 0.0085390117
0.39693797 0.01215816 0.051338159 0.0070223087 -0.44720078 -0.89440602 0.011181801
0.40458012 0.013280157 0.050873414 -0.0051813829 -0.46325475 -0.88621002 0.013092722
0.41752926 0.012272158 0.05129094 0.0096346932 -0.47399515 -0.88047469 0.010330631
0.42568395 0.012064829 0.05137682 -0.0015602502 -0.42425054 -0.90554351 0.013655562
0.43480018 0.012605341 0.051152933 0.0018730094 -0.47905305 -0.87778395 0.0099109337
0.44501463 0.012795122 0.051074319 -0.010609049 -0.44353715 -0.89619315 0.012281302
0.45588416 0.012748711 0.051093541 0.023953011 -0.45957673 -0.887815 0.011022853
0.46403968 0.012533962 0.051182494 -0.005232526 -0.45909965 -0.88836938 0.012192718
0.47670704 0.013099668 0.050948173 -0.10611024 -0.47828716 -0.87176949 0.032276738
0.48545831 0.013679609 0.050707955 -0.23230785 -0.43971717 -0.86757237 0.058400758
0.49672538 0.013032106 0.050976157 -0.53509617 -0.4063614 -0.74063659 0.076082289
0.5 0.010649208 0.051176898 -0.57633781 -0.36538187 -0.73097932 0.078681603
-0.45075235 0.025528718 0.050757844 0.79246551 -0.11207505 -0.59953111 0.0046085129
-0.44670698 0.025430914 0.055999357 0.74032158 -0.097016886 -0.66521549 0.0056932103
-0.32052279 0.028503492 0.059429232 0.72655046 -0.055417944 0.68487465 0.034452233
-0.3161884 0.024950715 0.053211067 0.75606632 0.005467209 0.65447223 0.092559934
-0.44523895 0.035137232 0.056200467 0.74514091 -0.10731444 -0.6582163 0.0053291293
-0.31562057 0.035340246 0.054291938 0.76372683 -0.067740552 0.64197546 0.053065356
-0.44403118 0.04454818 0.05611705 0.73594421 -0.1114626 -0.667804 0.0040298118
-0.31420904 0.04540804 0.054226946 0.78876531 -0.13298361 0.60013723 0.030974494
-0.44268748 0.053968787 0.056207385 0.73669344 -0.0923393 -0.66989273 0.0040807268
-0.43971246 0.056460686 0.05961442 0.72156173 -0.095102675 -0.68578732 0.0033397719
-0.31390628 0.053965643 0.055330221 0.75874525 -0.10894677 0.64221203 0.0046785027
-0.44410434 0.066467978 0.052195005 0.77509326 -0.096554182 -0.62442589 0.0034662159
-0.4387944 0.067732088 0.058831923 0.71320385 -0.095448516 -0.69442779 0.0041050445
-0.31334198 0.064871237 0.056505781 0.74920833 -0.096901909 0.65520751 0.0051601655
-0.44271696 0.074979506 0.052500557 0.76719326 -0.1063718 -0.63253415 0.0036128659
-0.43645614 0.07949058 0.059798501 0.71290916 -0.092928313 -0.69507176 0.0040306514
-0.31212279 0.077641308 0.057161018 0.73164421 -0.10600637 0.67339396 0.0042292536
-0.30877292 0.076533727 0.052641302 0.76450342 -0.11460015 0.63435113 0.004367095
-0.44009697 0.082699865 0.054536007 0.75958782 -0.10369776 -0.64208496 0.003716653
-0.43772703 0.086036131 0.057014167 0.74578923 -0.091328263 -0.65989208 0.0050501437
-0.31219539 0.087407574 0.05896014 0.7049768 -0.10272295 0.70175189 0.0040969574
-0.30765688 0.082539156 0.052248619 0.75705743 -0.10978051 0.64405918 0.003935453
-0.44159007 0.093800627 0.05066948 0.80809343 -0.12158724 -0.57636929 0.0041626324
-0.43793949 0.093837902 0.055377476 0.77428538 -0.11027092 -0.62315524 0.0040486814
-0.31023681 0.097122073 0.058126952 0.72844517 -0.10677257 0.67673272 0.0045193173
-0.30762005 0.096974932 0.054721743 0.73958373 -0.10721713 0.66447008 0.0040485309
-0.44015899 0.10254371 0.050990969 0.80354196 -0.11107226 -0.58479333 0.0031235095
-0.43714619 0.10516855 0.054423545 0.77162248 -0.11490627 -0.62561595 0.0040899762
-0.31053847 0.10516804 0.059921503 0.68958253 -0.099001236 0.7174083 0.0028158736
-0.30669519 0.10695601 0.055270221 0.74411738 -0.10403572 0.65989846 0.0039466326
-0.43540034 0.11462083 0.05502782 0.75044417 -0.11457054 -0.65092784 0.0040848791
-0.30529273 0.1143405 0.054748423 0.748366 -0.10902944 0.65426368 0.0043102549
-0.4332923 0.12510818 0.055918999 0.7378732 -0.10174904 -0.66722572 0.0037982324
-0.30410281 0.12549256 0.055158902 0.74766743 -0.084987886 0.65861249 0.0044166278
-0.43323979 0.13465512 0.054319769 0.74282235 -0.11285587 -0.659908 0.0038496153
-0.30368766 0.13394618 0.056098919 0.74792492 -0.088306598 0.65788323 0.0045204731
-0.2989769 0.13644217 0.050450891 0.80704403 -0.10537571 0.58101279 0.0034662411
-0.43195945 0.14431611 0.054286405 0.74972016 -0.095903978 -0.65476882 0.0036302207
-0.42896065 0.14666453 0.057749171 0.72819698 -0.09294039 -0.67903697 0.004288455
-0.30202645 0.14382645 0.055678781 0.74788833 -0.095577747 0.65690792 0.0051586968
-0.29904822 0.14268103 0.051632416 0.78934801 -0.10507944 0.60488689 0.0040301206
-0.43206185 0.15512085 0.052267518 0.76148605 -0.097079441 -0.64087027 0.0037331253
-0.42843556 0.15532903 0.056914348 0.73672342 -0.099667974 -0.66880864 0.0040900698
-0.3024857 0.1555735 0.058323104 0.70611805 -0.093872659 0.70184416 0.0046633771
-0.29925501 0.15444016 0.053952828 0.75263464 -0.1019202 0.65050244 0.0040169484
-0.43096703 0.1679104 0.051448256 0.78673351 -0.10761095 -0.60784054 0.0052315113
-0.42769596 0.1641358 0.056331728 0.7347219 -0.093754388 -0.67185843 0.00497323
-0.30137679 0.16495021 0.058528285 0.71888816 -0.093287125 0.68883771 0.0041634641
-0.29704073 0.16551706 0.053027339 0.76159042 -0.10442898 0.63958943 0.0037696655
-0.43055588 0.17061797 0.0515064 0.78815109 -0.10418203 -0.60660034 0.0053936723
-0.42742491 0.17504586 0.054776788 0.75589865 -0.10607094 -0.64603883 0.0052575753
-0.30018008 0.17456639 0.058661908 0.71716928 -0.096248247 0.69022059 0.0045711142
-0.29833022 0.17428607 0.056223828 0.7408461 -0.094899304 0.66493696 0.0045167082
-0.42564648 0.18559581 0.055231407 0.74467504 -0.093971342 -0.66077864 0.004401905
-0.29643548 0.18565817 0.0557626 0.7542612 -0.01515215 0.65639961 0.018888801
-0.42572495 0.1964532 0.053234257 0.77010465 -0.10752451 -0.62879026 0.0042042127
-0.29370791 0.19665487 0.054160219 0.75733483 0.21597363 0.61627865 0.060887966
-0.42313954 0.20572589 0.054954033 0.73067772 -0.23020282 -0.64274162 0.024755469
-0.41882819 0.20875601 0.059992895 0.65340757 -0.27220336 -0.70637369 0.037413314
-0.29347655 0.2057492 0.055449441 0.67131799 0.5063929 0.54120094 0.091926686
-0.28974023 0.2053616 0.050556343 0.72617489 0.54474205 0.41943553 0.093917333
-0.42397767 0.21492633 0.052265134 0.73153865 -0.34048092 -0.59069782 0.052997347
-0.41899815 0.21536465 0.058619421 0.58889294 -0.48368594 -0.64749748 0.06922356
-0.36341068 0.21937414 0.054618802 -0.13488318 -0.99078065 -0.012655073 0.0008223218
-0.35574973 0.21833836 0.054063562 -0.13404426 -0.99097538 1.2200323e-05 1.1734398e-05
-0.34510848 0.21689959 0.055127032 -0.14188623 -0.98972857 -0.017484864 0.0004607517
-0.33471686 0.21549462 0.054071084 -0.17433539 -0.9803493 -0.092316873 0.013317045
-0.32544267 0.21424069 0.056862261 -0.23913752 -0.94225955 -0.23443586 0.051439676
-0.31488621 0.21281341 0.055101294 -0.26563358 -0.93698406 -0.22693534 0.047105484
-0.30356789 0.21128312 0.054422487 -0.4495399 -0.78268462 -0.43048644 0.096188456
-0.2977311 0.21049394 0.057097182 0.57128102 0.66816044 0.47665465 0.087288573
-0.42306647 0.22570743 0.051559463 0.53997153 -0.70743483 -0.45603365 0.079937443
-0.41725481 0.22536714 0.056491628 0.48824412 -0.70535636 -0.51389694 0.067976981
-0.40535685 0.22504547 0.054683253 0.17291093 -0.92972219 -0.32514378 0.066101991
-0.39433703 0.22355551 0.055709813 0.051753677 -0.95817202 -0.28147444 0.054612916
-0.38466871 0.22224832 0.054869454 -0.061131235 -0.98827213 -0.13993259 0.027417408
-0.3746126 0.22088869 0.055971649 -0.10189505 -0.99246287 -0.06807939 0.0084291687
-0.40137801 -0.22033107 0.062204964 0.081532843 0.98172557 -0.1719515 0.034912277
