# .PCD v0.7 - Point Cloud Data file format
VERSION 0.7
FIELDS x y z normal_x normal_y normal_z curvature
SIZE 4 4 4 4 4 4 4
TYPE F F F F F F F
COUNT 1 1 1 1 1 1 1
WIDTH 583
HEIGHT 1
VIEWPOINT 0 0 0 1 0 0 0
POINTS 583
DATA ascii
-0.20369048 0.033631612 0.34684348 0.99982208 -0.0081765102 0.0169983 0.00059457257
0.20369048 0.036366709 0.34643215 -0.99970692 -0.010975761 0.021576822 0.00081993936
-0.20369048 0.044878811 0.34394643 0.99324435 -0.068510532 0.093659103 0.008386394
0.20369047 0.04533127 0.34367165 -0.99293554 -0.059873093 0.10244154 0.0076337387
-0.20369051 0.054834928 0.34533167 0.98015082 -0.14283291 0.13748857 0.014436595
0.20369048 0.055935953 0.34643543 -0.97536039 -0.17770241 0.13074344 0.01634193
-0.20310524 0.066387005 0.34312147 0.87563425 -0.3775143 0.30124339 0.025952302
-0.19959895 0.069961272 0.3404941 0.77792925 -0.4760198 0.41016003 0.039466992
0.20344768 0.066283025 0.34464616 -0.893812 -0.33744502 0.29534894 0.024475353
-0.20210597 0.07212539 0.34739736 0.88931191 -0.38197789 0.25143033 0.025467373
-0.19657975 0.074766666 0.34183949 0.65883511 -0.59565163 0.45949468 0.037144084
0.19704729 0.075962611 0.34415957 -0.69494015 -0.58218014 0.42204803 0.03603594
0.20120177 0.073105477 0.34720212 -0.81227469 -0.4715232 0.34333029 0.039583996
-0.19231527 0.082826041 0.34540188 0.51297623 -0.74687052 0.4231309 0.036227889
-0.18439716 0.086793423 0.34550434 -0.30001611 0.81752151 -0.49157801 0.022000598
-0.17357838 0.086364001 0.34501991 -0.095228933 0.84787267 -0.52157778 0.0070670363
-0.16537416 0.086062841 0.34454677 -0.015992813 0.84318304 -0.53738868 0.0029632803
-0.15530246 0.086892039 0.3455272 0.00049046404 0.85195065 -0.52362186 0.0021771651
-0.14527987 0.08729814 0.34635806 0.0033307141 0.85154867 -0.52426499 0.002052878
-0.13581432 0.08626999 0.34488681 0.0018871337 0.84276384 -0.53828007 0.0021895648
-0.12595452 0.085604303 0.34392199 0.0055951555 0.83918226 -0.54382151 0.0026758886
-0.11516278 0.085458279 0.34372887 0.0011302329 0.83838475 -0.54507768 0.0025987728
-0.10322522 0.087143682 0.34603208 -0.0070076189 0.85093528 -0.52522373 0.0024391955
-0.094916627 0.085690714 0.34396157 -0.0011512141 0.83607578 -0.54861283 0.0026449901
-0.084065557 0.085572645 0.34387696 -0.0022309083 0.83381635 -0.55203748 0.0027258005
-0.077299573 0.087163977 0.34603724 0.0054302327 0.8569448 -0.51537961 0.0019168942
-0.064272545 0.087167054 0.3461723 -0.0042115021 0.85489649 -0.51878148 0.0028734517
-0.055432051 0.086476453 0.34519166 0.0059804395 0.85396433 -0.52029717 0.002191219
-0.044883102 0.086587705 0.34527802 -0.0046098446 0.8471086 -0.53139979 0.0028580218
-0.034309648 0.085707918 0.34405902 -0.0064492282 0.83491379 -0.55034304 0.0028484485
-0.024840895 0.085976608 0.34442309 -0.0036726329 0.83632261 -0.54822528 0.002645687
-0.015127232 0.086288653 0.34474084 0.0055290549 0.84895319 -0.5284391 0.0025467244
-0.0039218082 0.086941645 0.34597945 -0.0011709387 0.85464782 -0.51920676 0.0022485377
0.0028189938 0.085676715 0.34394336 0.006072531 0.83882517 -0.54436702 0.0023622597
0.015580763 0.08609993 0.34467652 -0.00041313274 0.84659129 -0.53224349 0.0025763903
0.02509388 0.086673319 0.34524214 0.0008402635 0.85247761 -0.52276301 0.001933689
0.035593815 0.086529315 0.3455472 -0.0017998916 0.85847163 -0.51285797 0.0026750669
0.044086784 0.087545432 0.34677935 0.010446594 0.86737406 -0.497547 0.0027137254
0.055311974 0.086672217 0.34548828 -0.0036596444 0.8550685 -0.51850224 0.0019167778
0.064931199 0.085550413 0.34395462 0.0070186411 0.83135891 -0.55569154 0.0029450436
0.074185327 0.08738666 0.34657678 0.001387135 0.8541072 -0.52009517 0.0019118596
0.084601015 0.086500525 0.34511435 0.0094535118 0.8451491 -0.53444701 0.0023946478
0.098071493 0.085462727 0.34372941 -4.9004888e-05 0.83837926 -0.54508728 0.0024853307
0.10459781 0.085944511 0.34434059 0.0087318709 0.83789897 -0.54575551 0.0026128853
0.11477324 0.08687938 0.3458308 -0.0068287873 0.85238099 -0.52287668 0.0018588409
0.12384348 0.085475706 0.34382823 0.0062821931 0.83883417 -0.5443508 0.0022774863
0.13647668 0.086391628 0.34518337 -0.0065243286 0.8541851 -0.51992816 0.0017634301
0.14717849 0.085906751 0.34424314 0.0020103434 0.84000629 -0.54257286 0.0028482513
0.15611595 0.08638186 0.34512159 -0.00075484329 0.84511453 -0.5345847 0.0024054942
0.16597676 0.084506057 0.34241769 0.019471228 0.83332807 -0.55243558 0.0031992164
0.17564978 0.086801194 0.34572077 0.13771486 0.84907925 -0.50999904 0.010231213
0.18471733 0.085463129 0.34388983 0.31559077 0.80885136 -0.4961471 0.026930423
0.1934993 0.082087792 0.34636396 -0.59194452 -0.68195498 0.42958012 0.036505476
-0.19055662 -0.090260401 0.35587227 0.50147122 0.77428663 0.38601398 0.035886921
-0.18446839 -0.091748364 0.35587227 0.35961309 0.85171086 0.38113919 0.019562256
-0.17662859 -0.091503173 0.3552056 -0.16564341 -0.88138688 -0.44240189 0.012868972
-0.16632634 -0.09119571 0.35446325 -0.03313766 -0.8993184 -0.436037 0.0045245262
-0.15337937 -0.091698773 0.35567775 -0.014276269 -0.91227865 -0.40932119 0.0037621681
-0.14475794 -0.092358761 0.35727111 -0.019284958 -0.90780234 -0.41895461 0.0040890989
-0.1353617 -0.091588125 0.35541064 -0.0058489246 -0.90165788 -0.4324106 0.0034802016
-0.12343553 -0.091883555 0.35612383 0.00066958647 -0.90669072 -0.42179561 0.003755437
-0.11502635 -0.091196261 0.35446462 0.0015310626 -0.90115124 -0.43350214 0.0031541246
-0.10428641 -0.091902353 0.35616922 -0.010283832 -0.90492189 -0.42545348 0.0029796101
-0.094777226 -0.092135064 0.35673109 0.0017055376 -0.9120965 -0.4099721 0.0039599203
-0.087907903 -0.091232844 0.35455292 0.0055425125 -0.90278459 -0.43005726 0.0039418149
-0.075428322 -0.091016687 0.35403109 -0.0098551037 -0.89002019 -0.45581466 0.0026902615
-0.064447396 -0.091702156 0.35568592 0.0098978886 -0.90655816 -0.42196482 0.0036931678
-0.055368219 -0.090628304 0.35309348 -0.00088744296 -0.89212084 -0.45179605 0.0027562096
-0.044821132 -0.091748834 0.35579863 -0.0020056646 -0.91170478 -0.41084099 0.0036156478
-0.03459692 -0.091837272 0.35601214 0.003752036 -0.90967584 -0.41530195 0.0035954802
-0.026021887 -0.091552362 0.35532436 0.002460991 -0.90606529 -0.42313087 0.0032706079
-0.015969219 -0.09106984 0.35415941 0.0058763502 -0.90889961 -0.41697359 0.0032700214
-0.0048357388 -0.091834053 0.35600436 0.011422343 -0.90967858 -0.41515586 0.003735109
0.0032915697 -0.091343254 0.35481948 0.010623945 -0.90476549 -0.42577761 0.0032915082
0.015324249 -0.091853522 0.35605136 -0.0080367001 -0.90908241 -0.4165388 0.0037657681
0.025408125 -0.091101885 0.35423678 -0.0089615323 -0.9006542 -0.43444422 0.0028433152
0.035464626 -0.091963895 0.35631779 -0.01528492 -0.91186678 -0.41020164 0.0031858881
0.046193022 -0.091938578 0.35625663 -0.015199726 -0.90961891 -0.41516551 0.0035659524
0.055332888 -0.091707066 0.35569781 -0.011764788 -0.9095425 -0.41544443 0.0034110015
0.064543411 -0.092244878 0.35699615 0.012868982 -0.90905309 -0.41648161 0.0038659121
0.074667007 -0.091349684 0.35483503 0.011933304 -0.89896446 -0.43785897 0.002878438
0.083542317 -0.091914535 0.35619867 0.004117541 -0.91492802 -0.40359607 0.0039313934
0.094538763 -0.091242887 0.35457715 -0.0055759605 -0.9071508 -0.42076865 0.0035159017
0.10522612 -0.091695175 0.35566911 -0.0078199748 -0.90169889 -0.43229377 0.0032541568
0.11722336 -0.09166611 0.35559893 -0.016479544 -0.90210843 -0.43119469 0.0031354513
0.12145638 -0.092342392 0.35723156 -0.00040266669 -0.91867626 -0.39501098 0.0032909245
0.13487823 -0.091409363 0.35497913 0.0066345804 -0.90725607 -0.42052636 0.003758536
0.14581257 -0.091652662 0.35556641 0.0060801064 -0.9071331 -0.42079994 0.0035420842
0.15439707 -0.091493525 0.35518226 -0.0038991291 -0.90707344 -0.42095447 0.0036750315
0.16568176 -0.09149728 0.35519135 0.011972745 -0.90229666 -0.43094936 0.0038573216
0.17587146 -0.092440315 0.35746798 0.15708172 -0.90624321 -0.39249024 0.011885321
0.18546131 -0.091033772 0.35430112 0.33847955 -0.85204816 -0.3993063 0.020986103
0.19031605 -0.091824092 0.35902441 -0.40819502 0.84370714 0.34861875 0.027832624
-0.20055859 -0.080075197 0.35719573 0.80519497 0.52124214 0.28278559 0.034076802
-0.19551772 -0.08429198 0.35431629 0.5780313 0.71995592 0.38411373 0.030015077
-0.18495214 -0.089656718 0.35074794 -0.29405469 -0.84399074 -0.44856605 0.020373091
-0.15370606 -0.089722969 0.35090783 -0.011147469 -0.87928307 -0.47616911 0.0029446213
-0.14104497 -0.089583382 0.35057086 -0.001455571 -0.88411766 -0.46726224 0.0030442954
-0.13335945 -0.089624651 0.35067049 -0.0030625942 -0.87414914 -0.48564804 0.0027662911
-0.11019332 -0.089727066 0.35091773 -0.00069690734 -0.87524503 -0.48367929 0.0028935517
-0.10590336 -0.089790642 0.35107124 0.0013128705 -0.87368608 -0.48648843 0.0028179663
-0.093630336 -0.089359328 0.35002998 -0.0059899124 -0.87179619 -0.48983213 0.0031621675
-0.080620259 -0.089571126 0.35054129 -0.0046995846 -0.87449259 -0.48501608 0.0029814641
-0.075798005 -0.089527875 0.35043687 -0.0043292809 -0.87414157 -0.48565185 0.0035634185
-0.06479755 -0.089789383 0.3510682 0.0084938565 -0.88098943 -0.47305974 0.0032297112
-0.054306746 -0.08954829 0.35048616 -0.0027774444 -0.87830281 -0.47809672 0.0031227914
-0.045669913 -0.089619942 0.35065913 -0.0033713495 -0.87713224 -0.48023713 0.0028597701
-0.031008817 -0.089602537 0.35061711 -6.2542662e-05 -0.88318801 -0.46901903 0.0025884921
-0.019233447 -0.089763716 0.35100624 -0.003154764 -0.88027853 -0.47444668 0.0033198288
-0.0049691591 -0.089518279 0.35041374 0.010345123 -0.87675023 -0.4808346 0.0031928392
0.0044084867 -0.089693867 0.35083762 0.0051149498 -0.87847263 -0.47776538 0.0029535396
0.037290849 -0.089399755 0.35012758 -0.0077331313 -0.88303983 -0.4692345 0.0026312082
0.04462368 -0.089864329 0.35124916 -0.012398505 -0.88938004 -0.45700046 0.0024255239
0.053806659 -0.089468189 0.35029277 0.0028114233 -0.87954408 -0.47580907 0.0029908738
0.068638906 -0.089792982 0.35107687 0.00065948477 -0.88065559 -0.47375655 0.0026036322
0.074612051 -0.08969295 0.35083541 0.012394199 -0.87947476 -0.47578403 0.0028001857
0.10682198 -0.089581959 0.35056743 -0.0094056362 -0.8873629 -0.46097565 0.0024409175
0.12318164 -0.089663714 0.35076481 0.0033159498 -0.88151884 -0.47213718 0.0031114493
0.13416249 -0.08973439 0.35093543 0.0051049911 -0.8795889 -0.47570714 0.0029863163
0.14479068 -0.089418247 0.35017222 0.003993676 -0.87643468 -0.4815042 0.0031557446
0.16534829 -0.089601137 0.35061374 0.0082966927 -0.87631643 -0.48166448 0.0029415584
0.17593677 -0.0898204 0.35114306 0.1575948 -0.8707009 -0.46587953 0.014397392
0.18296333 -0.089787215 0.35106295 0.26593897 -0.85774696 -0.43993938 0.021599479
0.19512294 -0.085060582 0.35514927 -0.64630753 0.68112028 0.34403735 0.033912022
-0.20246637 -0.075391866 0.35404116 0.89203894 0.37637505 0.25021642 0.029603712
0.19906653 -0.079327248 0.35183308 -0.77847677 0.54616642 0.30931559 0.042260967
0.20270997 -0.075854436 0.35452488 -0.88081378 0.41886473 0.22072472 0.025732446
-0.2036905 -0.064445026 0.35537279 0.97103471 0.20678781 0.1197094 0.020109009
0.20369045 -0.063672371 0.3556644 -0.97706187 0.177669 0.11740489 0.015186244
-0.20369051 -0.054774858 0.35654798 0.99711561 0.059646305 0.046934593 0.003738523
0.20369048 -0.054638445 0.35597596 -0.99364859 0.087865904 0.070300095 0.0070746685
-0.20369048 -0.046925854 0.35509011 0.99958366 0.021928973 0.018752744 0.0007120425
0.20369045 -0.044768643 0.35300097 -0.99955487 0.024752401 0.01665407 0.0008612622
-0.20369048 -0.035697758 0.35660449 1 1.2238384e-05 -7.8367091e-05 0
0.20369047 -0.035230078 0.35615659 -0.99999696 0.0016969895 0.0017868154 2.1271535e-05
-0.20369047 -0.022290811 0.3536886 1 1.3673889e-06 3.4219927e-05 0
-0.020495957 -0.020637235 0.35229149 0.70640379 0.70611829 -0.048894141 0.043982178
-0.015767181 -0.024044028 0.35503778 0.53074259 0.84745938 -0.011176966 0.028613718
-0.0044612354 -0.028419562 0.35601181 0.10589534 0.99421728 -0.017839169 0.036093354
0.0055340622 -0.028250229 0.35445979 -0.12218875 0.99184591 -0.036214478 0.031450871
0.015059317 -0.024326704 0.35428926 -0.53632152 0.84399509 0.0056173257 0.026224596
0.020387135 -0.020720597 0.35302445 -0.70351195 0.70925349 -0.045059215 0.038636275
0.2036905 -0.026005723 0.35358906 -0.99646509 -0.082695082 -0.014796718 0.010077315
-0.20369047 -0.015320433 0.35214055 1 8.1544049e-06 -5.9071732e-05 0
-0.024822116 -0.014458965 0.35513541 0.88331193 0.46878195 0.0018842196 0.037454341
0.024766998 -0.014490844 0.35598999 -0.78784513 0.61581022 0.0088247284 0.055381373
0.20369047 -0.015996881 0.35335472 -0.98402321 -0.17701124 0.019113362 0.056370065
-0.20369048 -0.0062805912 0.35384843 1 7.3124688e-06 7.4162373e-05 0
-0.028482927 -0.0043648672 0.35511369 0.99413604 0.10734445 0.013059979 0.032585286
0.028692726 -0.0030884363 0.3544414 -0.8328464 0.55279183 -0.028072231 0.15573567
0.036652237 -1.7621643e-08 0.35496137 -0.29104081 0.95501894 -0.056869842 0.19731741
0.044983748 -1.7621643e-08 0.35415706 0.0014538189 0.99996525 -0.0082016028 0.084560059
0.055668153 -1.7621643e-08 0.35585409 -0.0056792418 -0.99997443 -0.0043416056 0.011024151
0.064878412 -1.7621643e-08 0.35366255 1.2804491e-13 1 1.3874673e-11 0
0.073903307 -1.7621643e-08 0.35411429 2.5069465e-12 1 5.0259588e-12 0
0.08460556 -1.7621643e-08 0.3552407 1.0710889e-12 1 8.3781185e-12 0
0.097051166 -1.7621643e-08 0.35481793 3.7260928e-12 1 1.3994561e-11 0
0.10656004 -1.7621641e-08 0.35248023 5.0814674e-12 1 1.3840758e-11 0
0.11478683 -1.7621643e-08 0.35257813 3.2068252e-12 1 1.0374477e-11 0
0.12580164 -1.7621643e-08 0.35505223 4.1518785e-12 1 7.5992502e-12 0
0.13613324 -1.7621643e-08 0.35592541 6.8092866e-12 1 9.5012869e-12 0
0.14356025 -1.7621643e-08 0.3542316 4.5774795e-12 1 1.4423047e-11 0
0.15334043 -1.7621643e-08 0.35257006 5.8450844e-12 1 8.8383363e-12 0
0.16536266 -1.7621643e-08 0.35384467 7.0686642e-12 1 6.8017215e-12 0
0.17360659 -1.7621643e-08 0.35485858 -0.023805087 -0.9997161 -0.0010004324 0.0016503287
0.18258998 -1.7621645e-08 0.35452622 0.013058417 -0.99971664 -0.019902749 0.08340805
0.19430618 -1.7621643e-08 0.35378873 -0.99059725 0.022672921 0.13491873 0.30052632
0.203077 -0.0050195623 0.35459048 -0.94959641 -0.30408856 0.076136291 0.17984138
-0.2036905 0.0045862622 0.35591641 1 -2.1643793e-06 -4.4403649e-05 0
-0.02844106 0.0043949145 0.35454068 0.99475116 -0.099421099 -0.024199517 0.033371881
0.028068176 0.0068781502 0.35551351 -0.81642872 -0.57660335 -0.031187806 0.16695948
0.2036905 0.0059387269 0.35398638 -0.97162724 0.23647252 -0.004621271 0.14605543
-0.20369047 0.015068546 0.35466838 1 0 0 8.3944551e-06
-0.024486123 0.015039642 0.3545185 0.87301105 -0.48653284 -0.033727758 0.035742532
0.024563592 0.014945673 0.35495847 -0.78711462 -0.61677265 0.0064794007 0.055593543
0.2036905 0.0151317 0.35531351 -0.97017705 0.23778665 0.047052857 0.062634826
-0.2036905 0.026077408 0.35733879 1 -4.3329851e-06 -3.7071706e-05 0
-0.020286525 0.020797834 0.35422841 0.67049807 -0.74168128 -0.018469434 0.041277122
-0.015210328 0.024367655 0.35466835 0.54551417 -0.83780056 -0.022459891 0.029663185
-0.0032940605 0.028664969 0.35714403 0.17483467 -0.98447722 0.015407398 0.029005727
0.0051735435 0.028284751 0.35467747 -0.12959936 -0.99099356 0.033700898 0.035602689
0.015789371 0.023996491 0.35535973 -0.53923631 -0.84213448 -0.0058149677 0.026322775
0.020467639 0.020584123 0.35482225 -0.67877752 -0.73423845 0.012451755 0.03425825
0.20369048 0.025737334 0.35378772 -0.99707282 0.074694172 -0.016323777 0.010345845
-0.20369047 0.033081189 0.35548487 1 -9.0357462e-06 -3.15459e-05 8.0871132e-06
0.20369047 0.038005777 0.35768285 -1 -0 -0 0
-0.20369051 0.044258181 0.35512745 0.99970591 -0.019848946 0.013933922 0.00081456773
0.2036905 0.045975842 0.35359016 -0.99888968 -0.040905442 0.023372207 0.0025814264
-0.2036905 0.054513913 0.35382265 0.99406111 -0.08324527 0.070090763 0.0075389189
0.2036905 0.054914739 0.35521278 -0.99527222 -0.076757938 0.059509736 0.0067732879
-0.20369048 0.065367341 0.35410413 0.95626903 -0.2385278 0.16927509 0.023758434
0.20369051 0.065336816 0.35443673 -0.96032447 -0.23182175 0.15503433 0.021025119
-0.20341623 0.07406944 0.35666525 0.91810268 -0.34835684 0.18903683 0.025429161
-0.19897518 0.079957224 0.35280871 0.77216309 -0.55032218 0.31766281 0.044747464
0.19971156 0.079773031 0.35427192 -0.79250717 -0.53572303 0.29143316 0.042474691
0.20254898 0.076197572 0.35435808 -0.86765701 -0.43655968 0.23788016 0.032675881
-0.19541982 0.084088087 0.35365444 0.62335467 -0.69952434 0.34942043 0.026236158
-0.18743408 0.089448869 0.35024616 -0.38530967 0.81879312 -0.4255752 0.025559569
-0.16339026 0.089647844 0.35072654 -0.0081570428 0.87385732 -0.48611408 0.0028763528
-0.14637664 0.089666873 0.3507725 0.0028979573 0.8857038 -0.46424177 0.0032217533
-0.12519379 0.089966193 0.35149506 -0.0030795089 0.88356555 -0.46829742 0.002900461
-0.11131899 0.089950472 0.35145715 -0.003950296 0.8845306 -0.46646547 0.0025983385
-0.10399198 0.089653119 0.3507393 -0.0044722944 0.87995303 -0.47503969 0.0027079342
-0.082247376 0.089786038 0.35106015 -0.00061737897 0.88549978 -0.46463931 0.0028942539
-0.061071828 0.089578211 0.3505584 -0.0011950923 0.87789291 -0.47885561 0.0024624357
-0.052532837 0.089765489 0.35101053 -0.0025833629 0.88704574 -0.4616743 0.0026215995
-0.045458734 0.089931473 0.35141125 -0.0046756906 0.89072227 -0.45452395 0.0027559968
-0.024552379 0.089704491 0.35086331 0.0019672057 0.87881637 -0.47715616 0.0030005262
-0.013353077 0.089703441 0.35086074 -0.0082820132 0.88358867 -0.46819061 0.0030945786
-0.0022446066 0.089766175 0.3510122 -0.00020555848 0.88391298 -0.46765134 0.0031786703
0.0055757347 0.089759916 0.35099709 -0.0011300646 0.87901682 -0.4767895 0.0032482417
0.016753338 0.089785904 0.35105982 -0.0058904984 0.88294208 -0.46944505 0.0028899913
0.031036617 0.089728743 0.35092184 0.0054420168 0.8846314 -0.46625921 0.0024954362
0.045636021 0.089772016 0.3510263 0.00030084499 0.87773162 -0.47915259 0.0027727773
0.052579034 0.089648217 0.35072744 0.0046936809 0.88476175 -0.4660199 0.0029131423
0.075965397 0.089736916 0.35094154 -0.0019016325 0.88047427 -0.4740901 0.0034378718
0.09605398 0.089873724 0.35127184 0.00041980832 0.8780306 -0.47860444 0.0031490293
0.11018907 0.089842007 0.35119528 -0.005341942 0.88439673 -0.46670532 0.0025660223
0.12644425 0.089801952 0.3510986 -0.0033627986 0.8858819 -0.46389863 0.0022669092
0.13450676 0.089510411 0.35039479 0.0028223067 0.8804394 -0.47415036 0.0026631327
0.14731246 0.089732952 0.350932 -0.00236616 0.88419986 -0.46710277 0.0022875005
0.15609924 0.089564368 0.35052499 0.0034239185 0.87632817 -0.48170248 0.0029320477
0.1645235 0.08959195 0.35059157 0.01014333 0.87749732 -0.47947413 0.0028654439
0.18073969 0.089758046 0.35099256 0.21474977 0.85998964 -0.46292573 0.013488161
0.19514716 0.084840067 0.35467967 -0.61121142 -0.70327926 0.36306864 0.028668482
-0.18700373 0.091445878 0.35557455 -0.35267693 0.83922988 -0.41389883 0.020362461
-0.17523313 0.091582589 0.35539731 -0.1284087 0.9049691 -0.40563804 0.0091581661
-0.16230997 0.092123851 0.35670403 -0.0020321836 0.91956949 -0.39292219 0.0040138499
-0.15490685 0.091647908 0.35555497 -0.0097993556 0.90988195 -0.4147515 0.0041010217
-0.14244047 0.091142423 0.35433468 0.0021608351 0.90484518 -0.42573518 0.0030384429
-0.13442798 0.090991415 0.35397014 0.01209412 0.89206934 -0.4517366 0.0023028164
-0.12397 0.091803335 0.35593024 0.00035193723 0.9054237 -0.42450875 0.0035149718
-0.11546016 0.09185987 0.35606673 0.0069253482 0.90880162 -0.41717109 0.0037662336
-0.10436699 0.091915734 0.35620156 -0.0044377223 0.90870029 -0.41742563 0.0035828196
-0.09464924 0.091828868 0.3559919 0.0037614803 0.90784317 -0.41929311 0.0034256282
-0.084902383 0.09166874 0.3556053 0.0041866703 0.91095632 -0.41248146 0.0037171422
-0.072989874 0.091952384 0.3562901 -0.011707919 0.9110648 -0.41209701 0.0034624347
-0.064808249 0.091100857 0.35423428 -0.0086679123 0.90098107 -0.43377194 0.0029453698
-0.050775334 0.092649937 0.35797405 -0.00080675108 0.92100537 -0.38954911 0.0031020858
-0.044948004 0.091890045 0.35613954 0.0056506325 0.91450322 -0.4045392 0.0036897627
-0.034612004 0.091531366 0.35527369 0.0042936672 0.90549695 -0.42433092 0.0037237301
-0.025908867 0.091155089 0.35436526 0.00042899235 0.90254998 -0.43058494 0.0037850514
-0.016304865 0.091705486 0.355694 -0.0025987502 0.91214865 -0.40985101 0.0038088253
-0.0048168665 0.091578141 0.35538661 0.0050866627 0.9065091 -0.42215559 0.0038375668
0.0047781807 0.091770187 0.35585025 0.0081120208 0.90962261 -0.41535646 0.0032253242
0.013781518 0.09176591 0.35583985 0.006608957 0.90861315 -0.41758662 0.0039681662
0.026867758 0.091539048 0.35529223 0.0010679219 0.9092918 -0.41615769 0.0038524379
0.034910794 0.092018075 0.35644868 -0.0025775922 0.91355765 -0.40670103 0.0038307679
0.046087753 0.09115795 0.35437217 0.0030486654 0.89989597 -0.43609399 0.0032751721
0.05690429 0.091758102 0.35582104 0.0035105352 0.90896946 -0.41684788 0.0036924619
0.065200336 0.091870613 0.35609266 0.0003398897 0.90512663 -0.42514187 0.003716669
0.074379228 0.091168262 0.35439706 0.0068506831 0.90077931 -0.43422309 0.0031999554
0.0861286 0.09121006 0.35449794 -0.00010261296 0.89143145 -0.4531554 0.0025383553
0.093540817 0.091630235 0.35551235 0.00211559 0.89919966 -0.4375335 0.0034558701
0.10578523 0.091793858 0.35590732 -0.0025428585 0.90316755 -0.42928046 0.0034473408
0.11636187 0.092149459 0.3567659 0.00015850786 0.90366518 -0.42823967 0.0033862293
0.12664215 0.092000104 0.35640523 -0.0052123573 0.91048938 -0.41349968 0.0032073618
0.13761954 0.09170983 0.35570452 -0.0040750452 0.90780139 -0.41938061 0.0038107804
0.14520416 0.092281602 0.35708484 -0.0034567853 0.91283822 -0.40830699 0.0036308381
0.15470567 0.092102289 0.35665193 0.011862313 0.91713083 -0.39840981 0.0034198682
0.163624 0.092572428 0.35778692 0.010308625 0.91400456 -0.40557298 0.0031623475
0.17529093 0.092442453 0.35747319 0.13430759 0.90935212 -0.39375141 0.0099322237
0.18530282 0.092354275 0.35746023 -0.36234692 -0.85892719 0.36186847 0.022449505
0.19047081 0.091200732 0.35792044 -0.42179903 -0.83105934 0.36252716 0.025832798
-0.19241291 -0.092629984 0.36640197 0.51798254 0.80538094 0.28819373 0.037022717
-0.18330608 -0.095882289 0.36577743 0.29444608 0.90689892 0.30138969 0.022175666
-0.17369363 -0.095593035 0.36507913 -0.10134713 -0.94255066 -0.3183192 0.007772998
-0.16549221 -0.094169363 0.36164218 -0.0048521715 -0.93511605 -0.35430852 0.003389383
-0.15515277 -0.095996499 0.36605319 0.001468925 -0.95342243 -0.30163473 0.0022705994
-0.14564058 -0.095973246 0.36599702 5.0910097e-05 -0.95287049 -0.30337724 0.0021316847
-0.13412708 -0.094800144 0.36316499 -0.0053526661 -0.9473666 -0.32010615 0.0017260907
-0.12810431 -0.095662482 0.36524683 0.0014745181 -0.95218939 -0.30550483 0.001919762
-0.11359245 -0.095465817 0.36477202 -0.0012074978 -0.94654828 -0.32255989 0.0026149019
-0.1047805 -0.095377274 0.36455825 0.0015303839 -0.94991136 -0.31251559 0.0018729547
-0.094627075 -0.095604114 0.3651059 -0.009803419 -0.94765025 -0.31915966 0.0019224251
-0.083922848 -0.095688336 0.36530918 0.014179859 -0.95192796 -0.30599362 0.0022080147
-0.075310357 -0.095216423 0.36416996 0.0014642229 -0.94258046 -0.33397576 0.0032182755
-0.065814674 -0.094832309 0.3632426 0.0046190019 -0.94110423 -0.33808503 0.0027489765
-0.053540785 -0.09628097 0.3667399 -0.0035405867 -0.95690697 -0.29037321 0.0023813813
-0.046208318 -0.095215 0.36416653 0.0085984403 -0.94469589 -0.32783502 0.0018242099
-0.034989092 -0.09552449 0.36491367 -0.0049353908 -0.94728321 -0.3203595 0.0018753714
-0.023230216 -0.095890485 0.36579719 -0.0059576523 -0.95163977 -0.30715823 0.0021640297
-0.014888532 -0.095225111 0.36419091 -0.0068312967 -0.94082016 -0.33883733 0.0027079626
-0.0058214371 -0.095534138 0.36493698 0.0076655829 -0.95034492 -0.31110403 0.0019623854
0.0016879536 -0.095623888 0.36515364 -0.0024783788 -0.94884825 -0.31572288 0.0019346772
0.013165337 -0.095889591 0.36579505 0.0036704873 -0.95007235 -0.31200808 0.0020265123
0.025193078 -0.095558338 0.36499536 -0.0034590263 -0.94509751 -0.32677007 0.0019332734
0.034612615 -0.09571404 0.36537129 -0.0023402111 -0.94907612 -0.3150382 0.0021502234
0.045471814 -0.095875584 0.36576125 0.0013675573 -0.94365668 -0.33092329 0.0026813035
0.053852972 -0.095166415 0.36404923 0.0016115353 -0.94318581 -0.33226186 0.0024376696
0.066036634 -0.095787778 0.3655493 -0.0022793177 -0.95272827 -0.3038151 0.0023300408
0.073907033 -0.095176309 0.3640731 0.0075221616 -0.9421398 -0.33513582 0.0027805616
0.086280748 -0.094970323 0.36357579 -0.0080223605 -0.93810242 -0.34626505 0.0031492959
0.094641395 -0.094895229 0.3633945 0.0061766952 -0.93937045 -0.34284839 0.002793388
0.10711108 -0.095935993 0.3659071 -0.006715266 -0.95326388 -0.30206421 0.0023709191
0.11478075 -0.095363759 0.36452565 0.0032757844 -0.94583768 -0.32462358 0.0019717417
0.12418398 -0.095150627 0.36401111 0.0051988601 -0.93987465 -0.34148028 0.0027482428
0.13403419 -0.095290929 0.36434984 0.0048345998 -0.94320697 -0.33217052 0.0024581768
0.145028 -0.095680341 0.3652899 -0.0062633473 -0.95281774 -0.30347854 0.0017298348
0.15353782 -0.095835112 0.36566353 -0.0014159854 -0.95016485 -0.31174478 0.0018647144
0.16584003 -0.09589155 0.36579984 0.010633619 -0.95379984 -0.30025452 0.0027087801
0.17389806 -0.095411204 0.36464018 0.11380424 -0.93724513 -0.32957578 0.0099864127
0.18530014 -0.096091121 0.36657441 -0.32839939 0.89851642 0.29124227 0.024033101
0.19136617 -0.093518466 0.36583546 -0.46648446 0.83273858 0.298226 0.027834918
-0.20163096 -0.08116328 0.3626008 0.87199265 0.44115466 0.21215884 0.03733857
-0.19601345 -0.087950148 0.36443213 0.69851154 0.66358572 0.26783526 0.038096011
0.19516197 -0.088062994 0.36249882 -0.68626601 0.6890707 0.23285297 0.041138709
0.20087181 -0.082490392 0.36383805 -0.83783334 0.49957284 0.2201415 0.047510441
-0.20361161 -0.076949358 0.36453652 0.91067743 0.38521472 0.14925222 0.028919613
0.2036905 -0.074565299 0.36561424 -0.93588114 0.32211924 0.14270781 0.02794037
-0.20369048 -0.065178625 0.36350685 0.97802454 0.19577137 0.071705095 0.013826279
0.20369047 -0.064303227 0.36985505 -0.99422961 0.099159658 0.04092329 0.0060395752
-0.20369047 -0.054905474 0.36612344 0.99943179 0.031696063 0.011464872 0.00090136332
0.20369048 -0.054770701 0.36728269 -0.99911404 0.03702943 0.019999202 0.0015228384
-0.2036905 -0.044809178 0.36576378 0.9999997 0.00068984955 0.0004674377 0
0.20369048 -0.045007598 0.36729494 -0.99999976 0.00039616838 0.00056789414 0
-0.2036905 -0.034082729 0.36476374 1 6.8416948e-06 -3.3103497e-05 0
0.20369048 -0.035833407 0.36498472 -1 1.2694122e-06 -0.00010723995 0
-0.20369047 -0.023298878 0.36473083 1 2.4835185e-07 -6.1959821e-05 7.7638451e-06
-0.020507824 -0.020590931 0.36675918 0.70941275 0.7037341 0.038624547 0.041027896
-0.015422804 -0.024282314 0.36453736 0.5486002 0.83499897 -0.042598214 0.026237581
-0.0045193671 -0.028450191 0.36520532 0.10340723 0.99461728 0.0065978104 0.033691492
0.0041440749 -0.028500123 0.36386213 -0.14029607 0.99006957 -0.0089031188 0.030642536
0.014782106 -0.024634229 0.36500111 -0.51524335 0.85702902 0.0050474489 0.025470678
0.020729572 -0.020375451 0.36518845 -0.70428562 0.70981765 0.011862184 0.039478671
0.20369047 -0.025615329 0.36477816 -0.99655253 -0.082960717 0.00078148959 0.010050459
-0.20369047 -0.014534328 0.36334094 1 -3.9978772e-06 5.6938032e-05 8.4026233e-06
-0.023751337 -0.016243137 0.36457339 0.82616407 0.56158966 0.045495957 0.027051482
0.024782421 -0.014632107 0.36559504 -0.76361454 0.64558583 0.010572131 0.037815705
0.2036905 -0.015542246 0.36283535 -0.98703802 -0.15992209 -0.013450787 0.060020804
-0.20369051 -0.0041680792 0.36428162 1 2.4406279e-06 -3.4962708e-05 0
-0.028029593 -0.0067514996 0.36516422 0.98585528 0.16738147 -0.0085349176 0.034709085
0.028036419 -0.0069538397 0.36519986 -0.8033281 0.58686656 -0.10125051 0.1589244
0.034324899 -1.7621643e-08 0.36431724 -0.57121193 0.82056296 0.019832795 0.26019004
0.045147642 -1.7621643e-08 0.36575046 -0.00053852401 -0.99982786 -0.018544005 0.097577721
0.053407978 -1.7621643e-08 0.36348519 -0.0019938292 -0.99998474 -0.0051447102 0.011284539
0.064928629 -1.7621643e-08 0.36551636 2.470114e-12 1 1.3015401e-11 0
0.075929455 -1.7621643e-08 0.36491394 2.1944814e-12 1 1.1483426e-11 0
0.085338213 -1.7621643e-08 0.3661215 2.2616583e-12 1 3.52037e-12 0
0.09445896 -1.7621643e-08 0.36351767 1.9710795e-12 1 1.4748831e-11 0
0.10276918 -1.7621643e-08 0.36222547 3.674493e-12 1 7.8340555e-12 0
0.11589552 -1.7621643e-08 0.36483952 1.6436458e-12 1 8.2337505e-12 0
0.1256025 -1.7621643e-08 0.36505827 4.7019472e-12 1 1.5234976e-11 0
0.13449018 -1.7621643e-08 0.36507374 3.5758365e-12 1 1.3351788e-11 0
0.14513898 -1.7621641e-08 0.36911899 2.9486927e-12 1 1.3937888e-11 0
0.15512712 -1.7621645e-08 0.36494473 2.7028547e-12 1 1.2210056e-11 0
0.16679147 -1.7621643e-08 0.36479038 5.9307086e-12 1 1.2743201e-11 0
0.17655815 -1.7621643e-08 0.36532146 -0.0074433032 0.99996895 0.0025663588 0.0096860817
0.18439272 -1.7621645e-08 0.36359537 0.028117344 0.99875635 -0.041173335 0.094947815
0.19423319 -1.7621643e-08 0.36438167 -0.953345 -0.29104188 -0.080173828 0.26931158
0.20322186 -0.0042495588 0.36483189 -0.99320686 -0.11450822 0.020686217 0.13970502
-0.20369048 0.0050321794 0.36487183 1 2.1823901e-06 -4.1123993e-05 7.7746145e-06
-0.028455075 0.0041716793 0.36482579 0.99138206 -0.13020998 0.014382238 0.030676316
0.028463027 0.0044731908 0.36669388 -0.89707893 -0.42874688 -0.10689016 0.20693466
0.20369047 0.0047619157 0.36335343 -0.9853968 0.16724266 -0.031986952 0.14707921
-0.20369048 0.012234616 0.36720026 1 -2.9287332e-06 9.1522923e-09 0
-0.024800234 0.014307642 0.3649604 0.85240793 -0.52257234 -0.017855356 0.027554177
0.024016188 0.015849767 0.3658345 -0.75944752 -0.65050566 0.0090433061 0.040289134
0.2036905 0.013809644 0.36439061 -0.98377222 0.17915738 -0.0097341556 0.068936981
-0.2036905 0.02538367 0.364584 1 -3.7020541e-06 -3.7106031e-05 0
-0.020492541 0.020589501 0.36481613 0.7048775 -0.70907915 -0.018827623 0.045852598
-0.015303346 0.024296105 0.36511397 0.54322189 -0.8389532 -0.032673735 0.02720489
-0.0056035169 0.028191974 0.36619675 0.13498217 -0.99044764 0.028164959 0.030804083
0.0059653325 0.028138423 0.36539936 -0.12509403 -0.99190533 -0.021800909 0.035955008
0.014832737 0.024582935 0.36548427 -0.52737355 -0.8494814 0.016074842 0.024362611
0.20369051 0.025020223 0.363848 -0.99757868 0.069313869 0.0056784851 0.011229388
-0.20369051 0.033865239 0.36422548 1 -5.088451e-06 -6.5076158e-05 0
0.20369048 0.033624984 0.36366346 -1 2.9415767e-06 -3.7378133e-05 8.0740911e-06
-0.2036905 0.044987191 0.36430496 1 -4.000739e-06 -3.258479e-05 0
0.20369051 0.044161879 0.36662596 -1 -1.2413305e-05 -7.2425457e-05 0
-0.20369048 0.054592233 0.36632919 0.99952835 -0.024950271 0.017902421 0.0011702927
0.2036905 0.054867949 0.36604625 -0.99946821 -0.029704684 0.013451758 0.0011916844
-0.2036905 0.064750947 0.36595637 0.98922789 -0.12952514 0.068202227 0.0098764887
0.20369047 0.062962994 0.36244082 -0.98876196 -0.12726089 0.078450866 0.010137135
-0.20368259 0.075176515 0.36442372 0.92427242 -0.35442322 0.14179081 0.026568081
0.20369048 0.076073058 0.36506808 -0.92540658 -0.34942815 0.14670543 0.029266624
-0.20225908 0.081220157 0.36483607 0.89920801 -0.40868345 0.15621403 0.027786128
-0.19639981 0.088034034 0.36563563 0.71002173 -0.66341591 0.23611106 0.031512935
0.19648661 0.086593151 0.36238214 -0.67815048 -0.68830085 0.25759244 0.034695577
0.20160782 0.082610026 0.3660337 -0.85428488 -0.47725299 0.20597804 0.042028822
-0.19222793 0.092556685 0.36574581 0.52647108 -0.80787069 0.26490217 0.025222944
-0.18366523 0.095701456 0.36534095 0.27629638 -0.90856624 0.31331715 0.019189758
-0.17446646 0.095455408 0.36474693 -0.11293149 0.93927592 -0.32404792 0.0071699978
-0.16448712 0.09586288 0.36573064 -0.01205281 0.95057523 -0.3102603 0.0019574633
-0.15458812 0.09527611 0.36431408 0.012466534 0.94022936 -0.3403134 0.0028725311
-0.14609785 0.095475875 0.36479634 -0.0027542401 0.94785476 -0.31869069 0.0027798831
-0.13472685 0.095484532 0.36481723 -0.003944858 0.95032263 -0.31124145 0.0017048356
-0.12297944 0.095467791 0.36477682 -0.0011058695 0.9477632 -0.31897295 0.0019811576
-0.11488969 0.095979616 0.36601245 0.0021186247 0.95297319 -0.30304715 0.002780769
-0.1067653 0.095370971 0.36454308 -0.00020849497 0.94365013 -0.3309446 0.0026423642
-0.094654374 0.095684454 0.36529985 0.0034333423 0.94974715 -0.31299919 0.0018730669
-0.084560759 0.095757477 0.36547616 -0.0044374056 0.95088625 -0.30950877 0.0023380078
-0.074700572 0.09599223 0.36604288 0.0061129611 0.95222175 -0.30534631 0.0023940792
-0.064699359 0.095863946 0.36573318 0.0025940361 0.95243764 -0.3047227 0.0020361361
-0.055563521 0.095118664 0.36393395 0.0010144825 0.94877326 -0.31595621 0.0018949539
-0.044355381 0.095900126 0.36582059 -0.00022172858 0.94744897 -0.31990686 0.0018936152
-0.034257755 0.095637426 0.36518636 0.0077769272 0.9487378 -0.3159686 0.0019836253
-0.025066111 0.095520005 0.36490288 -0.0068381964 0.95056641 -0.31044626 0.0020747911
-0.013622806 0.096704505 0.36776242 -0.0090330914 0.95640379 -0.29190782 0.0024698596
-0.0039771344 0.09526623 0.36429024 -0.00046634514 0.94274402 -0.33351693 0.0023676404
0.0045856279 0.095387891 0.36458397 -0.00027849484 0.94107848 -0.33818802 0.0023454379
0.014651543 0.096062899 0.3662135 -0.00626997 0.95210505 -0.30570671 0.0022268302
0.027665252 0.095827445 0.36564508 -0.0049237143 0.94972026 -0.31306088 0.0017389577
0.034190957 0.094800562 0.36316603 0.0013105832 0.93808317 -0.34640756 0.0029974305
0.042974994 0.095683873 0.36529845 -0.0018677197 0.95291507 -0.30323127 0.0024877787
0.055283461 0.095470421 0.3647832 0.0086223586 0.95033765 -0.31110126 0.0021215824
0.064568616 0.096078947 0.36625224 0.0050270678 0.95110279 -0.30883357 0.0023377337
0.075029604 0.095686324 0.36530441 -0.0094239833 0.95208311 -0.3056941 0.0023217278
0.085346907 0.09579993 0.36557865 0.0066675693 0.95455229 -0.29796889 0.0024193767
0.09589906 0.095743895 0.36544335 -0.0047579193 0.94616193 -0.3236587 0.0029459863
0.10413221 0.095379181 0.3645629 -0.0023074222 0.94194829 -0.33574998 0.0027702956
0.11527415 0.094585404 0.36264661 0.0018081767 0.93439281 -0.35623997 0.0034483497
0.1245406 0.095102996 0.36389613 -0.0013230564 0.94147015 -0.33709368 0.002728347
0.13556276 0.095948219 0.36593664 -0.0037016908 0.95525676 -0.29575464 0.0024127827
0.14630143 0.095306508 0.36438745 -0.0030694795 0.95223385 -0.30535424 0.0023629826
0.15442565 0.095609106 0.36511797 0.0036446662 0.94700074 -0.32121065 0.0021175749
0.16339681 0.095280409 0.36432442 0.013882698 0.94303495 -0.3324039 0.0029354272
0.17334069 0.095514141 0.36488873 0.087564737 0.93617558 -0.34045205 0.0061552376
0.18391971 0.095616326 0.3651354 -0.33759302 -0.89039242 0.30533972 0.025612775
0.19269952 0.092770435 0.36748385 -0.4874756 -0.83544123 0.25378278 0.026528476
-0.19243133 -0.095576406 0.37575391 0.50962973 0.84705442 0.1509188 0.040186401
-0.18789694 -0.098456897 0.37414974 0.41273311 0.884332 0.21819344 0.030905992
-0.1754541 -0.098754101 0.37504691 0.13383569 0.96957141 0.20498618 0.0099629574
-0.16481327 -0.098945558 0.37612954 0.015538402 0.9743073 0.22468598 0.0030249788
-0.15416837 -0.098739609 0.37489638 0.003922455 0.97162795 0.23648188 0.0025625916
-0.14294837 -0.099142112 0.37762257 0.0052032475 0.97752899 0.21073668 0.0030831469
-0.13509978 -0.098521836 0.37370828 -0.0052740695 0.96807897 0.25058991 0.0018557324
-0.12606438 -0.098803706 0.37531132 -0.0039605098 0.9697603 0.24402715 0.0017030447
-0.11495319 -0.09854307 0.37379298 -0.00076596625 0.96821767 0.25010788 0.0019260905
-0.10502663 -0.098516747 0.37321874 -0.0017458053 0.96962291 0.24459833 0.0023793485
-0.095527135 -0.098522611 0.37329584 0.0024107439 -0.96497971 -0.26231346 0.0020684986
-0.085953198 -0.098917067 0.37615803 -0.0037405458 0.97318429 0.22999644 0.0034400972
-0.074268855 -0.098534718 0.37327412 -0.0026657276 -0.96623701 -0.25764105 0.0019173889
-0.06517344 -0.098821625 0.37518808 8.2293955e-06 0.97204989 0.23477402 0.0032289345
-0.054547559 -0.09882804 0.37537193 -0.0049991147 -0.96634209 -0.25721183 0.0019808658
-0.043701526 -0.098657139 0.37447369 0.0088792443 0.96885544 0.24746788 0.0024452317
-0.033333782 -0.098687053 0.37443408 -0.00034714682 -0.96596849 -0.25865966 0.0018225451
-0.024662642 -0.098825641 0.37552065 0.0003587789 0.97394902 0.22676677 0.0029202909
-0.014595404 -0.098758891 0.37499931 -0.0026951137 0.97156292 0.23676622 0.0025159218
-0.0046718884 -0.098914169 0.37589106 0.00078063412 0.97449565 0.22440501 0.0031781376
0.0040068072 -0.098493755 0.37377399 -0.0046519246 0.96860796 0.24854963 0.0018777624
0.015100366 -0.098477967 0.3737312 0.0010408292 0.96886081 0.24760377 0.001793257
0.024933176 -0.098613873 0.37377396 -0.0020907253 0.97024637 0.242111 0.0019696413
0.034250084 -0.098768935 0.37509194 -0.0053222608 0.9687928 0.24781466 0.002068263
0.044451598 -0.098895058 0.37574586 -0.0026728006 0.97048223 0.24115765 0.0024958372
0.053776901 -0.098726891 0.37481666 -0.0025851461 0.97054458 0.24090767 0.0026910661
0.066242233 -0.098389372 0.37292901 -0.0004599448 -0.96179914 -0.27375591 0.0023408222
0.077457167 -0.098640986 0.37454632 0.0019589534 0.96745551 0.25303367 0.0017963094
0.084430933 -0.098792918 0.37513912 -0.00094618497 0.97270006 0.23206405 0.0023827285
0.095621981 -0.098625503 0.37458718 -0.0094102565 0.9695226 0.24482131 0.0018355837
0.1053552 -0.098962933 0.37626138 -0.0013778529 0.97026205 0.24205311 0.0017370617
0.11488755 -0.098778002 0.37506431 -0.0011856786 0.96826416 0.24992633 0.0017769267
0.12645517 -0.098805852 0.37547818 0.0073661595 0.97099555 0.2389843 0.0023514596
0.13487563 -0.098784409 0.37529653 0.0026558945 0.97049642 0.24110076 0.0023162048
0.14596127 -0.099072158 0.37709114 0.0080204131 0.97762585 0.21019846 0.0033033106
0.15644109 -0.098522253 0.37347442 0.006463042 0.96777552 0.25173175 0.00176737
0.1635043 -0.098950557 0.37616745 -0.00091056945 0.97557098 0.21968247 0.003300433
0.17366397 -0.098516665 0.37376541 -0.099140048 0.96599823 0.23878582 0.0085235601
0.18531162 -0.09818437 0.37133503 -0.27060857 0.9356854 0.22641519 0.01784916
0.19390959 -0.093880609 0.37492964 -0.55146837 0.80835873 0.20600665 0.030587615
-0.20265929 -0.083237201 0.37520143 0.910999 0.40195405 0.092270337 0.031114843
-0.19983526 -0.088120624 0.37513551 0.78460962 0.60878515 0.1173382 0.048022777
0.19845578 -0.089395143 0.37579626 -0.72845405 0.66224879 0.17544584 0.04375644
0.20231462 -0.084683262 0.37543413 -0.89491892 0.42789516 0.12659344 0.027459588
-0.2036905 -0.074556269 0.37493101 0.96862835 0.24156646 0.058349963 0.016456835
0.20369047 -0.07247778 0.37267262 -0.97750241 0.201785 0.061415274 0.014115848
-0.20369048 -0.063771248 0.37508541 0.99730331 0.067939498 0.027756689 0.0041078944
0.20369048 -0.065118045 0.37623167 -0.99623269 0.080044448 0.033364814 0.0047319988
-0.2036905 -0.055451874 0.37530756 0.99985611 0.014713183 0.0084399134 0.00033910482
0.20369051 -0.05517083 0.37443486 -0.99972832 0.021410329 0.009217307 0.00055826013
-0.2036905 -0.045642477 0.37424612 1 9.0003268e-06 -7.5813136e-07 0
0.2036905 -0.044559572 0.37722272 -1 1.2676886e-05 -3.3628465e-05 0
-0.2036905 -0.035105687 0.3760106 1 1.325773e-05 -0.00010959911 0
0.2036905 -0.036406927 0.37450778 -1 -5.3306139e-06 -8.7272834e-05 0
-0.20369047 -0.024459546 0.3765547 1 -9.1398751e-06 -7.1781513e-05 0
-0.015190673 -0.024396591 0.37448171 0.51967025 0.85436672 -0.00051404617 0.02504226
-0.0055825096 -0.028322797 0.37499356 0.14425811 0.98953861 -0.001687467 0.03156187
0.0044768746 -0.028412919 0.37496006 -0.13130566 0.99111259 -0.021324627 0.029840861
0.015814481 -0.024042211 0.37430948 -0.53756309 0.84307355 0.015905142 0.028350312
0.02051609 -0.020526953 0.37503865 -0.70297861 0.71098542 0.017910348 0.039186753
0.20369047 -0.024085779 0.37501919 -0.99757367 -0.069504872 -0.0039816066 0.0093051586
-0.20369051 -0.014821578 0.37329891 1 4.37241e-07 -6.0059294e-05 0
-0.024628485 -0.014971239 0.37438637 0.88170445 0.47102916 -0.026994528 0.036240775
0.024008885 -0.015791696 0.37630069 -0.73565274 0.67696184 -0.023188245 0.037076097
0.20369051 -0.015561356 0.37396619 -0.98150569 -0.19119918 -0.0094574858 0.056419894
-0.20369051 -0.006829699 0.37485242 1 -8.1691866e-07 -3.7597863e-05 0
-0.028496409 -0.0039768531 0.37618294 0.99446195 0.10447288 0.011432701 0.034215499
0.028337467 -0.0049292678 0.3754884 -0.87607485 0.47959682 -0.049798016 0.19786903
0.035853401 -1.7621643e-08 0.37526241 -0.21780962 0.97557974 -0.028342215 0.24637516
0.045955919 -1.7621643e-08 0.37538317 0.0046825437 -0.99996364 -0.0071305535 0.086011253
0.053868521 -1.7621643e-08 0.3751345 -0.011775311 0.99992347 -0.0038015824 0.0096652368
0.064087719 -1.7621643e-08 0.37659943 1.9846156e-12 1 7.4187609e-12 0
0.074262813 -1.7621643e-08 0.37588778 1.9540762e-12 1 1.456848e-11 0
0.08381933 -1.7621645e-08 0.37282035 2.601691e-12 1 1.065802e-11 0
0.095197603 -1.7621643e-08 0.37534684 1.2364551e-12 1 7.2508228e-12 0
0.1055082 -1.7621645e-08 0.37578696 1.8067568e-12 1 -8.9431284e-14 0
0.11464027 -1.7621645e-08 0.37419823 2.1114963e-12 1 6.0224837e-12 0
0.12471335 -1.7621643e-08 0.37741077 6.4347399e-12 1 9.159274e-12 0
0.13491906 -1.7621643e-08 0.37468892 5.7961687e-12 1 8.1058779e-12 0
0.14426868 -1.7621643e-08 0.3749792 5.7376708e-12 1 9.4757049e-12 0
0.15506889 -1.7621643e-08 0.37560841 3.7198248e-12 1 1.0222692e-11 0
0.16354874 -1.7621643e-08 0.37541351 2.2745826e-12 1 2.2277308e-12 0
0.17331938 -1.7621643e-08 0.3763752 1.589285e-12 1 4.2466703e-12 0
0.18393588 -1.7621643e-08 0.37377724 -0.003972549 0.99996489 -0.0073792231 0.094173372
0.19745795 -1.7621643e-08 0.37613368 -0.990601 -0.068733603 -0.11825955 0.21515188
0.20302671 -0.0040362165 0.3744961 -0.96715599 -0.25284746 -0.026027953 0.16866779
-0.2036905 0.00369185 0.37459859 1 -2.2083917e-07 -1.9012647e-08 0
-0.028094856 0.0063420013 0.37471238 0.98347968 -0.17362393 0.05120983 0.029218983
0.028504711 0.0043431176 0.37540975 -0.919016 -0.39353511 -0.023230555 0.20720701
0.20369047 0.0049393531 0.3738426 -0.99048918 0.13327403 -0.034193438 0.13584076
-0.20369047 0.017796094 0.37373745 1 -3.9828601e-06 -6.0496276e-08 0
-0.024396667 0.014907642 0.37418446 0.88065183 -0.472101 -0.03966156 0.034766186
0.024898574 0.014369745 0.37617671 -0.75333339 -0.65758365 0.0085206134 0.040738907
0.2036905 0.015646799 0.37424988 -0.98290402 0.18411876 -0.00013940861 0.060008794
-0.20369048 0.023381151 0.37483934 1 1.0515334e-05 -9.6972202e-05 0
-0.020343289 0.020754352 0.37337643 0.71004993 -0.70192641 -0.055932581 0.042695723
-0.015817691 0.023980688 0.37585613 0.54202366 -0.84034067 -0.0061491644 0.027301732
-0.0056706653 0.028272837 0.374217 0.13460736 -0.9905436 -0.02653493 0.033513106
0.003451383 0.0286416 0.37570831 -0.10971347 -0.99374157 0.02099064 0.033560388
0.014917888 0.024535786 0.37504727 -0.55245954 -0.83303195 0.029089952 0.029062057
0.020797731 0.020286605 0.37463927 -0.71049839 -0.70362759 0.010010363 0.043612942
-0.20369048 0.033064805 0.37513342 1 2.1426372e-06 -0.0001185413 0
0.2036905 0.033713624 0.37369347 -1 -2.2728989e-06 -8.3473594e-08 1.6924414e-05
-0.20369048 0.045537442 0.37523079 1 5.0327167e-06 -3.609194e-05 0
0.2036905 0.045456585 0.37546015 -1 -1.1643408e-05 2.7623868e-08 0
-0.20369048 0.054400366 0.37566569 0.99995887 -0.0087641552 0.0023142316 0.00010576263
0.20369051 0.053858459 0.37374017 -0.99988866 -0.014297584 0.0042762957 0.00037787243
-0.20369048 0.063455261 0.37420729 0.99713272 -0.073345125 0.018625814 0.0048215562
0.2036905 0.06557706 0.37673038 -0.99679309 -0.07457377 0.029021833 0.0043099956
-0.20369048 0.074412145 0.37598348 0.98271984 -0.17706178 0.053952355 0.010950818
0.20369047 0.074807562 0.37244239 -0.95078063 -0.29158941 0.10484213 0.025962265
-0.20316502 0.083644569 0.37593085 0.91042256 -0.40249467 0.095544823 0.031054739
-0.19824131 0.089269422 0.37435395 0.72818828 -0.66072994 0.18214782 0.047989476
0.19770278 0.089011841 0.37137201 -0.72374892 -0.66642445 0.17906973 0.039992902
0.20177011 0.085964903 0.37547588 -0.80119324 -0.5897432 0.10145116 0.03800628
-0.19498812 0.092813917 0.37480703 0.59549749 -0.78380156 0.17617555 0.027608657
-0.18421632 0.099043682 0.37687492 0.33489951 -0.9223454 0.19266894 0.01833662
-0.17496948 0.0988921 0.37575451 0.12186588 -0.96627903 0.22683357 0.0093984026
-0.16368686 0.098533623 0.37307554 -0.0015072534 -0.96765023 0.25229096 0.0017769622
-0.15382357 0.099150747 0.37768817 -0.016285563 -0.97725117 0.2114591 0.0036227538
-0.14641427 0.098972596 0.37660575 -0.0046392181 -0.97612584 0.21715602 0.0032321583
-0.13547994 0.098642573 0.37421978 0.00193363 -0.9672153 0.25395051 0.0020543775
-0.12375097 0.098654792 0.37447488 0.0037524833 -0.96830285 0.24975085 0.0018729131
-0.11509739 0.098457098 0.37294209 0.0057118051 0.96674466 -0.25567982 0.0021215295
-0.1050695 0.098487735 0.37399948 0.006048115 -0.96883929 0.24761631 0.0020498759
-0.094690926 0.098712228 0.37465918 0.0027330129 -0.96743065 0.25312141 0.0019031113
-0.083113961 0.098888457 0.37576461 0.0054581547 -0.97524011 0.2210813 0.0027119
-0.076030448 0.098918654 0.37592521 -0.001046462 -0.97310644 0.23035336 0.0024790927
-0.064947799 0.098133504 0.37134019 0.0035587267 0.96173847 -0.27394611 0.0021020973
-0.054422036 0.098928563 0.37600043 -0.010208669 -0.97054964 0.24068494 0.0025799319
-0.045201909 0.099089496 0.3772229 0.004113561 -0.97610545 0.21725839 0.0031004946
-0.036506806 0.098736674 0.37492463 -0.0042997547 -0.96897906 0.24710555 0.0018076433
-0.022562156 0.098726757 0.37527561 0.0053484822 -0.97136277 0.23754106 0.0027316441
-0.014433865 0.098772585 0.37527063 -0.0076575577 0.96686852 -0.25515994 0.0019214117
-0.0036221351 0.098833904 0.37547418 -0.0019008953 -0.97035044 0.24169482 0.0026185762
0.0072485665 0.098800167 0.37502512 -0.0030368327 -0.96769261 0.25211462 0.0019164822
0.014334743 0.098841287 0.3756111 -0.00012455812 -0.97224408 0.23396882 0.0026099416
0.027159963 0.098672196 0.37420553 0.004468956 -0.96751517 0.25277334 0.0018790638
0.038663886 0.098499425 0.37274081 0.0017528503 0.96217477 -0.27242714 0.0026394161
0.043585628 0.098510779 0.37383971 0.0052503156 0.96503794 -0.26205784 0.0022796432
0.055456065 0.098738313 0.37509355 -0.0010854874 -0.96803832 0.25079989 0.0018052367
0.064260833 0.098938413 0.37665969 -0.0082722092 -0.97472113 0.22327192 0.0034123315
0.073914804 0.098665357 0.37450346 -0.0021721662 -0.9725787 0.2325637 0.002480902
0.083756045 0.098885462 0.37580091 0.0014336483 -0.97140199 0.23743656 0.0028563628
0.095578976 0.098536648 0.37360594 -0.0024295065 -0.96791506 0.25126603 0.0017701
0.10534048 0.098741807 0.37478822 0.0055893674 -0.97162575 0.23645751 0.0024257046
0.11484373 0.098805249 0.37540841 0.00086058729 -0.96934277 0.24571086 0.0020722605
0.12670012 0.098559625 0.37373447 -0.0076655797 0.96733034 -0.25340337 0.0017277371
0.13417815 0.098625138 0.37401414 0.0002766487 0.96598035 -0.25861531 0.0019049179
0.14566475 0.09849152 0.37329856 -0.0049644653 0.96565711 -0.25977242 0.0017522792
0.15402976 0.09860874 0.37392399 -0.0050975168 -0.96699703 0.25473651 0.0019153689
0.1646639 0.098804824 0.37564817 -0.018487927 -0.97187841 0.23475626 0.0032515393
0.17482537 0.098772451 0.37504005 -0.13183475 -0.96219617 0.23832364 0.010490453
0.18410672 0.098588258 0.37385973 -0.25033894 -0.94206023 0.22327769 0.016799983
0.19377023 0.094123714 0.37520361 -0.59772205 -0.78725433 0.15152201 0.03925598
-0.18637227 -0.1004253 0.38736936 0.33688325 0.93708438 0.091555983 0.01870778
-0.17617306 -0.10044704 0.3875345 0.12522437 0.9866423 0.10419096 0.010260536
-0.16482061 -0.10025375 0.38606626 0.017094998 0.9941839 0.1063301 0.0035158966
-0.15414371 -0.10051039 0.38801566 0.0040424005 0.99737412 0.072308838 0.0040526735
-0.14644845 -0.10050921 0.38800681 -0.018579932 0.99694169 0.075907908 0.0032956684
-0.1322789 -0.10018405 0.38553688 0.0010169004 0.99462402 0.10354753 0.0024235991
-0.12350448 -0.10036703 0.38692671 -0.0039926101 0.99599153 0.089358941 0.0035252324
-0.11325306 -0.10055055 0.3883208 0.010531011 0.99771541 0.066731252 0.0028976905
