# .PCD v0.7 - Point Cloud Data file format
VERSION 0.7
FIELDS x y z normal_x normal_y normal_z curvature
SIZE 4 4 4 4 4 4 4
TYPE F F F F F F F
COUNT 1 1 1 1 1 1 1
WIDTH 572
HEIGHT 1
VIEWPOINT 0 0 0 1 0 0 0
POINTS 572
DATA ascii
0.0024006208 -0.029834116 -0.01838693 0.25496316 0.91998196 0.29770285 0.026781252
0.035625525 -0.028485471 -0.013213485 -0.2991676 0.84219515 -0.44855997 0.044680163
0.045560759 -0.025554074 -0.016211761 -0.36425269 0.73619831 -0.5703789 0.036092751
0.054173946 -0.024148898 -0.015836373 -0.43089241 0.68061268 -0.59253538 0.029860757
0.061445117 -0.022491319 -0.014286398 -0.51155096 0.52893513 -0.67715812 0.039474797
-0.025303043 -0.013989127 -0.014417144 0.60517925 0.49125862 0.62643677 0.027589886
-0.016968925 -0.019383714 -0.018231133 0.58000594 0.60261697 0.54812956 0.028240599
0.048975423 -0.018973269 -0.010973745 -0.52689612 0.51717317 -0.67447186 0.038170815
0.056499355 -0.014764828 -0.013631804 -0.548482 0.41464806 -0.72610909 0.040161274
0.065232091 -0.015593216 -0.014602102 -0.57736504 0.38956434 -0.71755785 0.032336403
0.07185103 -0.012587043 -0.017603027 -0.60982841 0.31017146 -0.72931677 0.038669553
-0.031587504 -0.0028821065 -0.012639689 0.71424878 0.046839938 0.69832277 0.028925648
-0.027808715 -0.005008047 -0.01602261 0.69814008 0.1666982 0.69628453 0.025847198
0.058396816 -0.0041369246 -0.01204706 -0.5746814 0.13836609 -0.80659539 0.042296123
0.065387323 -0.0053141168 -0.015109564 -0.63282502 0.15792736 -0.75801808 0.035343036
0.072893374 -0.0049592201 -0.016314501 -0.64996892 0.11792697 -0.75075537 0.042317532
-0.032400463 0.004400576 -0.011472548 0.71829426 -0.12947747 0.68358529 0.030514216
-0.027377922 0.0048776204 -0.016390728 0.72476703 -0.11419034 0.67946541 0.027695315
0.058143683 0.006715118 -0.012069271 -0.60773361 -0.19822769 -0.76900303 0.038478136
0.062929101 0.0058384384 -0.016896149 -0.61347276 -0.18957897 -0.76662314 0.047605075
0.074291982 0.0040085064 -0.017536087 -0.65591109 -0.096606314 -0.7486307 0.037943553
-0.023326838 0.0145249 -0.016244916 0.62359154 -0.4786199 0.61810726 0.030268993
-0.018519241 0.017221337 -0.018871333 0.57982826 -0.54769051 0.60318673 0.021244178
0.049386956 0.017919105 -0.01024108 -0.49451891 -0.52323371 -0.69402993 0.035250742
0.056215852 0.015045257 -0.013123031 -0.55281085 -0.43582752 -0.71024966 0.045666039
0.063895419 0.014491243 -0.015219535 -0.5672915 -0.39811355 -0.72089255 0.030668031
0.071271479 0.012176526 -0.016782887 -0.61842215 -0.33029962 -0.71306103 0.032773096
-0.021915272 0.02086368 -0.011679135 0.53075683 -0.62366849 0.57387704 0.023016166
-0.015912602 0.022547198 -0.015607825 0.5296815 -0.65444905 0.53956831 0.021805592
-0.0047159428 0.028702652 -0.014664613 0.34352452 -0.86751258 0.35974008 0.026884526
0.0017450638 0.029673446 -0.018280283 0.24843237 -0.93773204 0.24277538 0.027442429
0.029167563 0.029757477 -0.010562862 -0.11460967 -0.95201284 -0.28378904 0.032970726
0.035999648 0.028376674 -0.013504654 -0.21996033 -0.88945985 -0.40059775 0.047809437
0.046357304 0.02480283 -0.015757522 -0.39353293 -0.72461039 -0.56574869 0.039749198
0.054520048 0.025281074 -0.015950561 -0.43538478 -0.66803873 -0.60346031 0.038264144
0.063141093 0.023147196 -0.016694039 -0.50644344 -0.54537499 -0.66789317 0.036973871
0.0041981908 0.031081734 -0.015013808 0.1681997 -0.97161859 0.16633171 0.02771195
0.014713826 0.032175999 -0.014760172 -0.0012406114 -0.99977541 -0.021157727 0.035350744
0.024000021 0.031754855 -0.015343391 -0.089834072 -0.97299445 -0.2126307 0.034662489
0.034041502 0.030261727 -0.017158475 -0.15036416 -0.9351635 -0.32071793 0.036505066
0.049724542 0.033790313 -0.01975048 -0.30383784 -0.83915108 -0.45111871 0.035942502
0.05406218 0.030932434 -0.018885553 -0.3821713 -0.73858315 -0.55537373 0.039010659
-0.012391983 -0.030528523 -0.0012233816 0.26235315 0.93245465 0.2483931 0.024175851
-0.0032382675 -0.031490251 -0.0052227164 0.20809267 0.95801663 0.19723472 0.034643527
0.0034889639 -0.032205716 -0.0024791476 0.056565579 0.99820834 0.01950508 0.02682789
0.017715244 -0.031011149 -0.005004656 -0.1668669 0.97083908 -0.1721247 0.032743007
0.02128543 -0.031525109 -0.0097882822 -0.14423785 0.97883791 -0.14516151 0.033605915
-0.031704992 -0.02055686 -0.0022220165 0.57495946 0.60800493 0.54749578 0.026952615
-0.023395509 -0.024671853 -0.004531478 0.46172988 0.75209826 0.4702698 0.022426248
-0.015847342 -0.028350709 -0.0045998371 0.32366812 0.89313883 0.3123171 0.025133127
-0.0097425878 -0.029687455 -0.0067444798 0.2404763 0.93605387 0.2568548 0.027154652
0.026815247 -0.028698146 -0.0051726606 -0.24209936 0.90750086 -0.34326398 0.036585953
0.035220318 -0.024333542 -0.0044107377 -0.40437627 0.73815411 -0.54000771 0.035157043
0.040106796 -0.023887478 -0.0081325471 -0.37259609 0.75900722 -0.53392905 0.040278148
-0.034364719 -0.015014728 -0.0046384842 0.60834539 0.51143414 0.60691923 0.028035903
-0.028231336 -0.01971915 -0.0066047199 0.55614382 0.61333722 0.56082225 0.0282642
0.044947498 -0.016053852 -0.004298538 -0.52589393 0.52847427 -0.66644615 0.035882115
0.052685756 -0.012631537 -0.0083237356 -0.55905324 0.34397149 -0.75441569 0.04274204
0.060203701 -0.015073095 -0.009271211 -0.56579447 0.38247281 -0.73047328 0.036378868
-0.04125924 -0.0041036303 -0.0027404926 0.70708841 0.0869807 0.70175511 0.029938851
-0.036997892 -0.0049282326 -0.0067597721 0.72433645 0.13984525 0.67511487 0.025217127
0.048186965 -0.0039753113 -0.0018071125 -0.62557727 0.1206671 -0.77077407 0.037873685
0.053394441 -0.0052311472 -0.0070756106 -0.59966099 0.20654996 -0.77313894 0.038748223
0.063564315 -0.0032045147 -0.0083213532 -0.59992236 0.10510265 -0.79312462 0.037554339
-0.041971192 0.0053096116 -0.001783053 0.70076853 -0.14125164 0.69926494 0.034331277
-0.037260603 0.0052509233 -0.006393271 0.70441234 -0.14546646 0.69472492 0.026453124
0.049211752 0.0070393905 -0.0034886322 -0.60155088 -0.19843636 -0.77379549 0.032356411
0.052709278 0.0054307706 -0.0066663949 -0.61589646 -0.1647777 -0.77040237 0.03544616
0.062501125 0.0038467944 -0.0077442471 -0.59731615 -0.11380267 -0.79389071 0.034259364
-0.033623263 0.014349306 -0.0060136113 0.62325543 -0.49021742 0.60929435 0.029344594
-0.027533367 0.018052127 -0.0091066789 0.56394613 -0.58722895 0.58062619 0.024398321
0.045913134 0.015396668 -0.0047252458 -0.52348518 -0.46606985 -0.71326172 0.038307115
0.054322395 0.012295066 -0.0088591259 -0.54952842 -0.36893395 -0.74960417 0.040596575
0.061151952 0.015504756 -0.0090896841 -0.57190388 -0.39339572 -0.71983737 0.034667317
-0.030468069 0.022756252 -0.0010726477 0.53639412 -0.66595733 0.51844198 0.027952192
-0.023753297 0.024371205 -0.0048279855 0.46763209 -0.72990358 0.49855903 0.028632969
-0.015662856 0.028245131 -0.0050952611 0.35665974 -0.85734493 0.37115151 0.032418747
-0.009671228 0.029589098 -0.0071519921 0.29651591 -0.91585982 0.27070114 0.028401885
0.026708813 0.028437521 -0.0043791756 -0.22701283 -0.92099327 -0.31660169 0.036348641
0.035880439 0.02390153 -0.0044191363 -0.39703757 -0.74799663 -0.53184777 0.036397226
0.041194268 0.022942856 -0.0077082296 -0.43144667 -0.66469222 -0.60994911 0.034624688
-0.013868591 0.030294158 -0.00054715574 0.22744776 -0.94421458 0.23817301 0.026155371
-0.0034928902 0.031463355 -0.0052671977 0.19235666 -0.96904075 0.1547869 0.029070964
0.0050509674 0.032154098 -0.0054716039 0.041198604 -0.9986437 0.031833678 0.020451078
0.014124605 0.031688988 -0.0050807004 -0.12253827 -0.98441911 -0.12610872 0.022204924
0.023027577 0.030550787 -0.0071315146 -0.16923665 -0.95843393 -0.22970282 0.030277483
-0.022032192 -0.030442512 0.0081231585 0.2508024 0.94295561 0.21893553 0.02090323
-0.014969113 -0.03121612 0.0045800186 0.19230109 0.96375954 0.18489945 0.027306492
-0.004426233 -0.032124992 0.0032918886 0.065155216 0.99520886 0.072898194 0.027489869
0.0054615834 -0.031591546 0.0045193955 -0.1348654 0.98329371 -0.12224927 0.024929695
0.012181686 -0.030924046 0.0019101109 -0.19660605 0.96197283 -0.18961608 0.027320886
-0.04060765 -0.022478804 0.0087662581 0.53052717 0.66917133 0.52033699 0.0246465
-0.034593415 -0.024183566 0.0060147671 0.46427378 0.74630016 0.47695473 0.024246056
-0.025788438 -0.027910767 0.0042994339 0.36160541 0.87564498 0.32013655 0.036682233
-0.018496629 -0.029820491 0.0024637897 0.2411672 0.93689013 0.25313088 0.022654064
0.016812654 -0.028627945 0.0054481006 -0.31071532 0.90032262 -0.30475423 0.037264701
0.024375206 -0.02424627 0.006334573 -0.4553113 0.76877332 -0.44908705 0.02235157
0.032593485 -0.020833787 0.0033892335 -0.52847278 0.61962003 -0.58033395 0.027562415
-0.045229141 -0.014842427 0.006119296 0.58144331 0.52329421 0.62296611 0.022259012
-0.038214523 -0.019358348 0.0029869385 0.53085279 0.61422247 0.58388871 0.026966443
0.036345676 -0.013813686 0.0060243779 -0.61092287 0.48170805 -0.62827587 0.037733585
0.042112947 -0.012062571 0.0013005547 -0.6247285 0.33296314 -0.70629305 0.036843285
-0.051639184 -0.004519464 0.0078112446 0.69268429 0.13568667 0.70836258 0.023335721
-0.046716053 -0.0064820512 0.0033167305 0.69454777 0.18222842 0.69598573 0.026232891
0.035577849 -0.0087336684 0.0097857388 -0.69013244 0.19696912 -0.69636232 0.029931819
0.042590342 -0.0070798844 0.0031272813 -0.64003164 0.18333848 -0.74615449 0.03812309
-0.048176873 0.0039333827 0.0042422763 0.70367908 -0.029147632 0.70991975 0.024785778
0.037967455 0.0066065388 0.0078279097 -0.65892136 -0.20417355 -0.7239722 0.024779607
0.043964591 0.0029609203 0.0025921669 -0.63571554 -0.057482868 -0.7697801 0.034347031
-0.043534193 0.015578648 0.004986038 0.6101442 -0.53629267 0.58319312 0.02090626
-0.038180597 0.018657204 0.0021918747 0.59598416 -0.56993616 0.56566405 0.022577882
0.029380504 0.018921111 0.0086780638 -0.59922284 -0.56188571 -0.57027763 0.026593855
0.036667548 0.014498089 0.0051028142 -0.60940933 -0.41772825 -0.67388678 0.037266102
0.041439764 0.013408073 0.0011856452 -0.57916737 -0.37341064 -0.72465837 0.031392794
-0.041543841 0.021107635 0.0082141571 0.53650886 -0.6561712 0.53065765 0.02917188
-0.034239843 0.023666302 0.0047606961 0.47755337 -0.73090893 0.48756012 0.025926115
-0.026461979 0.028050669 0.0052551725 0.37748232 -0.85611379 0.35295367 0.03362225
-0.018222086 0.029694961 0.0017603524 0.23885617 -0.93771476 0.25226724 0.023919083
0.01706453 0.027712289 0.007428539 -0.38489559 -0.84587973 -0.36924633 0.030032469
0.025785599 0.025479987 0.0032477137 -0.43276367 -0.8066932 -0.40244463 0.029292123
0.034192964 0.020178076 0.002501633 -0.53100294 -0.58895099 -0.60923946 0.038160495
-0.020291556 0.030924743 0.0080345068 0.20760897 -0.95471525 0.21311325 0.025658257
-0.013295778 0.031415038 0.0046929652 0.18608011 -0.96462184 0.18675898 0.030852836
-0.0064346595 0.032135978 0.0052387374 0.052338675 -0.99679756 0.060458038 0.029538034
0.0053295582 0.031669218 0.0039254623 -0.17117631 -0.97086686 -0.16767894 0.020787032
-0.023260742 -0.031605199 0.016411897 0.18869157 0.97534168 0.11447335 0.031750672
-0.015041146 -0.032197841 0.014528151 0.080460072 0.99446905 0.067509122 0.030380929
-0.0048552537 -0.031792905 0.013363034 -0.096667461 0.99249488 -0.074895248 0.024154069
0.0018928014 -0.030804688 0.013043076 -0.23065318 0.94873148 -0.21611947 0.031953733
-0.053263117 -0.020773757 0.019571479 0.56387252 0.61104667 0.55558056 0.033243477
-0.044919629 -0.023319725 0.014630969 0.52577394 0.67105567 0.52272934 0.020578885
-0.036312208 -0.028077222 0.015076726 0.34713405 0.88848782 0.30014548 0.029684575
-0.029526833 -0.02974562 0.013238356 0.24426059 0.94573516 0.21429358 0.021817863
0.0078521548 -0.028767539 0.014131981 -0.29923236 0.90428132 -0.3045246 0.032097422
0.015052259 -0.024144758 0.01615838 -0.48759753 0.7361117 -0.46945518 0.026365664
-0.061072178 -0.011681895 0.01979189 0.65637124 0.31544632 0.68532503 0.029246021
-0.054292906 -0.015709978 0.015749322 0.62806344 0.51481348 0.58352667 0.024196638
-0.047854662 -0.018981703 0.012218355 0.54878914 0.6179148 0.56303799 0.030279912
0.025022095 -0.015391842 0.016040873 -0.59499359 0.50997984 -0.62121105 0.02812322
0.031376936 -0.013083768 0.011417225 -0.60641629 0.4683716 -0.64256316 0.030235691
-0.060969323 -0.0036749719 0.016889773 0.72577524 0.12808754 0.67590219 0.023987496
-0.057515897 -0.0062280931 0.013944116 0.70240843 0.21889031 0.67728084 0.025055399
0.027416829 -0.0061844043 0.018445272 -0.70180929 0.13099556 -0.70021707 0.027550397
0.033277467 -0.0039005072 0.013089885 -0.70408863 0.071533717 -0.70649999 0.024531504
-0.062408842 0.007001196 0.019158784 0.6657719 -0.23875134 0.70692688 0.032603614
-0.056694351 0.0080591477 0.013661817 0.69167101 -0.23142442 0.68413019 0.036569748
0.027986562 0.0035340961 0.018475482 -0.7161302 -0.17610587 -0.67538452 0.020462075
0.033104766 0.0045207916 0.013107345 -0.69376177 -0.18742611 -0.69538915 0.023383968
-0.054155488 0.014991855 0.015128442 0.60763407 -0.51904738 0.60114104 0.026393112
-0.049817279 0.015280562 0.010645005 0.59764171 -0.51952082 0.61067379 0.021769967
0.019127699 0.01960225 0.018191742 -0.58466607 -0.57279736 -0.57451612 0.024456127
0.025442058 0.016693069 0.014850538 -0.61627156 -0.50083858 -0.60775816 0.029341595
-0.043587103 0.024261318 0.015109348 0.44778952 -0.77726048 0.44198492 0.02141819
-0.032644905 0.028960329 0.01403548 0.29401448 -0.91306788 0.28259957 0.028995102
-0.028857088 0.029642994 0.012217905 0.23862408 -0.94281173 0.23273285 0.024875212
0.0065456545 0.028372642 0.015633045 -0.27060944 -0.90118933 -0.33856809 0.033202384
0.015208686 0.024533551 0.015368742 -0.46642062 -0.7536391 -0.4631198 0.025617026
0.023262793 0.022585966 0.010622134 -0.51492804 -0.69890481 -0.49636802 0.025410581
-0.03067901 0.031110058 0.019140175 0.1816207 -0.96903759 0.16727251 0.026320599
-0.027770614 0.030913001 0.015474414 0.2172614 -0.94951159 0.22632982 0.02289479
-0.014828031 0.032127067 0.016172374 -0.018445989 -0.99861175 -0.049339123 0.02918491
-0.0043422263 0.03144956 0.015236818 -0.17283928 -0.97014868 -0.17011201 0.027826101
0.0023778621 0.030369174 0.014138256 -0.25604203 -0.94462264 -0.20525752 0.023678472
-0.034568999 -0.031201469 0.024569722 0.18291084 0.96751601 0.17451793 0.02700931
-0.025373137 -0.032195605 0.024592781 0.058382381 0.99714708 0.0478459 0.033153947
-0.014633255 -0.03152959 0.02514004 -0.14772521 0.97745848 -0.15083827 0.029633572
-0.0075930171 -0.030906081 0.022175858 -0.17582603 0.966034 -0.18937658 0.024677126
-0.054014813 -0.02334743 0.023508726 0.46693048 0.75450689 0.46118897 0.022325994
-0.043086749 -0.028873736 0.023972683 0.30338049 0.91466117 0.26712418 0.025390936
-0.038737547 -0.029374484 0.021181885 0.25976184 0.93534839 0.24009822 0.026048969
-0.0051738974 -0.029173544 0.025771871 -0.23949496 0.93551654 -0.25971338 0.026642252
0.0046853656 -0.024530742 0.025693061 -0.46784028 0.76212901 -0.44753194 0.025673311
0.012648468 -0.022498647 0.021505846 -0.51821655 0.67827582 -0.52095425 0.025438651
-0.065494679 -0.015419988 0.02679796 0.61163688 0.50566554 0.60844284 0.024232313
-0.058078289 -0.01837429 0.021782842 0.57914442 0.5989787 0.55300647 0.032183848
0.014806136 -0.01641418 0.025526527 -0.60274476 0.52926069 -0.59714472 0.027953442
0.021853065 -0.010810861 0.022293692 -0.65642887 0.30686018 -0.68915743 0.030366307
-0.066187888 -0.0052075069 0.022460559 0.69125116 0.12378123 0.71193397 0.022700815
0.018633727 -0.0028908481 0.027948057 -0.68402398 0.037207872 -0.7285099 0.024842624
0.023161819 -0.0072534378 0.022508707 -0.68194968 0.22466993 -0.69603735 0.028612904
-0.071150526 0.0029982675 0.026944924 0.70682758 -0.089828603 0.70165914 0.028029216
-0.067045808 0.0065024267 0.023616185 0.68599868 -0.20198894 0.69900376 0.029248551
0.017944776 0.0056806314 0.028040726 -0.71113467 -0.17174226 -0.68175662 0.023629807
0.023123967 0.0025707374 0.023517467 -0.69797534 -0.092646733 -0.71010351 0.022754291
-0.064421669 0.015221959 0.025461623 0.59213966 -0.51255113 0.62182146 0.024699418
-0.058326606 0.017814593 0.021423541 0.57146978 -0.5852024 0.57529157 0.034275681
0.0095406026 0.018810757 0.028637711 -0.59374815 -0.54393995 -0.59295225 0.028466562
0.015883397 0.015925771 0.024610294 -0.62282109 -0.4745675 -0.62199646 0.0288401
0.021833863 0.012259899 0.021464154 -0.6863656 -0.28967315 -0.66707706 0.025991047
-0.061388738 0.021633048 0.028629195 0.50721598 -0.67725068 0.53297621 0.02398546
-0.054041132 0.025203152 0.02688358 0.44336963 -0.79586864 0.41233039 0.019612085
-0.046250671 0.028013926 0.025332496 0.33613554 -0.89248043 0.30081829 0.033938929
-0.039065853 0.029250031 0.021084897 0.29405293 -0.9244141 0.24288157 0.030959994
-0.0037026657 0.028444935 0.026245309 -0.32130525 -0.89838105 -0.29945698 0.035884
0.0057583237 0.024266979 0.025455166 -0.45041645 -0.7682392 -0.45489955 0.023554929
0.011384957 0.021795569 0.023554448 -0.52683592 -0.65346575 -0.54353142 0.03326048
-0.041011911 0.030792156 0.02829662 0.22953984 -0.94939822 0.21437004 0.023833381
-0.034198515 0.031304438 0.024765268 0.20998271 -0.96079171 0.18107019 0.028569337
-0.023565708 0.032236896 0.026119538 -0.060298048 -0.9966951 -0.054433919 0.029423516
-0.014188409 0.031493649 0.025099926 -0.18119787 -0.96798056 -0.17372678 0.029653652
-0.0062237899 0.03072384 0.021528954 -0.21559264 -0.95419079 -0.20746037 0.024563044
-0.044322003 -0.031573851 0.035769761 0.16969503 0.97189003 0.16319728 0.025713867
-0.036070421 -0.032071613 0.03358756 0.080944173 0.99301118 0.085889317 0.02849286
-0.024856284 -0.031483158 0.035544507 -0.21325289 0.95766503 -0.19339281 0.024805728
-0.017635863 -0.03079102 0.032452777 -0.22227176 0.95461541 -0.19825406 0.028510759
-0.06391912 -0.024449436 0.035542961 0.47027168 0.73902768 0.48237187 0.023675425
-0.055800717 -0.027629431 0.0335651 0.41740856 0.81127828 0.40938693 0.027431114
-0.049511079 -0.029906251 0.033771068 0.21914479 0.94666845 0.2362083 0.025678903
-0.013207294 -0.028149413 0.036104906 -0.34106648 0.89006931 -0.30240774 0.037550181
-0.0044287997 -0.023824181 0.036022827 -0.470348 0.75028414 -0.46459287 0.024671782
0.00096783723 -0.02177128 0.033997551 -0.5365873 0.66279089 -0.52228558 0.030491125
-0.080332577 -0.012851462 0.039737429 0.64231265 0.38424218 0.66316855 0.028940521
-0.076043442 -0.015196149 0.037245646 0.62997216 0.4423784 0.63830751 0.028559336
-0.069410488 -0.019843917 0.034709826 0.54518735 0.61008716 0.57494718 0.030637933
0.0070227599 -0.014330655 0.035000574 -0.60156828 0.45358977 -0.65754992 0.033430293
0.01268186 -0.010366129 0.031725429 -0.68174118 0.26812336 -0.68068999 0.034556564
-0.082460336 -0.0041723452 0.038473397 0.68975365 0.12141205 0.71379203 0.02679774
-0.07579159 -0.0065075569 0.032393631 0.69983697 0.19055599 0.688416 0.024712764
0.0080340961 -0.0032719297 0.038476732 -0.70247656 0.035307232 -0.71083063 0.024413824
0.012029126 -0.0050550015 0.034102038 -0.6956234 0.07112097 -0.71487761 0.024955684
-0.081167877 0.0056489385 0.037455864 0.688806 -0.16959974 0.70482779 0.033599604
-0.076782078 0.0045779659 0.032870635 0.69805628 -0.14311618 0.70159477 0.022878498
0.0074674319 0.0079842657 0.038050465 -0.69139975 -0.21677212 -0.6891852 0.019629087
0.011791314 0.005872536 0.034224231 -0.69673508 -0.20292103 -0.68802857 0.027051594
-0.081280597 0.010969986 0.039583161 0.64767587 -0.37856579 0.66121393 0.038706828
-0.074999981 0.01327342 0.034651902 0.64115667 -0.45237255 0.61990094 0.031023167
-0.068177909 0.018804964 0.032349519 0.53923315 -0.62317079 0.56646782 0.026560497
-0.0025716554 0.019780941 0.039697193 -0.562949 -0.62167025 -0.54462337 0.030963346
0.0054519102 0.016478879 0.034817073 -0.60171956 -0.51735896 -0.60850096 0.027876707
0.010188484 0.013987139 0.032097705 -0.67422122 -0.40923601 -0.61477768 0.030204339
-0.07260213 0.020695951 0.038825721 0.55390745 -0.63204485 0.54194641 0.026792198
-0.065395482 0.023769213 0.036063813 0.45741218 -0.73687184 0.49778906 0.020863691
-0.055847332 0.027891219 0.034148853 0.36696807 -0.83633333 0.407285 0.024562465
-0.047206532 0.029792853 0.031079069 0.27509084 -0.91832507 0.28461218 0.033090424
-0.01586625 0.029154507 0.036529619 -0.27334544 -0.92363948 -0.26864937 0.028728914
-0.0048178169 0.024484266 0.035516948 -0.4672299 -0.73028851 -0.49837229 0.016004141
0.0020166598 0.021477364 0.033268038 -0.5534457 -0.63565791 -0.53817928 0.031267576
-0.050425772 0.031097107 0.038751721 0.18732172 -0.96282506 0.19462438 0.023279477
-0.044521868 0.031414919 0.035742328 0.16367437 -0.97333413 0.16072129 0.027930103
-0.036018007 0.032287709 0.035264447 0.046265107 -0.99880499 0.015751855 0.032790061
-0.022581343 0.031409677 0.033273194 -0.18215415 -0.97150165 -0.15167198 0.03091597
-0.018280812 0.030675402 0.033751346 -0.21341924 -0.95601732 -0.201204 0.02684818
-0.060956974 -0.030645858 0.047742248 0.23404957 0.94850224 0.21345814 0.024887193
-0.055275619 -0.031359609 0.045624219 0.19203414 0.96805084 0.16124643 0.024892544
-0.044122368 -0.032238904 0.044318028 0.024921441 0.9991926 0.031513803 0.031802293
-0.034954485 -0.031711295 0.044379052 -0.16342279 0.97782826 -0.13093811 0.031063307
-0.026919387 -0.030503443 0.042976886 -0.24009135 0.94503069 -0.22197533 0.027741585
-0.082608841 -0.021029519 0.049194742 0.54484302 0.61690414 0.56795716 0.030480357
-0.074442647 -0.024665363 0.046258222 0.45529056 0.75731534 0.46817088 0.026207339
-0.067297451 -0.026879845 0.043470766 0.3698788 0.84424567 0.38786456 0.024982017
-0.023720784 -0.028515965 0.046085764 -0.30843598 0.89687091 -0.31700128 0.032486744
-0.015142933 -0.025404882 0.043910202 -0.43782574 0.79949874 -0.41123027 0.027236357
-0.008400742 -0.021719757 0.04342204 -0.52690697 0.67699742 -0.51385158 0.021508861
-0.083792686 -0.015460289 0.045122933 0.60679895 0.46630865 0.6437012 0.029481368
-0.077418163 -0.018541556 0.041304223 0.58796197 0.56779116 0.57611954 0.032735415
-0.0050659268 -0.015195367 0.046229098 -0.64755106 0.46904635 -0.60056067 0.03178893
0.00080957729 -0.015573095 0.040547438 -0.62478435 0.46430731 -0.62774456 0.0263985
-0.092449926 -0.0038939766 0.048446991 0.6818617 0.097955361 0.72489262 0.032254055
-0.087496482 -0.0041393354 0.043503396 0.69560367 0.080898248 0.71385646 0.026463013
-0.0017308765 -0.005464959 0.047833342 -0.71327496 0.12863801 -0.68897843 0.027127797
0.0029333304 -0.0050972444 0.043185592 -0.69483787 0.10866845 -0.71090889 0.028674848
-0.091766141 0.0047142631 0.04788008 0.69328606 -0.13170794 0.70852488 0.029984176
-0.087036431 0.0059598717 0.043443657 0.69280052 -0.16176492 0.70275152 0.032989021
-0.0022767214 0.0073466455 0.04793743 -0.68587726 -0.21694624 -0.69462711 0.021914056
0.003416786 0.0060729631 0.042555824 -0.69761652 -0.1913266 -0.69045299 0.024712004
-0.090743132 0.010916006 0.049014077 0.65159208 -0.36077696 0.66728389 0.035872441
-0.084614649 0.014574403 0.045210049 0.60520697 -0.51388544 0.60798544 0.026176458
-0.078734986 0.018149076 0.042194884 0.5616228 -0.61127716 0.55760199 0.027701447
-0.010193839 0.019799951 0.047298744 -0.5590142 -0.60269839 -0.56943643 0.027186763
-0.0039136792 0.014974693 0.045356896 -0.5911603 -0.50670683 -0.6275171 0.029776739
0.0008804861 0.013402855 0.041626811 -0.65697122 -0.36531061 -0.6594975 0.038157433
-0.081506461 0.021651046 0.048766445 0.55133063 -0.65788192 0.51305544 0.027797438
-0.074555844 0.02433387 0.046113987 0.46439394 -0.74526238 0.47845823 0.021054612
-0.066474289 0.027017489 0.042689256 0.42945302 -0.79775655 0.42326656 0.030441653
-0.02513298 0.028976755 0.046330553 -0.2812182 -0.92395127 -0.25928822 0.033142421
-0.015016645 0.025583301 0.043590121 -0.4330264 -0.79450172 -0.42574066 0.028723452
-0.007987963 0.021443492 0.043246012 -0.55558991 -0.64125574 -0.52925497 0.028904291
-0.061576322 0.030147951 0.046661377 0.27895343 -0.92396945 0.2616592 0.024502726
-0.05687236 0.031462654 0.047839262 0.20829664 -0.95705903 0.20161997 0.028302254
-0.044674445 0.032274004 0.043576133 0.065862402 -0.99628651 0.055455294 0.028638383
-0.03521071 0.031755909 0.044155892 -0.14781155 -0.97358108 -0.17404518 0.025108641
-0.026910704 0.030789305 0.041992322 -0.2155285 -0.94829071 -0.23300685 0.029088737
-0.065497056 -0.031184435 0.05488148 0.19715172 0.95740366 0.21097265 0.029132469
-0.056015126 -0.032160755 0.054536697 0.074557133 0.99470145 0.070783459 0.028831499
-0.046085317 -0.031889476 0.053667877 -0.12012414 0.98711699 -0.10568934 0.026662728
-0.039198384 -0.030968698 0.053414792 -0.25357175 0.94329441 -0.2142359 0.027073223
-0.090509407 -0.020455685 0.056472611 0.54597318 0.61281902 0.57128453 0.03104277
-0.084957153 -0.023637412 0.055159915 0.47249275 0.75360447 0.45698023 0.023560964
-0.077128954 -0.027038753 0.053776931 0.41511375 0.81690252 0.40043831 0.034828395
-0.067200884 -0.029872004 0.051343929 0.22383919 0.94091427 0.25411877 0.023544274
-0.041004293 -0.029765442 0.059581425 -0.28774345 0.91314584 -0.28873584 0.022663968
-0.034542356 -0.028704481 0.056590967 -0.36228725 0.86117226 -0.35655332 0.032771453
-0.024674531 -0.024863137 0.05460339 -0.46170935 0.77183241 -0.43714899 0.024413038
-0.016869562 -0.021806026 0.051797241 -0.54945362 0.63750273 -0.5400843 0.028139764
-0.1001007 -0.01168832 0.058824174 0.66273934 0.37598717 0.64761883 0.031435288
-0.094073519 -0.01476761 0.054939836 0.64475518 0.42311752 0.63660216 0.033072468
-0.088080235 -0.017763726 0.051136959 0.60317403 0.54385054 0.58344465 0.032552082
-0.020984836 -0.018190628 0.059835799 -0.58152211 0.57301652 -0.57748079 0.023491118
-0.015086967 -0.016697964 0.05523622 -0.60152268 0.52642256 -0.60087413 0.030142251
-0.0076999678 -0.01323841 0.050424658 -0.66406024 0.39537582 -0.63458806 0.032850467
-0.10156194 -0.0081698634 0.058496337 0.70805395 0.24716428 0.66149026 0.028628536
-0.096790798 -0.0056003234 0.053139772 0.68611264 0.14293663 0.71331531 0.025777696
-0.011842474 -0.0066537852 0.057551742 -0.71453214 0.15726112 -0.68169838 0.02774018
-0.0065224753 -0.0030993808 0.05306543 -0.71299863 0.073464356 -0.69730628 0.02302013
-0.10121593 0.0036761623 0.057148799 0.70600164 -0.08742211 0.70279366 0.027673077
-0.097470909 0.0039623599 0.053472009 0.6944536 -0.11358838 0.71051526 0.024615033
-0.011139201 0.0050287535 0.057322931 -0.69186497 -0.16699257 -0.70245028 0.026213294
-0.0076999664 0.0036492464 0.054140568 -0.70089805 -0.10837351 -0.70498019 0.023484882
-0.10030071 0.012341905 0.059406951 0.65103841 -0.40673631 0.64087021 0.032084659
-0.094672248 0.014751026 0.055633027 0.62840903 -0.48153025 0.61092609 0.030986791
-0.085593611 0.019862518 0.050912801 0.57155788 -0.61920089 0.53843457 0.02795759
-0.014912689 0.015890703 0.055483159 -0.59044647 -0.51561701 -0.62089628 0.028193874
-0.0089602368 0.013113968 0.051757932 -0.6320532 -0.41371438 -0.65524751 0.031944782
-0.091586314 0.021072142 0.05821811 0.52948815 -0.64372957 0.5524984 0.024728617
-0.085806333 0.02372436 0.05622654 0.50006151 -0.73140025 0.46367243 0.029420756
-0.075136259 0.028482538 0.055124272 0.36500448 -0.85612172 0.36582425 0.033050157
-0.069243655 0.029286062 0.051385745 0.30728269 -0.90494919 0.2943539 0.032396406
-0.031770304 0.027971067 0.055805754 -0.36167341 -0.86166245 -0.35599175 0.034779508
-0.025183002 0.02487964 0.055142559 -0.46733782 -0.75807655 -0.45487946 0.023806766
-0.017981654 0.021698603 0.052806765 -0.54174167 -0.64817739 -0.53514671 0.031908326
-0.071507432 0.030593462 0.058113694 0.2397473 -0.93356395 0.26641995 0.028855855
-0.065993078 0.031180058 0.055500329 0.19576578 -0.95443988 0.22521189 0.031761941
-0.056457043 0.03206975 0.055018775 0.069640331 -0.99372125 0.087569535 0.032490417
-0.043380022 0.03161291 0.053669501 -0.12755707 -0.9824335 -0.13621122 0.03097776
-0.038293585 0.030636664 0.053896345 -0.24086176 -0.94277877 -0.23055126 0.026892036
-0.080984145 -0.030657051 0.06780763 0.24442263 0.93440592 0.25911996 0.022356348
-0.074767925 -0.031411599 0.065625392 0.19222103 0.96255672 0.19114314 0.028063683
-0.065977506 -0.031947564 0.064067237 0.095141172 0.99129331 0.091025129 0.030194104
-0.054863896 -0.031484596 0.065923475 -0.15452567 0.97473991 -0.16125739 0.030855622
-0.048667122 -0.030678125 0.06388212 -0.26706579 0.93359303 -0.23891382 0.02896007
-0.09405835 -0.024038061 0.065099381 0.48172754 0.74171507 0.46668765 0.029576862
-0.086066119 -0.027911412 0.064427882 0.37681532 0.85253054 0.3622179 0.027945874
-0.043153349 -0.028683264 0.064909086 -0.34723669 0.86517829 -0.36179164 0.035230335
-0.036232792 -0.025943482 0.064230345 -0.44533405 0.77260184 -0.45250854 0.025780108
-0.028474901 -0.022589345 0.06248688 -0.53942686 0.64932692 -0.53609073 0.02583242
-0.11119939 -0.010069365 0.068974487 0.67385364 0.27311182 0.68653566 0.025251158
-0.10452267 -0.015149031 0.065771222 0.63752896 0.45443127 0.62213266 0.030412402
-0.098768674 -0.018870715 0.063011929 0.5496968 0.60485393 0.57618153 0.031757012
-0.031051459 -0.019752333 0.068207726 -0.56724358 0.60415936 -0.55966628 0.029800151
-0.024107259 -0.01452824 0.065781966 -0.64193588 0.44772065 -0.6224665 0.03066721
-0.018931463 -0.012696589 0.061973549 -0.65318269 0.3655957 -0.66309279 0.029648181
-0.1124697 -0.0027343144 0.068214998 0.7163043 0.069410175 0.69432735 0.023859428
-0.10752299 -0.0044654231 0.063630968 0.71147788 0.1378323 0.68905842 0.02537591
-0.022140855 -0.0044833389 0.06842611 -0.67422324 0.13582586 -0.72592998 0.029364433
-0.01664634 -0.0063515119 0.062437464 -0.69585609 0.2293268 -0.68058324 0.028281974
-0.11160737 0.0048277183 0.067834228 0.70360434 -0.15561622 0.69334298 0.028346693
-0.10628192 0.005778335 0.062593989 0.69700795 -0.18826592 0.69190747 0.02592406
-0.021550607 0.0041930736 0.067889944 -0.70426393 -0.12005171 -0.69971418 0.024459317
-0.016258605 0.0040371395 0.062622041 -0.69301701 -0.11020757 -0.7124477 0.026063355
-0.10536823 0.014162336 0.065771662 0.62353408 -0.45246705 0.63755685 0.031547945
-0.098095737 0.018386019 0.061812744 0.57196915 -0.58952975 0.57035595 0.024922911
-0.03283146 0.019931525 0.069793589 -0.59015125 -0.57922333 -0.56233597 0.02578447
-0.02474474 0.014804814 0.066228084 -0.63391483 -0.45338017 -0.62657672 0.034571875
-0.017089054 0.011688797 0.060721621 -0.66601557 -0.33649075 -0.66573066 0.031704605
-0.094842494 0.024396777 0.066350028 0.48282376 -0.74535334 0.45970604 0.020375589
-0.085801169 0.027539777 0.063179031 0.38652328 -0.83479846 0.39206034 0.03468886
-0.078052267 0.02971652 0.06166419 0.28000763 -0.92502511 0.25675702 0.03144056
-0.043968104 0.028274834 0.06664519 -0.34754914 -0.87466896 -0.33788127 0.036573283
-0.033277493 0.02360726 0.065325297 -0.48805252 -0.72563237 -0.48503846 0.018102536
-0.027822558 0.022102926 0.062231697 -0.52491683 -0.68314004 -0.5077225 0.025226301
-0.08276552 0.030776422 0.069996491 0.26126978 -0.93315399 0.24690442 0.029056994
-0.073841304 0.031492192 0.065207332 0.18892835 -0.96421736 0.18598635 0.031671308
-0.065496273 0.032264583 0.064966902 0.076355897 -0.99321866 0.087672092 0.032568719
-0.056743152 0.031797256 0.065317973 -0.15786059 -0.97614759 -0.14905016 0.028438812
-0.047811512 0.030443601 0.064073451 -0.23413649 -0.94363457 -0.23395264 0.027856687
-0.08454524 -0.031350892 0.074977539 0.236246 0.94308889 0.2340325 0.025752421
-0.075937785 -0.032177806 0.076293714 0.046061438 0.9988367 -0.014270749 0.030688662
-0.065932147 -0.031665754 0.075312115 -0.16176078 0.96871281 -0.18822592 0.031847738
-0.056257054 -0.030625347 0.071549587 -0.2312558 0.93548036 -0.26720271 0.025318172
-0.11165031 -0.021351211 0.078585297 0.55746788 0.6237967 0.54782063 0.027688833
-0.10453412 -0.02464238 0.076471396 0.45121416 0.76224661 0.46409675 0.021330019
-0.09638942 -0.0280829 0.075474553 0.33589253 0.86982507 0.36135933 0.028016776
-0.08896175 -0.029334761 0.071270466 0.32508177 0.89761478 0.2976737 0.026854483
-0.054078862 -0.029506475 0.073540136 -0.27855694 0.90677559 -0.31648701 0.02706676
-0.043395098 -0.025072206 0.072997615 -0.44060513 0.77602857 -0.45127246 0.025912438
-0.039151542 -0.022182649 0.073475659 -0.54996961 0.63453674 -0.54304379 0.030100292
-0.1137694 -0.015640588 0.075230099 0.62250972 0.50252944 0.59995484 0.026504913
-0.10899974 -0.019167842 0.073565423 0.579261 0.57202637 0.58072579 0.027301645
-0.041212179 -0.019441359 0.078705907 -0.58860683 0.56855261 -0.57470858 0.024900863
-0.034528226 -0.015097816 0.075895198 -0.62043226 0.46859381 -0.6288749 0.029801117
-0.027997682 -0.013482758 0.070579223 -0.64582443 0.39428815 -0.65379477 0.032117009
-0.12329767 -0.0038311754 0.079247192 0.68183887 0.11284611 0.72274584 0.028227078
-0.11703686 -0.0043339343 0.073080003 0.7077173 0.15114859 0.69013786 0.024209322
-0.03225448 -0.0043329503 0.078567728 -0.70465058 0.13086776 -0.69738173 0.027356936
-0.02706001 -0.0066296249 0.072753519 -0.67812383 0.1962899 -0.70825022 0.030228084
-0.12189311 0.0046005403 0.078025147 0.70051634 -0.12944575 0.7017982 0.030591717
-0.11729512 0.006231817 0.073758103 0.6955381 -0.17275502 0.69741118 0.027639354
-0.031897191 0.0064386488 0.07768631 -0.70746469 -0.12875018 -0.69492239 0.026396515
-0.026749238 0.0049582548 0.072898716 -0.68685591 -0.13250363 -0.71461296 0.032055434
-0.12028144 0.011820398 0.079082169 0.65407902 -0.36470431 0.66270012 0.027868392
-0.11346308 0.016092842 0.075210869 0.609685 -0.52007556 0.59816849 0.023391193
-0.10897964 0.017271819 0.071498804 0.58924639 -0.53869528 0.60215944 0.024336418
-0.040639229 0.018927343 0.078691036 -0.58816141 -0.56734151 -0.57635909 0.026093716
-0.036325034 0.015521235 0.077243418 -0.62225193 -0.5041036 -0.59890085 0.030087372
-0.027551109 0.011226628 0.071454413 -0.67268389 -0.32183903 -0.66627026 0.029282924
-0.11015065 0.020642107 0.076315805 0.54294682 -0.62880945 0.55660349 0.026704665
-0.10390397 0.023780869 0.074419029 0.4830147 -0.71611196 0.50386554 0.024824705
-0.09589605 0.028123019 0.074830197 0.34963703 -0.87980312 0.32202536 0.031667408
-0.08715421 0.029850848 0.071224801 0.27467936 -0.93636185 0.21858095 0.028433576
-0.053114038 0.028337618 0.075788848 -0.30642566 -0.9008947 -0.30739582 0.032247849
-0.044696398 0.024893567 0.074546993 -0.45048216 -0.7787022 -0.4366791 0.02564615
-0.036401384 0.021459999 0.071704924 -0.57371682 -0.62996185 -0.52344728 0.027363969
-0.092631586 0.030598052 0.07925351 0.22319964 -0.95011359 0.21786688 0.026610482
-0.085303716 0.031056212 0.074570052 0.23177844 -0.95779794 0.1700054 0.032716319
-0.074795239 0.032105245 0.073822454 0.070329681 -0.99418926 0.081494465 0.028336763
-0.066770799 0.031621508 0.07677038 -0.18027617 -0.97316951 -0.14297448 0.029495522
-0.058325302 0.030793091 0.073393948 -0.22006473 -0.95178419 -0.21372466 0.025133342
-0.10055806 -0.030920377 0.088280626 0.2188153 0.9548775 0.20082034 0.022985354
-0.094600625 -0.031449534 0.085500769 0.19176666 0.96795243 0.16215292 0.028868577
-0.083018094 -0.03228581 0.08372286 -0.022410892 0.99959683 0.017434664 0.031713463
-0.074483357 -0.031396363 0.084977895 -0.18328142 0.96291608 -0.1979914 0.03313053
-0.069449067 -0.031517521 0.081027627 -0.21354435 0.95307982 -0.21456409 0.02838178
-0.12153007 -0.021469289 0.088593192 0.56945604 0.63241136 0.52514344 0.030610893
-0.11460094 -0.024433259 0.086263835 0.46972734 0.75422543 0.45880303 0.027767893
-0.1055611 -0.028008576 0.084506586 0.32453632 0.89415449 0.30848658 0.02812154
-0.062549904 -0.028333344 0.085344568 -0.33109662 0.8580333 -0.39262447 0.034581069
-0.054276172 -0.02487305 0.084434025 -0.42576587 0.77966446 -0.4591805 0.02300795
-0.04703369 -0.021542694 0.082218461 -0.51675421 0.66022664 -0.54503751 0.023856623
-0.12587735 -0.015061515 0.08694052 0.60353971 0.4669559 0.64629102 0.031980291
-0.11843448 -0.018716697 0.082510598 0.55982649 0.59105003 0.58073574 0.030943163
-0.045083813 -0.016222723 0.085501067 -0.61498684 0.52325976 -0.58990711 0.028508995
-0.038065143 -0.011950982 0.081544019 -0.65157211 0.37822539 -0.65757078 0.031480413
-0.13128452 -0.0044831657 0.087355457 0.69361091 0.12931682 0.70864737 0.030299198
-0.12845656 -0.0036635313 0.084467553 0.71481353 0.084429987 0.69419968 0.032771245
-0.041632608 -0.006248781 0.087535061 -0.68942916 0.14759533 -0.70915657 0.025870292
-0.037642926 -0.0060836626 0.083584204 -0.70318884 0.13639674 -0.69779754 0.0267669
-0.13162455 0.0054936912 0.087883629 0.70566845 -0.13803262 0.69496691 0.03291316
-0.12779164 0.0057595856 0.084158242 0.69428235 -0.17072602 0.69915998 0.027261352
-0.041951489 0.0078258887 0.087558433 -0.70354205 -0.2142493 -0.67758816 0.026353901
-0.036627229 0.0047066184 0.082795091 -0.70986336 -0.13714933 -0.69085753 0.031355195
-0.12509903 0.014617924 0.085881375 0.61602741 -0.48555374 0.6202805 0.027283078
-0.11780553 0.019113142 0.082311556 0.56663007 -0.61464888 0.54875964 0.028788136
-0.05089324 0.018130537 0.089809686 -0.58843517 -0.5722236 -0.57123047 0.0266451
-0.045422461 0.016138988 0.085818917 -0.60268319 -0.51696342 -0.60788298 0.028724592
-0.037850026 0.012212443 0.081175841 -0.66723961 -0.3327921 -0.66636384 0.030508839
-0.12222297 0.021221025 0.089016318 0.54491675 -0.62708044 0.55662894 0.027447747
-0.11413208 0.024810649 0.086440675 0.44596833 -0.76231796 0.46902409 0.024483666
-0.10508057 0.028299117 0.084411606 0.36863723 -0.86030722 0.35210523 0.03547287
-0.071070865 0.029901691 0.089183025 -0.25819975 -0.93647772 -0.23736541 0.028907837
-0.06504868 0.029003145 0.08620625 -0.29106084 -0.91370118 -0.28360853 0.030247187
-0.055712711 0.025510121 0.084480867 -0.4374598 -0.78017908 -0.44715717 0.023540195
-0.049074959 0.020754835 0.085143693 -0.55211431 -0.61512166 -0.56284553 0.03102131
-0.1022089 0.030292504 0.087787524 0.25728491 -0.94531375 0.20046541 0.027463078
-0.09569703 0.031244712 0.085883312 0.17274264 -0.96889895 0.177186 0.026565183
-0.084318511 0.032305703 0.085146599 -0.050060146 -0.99514067 -0.084787965 0.03004954
-0.075706422 0.031918313 0.082981125 -0.13031651 -0.98542511 -0.10933838 0.02913096
-0.06662602 0.030755376 0.081823409 -0.23116568 -0.95073575 -0.20655289 0.025553521
-0.11153372 -0.030443341 0.097627513 0.231768 0.94440842 0.23318754 0.023722785
-0.10272308 -0.031623635 0.095393874 0.17260984 0.97026235 0.16969596 0.029716613
-0.095985845 -0.032107554 0.093102545 0.086656831 0.99382925 0.069239169 0.027418707
-0.084350765 -0.03179111 0.092725568 -0.16798678 0.97435999 -0.14967652 0.028111355
-0.077510677 -0.03069903 0.092900343 -0.25783741 0.9455412 -0.1986749 0.029324764
-0.12546188 -0.022974469 0.094735958 0.53149778 0.67676854 0.50940591 0.031629924
-0.11448841 -0.028226759 0.093621969 0.38214356 0.86299288 0.33046877 0.042623308
-0.07306724 -0.028011367 0.096784167 -0.37764665 0.84487009 -0.37891629 0.03013627
-0.064008832 -0.023376239 0.096507579 -0.50995994 0.69922066 -0.50103033 0.024001714
-0.057558272 -0.021985272 0.092291437 -0.52019131 0.66695851 -0.53344858 0.028582206
-0.14007807 -0.010591444 0.098159 0.66436857 0.28819287 0.68960804 0.026496356
-0.1344981 -0.014549017 0.095315367 0.61954737 0.46142736 0.63501644 0.027918987
-0.12793058 -0.017593114 0.090787441 0.59697151 0.54465187 0.58904964 0.021885548
-0.061158907 -0.018288728 0.09990342 -0.60460049 0.54309934 -0.58266741 0.031195054
-0.054111272 -0.014781505 0.095576748 -0.61219901 0.50796634 -0.60595584 0.026638698
-0.049674429 -0.013815127 0.092061266 -0.65296906 0.41726276 -0.63207853 0.039014839
-0.14289255 -0.0015228681 0.098412268 0.70480919 0.0084982971 0.70934606 0.027362255
-0.13746046 -0.0037957516 0.093403377 0.68225521 0.10513213 0.72351581 0.027730035
-0.052223034 -0.005113875 0.098238759 -0.71956366 0.099068001 -0.68732345 0.025564462
-0.047418129 -0.0038799634 0.093815729 -0.71451765 0.10463451 -0.69174856 0.02661144
-0.14212883 0.0037520123 0.098063596 0.69042081 -0.15593767 0.70640117 0.021170678
-0.13753106 0.0029289436 0.093312547 0.70476377 -0.067064241 0.70626509 0.02988378
-0.051975023 0.0049314555 0.098176867 -0.69536841 -0.147257 -0.70340466 0.02345887
-0.045808312 0.0040389737 0.092176348 -0.69853336 -0.094129622 -0.70935935 0.023538407
-0.13491654 0.014757899 0.09577217 0.64070433 -0.47178555 0.6057362 0.027012067
-0.12714064 0.018414272 0.090888292 0.57563597 -0.59347445 0.56252217 0.025319789
-0.060180239 0.01977019 0.097317442 -0.54707319 -0.5992977 -0.58442545 0.029174564
-0.053868588 0.015407183 0.094929703 -0.61709481 -0.47771114 -0.62528872 0.031551145
-0.049460731 0.01570797 0.090665773 -0.61854202 -0.47914866 -0.62275392 0.028127564
-0.13130581 0.021818854 0.098748796 0.5198639 -0.65169096 0.55230469 0.031302508
-0.1242249 0.023775546 0.094623297 0.4905149 -0.71843511 0.49319988 0.028567405
-0.11655951 0.027222808 0.093728557 0.37813145 -0.83041543 0.40917817 0.030120956
-0.074206613 0.028257871 0.097448252 -0.35429674 -0.87061793 -0.34131855 0.037232518
-0.065468542 0.025067056 0.095187306 -0.45298222 -0.76277161 -0.46150461 0.028015772
-0.057610702 0.022035807 0.092112899 -0.5288642 -0.65743387 -0.53673398 0.027137022
-0.11256993 0.030314257 0.098222837 0.24102573 -0.93810695 0.24872096 0.022267783
-0.10548846 0.031502064 0.09694194 0.16702962 -0.96899951 0.18204707 0.028181337
-0.0952617 0.032263327 0.095001653 0.06852787 -0.99752766 0.015569591 0.029826006
-0.086003594 0.031682853 0.094875492 -0.15989819 -0.97489709 -0.15494552 0.030196728
-0.078866862 0.030012168 0.096601792 -0.24977614 -0.94330025 -0.21862414 0.029624285
-0.1175072 -0.031377491 0.10840418 0.15594853 0.97608125 0.15147735 0.031826351
-0.10483502 -0.03216226 0.10479565 0.050200772 0.99546397 0.080816843 0.028811762
-0.094203167 -0.031240769 0.10596167 -0.18614288 0.96193719 -0.20006908 0.032028519
-0.088259429 -0.030570377 0.10408834 -0.22917342 0.94641709 -0.22753976 0.027949877
-0.13271748 -0.024449816 0.10420937 0.46659032 0.73294151 0.4950659 0.030516237
-0.1259091 -0.027916266 0.10445327 0.36905849 0.85193187 0.37149411 0.03109158
-0.11724941 -0.029622491 0.10054053 0.24662128 0.93678468 0.24821855 0.02770612
-0.085104242 -0.028749647 0.10669206 -0.34465271 0.88503569 -0.31293195 0.025861407
-0.074993186 -0.024895972 0.10500868 -0.45303267 0.78180015 -0.42842728 0.024551902
-0.06731201 -0.02170359 0.10235085 -0.54219806 0.6596545 -0.5204587 0.030305957
-0.15061677 -0.010824833 0.10883442 0.67575246 0.33692306 0.65562296 0.031189835
-0.14566948 -0.014957855 0.10651491 0.62185615 0.4848114 0.61502272 0.02716754
-0.13728881 -0.018711083 0.10135885 0.56714737 0.59726495 0.56711411 0.027016127
-0.070379362 -0.017933719 0.10950911 -0.5841493 0.56046933 -0.58706361 0.026302855
-0.065256298 -0.016312979 0.10560448 -0.61588252 0.51734769 -0.59417176 0.030060567
-0.058983311 -0.012900877 0.10190572 -0.63750589 0.3920286 -0.66324943 0.036607392
-0.15236954 -0.0052776402 0.10858841 0.68795037 0.19490191 0.69909757 0.025738629
-0.14683056 -0.0043336302 0.10287364 0.70336092 0.12872507 0.69908035 0.02744233
-0.061692517 -0.0064731278 0.10750961 -0.70592743 0.11896441 -0.69822198 0.025005694
-0.057126142 -0.0052350243 0.10322334 -0.71079648 0.12052827 -0.69299442 0.02891865
-0.15205376 0.0044633979 0.10812098 0.69011277 -0.17070197 0.7032817 0.03807833
-0.1452456 0.0057964451 0.10160756 0.6938355 -0.20751752 0.68958592 0.02698518
-0.06193747 0.0054255286 0.10804732 -0.6937052 -0.13879973 -0.70675868 0.025161054
-0.057247549 0.004626771 0.10346708 -0.6974985 -0.10626326 -0.7086634 0.029922301
-0.14420588 0.014809526 0.10495377 0.65717357 -0.45352891 0.60202521 0.02881852
-0.13845885 0.017978178 0.10173329 0.60673553 -0.55030251 0.57361943 0.026387248
-0.070224278 0.019369859 0.1077959 -0.55256885 -0.59512299 -0.58352053 0.029458364
-0.064990543 0.01421138 0.10696376 -0.62307209 -0.44710502 -0.64177752 0.026995486
-0.05722829 0.010866468 0.10134258 -0.65379953 -0.31710476 -0.68701583 0.035159163
-0.14027222 0.023096148 0.1091951 0.50680774 -0.70052969 0.50239831 0.028339971
-0.13559641 0.02382154 0.10611825 0.50176477 -0.73507249 0.45596111 0.031830329
-0.12765266 0.027304037 0.10471317 0.36269596 -0.84936202 0.38345256 0.041470524
-0.082796119 0.028588861 0.10539075 -0.32777184 -0.87046748 -0.36722204 0.032739479
-0.075575806 0.025586886 0.10432649 -0.43319941 -0.77432966 -0.46125031 0.023721687
-0.067278907 0.021020882 0.10305895 -0.54609138 -0.63183981 -0.55005687 0.027058793
-0.11468426 0.031359572 0.10593361 0.1795253 -0.96624452 0.18477629 0.028463965
-0.10450161 0.032148849 0.10464787 0.063049585 -0.99548775 0.070915066 0.027350947
-0.095117226 0.031305689 0.10677791 -0.17545582 -0.97483712 -0.13750581 0.027546916
-0.083743192 0.03024387 0.10068701 -0.21873094 -0.94330436 -0.24966714 0.028166322
-0.12490632 -0.031311456 0.11512361 0.17786762 0.96387637 0.19825569 0.027222732
-0.1151029 -0.032035284 0.11399196 0.043553043 0.99788105 0.048338249 0.028521236
-0.10608343 -0.031763889 0.11425649 -0.087078847 0.99108863 -0.10080042 0.027655212
-0.095527895 -0.030327899 0.11218464 -0.23722884 0.94667149 -0.21802673 0.024910733
-0.15203393 -0.021439398 0.11906462 0.52808177 0.64545792 0.55182761 0.02978218
-0.14529991 -0.023672352 0.11568272 0.4745349 0.71168435 0.51799822 0.028530361
-0.13660225 -0.027651725 0.11456827 0.37818384 0.84062618 0.38771713 0.03240354
-0.094493166 -0.028509913 0.11701222 -0.35010269 0.86702728 -0.35453025 0.032414015
-0.08503744 -0.024749069 0.11507435 -0.45079786 0.77055925 -0.45057717 0.022867065
-0.077265486 -0.022254888 0.11168824 -0.53308737 0.65728402 -0.53272468 0.028277677
-0.4954592 -0.015862601 0.11767342 0.99825686 0.053662673 -0.024565469 0.00048900739
-0.15476507 -0.014630642 0.11542822 0.61914051 0.47723824 0.6236254 0.030361306
-0.14738603 -0.018405305 0.11112424 0.5680297 0.56632984 0.59717047 0.024199331
-0.074130312 -0.01553595 0.11509846 -0.62243485 0.48008534 -0.61813676 0.030039946
-0.067705289 -0.011072355 0.11169886 -0.65727824 0.33195311 -0.67660356 0.029861974
-0.4956629 -0.0091751376 0.11644949 0.99736118 0.071756117 -0.011031183 0.0010579225
-0.16237326 -0.0033887273 0.1182404 0.70395792 0.13151173 0.69795978 0.025945364
-0.15712608 -0.0062982645 0.11366135 0.68493468 0.22778593 0.69208241 0.022132739
-0.07092683 -0.0055201063 0.11685438 -0.69412589 0.15951358 -0.70195782 0.02503529
-0.066753834 -0.0048487429 0.11290626 -0.70839006 0.1112945 -0.69699144 0.027274285
-0.49676877 0.0074743172 0.11540611 0.99700379 0.074558809 -0.020601399 0.0016637297
-0.16162214 0.0033159426 0.11747571 0.71022868 -0.078868032 0.69953918 0.032795347
-0.1562897 0.0041821236 0.11230455 0.69773912 -0.16038692 0.69816631 0.024764972
-0.071842 0.0070317881 0.1173978 -0.70341611 -0.22053166 -0.67570072 0.025135111
-0.066952676 0.0050993357 0.11309646 -0.70631248 -0.15327178 -0.69110811 0.029555708
-0.49749699 0.011862543 0.11580586 0.99677235 0.070754401 -0.03793006 0.0017005935
-0.16026431 0.011906778 0.11911565 0.64501548 -0.39433324 0.65456581 0.029667741
-0.15407664 0.014696919 0.11468744 0.6238004 -0.46956843 0.62480283 0.02651309
-0.14727512 0.018768169 0.1114068 0.58924991 -0.56836325 0.57423657 0.031637311
-0.074246526 0.01595529 0.11495283 -0.61042953 -0.50599539 -0.60938042 0.025490614
-0.068912365 0.013122397 0.11170512 -0.63859838 -0.36977524 -0.67487657 0.029379418
-0.14501396 0.023894172 0.11581068 0.47448003 -0.76042634 0.44341907 0.025758831
-0.13521865 0.028306592 0.11458434 0.32789925 -0.88686097 0.32551444 0.033592731
-0.12760983 0.029735852 0.11128778 0.2020043 -0.94764698 0.24730425 0.023605369
-0.093110316 0.029082 0.11402118 -0.3460682 -0.88463503 -0.31250232 0.028567242
-0.083903134 0.024494497 0.11443968 -0.45706359 -0.74618793 -0.48404184 0.022211252
-0.076257974 0.021333994 0.11169825 -0.53889817 -0.63645756 -0.55182463 0.029441634
-0.13065886 0.030433115 0.11671761 0.20432293 -0.95092601 0.23236135 0.024139827
-0.12509674 0.031532396 0.11610491 0.1582682 -0.97044396 0.18218002 0.026654748
-0.11376136 0.032143746 0.11690282 -0.0015434336 -0.99961966 -0.027534787 0.02873129
-0.10444344 0.031602636 0.11440337 -0.12879512 -0.98318964 -0.12942123 0.030199379
-0.095776722 0.030165482 0.11298817 -0.27359566 -0.92930812 -0.24805617 0.028707433
-0.14250849 -0.030327402 0.12820643 0.23647748 0.93507576 0.26402974 0.025716621
-0.13317503 -0.03134821 0.12430037 0.16647208 0.96904081 0.18233772 0.029221142
-0.12581606 -0.032155655 0.12344948 0.071138583 0.9963221 0.047765546 0.03205527
-0.11577608 -0.031681411 0.12418447 -0.17054167 0.97344095 -0.15273613 0.029390819
