# .PCD v0.7 - Point Cloud Data file format
VERSION 0.7
FIELDS x y z normal_x normal_y normal_z curvature
SIZE 4 4 4 4 4 4 4
TYPE F F F F F F F
COUNT 1 1 1 1 1 1 1
WIDTH 590
HEIGHT 1
VIEWPOINT 0 0 0 1 0 0 0
POINTS 590
DATA ascii
-0.10599244 -0.085106373 0.38523862 -1.3235066e-05 1 1.8488357e-05 4.194721e-06
-0.09626472 -0.085106373 0.38273326 -7.2766989e-06 1 1.6811497e-05 4.4457902e-06
-0.088121951 -0.08510638 0.38584793 -3.9357519e-06 1 5.1408762e-05 4.3634554e-06
-0.07832697 -0.08510638 0.38621086 -2.0927212e-06 1 6.5367885e-08 3.8758958e-06
-0.05406794 -0.08510638 0.38706875 -2.0471712e-06 1 -1.6915296e-08 4.093577e-06
-0.047072083 -0.085106373 0.38921323 1.4858316e-06 1 1.936043e-08 4.2153752e-06
-0.034405772 -0.085106373 0.38436332 -1.103774e-06 1 3.1911483e-08 4.2666693e-06
-0.024395328 -0.08510638 0.38674033 -1.9322774e-06 1 1.5384372e-05 4.0999594e-06
-0.017013317 -0.08510638 0.38481438 -2.334697e-06 1 -1.7856837e-05 1.0732163e-06
-0.0048533776 -0.08510638 0.38429141 -4.54239e-07 1 8.1909889e-08 4.2171323e-06
0.0070610666 -0.08510638 0.38293052 -2.566706e-07 1 5.0896682e-09 1.0695524e-06
0.019206405 -0.08510638 0.38784239 -8.6259242e-08 1 1.5027335e-05 3.8960052e-06
0.025790533 -0.085106373 0.38419226 2.587974e-06 1 -3.0927135e-05 4.2575321e-06
0.035668373 -0.08510638 0.38214922 -1.3414477e-07 1 -1.88053e-05 1.1122386e-06
0.044435415 -0.08510638 0.38553226 -0 1 -0 4.2819347e-06
0.058443405 -0.085106373 0.38542783 3.7433392e-06 1 -7.3966675e-08 4.2428996e-06
0.06055852 -0.08510638 0.38369367 1.8103835e-06 1 -9.8388838e-08 4.3987834e-06
0.072664231 -0.08510638 0.38263485 -2.3490213e-06 1 1.7584829e-05 4.3446075e-06
0.083733678 -0.08510638 0.38501847 -4.1016601e-06 1 -1.5549604e-07 3.9849197e-06
0.096759424 -0.085106388 0.38332555 4.3838922e-06 1 -5.0019673e-07 1.0479073e-06
0.10703192 -0.085106373 0.38670051 6.8004379e-06 1 -1.6802762e-05 4.2165007e-06
0.11720431 -0.085106373 0.3824729 -4.3453383e-06 1 5.5916107e-08 4.6441651e-06
0.12421177 -0.08510638 0.38238925 -5.0457415e-06 1 1.4973428e-07 4.7299091e-06
0.13528235 -0.085106373 0.38378239 4.1774651e-06 1 7.0566053e-08 5.3103877e-06
0.14383279 -0.085106373 0.3875716 7.6101128e-06 1 -1.8287096e-07 4.1095477e-06
0.15451156 -0.085106373 0.38149628 -3.7027867e-06 1 1.6848755e-05 4.2177135e-06
0.16617186 -0.08510638 0.38403443 -0.057572197 0.99831045 -0.00785504 0.0064134556
0.17292652 -0.08510638 0.38372648 -0.17173758 0.9851349 -0.003923554 0.036571596
0.18198092 -0.08510638 0.38500744 -0.23978114 0.97055167 -0.023119766 0.072834753
0.19490564 -0.083838291 0.38432607 -0.51580197 0.85647929 -0.019786771 0.12294563
0.20367697 -0.085106388 0.38313672 -0.76500219 0.63811505 -0.087067835 0.10902821
-0.20668693 -0.073429681 0.38509062 0.96913838 0.24280228 -0.042637184 0.10289292
-0.19452888 -0.075809777 0.38547406 0.83975852 0.54295987 -0.00051213079 0.14307056
0.19452888 -0.075768836 0.38579988 -0.71004176 0.70247531 -0.048673917 0.15990487
0.20668691 -0.070858732 0.38257283 -0.97491342 0.21509077 -0.057270322 0.10919785
-0.20668693 -0.06685394 0.38057733 0.99092793 0.13318895 -0.017960381 0.087474637
-0.19452888 -0.064811066 0.38599691 0.96149385 0.26897836 -0.056393925 0.11856493
0.19452888 -0.064453959 0.38267493 -0.98221827 0.18755466 -0.0083916904 0.11783301
0.20668694 -0.065373711 0.38537613 -0.99683118 0.078888826 0.010211466 0.07528276
-0.20668691 -0.055851568 0.38559407 0.99918091 0.010562351 -0.039064471 0.081441119
-0.19452888 -0.055946648 0.38489723 0.99965423 -0.0021275154 0.026205916 0.082952634
0.19452889 -0.056221999 0.38459405 -0.9988519 0.042495068 -0.022115216 0.083213747
0.20668693 -0.051057685 0.38664016 -0.99949455 0.017599478 0.026474515 0.082018077
-0.20668694 -0.046012092 0.38501772 0.99986607 0.015256663 -0.0059216968 0.085020721
-0.19452888 -0.04521792 0.38568842 0.97144967 -0.22810023 -0.065236837 0.1178847
-0.05365004 -0.047681056 0.38461176 0.74583381 0.66591352 -0.017066855 0.11246001
-0.045956742 -0.048632219 0.38597614 0.55745512 0.82466364 0.095779009 0.14320046
-0.036071971 -0.048632219 0.38491279 0.20640841 0.97198111 -0.11246441 0.19954014
-0.024275586 -0.048632219 0.38608742 0.027470052 0.99666798 0.076801062 0.22227935
-0.016140232 -0.048632212 0.38574004 0.03107447 0.9986912 0.040623225 0.19982718
-0.0044289911 -0.048632219 0.38347423 0.16517988 0.97357965 -0.15766548 0.24110915
0.0058724256 -0.048632219 0.38484591 0.022696812 0.99872619 -0.045064766 0.24689174
0.013714657 -0.048632219 0.38610378 0.059638985 -0.97964448 -0.19167657 0.21845101
0.024771255 -0.048632216 0.38362402 -0.019523913 0.99974334 -0.011489251 0.23612031
0.034177709 -0.048632216 0.3843756 -0.25444424 0.96708739 0.00014240012 0.17689279
0.045079131 -0.048632219 0.3848339 -0.68741101 0.72193861 -0.079188101 0.18687975
0.05384507 -0.046461552 0.38595968 -0.73342741 0.67809361 0.047680359 0.13363205
0.19452888 -0.043072481 0.38296548 -0.96152407 -0.27463406 -0.0069018821 0.12223097
0.20668693 -0.040439568 0.38585359 -0.99618274 -0.086398333 -0.012462675 0.10212779
-0.20668693 -0.039075557 0.38534865 0.98737586 -0.14595827 0.061522875 0.10259195
-0.19452889 -0.034471296 0.38486257 0.93371505 -0.35621065 0.035919793 0.16608571
-0.054711249 -0.033553336 0.38358724 0.71164316 0.70212317 0.024230268 0.14574376
0.054711249 -0.036925588 0.38390779 -0.66563749 0.74207431 0.079073079 0.17458668
0.19452888 -0.036293741 0.38558537 -0.97359508 -0.21441454 0.078351833 0.15821692
0.20668693 -0.036606673 0.38512969 -0.99530339 -0.0950398 0.018399952 0.11061272
-0.20668693 -0.026360767 0.38550439 0.99674809 -0.078216761 -0.019372767 0.12083614
-0.19389404 -0.024132958 0.3841503 0.99815011 -0.057415038 0.019996876 0.22669208
-0.18288223 -0.02431611 0.382662 -0.10852274 0.99408627 0.0039027212 0.2121276
-0.17373608 -0.02431611 0.38580799 -0.017679365 0.99978161 -0.011145356 0.1012853
-0.16521065 -0.02431611 0.38335815 -0.15121461 0.98845315 -0.0097201578 0.03381829
-0.15317973 -0.02431611 0.38549402 -0.15839857 0.98735416 -0.0064484519 0.10677173
-0.14608867 -0.023985088 0.38654312 -0.086713411 0.99590713 0.025492916 0.12083375
-0.13445893 -0.02431611 0.38408238 0.2308574 0.97127277 0.057741653 0.095827229
-0.12571386 -0.02431611 0.38090253 -0.12165027 -0.97932351 -0.16163747 0.062685616
-0.11323926 -0.02431611 0.38415968 -0.022094529 -0.99364787 -0.1103429 0.029022777
-0.10449785 -0.02431611 0.38476741 0.050468236 -0.99070889 -0.1262894 0.024723785
-0.092313789 -0.02431611 0.38278711 0.011146351 -0.98823351 -0.15254615 0.042097721
-0.084217377 -0.02431611 0.38393396 0.00088191073 -0.98743379 -0.15803052 0.046357069
-0.072618656 -0.02431611 0.3877342 0.20665139 0.97611219 0.06708391 0.042576443
-0.06273824 -0.02431611 0.38169733 -0.32386446 -0.91360271 -0.24584927 0.13241234
-0.055078577 -0.024987256 0.38479906 -0.2366821 -0.94807935 -0.21243125 0.18648158
-0.038866155 -0.02431611 0.38826129 0.19888476 -0.96770054 -0.15492105 0.20372386
-0.025551941 -0.02431611 0.38431534 -0.048334826 -0.96141386 -0.27082658 0.23252748
-0.016348479 -0.02431611 0.3833186 -0.04977927 -0.88851601 -0.45613751 0.22934534
-0.0053718882 -0.02431611 0.38590509 -0.0041869455 -0.98743987 -0.15793978 0.21132393
0.0058685206 -0.02431611 0.38657027 0.056612547 -0.8824026 -0.46707669 0.24502191
0.013810303 -0.02431611 0.38516003 -0.024303002 -0.91185933 -0.40978286 0.24457189
0.022700274 -0.02431611 0.38229352 0.065461688 -0.86179501 -0.50301498 0.23663804
0.033400185 -0.02431611 0.3884255 -0.12574069 -0.98643118 -0.10555938 0.20737678
0.049786363 -0.02431611 0.38276786 0.2037756 -0.94477254 -0.25667191 0.22169587
0.055348001 -0.025712902 0.38535756 -0.23136026 0.97116607 0.057522673 0.1495824
0.062704153 -0.02431611 0.38684273 -0.12225932 0.98969471 0.074545689 0.092237987
0.071700722 -0.02431611 0.38073826 0.2525852 -0.94721657 -0.19743724 0.10199924
0.083705023 -0.02431611 0.38638428 0.048423897 -0.98981041 -0.13390501 0.030409247
0.093764842 -0.02431611 0.38448662 -0.017262949 -0.9910925 -0.1320513 0.037572622
0.10436826 -0.02431611 0.38261074 -0.0047759414 -0.99065685 -0.13629453 0.045429967
0.11580306 -0.02431611 0.3836056 -0.039700821 -0.97921938 -0.19888015 0.05412342
0.12416312 -0.02431611 0.38227731 0.12922551 -0.98572958 -0.10787945 0.060152858
0.13333777 -0.02431611 0.38700023 -0.14551443 0.98558283 0.086325198 0.04907389
0.14470895 -0.022929937 0.38563848 -0.12162682 0.99082142 0.058989882 0.17070374
0.15637603 -0.02431611 0.38511321 -0.15424277 -0.98768646 -0.026164478 0.059718996
0.16580731 -0.02431611 0.38604584 0.1300586 0.99147451 -0.0079370346 0.042818494
0.17551893 -0.02431611 0.38416821 -0.082658604 0.99499917 -0.056073368 0.12676513
0.18350753 -0.02431611 0.38529307 -0.090610318 -0.99342746 -0.069941029 0.20926322
0.19362968 -0.025947323 0.38460854 -0.98665875 -0.089331649 -0.13610427 0.23514344
0.20668693 -0.021620464 0.38220248 -0.99946511 -0.017627623 -0.027546573 0.11515965
-0.20668694 -0.014624054 0.38504362 0.99751592 0.070045993 -0.007447171 0.1138109
-0.19452886 -0.016188614 0.38522235 0.96055079 0.27809933 0.0017072739 0.17438094
-0.14589666 -0.013517246 0.38426554 0.96926993 -0.19360144 0.15177041 0.21516901
0.14589666 -0.015481263 0.38280472 -0.83964217 -0.52566713 0.13665693 0.2220507
0.19452888 -0.015846713 0.38529739 -0.94858789 0.31478044 -0.033081599 0.19042544
0.20668693 -0.011823691 0.38503894 -0.99671382 0.080916956 -0.0037491368 0.10070504
-0.20668693 -0.0058141793 0.3853077 0.99427569 0.094026238 0.050742928 0.092249602
-0.19452888 -0.0044890488 0.38579461 0.98297852 0.18250948 -0.021056268 0.11214955
-0.14589666 -0.0024360609 0.38455635 0.99258399 0.0027390493 0.12152985 0.080322683
0.14589666 -0.0043379324 0.38511634 -0.98899364 0.0030475003 0.14792697 0.12345201
0.19452889 -0.003713771 0.38387313 -0.99056387 0.13512668 -0.02289252 0.12769821
0.20668696 -0.0028650004 0.38508567 -0.99685234 0.072050922 -0.03307553 0.085435227
-0.20668694 0.0066981479 0.3864719 0.99611539 -0.088057563 -0.00022357143 0.10072088
-0.19452889 0.0050033308 0.38170904 0.97144818 -0.23236537 0.04790397 0.12299845
-0.14589666 0.0035162813 0.38283738 0.98525465 0.060663149 0.15997916 0.099304803
0.14589666 0.0066961488 0.38499567 -0.96114087 0.14044896 0.23766023 0.12914282
0.19452888 0.0046434915 0.38189566 -0.97479337 -0.2163569 0.054474819 0.11873119
0.20668693 0.0058059245 0.38670981 -0.99671018 -0.0074982243 0.080700867 0.093726858
-0.20668693 0.014925703 0.38516241 0.99672157 -0.080739737 -0.0052181548 0.11879645
-0.19452888 0.016469082 0.38395005 0.9845801 -0.15579213 0.079566143 0.15832883
-0.14589666 0.016376089 0.38443556 0.31252098 -0.94975644 0.017125344 0.2193249
0.14589664 0.013733854 0.38506234 -0.97632074 0.012944459 0.21594054 0.20509167
0.19452888 0.015741279 0.38613224 -0.96819925 -0.24558881 0.047711052 0.17415082
0.20668693 0.015282811 0.38932705 -0.99860442 -0.042084534 0.031909119 0.11763941
-0.20668693 0.023961881 0.38695028 0.99943417 -0.021235269 -0.026084857 0.11921001
-0.19363563 0.025073925 0.38514253 0.99212885 0.11277574 0.054424305 0.23705955
-0.18431275 0.024316112 0.384471 0.019134391 -0.99874568 -0.046272136 0.18163963
-0.17544864 0.02431611 0.38555858 -0.080753982 -0.99668205 -0.01018581 0.15042424
-0.16434373 0.02431611 0.3854728 -0.14544351 -0.98916698 -0.019870143 0.043703355
-0.154549 0.024316108 0.38516438 0.2604633 0.96513236 -0.02604522 0.11702421
-0.14582875 0.022619331 0.38431045 -0.015681742 0.99750423 -0.068843931 0.16101828
-0.13459623 0.02431611 0.38305283 0.20060891 -0.9732675 0.11183248 0.1092549
-0.12623939 0.02431611 0.38445038 0.14297013 -0.98757643 0.065210484 0.059350386
-0.1175517 0.02431611 0.38966298 0.042898204 -0.99645823 0.072323926 0.012412359
-0.093083411 0.02431611 0.38384455 0.020568604 0.9845863 -0.17368586 0.042352397
-0.083228923 0.02431611 0.38418564 -0.022250123 0.98128408 -0.19127567 0.043465521
-0.074940056 0.02431611 0.38456541 -0.24304937 0.94816554 -0.20471697 0.084143624
-0.065035462 0.02431611 0.3870005 -0.2184805 0.95765913 -0.1874973 0.1108805
-0.054817002 0.02640105 0.38543072 0.28263235 -0.9587518 0.030232111 0.17436647
-0.040991984 0.02431611 0.3827467 0.13060011 0.9387123 -0.31900278 0.22015244
-0.035222933 0.02431611 0.38482991 0.065996058 0.92516059 -0.3737945 0.21408057
-0.022296431 0.02431611 0.38526097 0.020597674 0.93375415 -0.35732201 0.20737171
-0.014596624 0.024316112 0.38442066 -0.000837331 0.86249542 -0.50606418 0.2050918
-0.0040518362 0.02431611 0.38213477 -0.0039725634 0.80640584 -0.59134924 0.21992874
0.0049910117 0.02431611 0.38733757 -0.049664315 0.99201047 -0.11596785 0.22293632
0.016038235 0.02431611 0.3848263 0.055787783 0.92969739 -0.36407489 0.22341405
0.026134426 0.024316112 0.38657603 0.12088679 0.98021442 -0.15673521 0.23429124
0.034113955 0.02431611 0.38472876 -0.25837344 0.87840807 -0.40204769 0.19934018
0.044175755 0.02431611 0.38440722 0.018406652 0.96026713 -0.2784749 0.19964151
0.054633792 0.024901858 0.38417327 0.29981518 0.9151001 -0.26963437 0.18958491
0.066746779 0.02431611 0.38226777 0.19606605 0.96160364 -0.19203269 0.11627479
0.072468854 0.02431611 0.38705719 0.18322599 0.97689897 -0.10998502 0.067786664
0.086193755 0.02431611 0.38357943 -0.012507584 0.9785797 -0.20548789 0.060286287
0.096892811 0.02431611 0.38622889 -0.016981084 0.99605727 -0.087072261 0.021305449
0.10313953 0.024316112 0.38472992 -0.023394128 0.9885971 -0.14875661 0.047491159
0.12503371 0.02431611 0.38480905 -0.19927469 -0.97469622 0.10127604 0.057841539
0.13752119 0.02431611 0.38494501 -0.14995071 -0.98869258 -0.001356446 0.11335742
0.14649977 0.023178315 0.38525742 0.024364274 -0.99949765 0.020270929 0.16457647
0.15605633 0.02431611 0.38648185 -0.21242887 0.97714138 0.0082891183 0.072995782
0.16534913 0.024316108 0.38623092 -0.20677625 0.9782905 0.013831036 0.054667074
0.17506602 0.02431611 0.383389 0.00037990228 -0.99842638 -0.056075808 0.10580765
0.18544014 0.02431611 0.38581347 -0.034440611 0.98380136 -0.17592214 0.26989555
0.19411214 0.0250363 0.38430029 -0.99250978 0.013988065 0.12136194 0.25657415
0.20668694 0.025504643 0.38794518 -0.99979413 -0.013823753 0.014853886 0.12643652
-0.20668691 0.036618691 0.38354659 0.99274588 0.1172465 -0.026624121 0.11381355
-0.19452888 0.032632329 0.38384813 0.97543347 0.2034954 0.08437454 0.16679609
-0.054711245 0.034890097 0.38594174 0.61082315 -0.79176503 -0.0017951675 0.17492346
0.054711249 0.036172356 0.38364708 -0.66234463 -0.74686736 -0.059066571 0.17507318
0.19452889 0.036740005 0.38290998 -0.96365058 0.24815479 0.098978259 0.1663962
0.20668693 0.0342508 0.38395286 -0.99769515 0.030058727 0.060834534 0.11795506
-0.20668693 0.046431486 0.38339698 0.99658346 0.021677595 0.079696938 0.085642383
-0.19452886 0.046202563 0.38644713 0.99240518 0.12289847 -0.0052808193 0.10853308
-0.054269921 0.045332074 0.38382542 0.74537724 -0.66078007 -0.088218458 0.15048255
-0.046070702 0.048632219 0.38477758 0.61520875 -0.78812993 0.01922041 0.18847786
-0.035078041 0.048632219 0.38197041 0.29544032 -0.94353598 -0.14984939 0.19836771
-0.025746316 0.048632223 0.38706085 0.13823207 -0.98687732 0.08345674 0.20412391
-0.016836053 0.048632219 0.38510624 -0.19236106 -0.98045361 -0.041328359 0.2113892
-0.0041285949 0.048632223 0.38614994 0.03370735 0.97716796 -0.2097774 0.22424001
0.0042999629 0.048632219 0.38673574 0.08473862 0.9743185 -0.20862113 0.20982963
0.015795404 0.048632219 0.38608193 0.021219382 0.99000841 -0.13940281 0.23523596
0.025581265 0.048632219 0.38599095 -0.068357572 -0.99508381 0.071661279 0.20523089
0.036533099 0.048632219 0.38370517 -0.3366935 -0.93645871 -0.098399967 0.24064143
0.043774996 0.048632219 0.38567492 -0.59181905 -0.80571526 0.02394014 0.17631245
0.053778678 0.04615416 0.38226831 -0.71007478 -0.70012873 0.074923843 0.17322098
0.19452888 0.043490384 0.38286865 -0.96544766 0.24112441 0.098842107 0.11536973
0.20668693 0.044486839 0.38910279 -0.99927938 -0.0075246403 0.037202466 0.090834893
-0.20668694 0.055894606 0.38389766 0.99992925 0.0040237461 0.011190863 0.082760468
-0.19452888 0.054691732 0.38548714 0.99937761 -0.017315358 0.030733798 0.083219439
0.19452886 0.055814099 0.38593 -0.99934077 -0.015640995 0.032761402 0.076121397
0.20668693 0.056607503 0.38500699 -0.9979021 0.010164103 0.063938536 0.074643292
-0.20668693 0.064747721 0.38471025 0.99973917 -0.009427119 -0.020803332 0.085874483
-0.19452888 0.065265924 0.38407207 0.97572297 -0.2173681 0.026753811 0.12846263
0.19452888 0.063184336 0.38627249 -0.9937849 -0.11089374 0.0097042527 0.10592817
0.20668691 0.066054046 0.38330162 -0.99711639 -0.072827734 -0.02133395 0.086886398
-0.20668693 0.073524758 0.38640577 0.98241389 -0.18610628 0.015081573 0.10027109
-0.19452888 0.075539961 0.38654813 0.90825498 -0.41806296 -0.017212559 0.15884528
0.19452889 0.075197339 0.38395619 -0.79484957 -0.6064589 0.020535851 0.13948812
0.20668694 0.075646982 0.38468421 -0.96009338 -0.27667832 0.040862896 0.10291774
-0.20537826 0.083810769 0.38345787 0.81334025 -0.57888263 -0.058073211 0.11920088
-0.19586001 0.08380679 0.386926 0.57061583 -0.82121199 0.0028982519 0.12542282
-0.18402222 0.085106373 0.3830083 0.23892228 -0.97027361 0.038539927 0.071993999
-0.17539884 0.085106373 0.38486165 0.26260707 -0.96461242 -0.023675194 0.055687949
-0.1571648 0.085106373 0.38466737 -8.3199066e-06 -1 -2.658081e-07 4.1673748e-06
-0.14414802 0.08510638 0.38637233 -1.1913591e-05 -1 -1.4941428e-05 4.1628923e-06
-0.13664621 0.085106373 0.38238245 -4.6054301e-06 -1 5.0888335e-08 4.2745328e-06
-0.12539256 0.085106373 0.38751993 -2.5915197e-06 -1 1.5595775e-05 4.0371392e-06
-0.10745263 0.085106373 0.38686711 -5.0837821e-06 -1 1.7055092e-05 4.2419824e-06
-0.085855618 0.08510638 0.38608772 -2.2311069e-06 -1 1.3724677e-05 1.0017023e-06
-0.0749043 0.08510638 0.38418871 -1.8603804e-06 -1 3.1850199e-05 4.2866609e-06
-0.063652664 0.085106373 0.38484749 6.4538808e-06 -1 3.5319048e-05 4.0434015e-06
-0.055845179 0.085106373 0.38636494 1.5798616e-06 -1 1.5342543e-05 4.3124769e-06
-0.045086794 0.08510638 0.38538945 1.0643327e-06 -1 1.8931876e-05 1.0975158e-06
-0.036020342 0.08510638 0.38497901 -3.638394e-06 -1 2.2384947e-07 4.3347854e-06
-0.025392557 0.08510638 0.38279232 -1.4767778e-06 -1 3.01112e-05 4.2205124e-06
-0.016012497 0.085106373 0.38575587 -1.0575794e-06 -1 3.5485104e-05 4.1869312e-06
-0.0063434318 0.085106388 0.38240927 3.8800872e-06 -1 3.2757926e-05 4.1469179e-06
0.005048275 0.085106373 0.38554123 3.1406421e-07 -1 2.4785207e-08 5.1019369e-06
0.012461968 0.08510638 0.38349107 4.8598827e-06 -1 3.7255184e-05 4.2370707e-06
0.023724899 0.085106373 0.38589489 7.3321303e-07 -1 1.610668e-05 4.6638729e-06
0.035451211 0.085106373 0.38363272 -1.0684167e-06 -1 -1.2751608e-08 4.0395048e-06
0.042940494 0.08510638 0.38498858 4.2774741e-06 -1 -1.3715265e-08 5.1695788e-06
0.055105314 0.085106388 0.38362095 -4.5002716e-06 -1 3.8298276e-07 2.2367228e-06
0.061849356 0.08510638 0.38474488 2.9654879e-07 -1 4.2026906e-05 1.1119844e-06
0.07704252 0.085106373 0.38765275 5.4907168e-06 -1 3.2400152e-05 3.8795661e-06
0.084400356 0.08510638 0.38498521 -1.1813105e-06 -1 1.7927616e-05 4.1782691e-06
0.095332913 0.085106373 0.38385111 4.7668e-06 -1 1.0708914e-07 4.4455082e-06
0.10460262 0.08510638 0.38761175 7.1836253e-06 -1 3.1001604e-05 4.120569e-06
0.11208704 0.08510638 0.38493714 1.2140232e-06 -1 1.6899734e-05 4.0114487e-06
0.1238829 0.08510638 0.38651073 -4.6744435e-06 -1 3.3111955e-05 3.9796128e-06
0.13381226 0.08510638 0.38356462 2.3762934e-06 -1 3.5055225e-05 5.4623938e-06
0.14917913 0.08510638 0.38519028 -3.6299091e-06 -1 4.108822e-05 5.2022556e-06
0.15425032 0.08510638 0.38414147 4.2377619e-06 -1 6.5642178e-07 1.1246528e-06
0.16894898 0.08510638 0.38547048 -0.093338072 -0.9955464 0.013241817 0.01486779
0.17485853 0.08510638 0.38727492 -0.18044858 -0.98355609 -0.007463879 0.053091943
0.1871742 0.08510638 0.38403705 -0.34457052 -0.93839163 0.026311038 0.10091471
0.19476999 0.084790193 0.38395521 -0.53001022 -0.84777284 -0.019243941 0.13009515
0.20404723 0.084142327 0.38599187 -0.82952219 -0.54842013 0.10549048 0.12832192
-0.20193668 -0.08510638 0.39453566 0.62747991 0.77862138 0.0041979114 0.12383468
-0.19635987 -0.084641241 0.39750451 0.49219862 0.87048173 -0.001450116 0.12260251
-0.17952216 -0.085106388 0.39521018 0.19525066 0.98070812 0.0094161816 0.066031113
-0.16648476 -0.085106373 0.39609441 0.045103911 0.99896693 0.0055428087 0.0058391998
-0.15489045 -0.08510638 0.39428154 4.9174391e-06 1 -1.65213e-05 4.4014828e-06
-0.14397156 -0.085106388 0.39292592 -8.0371565e-06 1 -1.6016025e-05 3.8245544e-06
-0.13338482 -0.085106373 0.39309809 1.2122002e-05 1 1.7056165e-05 3.9920023e-06
-0.1239725 -0.08510638 0.39483243 -1.0726209e-05 1 -7.6146188e-07 4.3756022e-06
-0.11633131 -0.085106388 0.39547664 -1.2467036e-05 1 -8.5415905e-07 1.0561849e-06
-0.1042113 -0.08510638 0.3940759 -7.963019e-06 1 5.4014933e-08 4.2849151e-06
-0.09282361 -0.08510638 0.39406335 4.7004974e-06 1 1.5465632e-05 4.1724329e-06
-0.086457729 -0.08510638 0.39734611 2.282841e-06 1 -1.9511043e-07 1.0251641e-06
-0.077276044 -0.085106373 0.39680612 1.6732459e-06 1 -1.7659782e-05 4.175422e-06
-0.064170435 -0.08510638 0.39486033 4.9300377e-07 1 3.4450546e-05 4.0328214e-06
-0.056324627 -0.085106373 0.39280602 -2.8405725e-07 1 1.5657772e-05 4.2666152e-06
-0.044781208 -0.08510638 0.39307582 -1.1028699e-06 1 5.0036995e-08 4.1241537e-06
-0.037286285 -0.085106388 0.39265594 3.3098777e-07 1 -1.4995224e-05 1.0972137e-06
-0.02654939 -0.08510638 0.39715838 -2.1976432e-06 1 2.4917779e-07 4.3716577e-06
-0.015248567 -0.08510638 0.39419848 4.731526e-07 1 -1.8462912e-09 9.3861843e-07
-0.0047209999 -0.08510638 0.39719075 1.9809952e-06 1 1.9124833e-05 3.9654892e-06
0.0045226687 -0.08510638 0.39523247 -2.9828348e-07 1 -6.6882078e-09 5.8675705e-06
0.018333629 -0.08510638 0.39863825 -0 1 -0 4.3319446e-06
0.023040628 -0.08510638 0.39383402 -1.0841076e-06 1 -3.6062012e-08 4.0338082e-06
0.033556264 -0.08510638 0.39598295 5.2367335e-07 1 3.1161635e-05 3.9170268e-06
0.042182837 -0.08510638 0.3966471 -1.9992642e-06 1 -3.3058775e-05 4.1420517e-06
0.056997664 -0.085106388 0.39515641 -6.5936689e-07 1 1.893853e-05 4.2832471e-06
0.068385117 -0.08510638 0.39440113 9.84298e-06 1 6.2234716e-07 4.1737098e-06
0.086261787 -0.085106373 0.39482993 -2.8295917e-06 1 1.6747857e-05 3.9502152e-06
0.092106767 -0.08510638 0.39446515 6.8893764e-06 1 1.7876713e-05 4.1634003e-06
0.10502957 -0.085106373 0.39167583 3.3755673e-06 1 -1.7438142e-05 4.3008622e-06
0.11587846 -0.08510638 0.39188519 4.2051538e-06 1 4.8051606e-07 4.2377324e-06
0.12619005 -0.08510638 0.39411297 1.3854021e-05 1 -5.4184387e-05 4.2947527e-06
0.13177392 -0.08510638 0.39390805 1.4128439e-05 1 -2.5537295e-06 4.8067136e-06
0.14569084 -0.08510638 0.39619076 5.1577435e-06 1 4.2685333e-05 3.7424766e-06
0.1538312 -0.085106373 0.39557359 2.8631025e-06 1 5.1006715e-05 4.2522724e-06
0.16747491 -0.08510638 0.39325613 -0.069194235 0.99758917 0.0052932613 0.0076165968
0.17447588 -0.08510638 0.39762446 -0.19260655 0.98121697 -0.010769732 0.03506165
0.18274647 -0.08510638 0.39350632 -0.26788896 0.96226072 0.047851466 0.078701563
0.19467691 -0.083727218 0.39556757 -0.57395923 0.81877476 -0.013366332 0.12793046
0.20552382 -0.083864272 0.39434844 -0.82888508 0.55844104 -0.033062734 0.12396374
-0.20668693 -0.072187319 0.39397404 0.98765659 0.15393338 -0.028963652 0.092083327
-0.19452889 -0.075293288 0.39362055 0.81935787 0.57065594 -0.05481359 0.15251589
0.19452888 -0.07632561 0.39636678 -0.73551202 0.67600626 -0.045139633 0.13627334
0.20668693 -0.074776538 0.39331612 -0.95583844 0.29348722 -0.015431666 0.11045745
-0.20668693 -0.065433435 0.39365911 0.99534857 0.091055423 -0.03146578 0.076782681
-0.19452888 -0.065047018 0.39440882 0.98428035 0.17659 0.0028478296 0.10647264
0.19452888 -0.06626682 0.39375329 -0.97015566 0.23839484 0.044340286 0.11240119
0.20668691 -0.067744009 0.39135528 -0.99652636 0.079365246 -0.025225896 0.087379411
-0.20668694 -0.053005777 0.3950147 0.99790561 0.064610414 0.0031646483 0.084049061
-0.19452888 -0.054421991 0.39455885 0.99866742 -0.042535987 0.029225031 0.089631774
0.19452888 -0.056286305 0.39254361 -0.999551 0.029872386 -0.00232421 0.076490812
0.20668693 -0.05451677 0.39728364 -0.999479 -0.01300473 0.029539151 0.077778205
-0.20668693 -0.044510711 0.39734149 0.99947321 0.031711813 -0.0069036414 0.07960058
-0.19452888 -0.046351139 0.39665571 0.98922545 -0.14429446 0.024740029 0.11610511
-0.054521292 -0.045939662 0.39589199 0.73168403 0.6808567 0.032749388 0.11010564
-0.043551378 -0.048632219 0.39602 0.47684601 0.87639362 -0.067469053 0.14761062
-0.03258406 -0.048632219 0.39438888 0.13422742 0.96798569 -0.21210068 0.20035042
-0.024690226 -0.048632219 0.39667681 0.020364532 0.9974938 -0.06775865 0.24018076
-0.01466953 -0.048632219 0.3939248 0.082863852 0.97565204 -0.20306832 0.21404116
-0.0041800346 -0.048632219 0.39621466 0.03605742 0.99933225 0.0059103654 0.20521258
0.0064187585 -0.048632219 0.39441258 0.093220152 0.98699993 -0.13092411 0.20070353
0.014829355 -0.048632219 0.39184508 0.050783832 0.99489194 -0.087241158 0.21845496
0.025116334 -0.048632216 0.39619482 -0.056458697 0.99774778 0.036216293 0.2233939
0.034311712 -0.048632219 0.39480919 -0.17761645 0.9655385 -0.19023108 0.1984223
0.045947842 -0.048632219 0.39588591 -0.67960435 0.72829109 -0.087920219 0.18864883
0.05395266 -0.046144873 0.3952435 -0.73630923 0.67661005 -0.0068927365 0.12228071
0.19452888 -0.045748472 0.39640236 -0.97518629 -0.218156 -0.037680019 0.10019901
0.20668694 -0.043366812 0.39822218 -0.99465781 -0.089833468 0.050850809 0.091143399
-0.20668696 -0.035497688 0.39358097 0.98839021 -0.14961731 0.026448488 0.11845481
-0.19452889 -0.035568316 0.39521119 0.93674785 -0.34936655 0.021131787 0.18390504
-0.054711245 -0.036386844 0.39387509 0.6443755 0.76432651 -0.024191324 0.14500526
0.054711249 -0.034330141 0.39535338 -0.58933055 0.80675346 0.042875912 0.18894824
0.19452888 -0.034314375 0.39434284 -0.93767893 -0.3445546 0.04516967 0.18144174
0.20668693 -0.034748968 0.39510846 -0.99904197 -0.039044194 -0.019770922 0.11045798
-0.20668691 -0.024184033 0.39211321 0.99759918 -0.015267156 0.067547806 0.12480305
-0.19433467 -0.025601396 0.3930935 0.98593587 -0.16461869 0.028827813 0.22823879
-0.18429391 -0.024316106 0.39424893 0.098886177 -0.99088281 -0.091502741 0.20454986
-0.17475227 -0.02431611 0.39699703 -0.070136271 0.99717802 0.026775477 0.11243786
-0.1654551 -0.02431611 0.39597115 -0.1766946 0.98383677 -0.029056 0.044391003
-0.15279572 -0.02431611 0.3969034 0.11311698 -0.99323016 -0.026428115 0.079339869
-0.1469076 -0.023785485 0.39381161 0.086802393 -0.99449569 -0.058683243 0.16952765
-0.13508956 -0.02431611 0.39358902 0.18162675 0.98322487 0.016751619 0.082860827
-0.1266457 -0.02431611 0.39439306 0.17392595 0.98467064 -0.013167169 0.050990134
-0.1137414 -0.02431611 0.3940644 -0.00066830823 0.99999541 0.0029443589 2.8328537e-05
-0.10589822 -0.02431611 0.39645857 1.9430067e-06 1 4.1414883e-06 0
-0.091464445 -0.02431611 0.3983286 5.0818967e-06 1 -1.3397487e-05 0
-0.084836312 -0.02431611 0.39352 0.005862114 0.99998236 -0.00095095951 0.00013800281
-0.075307868 -0.02431611 0.39530411 0.11486865 0.9931342 -0.022128984 0.016859995
-0.062884517 -0.02431611 0.39952636 0.22258714 0.97487205 0.0089130877 0.10632166
-0.05509745 -0.025780808 0.39477038 0.1869625 0.9806093 -0.058741037 0.16635804
-0.045635801 -0.02431611 0.3951644 -0.020230517 0.99968266 0.015008138 0.1954525
-0.033821933 -0.02431611 0.39953083 -0.14303066 0.98521113 -0.094346255 0.18977268
-0.024762325 -0.02431611 0.39616984 -0.25615874 0.90201086 -0.3475042 0.2582058
-0.017515721 -0.02431611 0.393356 0.02687346 0.99861914 -0.045140103 0.22707364
-0.0033127938 -0.02431611 0.39222112 -0.022640429 -0.99012369 -0.13835655 0.21848798
0.0040286756 -0.02431611 0.39527619 0.10959848 0.98976231 -0.091426022 0.21563379
0.017268784 -0.02431611 0.39673764 0.072806887 0.98745483 -0.14011461 0.23084874
0.029521942 -0.02431611 0.39533305 0.049391869 0.99785209 -0.04303113 0.20964213
0.036556412 -0.02431611 0.39377308 0.025027499 0.99968356 -0.0025361304 0.23856166
0.044796791 -0.02431611 0.39584756 0.073035583 0.99170244 -0.10579284 0.19753081
0.053988647 -0.026819095 0.39645103 -0.17965551 0.97790945 -0.10685047 0.19610821
0.06547077 -0.02431611 0.3961632 -0.18946794 0.98179477 0.013448215 0.09597414
0.076490812 -0.024316112 0.39525327 -0.10062916 0.99492246 -0.0017424161 0.015568907
0.08550778 -0.02431611 0.39710164 -0 1 -0 0
0.096342295 -0.02431611 0.39366484 -1.0481149e-06 1 1.6710495e-09 0
0.10472346 -0.02431611 0.39553627 -1.2216557e-06 1 4.4697963e-06 0
0.11565104 -0.024316108 0.39427546 3.9231568e-07 1 -4.744968e-06 1.5021303e-07
0.12500493 -0.02431611 0.39237571 -0.18592536 0.98212236 0.029451674 0.038144063
0.13535424 -0.02431611 0.39992654 -0.18287534 0.982768 0.026902387 0.075019509
0.14564858 -0.023792604 0.39521393 0.03012719 0.99859202 0.0436613 0.14017884
0.1562807 -0.02431611 0.39544079 -0.18612437 -0.98207277 -0.029844789 0.08247938
0.16686223 -0.02431611 0.39334726 -0.11756995 -0.99297488 -0.013351093 0.02998024
0.17444843 -0.02431611 0.39471811 0.084543318 0.99508107 -0.051633537 0.09990941
0.18560056 -0.02431611 0.39552179 -0.09256804 -0.99222863 -0.083147667 0.2399268
0.1937342 -0.024118595 0.3939245 -0.99457389 -0.10247204 0.017952852 0.23715168
-0.20668693 -0.015033219 0.39714909 0.99895716 0.028974835 0.035284679 0.11892812
-0.19452888 -0.016347326 0.39598343 0.96838927 0.24944322 -0.00050649431 0.19349377
-0.14589664 -0.017981602 0.39659992 0.056371722 -0.99774522 -0.03642308 0.20888299
0.14589666 -0.016464137 0.39708227 -0.20858899 -0.97788519 0.015203123 0.25451675
0.19452889 -0.016329762 0.39555201 -0.97764349 0.19852006 0.069304556 0.19136932
0.20668693 -0.017622197 0.39514577 -0.99871051 0.049835715 -0.0096843634 0.12602188
-0.20668691 -0.0029465901 0.39474392 0.9990465 0.038291167 0.020972615 0.081020355
-0.19452886 -0.005142109 0.3947106 0.93468845 0.35313824 0.040629797 0.13379006
-0.14589666 -0.0034071703 0.3944023 0.99980545 -0.0043807062 0.019233689 0.081487231
0.14589666 -0.0056985077 0.39237165 -0.99817538 -0.049980313 0.033882309 0.12380031
0.19452888 -0.0073427428 0.39487219 -0.96363413 0.26004633 0.061523806 0.14399926
0.20668693 -0.0052879057 0.39353052 -0.99831408 0.055369142 0.017410764 0.087930448
-0.20668693 0.0042631645 0.39268145 0.99865007 -0.046249952 -0.023639955 0.091735318
-0.19452888 0.0068107946 0.39988798 0.95012981 -0.30508393 0.064631164 0.12086224
-0.14589666 0.0057469625 0.39740589 0.99804002 -0.060578857 -0.01569384 0.18510246
0.14589666 0.0051090373 0.39426836 -0.99676955 0.079645067 0.010350351 0.11649571
0.19452886 0.004822473 0.39526922 -0.96552604 -0.25831231 -0.032158963 0.13345379
0.20668691 0.0051314482 0.39389455 -0.99963301 -0.010173118 -0.025106082 0.096414663
-0.20668693 0.015106428 0.3970733 0.99782687 -0.05805213 0.031168701 0.11613913
-0.19452886 0.014145454 0.39619505 0.93920076 -0.343364 -0.0017558949 0.17952639
-0.14589666 0.014390059 0.39444056 0.19680543 0.97214335 -0.12729885 0.24118008
0.14589666 0.014756306 0.39416006 -0.76225507 -0.63903755 -0.10294709 0.22441946
0.19452888 0.015748499 0.39646623 -0.93629873 -0.35107791 -0.0094372313 0.19471331
0.20668691 0.015490723 0.39319512 -0.99959219 -0.01773994 -0.022379011 0.10858288
-0.20668691 0.022669114 0.39369497 0.99981475 0.019179812 -0.0016240972 0.11671397
-0.19393656 0.025015345 0.39561194 0.96229738 0.26620182 -0.055860136 0.21449675
-0.18557076 0.02431611 0.39466444 0.16183899 -0.98300511 -0.086654536 0.22720045
-0.17396367 0.02431611 0.395394 -0.064747863 -0.99787325 -0.0075305109 0.074739248
-0.1609173 0.02431611 0.39639691 0.21963434 0.9753592 0.020859245 0.063544229
-0.15636837 0.024316108 0.39531335 0.26325288 0.96454167 -0.018904313 0.095764764
-0.14618833 0.023291001 0.39621639 -0.0029846011 -0.99852151 0.054275431 0.16957171
-0.13799432 0.02431611 0.39570633 0.18760727 -0.98218077 -0.01115296 0.1236541
-0.12458965 0.02431611 0.3940075 0.1600426 -0.98710757 0.0022381854 0.030848647
-0.11282626 0.02431611 0.39567178 2.506041e-06 -1 4.8147153e-09 1.402877e-07
-0.10375188 0.02431611 0.39663583 7.3768592e-07 -1 -1.3472088e-05 3.9295568e-07
-0.096129581 0.02431611 0.39486358 -0.00024938316 -0.9999966 0.0025780494 2.0189691e-05
-0.080803685 0.02431611 0.39627817 0.11072477 -0.99385029 -0.0012836264 0.014339298
-0.074564919 0.02431611 0.39517945 0.14269605 -0.98966521 -0.01416467 0.035218466
-0.061522163 0.02431611 0.39620441 0.15849209 -0.98707628 -0.023679703 0.11840254
-0.054711245 0.027823335 0.39516088 0.23299439 -0.97084266 -0.056374405 0.18179207
-0.04241113 0.02431611 0.39323306 -0.20186044 -0.97386628 -0.1041 0.20266567
-0.034976579 0.02431611 0.39534506 -0.079942562 -0.98838657 -0.12923288 0.22388403
-0.028787836 0.02431611 0.39733422 -0.028419618 -0.99182755 -0.12437976 0.22269329
-0.016740758 0.02431611 0.39284736 -0.13832887 0.97757041 -0.15881199 0.22773574
-0.0053708744 0.02431611 0.39529392 0.18108873 -0.97057664 -0.15870695 0.24978787
0.0065705329 0.02431611 0.39576355 -0.15137933 -0.98571128 -0.073874757 0.22237059
0.01347294 0.02431611 0.39434615 0.10000779 -0.99489635 0.01340316 0.24331188
0.025599092 0.02431611 0.39322403 -0.036317889 -0.99860775 0.038256366 0.25336671
0.038750269 0.02431611 0.3926461 -0.032541528 0.98794729 -0.15133157 0.19744769
0.04432404 0.024316112 0.39504117 -0.022881506 0.99704605 -0.073318601 0.22016644
0.054037839 0.026608981 0.3965292 -0.1125531 -0.99351269 -0.0162625 0.18234223
0.067180142 0.02431611 0.39418748 -0.17514589 -0.98446155 0.012622284 0.079716101
0.085617334 0.02431611 0.3922053 0.00051445584 -0.99999768 0.0020755155 1.0432796e-05
0.094573364 0.02431611 0.39429644 -2.4756137e-06 -1 5.1225593e-06 4.159626e-07
0.1071953 0.02431611 0.39449364 1.1268086e-06 -1 5.0418489e-06 1.6349514e-07
0.11536416 0.02431611 0.39581588 0 -1 0 4.3552464e-07
0.12281373 0.02431611 0.3953312 -0.10459407 -0.99408138 0.02936426 0.019952867
0.13507511 0.02431611 0.39666378 -0.23675649 -0.97154742 0.0064760922 0.076920837
0.14542945 0.023961807 0.39502579 0.0028946169 -0.99905825 0.043293614 0.15931325
0.15330777 0.02431611 0.39494234 -0.17026791 0.98525614 -0.016708219 0.092113465
0.16616043 0.02431611 0.39527053 -0.19514945 0.98034734 -0.028911212 0.057487816
0.17474498 0.024316112 0.3953546 0.013843718 -0.99961859 -0.023896614 0.092727609
0.18358622 0.02431611 0.39486974 0.03386176 -0.99855286 0.041780308 0.19723938
0.19391155 0.023703344 0.39586428 -0.99926275 -0.036873024 -0.010696513 0.22125629
0.20668694 0.023843933 0.39446682 -0.99780798 -0.052776389 -0.039923206 0.11691801
-0.20668693 0.035084434 0.39450967 0.99700528 0.064895786 -0.042059772 0.11302949
-0.19452888 0.033533145 0.39283997 0.95793658 0.28696504 -0.0029589557 0.16450183
-0.054711249 0.033905845 0.39567128 0.50495696 -0.86309314 0.0094177034 0.17284417
0.054711241 0.03448781 0.3953886 -0.61316979 -0.78973043 -0.018674061 0.16107385
0.19452888 0.033211604 0.39624882 -0.92594665 0.33843929 -0.16757578 0.18690771
0.20668693 0.032939821 0.3947444 -0.99951816 0.020071033 -0.023678528 0.11604537
-0.20668693 0.04579768 0.39393455 0.99908251 0.0028654176 -0.042731296 0.082809761
-0.19452888 0.04350464 0.39506769 0.95919973 0.2801967 0.037758123 0.13682306
-0.054652978 0.044975419 0.39627001 0.77357215 -0.63244247 0.040033381 0.15399414
-0.044511933 0.048632219 0.39535427 0.54517543 -0.83727217 0.041941632 0.17921965
-0.034570634 0.048632219 0.39271554 0.32827806 -0.93233472 -0.15160944 0.2044941
-0.022923395 0.048632219 0.3942095 0.082864411 -0.9956798 -0.041896868 0.20595893
-0.016757237 0.048632219 0.39375961 -0.038431831 -0.99914235 -0.015413468 0.20446457
-0.0054480089 0.048632219 0.39551103 0.0066791219 -0.98319763 -0.18242213 0.24782728
0.0030305181 0.048632219 0.39236438 -0.094161257 -0.99553978 -0.005847238 0.21103343
0.014234859 0.048632219 0.39380375 0.0096082771 -0.9997465 -0.020362217 0.25228673
0.025705719 0.048632219 0.39628917 0.055007406 0.9869622 -0.151261 0.21885663
0.032343399 0.048632223 0.39468125 -0.18509887 -0.97785181 0.097694628 0.17624088
0.046629865 0.048632216 0.39476848 -0.65692884 -0.75346416 0.027134001 0.18410081
0.053768571 0.046183299 0.3947643 -0.69968307 -0.7144509 -0.0018480488 0.12225991
0.19452888 0.045662954 0.39324296 -0.9831987 0.17825082 -0.039331481 0.11846798
0.20668693 0.043463271 0.39377943 -0.99968743 -0.013655937 -0.020940529 0.088949412
-0.20668691 0.051159084 0.39488414 0.99983412 -0.01138704 -0.014211223 0.084088832
-0.19452886 0.053362902 0.3944864 0.99899763 0.043714106 -0.0096326619 0.084600829
0.19452888 0.056179222 0.39495125 -0.99706918 -0.063921511 -0.042036772 0.080532596
0.20668694 0.056691725 0.39256212 -0.99936628 0.033262111 -0.012673262 0.08024995
-0.20668694 0.063824989 0.39324942 0.99439323 -0.10367265 -0.02083395 0.083472751
-0.19452889 0.066193923 0.39390501 0.94669312 -0.32148832 0.020426603 0.12508646
0.19452886 0.06442862 0.39636832 -0.96988022 -0.24354616 0.0042106174 0.12146185
0.20668694 0.064912729 0.39521074 -0.99718601 -0.069947906 0.026968462 0.084722206
-0.20668693 0.079523556 0.39339826 0.9194743 -0.39230189 0.025812127 0.11553551
-0.19452888 0.074960597 0.39433932 0.87768126 -0.47757372 0.039988097 0.14267662
0.19452888 0.075870715 0.39383495 -0.73412997 -0.67795151 -0.037879672 0.14239055
0.20668693 0.073975801 0.39669544 -0.9653573 -0.25655001 -0.047617041 0.10617301
-0.20411609 0.083503664 0.39683571 0.59702134 -0.80177331 0.026925867 0.12581955
-0.19490358 0.084416315 0.3953487 0.5209406 -0.8530584 0.030203305 0.11724085
-0.1863216 0.08510638 0.39377421 0.27506787 -0.96067989 0.037839614 0.087613538
-0.17903915 0.08510638 0.39226311 0.18156748 -0.98333269 -0.0094975801 0.057099734
-0.16398586 0.08510638 0.39352098 1.4025987e-06 -1 3.479634e-05 4.1897429e-06
-0.15391548 0.08510638 0.39287063 -8.140215e-06 -1 4.3047876e-07 3.9662e-06
-0.14505704 0.08510638 0.39675945 -1.6757533e-05 -1 -2.3276277e-06 5.0122076e-06
-0.13718192 0.08510638 0.39473301 -1.3949112e-05 -1 1.6409775e-05 4.2231704e-06
-0.12485656 0.08510638 0.39523208 -4.2017136e-06 -1 1.6592927e-05 3.0028505e-06
-0.11447369 0.08510638 0.39515233 -6.7926235e-06 -1 4.613708e-05 3.9301258e-06
-0.1048988 0.08510638 0.39440554 -9.5134483e-06 -1 7.3792876e-07 4.5149809e-06
-0.095234938 0.08510638 0.39509439 -4.0453415e-06 -1 3.6217541e-05 1.1493821e-06
-0.086069569 0.08510638 0.39513046 2.9963564e-06 -1 1.6881993e-05 2.0482876e-06
-0.074465655 0.08510638 0.39616591 6.7956175e-06 -1 6.332458e-07 1.1113908e-06
-0.060382247 0.08510638 0.39269084 -2.2266565e-06 -1 6.5400454e-05 3.9487841e-06
-0.05270312 0.08510638 0.39737189 -5.1714037e-06 -1 3.1069296e-05 4.2711545e-06
-0.034082763 0.085106373 0.39218941 1.0122435e-06 -1 1.6882817e-05 4.0989312e-06
-0.025652135 0.085106373 0.39559782 -5.1821326e-06 -1 3.854332e-05 4.7099497e-06
-0.014988619 0.085106373 0.3953031 -9.5045124e-07 -1 -8.8996536e-08 4.2306074e-06
-0.0080477651 0.085106373 0.39828348 -1.7287477e-06 -1 1.7735631e-05 4.2736524e-06
0.0062320097 0.085106373 0.39695019 -4.7255767e-06 -1 3.8010254e-05 4.378197e-06
0.016603472 0.085106373 0.39486036 5.018822e-07 -1 7.022483e-09 4.2437041e-06
0.02419134 0.08510638 0.39610186 4.0288464e-06 -1 -1.9355906e-05 4.4681192e-06
0.0349099 0.08510638 0.39484718 -9.5398559e-07 -1 -1.4275657e-05 9.2852849e-07
0.044735324 0.08510638 0.39506993 -5.4498059e-06 -1 1.6056187e-07 1.0265633e-06
0.054051865 0.08510638 0.39576837 0 -1 0 1.0768347e-06
0.065424994 0.08510638 0.39498365 2.4153162e-06 -1 -6.9541201e-08 5.4355592e-06
0.075136721 0.08510638 0.39447069 -1.6369628e-06 -1 3.3964345e-05 4.0860523e-06
0.085213624 0.085106373 0.39340034 4.3659606e-06 -1 1.5157631e-05 4.2179427e-06
0.098810136 0.08510638 0.39727405 4.1327603e-06 -1 -1.6102334e-05 4.2817596e-06
0.10431867 0.085106388 0.39462799 8.2740335e-06 -1 -4.3046518e-07 3.9881907e-06
0.12655741 0.08510638 0.39537305 1.1431066e-05 -1 4.0719398e-05 4.1374915e-06
0.13636617 0.085106395 0.39216712 -6.7076448e-06 -1 1.611414e-05 4.2701267e-06
0.15742928 0.08510638 0.39630127 3.8544667e-06 -1 1.4010856e-05 4.8885154e-06
0.16434734 0.085106388 0.39441299 -1.0039993e-05 -1 -1.37204e-05 1.0147874e-06
0.17410645 0.085106373 0.3953414 -0.13897528 -0.99026382 0.0079696691 0.031440094
0.18846911 0.08510638 0.39621153 -0.39852932 -0.91660315 -0.031829007 0.11577586
0.1957033 0.084671095 0.39444059 -0.47477323 -0.87831932 -0.056084812 0.12883383
0.20508167 0.084286354 0.39443949 -0.86439657 -0.50159556 -0.034934871 0.10360467
-0.20598356 -0.083991915 0.40391016 0.8354041 0.54830605 -0.038216133 0.13312446
-0.19452888 -0.082985654 0.40414515 0.48786843 0.87283391 -0.012057772 0.12053375
-0.18787701 -0.085106373 0.40167144 0.35541177 0.93470979 9.7182106e-05 0.10062963
-0.17361706 -0.08510638 0.40534434 0.16436034 0.98628277 -0.015227995 0.035111208
-0.16442361 -0.085106373 0.40729347 -1.232355e-05 1 3.5427336e-05 4.2658698e-06
-0.1555355 -0.08510638 0.40428853 -4.3137957e-06 1 -2.7706863e-05 4.1540793e-06
-0.14705798 -0.08510638 0.40598419 -0 1 -0 9.9741408e-07
-0.13507883 -0.08510638 0.40430176 -4.5768015e-06 1 -3.2955978e-08 4.0146365e-06
-0.12485617 -0.08510638 0.40557465 8.4908843e-06 1 3.5279325e-05 4.2586926e-06
-0.11467935 -0.085106373 0.40572643 7.7906907e-06 1 3.3529021e-05 4.2367774e-06
-0.10412357 -0.08510638 0.40257224 -4.0143746e-06 1 -1.131014e-07 4.0061209e-06
-0.09540242 -0.085106373 0.40416256 -4.5323918e-06 1 -1.2193171e-07 4.3103255e-06
-0.084341981 -0.08510638 0.40512478 -8.9064652e-06 1 4.2748394e-05 5.1880515e-06
-0.074533805 -0.085106373 0.40491554 9.5999781e-07 1 -2.0379406e-05 4.4639078e-06
-0.063915595 -0.085106373 0.40785989 -2.3649582e-06 1 -3.0785813e-07 4.5579854e-06
-0.052779078 -0.08510638 0.40350029 -2.0008085e-06 1 -9.2906545e-09 4.4796116e-06
-0.044344835 -0.08510638 0.40502289 -8.2963629e-07 1 1.8170742e-05 1.2205411e-06
-0.032986917 -0.08510638 0.40569448 5.7391077e-07 1 1.7136372e-05 4.2521533e-06
-0.026465645 -0.08510638 0.40661219 -1.0912369e-06 1 9.9944275e-09 4.5533129e-06
-0.01610237 -0.085106388 0.40483671 -8.6149487e-07 1 1.9741883e-05 4.3239957e-06
-0.0023911074 -0.08510638 0.40459597 -5.7181296e-08 1 -6.8234574e-09 3.9105685e-06
0.004513701 -0.085106373 0.40743706 2.3919711e-06 1 3.6226094e-05 4.8398188e-06
0.013554348 -0.08510638 0.40246034 -0 1 -0 4.3010846e-06
0.023186535 -0.085106373 0.40569291 -8.8499689e-07 1 4.7205209e-08 3.9246147e-06
0.035669804 -0.085106373 0.40710592 1.5548035e-06 1 -1.6328708e-05 3.4374518e-06
0.044092789 -0.085106373 0.40368089 1.6902642e-06 1 -1.3908279e-05 3.8882799e-06
0.05230955 -0.085106373 0.40715298 2.0488719e-06 1 1.4583314e-05 4.15254e-06
0.064223483 -0.085106373 0.40401164 1.7130245e-06 1 1.6683176e-05 3.8943958e-06
0.078833312 -0.08510638 0.404181 -1.8527994e-06 1 1.9558667e-07 9.4997444e-07
0.087860435 -0.08510638 0.40652078 -2.4266478e-06 1 -2.2842394e-07 1.137348e-06
0.094811127 -0.085106388 0.40365794 -5.2409519e-06 1 -4.5355912e-07 4.8909292e-06
0.10336561 -0.085106373 0.40645629 -1.2336225e-06 1 5.9841917e-05 4.5254933e-06
0.11510626 -0.08510638 0.40320778 3.9423066e-06 1 -3.735434e-08 4.1200615e-06
0.12518165 -0.085106373 0.40666643 4.5113466e-06 1 -3.3463823e-07 4.3699488e-06
0.13394155 -0.08510638 0.40444359 4.2001452e-06 1 -5.9536518e-07 4.2719594e-06
0.14491072 -0.085106373 0.40289998 1.4626402e-05 1 3.8274735e-05 4.0482691e-06
0.15431973 -0.08510638 0.40321237 3.093666e-06 1 1.6974554e-05 4.0349996e-06
0.16337512 -0.085106373 0.40593144 9.9310701e-06 1 -1.6786233e-05 4.0997797e-06
0.17325866 -0.08510638 0.40526122 -0.16019335 0.98700303 0.012772758 0.028093785
0.18629615 -0.08510638 0.40679932 -0.32408297 0.94430912 -0.05701251 0.074385829
0.19408211 -0.083368182 0.40344134 -0.52876258 0.84812278 -0.03313547 0.12589985
0.2046088 -0.083633065 0.40075693 -0.83742094 0.54648918 -0.008701738 0.11101799
-0.20668693 -0.074435547 0.40362862 0.9815008 0.18972553 -0.025696056 0.10616188
-0.19452888 -0.07465478 0.40524337 0.92841911 0.36721683 0.056477681 0.1568611
0.19452889 -0.072892033 0.40569404 -0.90875298 0.41718069 -0.011325159 0.13136812
0.20668693 -0.074548461 0.40503994 -0.9514367 0.30779517 0.0054984693 0.10685824
-0.20668694 -0.067061841 0.40781868 0.99576128 0.08930447 0.022007544 0.088499591
-0.19452888 -0.064134657 0.40451834 0.96899784 0.24279663 0.045749549 0.11631119
0.19452888 -0.066239908 0.40370354 -0.92199904 0.38160866 -0.065517522 0.12384677
0.20668691 -0.066852033 0.40454265 -0.99447417 0.092314228 -0.049990855 0.089952625
-0.20668691 -0.053250697 0.40425944 0.99960595 0.026619943 -0.0089088166 0.086155869
-0.19452888 -0.05814581 0.4056412 0.99755418 0.069275029 -0.0093128439 0.084044814
0.19452889 -0.055650551 0.40532166 -0.99879122 0.047094215 -0.014079725 0.076768659
0.20668694 -0.054709487 0.40500993 -0.99881059 0.0072780899 -0.048212674 0.078057662
-0.20668693 -0.045530621 0.40195143 0.9999938 -0.0034293798 0.00079158612 0.086379871
-0.19452888 -0.044670153 0.40503559 0.97572309 -0.21787702 -0.022228884 0.12549643
-0.054222949 -0.045044102 0.40526485 0.71868873 0.6952033 0.013376943 0.14855719
-0.046135001 -0.048632219 0.40476528 0.67428929 0.73709077 0.045069195 0.18144099
-0.034314852 -0.048632219 0.40516698 0.08712218 0.99564111 -0.033295024 0.25255796
-0.025022643 -0.048632219 0.40723029 -0.085760772 0.99014425 0.11072218 0.24919277
-0.015105736 -0.048632219 0.40387678 0.10571158 0.99438083 -0.0056471108 0.21901216
-0.0035235512 -0.048632216 0.40582961 0.1081304 0.99203771 -0.064567797 0.22888091
0.0056136129 -0.048632219 0.40557131 0.14533426 0.98894215 -0.029520029 0.24230812
0.013972204 -0.048632219 0.40449357 -0.11705036 0.96720695 -0.22541019 0.22332197
0.025691342 -0.048632216 0.40492409 -0.026873691 0.99773681 -0.061635055 0.22204994
0.03450368 -0.048632219 0.4053731 -0.30468369 0.9497565 0.071627386 0.20157407
0.04460923 -0.048632219 0.40437123 -0.64913625 0.75786799 -0.065255992 0.19917853
0.054239623 -0.045699514 0.40611446 -0.73563862 0.67712361 0.018424051 0.1263961
0.19452888 -0.044737384 0.40547791 -0.98619962 -0.16483732 -0.015461101 0.10515162
0.20668693 -0.047156695 0.40492955 -0.99809122 -0.055163592 -0.027763072 0.083140939
-0.20668693 -0.039080791 0.40512794 0.99287504 -0.11898291 -0.0065089692 0.10874752
-0.19452888 -0.036190227 0.40713173 0.95952249 -0.27743196 -0.048458263 0.1579535
-0.054711249 -0.0321628 0.40510613 0.4536685 0.8911106 0.010327073 0.16802271
0.054711249 -0.034251876 0.40592706 -0.44344637 0.89046806 0.10208732 0.19239727
0.19452888 -0.035849765 0.40628511 -0.94511247 -0.3260434 0.021405164 0.16464068
0.20668693 -0.031126345 0.40244019 -0.999116 -0.035556998 -0.022424461 0.10938699
-0.20668693 -0.025926352 0.40595087 0.99624211 -0.065873489 -0.056234997 0.11628272
-0.19355597 -0.024501443 0.40502101 0.9873544 -0.051148705 0.15005074 0.25449675
-0.18354821 -0.02431611 0.4037016 -0.080036834 0.99669808 -0.013677178 0.20759648
-0.17555602 -0.02431611 0.40526491 -0.010307913 0.99961168 0.025889415 0.1313073
-0.16589016 -0.02431611 0.4076958 -0.12923126 0.99148512 -0.016017709 0.03201209
-0.15435095 -0.02431611 0.40662917 -0.12499943 0.99174929 -0.02843258 0.10148816
-0.14449209 -0.023819802 0.40521497 0.099180758 0.99070472 0.093098566 0.18059212
-0.13478097 -0.02431611 0.40379247 0.19931498 0.97863221 -0.050524455 0.08670029
-0.12686397 -0.02431611 0.40594116 0.107186 0.99383211 -0.028444482 0.036556911
-0.1122335 -0.02431611 0.40676489 -0.00021878524 0.99999619 -0.0027481508 1.5101243e-05
-0.10455396 -0.02431611 0.40745023 0.0045596943 0.99949497 -0.03144902 0.0044895038
-0.09339156 -0.02431611 0.40720257 -2.5708155e-07 1 -1.3569515e-05 0
-0.083063945 -0.02431611 0.40362746 0.041330375 0.99914443 0.0015124277 0.0039279982
-0.075251445 -0.02431611 0.40569097 0.16078359 0.98695779 -0.007938155 0.033286817
-0.064690016 -0.02431611 0.40534261 0.16342643 0.98637801 -0.018715348 0.079316735
-0.055095788 -0.026867181 0.40605056 0.25154808 0.96591681 -0.061059948 0.17129311
-0.0428515 -0.02431611 0.40613651 -0.20784529 0.97396839 -0.090475738 0.19466774
-0.036036868 -0.02431611 0.4062883 -0.10364289 0.98773628 -0.11677018 0.22224076
