# .PCD v0.7 - Point Cloud Data file format
VERSION 0.7
FIELDS x y z normal_x normal_y normal_z curvature
SIZE 4 4 4 4 4 4 4
TYPE F F F F F F F
COUNT 1 1 1 1 1 1 1
WIDTH 571
HEIGHT 1
VIEWPOINT 0 0 0 1 0 0 0
POINTS 571
DATA ascii
0.062552266 0.074033841 -0.004594815 -0.99795234 0.0012399179 0.063950434 0.009316586
-0.062552266 0.083036765 -0.0042779008 0.99878848 0.000927185 0.049200419 0.0051279827
0.062552258 0.083444156 -0.0031257209 -0.99957973 -0.0019259257 0.028926644 0.003923208
-0.062552258 0.09273345 -0.0042960281 0.99902719 0.010368205 0.042861607 0.0051145153
0.062552266 0.095566168 -0.0044192984 -0.99825692 -0.015484504 0.056950167 0.0062291743
-0.062552266 0.10416743 -0.0035033482 0.9993816 -0.010701628 0.033495542 0.0046979152
0.062552266 0.10517071 -0.0049296552 -0.99739414 6.6764173e-05 0.072145462 0.0089177163
-0.062552266 0.11449452 -0.0049650492 0.99716938 -0.00056855503 0.075185925 0.010209363
0.062552266 0.11567601 -0.0067941686 -0.99733967 0.0054286816 0.072691694 0.010302581
-0.062552266 0.12673534 -0.0041591432 0.99897182 -0.00060286367 0.045332436 0.0064379773
0.062552266 0.12455816 -0.0042385715 -0.99883568 0.01391182 0.046192493 0.0067061316
-0.062552266 0.13522403 -0.004534299 0.99663585 -0.061872233 0.053747185 0.081820875
0.062552266 0.13292131 -0.0039024591 -0.99790943 0.06057917 0.022515209 0.034635454
-0.062552258 0.14723846 -0.0017872063 0.35687405 -0.931925 -0.064472795 0.22905101
0.062552258 0.14322005 -0.008549857 -0.97224826 0.15677984 0.17364751 0.19749887
-0.18388472 0.15733618 -0.0056117037 -0.59619755 -0.80161178 0.04435147 0.085679285
-0.1758741 0.15679871 -0.0046687671 -0.38441154 -0.92301863 0.016265273 0.057402797
-0.16528226 0.15679871 -0.0045008748 -0.078063473 -0.99690306 -0.0095089106 0.0078380536
-0.1550557 0.15679871 -0.0049023805 -0.0023644853 -0.9999972 6.421109e-06 3.885058e-05
-0.14526898 0.15679871 -0.0057870997 -3.4681441e-05 -1 -2.8538759e-07 3.4737321e-05
-0.13616595 0.15679871 -0.0053937938 -1.6550459e-05 -1 -6.1696124e-07 4.4682882e-05
-0.1262462 0.15679871 -0.0038716593 -2.578866e-05 -1 2.2651566e-06 2.0337928e-05
-0.11623339 0.15679871 -0.0034235499 -3.2445158e-05 -1 -1.2008467e-06 3.3491491e-05
-0.10554371 0.15679871 -0.0028955764 -1.0380318e-05 -1 2.8872982e-08 3.5944224e-05
-0.094553374 0.15679871 -0.0045519527 -3.8687918e-05 -1 -4.6208406e-06 4.2562784e-05
-0.08634045 0.15679871 -0.0045004729 -0.096541874 -0.99532741 0.0017610114 0.01331009
-0.075508893 0.15679871 -0.0044053751 -0.2675285 -0.96300906 0.032281928 0.090144895
-0.063549019 0.15524058 -0.0058020228 -0.01349527 -0.99950904 -0.028278267 0.15714882
-0.056086946 0.15679869 -0.0047641089 0.21731287 -0.97449148 0.056048889 0.094669834
-0.042126019 0.15679871 -0.0065488596 0.14938368 -0.98673213 0.063593224 0.043465536
-0.034520827 0.15679871 -0.0048591704 0.039184596 -0.99827349 0.043756645 0.015181459
-0.026006235 0.15679871 -0.002987135 -7.2165067e-06 -1 4.4403512e-07 3.3886263e-05
-0.01379469 0.15679871 -0.0040340843 -0.0061784065 -0.99860436 0.052452363 0.0099138701
-0.0054401504 0.15679871 -0.0029183892 -0.00020037091 -0.99999505 0.0031313982 5.4427659e-05
0.0070497165 0.15679871 -0.0049112383 -0.0051046289 -0.99732953 0.072854601 0.014945985
0.016261727 0.15679872 -0.0038116015 0.0069034821 -0.99913239 0.041071348 0.0063752718
0.0239645 0.15679871 -0.0044612153 0.0036517801 -0.99687034 0.078970611 0.013250005
0.035539228 0.15679872 -0.0066917986 -0.044023514 -0.99377614 0.10232694 0.018973975
0.044407878 0.15679871 -0.0070719537 -0.20273533 -0.97523439 0.088410519 0.053814776
0.055425964 0.15679871 -0.0040628221 -0.19304346 -0.97978294 0.052531295 0.096415073
0.064031467 0.15478025 -0.0042761769 0.024495978 -0.99969923 -0.0012071413 0.12957975
0.074874438 0.15679871 -0.0060660136 0.24884766 -0.96830249 0.021567939 0.091259032
0.087100908 0.15679871 -0.005602214 0.099815786 -0.99500567 -0.00073735212 0.016764626
0.093488246 0.15679871 -0.004554146 0.010497926 -0.99994463 0.00070650229 0.000302556
0.10597542 0.15679871 -0.0059446292 8.1170465e-06 -1 -5.7923899e-07 3.3161567e-05
0.1123345 0.15679871 -0.0061538867 8.6878454e-06 -1 1.4758596e-06 2.1060157e-05
0.12721674 0.15679871 -0.0049707815 7.9539059e-06 -1 5.9011757e-07 3.2498287e-05
0.13624182 0.15679871 -0.0053395312 2.1337008e-05 -1 -9.5541884e-07 2.0619627e-05
0.14541866 0.15679871 -0.0065582865 4.2357191e-05 -1 -5.4464135e-06 3.3556888e-05
0.1548623 0.15679872 -0.0049147718 3.6355777e-05 -1 -5.2597798e-06 4.5004446e-05
0.16644412 0.15679871 -0.0056383894 0.090527758 -0.99562782 0.023021268 0.0095980922
0.17464833 0.15679871 -0.0040314868 0.2933943 -0.95524675 -0.037729144 0.050712399
0.18729658 0.15801258 -0.0042775581 -0.79141152 0.61126441 -0.0048619057 0.080631539
-0.18825862 0.16402063 -0.0042973803 0.8627786 0.50547123 0.010577632 0.060979769
0.18823673 0.16375799 -0.0050006779 -0.86409318 0.50311553 -0.01475647 0.0703796
-0.18936098 0.17724909 -0.0048463629 0.97630906 0.21622092 0.0083174938 0.017139126
0.1892563 0.17599285 -0.0010733717 -0.97146434 0.23716296 0.0032655415 0.023029301
-0.19012073 0.18636608 -0.0041081356 0.99516284 0.098234907 -0.0008865784 0.00086541602
-0.18986303 0.18327357 -0.00015353225 0.99373806 0.11172447 0.0015028807 0.0011392115
0.18984503 0.18305777 -0.0033612906 -0.9950074 0.099801727 -4.2804317e-05 0.00041089437
0.19003092 0.18528835 -0.008461142 -0.99567586 0.092886031 0.001295813 0.00015074825
-0.19081771 0.19473012 -0.0038534161 0.99654764 0.083022133 1.6380646e-06 0
0.19079614 0.19447103 -0.0047398228 -0.99654734 0.083025947 -1.9115716e-06 0
-0.19158801 0.2039737 -0.0061150966 0.99654365 0.083071224 1.4329232e-06 2.1706312e-05
0.19167775 0.20505053 -0.0068204366 -0.99654156 0.0830957 -2.9113275e-07 3.4991244e-05
-0.19240475 0.21377425 -0.005535393 0.99654645 0.083037764 -9.8099736e-07 2.464091e-06
0.19255228 0.21554507 -0.0049482645 -0.99654502 0.083053991 1.1390592e-06 0
-0.19336857 0.22534035 -0.0072895316 0.99654663 0.083035193 8.7109413e-07 2.0060234e-05
0.19346829 0.22653687 -0.0065388642 -0.99654895 0.083007105 7.961786e-07 0
-0.19431859 0.23674046 -0.0064418931 0.99654877 0.083009273 -9.0648552e-07 0
0.19423586 0.23574781 -0.0067335283 -0.99654144 0.083096631 -3.1756319e-06 0
-0.19491468 0.24389355 -0.0044888845 0.99654627 0.083039433 7.5894263e-07 0
0.19501308 0.24507444 -0.0059295222 -0.99654329 0.083074883 5.0795859e-07 1.2724704e-05
-0.19576269 0.25406978 -0.0051034731 0.99654394 0.083068155 -7.242042e-07 3.519003e-06
0.19591948 0.2559512 -0.0082297176 -0.99654412 0.083065011 -2.9380058e-06 9.1265956e-06
-0.19666474 0.26489425 -0.0051780678 0.99654853 0.083012663 1.1326806e-06 0
0.19648807 0.2627742 -0.0042959973 -0.996544 0.083065607 -4.186719e-07 3.5473928e-05
-0.19751658 0.27511621 -0.0057403208 0.99654531 0.083050802 9.0313739e-07 0
0.19757676 0.27583855 -0.005263357 -0.99654138 0.083098255 -3.0214333e-06 1.4474484e-05
-0.19846046 0.28644291 -0.0055975062 0.9965446 0.083059691 -6.3475744e-07 6.0031653e-06
0.19840288 0.28575188 -0.0071357791 -0.99654448 0.083060339 -1.4830883e-07 0
-0.19905415 0.29356712 -0.004762006 0.99654621 0.083039977 2.8773181e-07 0
0.19910441 0.29417044 -0.0047891191 -0.9965449 0.083055623 1.37394e-06 8.0298096e-06
-0.20025229 0.30794474 -0.0043096156 0.99654728 0.083027765 7.234579e-07 5.2832961e-06
-0.19980346 0.30255896 -0.0096101891 0.99654305 0.083078347 -1.3593854e-06 0
0.19975086 0.30192757 -0.0040381132 -0.99654961 0.082999222 1.2566147e-06 0
0.20020694 0.30740076 -0.0029745316 -0.99654895 0.083006993 1.7353702e-06 0
-0.20084307 0.31503436 -0.0043440196 0.99654579 0.083045468 1.945796e-07 0
0.200682 0.31310162 -0.0062287929 -0.99655193 0.0829712 1.5162721e-06 0
-0.20173907 0.32578617 -0.0070292116 0.9965477 0.083021358 -4.3194322e-07 0
0.20169705 0.32528204 -0.0056956871 -0.99654794 0.083019368 3.2077467e-06 0
-0.20266785 0.33693182 -0.0035463069 0.99654865 0.083010502 -4.1387516e-06 0
0.20236807 0.33333442 -0.005693221 -0.9965418 0.083092146 -2.1062783e-07 1.1834057e-05
-0.2032432 0.34383586 -0.0052340841 0.99654567 0.083046146 -1.3145623e-06 2.077e-05
0.20346838 0.34653807 -0.0055164378 -0.99654502 0.083054349 -1.9329875e-06 0
-0.20417635 0.3550337 -0.0062276712 0.99654776 0.083021127 5.8500001e-07 0
0.2038919 0.35162008 -0.00302563 -0.99654257 0.08308354 -4.725779e-06 1.0370693e-05
-0.20487496 0.36341703 -0.0070106769 0.99654382 0.083068572 1.8398645e-06 2.706898e-05
0.20501995 0.36515674 -0.0060443501 -0.99655324 0.082955219 3.9857637e-06 0
-0.20573927 0.37378842 -0.0053061051 0.99653471 0.083177872 9.5019541e-06 0
0.20587125 0.37537265 -0.0047583454 -0.99654025 0.083110668 1.3850636e-06 1.7283113e-05
-0.20672564 0.38562521 -0.0063857706 0.99577057 -0.091874234 -0.00034011871 0.027234977
0.20668989 0.3851963 -0.0051999423 -0.99697548 -0.07770849 -0.0010893792 0.02243582
-0.20761259 0.39626855 -0.0023674057 0.90141672 -0.43244883 0.020877982 0.067538984
0.20751043 0.39504221 -0.0041410001 -0.89712185 -0.43961138 -0.043751635 0.072105587
-0.20545684 0.40626389 -0.0050951997 0.68710053 -0.72650295 -0.0092844507 0.059632812
-0.19563267 0.40884638 -0.0055183531 0.52614099 -0.85038531 -0.0045302468 0.054470949
-0.188842 0.40981615 -0.0035895973 0.28078648 -0.95976406 0.0034397542 0.015818473
0.19599584 0.40879449 -0.0039287466 -0.53451246 -0.84505832 0.013147478 0.061722789
0.20462547 0.40684283 -0.0055212495 -0.65090042 -0.75566596 -0.072784968 0.062954336
-0.18111978 0.41091895 -0.0040130378 0.15437117 -0.98801249 -0.00094803073 7.3213065e-05
-0.17415981 0.41191289 -0.0048436737 0.14135206 -0.98995942 -3.5307053e-06 0.0001006765
-0.163882 0.41338062 -0.0039504133 0.141351 -0.98995954 3.9662203e-07 0
-0.15630357 0.41446292 -0.0080806836 0.14121012 -0.98997962 4.5247649e-05 6.4084415e-05
-0.14566036 0.41598284 -0.0067030475 0.14039269 -0.99009591 -2.8530421e-06 6.0776132e-05
-0.13237305 0.41788039 -0.0038832966 0.11528842 -0.99333191 -0.00047765017 0.00019186988
-0.12630041 0.41871762 -0.0039257924 0.10511729 -0.99445885 0.001385177 0
-0.11335199 0.41972315 -0.0026114134 0.081990793 -0.99663305 9.4820942e-05 0
0.1153485 0.41958132 -0.0045631514 -0.084963329 -0.99638391 0.0004826097 0.00010109856
0.12410796 0.41890731 -0.0057632821 -0.099658437 -0.99501878 0.0024121623 0.00031399992
0.13380367 0.41767612 -0.0077275871 -0.11881001 -0.99291641 -0.0010481065 5.4615462e-05
0.1456493 0.41598445 -0.005905705 -0.13949272 -0.99022305 1.0103251e-05 5.4603213e-05
0.15415812 0.41476926 -0.0041098231 -0.141404 -0.98995197 3.8459368e-07 0.00015178144
0.16471486 0.41326168 -0.00471813 -0.14136764 -0.98995721 4.513603e-08 0
0.17320444 0.41204929 -0.0054403683 -0.14140856 -0.98995137 3.3499825e-06 8.4316976e-05
0.18308803 0.41063786 -0.0047546886 -0.21378575 -0.97687542 0.0031570501 0.0093571553
-0.10570526 0.42026639 -0.0032826941 0.074467838 -0.99722338 0.00043876847 0.00010403051
-0.09475071 0.42104462 -0.004850002 0.18633118 -0.98244798 0.0087549919 0.020916205
-0.084082678 0.42180255 -0.0040499866 0.22192553 -0.9748593 -0.019961385 0.091397621
-0.074239016 0.42471853 -0.0056651821 0.021291591 -0.99972111 -0.010222633 0.13435416
-0.065643266 0.42311257 -0.0055278381 -0.072771907 -0.99667937 -0.036531832 0.10489708
-0.054472372 0.42390621 -0.0055647949 -0.019310329 -0.99700552 -0.074880935 0.027609086
-0.045586608 0.42452919 -0.0047143204 -0.001036633 -0.9976024 -0.069197729 0.015812049
-0.033276759 0.42479852 -0.0045872359 0.030278141 -0.99728495 -0.067126431 0.010005369
-0.024722453 0.42479855 -0.0054109665 0.015998384 -0.99603337 -0.087529644 0.013483776
-0.012223581 0.42479849 -0.0031414656 6.3763237e-06 -1 5.8667473e-07 0
-0.0048121628 0.42479852 -0.0053864317 -0.0051571704 -0.99630362 -0.085746579 0.012823425
0.0049880343 0.42479852 -0.0045334655 0.0040247408 -0.99920398 -0.039690375 0.0054376931
0.015480006 0.42479852 -0.0054836306 -0.015630614 -0.99734324 -0.071148217 0.0087412046
0.023175769 0.42479849 -0.0046085799 -0.0079900417 -0.99653524 -0.082787313 0.014206582
0.035278376 0.42479849 -0.0065910676 -0.030523269 -0.99533516 -0.091522932 0.018397951
0.043242134 0.42467803 -0.0036080773 -0.038559191 -0.99862355 -0.035555128 0.0065082381
0.055703476 0.42381874 -0.005981836 0.12749793 -0.99082321 -0.044872861 0.050973903
0.065987296 0.4230881 -0.0074413284 0.15531224 -0.98349237 -0.092849098 0.1182502
0.07376571 0.42314404 -0.0048915069 -0.13111393 -0.99092972 -0.029450485 0.14704265
0.084282018 0.42178836 -0.0051533729 -0.23995689 -0.97071958 -0.011139189 0.093239583
0.095152013 0.42101613 -0.0055662361 -0.17707442 -0.9841696 -0.0073975236 0.023023434
0.10355567 0.4204191 -0.0049097524 -0.075261876 -0.99716383 0.00019816327 5.4257725e-05
-0.07400319 0.43317571 -0.0061137308 -0.80998254 -0.55256248 -0.19647668 0.23940045
0.074403524 0.43557769 -0.0038541295 -0.99587423 -0.022344703 0.087950051 0.17287484
-0.07628908 0.44689101 -0.0053851539 0.98795205 0.11677284 0.10156191 0.046212308
0.075908102 0.44460514 -0.0034631805 0.98059642 -0.19475451 -0.022392647 0.059978239
-0.077922784 0.45669323 -0.0064645126 0.98266155 0.15694506 0.098715134 0.016655451
0.077599347 0.45475259 -0.0054520015 -0.98434919 0.14640915 0.098086968 0.017188007
-0.079131991 0.46394846 -0.0037608605 0.9894715 0.13926454 0.039389785 0.0031422281
0.079499565 0.46615395 -0.004943816 -0.98789734 0.14143072 0.063687921 0.01203304
0.080136336 0.46997458 -0.0035469737 -0.99701428 0.076008327 0.013608492 0.0086228652
-0.080953315 0.4748764 -0.0037270458 0.99902344 -0.017687669 0.040487733 0.019582031
0.08111012 0.47581735 -0.0060270648 -0.99763215 -0.062934019 0.027740184 0.037456479
-0.082635112 0.48517653 -0.005338816 0.94932175 -0.3142933 0.0028429758 0.06038605
0.082702883 0.48537388 -0.0050166985 -0.95410848 -0.29889905 -0.018339172 0.045424413
-0.081283927 0.49169368 -0.0063267536 0.85441577 -0.51958823 0.0013397929 0.079261221
-0.077028491 0.49594915 -0.0015714574 0.6668272 -0.74519718 -0.0047659068 0.058748282
0.077766977 0.49521065 -0.003910738 -0.74334699 -0.66807914 0.033249781 0.06983462
-0.070137501 0.5 -0.0089655053 0.4241232 -0.89736342 0.12189513 0.062719248
-0.063792981 0.5 -0.0062370361 0.2374423 -0.96570945 0.10500609 0.028190956
-0.056788962 0.5 -0.0067238226 0.1064029 -0.98355508 0.1459378 0.023216274
-0.044748869 0.5 -0.0060241711 -0.015113005 -0.99314135 0.11593903 0.0079508154
-0.036132447 0.5 -0.0048828488 -0.017931558 -0.99310637 0.1158368 0.011063469
-0.024227306 0.5 -0.0032618197 0.026940182 -0.9976306 0.063304715 0.0090565411
-0.015315521 0.5 -0.0053428081 0.0049416879 -0.99152267 0.12983963 0.0099687194
-0.0031456193 0.5 -0.0041204686 0.01413527 -0.99534529 0.095330827 0.011389441
0.0046774871 0.5 -0.0046965522 0.0019075649 -0.99264127 0.12107658 0.0110448
0.014681228 0.5 -0.0043884208 0.01528562 -0.99646229 0.082639284 0.0066427514
0.025982887 0.5 -0.0054026055 -0.013486664 -0.9955166 0.093620881 0.006920998
0.033565015 0.5 -0.0040772199 -0.015094526 -0.99644494 0.082882442 0.0071844156
0.044215173 0.5 -0.0030369996 0.0038901663 -0.99939561 0.034543447 0.0050755455
0.05507819 0.5 -0.0043384545 -0.091961846 -0.9901095 0.10595404 0.008571472
0.065600038 0.5 -0.0057437192 -0.28471389 -0.94807392 0.14175269 0.041557062
0.071236469 0.5 -0.0040734857 -0.44115716 -0.89192224 0.099273257 0.058488198
-0.062003512 -0.49012333 0.0044602379 0.83877242 0.54445601 0.005342715 0.061499104
-0.05601358 -0.49608499 0.0040092217 0.68509722 0.72788268 -0.028786419 0.056783263
-0.044833038 -0.5 0.0079592708 0.2752319 0.95166773 -0.13629296 0.026545532
-0.034344643 -0.5 0.0054707369 0.080315389 0.99076265 -0.10926533 0.010263244
-0.025490683 -0.5 0.0060799434 0.0071937121 0.9868564 -0.16143991 0.013338782
-0.014170473 -0.5 0.0051872679 0.016606767 0.98958057 -0.14301926 0.011592151
-0.0055669812 -0.5 0.0060803061 -0.0021656854 0.98971337 -0.14304841 0.011661856
0.0051485752 -0.5 0.0050002257 -0.0029371595 0.99389321 -0.11030723 0.0065674968
0.014810775 -0.5 0.0058479332 -0.005373117 0.98670369 -0.16244061 0.014510981
0.023818182 -0.5 0.0056558358 -0.010610773 0.99219191 -0.12426832 0.010831722
0.036404345 -0.5 0.0063591399 -0.1285203 0.9785946 -0.16073324 0.021037219
0.046206318 -0.5 0.0043312279 -0.33948508 0.93326694 -0.1173143 0.038268786
0.055291563 -0.49683529 0.0039765961 -0.54911542 0.83441198 -0.047211979 0.043349143
-0.062552266 -0.48484173 0.0048237173 0.93694258 0.34355813 -0.064082615 0.037904557
0.062552258 -0.48630545 0.0073569305 -0.88349533 0.45542711 -0.1096457 0.052038882
-0.062552266 -0.47551826 0.0052700127 0.99297965 0.096575156 -0.068297692 0.014349891
0.062552266 -0.47498798 0.0056715454 -0.9887923 0.14232126 -0.045105167 0.018487751
-0.062552258 -0.46767354 0.0039723422 0.99775356 0.032315087 -0.058681533 0.010019992
0.062552266 -0.46428254 0.0044956487 -0.99832726 0.011187817 -0.056724317 0.006674997
-0.062552258 -0.45833433 0.00098474836 1 0.00016379675 -5.1773527e-06 3.0718006e-06
0.062552266 -0.45639113 0.0034196265 -0.99963099 -0.0036055257 -0.026922192 0.0040292349
-0.062552266 -0.44408017 0.0038651973 0.9984647 0.0013249501 -0.055376589 0.0073596155
0.062552258 -0.44613796 0.0041992087 -0.99846119 -0.0018437109 -0.055425141 0.0064582955
-0.062552266 -0.4366273 0.0048517464 0.99874836 0.0035812671 -0.049888249 0.0072481781
0.062552258 -0.43613973 0.0048584202 -0.99843633 -0.0033777056 -0.055798531 0.0044975728
-0.062552266 -0.42502466 0.0053919135 0.99789506 -0.0024864983 -0.064801827 0.0087587032
0.062552266 -0.42385039 0.0031500102 -0.99964744 0.0046029338 -0.026150452 0.0017816056
-0.062552266 -0.41558126 0.0055326018 0.99758786 -0.014838483 -0.067810096 0.0090782791
0.062552266 -0.4149003 0.006594222 -0.99655169 -0.02300548 -0.079721048 0.0092528397
-0.062552266 -0.40465888 0.004640176 0.99696451 -0.046088401 -0.062750041 0.0057111061
0.062552258 -0.40712523 0.0056221765 -0.99566805 -0.031074841 -0.087632559 0.0079849213
-0.062552258 -0.39652243 0.0042651463 0.99789202 -0.055932458 -0.032909088 0.0033291355
0.062552266 -0.39498577 0.0056893067 -0.99306828 -0.079278208 -0.086777776 0.0073813321
-0.062410165 -0.38451269 0.0033290756 0.99260557 -0.10854313 -0.054338254 0.0059897527
0.062464342 -0.38479093 0.0049445461 -0.98972946 -0.1164481 -0.082918718 0.0092088422
-0.061540246 -0.37381577 0.0033401598 0.98795247 -0.1439627 -0.05678634 0.0056129186
0.061341006 -0.37573442 0.005741335 -0.98364925 -0.14549872 -0.10613357 0.0071971556
-0.060166739 -0.3666788 0.0036130892 0.98616534 -0.15698878 -0.053219747 0.0063652252
-0.059102505 -0.36361164 0.0037541925 0.98526645 -0.16054045 -0.058963384 0.0080378493
0.05938933 -0.36495295 0.0046394533 -0.98417795 -0.14989011 -0.094481423 0.0057697874
-0.056498144 -0.35390788 0.0060079098 -0.97527331 0.16890727 0.14252113 0.011080574
0.056705013 -0.3547138 0.0045837471 -0.98695272 -0.13762684 -0.083565526 0.0059904531
-0.055486787 -0.34549734 0.004471336 0.9855023 -0.12758622 -0.11183487 0.0086085321
0.05548678 -0.34285435 0.0055849594 -0.98460042 -0.071064301 -0.15972412 0.012928103
-0.055486776 -0.3349542 0.0069215149 0.98447138 -0.053680908 -0.16713578 0.014517593
0.055486772 -0.33578634 0.005247876 -0.99202234 -0.077230692 -0.099634975 0.01391463
-0.055486772 -0.32397342 0.0041500102 0.99605638 -0.0066901408 -0.088469446 0.010698271
0.05548678 -0.32466379 0.0043510641 -0.9945944 0.0087569933 -0.10346671 0.01216868
-0.055486776 -0.31494075 0.0048391963 0.99678224 0.020532928 -0.077482685 0.011907434
0.055486772 -0.31394154 0.0056429668 -0.99336553 -0.011539491 -0.11441911 0.0147478
-0.05548678 -0.30486071 0.0036108438 0.99565905 0.01574287 -0.09173473 0.013209479
0.05548678 -0.30429104 0.0027892794 -0.99830306 0.0015788263 -0.058211353 0.011931501
-0.055486776 -0.29459512 0.0058394615 0.99251181 0.0017006731 -0.12213717 0.014762601
0.055486772 -0.29464647 0.0047911978 -0.99601209 0.0061531956 -0.08900632 0.016393157
-0.055486783 -0.28681839 0.0029338803 0.99616879 -0.0074152043 -0.087136336 0.011586958
0.055486776 -0.28553998 0.0058390289 -0.99001306 -0.02596355 -0.13856445 0.017496929
-0.055486776 -0.27712283 0.0042307409 0.99192995 -0.013080877 -0.12611106 0.010941518
0.055486776 -0.27585074 0.0047018155 -0.98996234 -0.019848511 -0.13993044 0.018614095
-0.05548678 -0.26490262 0.0044341623 0.98614287 -0.018331131 -0.16488259 0.012251097
0.05548678 -0.26648599 0.0048423745 -0.9882322 -0.0096001569 -0.15265994 0.014703539
-0.055486776 -0.25371394 0.0048181056 0.98498362 -0.0066070673 -0.17252123 0.015267232
0.05548678 -0.25391179 0.0066264668 -0.97408026 0.020792339 -0.22524489 0.013992507
-0.055486776 -0.24576268 0.0051656398 0.99248052 -0.0027850552 -0.12237108 0.016432501
0.05548678 -0.24375118 0.0068804016 -0.97661656 -0.0096693728 -0.21477115 0.021016989
-0.05548678 -0.23488939 0.0047271741 0.99158502 0.012173605 -0.12888357 0.01723427
0.055486776 -0.23837775 0.0010488066 -0.99967378 -0.016455503 -0.019533172 0.023672933
-0.055486783 -0.22300898 0.0038527483 0.99421161 0.017418453 -0.10601801 0.015269932
0.055486776 -0.22574365 0.0068757976 -0.99084783 0.0020831421 -0.13496733 0.020500507
-0.055486783 -0.21490344 0.0060407873 0.98456699 0.018794021 -0.17399606 0.019132799
0.055486776 -0.21607503 0.0036848781 -0.99893802 -0.0028318835 -0.045987941 0.02241347
-0.055486787 -0.20595637 0.0049037836 0.99137908 -0.031525172 -0.12717596 0.020139333
0.055486783 -0.20579532 0.0059016328 -0.98704141 0.0013613193 -0.16046008 0.025870772
-0.05548678 -0.19436717 0.00509548 0.99526697 -0.012599993 -0.09635821 0.02343826
0.055486776 -0.19665366 0.0044786171 -0.99445236 -0.019090435 -0.10344108 0.017841475
-0.05548678 -0.1860355 0.0045463955 0.99268633 0.011792556 -0.12014514 0.015859371
0.05548678 -0.1869511 0.0053406931 -0.99393028 -0.012140022 -0.10934035 0.015944477
-0.055486776 -0.17383575 0.0047760014 0.9976266 0.034797989 -0.059415657 0.012388283
0.05548678 -0.17414778 0.0058228364 -0.99019122 0.015791457 -0.13882345 0.017402643
-0.05548678 -0.16316958 0.0072597996 0.98637044 0.032470245 -0.16130383 0.017455265
0.05548678 -0.16663149 0.0042304522 -0.99663872 -0.0031145196 -0.081863783 0.012994718
-0.05548678 -0.15396316 0.00437443 0.99271375 0.011829831 -0.11991479 0.014097546
0.05548678 -0.15568951 0.0040443996 -0.99612802 0.022721248 -0.084928192 0.013150509
-0.055486776 -0.1455496 0.0044591022 0.99615175 -0.0043940516 -0.087535061 0.012560373
0.05548678 -0.14308763 0.0011446817 -0.99966073 0.0089449482 -0.024463415 0.011180054
-0.05548678 -0.13320279 0.0064453594 0.98925 0.0076911822 -0.14603165 0.011727856
0.05548678 -0.13408713 0.0056019113 -0.99446541 -0.0062898789 -0.10487584 0.01445249
-0.055486776 -0.12577182 0.0028455209 0.99819577 0.015847422 -0.057914611 0.011547394
0.055486776 -0.12618314 0.00460272 -0.99711162 0.010538002 -0.075214684 0.012623391
-0.055486776 -0.11453454 0.0051665655 0.98291028 0.10575189 -0.15067832 0.010819747
0.05548678 -0.11516452 0.0053453683 -0.98768735 0.07112933 -0.13933516 0.010615338
-0.056037117 -0.10565172 0.0058420268 0.97074246 0.14106397 -0.19431935 0.016478291
0.056154288 -0.1053073 0.0062887557 -0.98176932 0.12147354 -0.14619534 0.014738233
-0.059034832 -0.094189256 0.0054481444 0.97675908 0.18096371 -0.11486488 0.011818247
0.05891902 -0.094635457 0.0064151315 -0.9751206 0.16922066 -0.14319247 0.011911805
-0.0609647 -0.084486984 0.0054856725 0.97952431 0.16103666 -0.12082778 0.010890817
-0.059945751 -0.086075887 0.0088024894 0.96889013 0.15356006 -0.19409089 0.022994084
0.061237235 -0.084794655 0.0039591985 -0.98526955 0.14989039 -0.082321413 0.0049809739
-0.062259629 -0.077621378 0.0035393124 0.99155849 0.12467957 -0.035590343 0.0056756628
0.062552258 -0.073291525 0.0036652503 -0.99369383 0.096970975 -0.056296021 0.0052235331
-0.062552266 -0.065205902 0.0046269675 0.99451351 0.066157252 -0.081031106 0.0079500061
0.062552258 -0.063505471 0.0046648695 -0.99536967 0.071380332 -0.064374626 0.0045815413
-0.062552258 -0.055547625 0.0059195897 0.99662316 0.042360269 -0.070340775 0.0069931615
0.062552266 -0.054113954 0.0052743629 -0.99586833 0.049160339 -0.076351255 0.006784969
-0.062552266 -0.045559864 0.0056963656 0.99746245 0.020032965 -0.068317413 0.0064106309
0.062552266 -0.044303913 0.0055635623 -0.99718612 0.018149111 -0.072735593 0.0072139767
-0.062552266 -0.032740023 0.0039983951 0.99892437 -0.0051104105 -0.046087876 0.0050951848
0.062552258 -0.034690607 0.0051615979 -0.99892122 -0.0014652922 -0.04641312 0.0048814975
-0.062552266 -0.024365064 0.0041609174 0.99858534 -0.0053512771 -0.052902222 0.0068692612
0.062552266 -0.026524505 0.0052523315 -0.99711615 -0.01204773 -0.074927852 0.0086643407
-0.062552258 -0.013329908 0.0026078506 0.99917132 0.0077648549 -0.039954748 0.0042901449
0.062552266 -0.014498691 0.0048925276 -0.99869603 0.0038356145 -0.050907101 0.0059555937
-0.062552266 -0.0042388551 0.0053633098 0.996849 -0.0013078289 -0.079312041 0.0082886061
0.062552258 -0.0071953894 0.0048925052 -0.99860531 -0.00053526351 -0.052794367 0.0069086449
-0.062552266 0.0049823085 0.00463787 0.99738657 -0.0089886514 -0.071688175 0.0071551478
0.062552258 0.0051242141 0.0061469683 -0.99837095 -0.0028403823 -0.056985307 0.006956371
-0.062552266 0.013117922 0.0048666266 0.99875855 0.0078259911 -0.04919352 0.0054405024
0.062552266 0.014327789 0.0047427854 -0.99853599 0.00061111333 -0.054087233 0.0064293235
-0.062552258 0.024710286 0.0088104932 0.98625368 -0.0062635052 -0.16511974 0.038168594
0.062552266 0.025438184 0.0038369999 -0.99971384 0.0022456816 -0.023817021 0.0025076109
-0.062552266 0.034828205 0.0049853134 0.99790835 0.0031790724 -0.06456548 0.0074786688
0.062552266 0.035571579 0.006045016 -0.99792695 0.002103843 -0.0643223 0.0081566731
-0.062552258 0.042672865 0.0051903706 0.99920171 0.001957732 -0.039900709 0.0041833483
0.062552258 0.045817189 0.0043756589 -0.99908441 0.00042723201 -0.042779528 0.0048726443
-0.062552266 0.055404056 0.005283697 0.99789256 -0.0016411965 -0.064867713 0.0069999993
0.062552258 0.05368825 0.0047497125 -0.99870139 0.0040317113 -0.050786696 0.0062593198
-0.062552266 0.063830942 0.0050278343 0.99870908 0.0026524316 -0.050727021 0.0063207536
0.062552266 0.063715152 0.0065385788 -0.99839967 -0.0020428866 -0.056514803 0.0072677098
-0.062552266 0.074429929 0.0055503002 0.99804801 0.0024301598 -0.062404841 0.0075637107
0.062552258 0.074049637 0.00659604 -0.9991172 0.0034765895 -0.041865125 0.005193885
-0.062552266 0.085164353 0.0068657114 0.9975611 0.0013594127 -0.069785401 0.0073111276
0.062552258 0.085906468 0.0059251757 -0.99632275 -0.0057365908 -0.085487112 0.013912163
-0.062552266 0.095315225 0.0036334177 0.9994145 0.0025973588 -0.034114283 0.003638163
0.062552266 0.094491005 0.003653893 -0.99949658 -0.0054837707 -0.031251147 0.0041002692
-0.062552266 0.10644706 0.0059216232 0.99724084 -0.00076694827 -0.074230015 0.0077392636
0.062552266 0.10569467 0.005604398 -0.99710852 0.00023021466 -0.075990029 0.0095317662
-0.062552266 0.11418448 0.0050823418 0.99715191 -0.0091044772 -0.074867859 0.0086050248
0.062552266 0.11505701 0.0065724999 -0.9970057 -0.0023966583 -0.077290684 0.010409781
-0.062552266 0.12596016 0.0028088256 0.99910259 0.0074855429 -0.041690037 0.0054896465
0.062552266 0.12465153 0.0051592723 -0.99808282 -0.0052103023 -0.061672892 0.0090316292
-0.062552266 0.1339425 0.0053981617 0.99816555 -0.012726554 -0.059190895 0.072716907
0.062552266 0.13638718 0.0044328957 -0.99639297 -0.07443805 -0.040742129 0.07879214
-0.062552266 0.14752539 0.0051086261 0.083732106 -0.98052275 -0.17766264 0.23156081
0.062552266 0.14617859 0.004800987 0.58066076 -0.79391605 -0.180362 0.22651702
-0.18498936 0.15753904 0.0055254949 0.66922379 0.74156743 0.047088753 0.085018523
-0.17599542 0.15679871 0.0055246102 -0.33464214 -0.94183338 -0.031056603 0.053249322
-0.16653836 0.15679871 0.0050966172 -0.14818949 -0.98895895 0.00030089647 0.023547338
-0.15573242 0.15679872 0.004604287 -0.0055353483 -0.99998432 -0.00079922337 6.5798951e-05
-0.14781633 0.15679871 0.0079978323 -1.6749724e-05 -1 8.2891506e-07 1.999841e-05
-0.13602066 0.15679871 0.0040375497 -1.110144e-05 -1 1.754777e-06 4.2132706e-05
-0.12450965 0.15679871 0.0062751956 -9.1636384e-06 -1 2.8191474e-07 2.1216107e-05
-0.11492621 0.15679871 0.0041457573 -8.5652155e-06 -1 3.5404412e-07 3.3364777e-05
-0.10560285 0.15679871 0.0060650175 -1.7311439e-05 -1 1.4309722e-07 3.4496607e-05
-0.094776735 0.15679871 0.0046507698 -2.6748981e-05 -1 5.932032e-07 3.357571e-05
-0.085805953 0.15679871 0.0042472142 -0.10848052 -0.99399388 -0.014428169 0.013340982
-0.07415092 0.15679871 0.006123919 -0.19012599 -0.9817524 -0.0037753049 0.09279599
-0.06335552 0.15545037 0.0047985446 -0.055292729 -0.99804068 0.029282963 0.15875371
-0.0545738 0.15679871 0.003305855 0.22972417 -0.97313535 -0.015311092 0.089824028
-0.044818152 0.15679871 0.0059101279 0.23313145 -0.97205204 -0.027651699 0.068695411
-0.035706751 0.15679871 0.0057025473 0.063740894 -0.99446136 -0.083569005 0.024226574
-0.025383363 0.15679872 0.0064788354 0.0075980318 -0.99479091 -0.10165278 0.018064937
-0.016914217 0.15679871 0.0045869206 -0.00010281616 -0.99873745 -0.050233725 0.0093537811
-0.0052359006 0.15679871 0.0055690464 -0.0028150713 -0.9988122 -0.048644103 0.0082074841
0.00321358 0.15679871 0.0048396313 0.005616161 -0.99590826 -0.090195447 0.01431301
0.015384325 0.15679871 0.0039828522 7.1334005e-09 -1 1.2502346e-07 1.2492973e-05
0.023675045 0.15679871 0.0037951975 -0.00072259485 -0.99997753 -0.006664501 0.00018028641
0.03599219 0.15679871 0.0049632145 -0.045745622 -0.99759674 -0.052040234 0.014458101
0.044102121 0.15679872 0.0038959789 -0.16305637 -0.98657602 -0.0089618694 0.031624727
0.05467838 0.15679871 0.0055567808 -0.17223296 -0.98138434 -0.084973767 0.094488986
0.064423062 0.15549181 0.0054307645 0.060668997 -0.99815792 -0.00028172327 0.11463906
0.075413033 0.15679871 0.0062085008 0.24339046 -0.96976453 0.017830916 0.088127293
0.084630862 0.15679871 0.0053904508 0.11331689 -0.99349165 0.011556044 0.01797859
0.096081235 0.15679871 0.0069303522 1.9690699e-05 -1 4.4378025e-06 4.6252106e-05
0.1049272 0.15679871 0.0050534173 2.5193538e-05 -1 1.2049353e-06 4.3181186e-05
0.11478861 0.15679871 0.0045423987 7.8433695e-06 -1 4.7872567e-07 3.2985758e-05
0.12432478 0.15679871 0.0039503272 2.4228613e-05 -1 -1.3607369e-07 3.2049396e-05
0.13203762 0.15679871 0.0062845238 3.2766264e-05 -1 5.8786117e-08 4.3284239e-05
0.14387937 0.15679871 0.0057238508 3.6258967e-05 -1 -2.6296746e-06 3.4949677e-05
0.15412596 0.15679871 0.0032563466 -4.1730811e-08 -1 6.2788109e-07 1.9926203e-05
0.16498886 0.15679871 0.0060597411 0.13850652 -0.99012166 -0.021795018 0.022571651
0.1743353 0.15679871 0.005793788 0.30992141 -0.95075834 -0.0027135233 0.050748486
0.18540558 0.15741123 0.0031907973 -0.7531566 0.65630072 -0.044994567 0.06745521
-0.18827341 0.1641984 0.004775086 0.86320877 0.50432563 -0.022942591 0.065100588
0.18836728 0.16532482 0.0053040395 -0.88936704 0.45614696 0.030921338 0.059593003
-0.189164 0.17488556 0.0047899727 0.95890516 0.28295702 -0.020886533 0.030611092
0.18897516 0.17261927 0.0070480155 -0.93449628 0.35547659 -0.018793274 0.049092077
-0.19021402 0.18748578 0.0037206495 0.99654782 0.083020888 -4.3998847e-07 1.7022812e-06
-0.18991655 0.18391597 0.0096290782 0.99406397 0.10879081 -0.0011341576 0.00091187994
0.18982911 0.18286683 0.0041936897 -0.9944554 0.10514814 -0.0015039593 0.00084934098
0.19018829 0.18717682 0.0043615303 -0.99654824 0.083015867 5.7274826e-07 0
-0.19079997 0.1945169 0.0082581621 0.99654061 0.083107293 -1.4366976e-06 1.8517541e-05
0.19067881 0.1930632 0.0046552541 -0.99654371 0.083070464 1.2498822e-06 0
-0.19160695 0.2042007 0.004471262 0.99654436 0.083062172 -1.5434948e-08 1.733229e-05
0.19168362 0.20512095 0.004050469 -0.99654424 0.083064377 -4.9854111e-07 4.6898504e-06
-0.19249178 0.21481894 0.0030635642 0.99654377 0.08306919 5.5849853e-07 0
0.19234554 0.21306399 0.0030227229 -0.99654919 0.083004668 -1.0331764e-06 0
-0.19309485 0.22205558 0.0076175462 0.99654806 0.083018109 -6.1629004e-07 0
0.19335845 0.22521877 0.0047595194 -0.99654651 0.083036199 1.0446731e-06 0
-0.1940636 0.23368077 0.0054429034 0.99654484 0.083056495 2.841737e-08 7.877019e-06
0.19421431 0.23548917 0.0057373387 -0.99654508 0.08305379 6.9982764e-07 0
-0.19508179 0.24589877 0.0038062676 0.99654913 0.083004341 7.029667e-07 0
0.19511862 0.24634093 0.0047953245 -0.99654537 0.083049633 1.4729466e-06 2.6840532e-06
-0.19580992 0.2546365 0.0043621855 0.99654037 0.083110861 -3.1711108e-06 1.7539898e-05
0.19600643 0.25699472 0.0053146691 -0.99654579 0.083045363 1.1493626e-06 1.722209e-05
-0.19668563 0.26514494 0.003961511 0.9965446 0.083059102 -8.8458506e-07 0
0.19677863 0.26626107 0.005941466 -0.9965452 0.083052352 -3.0886852e-07 8.4150925e-06
-0.19754301 0.27543354 0.0055474876 0.99654871 0.0830108 1.9931626e-06 1.3120729e-05
0.19739103 0.27360979 0.0036874483 -0.99654227 0.083087467 5.6049385e-06 2.9827999e-05
-0.19833517 0.2849395 0.0063472087 0.99654871 0.083010539 4.1582365e-07 0
0.19826216 0.28406304 0.0033908074 -0.99654061 0.083107576 4.5545148e-06 0
-0.19911651 0.29431546 0.0044719442 0.99655086 0.082984231 -1.2624553e-06 0
0.19925679 0.29599896 0.0059727286 -0.99654758 0.083023295 -1.4309743e-06 0
-0.20028198 0.30830097 0.0054221032 0.99654722 0.083027832 -1.5004828e-08 0
-0.19974622 0.3018721 0.0059684748 0.99654496 0.083054468 -7.962098e-07 1.6681803e-05
0.19978487 0.30233583 0.0048961397 -0.99654979 0.082996532 1.7642274e-07 1.8657918e-05
0.20027275 0.30819044 0.0041280072 -0.99654478 0.083057672 -8.8863845e-07 0
-0.20090055 0.31572407 0.0059811855 0.99653989 0.083116375 2.6434768e-06 1.1516124e-05
0.20079476 0.31445432 0.0040142168 -0.99654168 0.083094619 4.536329e-06 0
-0.20172587 0.3256276 0.0050095757 0.99654299 0.083077997 -1.8494217e-06 0
0.20162895 0.32446474 0.0013792228 -0.99654597 0.08304286 -2.163537e-07 1.5298471e-07
-0.20246923 0.33454812 0.0029216865 0.99654621 0.083040133 -3.5666453e-08 0
0.20237739 0.33344617 0.0041108783 -0.99654889 0.083007902 -1.3247447e-06 6.8103664e-06
-0.20319647 0.34327516 0.004655459 0.99654466 0.083058894 -9.1945566e-07 0
0.20344824 0.34629631 0.0022231396 -0.99654931 0.083002329 4.1491758e-06 1.290719e-05
-0.2041547 0.354774 0.0053940387 0.99654281 0.083080873 3.53414e-06 8.5446281e-06
0.20428117 0.35629141 0.0064749271 -0.99654526 0.083051257 1.5714501e-07 0
-0.20505352 0.36555955 0.0051187333 0.99654996 0.082995415 -1.1701196e-06 0
0.20500697 0.36500102 0.0052783 -0.99654847 0.083012447 8.0377411e-08 1.512555e-05
-0.20577477 0.37421444 0.0048419801 0.99653858 0.083131805 3.3491216e-07 1.3132674e-05
0.20589782 0.37569126 0.0055327001 -0.99711853 0.075859174 -1.9031479e-05 0.00017590895
-0.20663953 0.38459173 0.0041054361 0.99725801 -0.073402338 -0.0094125411 0.022756441
0.20666741 0.38492626 0.0051868442 -0.99692768 -0.072084837 -0.030641174 0.02374498
-0.20747918 0.39466748 0.0030781769 0.94405454 -0.32725748 -0.040788442 0.066356011
0.20748624 0.39475223 0.0065503758 -0.92740989 -0.37392834 -0.0094132442 0.064979129
-0.20584211 0.40583315 0.0052625486 0.68355107 -0.72988242 -0.0054387348 0.05961287
-0.19360052 0.40913656 0.0054167672 0.49480093 -0.86900419 0.0019567944 0.054816615
-0.1880268 0.40993255 0.001900957 0.29200593 -0.95641589 -0.0010773707 0.018047873
0.18899091 0.4097949 0.0048797522 -0.31417564 -0.94866949 -0.036330082 0.02398636
0.19563106 0.40884662 0.0064734281 -0.51759535 -0.85561913 0.0033306819 0.056540124
0.20669356 0.40473378 0.005236248 -0.80831057 -0.5867247 -0.048868038 0.073902383
-0.18390478 0.41052121 0.0039764447 0.23108597 -0.97291911 -0.0052705696 0.012557985
-0.17524007 0.4117586 0.0058250036 0.14141014 -0.98995107 -2.434984e-06 0
-0.16559277 0.4131363 0.0057621375 0.1413779 -0.98995572 3.2902076e-07 0.00019655812
-0.15576696 0.41453955 0.0047644298 0.14139946 -0.98995256 1.2147548e-06 9.5451607e-05
-0.14388575 0.41623625 0.0064907596 0.13500862 -0.99084377 -0.0011546013 3.2391057e-05
-0.13472226 0.41754493 0.0055139549 0.12111806 -0.99263805 -0.00027995586 0.00018169571
-0.12486129 0.41887119 0.006088471 0.10247768 -0.99473488 0.00090286933 4.63447e-05
-0.11585914 0.41954502 0.004615413 0.088820882 -0.99604744 0.00062941061 0.00020901104
-0.10952936 0.41999471 0.0096789952 0.079942413 -0.99679905 0.00084074121 0
0.10964061 0.41998681 0.0065400298 -0.079023771 -0.99687266 -0.00050748134 0.00011853234
0.11546265 0.41957322 0.0052898373 -0.088952728 -0.99603432 -0.001750926 8.8705659e-05
0.12494967 0.4188396 0.0040119393 -0.10155634 -0.99482912 -0.0011897997 8.418315e-05
0.13429378 0.41760606 0.0057244776 -0.12437972 -0.99223363 -0.0014646892 0.00017451314
0.14487745 0.41609466 0.00744928 -0.13632014 -0.99066478 0.00024173073 7.5665186e-05
0.15493971 0.41465762 0.0049105636 -0.14137179 -0.98995656 -3.1558147e-07 0
0.16770223 0.41283509 0.007180904 -0.14127785 -0.98997003 -2.4267692e-06 0.00013030002
0.1767448 0.4115437 0.0035863027 -0.14457175 -0.98949391 0.00093715941 9.5823867e-05
0.18435395 0.41045707 0.005588958 -0.23189792 -0.9726913 0.0097477939 0.012821494
-0.10542072 0.42028663 0.0071024536 0.07666111 -0.99705631 0.0013395012 5.3147152e-05
-0.092728093 0.42118835 0.0057732966 0.23387671 -0.97118598 0.045819342 0.044338547
-0.081435055 0.42199063 0.00075755513 0.23645359 -0.96836323 0.079764016 0.11326554
-0.074340001 0.42462215 0.0058977716 -0.04523677 -0.99897623 -0.00017089203 0.18285766
-0.063871421 0.42323843 0.0052431887 -0.12317004 -0.99128181 0.046791602 0.10468186
-0.055602212 0.42382589 0.0045034108 -0.09984269 -0.9935298 0.054129448 0.043944687
-0.043497901 0.42465958 0.0051928372 0.043305315 -0.99600011 0.078156315 0.012941932
-0.032571316 0.42479855 0.0055556307 0.018309006 -0.99781495 0.063483097 0.0090614874
-0.021738514 0.42479852 0.0065259673 0.011364033 -0.99815524 0.059640288 0.0079670409
-0.012404935 0.42479849 0.0038848971 -0.0071728798 -0.99927837 0.037299376 0.0040327208
-0.0041200751 0.42479852 0.0047720713 0.0020493078 -0.99392033 0.11008283 0.015921954
0.0027712227 0.42479855 0.0047862865 -0.0010989907 -0.99908113 0.042845611 0.007432662
0.015951641 0.42479852 0.0048800493 -0.0029484218 -0.99964213 0.026588827 0.0031227344
0.024183873 0.42479852 0.0047658645 -0.010200853 -0.9978047 0.065435618 0.010457552
0.035610598 0.42479852 0.0043245242 -0.019358635 -0.99906123 0.03875494 0.0070206723
0.043750353 0.42463842 0.0044845869 -0.035891708 -0.99587744 0.083306193 0.012237185
0.056998022 0.42372677 0.0064559965 0.14194855 -0.98512655 0.09683118 0.083034806
0.066813402 0.42302939 0.0051613087 0.14212002 -0.98601067 0.08709123 0.10877639
0.074832559 0.42387578 0.0051077073 -0.14165252 -0.98905295 0.041336022 0.12237553
0.085399322 0.42170903 0.0060284785 -0.27344602 -0.96090728 -0.043410461 0.098392785
0.095689349 0.42097795 0.004864648 -0.18624841 -0.98249316 0.0043215677 0.024084212
0.10415574 0.42037648 0.0049770623 -0.078756027 -0.99689394 9.7801449e-06 0.0002513777
-0.074259058 0.43471089 0.0058728983 -0.97823453 -0.18858673 0.086557686 0.18526399
0.074466847 0.43595764 0.0045215008 -0.99371678 0.090890184 -0.065313533 0.1625213
-0.075904034 0.44458079 0.0058764941 0.98480743 0.14475045 -0.095925227 0.078441851
0.07604865 0.4454484 0.0047192289 -0.99261189 0.11636302 -0.034370091 0.053468719
-0.077350736 0.45326096 0.0054692528 -0.98068339 -0.17484158 0.08769539 0.015851226
0.077733643 0.45555845 0.0045282482 -0.98662972 0.16031981 -0.029312927 0.0016689594
-0.079160474 0.46411943 0.0038698851 0.98944384 0.14385335 -0.017523455 0.0015305035
0.079184726 0.46426493 0.0051942407 -0.98569661 0.15234494 -0.072064117 0.011420961
-0.081035659 0.4753705 0.0045819064 0.99752253 -0.064997956 -0.026907999 0.029809797
0.081050999 0.47546259 0.0053066364 -0.9974978 -0.070417009 -0.0062967753 0.029180769
-0.082605809 0.4847914 0.0038064374 0.95947599 -0.28125352 -0.017388137 0.038457949
0.082775012 0.48580667 0.0046540503 -0.93538725 -0.35275793 0.024747632 0.049205717
-0.081768498 0.49120912 0.0071722381 0.87048966 -0.48531598 -0.081952564 0.075416461
-0.076502211 0.49647549 0.0058211181 0.67673421 -0.73025829 -0.093561411 0.062546909
0.076309144 0.49666849 0.002061252 -0.70624202 -0.70704824 0.036124956 0.063700698
0.081300385 0.49167722 0.0073372652 -0.84802693 -0.52963477 0.018366501 0.079972617
-0.071935989 0.5 0.0058399588 0.45700842 -0.88316172 -0.10568212 0.057905681
-0.064151585 0.5 0.0036237396 0.281553 -0.95727432 -0.06598413 0.041117795
-0.05565805 0.5 0.0055110948 0.092358418 -0.98826522 -0.12166266 0.017154098
-0.045650274 0.5 0.0046451688 -0.0033702292 -0.99805301 -0.062280223 0.0037302685
-0.034592126 0.5 0.0048785093 -0.0032474392 -0.99808484 -0.061774913 0.0041028522
-0.026560314 0.5 0.0056787301 -0.011166512 -0.99089271 -0.13418943 0.016005604
-0.014338106 0.5 0.006318646 0.019658212 -0.99309546 -0.11565018 0.011305888
-0.0044518295 0.5 0.0054605827 -0.0037907544 -0.99473548 -0.10240608 0.011811139
0.0043572043 0.5 0.0054806597 0.0031595055 -0.99121815 -0.13219911 0.018635731
0.014803435 0.5 0.0043114615 -0.0071878736 -0.99594796 -0.089643933 0.0072732875
0.024727365 0.5 0.0069983313 -0.037733242 -0.97959799 -0.19739299 0.023943506
0.03574327 0.5 0.0050904811 -0.012216168 -0.98555261 -0.16892828 0.016491624
0.044387117 0.5 0.0068751201 -0.010007086 -0.98283553 -0.18421239 0.0152122
0.055367738 0.5 0.0034773154 -0.074234918 -0.994573 -0.072894968 0.012455039
0.065721393 0.5 0.0036180229 -0.33219978 -0.94308203 0.015479472 0.048109591
0.071935296 0.5 0.0052815322 -0.44439751 -0.8953793 -0.028402984 0.069028646
-0.054826822 -0.49705574 0.014390046 0.55993146 0.79784948 -0.22341208 0.061395533
-0.044555008 -0.5 0.016024105 0.20227709 0.9262988 -0.3178907 0.043899398
-0.033872757 -0.5 0.013808717 0.039789554 0.95144075 -0.3052496 0.031379618
-0.027926138 -0.5 0.014597155 0.016136924 0.95066822 -0.30978939 0.031045392
-0.014717718 -0.5 0.014451689 0.0041892403 0.96191937 -0.27330127 0.024023579
-0.0046493183 -0.5 0.012663273 -0.00056475739 0.97173816 -0.23606081 0.02011244
0.00750949 -0.5 0.01560874 0.0076534846 0.90895772 -0.41681805 0.041238021
0.015964279 -0.5 0.013346546 0.024113014 0.9491328 -0.31395131 0.026151329
0.024914941 -0.5 0.01666995 -0.0034477049 0.91534686 -0.4026517 0.035474308
0.035969138 -0.5 0.016141513 -0.097716756 0.92373937 -0.37034705 0.038368121
0.044318136 -0.5 0.014188554 -0.21827295 0.93429786 -0.2818588 0.036010228
0.054544393 -0.49745071 0.014580629 -0.49566573 0.81999815 -0.28621399 0.057180129
-0.062529929 -0.48436949 0.014274416 0.93680245 0.29386362 -0.18985644 0.050412506
0.062511407 -0.48629865 0.016472321 -0.82468194 0.50629276 -0.25212556 0.079423539
-0.062552266 -0.47324169 0.017547125 0.95986813 0.14777233 -0.23836204 0.04494597
0.062552266 -0.47524068 0.014708064 -0.96459007 0.15034331 -0.21670912 0.052721597
-0.062552258 -0.46383435 0.012632208 0.9809823 0.016268451 -0.1934143 0.037266918
0.062552266 -0.46407324 0.015164086 -0.97273469 -0.031029802 -0.22983567 0.043222953
-0.062552266 -0.45363569 0.016922284 0.96133989 -0.033373225 -0.27333474 0.057210103
0.062552266 -0.45491305 0.014696862 -0.96463853 0.058112919 -0.25709036 0.055350233
-0.062552266 -0.44602209 0.013926436 0.98014551 0.0079320036 -0.19812056 0.044669099
0.062552258 -0.44487962 0.014108755 -0.98077857 0.017009428 -0.19438104 0.044193983
-0.062552258 -0.43538076 0.013239326 0.97748047 0.0060887844 -0.21093783 0.046956349
0.062552266 -0.43414378 0.015049796 -0.97669178 -0.013332532 -0.21423224 0.043535929
-0.062552266 -0.42486089 0.015411006 0.96037334 -0.045304827 -0.27500996 0.049340807
0.062552266 -0.42374381 0.016489526 -0.97031975 -0.029120641 -0.2400656 0.049134016
-0.062552266 -0.41414532 0.016208889 0.96004319 -0.058000825 -0.2737754 0.049091358
0.062552258 -0.41433078 0.016095679 -0.96743131 0.0033869676 -0.25311103 0.047051501
-0.062552266 -0.40426326 0.013697789 0.97292447 -0.057443071 -0.22387141 0.035144109
0.062552266 -0.40402693 0.014848026 -0.96751744 -0.076308668 -0.24101236 0.038248744
-0.062355448 -0.39634752 0.01501677 0.96452117 -0.095165178 -0.24625696 0.028374204
0.062552266 -0.39647505 0.012057667 -0.9675011 -0.061323091 -0.24531871 0.035802972
-0.060988761 -0.38350973 0.013131354 0.96759474 -0.10907542 -0.22773439 0.024030058
0.059400894 -0.38127026 0.018226432 0.90461427 0.17477374 0.38875079 0.049646389
0.061121609 -0.38572857 0.014228676 -0.95773643 -0.13723642 -0.25279865 0.028469142
-0.058943808 -0.37490258 0.015403035 0.9179371 -0.15276593 -0.36613396 0.041768696
0.058367401 -0.37276557 0.016302167 0.90093559 0.16651228 0.40073535 0.047894444
0.060160019 -0.37668332 0.011547407 0.95916271 0.17709337 0.22055575 0.025064941
-0.057306204 -0.36508462 0.015046471 -0.92747903 0.16531216 0.33534259 0.034821775
0.057601523 -0.36595964 0.014507294 0.91520739 0.18236594 0.3593581 0.050894365
-0.055404663 -0.35368663 0.014487037 0.92370707 -0.088607192 -0.37271166 0.036620058
0.05550516 -0.35438839 0.014896832 -0.92086411 -0.12936541 -0.36779597 0.046808586
-0.054362357 -0.34525058 0.014410903 0.93849939 -0.096875817 -0.33141208 0.035007454
0.054184087 -0.34570923 0.015391459 -0.93199688 -0.12082405 -0.34173587 0.042112611
-0.053568929 -0.33445722 0.016237274 0.9249469 -0.054700404 -0.37613967 0.03714608
0.05398272 -0.33486098 0.014842883 -0.93910581 -0.028346853 -0.34245697 0.038930718
-0.054056268 -0.32460111 0.01486416 0.9247824 -0.0066828481 -0.38043767 0.031149717
0.053763591 -0.32638186 0.015796293 -0.92352921 -0.035211951 -0.38190839 0.030590262
-0.053757597 -0.3149074 0.015809886 0.91590738 -0.014688408 -0.40112075 0.03261954
0.054325253 -0.31474367 0.014311145 -0.92448097 -0.0041414518 -0.38120571 0.02313322
-0.054422412 -0.30436411 0.013686683 0.9438234 -0.010374874 -0.33028752 0.030231461
0.053797349 -0.30702779 0.015708873 -0.93449229 -0.034032226 -0.35435286 0.025827544
-0.053652 -0.29539791 0.015992694 0.91362947 -0.023055721 -0.40589365 0.026354725
0.055203822 -0.29554355 0.011406389 -0.95884883 0.00581413 -0.28385764 0.023049323
-0.054686517 -0.28415424 0.013390074 0.946253 -0.045834575 -0.32016325 0.025926439
0.053746834 -0.28471386 0.015088789 -0.92786151 -0.042912621 -0.37044767 0.026514452
-0.053398114 -0.27627468 0.014978153 0.92402631 -0.043059215 -0.37989643 0.026831878
0.053126074 -0.27434286 0.015712876 -0.9215126 -0.0075105471 -0.38827562 0.0237645
-0.05332882 -0.26640233 0.014978888 0.92070067 -0.028536692 -0.38922471 0.025131989
0.053253364 -0.26612487 0.015276347 -0.90896088 -0.022179192 -0.41629091 0.026127981
-0.051594097 -0.25375476 0.017243674 0.85608393 0.008169069 -0.51677233 0.032991584
0.05328954 -0.2534034 0.01496551 -0.91014993 -0.0048779962 -0.41425043 0.023143571
-0.054036755 -0.24530755 0.013672986 0.92355442 0.026405115 -0.38255715 0.025795234
-0.049845949 -0.24264988 0.019824278 0.8134135 0.0067533962 -0.58164668 0.045210578
0.051357519 -0.24518204 0.017698867 -0.87515783 -0.019090528 -0.48346075 0.021034302
-0.05319339 -0.23225422 0.015117453 0.90101385 -0.0055243084 -0.43375513 0.024480868
0.049931332 -0.23367849 0.019704215 -0.81275123 -0.010069274 -0.58252388 0.041902002
0.053089619 -0.23396644 0.015102898 -0.89853781 0.0089931218 -0.43880397 0.016868936
-0.053338211 -0.22438988 0.014890065 0.9168998 -0.017297953 -0.39874247 0.020810615
0.053668685 -0.22615443 0.014358978 -0.89666605 -0.03139165 -0.4415932 0.01886362
-0.053435531 -0.21691211 0.014776981 0.89641321 -0.0049917819 -0.4431912 0.018069031
0.053610098 -0.21382651 0.014477271 -0.91608781 0.009799079 -0.40085801 0.0236292
-0.054329768 -0.20401001 0.013519601 0.93408567 -0.01932445 -0.35652566 0.025440944
0.054026261 -0.20554316 0.013634719 -0.93299931 -0.0057959021 -0.35983145 0.02565298
-0.051862165 -0.19353428 0.017130617 0.86718738 0.050341796 -0.49543095 0.029944001
0.054267261 -0.19414969 0.013398495 -0.92170036 0.025038278 -0.38709372 0.026213549
-0.053050976 -0.18695892 0.015494901 0.89091706 0.045640785 -0.45186701 0.019776111
0.052615155 -0.18307088 0.016524272 -0.88836789 0.017400471 -0.4588024 0.026869027
-0.053738911 -0.17286955 0.015195546 0.90716058 0.037876949 -0.41907647 0.023289086
0.052919902 -0.1751516 0.01674022 -0.87243783 0.060230106 -0.4849996 0.038027108
