# .PCD v0.7 - Point Cloud Data file format
VERSION 0.7
FIELDS x y z normal_x normal_y normal_z curvature
SIZE 4 4 4 4 4 4 4
TYPE F F F F F F F
COUNT 1 1 1 1 1 1 1
WIDTH 559
HEIGHT 1
VIEWPOINT 0 0 0 1 0 0 0
POINTS 559
DATA ascii
0.2850965 -0.021023968 -0.0053872811 -0.017856639 0.99983907 0.0017179493 0.066665225
0.294283 -0.020985978 -0.0060131447 -0.051949494 0.99853706 0.014999618 0.065211073
0.30531171 -0.020901088 -0.0046007494 -0.012181746 0.99941832 0.031853594 0.06899365
0.31574017 -0.020974733 -0.0045378096 -0.046920985 0.99815762 0.038467806 0.07235112
0.32539883 -0.021122694 -0.0039131558 0.024558689 0.99853295 0.048257858 0.062414061
0.33489975 -0.021001309 -0.0044330773 0.0081272479 0.99855649 0.053094115 0.069085211
0.346008 -0.020900177 -0.0053981869 0.023706699 0.9897173 0.14105895 0.063666865
0.35460082 -0.02088836 -0.0052558943 0.016267037 0.99568367 0.091374144 0.064800195
0.36473757 -0.020853432 -0.0045682271 -0.0034068194 0.99901384 0.044270586 0.071338914
0.37451932 -0.020920038 -0.0043486161 -0.054603778 0.99702013 0.054491915 0.067489535
0.38442644 -0.020893268 -0.0047223428 -0.088647865 -0.9887538 -0.1204472 0.11879643
0.3932907 -0.020933175 -0.0041794432 -0.32859701 -0.94434965 -0.015092304 0.25361475
0.40535197 -0.02324846 -0.0041548689 -0.94600677 -0.28887364 -0.14704765 0.16215117
0.49948761 -0.024220468 -0.0045955819 -0.99790651 -0.0081391875 0.064158797 0.006620287
-0.49593332 -0.014656126 -0.0052832798 0.52509594 0.48911998 -0.69644523 0.10269849
-0.48507428 -0.014584935 -0.0048240442 0.24476893 0.5143227 -0.82192481 0.074969441
-0.47515517 -0.014401624 -0.0042854734 0.075769134 0.49637857 -0.8647933 0.05266159
-0.46444434 -0.014622194 -0.0041418155 0.043559939 0.5728792 -0.8184815 0.059276655
-0.45488971 -0.014317289 -0.0043929913 0.012543219 0.64611208 -0.76313943 0.071064904
-0.44494861 -0.014919503 -0.0043608872 0.017420474 0.67790258 -0.73494542 0.07050804
-0.43462968 -0.01562921 -0.0053301728 -0.0047332342 0.68481559 -0.72870106 0.072709449
-0.42490023 -0.01549554 -0.0045883041 0.012017632 0.66946751 -0.74274415 0.070513882
-0.41504851 -0.015154708 -0.0044308947 -0.0018309742 0.64765632 -0.76193041 0.062365986
-0.40474862 -0.016031349 -0.0046940395 0.027678205 0.71019149 -0.70346433 0.069591336
-0.39500985 -0.015802663 -0.0039001096 0.042932294 0.71595395 -0.69682628 0.068272777
-0.38578144 -0.015811002 -0.004627218 -0.0081957392 0.68375933 -0.72966158 0.076236024
-0.3747173 -0.015560591 -0.0039252196 0.042214319 0.69810009 -0.7147547 0.072547302
-0.36542299 -0.015326495 -0.0041361498 -0.021055752 0.7086587 -0.70523715 0.076497339
-0.35564899 -0.015574949 -0.0038540307 0.02806359 -0.70909929 0.70454985 0.074116923
-0.34518859 -0.01619775 -0.0042005922 0.033069566 0.74724036 -0.6637305 0.076986559
-0.33443171 -0.015441356 -0.0033270044 0.044529919 0.68194628 -0.73004556 0.075986102
-0.32438767 -0.016175779 -0.0041615576 0.056627944 0.76960605 -0.63600308 0.073622666
-0.3145434 -0.015869454 -0.0038827101 0.027120158 0.81225896 -0.58266616 0.062896632
-0.30432761 -0.016855994 -0.0037993921 0.037701312 0.86558932 -0.49933344 0.063387617
-0.29518393 -0.016780153 -0.0033230756 -0.0042187474 0.83680904 -0.54747862 0.061880678
-0.28626567 -0.016832976 -0.0033443328 0.0028343867 0.83417886 -0.55148667 0.068021774
-0.27523357 -0.015561038 -0.0025814869 -0.015353628 0.75589204 -0.65451622 0.079089902
-0.26556647 -0.017126814 -0.0046366765 -0.019611964 0.87169021 -0.48966476 0.059760485
-0.25522032 -0.017431101 -0.004577559 0.0030891416 0.87709939 -0.48029894 0.068005823
-0.24529098 -0.017296327 -0.0039017166 0.01317397 0.88308436 -0.46902943 0.061960753
-0.23600779 -0.01657174 -0.0031073401 0.0056485017 0.85819465 -0.51329327 0.0691384
-0.22494045 -0.017788263 -0.0042167408 0.0060923537 0.87780273 -0.47898349 0.064573988
-0.21598096 -0.01763699 -0.0039616222 0.068540245 -0.87227982 0.48417994 0.063442655
-0.20501649 -0.017418433 -0.00329327 0.0014492702 0.86401093 -0.50347096 0.061723176
-0.19513755 -0.017313085 -0.0039306618 -0.042378481 0.87627029 -0.47995272 0.085890479
-0.18468213 -0.017461859 -0.0037990157 0.024991306 0.84988964 -0.52636778 0.091172256
-0.17631048 -0.0167524 -0.0024833486 -0.018128179 0.77229261 -0.63500828 0.088113099
-0.16597581 -0.017454877 -0.0033689362 -0.015207586 0.85875326 -0.51216358 0.062741868
-0.15587233 -0.018004501 -0.0039165965 -0.0022405817 0.88586801 -0.46393198 0.071876213
-0.14464281 -0.017760376 -0.0032756603 -0.016707916 0.88152665 -0.47183853 0.082561471
-0.13537435 -0.018163884 -0.0037910829 0.019595761 0.87560737 -0.48262584 0.064009428
-0.12521866 -0.017967682 -0.0031296455 -0.0096258335 0.86452079 -0.50250489 0.071646869
-0.11355376 -0.018384062 -0.0034849299 0.0053480295 0.90380126 -0.42791891 0.076885618
-0.10626399 -0.018253678 -0.0030589562 -0.0092774229 0.88476491 -0.46594518 0.065327294
-0.095214345 -0.018374305 -0.0030061237 -0.0044321874 0.87148583 -0.49040082 0.075417362
-0.084768593 -0.018823251 -0.0035963957 -0.039813194 0.88186342 -0.46982118 0.076028965
-0.073593393 -0.01902267 -0.003742005 0.040849764 0.91188443 -0.40840915 0.080172479
-0.064036153 -0.018603452 -0.0026408462 0.028010964 0.89278305 -0.44961518 0.076934569
-0.053895429 -0.018854914 -0.0027362094 0.022941595 0.89335448 -0.44876668 0.074549228
-0.044500496 -0.018779119 -0.0024518715 -0.018755602 0.90127003 -0.43285149 0.07772094
-0.033506844 -0.018550886 -0.0017137107 0.069165684 0.88631183 -0.45789462 0.071542665
-0.024787184 -0.01905271 -0.0023563257 -0.0039797449 0.89471418 -0.44662142 0.078213602
-0.013013013 -0.01960104 -0.0033757053 0.0037562018 0.90161127 -0.43253103 0.072427183
-0.0045959395 -0.019181339 -0.0021832758 -0.032604855 0.87117809 -0.48988321 0.079196364
0.0056738271 -0.019121783 -0.0017616652 0.076350532 0.85840601 -0.50725698 0.074085712
0.014585762 -0.019135917 -0.001577995 0.025623009 0.8329739 -0.5527187 0.057258543
0.025444234 -0.019408738 -0.0019714467 0.04206026 0.85117996 -0.52318603 0.061494227
0.034037646 -0.019414034 -0.0017742153 -0.039366882 0.85313463 -0.52020341 0.060642481
0.044341389 -0.01961023 -0.0019961824 -0.014514109 0.91192418 -0.41010183 0.069788583
0.054986391 -0.019515304 -0.0015067927 0.032835666 0.90374357 -0.4268131 0.071061447
0.066977322 -0.019688332 -0.0016315832 0.033916984 0.89823741 -0.43819994 0.067556739
0.075416408 -0.01958354 -0.0011722767 0.054665603 0.91606283 -0.39729157 0.077485695
0.080686778 -0.019627523 -0.0011496834 0.008992862 0.91621876 -0.40057743 0.060879577
0.095772803 -0.019732498 -0.001034488 -0.0093216421 0.88675112 -0.46215305 0.065024622
0.10447294 -0.019836014 -0.0010718382 -0.036745135 0.91428095 -0.40341058 0.059070021
0.11230061 -0.01973255 -0.00063068367 -0.010442956 0.925596 -0.37836882 0.064737685
0.14278473 -0.019867564 -0.00021171207 0.0056321719 0.91947013 -0.39311951 0.056511261
0.15514332 -0.019935574 -7.3910109e-05 0.038787734 0.91667062 -0.39775687 0.063939482
0.34906641 -0.019926315 -0.0097737908 0.024840834 0.93253607 0.36022153 0.059805118
0.35445228 -0.019909985 -0.0096815946 -0.0032219673 0.91148174 0.41132799 0.067301556
0.36575565 -0.01989416 -0.0094435606 0.012911592 0.91498834 0.40327346 0.063956246
0.37572086 -0.019741615 -0.009568396 -0.044509936 0.91579187 0.3991794 0.065511771
0.38601419 -0.019660808 -0.00951197 -0.10121688 -0.8982271 -0.42771873 0.12335004
0.39504176 -0.019513085 -0.0096480725 -0.47929537 -0.7372911 -0.47610703 0.24771482
0.40658191 -0.015406677 -0.0057660136 -0.96733254 -0.12106078 -0.22273779 0.15791929
0.49951649 -0.015063204 -0.0057767979 -0.99582052 -0.00031099294 0.091330789 0.0080338195
-0.4977451 -0.0048669185 -0.0035663967 0.64240569 0.13537721 -0.75431293 0.092396431
-0.48497787 -0.0051864819 -0.0026102429 0.35400298 0.21729369 -0.90965116 0.099015772
-0.47520369 -0.0048304657 -0.0022346515 0.12076771 0.15821604 -0.97999126 0.075315945
-0.46421129 -0.0048748702 -0.0020108002 0.06598673 0.15428829 -0.98581982 0.074997045
-0.45484701 -0.0054515959 -0.0018218821 0.027328581 0.10821404 -0.99375188 0.065222852
-0.44560114 -0.0052563725 -0.0016024673 0.0039349003 0.17542759 -0.98448443 0.078590639
-0.43468377 -0.0052256561 -0.0013680401 0.0031586925 0.16477883 -0.98632544 0.074500129
-0.42541116 -0.0055439919 -0.0011667976 0.0065731783 0.16697361 -0.9859395 0.075007997
-0.41489786 -0.0060482705 -0.0009780837 0.018910341 0.19105566 -0.98139703 0.077912211
-0.40593895 -0.0069821542 -0.0010100771 0.0035091592 0.33091837 -0.94365287 0.075410336
-0.39580753 -0.0070653884 -0.0007684874 0.028319366 0.27768341 -0.96025515 0.075563788
-0.38433018 -0.008761473 -0.0011696515 0.034089301 0.44973314 -0.89251226 0.070300631
-0.37504345 -0.008432636 -0.00080643926 0.033679549 0.37669858 -0.92572349 0.071883038
-0.36625639 -0.0083883451 -0.00057333719 0.018026737 -0.38814792 0.92142081 0.058866806
-0.35582185 -0.0091273738 -0.00062452984 -0.0085960552 0.44125074 -0.89734262 0.073768318
-0.3471756 -0.0092366152 -0.00045848245 0.01886211 -0.4046126 0.91429365 0.066127613
-0.32670969 -0.0098056123 -0.00019406498 0.031381674 -0.45287088 0.89102364 0.073546603
0.40696159 -0.0055080969 -0.0040491899 -0.9888283 0.10847589 -0.10223281 0.12115458
0.49949381 -0.0053316914 -0.0048478404 -0.99589372 -0.0030053044 0.090479955 0.0085588945
-0.49705011 0.0052310224 -0.004294578 0.61697602 -0.18288064 -0.76543802 0.096689321
-0.48569825 0.0050863381 -0.002555059 0.35929146 -0.16376665 -0.91874379 0.099363536
-0.47452515 0.0057452982 -0.0024216177 0.10579744 -0.24271823 -0.96431047 0.082259111
-0.46546191 0.0060730432 -0.0022559166 0.014031461 -0.25187194 -0.96765888 0.086059667
-0.45524907 0.0055303834 -0.0018963688 0.020856841 -0.22581165 -0.97394764 0.07956551
-0.44522285 0.0036528255 -0.0011504914 0.022944156 -0.14244214 -0.98953718 0.062905125
-0.4353396 0.005181537 -0.0013503643 0.028125223 -0.17566825 -0.98404753 0.079043552
-0.4246839 0.0054823803 -0.0011413663 0.0023862603 -0.1761349 -0.9843632 0.076752052
-0.41585019 0.0054325382 -0.00091852347 0.015721785 -0.20531799 -0.97856909 0.080558769
-0.404394 0.0070263734 -0.0010352733 0.0025656444 0.2342429 0.97217476 0.075123906
-0.39637148 0.0068947314 -0.0007100628 -0.001823952 -0.24271949 -0.9700948 0.068181306
-0.38640958 0.0082137603 -0.00099353318 0.030536652 0.37623531 0.9260208 0.06975162
-0.37406409 0.0080073485 -0.00060629071 0.02442034 -0.35352647 -0.93510568 0.066300765
-0.36442354 0.0080391075 -0.00038384058 0.037380181 -0.38391933 -0.92260975 0.05930946
-0.3548089 0.0083043594 -0.00025876801 0.021146374 0.3873632 0.92168462 0.063573778
-0.34752747 0.0091329757 -0.00042414063 -0.0053971955 -0.37970045 -0.92509371 0.060621094
-0.33340931 0.0096535636 -0.00029480015 0.041202977 -0.48036292 -0.87610137 0.083231732
0.40698639 0.0050351671 -0.0050637862 -0.98859727 -0.10694652 -0.10600904 0.12669462
0.49950114 0.0049270531 -0.0051481561 -0.99559814 0.0046477919 0.093609892 0.0084006814
-0.49658123 0.0144521 -0.0049820663 0.56885397 -0.42864382 -0.70190436 0.10041679
-0.48545107 0.013913731 -0.0043140575 0.24756682 -0.55106902 -0.79688996 0.086422667
-0.4760358 0.014967681 -0.0045887027 0.062108792 -0.55140805 -0.8319205 0.059928041
-0.46521795 0.014984269 -0.0051342035 0.014010847 0.64126933 0.76718789 0.072917871
-0.45571902 0.014407665 -0.0046515837 0.021653287 0.63616657 0.77124792 0.071424894
-0.44490463 0.015808431 -0.0052372459 0.084933072 -0.67769414 -0.7304225 0.066328004
-0.43511713 0.014579768 -0.0039465628 0.060511135 -0.63977796 -0.76617396 0.070348233
-0.42510334 0.015352972 -0.0044324677 0.034732692 -0.66335738 -0.74749631 0.070316583
-0.41485426 0.016147746 -0.0047446857 0.055896435 -0.71025401 -0.7017228 0.067059197
-0.40467525 0.015416968 -0.005072365 0.004388771 -0.66625148 -0.74571425 0.072143145
-0.39548478 0.016479734 -0.0052002077 0.0046531414 -0.74205774 -0.6703198 0.072453298
-0.38506499 0.016509002 -0.0041995896 0.012129792 -0.7282021 -0.68525511 0.077308439
-0.37512007 0.015476408 -0.0044182874 0.011796423 -0.68296063 -0.73035991 0.074738927
-0.36484709 0.015564485 -0.00430481 0.027418658 -0.70080864 -0.71282214 0.072318904
-0.35471913 0.01584724 -0.0043321755 0.016021708 -0.70859748 -0.70543104 0.0797005
-0.34472147 0.016114539 -0.0035081825 0.055201001 -0.71349311 -0.69848442 0.07584016
-0.33561373 0.015870856 -0.0044804146 0.014688961 -0.74937034 -0.66198814 0.082572594
-0.32539165 0.015562148 -0.0035818764 0.0036091199 -0.75121832 -0.66004384 0.074424617
-0.31583706 0.015903153 -0.0026675095 -0.0005334036 -0.76190585 -0.64768749 0.065453574
-0.30494764 0.015589886 -0.0042336364 0.0087370509 -0.81602198 -0.57795477 0.068378091
-0.29535189 0.016299676 -0.0041465531 0.0029011141 -0.8590548 -0.51187539 0.062662005
-0.28557345 0.017155884 -0.0040026302 -0.0099075232 -0.85588801 -0.51706636 0.071278647
-0.27581102 0.016937777 -0.0047044922 -0.024979159 -0.8927238 -0.44991139 0.071552329
-0.26560616 0.016547089 -0.003809903 -0.023956357 -0.8752889 -0.48300672 0.06310983
-0.25532782 0.017058033 -0.0039757867 -0.042335238 -0.87020659 -0.49086478 0.065908253
-0.2440227 0.016681435 -0.0035214657 0.028969759 -0.87908602 -0.47578195 0.06755247
-0.23507379 0.017328681 -0.0045187743 0.027048688 -0.88476348 -0.46525469 0.067285798
-0.22501294 0.017669814 -0.0037564007 -0.025219277 -0.86644369 -0.4986375 0.068841197
-0.2158491 0.018148692 -0.0045715282 -0.055080883 -0.88484019 -0.46262708 0.064673878
-0.20526241 0.017309254 -0.0037482621 0.069702275 0.86216658 0.50180709 0.06088407
-0.19417995 0.017785775 -0.004477995 0.00091958279 -0.88715988 -0.46146125 0.066716522
-0.18445715 0.017561598 -0.0040030181 -0.0051880991 -0.89270759 -0.45060641 0.078644775
-0.17581528 0.01797005 -0.0043035662 -0.0082763722 -0.87917936 -0.47641894 0.063717686
-0.16517378 0.01787949 -0.0039555551 0.01403041 -0.89171642 -0.45237711 0.071731612
-0.15513606 0.017324237 -0.0029180353 -0.023966303 -0.86497378 -0.50124449 0.063165911
-0.14446646 0.017924821 -0.0035334574 0.031081242 -0.89778811 -0.4393295 0.07471016
-0.1357287 0.018341763 -0.0039942875 -0.013826546 -0.88702101 -0.46152198 0.068580449
-0.1242957 0.018346641 -0.0036849212 -0.0048703356 -0.89807254 -0.43982059 0.081635468
-0.11560547 0.017908003 -0.0026285572 0.0036432259 -0.86923712 -0.49438199 0.073493779
-0.10503534 0.018628424 -0.0036781442 0.024416266 -0.87167394 -0.48947757 0.077023506
-0.09465088 0.018509641 -0.0031643303 0.039168209 -0.86177397 -0.50577796 0.073695503
-0.084361978 0.018340763 -0.0026390413 0.023540514 -0.8778863 -0.47829038 0.081055
-0.075737953 0.017837543 -0.0015476103 -0.030545641 -0.83274758 -0.55280966 0.057450864
-0.065820776 0.018566694 -0.0024922094 -0.043524593 -0.86485004 -0.50013983 0.078545339
-0.0541045 0.018714735 -0.0025560241 0.0078041749 -0.91087753 -0.41260293 0.091503561
-0.043660995 0.019089151 -0.003057169 0.019276641 -0.89469558 -0.44626036 0.080652222
-0.03559408 0.01879527 -0.0021142839 -0.0044410648 -0.85449064 -0.51944774 0.066215739
-0.024592165 0.019052505 -0.0024526957 -0.010275816 -0.88829905 -0.45915055 0.083120935
-0.013655591 0.019093035 -0.0022038266 0.038779952 -0.85207587 -0.52197963 0.077860452
-0.0035340989 0.01916093 -0.0021090554 0.038071934 -0.88250351 -0.46876243 0.091841713
0.0055783219 0.019256178 -0.0021214599 0.023955895 -0.89140332 -0.45257747 0.077348314
0.015584465 0.019458247 -0.0023319749 0.0053774803 -0.87547815 -0.48322782 0.070399776
0.025735062 0.019293331 -0.0016856425 0.030612979 -0.87424493 -0.48451886 0.074818827
0.03413872 0.01953795 -0.0020709888 0.00020359518 -0.87830025 -0.47810954 0.072671629
0.044119846 0.019543583 -0.0018406553 -0.03146337 -0.90376127 -0.4268789 0.067568846
0.054677267 0.019672591 -0.0018941739 -0.02121467 -0.90466362 -0.42559788 0.069684632
0.064032473 0.019523136 -0.0013046267 -0.02674065 -0.90808165 -0.41793853 0.070908837
0.075661011 0.019449303 -0.00084213633 0.040677425 -0.88330483 -0.46703106 0.062840909
0.085414931 0.019587696 -0.00093795283 0.047991451 -0.88787627 -0.45757249 0.065106899
0.09415701 0.01966922 -0.00092116912 -0.0016807553 -0.88692427 -0.46191177 0.068862669
0.1035231 0.019700052 -0.00076672382 -0.01064468 -0.90831894 -0.4181428 0.058235165
0.11506347 0.019585481 -0.00020801071 0.026584335 -0.89194548 -0.45136076 0.064600937
0.12447211 0.019721081 -0.00030552447 0.0045021875 -0.8952868 -0.44546762 0.063488841
0.14461181 0.019800903 -6.0792081e-06 -0.022411972 -0.89758962 -0.44026184 0.062268794
0.15095469 0.019975103 -0.00027173758 -0.012291923 -0.93172836 -0.36294773 0.058361702
0.34724903 0.019870531 -0.0099529196 0.020316623 -0.92185378 0.38700491 0.064678222
0.35594648 0.019854553 -0.0097789392 0.027516209 -0.91545641 0.40147546 0.063004948
0.36458623 0.019727228 -0.0098752622 -0.022397 -0.8933813 0.44874081 0.072541937
0.37766641 0.019720567 -0.0095716761 -0.018577294 -0.92530733 0.37876281 0.060909238
0.38555607 0.01961723 -0.0096284058 0.043045409 -0.9131844 0.40526688 0.11881883
0.39677998 0.019632855 -0.0093163578 -0.68814939 0.54447186 -0.47958392 0.2229688
0.40690625 0.014745861 -0.005517541 -0.97959125 0.0033481172 -0.20097215 0.17036638
0.49950573 0.016235583 -0.0053343554 -0.99524313 0.019542919 0.095442504 0.010152875
-0.49642369 0.021026412 -0.0092821233 0.48178563 -0.73031396 -0.48427689 0.098381571
-0.4854525 0.020772114 -0.0086824875 0.28086367 -0.79655319 -0.53536773 0.091697693
-0.47583413 0.021397062 -0.0092621045 0.04671533 -0.8489579 -0.52639174 0.075013846
-0.46603569 0.021379987 -0.0090066241 -0.011982518 -0.85951751 -0.5109657 0.074535102
-0.45531836 0.021194195 -0.0085283071 0.005869993 -0.84582245 -0.53343225 0.066317096
-0.44563523 0.021064112 -0.0080900202 0.043880783 -0.85447496 -0.51763582 0.068024926
-0.4336957 0.021315949 -0.0081982501 0.041585702 -0.84152126 -0.53862089 0.072758786
-0.42351437 0.021379298 -0.008078523 0.051824987 -0.83410811 -0.54916108 0.067263722
-0.41595659 0.021462822 -0.0080229146 -0.014027836 -0.84564692 -0.53355837 0.071320988
-0.40688136 0.021086901 -0.0072661662 -0.01663821 -0.83692878 -0.54705876 0.06580282
-0.39435393 0.021954564 -0.0082149543 -0.0063238828 -0.86684942 -0.49852991 0.065010644
-0.38574186 0.02144514 -0.0072501372 0.010734257 -0.89441603 -0.44710711 0.055519629
-0.3749072 0.021770997 -0.0076831756 0.021727122 -0.89124435 -0.45300278 0.054537572
-0.36624146 0.021932341 -0.0076783136 -0.0090959137 -0.91864073 -0.39498928 0.051773246
-0.3553071 0.022091707 -0.0076509765 0.0049688811 -0.91319901 -0.40748358 0.051634219
-0.34417889 0.021530133 -0.0064306078 0.039748911 -0.86653757 -0.49752671 0.055743128
-0.33550394 0.021789521 -0.0067368429 0.0055434532 -0.90394801 -0.42760643 0.057484087
-0.32482576 0.021985345 -0.0068327468 0.047402158 -0.9095813 -0.41281322 0.056467433
-0.31638169 0.022638975 -0.007953668 0.0038802717 -0.94197941 -0.335648 0.054808289
-0.30391374 0.022266289 -0.006879875 0.033408552 -0.93201238 -0.36088327 0.05296183
-0.29503566 0.022081418 -0.006281551 -0.0040045432 -0.91771871 -0.39721084 0.05282855
-0.28411034 0.021984341 -0.0059268726 0.022033276 -0.91041994 -0.41309825 0.048792552
-0.27440652 0.022106213 -0.0058639217 0.0037852821 -0.93158334 -0.36350808 0.056336582
-0.26576686 0.022280186 -0.0060500246 -0.027208557 -0.91805941 -0.39550811 0.052505605
-0.25426137 0.02232445 -0.0058132503 1.6845108e-05 -0.91480923 -0.40388614 0.049218982
-0.24528222 0.022447534 -0.005853835 -0.010513833 -0.94689608 -0.32136777 0.041816119
-0.23469095 0.022429932 -0.0060655987 0.033951223 -0.92929393 -0.36777732 0.051054329
-0.22549449 0.022096502 -0.0051993425 0.022831315 -0.90558732 -0.42354491 0.06222412
-0.21512324 0.021895729 -0.0048434138 -0.0021366312 -0.92281157 -0.38524577 0.051870573
-0.20624839 0.021739954 -0.0051372219 -0.062789485 -0.92339951 -0.3786698 0.048839983
-0.19658893 0.020249289 -0.0094276424 -0.072796822 -0.95855612 -0.27544665 0.061870787
-0.18581863 0.020469053 -0.0096951174 -0.044650584 -0.94927251 -0.31126833 0.061851323
-0.1757251 0.020419128 -0.0093278764 0.008754666 -0.94717067 -0.32061023 0.065504119
-0.16541488 0.020333862 -0.0088699916 0.0028836478 -0.94807398 -0.31803682 0.05763185
-0.15624665 0.020356419 -0.0088171745 -0.026428269 -0.9323495 -0.36059117 0.067003921
-0.14551359 0.0205044 -0.0089279171 0.03000911 -0.95975775 -0.27922156 0.064567983
-0.13482866 0.020567929 -0.0089315884 0.0046553309 -0.95783931 -0.28726685 0.068393372
-0.12498692 0.020575887 -0.0087241875 -0.0032564569 -0.97241139 -0.23325023 0.052669335
-0.11426123 0.0204574 -0.0081588961 0.0010424121 -0.9554286 -0.29522049 0.071123116
-0.10352651 0.020490009 -0.0082168058 0.046400517 -0.98576558 -0.16159567 0.060941771
-0.094262525 0.020652713 -0.0083511341 0.022958558 -0.98278844 -0.18330242 0.081430681
-0.084230021 0.020531889 -0.0076750494 0.015193199 -0.9711656 -0.23792112 0.077980436
-0.075236671 0.020854745 -0.0090849083 -0.017518552 -0.99847788 -0.052297536 0.060202967
-0.064558491 0.020795655 -0.0085852873 0.027837491 -0.99643284 -0.079665899 0.063589707
-0.055021062 0.020583017 -0.0070300158 0.0094255116 -0.99023324 -0.13910215 0.055919737
-0.045360383 0.020806134 -0.0081292223 0.034653489 -0.99145323 -0.12577575 0.068229698
-0.034884311 0.020543924 -0.0067113605 0.011685498 -0.98802286 -0.15386415 0.065864936
-0.024473282 0.020755619 -0.0075028311 -0.0070532355 -0.99384367 -0.11056703 0.071368977
-0.013375665 0.020771585 -0.007179704 0.0092728082 -0.99614644 -0.087213919 0.071892656
-0.0057161762 0.020804254 -0.0071658324 -0.056349114 -0.97212344 -0.22759776 0.086824462
0.0061060465 0.020808341 -0.0071811127 0.051362716 -0.97589701 -0.21210091 0.092501029
0.015404921 0.020927593 -0.007642162 -0.015912959 -0.99081653 -0.13427332 0.087141752
0.02626718 0.020658042 -0.0057913377 0.06513676 -0.97326797 -0.22024229 0.096533351
0.035353113 0.020926058 -0.0070978478 0.03157426 -0.99366415 -0.10786331 0.073361576
0.04510808 0.020684257 -0.0053888583 -0.048646059 -0.9712559 -0.23301418 0.073573932
0.054485641 0.020893451 -0.0064396434 -0.038050558 -0.98754019 -0.15269729 0.061418861
0.065440245 0.02072724 -0.0051941779 0.0090284506 -0.9797613 -0.19996555 0.077840164
0.075591654 0.020841883 -0.0056828535 0.059032094 -0.99331623 -0.099186979 0.063450418
0.084852219 0.021115011 -0.007376242 0.026181448 -0.99558413 -0.090149067 0.070007846
0.096552283 0.020826893 -0.0052771997 0.038159888 -0.98575342 -0.16381121 0.062888987
0.10424355 0.020911323 -0.005617382 -0.028286938 -0.9947778 -0.098066233 0.063325301
0.11524469 0.021019449 -0.0059444993 0.015225129 -0.99553853 -0.093118519 0.065995745
0.12470157 0.021001754 -0.005692313 -0.01394372 -0.99858761 -0.051267155 0.072655477
0.13513674 0.020727914 -0.0036425942 -0.0040506581 -0.9684847 -0.24904013 0.070865892
0.14485402 0.020855341 -0.0047675003 -0.0073394147 -0.99858755 -0.052620701 0.073725171
0.15523212 0.020914378 -0.0053913067 0.018796291 -0.99776077 -0.064188838 0.072856717
0.16515748 0.020849889 -0.0045072325 -0.010698907 -0.99393308 -0.1094652 0.064092569
0.17401132 0.020989774 -0.004991367 -0.049576283 -0.9969961 -0.059506252 0.067686029
0.18538797 0.021038355 -0.0051944209 0.017944049 -0.99831921 -0.055105887 0.070768453
0.19494507 0.020994795 -0.0048460057 -0.0061963848 -0.99918008 -0.040008735 0.068640746
0.20401852 0.020942712 -0.0044763749 0.00026958672 -0.99950069 -0.031597324 0.074610159
0.21511151 0.021028465 -0.0053169155 0.040465713 -0.9990536 -0.015954833 0.069375768
0.2253658 0.021027986 -0.0058168382 0.0095025059 -0.99974996 -0.020240992 0.074382015
0.23486389 0.020896489 -0.0029812546 0.010277417 -0.99754721 -0.069238335 0.069835998
0.24468663 0.021113221 -0.0054376805 -0.028425286 -0.99951583 -0.012651487 0.065911025
0.25528625 0.021046259 -0.004149063 0.008587623 -0.99996305 0.00042802116 0.065626569
0.26443592 0.021004809 -0.0047459425 -0.058459409 -0.99828643 0.0026177105 0.069985054
0.27508172 0.021053534 -0.0048886542 -0.0021900712 -0.99981093 0.019317077 0.078201346
0.2845045 0.021011744 -0.0059229378 -0.042526588 -0.99892169 0.018627066 0.070312172
0.29533055 0.020979634 -0.0046961848 -0.0028005939 -0.99938041 0.035083141 0.072245181
0.30519649 0.020930659 -0.0050596162 0.012496063 -0.99930996 0.034976754 0.07452406
0.3158322 0.0209036 -0.0051085204 0.036498845 -0.99870217 0.035522569 0.070074059
0.32487181 0.020867018 -0.0055357008 -0.012493043 -0.99940819 0.032050211 0.066192061
0.33398214 0.020895761 -0.0056893174 -0.00051257532 -0.99423593 0.10721333 0.063188314
0.34485227 0.021003181 -0.0045809471 -0.0068374644 -0.99865848 0.05132724 0.073264897
0.35448131 0.021018393 -0.0040226318 -0.0030963526 -0.99865431 0.051768728 0.07363873
0.36491328 0.02092441 -0.0049964446 0.0034804528 -0.9932918 0.11558284 0.067590095
0.37577304 0.020980349 -0.0041659791 0.023576947 -0.9988451 0.041864991 0.068981677
0.3856813 0.020821113 -0.0052789464 -0.12821497 0.98825932 -0.083093151 0.12446339
0.39587981 0.020896627 -0.004475621 -0.71555042 0.67197436 -0.19088729 0.23680216
0.40531427 0.023248442 -0.0043018945 -0.94150299 0.29369938 -0.16526602 0.1942762
0.49949038 0.025046233 -0.0047067869 -0.99564213 0.0027925426 0.093214013 0.0095150359
0.40700084 0.035389122 -0.005656952 -0.95797837 0.2214486 -0.18231297 0.073015347
0.49953511 0.034746926 -0.0065403837 -0.99547946 -0.0066724326 0.094742037 0.0089310287
0.40697438 0.045260705 -0.0045704762 -0.98869991 0.11879333 -0.091436587 0.019693775
0.49953505 0.04654086 -0.0065372088 -0.99498045 -0.0048472323 0.099951416 0.0091393255
0.40699837 0.053910676 -0.0055546057 -0.9969424 -0.0029124627 -0.078085981 0.004351635
0.49949864 0.054581981 -0.0050460375 -0.99515361 -0.018970415 0.096485175 0.0081269629
0.40698791 0.064498797 -0.0051274109 -0.98029715 0.18929374 -0.056440264 0.03639001
0.49948061 0.065608881 -0.004307155 -0.98337632 -0.16071747 0.084503777 0.030208355
0.40698528 0.075840816 -0.0050189625 -0.92398089 0.38172796 -0.023304408 0.056558248
0.49948063 0.074796841 -0.0043082675 -0.89044464 -0.45462543 0.020592554 0.072686888
0.40768766 0.083592609 -0.0054331203 -0.72378045 0.68768311 -0.056867082 0.091742299
0.41615498 0.085434079 -0.005200637 -0.32051182 0.94702828 -0.02023484 0.061351329
0.42465469 0.085434072 -0.0037680962 -0.28110689 0.95967036 -0.0034374166 0.055772733
0.4360199 0.085434072 -0.0043149614 0.0077034989 -0.99996996 0.00088120828 0.00024458813
0.44495299 0.085434072 -0.0050369692 3.5360143e-05 -1 2.4695768e-07 0
0.4551627 0.085434072 -0.0054584867 1.7009237e-05 -1 3.7850196e-08 1.1139257e-06
0.46458212 0.085434072 -0.0054424191 -8.8246424e-09 -1 -5.4315069e-07 1.1424514e-06
0.47585657 0.085434072 -0.005851883 -0.11464636 -0.99340159 -0.0030878824 0.012208361
0.48384047 0.085434072 -0.006122693 -0.32269302 -0.94649428 -0.0042157448 0.049696025
0.49724567 0.084244125 -0.0039470191 -0.71923149 -0.69435656 0.023978852 0.068784557
0.40719429 -0.083639614 0.0061492394 -0.77819782 -0.62641335 0.044882029 0.084717773
0.41368896 -0.085434057 0.0058406354 -0.45147958 -0.88881695 0.0785532 0.063705869
0.42554933 -0.085434072 0.0064530745 -0.25417167 -0.96682543 0.025405373 0.048896328
0.4355236 -0.085434072 0.0055967555 0.015424642 0.99988073 0.00078147656 0.00035586185
0.44499466 -0.085434072 0.005046837 -0 1 -0 0
0.45452315 -0.085434072 0.0054852865 3.5543697e-05 1 1.5849416e-07 0
0.46551853 -0.085434079 0.0037258856 3.77787e-05 1 -1.285076e-08 0
0.47576714 -0.085434072 0.0053520538 -0.11650735 0.9931699 0.006281218 0.015183043
0.48621166 -0.085434072 0.0055290996 -0.38837305 0.92148906 -0.0049217055 0.054601084
0.49638864 -0.084420383 0.0051137819 -0.6984005 0.71457273 -0.040279727 0.06646245
0.40676609 -0.075496249 0.0039485185 -0.92312425 -0.37946522 0.062030498 0.054074157
0.49927211 -0.07469213 0.0042234003 -0.86927873 0.49321318 -0.03309327 0.066773638
0.40671107 -0.065007158 0.0062004728 -0.97991818 -0.17558086 0.094507881 0.044230681
0.49924904 -0.065482095 0.0051684245 -0.98398805 0.15996848 -0.078597449 0.026172612
0.40673476 -0.054515302 0.0052296105 -0.99558794 0.008314657 0.093464032 0.011770145
0.49925426 -0.055340145 0.0049531176 -0.99492848 0.010862314 -0.099996649 0.0062079844
0.40674511 -0.044912472 0.0048051747 -0.98532563 -0.14083119 0.096436836 0.027731638
0.49926957 -0.044605739 0.0043245936 -0.99512047 0.0038558801 -0.098592021 0.0054891286
0.40674001 -0.035075791 0.0050171968 -0.94947875 -0.27387044 0.15324818 0.080173537
0.49924424 -0.036389057 0.005363436 -0.99532664 -0.0014529678 -0.09655425 0.0053349887
0.17623331 -0.02003557 0.000200038 0.046910696 0.92329645 -0.38121271 0.057739679
0.19580325 -0.020054726 0.00063206593 0.0094754277 0.92676729 -0.37551656 0.068567559
0.20398962 -0.020272782 0.00030555614 0.023653714 0.95038944 -0.31016195 0.056171432
0.21759836 -0.020515252 5.2613672e-05 0.015459102 0.9607892 -0.27684867 0.059304614
0.22651398 -0.020281544 0.00083488488 0.016225992 0.93774402 -0.34694788 0.065799281
0.23393142 -0.020480366 0.00053603231 -0.0079989312 0.95019823 -0.31154364 0.059937153
0.2463665 -0.020529509 0.00065488514 0.0041048205 0.95459217 -0.29788747 0.061264407
0.25508931 -0.020573355 0.0007002934 -0.0040014847 0.94411397 -0.32959509 0.064475328
0.26680508 -0.020447357 0.0012493059 0.041398574 0.95324075 -0.29936305 0.059122778
0.27653915 -0.020407308 0.0015932275 0.029408691 0.95953405 -0.2800526 0.057048995
0.28629467 -0.020570684 0.0014140075 0.021458725 0.98379302 -0.17801945 0.060928162
0.29671672 -0.020482041 0.0020278462 0.012776209 0.97800702 -0.20818041 0.071071737
0.30426073 -0.020142915 0.0030697426 -0.025627911 0.96670264 -0.25461626 0.068520859
0.3169336 -0.02065172 0.0016301238 -0.0030433387 0.9964149 -0.084545717 0.06153632
0.32621238 -0.020627478 0.0018662983 -0.0010495523 0.98419195 -0.17710187 0.076438047
0.33505002 -0.020858714 0.00091211795 0.017163314 0.99809378 -0.05928126 0.067872271
0.34542507 -0.020618755 0.0024326115 0.0094823604 0.97419542 -0.22550695 0.071482956
0.35400563 -0.020560017 0.002677277 -0.044061124 0.99031389 -0.13166986 0.064473785
0.36506626 -0.020568363 0.00312413 0.036474541 0.97917491 -0.19971521 0.079841398
0.37625679 -0.020787312 0.0021963224 0.015520224 0.99500364 -0.09862525 0.064990632
0.38630122 -0.020598363 0.0032912865 -0.085206956 -0.99272847 0.085029334 0.12508026
0.39514229 -0.020791681 0.002597518 -0.77837694 -0.57992321 0.24045457 0.24015626
0.40600455 -0.023355797 0.0045471285 -0.95667714 -0.19565783 0.21560845 0.15261069
0.49927181 -0.024394544 0.0042367391 -0.99674708 0.0036787286 -0.080509156 0.0049671265
-0.4834739 -0.010255029 9.7201104e-05 0.18097126 0.410243 -0.89384007 0.060452994
-0.47640264 -0.010036457 0.00036058022 0.07610143 0.39391008 -0.91599315 0.049905814
-0.46369621 -0.010722171 0.00038700321 0.060361966 0.39486316 -0.9167549 0.045873616
-0.45367083 -0.011389615 0.00035547267 0.022102982 0.43751049 -0.89894158 0.056474585
-0.44227511 -0.011165921 0.00072666293 0.034013234 0.41939467 -0.90716654 0.054439344
-0.43736726 -0.010212286 0.0012417312 0.013964362 -0.38190311 0.92409688 0.048392694
-0.42654815 -0.011921836 0.00077034719 0.0032379555 0.44703323 -0.89451158 0.050849274
-0.41351351 -0.011720476 0.0011670191 0.027492434 0.41054612 -0.91142529 0.054861203
-0.40356192 -0.011990117 0.0012430687 0.033836767 0.45897621 -0.88780403 0.047226079
-0.39566094 -0.011956187 0.0014605917 0.015804254 0.4532865 -0.8912248 0.061455697
-0.38448757 -0.012289772 0.0015703237 0.015879147 0.44860882 -0.89358711 0.060510945
-0.37590501 -0.013110709 0.0012860225 0.019838991 0.4857136 -0.8738929 0.059058957
-0.36418945 -0.012645212 0.001876076 0.011419252 0.4527477 -0.89156556 0.061248925
-0.35556844 -0.012954489 0.0017608013 -0.0022384329 0.47658122 -0.87912756 0.061364785
-0.34718314 -0.012651706 0.0022145757 -0.0015377736 0.43798861 -0.89897925 0.055644095
-0.33468112 -0.013342164 0.0020880981 0.020755686 0.47963756 -0.87722111 0.064378649
-0.32500401 -0.012659648 0.0027661656 0.021970574 0.44899839 -0.89326239 0.051799793
-0.31616327 -0.01381488 0.002169926 0.028269522 0.50980067 -0.85982794 0.054474346
-0.3056117 -0.013817631 0.0024203579 -0.015604549 0.53556919 -0.84434712 0.055505175
-0.29563922 -0.013878798 0.0023618066 -0.017000988 0.50234824 -0.86449832 0.049603816
-0.28484017 -0.013836639 0.0021775279 0.031551246 0.50844103 -0.86051857 0.051532626
-0.27480149 -0.014088286 0.0022001544 0.018232882 0.54557234 -0.83786541 0.056581307
-0.26421696 -0.013255141 0.0022590542 0.020314356 0.53265738 -0.84608704 0.057783578
-0.25507462 -0.013620206 0.0025932707 0.0010774224 0.584952 -0.81106722 0.071278207
-0.24504 -0.013721059 0.0024911652 0.022265578 0.57795864 -0.81576222 0.065124474
-0.23521262 -0.01481235 0.002562769 0.023701401 0.58450073 -0.8110469 0.060689412
-0.22479531 -0.014390641 0.0028875917 0.014359201 0.54106063 -0.84086102 0.058148306
-0.21544795 -0.013033377 0.0034609111 -0.041586932 0.50477773 -0.86224705 0.054207832
-0.20473412 -0.012744502 0.0027791823 -0.043897398 0.53403455 -0.84432232 0.060420536
-0.19477233 -0.011634395 0.001901924 -0.013337173 0.61523092 -0.78823406 0.073654659
-0.18689275 -0.012063518 0.0017773964 0.073528521 -0.62005907 0.781102 0.066925116
-0.17449015 -0.01210342 0.0020466198 0.0063242791 0.61593586 -0.78777087 0.072746381
-0.16447586 -0.012189776 0.0022372676 0.017254584 0.64899057 -0.76060081 0.07753174
-0.15464614 -0.013105357 0.0017729452 0.022049876 0.63814706 -0.76959866 0.076556735
-0.14431401 -0.013030243 0.0020681417 0.037405878 0.63652015 -0.77035236 0.078331783
-0.13659045 -0.012157241 0.0029471514 -0.020660536 0.62984389 -0.77644688 0.070690289
-0.12515381 -0.013055183 0.0025110021 -0.013386408 0.62254041 -0.78247309 0.075143151
-0.11333715 -0.012609227 0.0031773082 0.042009957 0.6491586 -0.75949204 0.074092567
-0.10631879 -0.012870658 0.0030997733 -0.0011647739 0.63695365 -0.7709012 0.0771126
-0.094393589 -0.013656886 0.0027380832 -0.01189956 0.66149819 -0.7498523 0.086952269
-0.084204838 -0.012998323 0.0034637493 -6.1564446e-05 0.60926616 -0.79296571 0.078791469
-0.07533364 -0.01344459 0.0033162269 0.076931909 0.57889825 -0.81176251 0.0782995
-0.063917242 -0.013865379 0.0032403772 -0.0093268836 0.64634883 -0.76298499 0.073312394
-0.053987492 -0.014029091 0.003356599 0.022426583 0.65312874 -0.75691462 0.079283096
-0.045590412 -0.013709354 0.003868493 -0.0001793203 0.63382304 -0.77347803 0.080402903
-0.037077244 -0.013995743 0.0037634219 -0.002119378 0.68822974 -0.72548968 0.074054107
-0.02525357 -0.013880343 0.0040947972 -0.0028446072 0.67111564 -0.74134731 0.070959538
-0.015708108 -0.014260089 0.0038848568 -0.0073060105 0.73318285 -0.67999232 0.062590346
-0.0046312856 -0.014429689 0.0041623604 -0.0048753954 0.6350708 -0.77243841 0.060616478
0.0062302472 -0.014852759 0.0038224056 0.040933151 0.73654723 -0.6751464 0.071870461
0.013912906 -0.014361563 0.0045914506 0.011570224 0.67279792 -0.73973584 0.070802703
0.025553498 -0.014992957 0.0041814926 0.037286751 0.74105275 -0.67041063 0.057259787
0.034397271 -0.014265041 0.0051954165 -0.0082729878 0.66365391 -0.74799401 0.05599457
0.045117397 -0.014673698 0.0049188803 0.029950125 0.70842743 -0.70514786 0.050332654
0.0554929 -0.014175359 0.0056684343 0.024008647 0.66157264 -0.74949664 0.060674224
0.064492807 -0.014298113 0.0057611065 0.0034447801 0.65734702 -0.75358015 0.067872651
0.075358577 -0.015792554 0.0043515773 0.032234132 0.74928063 -0.66146761 0.078764699
0.084675685 -0.015311806 0.0052788756 0.044407658 0.74114197 -0.66987801 0.064759023
0.095391102 -0.015556106 0.005195159 0.013264538 0.73957932 -0.6729387 0.064698443
0.1039014 -0.015086402 0.0058093346 -0.046777904 0.7452665 -0.6651237 0.068768069
0.11392149 -0.014898343 0.0061963215 0.0034796239 0.69380683 -0.72015274 0.063759916
0.12478578 -0.015635878 0.0058188359 -0.021948725 0.75553298 -0.6547429 0.083316043
0.13451728 -0.015433347 0.006425852 0.0033790248 0.70639461 -0.70781016 0.068685628
0.14510612 -0.016212499 0.0056807841 0.0082936175 0.8025617 -0.59651154 0.089101806
0.15551841 -0.016563965 0.0055527887 0.011514384 0.78916615 -0.61407185 0.07342729
0.16456887 -0.016302863 0.0062800921 0.043910034 0.778777 -0.62576222 0.08513011
0.17489515 -0.015932225 0.0068693166 0.0009720549 0.74941951 -0.66209483 0.083246626
0.18475328 -0.01693931 0.0059425654 0.031302482 0.810206 -0.58530879 0.077155277
0.19667859 -0.016532151 0.006912455 0.028124059 0.79067653 -0.61158776 0.065920979
0.20463605 -0.017074145 0.0061472682 0.01121168 0.81640488 -0.57737112 0.073486902
0.21521345 -0.016831616 0.006691915 0.032684661 0.81507003 -0.57843971 0.078100555
0.22579613 -0.016933288 0.006991548 -0.016186446 0.85673243 -0.51550704 0.061538473
0.23412168 -0.017901577 0.0059222309 -0.02513033 0.90330255 -0.42826733 0.076086342
0.24475487 -0.017772514 0.0060564671 -0.024549397 0.87071586 -0.49117327 0.061167464
0.25496241 -0.017852988 0.0065021282 -0.021036232 0.88363558 -0.46770248 0.068994239
0.26591989 -0.018393978 0.0058162883 0.041369259 0.91118741 -0.40990993 0.074954435
0.27568275 -0.018272253 0.0062386184 0.021500176 0.87362438 -0.48612577 0.061529495
0.28550315 -0.018906057 0.0053000771 0.026246462 0.91801512 -0.39567581 0.081140533
0.29576114 -0.018258754 0.0067862296 9.3682611e-05 0.86523813 -0.50136113 0.066519529
0.30520162 -0.017862136 0.0076770172 -0.00031591847 0.86845654 -0.49576521 0.069931924
0.31488726 -0.018257551 0.0071247378 0.01365907 0.88095194 -0.47300854 0.07129252
0.32559526 -0.018151639 0.0077463472 -0.0069828467 0.87672609 -0.4809393 0.072641291
0.33420277 -0.018952589 0.0064780456 -0.0075130234 0.90139759 -0.43292701 0.077074535
0.34481463 -0.018695358 0.007258445 -0.01487772 0.8712647 -0.49058801 0.075800166
0.356179 -0.018592199 0.007825112 0.044807538 0.88082993 -0.47130758 0.075552069
0.36448532 -0.01912426 0.0068967491 -0.071445674 -0.91341138 0.40071845 0.070847675
0.37393814 -0.018836061 0.0078517934 -0.023758095 0.87193644 -0.48904222 0.062814355
0.38567045 -0.018868223 0.0080045722 -0.15920891 -0.8730796 0.46085191 0.13466313
0.39410177 -0.018906923 0.0082151378 -0.45867547 -0.75775689 0.46413484 0.2273854
0.40642533 -0.014923804 0.004459362 -0.97976857 -0.025468864 0.19850647 0.15041238
0.49923208 -0.014885137 0.0058624465 -0.99556053 -0.0013754257 -0.094113804 0.0046016718
-0.49485195 -0.0051476941 0.0013473548 0.57219702 0.14312716 -0.80753034 0.093323343
-0.48584309 -0.0037905439 0.0018581898 0.21248217 0.11937393 -0.96984595 0.076431103
-0.47485957 -0.0056346375 0.001714077 0.087827496 0.19266662 -0.97732592 0.063434623
-0.46473086 -0.0041042669 0.0023303691 0.035165876 0.11904579 -0.99226582 0.06772279
-0.45586392 -0.0053160428 0.0022122075 0.0016505405 0.21415956 -0.97679734 0.054872118
-0.44563991 -0.0049694218 0.0026156611 0.0057651028 0.18704835 -0.98233384 0.062145334
-0.43480363 -0.0053991573 0.0028659494 0.010786396 0.22619523 -0.97402227 0.054604713
-0.42410266 -0.0046531577 0.0031848548 0.025967458 0.14294153 -0.98939037 0.064150766
-0.41498783 -0.0047318209 0.0032725837 0.033997998 0.14581451 -0.98872763 0.064267032
-0.40585175 -0.0045455219 0.0026981446 -0.002348756 0.13913132 -0.99027121 0.06576708
-0.39508626 -0.0036317029 0.0030441801 -0.0048739496 0.11265291 -0.99362242 0.064902
-0.38552365 -0.0040792297 0.0031761182 0.030920904 -0.11005533 0.99344438 0.063901961
-0.37453109 -0.0050142668 0.0027474286 0.022041695 0.20481175 -0.97855324 0.056354385
-0.36505857 -0.0047714375 0.0030589188 0.035126466 0.18086408 -0.98288053 0.064233132
-0.35516524 -0.0043450338 0.0030035221 0.013242293 -0.11444508 0.99334133 0.063942306
-0.34580848 -0.0040506939 0.0037131011 0.035911698 -0.11174084 0.9930883 0.063906923
-0.33512586 -0.0043959692 0.0030620792 0.010311757 0.12454544 -0.99216038 0.06497553
-0.32511976 -0.0048953854 0.0033416855 0.0068502198 0.17227417 -0.98502517 0.064231195
-0.31548756 -0.004988024 0.003444046 0.0085399318 0.22134303 -0.97515857 0.066166766
-0.3047215 -0.0050129793 0.0039436305 0.016423654 -0.17951372 0.98361838 0.071660332
-0.29523003 -0.0053968388 0.0036239282 0.0079167187 0.1883918 -0.98206198 0.072531633
-0.28507069 -0.004949966 0.0042851111 0.032004725 0.20980261 -0.97721976 0.066777721
-0.27505198 -0.0048842947 0.0043716095 0.038277298 0.17606175 -0.98363465 0.075447813
-0.26515043 -0.0052530868 0.0052086036 0.03503678 0.25598624 -0.96604532 0.06368801
-0.25485611 -0.0045894878 0.0058911867 0.077564873 0.21068615 -0.97447169 0.071320109
-0.24508484 -0.0055040014 0.0051666182 0.030497225 0.27584654 -0.96071774 0.058675271
-0.23373106 -0.0039193039 0.0062008658 0.031465773 0.16652499 -0.98553509 0.064626038
-0.22513573 -0.0057297838 0.0058229165 -0.0071654618 0.2141073 -0.97678387 0.063844316
-0.21575145 -0.0057653408 0.005745654 -0.025144011 0.2059333 -0.97824299 0.063170604
-0.20532112 -0.0050970269 0.0056256382 0.069681086 -0.22573635 0.97169316 0.064230964
-0.19540392 -0.0047824681 0.0046229339 0.060301103 -0.22443762 0.97262096 0.070767261
-0.1841228 -0.0050019817 0.004862674 0.021482784 0.22107302 -0.97502065 0.07224182
-0.17531042 -0.0051994533 0.0049626217 0.019854939 0.22995856 -0.97299778 0.073188558
-0.16465978 -0.0040745656 0.0054667364 0.026630152 0.18801451 -0.98180521 0.077424087
-0.15442127 -0.0057938392 0.0053668581 0.0069502485 0.28239527 -0.95927292 0.084183261
-0.14506775 -0.0049287821 0.0058394116 0.026545022 0.24079277 -0.97021347 0.074992739
-0.13422796 -0.0043457514 0.0062188003 0.095570385 0.21812078 -0.97123104 0.069631137
-0.12499656 -0.0055795377 0.0062070224 -0.0065312469 0.28848195 -0.95746309 0.067316465
-0.11444201 -0.0056934361 0.0063261646 0.056510586 0.24996652 -0.96660399 0.079731129
-0.10444596 -0.0065414957 0.0063954988 0.01593159 0.30115059 -0.95344347 0.070900895
-0.094754197 -0.004907175 0.007068689 0.048530713 0.24149238 -0.96918839 0.081820376
-0.086563364 -0.0051599252 0.0070973053 -0.028820554 0.24227551 -0.96977931 0.079360701
-0.074752688 -0.0047007166 0.0076089897 0.022159724 0.30451903 -0.95224845 0.069309413
-0.06500224 -0.0061533139 0.0075475285 0.018704135 0.29239005 -0.95611626 0.070067421
-0.054810237 -0.0057245851 0.0078498516 0.054219771 0.28361928 -0.95740294 0.078112125
-0.045782357 -0.0045297374 0.0084061781 -0.033527598 0.27551875 -0.96071082 0.077436514
-0.03421982 -0.0058322353 0.008320841 0.032875881 0.27550936 -0.9607361 0.080646649
-0.025874266 -0.0049912161 0.0087950928 0.0066657448 0.30230245 -0.95318872 0.07237421
-0.014998204 -0.0050427648 0.0089534083 0.11549202 0.23827349 -0.96430659 0.077045925
-0.0057033114 -0.0067296796 0.0087417485 0.085557282 0.35808933 -0.92975909 0.080207005
0.0054561011 -0.0065032504 0.0091526555 0.083585449 0.37649089 -0.92264193 0.079104468
0.01397162 -0.0080395602 0.0088364957 0.011492144 0.42188767 -0.90657526 0.070250846
0.024862489 -0.0078546591 0.0092065278 -0.012649601 0.4494155 -0.8932333 0.06642925
0.03316981 -0.0080330344 0.0093356473 -0.015009203 0.41818771 -0.90823662 0.06520763
0.045709383 -0.0093835602 0.0090825325 0.018851554 0.52708972 -0.84960055 0.063282102
0.054857027 -0.0092320535 0.0093688713 0.021126879 0.50363547 -0.86365783 0.06513337
0.068023741 -0.0092350086 0.0096894344 0.03814796 0.49066275 -0.87051409 0.068954483
0.073381297 -0.009237648 0.0098192757 -0.05830026 0.49152708 -0.8689087 0.065910637
0.40677208 -0.0048040766 0.0037052885 -0.98539686 0.11176524 0.12845796 0.11844874
0.49923414 -0.0050453818 0.0057761041 -0.99518794 -0.0025166171 -0.097952008 0.00506882
-0.49541712 0.0051362878 0.0013274852 0.58286446 -0.12480008 -0.80292845 0.092775412
-0.48594856 0.0052553839 0.0015546329 0.28209069 -0.17757306 -0.94281101 0.078884631
-0.47423235 0.0053621763 0.0018070972 0.026317347 -0.16720895 -0.98557019 0.062053457
-0.46520332 0.0047227251 0.0021747428 0.009971384 -0.1420929 -0.98980308 0.067197554
-0.45478335 0.0043458035 0.0024827099 -0.00076364778 -0.14460684 -0.98948896 0.065810487
-0.44532323 0.0040859133 0.0027443129 0.022947328 -0.1424422 -0.98953706 0.062909283
-0.43484336 0.0054982705 0.0026620976 0.057814881 -0.20599961 -0.9768427 0.062381476
-0.42468604 0.0053448118 0.0030530065 0.030604972 -0.23271787 -0.97206253 0.058413159
-0.41582575 0.0047539733 0.0027675759 -0.0044925879 -0.17250764 -0.98499799 0.061775774
-0.40497845 0.0041931234 0.0029909459 0.008587135 0.11997174 0.99274021 0.064833492
-0.39448661 0.0043673175 0.0026666408 0.030637499 -0.13536011 -0.99032265 0.063767336
-0.38497713 0.0041398657 0.0026657649 0.0073732836 -0.12255316 -0.9924345 0.065695897
-0.37570328 0.003770726 0.003304963 0.0034607081 -0.10581195 -0.99438012 0.06311173
-0.36410925 0.0042719874 0.0030447564 0.021349175 -0.1575779 -0.98727572 0.06362012
-0.35495916 0.0048905732 0.0034127617 0.0054528671 -0.17253269 -0.98498863 0.06181645
-0.34559405 0.0046492741 0.0029213626 0.016540363 -0.13927694 -0.99011534 0.067879036
-0.33531892 0.0044923327 0.0035715303 0.038397532 0.16340421 0.98581171 0.063874885
-0.32512674 0.0052915486 0.0041206395 -0.0053749885 -0.2211128 -0.97523344 0.062720284
-0.31503373 0.0053622429 0.0039518364 -0.0052808099 -0.20453933 -0.97884411 0.064757153
-0.30484065 0.0053206012 0.0042157345 0.0054368773 -0.18033765 -0.98358977 0.065910965
-0.29497099 0.0048597958 0.0040629064 0.029144095 0.18168645 0.98292452 0.064884812
-0.28439549 0.0056807208 0.004332819 0.03864095 -0.21820736 -0.97513711 0.06664446
-0.27509815 0.0045777247 0.0054392014 0.031355772 0.1693255 0.98506129 0.072677389
-0.26359946 0.0054494822 0.004885674 0.054712161 -0.27944857 -0.95860052 0.054609966
-0.25442123 0.0037786853 0.0052901115 0.046859257 -0.15672807 -0.98652959 0.067965128
-0.24492544 0.0052727559 0.0057338621 0.061874557 -0.22400726 -0.97262126 0.063381322
-0.23559366 0.0042715664 0.0059331185 -0.011036243 -0.21394232 -0.97678393 0.064371362
-0.22523135 0.0049542594 0.0057002101 -0.015840868 -0.21398868 -0.97670776 0.065223821
-0.21587181 0.0051611667 0.0061768019 0.067743093 0.25950879 0.96336186 0.057502456
-0.2053019 0.0054220972 0.0055758543 0.061018188 0.23254 0.97067094 0.062907316
-0.19452675 0.0050484356 0.0045938874 0.053091507 0.17810296 0.98257852 0.07147041
-0.18438844 0.0045438814 0.0049814465 0.0065969098 -0.15380926 -0.98807859 0.080473483
-0.17441638 0.004118199 0.0052788914 0.048576433 -0.20057425 -0.97847337 0.078325473
-0.16379966 0.006410697 0.004910015 0.07904537 -0.33963817 -0.93722874 0.067997262
-0.15528038 0.0047566583 0.0056823576 -0.026470844 -0.24332196 -0.96958423 0.06983953
-0.14541461 0.0050056847 0.0058173388 0.0044831377 -0.23842056 -0.97115165 0.070528425
-0.13502696 0.006566789 0.0056291679 0.027970552 -0.3372384 -0.94100362 0.07293608
-0.1237771 0.0055583962 0.0062194555 0.062198665 -0.23482177 -0.9700464 0.073758729
-0.11544186 0.0047294535 0.0065833456 -0.0091139479 -0.24239498 -0.97013485 0.079255693
-0.10593414 0.0039634984 0.0070067612 -0.0058944658 -0.19938751 -0.97990304 0.085277423
-0.095889531 0.0054062698 0.0068828198 -0.027114261 -0.23222476 -0.97228414 0.079015009
-0.084687628 0.0059127915 0.007041642 0.0079511544 -0.28962705 -0.95710659 0.074268274
-0.074918076 0.0054247933 0.007351425 0.053366438 -0.24276823 -0.96861529 0.083463617
-0.064331733 0.00512863 0.0077536013 0.046519347 -0.29523516 -0.95429146 0.074906133
-0.053812623 0.0049085701 0.0080697015 0.03530461 -0.2584253 -0.96538597 0.069068082
-0.046130672 0.0056879432 0.0080034826 -0.021393033 -0.28576237 -0.95806175 0.073381081
-0.034834377 0.0039557 0.0087921284 0.00041127516 -0.19696689 -0.98041004 0.08386109
-0.025684917 0.0051116673 0.0087036202 0.053629994 -0.34400544 -0.93743485 0.070186123
-0.01551673 0.0044903192 0.0091577861 0.098006934 -0.17285545 -0.98005897 0.081521459
-0.0053185765 0.005940645 0.0090521276 0.090294257 -0.30620998 -0.94767213 0.081926018
0.0040222267 0.0069756908 0.0089769568 0.05125881 -0.36884001 -0.92807847 0.080623843
0.014681759 0.0077452725 0.0089851506 0.042921904 -0.40915987 -0.91145259 0.072047397
0.024471005 0.0071741631 0.0094789164 -0.0081446506 -0.42575505 -0.90480185 0.068609223
0.035136223 0.0082222614 0.0093053002 0.04669838 -0.48231444 -0.87475252 0.075353868
0.044522457 0.0085991127 0.0093785515 -0.030289112 -0.51985008 -0.85372037 0.057775676
