# .PCD v0.7 - Point Cloud Data file format
VERSION 0.7
FIELDS x y z normal_x normal_y normal_z curvature
SIZE 4 4 4 4 4 4 4
TYPE F F F F F F F
COUNT 1 1 1 1 1 1 1
WIDTH 616
HEIGHT 1
VIEWPOINT 0 0 0 1 0 0 0
POINTS 616
DATA ascii
0.5 0.1553165 0.065313488 -0.87273312 -0.48819393 0.0018873268 0.099302381
0.38704211 0.16004464 0.064512879 0.014399489 -0.99989629 7.2343878e-06 2.189545e-05
0.39553601 0.16016623 0.064090945 0.014262067 -0.99989825 3.3407662e-06 1.8610723e-06
0.40583721 0.16031368 0.063701026 0.014261433 -0.99989831 -6.8245376e-06 1.2829804e-06
0.41434574 0.16043548 0.065352492 0.014373686 -0.99989671 -1.3591637e-05 1.7592557e-06
0.42599931 0.16060232 0.063120149 0.01433883 -0.99989724 -4.2873294e-06 1.0539973e-05
0.43625894 0.16074917 0.065907076 0.014291337 -0.9998979 -1.9274057e-06 0
0.44608799 0.16088988 0.067224018 0.014300345 -0.99989778 -4.4437047e-06 8.3831501e-06
0.45485258 0.16101535 0.064803772 0.014342773 -0.99989718 -6.0460206e-06 0
0.46441984 0.16115229 0.064109989 0.014349003 -0.99989712 -5.219475e-06 0
0.47614667 0.16132016 0.065006502 -0.081704266 -0.99660522 -0.010118865 0.017936325
0.48391113 0.16143131 0.063946344 -0.18995731 -0.98171669 0.012187803 0.046540413
0.49430737 0.16158013 0.064263687 -0.56642735 -0.82390523 0.018442687 0.10827853
0.5 0.16023503 0.060355537 -0.69798696 -0.71603531 -0.010381484 0.093341596
0.24949284 -0.16031516 0.071336314 -0.74009007 -0.67085654 0.047097646 0.092712305
0.25551569 -0.16166162 0.075863369 -0.63125592 -0.77418369 -0.046429347 0.11094186
0.26583683 -0.16166162 0.075618513 0.21715271 0.97522604 -0.042177573 0.04875432
0.27664202 -0.16166162 0.07309901 0.041545667 0.99913579 0.0013035805 0.0049424577
0.28787962 -0.16166162 0.074770965 -3.351329e-05 1 -1.9207555e-06 1.3573104e-05
0.29267719 -0.16166162 0.076112933 2.0965794e-05 1 -6.0127613e-06 1.3822889e-05
0.30535749 -0.16166162 0.075065605 -1.6695138e-05 1 -1.0007574e-06 1.306503e-05
0.31371588 -0.16166162 0.076369546 -1.3380374e-08 1 4.6686027e-06 1.2620957e-05
0.32427132 -0.16166162 0.07587079 -3.0854073e-05 1 -9.9922163e-06 1.2589628e-05
0.33512431 -0.16166162 0.074589111 -3.6857666e-05 1 -3.108167e-06 1.2970861e-05
0.34289974 -0.16166162 0.077355906 5.4816383e-08 1 -4.1964777e-06 1.3053203e-05
0.35177171 -0.16166162 0.074444309 1.609571e-05 1 -3.8828907e-07 1.2781691e-05
0.3656531 -0.16166162 0.075084865 -4.599143e-05 1 -1.1660027e-06 1.1611563e-05
0.37407583 -0.16166162 0.073825039 -1.7277667e-05 1 -5.5450387e-06 1.28398e-05
0.38529599 -0.16166162 0.075504914 -1.6438706e-05 1 -9.1442644e-06 1.310357e-05
0.39351037 -0.16166162 0.072753787 3.3745433e-05 1 -7.5611656e-06 1.2490656e-05
0.40533262 -0.16166162 0.076586001 3.4578214e-05 1 9.9061017e-06 1.2516963e-05
0.4148815 -0.16166162 0.074248523 -0 1 -0 1.2525106e-05
0.42578119 -0.16166162 0.07631503 -6.9658832e-05 1 7.2593011e-06 1.2499985e-05
0.434962 -0.16166162 0.076202124 -3.6334168e-05 1 -7.8714311e-06 1.3509392e-05
0.4465788 -0.16166162 0.073556311 -3.461638e-05 1 4.5274842e-06 1.3082544e-05
0.45664549 -0.16166162 0.074348122 -4.3325593e-07 1 -9.7056891e-06 1.3171989e-05
0.46497667 -0.16166162 0.07573247 -6.9850401e-05 1 -1.5651358e-05 1.3025571e-05
0.47371024 -0.16166162 0.075776726 -0.063152052 0.9980036 0.0007059215 0.0058524273
0.48219055 -0.16166162 0.076419994 -0.25361106 0.9666906 0.034506585 0.059185773
0.49366435 -0.16166162 0.07476636 -0.54859781 0.83580726 -0.021604856 0.10133339
0.5 -0.16134587 0.071323574 -0.71543115 0.69652361 -0.054892715 0.094685629
0.24949284 -0.15416244 0.074278325 -0.79116499 -0.61094588 -0.028337764 0.11096738
0.5 -0.15532355 0.074619889 -0.85224342 0.52287787 -0.016727755 0.099508449
0.24949285 -0.14435461 0.075737044 -0.98834383 -0.14976881 -0.027309444 0.03583068
0.5 -0.14637488 0.076260678 -0.96650058 0.25423127 0.035259288 0.050120052
0.24949284 -0.13402627 0.076314881 -0.99965274 -0.026210669 0.0027226619 0.0028480056
0.5 -0.13808419 0.074135959 -0.9920373 0.12414294 -0.021227024 0.029242951
0.24949284 -0.12370212 0.075929075 -1 -2.3079563e-05 5.3606476e-05 7.8776284e-05
0.5 -0.12616751 0.07353095 -1 0 0 0
0.24949285 -0.11515852 0.073923901 -1 -2.4005591e-05 2.7264459e-05 8.327065e-05
0.5 -0.11539672 0.07521195 -1 -0 -0 0
0.24949287 -0.10504875 0.074984729 -1 -3.7711696e-05 4.9397488e-05 7.8621561e-05
0.5 -0.10501313 0.075920835 -1 0 0 0
0.24949285 -0.094926693 0.075779475 -1 -4.8133927e-05 2.9116509e-05 6.2973748e-05
0.5 -0.096031681 0.073314577 -1 0 0 0
0.24949284 -0.086629875 0.073042929 -1 -2.3564728e-05 3.3059459e-05 7.5566939e-05
0.5 -0.084692039 0.074935682 -1 0 0 0
0.24949287 -0.075172171 0.074717246 -1 -3.1238094e-05 1.7197388e-05 7.5137352e-05
0.5 -0.071786337 0.075622886 -1 -0 -0 0
0.24949285 -0.065448873 0.075339332 -1 -3.095317e-06 3.6022029e-05 7.7667741e-05
0.5 -0.066319548 0.074052483 -1 0 0 0
0.24949284 -0.05530132 0.073998891 -1 -1.0282888e-05 4.0274583e-05 7.5096264e-05
0.5 -0.056600306 0.074569494 -1 0 0 0
0.24949284 -0.04588037 0.074737094 -1 -8.930434e-06 3.7088132e-05 6.1862906e-05
0.5 -0.044651423 0.075736217 -1 -0 -0 0
0.24949287 -0.034440838 0.075648651 -1 -5.0971589e-06 8.0569944e-06 6.1375351e-05
0.5 -0.034635153 0.074364975 -1 -0 -0 0
0.24949284 -0.026489871 0.075895578 -1 -1.2090571e-05 1.0093561e-05 6.1218845e-05
0.5 -0.026256597 0.075253479 -1 -0 -0 0
0.24949285 -0.014221976 0.074676633 -1 -2.466393e-06 2.447559e-05 6.0170682e-05
0.5 -0.012869664 0.074958861 -1 0 0 0
0.24949284 -0.00093599316 0.074592561 -1 1.1662944e-06 1.8505276e-05 7.3217663e-05
0.5 -0.0048770555 0.074369214 -1 0 0 0
0.24949284 0.0066525312 0.076832749 -1 4.4492986e-06 8.1028802e-06 7.6557204e-05
0.5 0.0048946678 0.074219972 -1 0 0 0
0.24949285 0.01595691 0.075151838 -1 3.8809576e-06 2.3562472e-05 7.565556e-05
0.5 0.015074565 0.074267209 -1 0 0 0
0.24949284 0.027292097 0.076611623 -1 1.3461709e-05 1.0450762e-05 7.7051038e-05
0.5 0.023344299 0.077051736 -1 -0 -0 0
0.24949285 0.034914937 0.073912114 -1 1.3033147e-05 2.3374227e-05 8.4953303e-05
0.5 0.033301186 0.075607181 -1 -0 -0 0
0.24949285 0.046448801 0.075051479 -1 -5.4840586e-07 2.7413884e-05 6.2979678e-05
0.5 0.044374604 0.075164132 -1 0 0 0
0.24949282 0.053342521 0.072972424 -1 1.1244331e-05 2.5843858e-05 7.5772055e-05
0.5 0.056100566 0.074887238 -1 0 0 0
0.24949284 0.063566856 0.074744567 -1 2.9935874e-05 2.7053255e-05 6.4333297e-05
0.5 0.064145222 0.074364185 -1 -0 -0 0
0.24949284 0.078188248 0.074215993 -1 2.2874166e-05 1.3804451e-05 6.9919864e-05
0.5 0.074810065 0.074655935 -1 -0 -0 0
0.24949284 0.084378794 0.073587537 -1 3.9751085e-05 2.6990865e-05 7.2436109e-05
0.5 0.085725695 0.073520899 -1 -0 -0 0
0.24949285 0.095582597 0.076453611 -1 3.4871551e-05 2.5077114e-05 7.7601486e-05
0.5 0.096325189 0.07366024 -1 0 0 0
0.24949285 0.10481682 0.074366204 -1 5.5111901e-05 3.3169781e-05 7.9811412e-05
0.5 0.10353892 0.075249724 -1 -0 -0 0
0.24949285 0.11455993 0.075186923 -1 8.5434758e-06 2.5301402e-05 7.7499782e-05
0.5 0.11606608 0.075677507 -1 0 0 0
0.24949284 0.12339934 0.07443285 -1 2.9165078e-05 3.9698974e-05 7.0525115e-05
0.5 0.12573028 0.075202055 -1 0 0 0
0.24949287 0.13583955 0.075757504 -0.98586726 0.16661721 -0.017451977 0.03369635
0.5 0.13559864 0.073997438 -0.99900591 -0.044422708 -0.0037264938 0.0035282297
0.24949284 0.14433269 0.072710961 -0.94100326 0.33839592 0.0010866228 0.07904546
0.5 0.14356442 0.076028399 -0.98938334 -0.1449506 0.010484396 0.034461077
0.24949284 0.15473472 0.074981324 -0.7089693 0.70517266 0.0097001716 0.080303691
0.25578088 0.15816565 0.076620221 -0.61150962 0.79106981 -0.016267326 0.071438253
0.26507732 0.15829872 0.077801272 0.33479643 -0.94062716 -0.055963192 0.064731471
0.27563986 0.15844993 0.075369872 0.10565001 -0.99439889 -0.0029908316 0.01577015
0.2857419 0.15859452 0.072375439 0.014294593 -0.99989784 -3.1454181e-06 0
0.29681286 0.15875302 0.073939361 0.014346696 -0.99989712 4.495665e-07 5.615012e-06
0.30402112 0.15885621 0.074347891 0.014311373 -0.99989766 3.629043e-06 0
0.31471947 0.15900934 0.0768231 0.014298098 -0.99989778 -1.1426603e-05 0
0.32750565 0.15919237 0.075576439 0.014357307 -0.999897 1.2096431e-05 5.3789167e-06
0.33610886 0.15931554 0.076414727 0.014284615 -0.99989796 -8.2297638e-06 0
0.34418413 0.15943111 0.074877016 0.014347779 -0.99989706 4.7275894e-06 5.3537242e-06
0.35639894 0.15960598 0.076191217 0.014301797 -0.99989772 -3.5850805e-06 0
0.3644523 0.15972126 0.074674629 0.014299645 -0.99989778 -1.323005e-05 0
0.37578112 0.15988344 0.073201194 0.014338701 -0.99989724 -3.686557e-06 2.8913926e-06
0.3830685 0.15998776 0.074226968 0.014376284 -0.99989671 2.9775249e-06 1.9763389e-05
0.5 0.15650009 0.073689707 -0.82576078 -0.56401581 -0.0022916647 0.10113341
0.38609672 0.16003111 0.077207945 0.014422421 -0.99989599 1.0805442e-05 2.7550446e-05
0.39572784 0.16016898 0.07613115 0.014315302 -0.99989754 6.1145565e-06 3.2419528e-06
0.40620497 0.16031896 0.074728236 0.014340088 -0.99989718 -1.7571663e-06 0
0.41390544 0.16042918 0.074023813 0.014307386 -0.9998976 1.2043342e-05 0
0.42921531 0.16064835 0.079458326 0.014301251 -0.99989772 -7.0470546e-06 0
0.43516466 0.16073351 0.076274589 0.014276102 -0.99989808 1.3812097e-05 1.3143675e-06
0.44408727 0.16086124 0.07445696 0.014274753 -0.99989814 -6.9801986e-06 0
0.45392856 0.16100211 0.073871449 0.014262415 -0.99989831 4.3046389e-06 4.2002407e-06
0.46412465 0.16114807 0.07606978 0.014295427 -0.99989784 -6.4165779e-06 7.9386145e-06
0.47528425 0.16130783 0.075783193 -0.046079006 -0.998878 0.010930609 0.005817885
0.48324421 0.16142176 0.075497977 -0.15626852 -0.98770702 0.0038732835 0.040516872
0.49479961 0.16158718 0.073255539 -0.60059762 -0.79861623 -0.038660068 0.097969785
0.24949285 -0.16112803 0.081621297 -0.7921375 -0.60941654 0.033611316 0.099300012
0.25354791 -0.16166162 0.084131256 -0.65683657 -0.75379008 -0.019136583 0.095878065
0.26269463 -0.16166162 0.085916333 0.31458405 0.94920081 0.0073916717 0.065716542
0.27389404 -0.16166162 0.084398896 0.085345529 0.99634564 -0.0033848721 0.014932944
0.2850475 -0.16166162 0.086233124 0.00018521852 0.99967349 -0.025549723 0.0037058271
0.29564551 -0.16166162 0.086743571 -0.0059421933 0.99919826 -0.039591998 0.0052715247
0.3030681 -0.16166162 0.084630594 -1.9345942e-05 1 6.7908263e-07 1.2676664e-05
0.31385466 -0.16166162 0.086865574 0.0058866017 0.99900711 -0.044160701 0.0044114348
0.32331675 -0.16166162 0.085683092 -0.0029224772 0.99970454 -0.02413192 0.0019007499
0.33538985 -0.16166162 0.085321017 0.00056433881 0.99978375 -0.020789547 0.0016502076
0.34677282 -0.16166162 0.084877655 0.00027434449 0.99999827 -0.0018557316 3.2498865e-05
0.35258552 -0.16166162 0.085039295 0.00048579619 0.99999738 -0.0022406445 3.4138597e-05
0.36479852 -0.16166162 0.084503852 -1.7232162e-05 1 -2.4963989e-05 8.16592e-06
0.37381393 -0.16166162 0.084428407 7.3636809e-05 1 -3.7848835e-07 1.2069916e-05
0.38672459 -0.16166162 0.086228348 0.0036233973 0.99975866 -0.021669168 0.0024676686
0.39250574 -0.16166162 0.086331278 -0.0024924481 0.99978822 -0.020426646 0.0020776459
0.40409836 -0.16166162 0.086526319 0.0085061351 0.99932194 -0.03582326 0.0037693363
0.41391623 -0.16166162 0.084586047 0.00044943255 0.99999797 -0.0019445934 2.5109033e-05
0.42668056 -0.16166162 0.084945202 -0.00023593634 0.99999946 -0.00098491053 1.9757996e-05
0.43331036 -0.16166162 0.086176075 -0.00056231458 0.99978513 -0.020719554 0.0020120116
0.44507405 -0.16166162 0.085114583 -0.0003124139 0.9999997 -0.00077242852 2.1241163e-05
0.45351809 -0.16166162 0.086775757 0.006137216 0.99875003 -0.049606595 0.0063208411
0.46445382 -0.16166162 0.085813634 -0.0012747757 0.99968928 -0.024894534 0.003307265
0.47300497 -0.16166162 0.084362783 -0.056498267 0.99839616 0.0036087928 0.0054868343
0.48680553 -0.16166162 0.086792909 -0.41357002 0.90948206 0.042452283 0.086376183
0.49523833 -0.16166162 0.08441186 -0.61052531 0.78957433 0.061896048 0.08625783
0.5 -0.16016848 0.084884316 -0.69556284 0.71491861 0.071299836 0.092502452
0.24949282 -0.15570229 0.087019756 -0.88068515 -0.4732421 0.020868972 0.064541735
0.5 -0.15423259 0.082771622 -0.80604601 0.58859909 0.061974999 0.10332054
0.24949287 -0.14535284 0.084821709 -0.97059828 -0.24021292 0.015383458 0.053866092
0.5 -0.14526074 0.086110123 -0.98927528 0.14561389 0.011442786 0.029898418
0.24949285 -0.13533613 0.084510781 -0.99838328 -0.056338519 -0.0075399573 0.011356793
0.5 -0.135582 0.08405979 -0.99749899 0.070417702 0.006084857 0.011165863
0.24949285 -0.12334692 0.085597813 -0.99987739 -0.0021815046 0.015505491 0.0012883325
0.5 -0.12409477 0.086142421 -0.99930543 -0.0026116283 -0.037173431 0.0049758763
0.24949285 -0.11489044 0.08514785 -0.99978966 -4.7959173e-05 0.020510599 0.0025345047
0.5 -0.11584267 0.081864163 -1 0 0 0
0.24949287 -0.10631739 0.085370451 -0.99980015 0.002374955 0.019848706 0.0020243453
0.5 -0.1038688 0.086006001 -0.99957341 -0.0076477299 -0.028185535 0.0026825231
0.24949284 -0.096862696 0.084159143 -1 -6.3894287e-05 7.6184842e-06 8.4933708e-05
0.5 -0.094066314 0.085738741 -0.99992985 0.001421009 -0.011761478 0.00080302428
0.24949287 -0.084537968 0.084153235 -1 -4.6256184e-05 2.0199648e-05 7.0159673e-05
0.5 -0.085647844 0.083663054 -1 0 0 0
0.24949284 -0.074597277 0.084664777 -1 -2.8697283e-05 6.8374734e-06 7.1482711e-05
0.5 -0.073858082 0.084166795 -1 -0 -0 0
0.24949285 -0.064267561 0.085464031 -0.99984002 -0.0009131367 0.017863102 0.0019679808
0.5 -0.065829404 0.085898064 -0.99982858 0.00095704017 -0.018487241 0.0018717702
0.24949284 -0.055651497 0.083756395 -1 2.5508745e-05 0.00029442288 5.1165123e-05
0.5 -0.055154968 0.083617993 -1 0 0 0
0.24949287 -0.04574484 0.085199498 -0.99999994 -0.00010847534 0.00024580979 7.2856405e-05
0.5 -0.045781154 0.085154794 -0.99993515 -0.00072335132 -0.011367268 0.00078355515
0.24949284 -0.037040256 0.085039839 -0.99977165 0.0027296334 0.021192553 0.0019920431
0.5 -0.034819845 0.086951233 -0.99913508 -0.0021895389 -0.041525424 0.0042658793
0.24949282 -0.023219511 0.087587379 -0.99957365 0.0034200205 0.028995706 0.0025752946
0.5 -0.024802988 0.087007709 -0.99897027 0.0018825717 -0.045329504 0.004665981
0.24949285 -0.013366506 0.086878754 -0.99944776 0.0048049036 0.032879196 0.0034474924
0.5 -0.014360624 0.082508728 -1 -0 -0 0
0.24949285 -0.0053187697 0.084726393 -1 4.2640468e-06 4.5529712e-05 8.3950101e-05
0.5 -0.0046431879 0.082766272 -1 -0 -0 0
0.24949284 0.0084576402 0.085752428 -0.99954081 0.0016969293 0.030252993 0.0025981255
0.5 0.0020291784 0.083430067 -1 0 0 0
0.24949284 0.015454395 0.085497215 -0.99982172 0.0009655396 0.018859487 0.0020148703
0.5 0.014813255 0.086204804 -0.99961877 -0.0035510543 -0.027380839 0.0027559621
0.24949285 0.024605907 0.086920619 -0.99980807 -9.7885692e-05 0.019589536 0.0022675267
0.5 0.026161954 0.085380957 -0.99983555 0.0021983385 -0.018001441 0.0012202241
0.24949284 0.035445008 0.084934711 -0.99989337 0.00077136909 0.014582493 0.00094704458
0.5 0.034215432 0.086196043 -0.9993214 0.0061379448 -0.036319353 0.0032363106
0.24949284 0.043920003 0.084515251 -1 9.1025677e-06 2.3851344e-05 7.3429532e-05
0.5 0.046511807 0.084367037 -1 0 0 0
0.24949285 0.054909822 0.084460758 -1 8.7740218e-06 4.6026176e-05 7.4591539e-05
0.5 0.055532955 0.08403039 -1 0 0 0
0.24949284 0.066347435 0.087542586 -0.99928761 0.015811965 0.034270063 0.003829042
0.5 0.064329699 0.083710656 -1 0 0 0
0.24949284 0.072862461 0.084016539 -1 7.8394978e-06 2.4643563e-05 7.3061972e-05
0.5 0.077008717 0.084116645 -1 0 0 0
0.24949285 0.084766164 0.083997563 -1 3.5263252e-05 1.3188344e-05 7.5103933e-05
0.5 0.084776625 0.082746081 -1 0 0 0
0.24949284 0.096932232 0.086132623 -0.99985361 -0.0014293266 0.0170497 0.0017225015
0.5 0.095123164 0.084698826 -1 0 0 0
0.24949284 0.10428965 0.086815894 -0.99905282 -0.0040157679 0.043328349 0.0044957059
0.5 0.10480142 0.083480507 -1 -0 -0 0
0.24949285 0.11575782 0.084313996 -1 3.1805306e-05 7.6755259e-06 7.5841861e-05
0.5 0.11569115 0.085612833 -0.99983549 0.002120655 -0.01801502 0.0017539789
0.24949287 0.12344768 0.083979629 -1 6.4055763e-05 1.5023948e-05 8.4111613e-05
0.5 0.12490322 0.086520977 -0.99957371 -0.0049739121 -0.02877003 0.0021842571
0.24949287 0.13534553 0.085529454 -0.9877345 0.15602322 0.0061089159 0.028617011
0.5 0.13516316 0.084620826 -0.9992339 -0.038486086 0.0071072956 0.0029085621
0.24949285 0.14666456 0.084043756 -0.89305657 0.44720548 -0.049569659 0.086875618
0.5 0.14475602 0.088864669 -0.98339057 -0.17805839 -0.035189036 0.042144559
0.24949284 0.15238 0.085017763 -0.82757294 0.56047112 -0.031547803 0.087668233
0.25266856 0.15812109 0.084932551 -0.59667289 0.8014276 -0.041173156 0.068957843
0.26458976 0.15829176 0.081878185 0.38028488 -0.9243865 -0.029883344 0.068867683
0.27323544 0.1584155 0.087564826 0.12803158 -0.99151415 -0.022529179 0.015992487
0.28604692 0.1585989 0.085675426 0.015199557 -0.99986058 -0.0069058049 0.0001473084
0.29494324 0.15872626 0.085133366 0.0094047664 -0.99935877 -0.034551036 0.002122022
0.30516955 0.15887266 0.084157027 0.014462288 -0.99983513 -0.010977861 0.00051742076
0.31512353 0.15901513 0.086711869 0.014609186 -0.99912554 -0.039175678 0.0022414448
0.3229202 0.15912674 0.085542373 0.014171338 -0.99981034 -0.013363058 0.00063698442
0.33666739 0.15932351 0.084205478 0.016538344 -0.99973798 -0.015825214 0.00086979725
0.34389821 0.15942705 0.085172594 0.011360836 -0.9998104 -0.015814414 0.00083556864
0.35256937 0.15955116 0.088333249 0.010075858 -0.99725318 -0.073379368 0.0069732508
0.36384836 0.15971261 0.085004523 0.012288803 -0.99969679 -0.021339078 0.0010189597
0.37402311 0.1598583 0.084665813 0.011554981 -0.99979341 -0.016720662 0.0011378269
0.38228288 0.1599765 0.086770773 0.017119046 -0.999479 -0.027363021 0.0014261607
0.5 0.15466098 0.085152663 -0.86493927 -0.50126964 0.024672128 0.088798754
0.38665071 0.16003904 0.084476188 0.015127133 -0.99983484 -0.010073499 0.0005401292
0.39745158 0.16019365 0.084677421 0.011050666 -0.99987155 -0.011605685 0.00075166964
0.40516996 0.16030413 0.086213268 0.017126353 -0.99973518 -0.015371855 0.00091157772
0.41662484 0.1604681 0.085737593 0.0096425442 -0.99957514 -0.027504852 0.0020960399
0.42425206 0.16057728 0.085911199 0.01740448 -0.99937725 -0.030696182 0.0022453552
0.43595827 0.16074485 0.08208476 0.014353575 -0.999897 -6.2372546e-06 1.900903e-06
0.44426531 0.16086379 0.085405543 0.015379835 -0.99987775 -0.0028244623 4.1356936e-05
0.45742875 0.16105223 0.084044397 0.016397826 -0.99974632 -0.015438195 0.0011499528
0.46613961 0.16117692 0.083334595 0.013908262 -0.99990255 -0.001191974 2.1946444e-06
0.47434747 0.16129442 0.084949836 -0.030829465 -0.99941897 -0.014535715 0.0054707965
0.48563266 0.16145594 0.086614162 -0.22859982 -0.97351611 -0.0029066992 0.048264492
0.49582657 0.16160189 0.085283779 -0.5826813 -0.81239325 0.022353208 0.094902925
0.5 0.1610668 0.086010829 -0.72928071 -0.68226522 0.051612504 0.095272548
0.24949285 -0.16077146 0.095679358 -0.79451889 -0.59046513 0.14174163 0.090379469
0.2652939 -0.16166162 0.094598472 0.26075292 0.94751418 -0.18499966 0.075310796
0.27944323 -0.16166162 0.092284895 0.0061248434 0.98996949 -0.14114837 0.030758325
0.28542963 -0.16166162 0.094680488 0.0070547322 0.9833383 -0.18164819 0.037354302
0.29659855 -0.16166162 0.095624119 0.0027790561 0.98215717 -0.18804143 0.037935767
0.30581129 -0.16166162 0.094648123 0.0045946389 0.98364842 -0.18004072 0.040068354
0.31358099 -0.16166162 0.095524393 0.013630793 0.9772054 -0.21185789 0.039987117
0.32430443 -0.16166162 0.095710889 -0.0011729157 0.97980946 -0.19992994 0.041327808
0.33533177 -0.16166162 0.09492743 -0.0057822559 0.9849093 -0.17297429 0.035345506
0.34319285 -0.16166162 0.093622766 -0.011810645 0.98839486 -0.15144655 0.032236461
0.35477865 -0.16166162 0.095817655 -0.0073846104 0.98359483 -0.18024091 0.032723032
0.36558631 -0.16166162 0.095613666 0.012957772 0.98276311 -0.18441457 0.034962919
0.37374246 -0.16166162 0.094171733 0.015399638 0.98656017 -0.16267093 0.033864375
0.38414475 -0.16166162 0.095868208 -0.022298681 0.97571206 -0.21791904 0.048037656
0.39626494 -0.16166162 0.096640967 0.0023516878 0.98121935 -0.19288091 0.038798336
0.40315542 -0.16166162 0.094180018 -0.030712767 0.98710942 -0.15707225 0.032222576
0.4158276 -0.16166162 0.094035141 -0.0067598145 0.98390728 -0.1785517 0.041123386
0.42474595 -0.16166162 0.094274707 0.014163234 0.98119551 -0.19249643 0.040717948
0.43593386 -0.16166162 0.093821079 0.018972183 0.98485589 -0.17233352 0.038039703
0.44450775 -0.16166162 0.095934846 -0.01969693 0.9791528 -0.20216766 0.04072142
0.45280424 -0.16166162 0.093830407 -0.037769351 0.98407346 -0.17370349 0.034974288
0.46536225 -0.16166162 0.095146731 0.00090614893 0.98180103 -0.18991031 0.040414549
0.47486284 -0.16166162 0.094984204 -0.030377723 0.98291075 -0.18155867 0.039982725
0.48656914 -0.16166162 0.094117001 -0.29257688 0.94717091 -0.1314002 0.086331174
0.49650761 -0.16166162 0.096051149 -0.67950243 0.71436614 -0.16720477 0.11554342
0.5 -0.16075104 0.096908055 -0.7225638 0.67805004 -0.13472065 0.11328471
0.24949285 -0.15469553 0.096259467 -0.85469681 -0.50278193 0.12924321 0.08898335
0.5 -0.15509927 0.094576038 -0.82223654 0.55971086 -0.10320256 0.10086142
0.24949285 -0.14594522 0.094501399 -0.97489142 -0.1912048 0.11413783 0.053884964
0.5 -0.14385635 0.095081046 -0.98060435 0.12481876 -0.15111353 0.051001616
0.24949284 -0.13633515 0.09509778 -0.99050611 -0.031896371 0.1337169 0.038813051
0.5 -0.1366737 0.09655378 -0.98576528 0.063923888 -0.15550071 0.045829881
0.24949285 -0.1238876 0.095353059 -0.98812962 0.0086308029 0.15337992 0.031276848
0.5 -0.12357079 0.096737817 -0.97989655 -0.025587495 -0.19785856 0.040055342
0.24949285 -0.11669653 0.094155669 -0.98824614 0.010493219 0.15251066 0.032047968
0.5 -0.11413018 0.095080487 -0.98997247 0.0014816961 -0.14125286 0.028301572
0.24949285 -0.10486448 0.095816143 -0.98736852 -0.0097133452 0.15814249 0.032442737
0.5 -0.10596079 0.0955365 -0.98936391 0.012316979 -0.14493932 0.031490404
0.24949285 -0.094554424 0.094484217 -0.98978168 -2.007514e-05 0.14259085 0.028427806
0.5 -0.096441276 0.094115995 -0.98909825 0.0038340318 -0.14720698 0.033329297
0.24949285 -0.086368188 0.096014671 -0.981682 -0.039441068 0.18639961 0.039851055
0.5 -0.084459834 0.094661601 -0.98897314 -0.0099532316 -0.14776047 0.030103657
0.24949285 -0.075163752 0.094518773 -0.98897612 0.00087822787 0.14807226 0.031942002
0.5 -0.074705027 0.094257705 -0.98982054 -0.00090575189 -0.14231844 0.033383206
0.24949285 -0.066131219 0.097296908 -0.96260226 0.0010371238 0.27091664 0.063113227
0.5 -0.064421088 0.094141461 -0.98370206 0.019310288 -0.17876643 0.045175713
0.24949284 -0.054588635 0.096540451 -0.98339003 0.040276255 0.17697974 0.040903058
0.5 -0.054725293 0.093439728 -0.98982745 -0.0011589632 -0.14226846 0.026961502
0.24949287 -0.043660533 0.093494512 -0.99017417 -0.012101895 0.13931525 0.033595223
0.5 -0.044019792 0.096742213 -0.98179573 -0.01601404 -0.1892636 0.036645107
0.24949282 -0.033818856 0.092417046 -0.9914614 -0.01858082 0.12907013 0.027179983
0.5 -0.035295557 0.096408449 -0.97464931 -0.012242202 -0.22340281 0.04413433
0.24949285 -0.024805263 0.091717131 -0.99473453 -0.017228231 0.10102708 0.019442299
0.5 -0.02539804 0.095442198 -0.98980033 -0.0067747016 -0.14230034 0.028203316
0.24949285 -0.018112853 0.097133704 -0.97999156 0.017352553 0.19828109 0.043108094
0.5 -0.016506134 0.095176451 -0.98998576 -0.017748674 -0.14004692 0.028294208
0.24949287 -0.0043598423 0.093968228 -0.98849714 0.010907281 0.15084572 0.033023518
0.5 -0.0052190609 0.094816722 -0.99058604 -0.0019933467 -0.13687715 0.031325746
0.24949285 0.0035335007 0.095773146 -0.98462731 0.016912796 0.17384784 0.032529891
0.5 0.0061346237 0.094272442 -0.98821408 -0.0073410259 -0.1529019 0.027286459
0.24949287 0.015599229 0.095235154 -0.98825032 0.0057269144 0.15273674 0.032944996
0.5 0.015724158 0.094790615 -0.98383516 -0.00079375849 -0.17907481 0.030484043
0.24949284 0.025819132 0.095466457 -0.98748589 -0.0061456002 0.15758786 0.031313766
0.5 0.026019145 0.09495125 -0.98468882 0.0090785436 -0.17408471 0.030954985
0.24949285 0.035248742 0.096217945 -0.98482245 0.01897582 0.17252439 0.034781735
0.5 0.035932209 0.094920695 -0.98466688 -0.0011535644 -0.17444128 0.032536931
0.24949284 0.046282798 0.09572731 -0.98897177 -0.0080300374 0.14788648 0.03444897
0.5 0.044403985 0.093932442 -0.98388284 0.012807242 -0.17835528 0.036679085
0.24949284 0.055369176 0.0953293 -0.98779577 0.0080319485 0.15554743 0.039299741
0.5 0.050332807 0.092253067 -0.99082625 0.0089327339 -0.13484664 0.028561564
0.24949284 0.063881963 0.095059454 -0.98650599 -0.00069070648 0.16372371 0.037503161
0.5 0.064959049 0.097008362 -0.97898263 -0.015957197 -0.20331843 0.040837284
0.24949284 0.074442685 0.09799853 -0.96515352 0.045387793 0.25771838 0.059485167
0.5 0.075827278 0.094234608 -0.98710912 0.0098077552 -0.15974806 0.030489987
0.24949285 0.085868225 0.09445291 -0.98813981 -0.02684099 0.15119286 0.033039689
0.5 0.085845649 0.094685473 -0.98798603 0.016044725 -0.15370806 0.030114667
0.24949284 0.096021399 0.096540906 -0.98266786 0.003340312 0.1853451 0.037769426
0.5 0.096675813 0.094431452 -0.98759294 0.016277757 -0.1561899 0.028879138
0.24949284 0.10346504 0.094067201 -0.99097735 0.0064540282 0.13387443 0.029905554
0.5 0.1048235 0.093232483 -0.9911027 -0.0014638066 -0.13309115 0.026791867
0.24949287 0.11588772 0.09526667 -0.98740351 -0.0080837682 0.15801576 0.035815965
0.5 0.11385155 0.093982145 -0.98949623 -0.0097481078 -0.14422928 0.030533828
0.24949287 0.12559974 0.094284967 -0.99026978 -0.017368855 0.13807267 0.02631887
0.5 0.12433681 0.09353932 -0.98990178 0.00042901229 -0.1417543 0.03073781
0.24949284 0.13592544 0.09495651 -0.98219305 0.13892309 0.12648016 0.049455162
0.5 0.13536996 0.092330083 -0.99384654 -0.00047574344 -0.11076465 0.02576647
0.24949285 0.14436372 0.093994975 -0.9294197 0.34213188 0.13829245 0.083286293
0.5 0.14541057 0.098230943 -0.94435143 -0.1689028 -0.28226238 0.088155761
0.24949285 0.1541311 0.094246216 -0.78597283 0.60492676 0.12771237 0.089180969
0.25410545 0.15814166 0.095628068 -0.58257145 0.79335868 0.17661361 0.094326422
0.2645492 0.15829116 0.096129306 0.33180884 -0.91222 -0.24032788 0.092169449
0.27389258 0.15842493 0.094545767 0.13476111 -0.97622597 -0.16977133 0.037787501
0.28567767 0.15859361 0.09532351 0.0018877255 -0.98361236 -0.1802865 0.028231097
0.29550487 0.15873429 0.095862634 0.010486199 -0.96933293 -0.24552718 0.045364607
0.30415568 0.15885812 0.095302708 0.030930297 -0.98201281 -0.18626368 0.030485593
0.31248873 0.1589774 0.092899337 -0.0059339874 -0.988213 -0.15296985 0.021478022
0.32570758 0.15916665 0.095051169 0.023750773 -0.982813 -0.18306947 0.023995429
0.33516964 0.15930207 0.095646203 0.022585901 -0.98201632 -0.18744019 0.024423594
0.34429646 0.15943274 0.095501594 -0.0099232113 -0.98585987 -0.16727786 0.021581659
0.35303497 0.15955782 0.095245853 0.02443574 -0.96237707 -0.27061662 0.043265827
0.3639096 0.15971349 0.093268953 0.0079647154 -0.98734498 -0.15838677 0.022409689
0.37511101 0.15987384 0.09456899 0.033406921 -0.97212511 -0.23207049 0.041282635
0.5 0.15815909 0.097049013 -0.72059095 -0.67528087 -0.15730362 0.11491689
0.38634086 0.1600346 0.092011303 0.021623146 -0.99339437 -0.11269457 0.020776587
0.3957738 0.16016963 0.095460117 0.027752187 -0.98506069 -0.16995676 0.02996484
0.40407071 0.16028839 0.094873115 0.011873117 -0.98495817 -0.17238477 0.029344678
0.41450521 0.16043778 0.094960727 0.022930998 -0.98528445 -0.16937765 0.031514116
0.42400032 0.16057371 0.094568253 -0.024350466 -0.98151898 -0.18980944 0.033699807
0.43185925 0.16068619 0.094614558 -0.017703965 -0.98432368 -0.17548075 0.032602832
0.44397292 0.1608596 0.094810344 0.00026820292 -0.98572695 -0.16835169 0.030525733
0.45533025 0.16102217 0.095189512 0.030642012 -0.98300469 -0.18100505 0.032722037
0.46353868 0.1611397 0.095833533 0.042169191 -0.97788435 -0.20485111 0.041813012
0.47455838 0.16129743 0.095486388 -0.014227105 -0.98311305 -0.18244544 0.03620119
0.48442027 0.1614386 0.096777238 -0.14484842 -0.96160114 -0.23311433 0.0664922
0.49549308 0.1615971 0.09246581 -0.64833486 -0.75175393 -0.12053201 0.099843092
0.5 0.16128187 0.09851189 -0.69015348 -0.71136636 -0.13283896 0.11746281
0.25404328 -0.16166162 0.10457112 0.51126486 0.78938109 -0.3398318 0.12796472
0.26491374 -0.16166162 0.10746603 0.18068975 0.84446818 -0.50420707 0.10502318
0.27444398 -0.16166162 0.10689436 0.03030551 0.80426311 -0.5935002 0.092343844
0.28382796 -0.16166162 0.10473765 -0.064205728 0.91967702 -0.38739106 0.072843187
0.29310834 -0.16166162 0.10299754 -0.026573334 0.91016215 -0.41339895 0.087910064
0.30565587 -0.16166162 0.10565451 0.055691764 0.85201079 -0.52055365 0.079006433
0.31527704 -0.16166162 0.10376531 -0.0034312832 0.9308539 -0.36537564 0.076366127
0.3289699 -0.16166162 0.10570548 0.013564368 0.85092628 -0.52511019 0.083345227
0.33475357 -0.16166162 0.10449298 -0.036236715 0.94665772 -0.32019696 0.069218367
0.34532452 -0.16166162 0.10581925 0.0025435942 0.86663407 -0.49893776 0.10546726
0.35595337 -0.16166162 0.10584477 0.040748455 0.88522303 -0.46337864 0.071542524
0.36458504 -0.16166162 0.10480814 0.013673736 0.95710862 -0.2894066 0.051219448
0.37657133 -0.16166162 0.10658512 0.0099889645 0.86814332 -0.49621305 0.086437955
0.38549346 -0.16166162 0.10692631 -0.04300832 0.85577917 -0.51555049 0.079499438
0.3953414 -0.16166162 0.10483968 0.019482318 0.90728277 -0.42006946 0.082833938
0.40743199 -0.16166162 0.10358019 0.0045827925 0.89610779 -0.44381279 0.088557363
0.41485414 -0.16166162 0.10378013 0.020991383 0.91088903 -0.41211709 0.091639459
0.42555019 -0.16166162 0.10607032 0.041336805 0.89171213 -0.45071149 0.082014464
0.43478581 -0.16166162 0.10551166 -0.013955979 0.85424113 -0.51968956 0.10205408
0.44430572 -0.16166162 0.10642627 -0.079536296 0.85348171 -0.51501745 0.084364526
0.45475727 -0.16166162 0.10440224 -0.027719481 0.82132477 -0.56978709 0.09541405
0.46664912 -0.16166162 0.1038899 0.027628586 0.90818477 -0.41765669 0.086102158
0.47514379 -0.16166162 0.104803 0.034393199 0.89095414 -0.45278898 0.089060485
0.48464537 -0.16166162 0.10737566 -0.20064124 0.81215745 -0.54785347 0.11324418
0.49619427 -0.16166162 0.10418012 -0.58105564 0.70680678 -0.40348294 0.14025238
0.5 -0.1607952 0.10587556 -0.69723254 0.6197297 -0.36028033 0.13941376
0.24949287 -0.15450552 0.10568739 -0.76454854 -0.47767225 0.43277568 0.14265203
0.5 -0.15462117 0.1039534 -0.81852144 0.4318229 -0.37888214 0.13247141
0.24949285 -0.14506325 0.10579427 -0.85985178 -0.21232976 0.46429619 0.11494388
0.5 -0.14409243 0.10534579 -0.92635471 0.12037898 -0.3568975 0.10244697
0.24949285 -0.13395292 0.10461549 -0.88947344 0.027404781 0.45616451 0.084937029
0.5 -0.135014 0.10645947 -0.81468087 -0.026049299 -0.57932419 0.08734712
0.24949285 -0.12294503 0.10422724 -0.91961294 -0.06805452 0.3868857 0.075733408
0.5 -0.12536101 0.10493798 -0.86045265 0.041417878 -0.50784427 0.089077786
0.24949287 -0.11514436 0.10521332 -0.878497 -0.028123148 0.47691938 0.092301287
0.5 -0.11332675 0.10527927 -0.8786146 0.011047852 -0.47740361 0.086064592
0.24949285 -0.10538488 0.10509529 -0.90783674 0.014578681 0.41907015 0.079838388
0.5 -0.1036755 0.10701665 -0.87114692 0.052707497 -0.48818535 0.090677537
0.24949285 -0.093725279 0.104342 -0.91594023 0.0023009325 0.40130818 0.079177871
0.5 -0.09489923 0.10628045 -0.80573338 -0.023316324 -0.59181923 0.11247163
0.24949285 -0.08324746 0.10577964 -0.87422407 -0.028563542 0.48468181 0.092945732
0.5 -0.084256366 0.10310824 -0.89459491 0.025586257 -0.44614497 0.092694156
0.24949287 -0.074948668 0.10392255 -0.88898355 -0.024657071 0.45727485 0.10416749
0.5 -0.075738348 0.10423741 -0.93001229 -0.081336342 -0.35841522 0.074841008
0.24949285 -0.065132603 0.10661502 -0.8474012 0.057699881 0.52780855 0.095210984
0.5 -0.064661868 0.10605409 -0.85574985 0.0024275803 -0.51738399 0.098529339
0.24949284 -0.055823382 0.1073992 -0.85122174 0.034407914 0.52367711 0.099291846
0.5 -0.055116624 0.10474765 -0.86815387 -0.010481435 -0.4961845 0.091478348
0.24949285 -0.044490945 0.10474597 -0.86025679 -0.025725575 0.5092116 0.09279637
0.5 -0.045017011 0.10574786 -0.85753751 0.056345388 -0.51132625 0.091850303
0.24949285 -0.034268502 0.10564483 -0.87898839 -0.050560109 0.4741551 0.099192537
0.5 -0.035183784 0.10453941 -0.83421206 0.043048222 -0.54976088 0.095055178
0.24949287 -0.024578726 0.10499667 -0.88783675 -0.055315319 0.45682174 0.087366119
0.5 -0.023889944 0.10634118 -0.80017382 0.03340951 -0.59883702 0.1001874
0.24949284 -0.01345771 0.10652099 -0.80799872 -0.058820732 0.58624083 0.092298709
0.5 -0.015496988 0.10322248 -0.93640351 -0.0040745321 -0.35090151 0.07649941
0.24949284 -0.0040490874 0.10444656 -0.91199327 -0.054445121 0.40657601 0.080510341
0.5 -0.0050961822 0.10502005 -0.85167944 -0.0081686769 -0.52399945 0.10080449
0.24949285 0.0031220722 0.10516925 -0.87389868 0.0779346 0.47982007 0.090746216
0.5 0.0039733658 0.10611016 -0.84675622 -0.073904485 -0.52682263 0.097007722
0.24949284 0.015009217 0.10513832 -0.90709496 -0.018657507 0.42051235 0.090019651
0.5 0.014345009 0.10563875 -0.87062389 -0.053619493 -0.48901838 0.088868275
0.24949284 0.024746612 0.10479158 -0.87900352 0.0061575738 0.47677541 0.095026694
0.5 0.021044226 0.10550378 -0.90337652 -0.011007657 -0.42870703 0.079225026
0.24949282 0.036000751 0.10784312 -0.78241801 -0.051071841 0.62065589 0.10363791
0.5 0.035072006 0.10374818 -0.91538131 0.0075311773 -0.40251753 0.083799399
0.24949285 0.045989551 0.10586075 -0.84256649 -0.028980637 0.53781199 0.09820056
0.5 0.045801703 0.10483426 -0.88468987 0.029346168 -0.46525553 0.089362897
0.24949285 0.054636568 0.10550953 -0.87554204 0.011160175 0.48301294 0.089886278
0.5 0.054573044 0.10539991 -0.82046676 0.041305922 -0.57020003 0.096664682
0.24949287 0.064321242 0.10533593 -0.85347432 0.033743657 0.52004111 0.09809085
0.5 0.064843699 0.1036679 -0.8908776 -0.019910295 -0.45380685 0.091957554
0.24949284 0.075983308 0.10652622 -0.81828731 0.029945463 0.57402897 0.098772891
0.5 0.07552252 0.104201 -0.91457516 -0.025995973 -0.40357962 0.08236935
0.24949285 0.084344991 0.10546573 -0.83992624 0.053931557 0.54001427 0.093925096
0.5 0.084091805 0.10679655 -0.81694955 -0.040903892 -0.57525671 0.097777411
0.24949287 0.094604857 0.10526633 -0.86934596 0.044466902 0.49219948 0.10190736
0.5 0.095912397 0.10572745 -0.86566192 0.061692175 -0.49681342 0.093810886
0.24949285 0.10570344 0.1046461 -0.89068037 -0.017562285 0.45429072 0.097691521
0.5 0.10560322 0.1056582 -0.85088503 0.03649817 -0.5240826 0.10079847
0.24949284 0.1172833 0.10611905 -0.85437173 -0.035035957 0.51847994 0.090794481
0.5 0.11589259 0.10381478 -0.89673561 0.075416423 -0.43609351 0.093155988
0.24949285 0.12481284 0.10357596 -0.90430945 -0.017419193 0.42652196 0.093902268
0.5 0.12546249 0.10709619 -0.87508529 0.0026268021 -0.48396158 0.086308889
0.24949284 0.13575418 0.10616414 -0.89907503 0.10872272 0.42407954 0.09309788
0.5 0.13637099 0.10616938 -0.85167474 -0.019709399 -0.5237 0.086443096
0.24949284 0.14639983 0.10397185 -0.80439603 0.41298157 0.42707506 0.11909581
0.5 0.1457653 0.10461554 -0.8230772 -0.25691083 -0.50649852 0.11277053
0.24949284 0.15300018 0.10393284 -0.75002837 0.58917165 0.30055654 0.11798582
0.25497153 0.15815407 0.10626047 0.50375974 -0.78263706 -0.36565739 0.10336671
0.2660273 0.15831232 0.10300211 0.26243836 -0.89697707 -0.35575017 0.091626205
0.27437872 0.15843189 0.10679854 0.0062876865 -0.84667087 -0.53207976 0.06971094
0.28583023 0.1585958 0.10547846 0.011505649 -0.84209472 -0.53920692 0.074734867
0.29591581 0.15874018 0.10333064 0.0024760521 -0.88809264 -0.4596577 0.081560694
0.30600116 0.15888454 0.10597796 0.062846258 -0.85491794 -0.51494235 0.075347953
0.31891435 0.15906939 0.10959963 0.063866116 -0.81356722 -0.57795298 0.067159288
0.32242614 0.15911967 0.10457954 -0.037735917 -0.90765506 -0.41801706 0.06819196
0.33304295 0.15927164 0.10362329 0.0027745592 -0.90158278 -0.43259779 0.078518912
0.3443056 0.15943287 0.1050299 -0.0076334695 -0.88728291 -0.46116245 0.076449119
0.35415646 0.15957388 0.10544307 0.0030216121 -0.89199364 -0.45203787 0.071767479
0.36726964 0.15976159 0.10477991 0.030696526 -0.86865807 -0.49446017 0.064182326
0.37586042 0.15988459 0.10412683 0.04404971 -0.89379543 -0.44630626 0.066672459
0.38233745 0.1599773 0.10884359 0.036852181 -0.81642395 -0.57627589 0.080150284
0.5 0.15438253 0.10405294 -0.71152186 -0.46515575 -0.52665615 0.12766704
0.38614702 0.16003181 0.10634471 0.089485511 -0.87733734 -0.47145683 0.084105901
0.39574209 0.16016917 0.10607982 0.045869268 -0.85100973 -0.52314293 0.088249207
0.4055388 0.16030943 0.10610459 0.042382859 -0.83991569 -0.54105955 0.082064837
0.41546822 0.16045155 0.10437322 -0.011125049 -0.84667826 -0.5319888 0.10075204
0.42391753 0.16057251 0.10287199 -0.024175731 -0.90703154 -0.42036816 0.077529855
0.43211025 0.1606898 0.10610919 -0.073045887 -0.88542861 -0.45899954 0.089855045
0.44563976 0.16088347 0.1040833 0.024971275 -0.92548621 -0.37795755 0.075404957
0.45276079 0.1609854 0.10496579 -0.045346182 -0.8508296 -0.52348125 0.080558524
0.46492875 0.16115957 0.10424548 0.050349869 -0.86478591 -0.49961007 0.095075198
0.47445443 0.16129595 0.10641254 -0.0083041536 -0.8418563 -0.5396378 0.072886333
0.48531926 0.16145146 0.1032759 -0.19935796 -0.8747474 -0.44167116 0.11692224
0.49734539 0.16162363 0.10514521 -0.59955907 -0.61528331 -0.51181567 0.12866816
0.5 0.16021866 0.10330978 -0.66704226 -0.63232583 -0.39397806 0.11379687
0.24949284 -0.1606113 0.11176813 -0.69329023 -0.54867125 0.46723497 0.13863172
0.2557776 -0.16134478 0.11265205 0.41270712 0.66345531 -0.62409925 0.12085252
0.26442069 -0.16166162 0.11112043 0.22039469 0.78227985 -0.58263564 0.10676724
0.27571711 -0.16166162 0.11236282 0.010358119 0.76942945 -0.63864785 0.093833797
0.28494322 -0.16166162 0.1118264 -0.0083372761 0.77165782 -0.63598329 0.10597246
0.2943674 -0.16166162 0.11227772 -0.072495021 0.75727123 -0.6490646 0.10110997
0.30366451 -0.16166162 0.11264489 -0.0080400901 0.74948925 -0.66196769 0.097252958
0.31279543 -0.16100064 0.11440852 -0.053401794 0.64078689 -0.76585931 0.088631697
0.32510221 -0.16132863 0.11237025 0.043414004 0.76775903 -0.63926613 0.10715894
0.33183482 -0.16110893 0.11339518 -0.048911843 0.72792423 -0.68391073 0.09183
0.34571394 -0.16111965 0.11294217 -0.00051546248 0.77936625 -0.62656832 0.11204344
0.35494426 -0.16165626 0.11189004 0.0087111443 0.84488446 -0.5348779 0.081667207
0.36554289 -0.16166162 0.11237469 0.039486174 0.72179294 -0.69098175 0.11020114
0.37771162 -0.16166162 0.11031119 0.029639974 0.86685276 -0.49768236 0.086502969
0.38330209 -0.16137521 0.11361462 -0.072854102 0.73402351 -0.67520511 0.084633201
0.39340696 -0.16155821 0.11285383 -0.052710362 0.78866196 -0.61256331 0.084366269
0.40535808 -0.1613251 0.11294969 -0.059199903 0.74374443 -0.66583759 0.097147323
0.415977 -0.1613785 0.11306708 0.066664062 0.73287034 -0.67709446 0.096228801
0.42149302 -0.16166162 0.11147145 -0.0063980226 0.83638442 -0.54810613 0.082259357
0.43557453 -0.1613984 0.11358086 0.054536968 0.70963651 -0.70245403 0.096252739
0.4437924 -0.16166162 0.1115983 -0.077531405 0.80597144 -0.58685505 0.082452171
0.4554953 -0.1614753 0.1132137 0.063165195 0.76447451 -0.64155197 0.096076861
0.46516001 -0.16166162 0.11132001 -0.00013352306 0.76912403 -0.63909942 0.10105694
0.47645625 -0.16142899 0.11274758 0.017910721 0.75081563 -0.66026896 0.094531283
0.48526317 -0.16120307 0.11250727 -0.2150739 0.65545291 -0.72396457 0.10741945
0.4933126 -0.16166162 0.11126471 -0.41895357 0.63530594 -0.64874059 0.13590321
0.5 -0.16111335 0.11368378 -0.63354701 0.55140215 -0.5427466 0.14799246
0.24949284 -0.15206976 0.11227328 -0.63097781 -0.32151067 0.70604372 0.13479272
0.25399917 -0.15712406 0.11440851 0.53069097 0.32038301 -0.78467947 0.14829116
0.26393619 -0.15644771 0.11440852 0.15349117 0.55029941 -0.82073802 0.12455201
0.27420846 -0.15507844 0.11440852 -0.025453897 0.42699003 -0.903898 0.064393289
0.28425848 -0.15440184 0.11440851 0.014768965 0.53655261 -0.8437376 0.093438394
0.29395613 -0.15435043 0.11440851 -0.017999992 0.51306087 -0.85816348 0.092453554
0.3042655 -0.15487753 0.1144085 0.016234312 0.55728215 -0.83016443 0.094185442
0.31539172 -0.15520149 0.11440851 0.027963994 0.51305747 -0.85789853 0.090487249
0.32790855 -0.15590422 0.11440852 0.0085349279 0.57940388 -0.81499588 0.08361125
0.3332732 -0.15650959 0.11440852 -0.028965576 0.58047986 -0.81375927 0.080788016
0.34376615 -0.15448865 0.11440852 -0.0045784009 0.52613801 -0.85038686 0.079131626
0.35484046 -0.15474406 0.1144085 0.018857107 0.41662762 -0.90888166 0.068954855
0.36640355 -0.15558597 0.11440851 0.02736664 0.4384875 -0.89832056 0.068942972
0.37597701 -0.15492395 0.11440852 0.041565593 0.41994792 -0.90659583 0.072231166
0.38218567 -0.15543909 0.1144085 -0.029129213 0.59953499 -0.79981828 0.079305977
0.39537647 -0.15563142 0.11440852 -0.048299123 0.69257247 -0.7197296 0.090366788
0.4049615 -0.15534776 0.11440851 -0.073794387 0.534661 -0.84183848 0.081446655
0.41659173 -0.15253121 0.11440852 0.035300169 0.36706451 -0.92952549 0.074607953
0.42422876 -0.15629756 0.11440852 -0.0003943792 0.54845381 -0.83618075 0.075766914
0.43573475 -0.15607412 0.11440851 0.034109369 0.59645706 -0.80191988 0.089316733
0.44562441 -0.15313946 0.11440852 -0.056957938 0.42624199 -0.90281427 0.078510188
0.45695752 -0.15477988 0.11440852 0.020245144 0.57963496 -0.81462467 0.083438158
0.46495044 -0.15443991 0.11440851 0.028946636 0.42735165 -0.90362197 0.087611273
0.47361815 -0.15584323 0.11440851 0.0032566101 0.44283187 -0.8965987 0.061474074
0.48530209 -0.15444835 0.11440851 -0.21643098 0.43672076 -0.87317389 0.11851098
0.49512514 -0.15603565 0.11440852 -0.40919739 0.42494971 -0.80744988 0.15771534
0.5 -0.15484209 0.11306865 -0.69733834 0.39285311 -0.59948784 0.13727631
0.24949284 -0.14584748 0.11267081 -0.74252993 -0.14977531 0.65285271 0.122725
0.25382033 -0.14519705 0.11440852 -0.61578155 -0.1638519 0.77069175 0.12216555
0.26541871 -0.14604627 0.1144085 0.25089478 0.18450694 -0.95026791 0.07631512
0.27544537 -0.14435001 0.11440852 0.014129336 0.23578259 -0.97170311 0.053777169
0.28390071 -0.14480039 0.11440851 -0.011951476 0.26995227 -0.96279961 0.056694523
0.29588327 -0.14523473 0.11440852 0.0016826274 0.24852747 -0.9686234 0.052969933
0.30584821 -0.14606486 0.11440852 0.031923886 0.26642781 -0.96332604 0.051533211
0.31250688 -0.14385925 0.11440851 0.0021368265 0.23545058 -0.97188401 0.051354524
0.32472277 -0.14483477 0.11440852 -0.017266516 0.23411153 -0.97205645 0.052382454
0.33450326 -0.14501427 0.11440852 -0.019775582 0.243911 -0.96959597 0.055370562
0.3449344 -0.14722803 0.11440851 0.022850461 0.27450508 -0.96131414 0.0589041
0.35513321 -0.14609216 0.11440851 -0.012916767 0.26319972 -0.96465486 0.05505402
0.36484787 -0.14563693 0.11440851 -0.0030421927 0.26861891 -0.96324182 0.054952722
0.373018 -0.1466437 0.11440851 0.012383124 0.27316782 -0.9618867 0.052930899
0.38681898 -0.14546001 0.11440852 -0.0068867183 0.27284566 -0.96203321 0.054549608
0.39572072 -0.14726666 0.11440852 0.026856838 0.2586914 -0.9655866 0.049183719
0.40585485 -0.14487976 0.11440852 -0.019066423 0.27377471 -0.96160483 0.053239673
0.41698474 -0.14502184 0.11440852 0.025348868 0.27385485 -0.96143693 0.061269537
0.42471704 -0.14344621 0.11440851 -0.0044488208 0.23400028 -0.97222632 0.052766908
0.4325642 -0.14509562 0.11440852 -0.020068435 0.26425597 -0.96424371 0.051051714
0.44804248 -0.14494604 0.11440852 0.027980033 0.28525019 -0.95804465 0.054149672
0.45381129 -0.14435147 0.11440851 -0.009100657 0.24527328 -0.96941131 0.048408873
0.46551836 -0.14481907 0.11440851 0.0082511865 0.25597674 -0.96664774 0.055095214
0.47558203 -0.14446358 0.11440852 -0.041059371 0.23733144 -0.97056061 0.052160256
0.48536175 -0.14467362 0.1144085 -0.23202075 0.21947765 -0.94762641 0.082214296
0.49644712 -0.1440866 0.11440852 -0.54137003 0.15963911 -0.82549 0.093418501
0.5 -0.14414734 0.11177365 -0.72573304 0.15043469 -0.67132777 0.10422612
0.24949285 -0.13863046 0.11348001 -0.72151577 -0.035999075 0.6914615 0.091382585
0.2528711 -0.13436335 0.11440852 -0.54576796 -0.012375599 0.83784491 0.068394445
0.2639645 -0.13463631 0.11440851 0.23594612 0.0067091458 -0.97174293 0.050702713
0.27289757 -0.13497134 0.11440852 0.080139503 0.04050776 -0.99596018 0.013913095
0.28493395 -0.13566701 0.11440852 0.00098315626 0.08966545 -0.99597144 0.012494445
0.29434663 -0.13414752 0.11440851 0.0039960546 0.055564184 -0.99844712 0.008537964
0.3048104 -0.13503394 0.11440852 -0.0063790227 0.045431815 -0.99894708 0.0058937655
0.31535441 -0.13497783 0.11440851 0.0081288368 0.056383472 -0.99837607 0.0094617978
0.32526875 -0.13458195 0.11440852 -0.0065756869 0.031501021 -0.9994821 0.0043443488
0.33679789 -0.13531134 0.11440852 0.00014930395 0.074866183 -0.99719357 0.010789556
0.34666258 -0.13508791 0.11440851 -0.007490017 0.055917691 -0.9984073 0.0069518788
0.35368204 -0.13516912 0.11440852 0.0044909283 0.056400131 -0.99839813 0.0063874582
0.36723456 -0.13217829 0.11440851 0.0010440086 0.0080334973 -0.99996722 0.00025951254
0.37370169 -0.13416307 0.11440851 -0.0050664176 0.040457211 -0.9991684 0.0040275217
0.38604015 -0.13972346 0.11440851 0.016340258 0.12491777 -0.99203253 0.02633667
0.39541808 -0.13581069 0.11440852 0.0049425722 0.053643025 -0.99854791 0.0072031925
0.40681255 -0.13485597 0.11440851 -0.0016250408 0.068904407 -0.99762195 0.010724173
0.41427949 -0.13696642 0.11440852 -0.013003831 0.090336807 -0.99582636 0.013360493
0.42545778 -0.13633752 0.11440851 0.0096690152 0.083960868 -0.99642217 0.011413096
0.43329549 -0.13361029 0.11440851 -0.0068705492 0.032708202 -0.99944139 0.0043873242
0.4462994 -0.13571769 0.11440851 0.0092773642 0.082779102 -0.99652481 0.010430256
0.45623925 -0.13548391 0.11440852 0.010643742 0.07377477 -0.99721813 0.0090214033
0.46497908 -0.13645114 0.11440852 0.005883941 0.099446081 -0.99502558 0.01363204
0.47439909 -0.13547958 0.11440851 -0.06835293 0.074348621 -0.99488705 0.016122602
0.48358828 -0.134772 0.1144085 -0.22996831 0.038690843 -0.97242868 0.045026127
0.49375758 -0.13526267 0.11440852 -0.36122063 -0.0057361303 -0.93246275 0.062485836
0.5 -0.13722941 0.11260934 -0.79490608 0.0070434217 -0.60669154 0.085552625
0.24951169 -0.12248673 0.11232487 -0.7505694 -0.0040069139 0.66077948 0.091190152
0.25391516 -0.12582822 0.11440851 -0.62282073 0.021580335 0.78206688 0.099265568
0.265957 -0.1243531 0.1144085 0.2437951 0.0015957804 -0.96982539 0.054721825
0.27501339 -0.12422617 0.11440851 0.091020957 0.0049363109 -0.99583673 0.013176221
0.28645572 -0.12414708 0.11440852 -0 -0 -1 2.5319221e-06
0.29517457 -0.1243781 0.11440851 4.0480435e-07 -7.0474434e-06 -1 1.9911886e-06
0.30559742 -0.12465777 0.11440851 1.5296382e-05 -7.9158826e-06 -1 2.0770115e-06
0.31665877 -0.12791482 0.11440851 1.8957508e-06 -1.2767822e-05 -1 2.1970468e-06
0.32625568 -0.1247491 0.11440852 1.6004687e-05 1.138932e-05 -1 2.2036666e-06
0.33348531 -0.12489405 0.11440851 1.6540354e-05 -1.6471477e-05 -1 2.3713187e-06
0.34420979 -0.12329597 0.11440852 5.8296468e-08 -9.4436291e-06 -1 4.4652434e-06
0.3551355 -0.12551501 0.1144085 5.0852501e-05 4.4172762e-07 -1 0
0.3655751 -0.12423939 0.11440851 6.5156564e-05 -2.3978484e-06 -1 2.1941471e-06
0.37537512 -0.12543771 0.11440852 6.0201219e-05 -1.0511161e-05 -1 0
0.38417637 -0.12536782 0.1144085 -3.2730706e-05 -6.4580479e-07 -1 0
0.39487621 -0.12478993 0.1144085 1.5912274e-05 1.1065485e-05 -1 2.2138893e-06
0.40637589 -0.12539826 0.11440852 3.2587523e-05 1.9267889e-06 -1 2.0833402e-06
0.41592863 -0.12619562 0.1144085 5.5630888e-05 -1.2962508e-05 -1 0
0.42523888 -0.1239419 0.11440851 1.996639e-05 -2.3842433e-06 -1 0
0.43430445 -0.1241378 0.11440851 -4.6302568e-05 -9.6215799e-06 -1 2.1274996e-06
0.44333458 -0.12460917 0.11440852 3.4101904e-05 3.1634061e-06 -1 0
0.45274284 -0.12421135 0.11440851 3.0859941e-05 -2.2790465e-07 -1 2.0997538e-06
0.46577448 -0.12454041 0.11440851 1.5833873e-05 -8.1655135e-06 -1 0
0.47394481 -0.12600099 0.11440852 -0.066265874 0.0029124604 -0.99779773 0.0075029512
0.48597252 -0.12518542 0.11440852 -0.26131052 0.012741744 -0.9651708 0.048848093
0.49154377 -0.12453529 0.11440851 -0.42332044 0.055322528 -0.90428936 0.08638116
