# .PCD v0.7 - Point Cloud Data file format
VERSION 0.7
FIELDS x y z normal_x normal_y normal_z curvature
SIZE 4 4 4 4 4 4 4
TYPE F F F F F F F
COUNT 1 1 1 1 1 1 1
WIDTH 564
HEIGHT 1
VIEWPOINT 0 0 0 1 0 0 0
POINTS 564
DATA ascii
-0.025472399 0.0052439924 -0.35531852 0.97325552 -0.22967704 0.0047031324 0.056871198
0.022717981 0.0043018474 -0.35386178 -0.98835158 -0.15204394 0.0066149649 0.049452014
-0.022507107 0.012636047 -0.35490233 0.89365625 -0.44872814 0.0046404358 0.042956561
-0.017035531 0.018663919 -0.35548773 0.56748956 -0.82261747 -0.035441339 0.058824979
0.016883263 0.015872594 -0.35457897 -0.77009869 -0.63668102 0.039816543 0.060991328
0.020497398 0.011085543 -0.35402384 -0.93398762 -0.35671064 0.020608366 0.053368017
-0.012469753 0.021608355 -0.35614404 0.40425551 -0.91357052 -0.044342097 0.053317286
-0.0045295642 0.023944844 -0.35470644 0.097922638 -0.99433684 -0.041298114 0.051609892
0.006047057 0.022819677 -0.35557103 -0.29146573 -0.95657378 -0.0037878109 0.038725208
0.011249105 0.020801522 -0.35505417 -0.45471358 -0.89042848 0.019306559 0.050429706
-0.013887113 -0.022077836 -0.34538803 0.42512652 0.90489358 -0.0208575 0.042156946
-0.0054120775 -0.025004333 -0.34421834 0.10870042 0.99404544 0.0076017943 0.046767477
0.0051713251 -0.02438397 -0.34397534 -0.25020564 0.96727824 0.042070381 0.050476164
0.01171194 -0.021683324 -0.34602055 -0.55191553 0.83346504 -0.026931124 0.051438279
-0.02220148 -0.014082354 -0.34596249 0.8781352 0.47827864 -0.011316205 0.057655599
-0.018304743 -0.018952074 -0.3442857 0.70447743 0.70898527 0.032425065 0.048316352
0.017157655 -0.016858745 -0.34522402 -0.81029499 0.58590412 -0.011769418 0.059959713
0.02047581 -0.012345883 -0.34385273 -0.9276287 0.37347493 -0.0046353349 0.051208183
-0.025837921 -0.004755361 -0.34503141 0.99202073 0.12547337 0.012296841 0.048459746
0.02282458 -0.0051786732 -0.34464639 -0.98225319 0.186933 0.015319827 0.046966933
-0.025298573 0.0057458952 -0.34462628 0.96370959 -0.26695195 0.00058508042 0.052298225
0.02244268 0.0054385718 -0.34495929 -0.97836429 -0.20655847 0.011701162 0.045031369
-0.022121595 0.013009419 -0.34390873 0.86003125 -0.50905865 0.034723129 0.050728858
-0.017719258 0.018125111 -0.34584296 0.62139469 -0.78251565 -0.03921546 0.050472163
0.016850581 0.015819574 -0.34486735 -0.80414885 -0.59270769 0.045192357 0.05100153
0.02047503 0.011121569 -0.34628099 -0.90371436 -0.42812794 -0.0026172088 0.058694836
-0.013245572 0.021227781 -0.34474143 0.46061182 -0.88757747 0.0065518748 0.046483539
-0.0058819167 0.023701992 -0.34438685 0.17523439 -0.984065 0.030149352 0.053592261
0.0055936482 0.023043066 -0.34484079 -0.25005698 -0.96798003 0.022049114 0.048216835
0.010837517 0.021065477 -0.34447742 -0.43922165 -0.89834976 0.0072102658 0.050407503
-0.01355642 -0.022215553 -0.33454457 0.42270473 0.9062674 -0.00030088704 0.040547889
-0.0054062386 -0.025004281 -0.33547541 0.12815575 0.99135965 -0.02796586 0.047938541
0.0050452366 -0.024453111 -0.33553058 -0.28844634 0.95709801 -0.027605517 0.044129796
0.011972145 -0.021494485 -0.33513105 -0.50797868 0.86128944 -0.011755667 0.048203699
-0.02322885 -0.012450942 -0.33438709 0.90989733 0.41271961 -0.041826852 0.042510647
-0.018033186 -0.019097945 -0.33475813 0.70348847 0.71049225 0.017453341 0.051955428
0.016931862 -0.017153807 -0.33544412 -0.79005861 0.61267203 0.020984182 0.048808329
0.020610556 -0.012044099 -0.3336665 -0.88607723 0.46183759 0.039665531 0.053445466
-0.025967386 -0.0042612227 -0.33476043 0.9899807 0.13913009 0.024106706 0.048753072
0.022736872 -0.0056171874 -0.33517432 -0.98145545 0.18941727 0.029433591 0.045181539
-0.025357753 0.0056953458 -0.33495602 0.96278656 -0.26776919 0.036630008 0.048669048
0.02255098 0.0052785124 -0.3351565 -0.97742319 -0.21113431 -0.0081392406 0.047531445
-0.022229565 0.012917896 -0.3350386 0.8604477 -0.50953627 -0.0015393614 0.051279858
-0.017652435 0.018143492 -0.33543029 0.63063073 -0.77511275 -0.0387966 0.051772557
0.016706247 0.015963253 -0.33560058 -0.81368279 -0.58130252 -0.002759764 0.056837562
0.020531319 0.010995808 -0.33668441 -0.92251098 -0.38518158 -0.024671869 0.046937358
-0.013044317 0.021302834 -0.33475357 0.43859479 -0.89868021 -0.0029292435 0.047549549
-0.0055738203 0.023738654 -0.33575702 0.17692931 -0.98400688 -0.020650916 0.052835315
0.0049570743 0.023194784 -0.335962 -0.2326341 -0.97234982 -0.020424215 0.045315322
0.010784604 0.021076839 -0.33624268 -0.46070546 -0.88668597 -0.039222967 0.047436722
-0.012954812 -0.022585833 -0.32462963 0.39550886 0.9184612 -0.001371387 0.041669499
-0.0038145117 -0.025235225 -0.32482991 0.027499419 0.99940199 0.020962058 0.058040865
0.0054301936 -0.024378994 -0.32515484 -0.239594 0.97050494 -0.026737133 0.05013068
0.011606305 -0.021739872 -0.32568637 -0.5089398 0.85998982 -0.037387889 0.046542637
-0.022209859 -0.014115977 -0.32603881 0.87337458 0.48682469 -0.014786556 0.057410002
-0.018508408 -0.018729817 -0.32415861 0.68853271 0.72355705 0.048866581 0.044557594
0.016653445 -0.017477239 -0.32551974 -0.75776321 0.65225196 -0.019034572 0.049494423
0.020883001 -0.011374311 -0.32464802 -0.93120062 0.36449111 0.0034247898 0.04983031
-0.025743853 -0.0050042402 -0.32496348 0.98198324 0.18881372 0.0076428084 0.043407906
0.022560688 -0.0063583194 -0.32444882 -0.98266405 0.18311116 0.029011033 0.045056667
-0.025357259 0.005394632 -0.3256084 0.96114534 -0.27480918 -0.026068404 0.050896786
0.022403603 0.0055326661 -0.32432872 -0.98153841 -0.19110848 -0.0077303378 0.05182752
-0.021826772 0.013433109 -0.32467097 0.86584926 -0.50019985 0.010259091 0.050768398
-0.017322188 0.018449098 -0.32451475 0.58775204 -0.80904037 0.0010788714 0.062923364
0.01653886 0.016198773 -0.3240405 -0.77143139 -0.63629282 0.0049952306 0.061764684
0.020486444 0.011086708 -0.32555199 -0.92511928 -0.37617198 -0.051467109 0.046235304
-0.012006476 0.02179401 -0.32537404 0.34958035 -0.93688643 0.0061105746 0.045717619
-0.0046974155 0.023906305 -0.32504961 0.15239865 -0.98829776 -0.0064947256 0.048689056
0.0044292249 0.023276217 -0.32476556 -0.21372662 -0.9768821 0.0047313529 0.051532798
0.011274966 0.020744452 -0.32641551 -0.4618074 -0.88593173 -0.043116555 0.046000384
-0.013448304 -0.022205066 -0.31495324 0.45862153 0.88861656 0.0051774858 0.048580106
-0.004929231 -0.025043743 -0.31555268 0.12326939 0.99196476 -0.028470309 0.046850402
0.0056864913 -0.024189536 -0.31595936 -0.28198117 0.95889425 -0.031754337 0.044799581
0.012406026 -0.021200089 -0.31562248 -0.55491912 0.83190107 -0.00231901 0.056357417
-0.022567263 -0.013605613 -0.31417179 0.89615226 0.44179004 0.041625034 0.042478964
-0.01857256 -0.018690584 -0.3147808 0.68544841 0.72759438 0.027693063 0.042563669
0.017216196 -0.016739301 -0.31520867 -0.8367669 0.54644918 -0.034850344 0.056635901
0.020782795 -0.011628285 -0.31542438 -0.9208467 0.38936698 -0.020849934 0.062812485
-0.025787063 -0.0051113521 -0.31507477 0.99036539 0.13831505 0.0067328019 0.049705293
0.022676932 -0.0056772358 -0.3144671 -0.97960436 0.20089343 0.0041349446 0.048908129
-0.0259741 0.0028191139 -0.31464919 0.99380445 -0.11105392 -0.0044576572 0.053121697
0.022462957 0.0053214068 -0.31502214 -0.97295684 -0.23097421 0.0024391792 0.045166962
-0.02189528 0.013349547 -0.31438413 0.83810163 -0.54529905 0.015319433 0.058688104
-0.018480925 0.01744855 -0.31540576 0.63274306 -0.7741828 -0.016649224 0.056018375
0.016127052 0.016754907 -0.31514341 -0.71748668 -0.69657207 0.00033477778 0.05926773
0.020643629 0.010732514 -0.31363553 -0.92332751 -0.38307664 0.026807653 0.046619188
-0.012585263 0.02153177 -0.3150638 0.41685465 -0.90860444 -0.025888052 0.057070538
-0.0047273017 0.023861356 -0.31457886 0.14414154 -0.98784572 -0.058171779 0.058366343
0.0054662311 0.023058182 -0.31452152 -0.24606572 -0.96924752 -0.0032982777 0.047574628
0.011086064 0.020917719 -0.3159982 -0.41734087 -0.90804434 -0.03580571 0.051276181
-0.01407288 -0.021880083 -0.30597365 0.49565539 0.8681519 -0.025258478 0.057466723
-0.0057764975 -0.024934515 -0.30429149 0.15890482 0.98728448 0.0043188664 0.052997835
0.0049436348 -0.024462609 -0.30536425 -0.23628457 0.97161716 0.01138733 0.052909274
0.011648766 -0.021732317 -0.30474868 -0.50760812 0.86143905 0.01602513 0.050108742
-0.022712711 -0.01331259 -0.30370888 0.8817625 0.47165906 0.0057163117 0.058573049
-0.019038077 -0.018277813 -0.3037498 0.67942077 0.73303139 0.03244045 0.046136394
0.017128849 -0.016828874 -0.3046082 -0.81550765 0.57830501 0.022593662 0.048437927
0.02064555 -0.011942324 -0.30641952 -0.91475296 0.4031595 -0.026256068 0.046092976
-0.025765553 -0.0051687881 -0.30506948 0.9896732 0.14158498 -0.022374775 0.048002042
0.022808956 -0.0050628586 -0.30558935 -0.985425 0.16798842 -0.02678456 0.044128139
-0.025567846 0.004847371 -0.30502725 0.97074473 -0.24010646 0.0018756089 0.054012947
0.0222672 0.0060183345 -0.30516657 -0.9755224 -0.21868972 0.023040932 0.045248382
-0.022349149 0.012658076 -0.30594954 0.86149269 -0.50667518 -0.033326093 0.049195547
-0.017974144 0.017908128 -0.30529928 0.62708229 -0.7789306 0.0059084361 0.060987558
0.016849624 0.015855791 -0.30545568 -0.82624519 -0.56239003 0.032191854 0.056738585
0.020607829 0.010798766 -0.30553967 -0.89987594 -0.43159804 0.062819906 0.057543352
-0.013151649 0.021259669 -0.30457529 0.4661997 -0.88434023 0.024500009 0.049557824
-0.0062485505 0.023658158 -0.30460048 0.15592845 -0.98772353 0.0094089732 0.049896941
0.0050246576 0.023182053 -0.30451807 -0.24407449 -0.9694829 0.023036052 0.04850129
0.011307116 0.020754188 -0.30488071 -0.45263383 -0.89162499 0.011293674 0.049577866
-0.013683028 -0.022148574 -0.29589501 0.44141689 0.89730084 0.0015175603 0.051062852
-0.0048398431 -0.025052501 -0.2950117 0.11653638 0.99318457 0.0019480732 0.046413366
0.0057286439 -0.0241648 -0.2946777 -0.23990588 0.97038525 0.028243385 0.052046064
0.01209001 -0.021404043 -0.29303274 -0.54686934 0.83650053 0.034651618 0.051100548
-0.022395641 -0.013806652 -0.29529041 0.87081492 0.49097261 -0.025047224 0.05694456
-0.019192217 -0.018118896 -0.29523596 0.70886892 0.70532072 -0.0052493988 0.051499471
0.016829349 -0.017189108 -0.29433382 -0.7779631 0.62818569 0.012496732 0.052151766
0.020709909 -0.011802384 -0.29506856 -0.93989909 0.34131563 -0.0096643241 0.052081887
-0.025802286 -0.0047397949 -0.29515579 0.9765473 0.21464263 -0.016850131 0.048953917
0.022777382 -0.0055308989 -0.29473633 -0.98257458 0.18533593 -0.014060451 0.046006907
-0.025586091 0.0046639973 -0.29534757 0.97273725 -0.23170006 -0.0098656639 0.056394588
0.022530403 0.0048015686 -0.29586783 -0.97750098 -0.21078265 -0.0079079932 0.044540986
-0.021820113 0.013562178 -0.2943899 0.86562598 -0.50068671 0.0020942464 0.051299978
-0.018194957 0.017774103 -0.29535633 0.63007993 -0.77612871 -0.024969853 0.055285241
0.016024718 0.016713608 -0.29477313 -0.70223367 -0.7115621 0.023390932 0.055358667
0.020510428 0.011032823 -0.29396027 -0.92111409 -0.38867351 0.021947209 0.048365846
-0.011836514 0.021906169 -0.29351133 0.34462389 -0.93855315 0.018769978 0.042437661
-0.0055168541 0.02376725 -0.29497936 0.16574202 -0.98608488 0.012895606 0.053690318
0.0067992355 0.022675773 -0.29552072 -0.29056513 -0.95685273 -0.0021908609 0.039229617
0.011178453 0.020857215 -0.2950317 -0.45186874 -0.89207608 0.0038617975 0.049598455
-0.013052675 -0.022514021 -0.28591946 0.38648778 0.92223907 -0.01011626 0.039818767
-0.0054624248 -0.024986088 -0.28474063 0.11543547 0.99299437 0.025236027 0.046420012
0.0056255474 -0.024279289 -0.28489491 -0.28288722 0.958812 0.025581719 0.045294788
0.01243641 -0.021157959 -0.28463823 -0.55145562 0.83415496 0.0090643568 0.056950156
-0.02247124 -0.013670117 -0.28556827 0.90195662 0.43050209 -0.033798821 0.04155026
-0.018662237 -0.018609384 -0.28483459 0.69015563 0.72364902 -0.0041723773 0.049627926
0.017837983 -0.016007749 -0.28494456 -0.83771151 0.54558265 0.024061905 0.056196898
0.02061802 -0.012018475 -0.28497973 -0.91434437 0.40489081 0.0061519183 0.049343783
-0.025647793 -0.0053447783 -0.28584224 0.9894858 0.13556765 -0.050390363 0.044380262
0.022710126 -0.0056507746 -0.28417554 -0.98327345 0.18118218 0.018608643 0.045980826
-0.025446046 0.0052104187 -0.28368285 0.96210015 -0.27048752 0.034639608 0.047337573
0.022510532 0.0048053954 -0.28515303 -0.98857111 -0.14740993 -0.031582125 0.05170951
-0.022406274 0.01272398 -0.2847558 0.8704471 -0.49211437 0.012053232 0.049038298
-0.017092183 0.018637415 -0.28402671 0.60759413 -0.793993 0.02010785 0.053317964
0.017178992 0.015503446 -0.28523892 -0.82783169 -0.55968904 -0.037984993 0.052711122
0.020472175 0.011146439 -0.28409424 -0.91850781 -0.39540279 0.00018314093 0.047396217
-0.012735509 0.02149752 -0.28435233 0.43817025 -0.89887273 0.0058976398 0.050468232
-0.0055453689 0.023782317 -0.28429079 0.185352 -0.98217452 0.031271663 0.054376412
0.0046552573 0.023234904 -0.28425279 -0.18459767 -0.98188716 0.042678129 0.053852316
0.011172569 0.02082284 -0.28350237 -0.50413489 -0.86325657 0.025218198 0.05340308
-0.01366954 -0.022187686 -0.27483812 0.46052471 0.88758236 0.010706138 0.051978011
-0.0048347837 -0.025053402 -0.27505824 0.11495985 0.99334908 0.006461327 0.046491507
0.0052524176 -0.02434781 -0.27468455 -0.25366455 0.96712822 0.017816138 0.051520254
0.011644347 -0.021733802 -0.27669442 -0.55285656 0.83263093 -0.032792132 0.052120589
-0.021900995 -0.014616235 -0.27548471 0.87308246 0.4860968 -0.037908606 0.054160085
-0.018322503 -0.018929858 -0.27363279 0.66346383 0.74782085 0.024076739 0.047838926
0.01712838 -0.016855735 -0.27502939 -0.83212596 0.55456346 -0.0050850403 0.058432244
0.020762512 -0.011673361 -0.27594835 -0.92981452 0.3679665 0.0067504761 0.053212851
-0.025918365 -0.004366253 -0.27482197 0.99334466 0.11201328 0.02682085 0.052059785
0.022783751 -0.0050713415 -0.27487877 -0.99243784 0.12155815 0.017052256 0.055254005
-0.025577387 0.0046773874 -0.27598789 0.97489035 -0.22163211 -0.021636499 0.059603631
0.02243788 0.0052937064 -0.27523619 -0.9815501 -0.19105634 0.0075358064 0.0511305
-0.021861322 0.013393397 -0.27476972 0.84293371 -0.53566349 0.050272521 0.059567902
-0.018081749 0.017816542 -0.27400193 0.63323569 -0.77315307 0.035312418 0.052427255
0.016209176 0.016578889 -0.27649492 -0.71330696 -0.70077163 -0.010600223 0.056872606
0.020429131 0.011250355 -0.27323881 -0.89777958 -0.43906972 0.034779407 0.055609073
-0.012644898 0.0215437 -0.27508384 0.41172758 -0.91128325 0.0065814168 0.055624545
-0.0055425302 0.023756966 -0.27489781 0.18259537 -0.98307657 0.014807964 0.052240886
0.0042142686 0.023397671 -0.27565894 -0.24198931 -0.96920538 -0.045628622 0.046922322
0.011452499 0.020667085 -0.27442628 -0.49409258 -0.86940861 0.0010563554 0.059936687
-0.013991161 -0.021966014 -0.26594049 0.46833387 0.88336533 -0.018138308 0.05363971
-0.0047570183 -0.025074141 -0.26540983 0.11190667 0.99371862 -0.00030965105 0.047368016
0.0061668218 -0.024061622 -0.26547816 -0.29411125 0.95486784 -0.041546334 0.044042442
0.012017448 -0.021464221 -0.26544654 -0.50423807 0.86283648 -0.035455003 0.046433337
-0.022766398 -0.01319775 -0.2647453 0.90034747 0.4351708 0.00091421918 0.0445989
-0.018497659 -0.018737163 -0.26385388 0.6946612 0.71905577 0.020117024 0.049938288
0.01652333 -0.017544935 -0.26427418 -0.76802123 0.64007187 -0.021245433 0.047257289
0.020782178 -0.011624709 -0.26510942 -0.92762804 0.37342817 -0.0075879628 0.052030236
-0.025909176 -0.0041774861 -0.26472178 0.99131238 0.12933613 -0.023914918 0.051323667
0.022838298 -0.0048932717 -0.26535127 -0.98771286 0.15496169 0.020250715 0.050997041
-0.025655404 0.0044975667 -0.2651501 0.97462296 -0.22384869 0.0013129469 0.057994273
0.022526432 0.0048017404 -0.2651253 -0.98488241 -0.17314863 -0.0051129372 0.04868244
-0.022069532 0.013191083 -0.2648102 0.86814934 -0.4963024 -0.00073521381 0.052392043
-0.018052606 0.017815128 -0.2636897 0.60967958 -0.79209876 0.029501572 0.049934376
0.016646303 0.016091883 -0.26499462 -0.80470884 -0.59319341 -0.023776302 0.048041757
0.020603279 0.010829927 -0.26560342 -0.93056625 -0.36574364 -0.016675694 0.053669028
-0.012922217 0.021375032 -0.26472625 0.46514937 -0.88522506 0.0035667631 0.046844099
-0.0053881812 0.02374712 -0.26523778 0.14411055 -0.98926491 -0.024229487 0.059920214
0.0045817783 0.023379356 -0.26429898 -0.23970571 -0.97015923 0.03649912 0.047596667
0.011209426 0.020834338 -0.26672944 -0.47812855 -0.87806028 -0.02007922 0.054728217
-0.013983604 -0.021908894 -0.25343069 0.45620346 0.88925159 0.033317294 0.051339798
-0.0049536326 -0.025052926 -0.25475055 0.10695387 0.9942627 -0.0015963127 0.046375312
0.0044575604 -0.024463883 -0.25494987 -0.23602444 0.97168964 0.01057482 0.049577978
0.01195869 -0.021487277 -0.25541079 -0.54857826 0.83596712 0.01486117 0.054164674
-0.022006623 -0.01442777 -0.25488377 0.87582344 0.48096815 0.040037751 0.052034996
-0.018531146 -0.018675486 -0.25579724 0.69530565 0.71868044 0.0069678482 0.048702959
0.018293222 -0.015521143 -0.25510493 -0.83940524 0.54350036 -0.0025050449 0.052476104
0.021060595 -0.010957611 -0.2565296 -0.93168604 0.36293378 -0.015495345 0.051420469
-0.025719782 -0.0051315259 -0.25469574 0.99039537 0.13670522 0.020704634 0.048566103
0.022859529 -0.0050210608 -0.25463596 -0.98763168 0.15638442 -0.011294121 0.050311223
-0.025529625 0.004986688 -0.25562176 0.98029101 -0.19711789 -0.013191922 0.052982349
0.02252271 0.0049560149 -0.25502822 -0.97565722 -0.21898188 -0.011823842 0.045408655
-0.022472259 0.012629723 -0.25518698 0.89153165 -0.45120752 -0.039789319 0.037322506
-0.017691016 0.018156763 -0.2559801 0.61195016 -0.79048884 -0.025385149 0.049548358
0.017023878 0.015733493 -0.25502566 -0.82507789 -0.56445295 -0.025287135 0.049940545
0.020497233 0.011077803 -0.25567436 -0.89177525 -0.44734001 -0.06799835 0.05612557
-0.012753918 0.021467352 -0.25417402 0.45117643 -0.89237958 0.0099272849 0.050849866
-0.005826469 0.023707958 -0.25484174 0.18496123 -0.98272175 0.0068892967 0.053724006
0.0058547291 0.022960538 -0.25440386 -0.29172775 -0.95650113 0.00062725844 0.038183954
0.010978739 0.02095071 -0.25523734 -0.46382195 -0.88592482 0.0025178648 0.045678034
-0.013453566 -0.022240369 -0.24547432 0.44914684 0.89334685 0.014094181 0.049401216
-0.0051921695 -0.025012612 -0.24524871 0.097902268 0.99506044 0.016426867 0.047180131
0.0047939164 -0.024431761 -0.24475683 -0.25329423 0.9671914 -0.019567439 0.051894829
0.011721792 -0.021676281 -0.24418987 -0.50786734 0.8611607 0.021748051 0.048456214
-0.022165956 -0.014131681 -0.24520841 0.88079953 0.47321498 0.016120799 0.051377535
-0.018284164 -0.018939413 -0.24530183 0.70237118 0.71180463 -0.0029716557 0.048998393
0.017286114 -0.016711934 -0.24522765 -0.83836633 0.54464042 -0.022552291 0.055291019
0.020924976 -0.011278661 -0.24543174 -0.93657845 0.3504532 0.0018058511 0.057856169
-0.025822096 -0.0045688245 -0.24516083 0.98978943 0.14011346 -0.026174773 0.048055798
0.022664096 -0.0057013626 -0.24570094 -0.98003536 0.19864056 0.0085228942 0.047407918
-0.025445923 0.0050059222 -0.24526604 0.97397065 -0.22667275 -0.00071600016 0.059038207
0.022563851 0.0049777855 -0.24565272 -0.97606277 -0.21586882 -0.026498668 0.045444354
-0.021965325 0.013255325 -0.24544303 0.86958474 -0.49287161 -0.029996991 0.050489374
-0.017576927 0.018262206 -0.24340019 0.59284151 -0.80524725 -0.010759389 0.060503647
0.016362675 0.016441826 -0.24456914 -0.74355221 -0.66864592 0.0065360852 0.062501594
0.020573026 0.010880349 -0.24512818 -0.9285019 -0.37119761 -0.0098314844 0.049990665
-0.012912578 0.021375827 -0.24593729 0.41085953 -0.91081953 -0.040027469 0.051440191
-0.0043436144 0.023929654 -0.24499026 0.044236094 -0.99882334 -0.01987901 0.052192807
0.004181637 0.023426417 -0.24468327 -0.20412904 -0.97859842 0.026008448 0.050800789
0.011621211 0.020542614 -0.24593224 -0.50179821 -0.86496609 -0.0056863087 0.059094254
-0.013896134 -0.022026941 -0.23512666 0.47134367 0.88182569 -0.014789886 0.052832622
-0.0055914698 -0.024990438 -0.23584595 0.11410999 0.99313456 -0.02574143 0.047980543
0.0055789417 -0.024213979 -0.23368259 -0.26767191 0.96306419 0.029311476 0.044352889
0.011478927 -0.021852354 -0.23339851 -0.55381221 0.83195007 0.033927627 0.050414219
-0.022562245 -0.013475816 -0.23429552 0.90462565 0.42419779 0.041335244 0.038962793
-0.018780494 -0.018440804 -0.23359625 0.70288056 0.71054751 0.032881204 0.047458407
0.017253555 -0.016725084 -0.23549421 -0.81023735 0.58603662 0.0087406524 0.055661246
0.020789945 -0.011611016 -0.23691818 -0.92608023 0.37652907 -0.024519732 0.051321264
-0.0257452 -0.0052510765 -0.23465918 0.97686708 0.2137906 0.0049235742 0.046904549
0.022783929 -0.0053343847 -0.23477669 -0.98128855 0.19126886 0.022115715 0.049290683
-0.025436703 0.005247138 -0.2340336 0.97974008 -0.19980472 0.013690713 0.052281991
0.022438634 0.0054477192 -0.23554949 -0.97449654 -0.22423021 -0.0087916385 0.046321582
-0.021747308 0.013592058 -0.23509067 0.84220606 -0.53892881 -0.015647173 0.058280546
-0.018305596 0.017635927 -0.23465201 0.62570602 -0.78004742 0.0042396872 0.052204486
0.016561108 0.016145885 -0.23505045 -0.79548544 -0.60595208 -0.0049908441 0.0630209
0.020529857 0.011007183 -0.2350567 -0.91246426 -0.4089717 0.012297211 0.062037036
-0.012370681 0.021655159 -0.23486602 0.34899735 -0.93688881 -0.020977398 0.04174488
-0.0056788819 0.023741366 -0.23411755 0.18163215 -0.98302335 0.025978072 0.052256402
0.004951871 0.023167828 -0.23487973 -0.24944454 -0.96838742 -0.001821397 0.046307672
0.010790981 0.021071071 -0.23451138 -0.41941285 -0.90713871 0.034527201 0.056084499
-0.013053703 -0.022602139 -0.22518049 0.42727616 0.90370101 -0.0275591 0.041990533
-0.0056578638 -0.024939325 -0.22494203 0.15995964 0.98678291 -0.025930246 0.054505393
0.0053082672 -0.024368385 -0.22467652 -0.25495002 0.96636993 0.033609636 0.053757995
0.01159946 -0.021766499 -0.22616239 -0.51365548 0.85759634 -0.026200032 0.04539245
-0.022525759 -0.013549972 -0.22496656 0.87741446 0.47973287 -0.00055748876 0.05543435
-0.018515151 -0.01873331 -0.22593236 0.69863397 0.71347278 -0.053546075 0.047927249
0.017529259 -0.016391493 -0.22462067 -0.82401365 0.56527305 0.038312398 0.058182094
0.020837583 -0.011496016 -0.22651893 -0.9269591 0.37470943 -0.018430766 0.052886546
-0.025958538 -0.0039567905 -0.22513628 0.99541646 0.093143128 0.021687502 0.048272289
0.022719843 -0.0053233816 -0.2246394 -0.98678547 0.15920086 -0.030158246 0.050246559
-0.025272081 0.0059321425 -0.22460429 0.9635061 -0.26667553 0.023240317 0.048541937
0.02261054 0.0047414671 -0.22547065 -0.98369879 -0.17964271 0.0080781924 0.05065757
-0.022292474 0.012879432 -0.22479282 0.8581748 -0.5126763 0.026438322 0.053881001
-0.017547043 0.018232487 -0.22423595 0.6183607 -0.78508091 0.035747696 0.052017268
0.016168179 0.016603816 -0.22432719 -0.73866326 -0.67368919 -0.02279049 0.065337829
0.020413807 0.011287347 -0.22436312 -0.89248568 -0.45010948 0.029508047 0.04807229
-0.012884235 0.021437969 -0.22548819 0.40837127 -0.91248238 -0.024674859 0.05437291
-0.0058797691 0.02368051 -0.22491303 0.18120281 -0.98344243 -0.0025670864 0.050668716
0.005752197 0.023020905 -0.22587767 -0.23038104 -0.97273028 -0.026839709 0.046656311
0.01095266 0.020988023 -0.22603218 -0.46454534 -0.88472086 -0.038296793 0.047657371
-0.013817063 -0.022043584 -0.21572165 0.48084226 0.87655395 -0.021067852 0.054591302
-0.0054003303 -0.025044765 -0.21567008 0.16980842 0.98521769 -0.022609334 0.041987494
0.0056940564 -0.024188705 -0.21465048 -0.29227415 0.95579481 0.032127347 0.045372304
0.011396901 -0.021851433 -0.21513534 -0.46443647 0.88541275 -0.018519988 0.055012472
-0.02284883 -0.013134778 -0.21567018 0.90407276 0.42688167 -0.020603348 0.041926671
-0.018235186 -0.018920595 -0.21717195 0.62797678 0.77753222 -0.032998096 0.057469159
0.017057035 -0.016979944 -0.21487285 -0.77247775 0.63438982 0.028768299 0.048513994
0.021142405 -0.010760115 -0.21525835 -0.95653594 0.29145104 0.0097633256 0.042625576
-0.025903599 -0.004260987 -0.21455278 0.99040723 0.13578305 0.025622018 0.049783494
0.022882843 -0.0046893903 -0.21591775 -0.98729742 0.15658633 -0.026917676 0.051740281
-0.025407843 0.0055940202 -0.21438262 0.97158617 -0.23202443 0.046743046 0.055053707
0.022677222 0.0047119944 -0.21379547 -0.98404974 -0.17786399 -0.0032460301 0.05104718
-0.02189051 0.01341169 -0.21504661 0.86232764 -0.50631821 0.0057365797 0.051214915
-0.018015547 0.017877381 -0.21482952 0.61368942 -0.78952146 -0.0064188032 0.054563764
0.016504403 0.016273445 -0.21474542 -0.75729764 -0.6523909 -0.029774338 0.06169638
0.020461913 0.011147931 -0.21561566 -0.91329843 -0.40692341 -0.017300267 0.050764192
-0.012275189 0.021717936 -0.21352358 0.40597945 -0.9128263 0.043919075 0.048382565
-0.005722024 0.023691954 -0.21459502 0.18016885 -0.98302144 0.034756966 0.051312063
0.0053674756 0.023076179 -0.21516691 -0.2546705 -0.96701586 -0.0048289131 0.046887603
0.011578346 0.020561619 -0.21457958 -0.53092861 -0.84665173 0.035995152 0.06074227
-0.013435238 -0.022296684 -0.20492062 0.45462117 0.88994849 -0.036211751 0.053322788
-0.0044668363 -0.025078529 -0.20572884 0.11154532 0.99344975 -0.024801796 0.045015905
0.0048594875 -0.024453174 -0.20477605 -0.24960351 0.96785605 -0.030868357 0.052650042
0.011575526 -0.021759758 -0.20508152 -0.55425107 0.83215201 -0.018130731 0.054141808
-0.022817381 -0.013106164 -0.20439897 0.87629616 0.48056155 -0.034141097 0.052440532
-0.019088829 -0.01814816 -0.20615742 0.70286769 0.71009392 -0.041757461 0.044828445
0.017044295 -0.01699885 -0.20530434 -0.77759582 0.62876099 -0.0020987575 0.048994254
0.020821644 -0.011534493 -0.20471764 -0.93549788 0.35214892 0.028893696 0.054389
-0.025758512 -0.0052789329 -0.20571747 0.97492129 0.21706748 -0.049094908 0.045070637
0.022666641 -0.0054497551 -0.20607416 -0.98701066 0.16061522 0.0035551251 0.053391255
-0.025608199 0.0044609751 -0.20530809 0.97227079 -0.23385769 -0.00016786001 0.05821557
0.022345688 0.0054260092 -0.20408146 -0.98358166 -0.18044347 -0.0026955844 0.051213857
-0.022303743 0.012915961 -0.20403659 0.85810155 -0.51224166 0.035640411 0.048204906
-0.017728705 0.018108189 -0.20479083 0.62972653 -0.77670157 0.013386481 0.051899739
0.017006759 0.015699584 -0.20490484 -0.78501952 -0.61839706 0.036461025 0.067627408
0.020453535 0.011178335 -0.20269983 -0.90170175 -0.43231717 -0.0059831892 0.056345347
-0.012284273 0.021725137 -0.20454441 0.35231939 -0.93570691 0.017993743 0.046393991
-0.00471497 0.023921987 -0.20517461 0.15145808 -0.98809952 -0.026830427 0.052079391
0.0049149976 0.023229409 -0.20436724 -0.24864414 -0.96847874 0.014998849 0.048790902
0.010994263 0.02096314 -0.20684938 -0.5030933 -0.86371791 -0.029807443 0.053664017
-0.013710716 -0.022143694 -0.19398731 0.42358321 0.90505695 0.038065623 0.038742129
-0.0061300742 -0.024949312 -0.19474518 0.1599693 0.98607588 0.045434061 0.051110413
0.0043535326 -0.0245985 -0.19478807 -0.25133491 0.96789038 0.0043555796 0.050871987
0.012433316 -0.021137953 -0.19503538 -0.58675289 0.80947363 0.021760184 0.061504915
-0.022380007 -0.013837856 -0.19529727 0.87761253 0.47934434 -0.005024977 0.051282935
-0.018000467 -0.019185552 -0.19523223 0.69917494 0.71471536 0.018341709 0.047591079
0.017214531 -0.016824862 -0.19524346 -0.83819908 0.54533517 -0.0056495089 0.053227354
0.020557931 -0.012147416 -0.1950793 -0.91997373 0.39179006 0.012203096 0.054459274
-0.025795728 -0.005002459 -0.19528706 0.99008775 0.13680081 -0.031807873 0.047196809
0.02279729 -0.0051853596 -0.19521768 -0.98044133 0.19521053 0.025053618 0.046170626
-0.025399767 0.0055681434 -0.19442055 0.96160859 -0.27383751 0.017942123 0.051779311
0.022409471 0.005362486 -0.19489636 -0.97680038 -0.21392776 0.0097958334 0.04631494
-0.022276409 0.012857374 -0.19560435 0.86680198 -0.49854538 -0.010330398 0.049086146
-0.017944206 0.017880317 -0.1950845 0.62680691 -0.77882946 -0.023190564 0.05755768
0.016452013 0.016197976 -0.19492608 -0.78926671 -0.61403322 -0.0046163509 0.066589579
0.020497514 0.011085263 -0.19487908 -0.88595939 -0.46376228 -0.0007025589 0.05200278
-0.012948441 0.021369867 -0.1943755 0.41584334 -0.90927732 0.016999923 0.057085287
-0.0053823586 0.023799835 -0.19553833 0.11270005 -0.99317652 0.029984865 0.053508926
0.0048438739 0.023199296 -0.19485123 -0.21474612 -0.9765029 -0.018064359 0.054567173
0.011105783 0.020878766 -0.1944785 -0.45987946 -0.88740069 0.03210631 0.048529413
-0.013415979 -0.022284208 -0.18514669 0.45337975 0.89105028 0.02182476 0.056978922
-0.0047245957 -0.025087634 -0.18495572 0.12049987 0.99227679 0.029437244 0.049320094
0.0052301968 -0.024351612 -0.1849148 -0.25486359 0.96696854 -0.0040355721 0.051791269
0.011942908 -0.021496825 -0.18472047 -0.55079204 0.83464211 -0.00080878485 0.056437597
-0.022552148 -0.013628201 -0.18564102 0.87669724 0.48103976 -0.0016249062 0.057797711
-0.018266529 -0.018946121 -0.18377019 0.70152253 0.71211463 0.027549725 0.04613544
0.016455738 -0.017622659 -0.18584065 -0.76698709 0.64142579 0.017431367 0.052283742
0.021030605 -0.011030011 -0.18627447 -0.92832673 0.37155575 -0.01247823 0.052369226
-0.025835993 -0.0043390468 -0.18535736 0.99294978 0.11028034 -0.043461237 0.053446282
0.022674806 -0.0058337431 -0.18359937 -0.98152673 0.18991701 0.023167551 0.047210082
-0.025762383 0.0040606805 -0.18555506 0.98708105 -0.15958305 -0.014295558 0.051791247
0.022539342 0.0049309968 -0.18541795 -0.98146468 -0.19162433 0.0026670513 0.052538276
-0.021964822 0.013410103 -0.18690085 0.83122718 -0.55503637 -0.031561185 0.055176254
-0.017604882 0.018229071 -0.18470274 0.62298173 -0.78221208 0.0061622038 0.053354133
0.016363706 0.016422944 -0.18551792 -0.70394504 -0.70900345 -0.042136654 0.052789934
0.020790508 0.010377914 -0.18413422 -0.91629839 -0.4004592 0.0054558646 0.060533162
-0.01239296 0.02163046 -0.18542671 0.41311184 -0.91008639 -0.032884449 0.053961948
-0.0044055972 0.02393535 -0.18478736 0.12883946 -0.99158454 -0.012668176 0.056147918
0.0055662338 0.023053413 -0.18592869 -0.24923129 -0.9677285 -0.037219089 0.046548191
0.011519526 0.020648576 -0.18412583 -0.50794095 -0.86121517 0.017446551 0.05716211
-0.013536167 -0.022168253 -0.17484203 0.47644448 0.87892282 0.022252765 0.056263648
-0.0055248756 -0.025020506 -0.17460963 0.11733053 0.99309033 0.0022656131 0.050181706
0.0051536006 -0.024321651 -0.17446776 -0.25022236 0.96738678 0.039390124 0.051716115
0.011973991 -0.021508327 -0.17448801 -0.5500595 0.83509201 0.0074773817 0.055706635
-0.02240357 -0.013693082 -0.17406689 0.87781751 0.47749883 0.037834022 0.05288288
-0.018553674 -0.018701311 -0.17480573 0.70351183 0.70998138 0.031583801 0.04796708
0.017095357 -0.016968107 -0.17582406 -0.81015748 0.58601767 -0.015105376 0.052883513
0.020905152 -0.011330663 -0.17492133 -0.91772258 0.39722055 -0.0010455395 0.052318901
-0.025907079 -0.0041453629 -0.17524926 0.9908098 0.13525957 -0.00092931418 0.049286749
0.022865262 -0.0045900294 -0.17515703 -0.99089551 0.13091025 0.03144186 0.054700203
-0.0254583 0.0052387612 -0.17562878 0.97224206 -0.23317167 -0.019402599 0.056849703
0.022477247 0.0050603235 -0.17562163 -0.98557317 -0.16902156 0.0087858373 0.047852237
-0.021665756 0.01370019 -0.17416422 0.8568396 -0.51521301 0.019532971 0.047963284
-0.018012028 0.017906738 -0.1753218 0.61133933 -0.79071361 -0.032191209 0.051676344
0.016343933 0.016432319 -0.17505905 -0.77548891 -0.63077646 -0.027166622 0.046669446
0.020505851 0.011065134 -0.17261173 -0.90323442 -0.42894727 0.013111097 0.054426733
-0.013425972 0.021140222 -0.17592216 0.49242088 -0.870125 -0.020101396 0.053022102
-0.0041072378 0.023992756 -0.17441398 0.09792649 -0.99516183 0.0079598865 0.056280788
0.0051292819 0.023110274 -0.17455108 -0.26215628 -0.96502292 -0.0022274291 0.046683725
0.01141578 0.020668035 -0.17487712 -0.46719465 -0.88347834 -0.034572076 0.061939616
-0.013484922 -0.022238977 -0.16546814 0.42476764 0.90530205 0.00079291128 0.04264655
-0.0057755886 -0.024958961 -0.16551669 0.1662294 0.98541719 -0.036343168 0.039042097
0.004967439 -0.024442594 -0.16551301 -0.25254482 0.96726155 -0.025025086 0.054067153
0.012148133 -0.021336846 -0.16560122 -0.50872958 0.86068857 -0.02023492 0.047574982
-0.022531414 -0.013607342 -0.16467741 0.87622052 0.48185885 0.0070412299 0.057360802
-0.018489737 -0.018771013 -0.16602071 0.70361865 0.70962703 -0.036746755 0.04532313
0.017038602 -0.016998395 -0.16511482 -0.80180222 0.59742063 0.014204255 0.059185594
0.020926997 -0.011280144 -0.16640083 -0.95335436 0.30151549 -0.014274863 0.037310217
-0.025915921 -0.0040676179 -0.16345453 0.99712873 0.075519711 0.0055759163 0.051097274
0.022898309 -0.0046340497 -0.16531046 -0.9919768 0.12344938 -0.027242526 0.054615282
-0.025301576 0.005793279 -0.16441272 0.95940351 -0.28072688 0.02715517 0.051512711
0.022697899 0.0043870928 -0.16553508 -0.98149484 -0.19109839 -0.012213673 0.052466981
-0.022372752 0.012712152 -0.16582462 0.85501701 -0.51731622 -0.036466748 0.053133957
-0.016107092 0.019406643 -0.16372879 0.53565955 -0.84391236 0.029677486 0.06036222
0.016952978 0.015784184 -0.16569494 -0.81653398 -0.57705283 -0.016798314 0.049114265
0.020634122 0.010755464 -0.16367514 -0.88591355 -0.46347508 0.018654378 0.051125657
-0.012634262 0.021545021 -0.16410026 0.43948969 -0.89788038 0.025684748 0.04448076
-0.0044985847 0.023887729 -0.16571651 0.083623603 -0.99641871 -0.01252435 0.048947141
0.0055297678 0.022998214 -0.1643502 -0.25511357 -0.96654677 0.026540706 0.049638536
0.011344766 0.020708045 -0.16516419 -0.50583094 -0.86262232 -0.0042079599 0.056883108
-0.013819974 -0.022070803 -0.15514177 0.47036389 0.88230747 -0.017069032 0.053714693
-0.0046620844 -0.025100078 -0.15502451 0.10721596 0.99415433 -0.012714812 0.048302677
0.0048322082 -0.024538273 -0.15492554 -0.25257212 0.96756339 0.0053224163 0.050654158
0.011891303 -0.021578759 -0.15481715 -0.50739717 0.86168981 0.0062268111 0.047923274
-0.021890434 -0.014490621 -0.15524484 0.87752014 0.47947219 0.0080494955 0.051939473
-0.018694211 -0.018554492 -0.15370888 0.70286471 0.710042 0.04267903 0.044522479
0.016854588 -0.01727221 -0.15297726 -0.79408264 0.60780823 0.0014109282 0.053676218
0.0207927 -0.011604371 -0.15590495 -0.92528391 0.37924832 0.004507028 0.05250103
-0.02574832 -0.0052013891 -0.15477219 0.98526591 0.17027408 0.016055491 0.055653289
0.022833936 -0.005285434 -0.15484095 -0.98051798 0.19569004 -0.017027233 0.047891673
-0.025676327 0.0044377786 -0.15514413 0.98462951 -0.17222965 0.02901266 0.048329994
0.022513639 0.0050014546 -0.1551961 -0.97503316 -0.22181225 0.010469701 0.044493642
-0.022174247 0.013068491 -0.15392141 0.85837257 -0.51205838 0.03150589 0.051089313
-0.017540116 0.018269904 -0.15514041 0.62040251 -0.78428352 -0.00020721943 0.054297354
0.016500562 0.01616372 -0.15356347 -0.78839415 -0.61517042 -0.0002644184 0.05012631
0.020502063 0.011074279 -0.15328683 -0.90355605 -0.42842674 0.0060748407 0.055977546
-0.013518068 0.021138813 -0.15446757 0.52696842 -0.84908718 0.036813349 0.058929533
-0.0049163383 0.023849191 -0.15536718 0.10298625 -0.99454057 -0.016818324 0.060468249
0.0049136737 0.023147097 -0.15528165 -0.2537947 -0.9670018 -0.022263823 0.048966967
0.011201755 0.020821271 -0.15528645 -0.47048286 -0.88237679 0.007549061 0.062462844
-0.014495039 -0.021697266 -0.14547083 0.47385854 0.87963217 -0.041294545 0.051704064
-0.0058958316 -0.024874059 -0.14453995 0.19161299 0.98139435 -0.012227528 0.059457704
0.0051142001 -0.024452575 -0.14456528 -0.28295049 0.95911247 -0.0064917323 0.045425132
0.01140163 -0.021905886 -0.14677332 -0.51082397 0.85931581 -0.025204707 0.047526285
-0.023120204 -0.012585727 -0.14486499 0.9030503 0.42952803 -0.0024010856 0.041710328
-0.018413251 -0.018817667 -0.14508249 0.68969095 0.72381485 -0.020458041 0.045260414
0.017190536 -0.016837014 -0.14363974 -0.83617359 0.54718637 0.037426554 0.052459661
0.020751122 -0.011693466 -0.14505224 -0.94021159 0.33990484 -0.021605577 0.055777922
-0.025863169 -0.0044588768 -0.14519529 0.99429154 0.10511877 0.018286886 0.052607473
0.022805866 -0.0053531895 -0.14564003 -0.98197877 0.18733872 -0.02493703 0.046430353
-0.025487835 0.0051828977 -0.14566112 0.97132343 -0.23538284 -0.033551376 0.055802327
0.022605728 0.0050050537 -0.14545549 -0.97524458 -0.22112462 0.0014218088 0.046567362
-0.022284729 0.012816627 -0.14478235 0.85785854 -0.51379019 0.0099150557 0.051537517
-0.018021896 0.017894521 -0.14525077 0.64564806 -0.7636103 0.0061559356 0.058675721
0.016102549 0.016715838 -0.14544311 -0.72713929 -0.68633759 -0.014459615 0.056597032
0.020384662 0.011357714 -0.14776215 -0.90345067 -0.42856714 -0.010347803 0.056110568
-0.012756348 0.021476364 -0.14408495 0.40989652 -0.91158932 0.031461202 0.053130783
-0.004700521 0.023859246 -0.14544509 0.10564732 -0.99435729 0.0096007315 0.05520374
0.0052294028 0.023152217 -0.14540793 -0.23929478 -0.97086179 -0.012862701 0.048740398
0.011320525 0.020742334 -0.14420572 -0.49956495 -0.86619341 0.011991097 0.060246289
-0.013442066 -0.022322142 -0.13568912 0.47089559 0.88173747 -0.028218875 0.053776607
-0.0051725726 -0.02507069 -0.13467696 0.10862422 0.99355549 0.032377921 0.046715155
0.0060170824 -0.024116296 -0.1351295 -0.29206502 0.95608819 0.024356091 0.045696966
0.011966906 -0.02150855 -0.13349085 -0.46724883 0.88304657 0.043673683 0.051671326
-0.023129474 -0.012607856 -0.13426347 0.91987371 0.39207625 0.010415207 0.040081054
-0.017885145 -0.019273981 -0.13470586 0.64056742 0.76699293 0.037352629 0.061093047
0.017218551 -0.016812937 -0.13434911 -0.81312907 0.58191115 0.014160166 0.053172793
0.020712975 -0.011796842 -0.13503627 -0.9123382 0.40625051 0.050984647 0.046213526
-0.025718562 -0.0053328681 -0.1350641 0.97718769 0.21220225 0.0086276475 0.047224104
0.022819834 -0.0050839507 -0.13507703 -0.99222356 0.12406333 0.010040532 0.056056947
-0.025500206 0.0050132256 -0.13529077 0.97187632 -0.23282887 -0.035315145 0.056021336
0.022519529 0.0049676732 -0.1353092 -0.98048925 -0.19655551 -0.0025975318 0.043908309
-0.021775821 0.013569375 -0.13435659 0.83044171 -0.5569939 0.01114978 0.060309108
-0.017934443 0.017947366 -0.13512754 0.6299997 -0.77647394 -0.013735102 0.05210273
0.016520292 0.016216857 -0.13542396 -0.7560513 -0.65336233 0.038782146 0.062634826
0.020813674 0.010321988 -0.13514067 -0.92918748 -0.36941609 -0.011933823 0.052799936
-0.012510815 0.021608487 -0.13675104 0.330167 -0.94390476 -0.0057776887 0.043644387
-0.0053706011 0.023804652 -0.13554171 0.15753537 -0.98751336 -0.00023209502 0.0532781
0.0059598386 0.022957571 -0.13495861 -0.25070861 -0.9678756 -0.019026697 0.047575928
0.011362419 0.020706894 -0.13266131 -0.45971891 -0.88772243 0.02464748 0.058033396
-0.013649004 -0.0220755 -0.12481191 0.46540302 0.88498843 -0.013985438 0.055352814
-0.0048391405 -0.025099985 -0.12494707 0.12492847 0.99215925 0.0035838787 0.051206011
0.0057180091 -0.024204824 -0.12557627 -0.29393521 0.95540392 -0.028380578 0.046426013
0.012165239 -0.021372166 -0.12524362 -0.51024956 0.85950148 -0.030043319 0.047944814
-0.022767352 -0.01321035 -0.12558293 0.90490502 0.42420533 -0.034593079 0.042061009
-0.018531851 -0.018713303 -0.12411245 0.69262868 0.72129279 -0.0014895101 0.050182249
0.017221369 -0.0167831 -0.12524025 -0.80817056 0.58871537 0.016568512 0.05275283
0.020745303 -0.011712909 -0.12515861 -0.9086777 0.41719711 -0.015857564 0.049968489
-0.025966557 -0.0040613636 -0.12480979 0.99103707 0.13357373 -0.001905953 0.048229355
0.022859653 -0.0046529197 -0.12604649 -0.99074519 0.13539191 -0.0096405419 0.049591605
-0.025486199 0.0051818602 -0.12536053 0.97300887 -0.22623843 -0.045495089 0.054098301
0.022420024 0.0055706631 -0.1253569 -0.97937751 -0.20130427 -0.017214915 0.041742284
-0.022402594 0.012676986 -0.12321749 0.86748451 -0.49649549 0.031031273 0.047021665
-0.017129164 0.018584933 -0.12541829 0.58216894 -0.81244516 -0.031814735 0.058291711
0.016467931 0.016336966 -0.1251823 -0.70090336 -0.71269286 -0.028342588 0.059213225
0.020701911 0.01059181 -0.12605481 -0.93122965 -0.3622368 -0.039947886 0.049719945
-0.013097133 0.021309366 -0.12527685 0.40409324 -0.91471773 0.00013668119 0.054358784
-0.0055056331 0.023752311 -0.12485253 0.17917544 -0.98346591 0.02628657 0.053850707
0.0049653822 0.023207953 -0.12513438 -0.18858927 -0.98169726 0.026542788 0.053974148
0.011273012 0.020743659 -0.12528014 -0.52253371 -0.852503 -0.014042847 0.06034806
-0.013853732 -0.022049094 -0.11535954 0.4693718 0.88297486 0.0067414469 0.056823999
-0.0044126944 -0.025179856 -0.11437827 0.051874809 0.9985829 -0.011882084 0.051901042
0.0056594079 -0.024252327 -0.11485817 -0.29357409 0.95593607 0.00077896193 0.045231141
0.012261172 -0.021311237 -0.11452708 -0.54208213 0.84022653 -0.012896747 0.055556174
-0.022695586 -0.013262725 -0.1165267 0.91213477 0.40980336 -0.00844754 0.041843086
-0.018337294 -0.018885911 -0.11476564 0.69554603 0.71846366 0.0050642816 0.053267386
0.017442673 -0.016512007 -0.11527487 -0.82685095 0.56238294 -0.0065515637 0.052494448
0.020773469 -0.011650798 -0.11490159 -0.93117607 0.36455417 -0.0033727498 0.050948311
-0.02579811 -0.0050618043 -0.11513754 0.99079317 0.13535318 0.0028965259 0.051736481
0.022929927 -0.0042921943 -0.11432607 -0.99243718 0.1226162 0.0058014062 0.055413995
-0.025491498 0.0050440938 -0.11393818 0.97536123 -0.21800297 0.033840444 0.055467758
0.022525558 0.0050833705 -0.11551172 -0.97533435 -0.22050202 -0.010087337 0.04508068
-0.021377219 0.014175883 -0.11528673 0.81357092 -0.58045775 0.03422207 0.053703226
-0.017804468 0.018007731 -0.11521152 0.63361663 -0.77316576 -0.027290827 0.055782449
0.016096942 0.016649701 -0.11485537 -0.69113499 -0.72272009 0.0028586139 0.061762795
0.020461094 0.011173191 -0.11474522 -0.91021913 -0.41371769 -0.018408239 0.055307243
-0.012887063 0.021426013 -0.11403479 0.41028491 -0.91191351 0.0089444173 0.056902707
-0.0064582895 0.023650916 -0.11605643 0.17964996 -0.98266912 -0.045686506 0.051036764
0.004795548 0.02317691 -0.11437421 -0.25577673 -0.96670765 0.0073982668 0.046384744
0.011018815 0.020927235 -0.11454666 -0.45161632 -0.89218819 0.0065466771 0.048091665
-0.014694824 -0.021623632 -0.10541757 0.51015049 0.8594721 -0.032468833 0.060302086
-0.0051650684 -0.025087817 -0.10564019 0.11619089 0.99313939 -0.013184214 0.047015585
0.0043141199 -0.024591936 -0.10546813 -0.2456366 0.96923882 -0.015453518 0.048807487
0.012038989 -0.02145607 -0.10505071 -0.54529184 0.83748966 -0.035605598 0.056951866
-0.022110976 -0.014229632 -0.10422194 0.8552984 0.51795715 0.013602005 0.050570421
-0.018391829 -0.018794375 -0.10519702 0.69890243 0.71508181 -0.013909037 0.048583463
0.017991882 -0.01589526 -0.10583217 -0.83978903 0.54166061 -0.036854424 0.051758338
0.020670775 -0.011888095 -0.10539792 -0.8871963 0.46087068 -0.021932 0.055530105
-0.025776964 -0.0051198723 -0.10573408 0.98400617 0.17568055 -0.029465685 0.039554663
0.022576204 -0.0061061666 -0.10484742 -0.97846889 0.20621653 -0.0085630035 0.049847819
-0.025491029 0.0050313501 -0.10479295 0.9730922 -0.22660318 0.041744046 0.052950162
0.022400381 0.0054147686 -0.10564069 -0.98122543 -0.19259539 -0.010181542 0.047657445
-0.021958742 0.013294607 -0.10504986 0.86484444 -0.50203389 -0.0024329419 0.051782168
-0.017547097 0.018285409 -0.10480285 0.62786531 -0.77740288 0.037813328 0.051655181
0.016473133 0.016222211 -0.10561524 -0.78528887 -0.61912954 0.00020620525 0.063253701
0.02042187 0.011267883 -0.10384429 -0.8813718 -0.47222963 0.013529805 0.050069135
-0.012272228 0.021729467 -0.10598755 0.33386105 -0.94262022 0.001978219 0.044529036
-0.0058039953 0.023665642 -0.10487268 0.17493404 -0.98458016 1.4839147e-05 0.053207837
0.0052387333 0.02312234 -0.10460557 -0.24234299 -0.96991098 0.023292078 0.044668239
0.01164397 0.020546002 -0.10375623 -0.49865586 -0.86594653 0.038456228 0.049346928
-0.013695851 -0.022099115 -0.094738513 0.46732894 0.88407475 0.0039265994 0.050258279
-0.0048802807 -0.025068844 -0.093995377 0.10527002 0.99417233 0.023227973 0.048233122
0.0045945095 -0.02458417 -0.094890349 -0.2438758 0.96980637 0.00045555746 0.051304959
0.011641656 -0.021731773 -0.093771458 -0.50181174 0.86398178 0.041476946 0.044253837
-0.022321321 -0.013850461 -0.094179235 0.87231815 0.48789454 0.031937439 0.051460147
-0.018501665 -0.018750532 -0.093777359 0.69855535 0.71439558 0.040735666 0.042258702
0.016673941 -0.017441718 -0.09580379 -0.75209457 0.65904433 0.0037840807 0.052002266
0.020976117 -0.011161561 -0.094648182 -0.9286871 0.37004089 0.024698483 0.053969108
-0.025954915 -0.0040650088 -0.095247723 0.9920221 0.12516774 0.015007848 0.047822334
0.02271012 -0.0057478547 -0.09421964 -0.98261142 0.1845485 0.020413784 0.047935683
-0.025641685 0.0042865663 -0.095206305 0.98570418 -0.16435213 0.037089977 0.054723889
0.022551561 0.0048513338 -0.095833696 -0.98346561 -0.18106925 -0.0030634459 0.050468951
-0.022639776 0.012288719 -0.095096849 0.86699665 -0.49831352 0.00074178498 0.051738504
-0.01804816 0.017852774 -0.095146559 0.62092799 -0.78370106 -0.016163189 0.056616325
0.016163683 0.016536774 -0.094606571 -0.76367736 -0.6454438 0.01411439 0.06640622
0.020578133 0.010868748 -0.094357476 -0.91427326 -0.40468806 0.018221878 0.053379737
-0.013003169 0.021360015 -0.095318221 0.40581733 -0.91355652 -0.026958106 0.056050695
-0.0047139656 0.023873335 -0.095196806 0.11047573 -0.99374658 0.016214726 0.054410696
0.0048769754 0.023198893 -0.095243707 -0.24068648 -0.97059304 -0.0043782671 0.048857868
0.011496738 0.020631274 -0.095193297 -0.4559159 -0.88973564 0.022608457 0.052978974
-0.014064343 -0.021908928 -0.084891997 0.46906084 0.88305843 0.013778185 0.053866286
-0.0059827329 -0.024940824 -0.084606603 0.20308053 0.97822803 -0.042757794 0.044950098
0.0049025407 -0.024409253 -0.084906183 -0.24262869 0.97011906 0.0005071151 0.051553853
0.011789364 -0.021632994 -0.083532587 -0.50481528 0.86232108 0.03954545 0.042459197
-0.022790015 -0.013078026 -0.084597282 0.8730408 0.48655099 0.032677419 0.05283751
-0.018278882 -0.018921185 -0.083814822 0.69758874 0.71586031 0.030231588 0.049676184
0.016569814 -0.017575275 -0.08517798 -0.80243742 0.5959751 -0.030129125 0.056405306
0.020883985 -0.011383984 -0.084903307 -0.95696253 0.29003903 0.010004651 0.045291547
-0.025834789 -0.0046011871 -0.084182695 0.99034035 0.13589022 0.027566127 0.044635564
0.022697862 -0.0055840756 -0.084504023 -0.98027855 0.19680984 0.017888289 0.046897803
-0.025488952 0.0047711269 -0.084378995 0.98231298 -0.18461689 -0.031269196 0.053065762
0.022573695 0.0048789689 -0.084550835 -0.98288131 -0.18242784 -0.025776688 0.050423034
-0.022359567 0.012807108 -0.085480027 0.86018139 -0.50868791 -0.036396198 0.050810188
-0.018188223 0.017701766 -0.08498235 0.62778682 -0.77804559 -0.022995716 0.055611368
0.015571143 0.017172026 -0.08500503 -0.65082228 -0.7581749 -0.040015005 0.064016268
0.02058365 0.010877315 -0.082915433 -0.92342985 -0.38315889 0.02160071 0.047704026
-0.012960287 0.021407424 -0.083477445 0.3976112 -0.91687953 0.035174161 0.049701843
-0.0052455468 0.023810077 -0.0846688 0.11606229 -0.99322665 -0.0055064904 0.053902097
0.0052752034 0.02312343 -0.083754241 -0.24478921 -0.96893322 0.035307981 0.047738452
0.010954313 0.020949295 -0.08492174 -0.45973229 -0.88797027 0.012453814 0.04906464
-0.013047064 -0.022588363 -0.074187748 0.39721116 0.91752172 0.019422658 0.037592221
-0.0049105277 -0.025075519 -0.074476495 0.084539376 0.9963811 0.0088274395 0.051880527
0.0057108263 -0.024225017 -0.075771995 -0.28811994 0.95723957 -0.026061231 0.044509593
0.01237751 -0.021202674 -0.074592322 -0.58149463 0.81269646 0.037262496 0.060696155
-0.022562239 -0.013574409 -0.075030766 0.90198684 0.43171069 0.0067485422 0.040738538
-0.01846032 -0.018780492 -0.074218377 0.70003062 0.71253443 0.047453258 0.048147503
0.017411614 -0.016635183 -0.074704885 -0.83605736 0.54814386 0.023375351 0.054779641
0.020586092 -0.012097131 -0.07323391 -0.90283877 0.42948386 0.02063245 0.058123849
-0.025761509 -0.0052205878 -0.074780971 0.98426729 0.17621887 0.012835681 0.056039527
0.022799658 -0.0051057977 -0.074624695 -0.98643243 0.16299851 0.019556226 0.055407211
-0.025002269 0.006768404 -0.075584158 0.9634496 -0.26567784 -0.034355063 0.050466657
0.022321533 0.0054766745 -0.074922606 -0.97355187 -0.22835501 0.0071331956 0.043890286
-0.022330804 0.012740091 -0.076163843 0.86015499 -0.50831932 -0.041770436 0.048396472
-0.017684853 0.018166931 -0.075175427 0.58845478 -0.80776936 -0.035064276 0.062000483
