# .PCD v0.7 - Point Cloud Data file format
VERSION 0.7
FIELDS x y z normal_x normal_y normal_z curvature
SIZE 4 4 4 4 4 4 4
TYPE F F F F F F F
COUNT 1 1 1 1 1 1 1
WIDTH 575
HEIGHT 1
VIEWPOINT 0 0 0 1 0 0 0
POINTS 575
DATA ascii
-0.084573492 -0.033480655 -0.37774613 -0.40290266 -0.18111983 0.89714271 0.095253162
-0.076631136 -0.034148317 -0.37774613 -0.21449146 -0.1705137 0.96172684 0.067274109
-0.065130904 -0.034850247 -0.37774613 0.0065620481 -0.18813096 0.982122 0.043081723
-0.054931387 -0.035537507 -0.37774613 0.0066344538 -0.19652441 0.9804765 0.046279781
-0.044514276 -0.035998672 -0.37774613 0.022356929 -0.27031246 0.96251303 0.058797244
-0.034721233 -0.035317618 -0.37774613 -0.032671604 -0.26366997 0.96405947 0.056380998
-0.024321532 -0.035797104 -0.37774619 -0.10503022 -0.42411464 0.89949733 0.072716132
-0.016339153 -0.034309939 -0.37774613 -0.25148937 -0.52837801 0.81090677 0.086909443
-0.0033405495 -0.035461675 -0.37699601 -0.30658668 -0.69137663 0.65421933 0.086843535
0.005904377 -0.037667274 -0.37578729 -0.25555801 -0.85883409 0.44395283 0.067702107
0.011151397 -0.03941682 -0.37311965 -0.14265965 -0.92481446 0.35265616 0.049854778
0.039243273 -0.03951811 -0.37409854 0.15587896 -0.91182554 0.37983683 0.059086796
0.0462038 -0.036740329 -0.3771531 0.29576534 -0.79078668 0.53589118 0.076105468
0.05469954 -0.032970678 -0.3764126 0.3367593 -0.67148548 0.66007608 0.08216732
0.065116689 -0.034225427 -0.37774613 0.30141944 -0.55534583 0.7750724 0.087668151
0.074872956 -0.033307094 -0.37774613 0.16815205 -0.36534527 0.9155587 0.074628606
0.083126262 -0.034217656 -0.37774616 0.064204603 -0.32888103 0.9421863 0.052728791
0.095355131 -0.034521122 -0.37774613 -0.012306077 -0.22116847 0.97515792 0.043926053
0.10579357 -0.034952223 -0.37774613 0.037222125 -0.20395905 0.97827148 0.045163516
0.11487722 -0.034718756 -0.37774613 0.0015456578 -0.19381417 0.98103708 0.041234542
0.12481862 -0.034712926 -0.37774613 0.16367951 -0.20960669 0.96398854 0.062783696
0.13448524 -0.032900166 -0.37774616 0.43445212 -0.18831563 0.88078862 0.074380666
0.14288542 -0.033281762 -0.37841684 0.68958896 -0.19792244 0.69663024 0.07845667
0.22782993 -0.034656137 -0.37512955 -0.77674216 -0.32735002 0.53806478 0.060105719
0.26163587 -0.033690173 -0.37553704 -0.83392137 0.27560785 -0.47813752 0.086868837
-0.26084173 -0.023982596 -0.37903541 0.75396359 0.0087536089 0.65685797 0.0059011779
-0.25964117 -0.020976938 -0.37995511 0.75649714 -0.0025183035 0.65399212 0.009686674
-0.091998406 -0.02589787 -0.37809366 -0.52227175 -0.028077653 0.85231674 0.077207275
-0.084935077 -0.025971448 -0.37774613 -0.38911223 -0.03314833 0.92059368 0.067247547
-0.074906044 -0.02490738 -0.37774613 -0.18355978 -0.039524581 0.98221362 0.035294704
-0.065274209 -0.026142899 -0.37774613 -0.020252084 -0.057794388 0.99812305 0.0087438822
-0.055485021 -0.022775773 -0.37774613 -0.0013396644 -0.021093534 0.9997766 0.0019103822
-0.046294849 -0.024937602 -0.37774613 0.0020347282 -0.055904016 0.99843401 0.0059273229
-0.03569169 -0.025259845 -0.37774613 -0.099809051 -0.10874488 0.98904639 0.021755314
-0.026049668 -0.025008019 -0.37774616 -0.24458508 -0.24948739 0.93698144 0.049116366
-0.016390108 -0.025776315 -0.37773848 -0.34993973 -0.35154104 0.86830932 0.082441308
-0.0092425765 -0.024871655 -0.37570974 -0.46901527 -0.48589575 0.73751611 0.077910274
0.058517803 -0.026157936 -0.37555242 0.46396059 -0.45020813 0.76292413 0.085215434
0.066306174 -0.026359916 -0.37774613 0.39473411 -0.359963 0.84534705 0.088604063
0.076837473 -0.025075782 -0.37774613 0.26619929 -0.223012 0.93776518 0.058495086
0.08439146 -0.024757473 -0.37774613 0.11350078 -0.1120105 0.98720378 0.023441877
0.094528019 -0.025264382 -0.37774613 0.0065289252 -0.065810181 0.99781084 0.007668179
0.10517097 -0.024650989 -0.37774613 0.010649125 -0.08725477 0.9961291 0.014134265
0.11339846 -0.023729539 -0.37774613 -0.00054581265 -0.057386559 0.99835187 0.0074294433
0.12498154 -0.024016233 -0.37774613 0.21888314 -0.05086498 0.97442442 0.036432549
0.13646485 -0.02587048 -0.37774613 0.52006203 -0.032541614 0.85350835 0.072254419
0.14256418 -0.024978995 -0.37825561 0.63523448 -0.022095248 0.77200317 0.076442696
0.22780083 -0.025363546 -0.37546182 -0.88961029 -0.18536995 0.4174104 0.039999366
0.26163587 -0.027333185 -0.37468413 -0.91644651 0.19982871 -0.34669062 0.073823221
-0.26073873 -0.015993746 -0.37882853 0.74699742 0.0041642133 0.66481382 0.0058584902
-0.25996679 -0.018666027 -0.37958193 0.73005199 0.012422217 0.68327868 0.0055608307
-0.092473961 -0.014775708 -0.37855142 -0.50858688 0.0053729615 0.86099392 0.094533205
-0.085410781 -0.015325394 -0.37774613 -0.42551929 0.010660802 0.90488654 0.062466942
-0.073799089 -0.015820732 -0.37774616 -0.16973732 0.0058787991 0.98547179 0.034946654
-0.063755132 -0.015069705 -0.37774613 -0.0030114793 -0.00035156254 0.99999541 0
-0.053269185 -0.013668297 -0.37774616 2.410761e-05 1.1657626e-05 1 0
-0.045321569 -0.014277709 -0.37774613 3.8225302e-05 3.9891515e-06 1 0
-0.036542114 -0.014127392 -0.37774613 -0.10016308 -0.033393487 0.99441051 0.016929157
-0.024138011 -0.013869245 -0.37774613 -0.40139422 -0.087425172 0.91172332 0.081232943
-0.014653413 -0.015290366 -0.3754541 -0.66579384 -0.2245871 0.71153301 0.08276023
0.0647856 -0.015251404 -0.37492904 0.70439863 -0.33497712 0.62578976 0.10743941
0.074777804 -0.015844863 -0.37774613 0.42790571 -0.099112861 0.89837259 0.083225757
0.083723076 -0.016238974 -0.37774613 0.19211935 -0.042089418 0.98046857 0.040759783
0.096068434 -0.015660144 -0.37774613 -8.077007e-07 9.5740288e-06 1 0
0.1055764 -0.014639239 -0.37774613 -5.5470464e-05 4.4978951e-06 1 0
0.11419322 -0.017034249 -0.37774619 0.0027973144 -0.00029985778 0.99999607 0
0.12471153 -0.013601721 -0.37774613 0.19232222 -0.021941243 0.98108649 0.038306028
0.13329461 -0.015519626 -0.37774613 0.40614152 0.015285 0.91368234 0.070245974
0.14224961 -0.014005078 -0.37788853 0.65588969 -0.042765476 0.75364435 0.076678105
0.22785133 -0.014269712 -0.37571645 -0.9146412 -0.11836899 0.38654935 0.038171712
0.26163584 -0.015279368 -0.37424108 -0.97206217 0.077395171 -0.22159669 0.045555759
-0.092622362 -0.0058722212 -0.3784453 -0.5819397 0.083601482 0.80892336 0.084886663
-0.083616838 -0.0025419116 -0.37774613 -0.39254472 -0.013561928 0.91963297 0.076025859
-0.074987814 -0.0053922939 -0.37774613 -0.22012304 0.036933571 0.97477263 0.039570495
-0.064096183 -0.006177715 -0.37774613 -0.0047409805 -0.00079477532 0.99998838 0
-0.056399345 -0.0063968664 -0.37774616 5.5024866e-05 5.2222447e-07 1 0
-0.044023078 -0.0056452048 -0.37774613 -0.033880249 -0.00086494116 0.99942547 0.0020720693
-0.034640532 -0.0043844706 -0.37774613 -0.18821776 0.00455066 0.98211682 0.042081978
-0.025322057 -0.0050931503 -0.37774619 -0.40129858 -0.00056400918 0.91594714 0.075647362
-0.016106848 -0.0069548031 -0.37268668 -0.75181258 -0.1269394 0.64704269 0.095019676
0.067321271 -0.0043449649 -0.37526792 0.7369346 -0.039669514 0.67479897 0.098027989
0.07489489 -0.0044002784 -0.37774616 0.41096941 -0.04804666 0.91038215 0.079340912
0.085120477 -0.0042746332 -0.37774616 0.1700087 -0.028478427 0.98503095 0.027622508
0.094843596 -0.0042832461 -0.37774613 0.018629387 -0.0042231516 0.99981755 0.00057210535
0.10439768 -0.0050282991 -0.37774616 -3.5504301e-05 3.2700832e-06 1 0
0.11545229 -0.0067689279 -0.37774613 0.0055776332 0.0012809805 0.99998361 0
0.12319259 -0.0036037117 -0.37774613 0.14176551 0.02116962 0.98967391 0.026237972
0.13716368 -0.0094985282 -0.37774616 0.53677893 0.0023580331 0.84371972 0.075975239
0.14347862 -0.0063029807 -0.37820017 0.70007789 0.049215488 0.71236837 0.064753473
0.22778384 -0.005488751 -0.37623805 -0.9340359 -0.055440597 0.3528502 0.040754091
0.26163587 -0.0044228951 -0.37475196 -0.96366841 0.045044295 -0.26327601 0.055934519
-0.092951775 0.0039408137 -0.37813118 -0.61238462 0.033799592 0.78983712 0.085887693
-0.085885204 0.0039326269 -0.37774613 -0.44049352 0.035219327 0.89706469 0.08741042
-0.075325541 0.0047052274 -0.37774613 -0.22905436 0.0081162518 0.97337985 0.04308477
-0.065780699 0.0042688912 -0.37774613 -0.029035902 -0.0026761794 0.99957478 0.0032036752
-0.056176666 0.0042030704 -0.37774613 2.4044839e-05 2.8887523e-06 1 0
-0.043045107 0.0031049394 -0.37774613 -0.077234901 0.0020288902 0.99701083 0.0095382445
-0.036525924 0.0047455281 -0.37774613 -0.12616391 0.015304973 0.99189132 0.023790497
-0.026079033 0.0058708475 -0.37774613 -0.38763654 0.084916316 0.91789275 0.072936848
-0.016684871 0.004376133 -0.37475207 -0.7181505 0.15564741 0.67825788 0.093977116
0.067301966 0.0058428994 -0.37521315 0.64880615 0.15263167 0.74548912 0.095512472
0.074773043 0.0061503877 -0.37774619 0.47275698 0.059198551 0.87920213 0.080561809
0.087121367 0.0050829151 -0.37774613 0.14652538 -0.01810102 0.98904127 0.023775049
0.095648319 0.0059105125 -0.37774613 0.011040105 0.0016970675 0.99993765 0.0002300897
0.10474902 0.0047381241 -0.37774613 -6.4386877e-05 -3.8450526e-06 1 0
0.11297396 0.0049597318 -0.37774613 -6.5539141e-05 -9.6319354e-08 1 0
0.12453616 0.0055222586 -0.37774616 0.19664341 0.00242494 0.98047209 0.032957219
0.13478389 0.005250656 -0.37774613 0.51236439 0.0018481362 0.85876614 0.06729982
0.14338103 0.0038906757 -0.37869304 0.70049322 0.020732425 0.71335787 0.064372487
0.22783057 0.0038289132 -0.37504059 -0.91749287 0.054829828 0.39395496 0.042694129
0.26163587 0.0045831278 -0.37446153 -0.96494848 -0.053660456 -0.2568951 0.050348978
-0.26103866 0.015451087 -0.37872288 0.7332077 -0.0076667783 0.6799615 0.0071002338
-0.25985309 0.016170103 -0.37968785 0.7160694 -0.015425798 0.69785863 0.00617423
-0.093071744 0.015530973 -0.37849909 -0.50473881 -0.05607919 0.86144871 0.078466997
-0.083085202 0.014079233 -0.37774616 -0.37147644 0.0039995089 0.92843378 0.075848602
-0.075058639 0.012409696 -0.37774613 -0.2374576 -0.014082164 0.97129583 0.048692681
-0.063485429 0.015082994 -0.37774613 -0.0026304582 -0.00017310922 0.99999654 0
-0.053301226 0.014171505 -0.37774616 1.5013185e-05 -1.205366e-05 1 0
-0.045752641 0.016089546 -0.37774613 -0.0034356399 1.8014523e-05 0.9999941 0
-0.035042755 0.01374371 -0.37774613 -0.14775097 0.0026133519 0.98902118 0.02458155
-0.024408096 0.014500959 -0.37774613 -0.38928607 0.076519527 0.91793305 0.086302303
-0.016106069 0.016372675 -0.37695912 -0.56937808 0.26143044 0.77939898 0.093290761
0.06497182 0.015809137 -0.37486538 0.61220002 0.28437245 0.73779643 0.09431047
0.075537637 0.013565833 -0.37774616 0.31991616 0.091643214 0.94300324 0.072535276
0.08465787 0.015674487 -0.37774613 0.17248991 0.050152022 0.98373371 0.027275072
0.093702391 0.014015066 -0.37774613 0.025444353 0.0030913625 0.99967146 0.00072452752
0.10546736 0.014946367 -0.37774613 -6.6503933e-05 -7.2546773e-06 1 0
0.11485028 0.015236782 -0.37774613 0.0035411301 -0.00078797201 0.99999338 0
0.1242258 0.015915899 -0.37774613 0.20588888 0.011889965 0.97850311 0.035261385
0.13421655 0.014472846 -0.37774613 0.44085383 0.041416805 0.8966229 0.063181698
0.14313936 0.014500034 -0.37848324 0.69871497 0.048574641 0.71374917 0.066154733
0.22786427 0.015650779 -0.37458754 -0.90830249 0.094359465 0.40753254 0.039158802
0.26163587 0.014556294 -0.37517503 -0.96351713 -0.091431297 -0.2515454 0.049753096
-0.26090309 0.025056653 -0.37890047 0.73686558 0.0083310828 0.67598808 0.0054036407
-0.091296807 0.025273927 -0.37774616 -0.49950117 0.0043505454 0.86630225 0.080634221
-0.084873177 0.02426591 -0.37774613 -0.39612353 -0.0015496019 0.91819596 0.067608632
-0.074762277 0.024793513 -0.37774616 -0.17279197 0.049027801 0.98373735 0.038543113
-0.065593347 0.023411626 -0.37774616 0.0010927676 0.034176189 0.99941522 0.0039300676
-0.057369243 0.025153328 -0.37774616 0.0072755991 0.068773478 0.9976058 0.0070790546
-0.046539828 0.024396328 -0.37774613 0.0065152561 0.066189311 0.99778581 0.0072215674
-0.03419764 0.026487084 -0.37774613 -0.11230087 0.10362425 0.98825628 0.026976274
-0.025317675 0.024352787 -0.37774613 -0.27487931 0.18588196 0.94333947 0.062370509
-0.015245912 0.02397191 -0.37763062 -0.46336198 0.34567153 0.81596988 0.08280012
-0.0075906068 0.02583755 -0.37427548 -0.51531518 0.52625322 0.67639327 0.093616039
0.056225412 0.028449737 -0.37129131 0.6023612 0.5412609 0.58668357 0.10552116
0.06420359 0.025175152 -0.37713727 0.46178985 0.30702484 0.83215737 0.093072787
0.074956357 0.024941528 -0.37774613 0.35030541 0.19820093 0.91542476 0.072630182
0.085585438 0.025648547 -0.37774613 0.093098 0.090485938 0.99153674 0.022351848
0.096147478 0.026509391 -0.37774613 -0.0019815031 0.059538733 0.99822408 0.0090063363
0.10580005 0.026025377 -0.37774613 0.0018028552 0.052882567 0.99859911 0.0062021692
0.11428434 0.024334194 -0.37774613 0.010622771 0.057237431 0.99830413 0.0065513379
0.12623037 0.023888165 -0.37774613 0.2113798 0.031399377 0.97689962 0.03601383
0.13381732 0.025744714 -0.37774613 0.44597977 0.026266716 0.89465749 0.063050099
0.14318654 0.025314193 -0.37870467 0.67736053 0.018551638 0.73541731 0.069892742
0.22785959 0.024957333 -0.37405771 -0.82794929 0.2428809 0.50547886 0.064393952
0.2616359 0.024258474 -0.37603134 -0.94874877 -0.12766717 -0.28909668 0.054144241
-0.26093543 0.034798924 -0.37877181 0.78762525 -0.0096913669 0.61607838 0.0042089713
-0.092581339 0.034242392 -0.37838963 -0.48390868 0.120809 0.86673963 0.11005921
-0.083988398 0.034379307 -0.37774613 -0.30764866 0.16021842 0.93791384 0.087731898
-0.074604623 0.035975676 -0.37774613 -0.12603533 0.24653506 0.96090347 0.072442889
-0.064455397 0.034886837 -0.37774613 -0.016082937 0.21342754 0.97682655 0.039099414
-0.05199312 0.036535792 -0.37774613 0.020528363 0.24968345 0.96810991 0.047392122
-0.04486971 0.034207564 -0.37774613 0.0014893586 0.21971145 0.97556382 0.043788027
-0.034796949 0.035430811 -0.37774616 -0.02864426 0.25278836 0.96709746 0.048912656
-0.027079603 0.033562023 -0.37774613 -0.14003043 0.30792686 0.94104856 0.066401742
-0.015761072 0.033075836 -0.37774613 -0.31310079 0.48782653 0.81485772 0.09781529
-0.004455586 0.034309704 -0.37668854 -0.38224688 0.6608308 0.64590245 0.08881662
0.0041921935 0.036956463 -0.37555993 -0.34441116 0.78663719 0.5124284 0.075862475
0.010819007 0.039279141 -0.37504435 -0.15918973 0.88035029 0.44681317 0.04898838
0.04449065 0.037168901 -0.37376589 0.32127008 0.84355879 0.4303419 0.070206016
0.055624533 0.035232224 -0.3770296 0.34242219 0.6591751 0.66950381 0.081907749
0.064431518 0.035353255 -0.37774616 0.31628564 0.47289294 0.82239622 0.092338234
0.074770309 0.034152266 -0.37774613 0.12478571 0.2961787 0.94694591 0.060705785
0.082731128 0.03606265 -0.37774616 0.059929367 0.34375837 0.93714392 0.062705271
0.094984733 0.034766059 -0.37774613 0.038387734 0.22802146 0.97289908 0.059387248
0.10234299 0.033751059 -0.37774616 0.032660209 0.18508717 0.98217922 0.044550404
0.11548422 0.036692329 -0.37774613 0.037317101 0.24965173 0.96761644 0.046641361
0.12541224 0.034270965 -0.37774613 0.2010196 0.20013307 0.95892543 0.058106519
0.1347896 0.034825504 -0.37774616 0.5087707 0.15432084 0.8469578 0.086337201
0.14310513 0.035274781 -0.37825903 0.68544769 0.20095377 0.6998421 0.088506758
0.22782801 0.035598572 -0.37563139 -0.73983288 0.40009931 0.5408954 0.066892728
0.26163587 0.033962421 -0.37454835 -0.8021729 -0.30656385 -0.512384 0.087262332
-0.26109448 0.04576933 -0.37858114 0.73483729 -0.0046536145 0.67822748 0.0091183474
-0.093856849 0.044861779 -0.3791852 -0.48120147 0.41545656 0.77190739 0.12412674
-0.085708849 0.044342633 -0.37774613 -0.35020182 0.45929787 0.8163358 0.11406595
-0.076113753 0.044548016 -0.37774613 -0.11447026 0.62389016 0.77308321 0.11055899
-0.065390259 0.045538783 -0.37774616 0.017338213 0.57504815 0.81793582 0.089694574
-0.056963291 0.044360485 -0.37774616 0.019798981 0.51365441 0.85776871 0.093477868
-0.044866867 0.044948895 -0.37774613 -0.019827209 0.44187564 0.8968572 0.08628051
-0.035126526 0.045692906 -0.37774613 0.0894408 0.6950295 0.71339643 0.10225047
-0.02458653 0.045460802 -0.37774616 -0.0042485478 0.69821072 0.71587968 0.085071623
-0.015953045 0.044220358 -0.37774613 -0.064793624 0.69178075 0.71919489 0.09181536
-0.004774157 0.04385782 -0.37774613 -0.18658422 0.74286723 0.64291096 0.097443424
0.0045535648 0.04586051 -0.37774613 -0.13268106 0.89123982 0.43369046 0.063897349
0.015993671 0.04501697 -0.37667763 -0.063395068 0.93782961 0.34125754 0.031994414
0.025730599 0.043383218 -0.37574163 -0.013446941 0.94568551 0.32480466 0.021583969
0.034743626 0.043522619 -0.37617666 0.12560238 0.91925335 0.3730917 0.03877734
0.043182295 0.046009813 -0.37774613 0.18924676 0.89876616 0.39548081 0.049348369
0.053361647 0.046520576 -0.37774616 0.10604667 0.86369324 0.49273524 0.066296995
0.065504774 0.046212569 -0.37774613 0.053547423 0.72169679 0.69013506 0.070965365
0.075703718 0.046059225 -0.37774613 -0.035391405 0.72280967 0.69014019 0.081013076
0.084200256 0.044988748 -0.37774613 0.0064641754 0.54511386 0.83833712 0.10586677
0.094263971 0.042590771 -0.37774613 0.0069333385 0.48822597 0.87268966 0.11172287
0.10355267 0.046567183 -0.37774619 0.059012476 0.66290361 0.74637544 0.094868317
0.11744398 0.043488115 -0.37774613 0.0068735653 0.52328497 0.85213012 0.091526426
0.12325977 0.046065204 -0.37774613 0.1137515 0.60615903 0.78716689 0.081167161
0.13467263 0.044821151 -0.37774613 0.4251585 0.57329118 0.70041239 0.13153251
0.14298895 0.047239337 -0.37867752 0.58373421 0.48693258 0.64973146 0.11246171
0.22806108 0.044368815 -0.37518486 -0.64629239 0.42799529 0.63176435 0.065027252
0.23492862 0.044968158 -0.37339467 -0.28389022 0.62118673 0.73043376 0.06688945
0.24343117 0.04625164 -0.37437949 -0.10275618 0.67025387 0.73498368 0.09697333
0.25595549 0.044181745 -0.3727912 0.39239714 0.55838579 0.73091018 0.10414786
0.2612682 0.045604941 -0.37605813 -0.7952466 -0.40699175 -0.44937798 0.096177101
-0.090284184 0.050639201 -0.37934363 -0.34434557 0.65807247 0.66960192 0.12363256
-0.082524255 0.050639205 -0.37871304 -0.2480028 0.6818139 0.68820375 0.098973133
-0.076148219 0.050639201 -0.37817773 -0.11763399 0.69481903 0.70949888 0.11025172
-0.062784776 0.050639201 -0.37963831 -0.027613366 0.73764038 0.67462885 0.090968385
-0.057864804 0.050639197 -0.37962303 0.054466449 0.73653448 0.67420352 0.10114114
-0.045001175 0.050539792 -0.37807831 -0.020698501 0.75673139 0.65339822 0.10648471
-0.033517677 0.050639201 -0.37875798 -0.0087060118 0.74462444 0.66742688 0.10019647
-0.024136459 0.050639201 -0.37830913 -0.038560834 0.75058001 0.65965348 0.10297259
-0.014521528 0.050639201 -0.37881914 -0.058990031 0.77321053 0.63139981 0.089863613
-0.0042976541 0.050639205 -0.37990656 -0.096258029 0.85638392 0.5072878 0.073224835
0.0076547824 0.050577246 -0.37913454 -0.12454367 0.91432256 0.38536102 0.046815626
0.025445413 0.050639201 -0.37883744 0.0031314914 0.95530879 0.29559335 0.023193207
0.037240371 0.050639205 -0.37907407 0.041089412 0.94459069 0.32566878 0.027340246
0.062990658 0.050639201 -0.3791739 0.079889558 0.79819101 0.59708351 0.074568167
0.075301535 0.050506491 -0.37815306 -0.067890137 0.74214703 0.66678995 0.088238396
0.083027646 0.05053756 -0.37825966 0.065231219 0.76618123 0.63930529 0.10203241
0.09465915 0.05062421 -0.3783277 0.0078364126 0.78235358 0.62278527 0.10038477
0.10143697 0.050096981 -0.37774616 0.059028648 0.66290212 0.74637544 0.094871655
0.11481527 0.050639201 -0.37820482 -0.015179046 0.72509086 0.6884858 0.092565566
0.13482122 0.050639201 -0.37883624 0.42076504 0.66312075 0.61905384 0.11898666
0.24168161 0.051402036 -0.37874031 -0.12385964 0.74175179 0.65913808 0.071296111
0.25942895 0.052170333 -0.37974158 -0.6633774 -0.56867981 -0.48634735 0.096250996
0.26163587 0.052108109 -0.37982884 -0.76718056 -0.45483014 -0.45228693 0.098318934
0.015482512 -0.040756036 -0.36621371 -0.13909718 -0.94958651 0.28095806 0.043046147
0.026828332 -0.041776676 -0.36552361 0.047565129 -0.96868014 0.24371353 0.037740886
0.033601649 -0.041080285 -0.36353651 0.15225153 -0.96201581 0.22659436 0.047193214
0.24073926 -0.040387686 -0.3698799 -0.17578612 -0.53857201 0.82403857 0.074962139
-0.0018858932 -0.031860556 -0.36365527 -0.62096006 -0.68408263 0.3826744 0.080617487
0.0054685627 -0.036764048 -0.36570069 -0.36320114 -0.85342628 0.37382957 0.073962741
0.011631614 -0.039615735 -0.36387166 -0.24942654 -0.92673314 0.28098434 0.058374055
0.039407067 -0.039450265 -0.36468434 0.20818619 -0.92168587 0.32734331 0.060815051
0.045963824 -0.036413964 -0.36521244 0.46737328 -0.78488475 0.40683928 0.075142354
0.052949548 -0.031534862 -0.36524388 0.52418923 -0.73705363 0.42658827 0.077594601
0.22859873 -0.036016542 -0.36694407 -0.62809229 -0.39930889 0.66787159 0.07134974
0.23595117 -0.033956107 -0.36590326 -0.28002098 -0.43622813 0.8551569 0.075815789
0.24449079 -0.037511807 -0.36790395 -0.041133214 -0.45568642 0.88918948 0.087999858
0.25512239 -0.036713261 -0.36738124 0.3372882 -0.46514744 0.81845868 0.090137742
0.26163587 -0.037976712 -0.36843193 0.72931522 -0.35785082 0.58313131 0.092625849
-0.0112695 -0.0209949 -0.36220723 -0.84831011 -0.45092028 0.27756217 0.088882871
-0.0078170085 -0.025542498 -0.36406139 -0.7058031 -0.60698247 0.36525905 0.085021026
0.056708537 -0.027800035 -0.36472264 0.69155067 -0.59690779 0.4067663 0.085851595
0.060703993 -0.022613123 -0.36401659 0.73416638 -0.52410322 0.43164292 0.10304786
0.22815904 -0.024786221 -0.36520579 -0.6409514 -0.28111154 0.71425307 0.084072553
0.233064 -0.024228951 -0.36156929 -0.45869556 -0.32468021 0.82715243 0.072515279
0.24543747 -0.025039343 -0.36190501 0.020860575 -0.35109696 0.93610668 0.096677288
0.25496021 -0.025388395 -0.36204955 0.36666977 -0.3453505 0.86387867 0.07319393
0.26158196 -0.025829613 -0.36449081 0.61625564 -0.26196057 0.74270159 0.076863997
-0.013777279 -0.014940679 -0.36495703 -0.80111766 -0.36030591 0.47790185 0.078745447
0.064018168 -0.015902231 -0.36365432 0.86395139 -0.3045021 0.40108159 0.095720202
0.22787641 -0.014674237 -0.36437124 -0.7598545 -0.20594396 0.61661023 0.081564844
0.26163584 -0.014787996 -0.36615431 -0.84467155 0.10877172 -0.52411711 0.084740944
-0.016052313 -0.0062849983 -0.36496055 -0.90768701 -0.14999755 0.39192462 0.083414249
0.066900782 -0.0046954495 -0.36589375 0.88388944 -0.10716002 0.45525408 0.078321651
0.22787638 -0.0053001614 -0.36364913 -0.77257133 -0.078847341 0.63001323 0.089644089
0.26163587 -0.0047178795 -0.36450607 0.77406466 -0.068663038 0.62937224 0.092038661
-0.016159767 0.0054687695 -0.36540636 -0.89370292 0.11265378 0.43428582 0.094026022
0.066734374 0.0059594405 -0.36363226 0.89586574 0.13884428 0.42207456 0.077130876
0.22787641 0.0057295896 -0.36536655 -0.72861928 0.048584223 0.68319362 0.09095522
0.26163584 0.0031873425 -0.36443901 0.76773745 0.05216372 0.63863772 0.093419574
-0.013646454 0.015256446 -0.36324143 -0.84387571 0.39014581 0.36832058 0.085287765
0.064911418 0.013745752 -0.36509696 0.86888164 0.25949273 0.4215546 0.07651148
0.22787641 0.014352836 -0.36563274 -0.72961652 0.2034246 0.65289992 0.089719668
0.26163587 0.014363234 -0.36379912 0.73632115 0.16311577 0.65667677 0.087141253
-0.010757651 0.021584162 -0.36325559 -0.79437613 0.49148634 0.3569423 0.08672341
-0.0073609538 0.026136842 -0.36382589 -0.71185976 0.59427434 0.37429076 0.093508922
0.057282273 0.027068933 -0.36544374 0.64529508 0.61361241 0.45505393 0.10271702
0.061282162 0.021859631 -0.36384204 0.77496278 0.45233092 0.44139469 0.09992063
0.22823778 0.024788985 -0.36498553 -0.5328114 0.32740065 0.78033376 0.071352348
0.2349458 0.024174159 -0.36154658 -0.35495839 0.3419289 0.87010866 0.070962913
0.24479254 0.024666158 -0.36175042 0.10662532 0.32726803 0.93889654 0.10096632
0.25550041 0.025315735 -0.36201945 0.34405968 0.3275564 0.87996006 0.091785505
0.26157868 0.024684709 -0.36421686 0.64402562 0.27628312 0.71337134 0.086383082
-0.0018764022 0.031867836 -0.36526716 -0.47383994 0.73309356 0.48790333 0.074539766
0.0048904549 0.036382739 -0.36625707 -0.39490896 0.82138968 0.41154101 0.065586157
0.011088225 0.039390653 -0.36103073 -0.2903493 0.9286505 0.23087993 0.051880006
0.039726757 0.039317839 -0.36684299 0.2486731 0.8811208 0.40222859 0.051689349
0.044640288 0.037084732 -0.36512297 0.33360112 0.85666376 0.39349413 0.053040341
0.053286824 0.031276058 -0.36661014 0.54610342 0.6802085 0.48896578 0.086855114
0.22811407 0.035448078 -0.36805785 -0.61786288 0.42883861 0.65904701 0.075094633
0.23480473 0.033182032 -0.36537421 -0.34759477 0.43188885 0.83225584 0.067867227
0.24532032 0.035578944 -0.36668649 -0.041390944 0.49917629 0.8655113 0.088649184
0.25482976 0.035970654 -0.36690292 0.2774851 0.4682934 0.83887017 0.0929446
0.26083034 0.036122359 -0.36847097 0.66273522 0.38278332 0.64362955 0.090306856
0.01566115 0.040927794 -0.36425224 -0.21682894 0.93517536 0.28005767 0.04855055
0.025239278 0.041955031 -0.36571464 -0.053470939 0.95794928 0.28191128 0.030817093
0.03364224 0.041068193 -0.36419138 0.1932331 0.93836975 0.28657144 0.04755421
0.2450957 0.04010009 -0.36965927 -0.043187778 0.55967617 0.82758528 0.07908769
0.25519428 0.04043806 -0.36991858 0.47287303 0.49045178 0.7320165 0.10420633
0.016256768 -0.041006211 -0.35444027 -0.15339603 -0.97263938 0.17447707 0.02918206
0.024779571 -0.04183415 -0.35367122 0.031510554 0.99318647 -0.1121954 0.029925518
0.0346932 -0.040894806 -0.35477543 -0.21946423 0.96887141 -0.11455824 0.035918362
-0.0014962123 -0.032159563 -0.35301191 -0.63321948 -0.76611477 0.1100058 0.032735813
0.0039270851 -0.035978019 -0.35420206 -0.55753452 -0.81585503 0.1534135 0.045241609
0.012280661 -0.039884582 -0.35453558 -0.24792534 -0.9517709 0.18073504 0.03703028
0.039114803 -0.03957133 -0.35407364 0.30230129 -0.94278741 0.14059068 0.040274497
0.045919653 -0.036314916 -0.3564342 0.52422327 -0.82047492 0.22805901 0.05503431
0.052200012 -0.032109998 -0.35531735 0.59499115 -0.78153205 0.18759884 0.045309618
-0.011119119 -0.021239089 -0.35198715 -0.84873873 -0.51581925 0.11650319 0.03186753
-0.0092912856 -0.023621175 -0.35262862 -0.81094128 -0.58141738 0.065788113 0.032295544
0.057765171 -0.026443081 -0.35397908 -0.71935159 0.69215482 -0.058779456 0.029077439
0.061626162 -0.021400491 -0.35389653 -0.86276722 0.47899708 -0.161847 0.053651858
-0.013701594 -0.0150783 -0.35525301 -0.9204123 -0.3548871 0.16400109 0.039112858
0.0649058 -0.013759291 -0.35504213 0.93714952 -0.29325897 0.18907662 0.056039829
0.22787641 -0.010015064 -0.35985768 -0.71899009 -0.11484977 0.68546546 0.077337049
0.23506691 -0.015860209 -0.35893559 -0.37016675 -0.22549322 0.90118223 0.097258821
0.24504121 -0.016296137 -0.35897356 -0.0093673132 -0.25216621 0.96763861 0.06558641
0.25580844 -0.016658057 -0.35898992 0.43241149 -0.2520557 0.86572987 0.10897853
0.26132077 -0.012087726 -0.35841602 0.73986733 -0.1508541 0.65562135 0.079863019
-0.016041026 -0.0063707186 -0.35701758 -0.95745683 -0.1603027 0.23995745 0.057751197
0.066884458 -0.0048193876 -0.35359684 -0.99219531 0.065758921 -0.10594449 0.032919053
0.22787641 -0.0051189638 -0.358374 -0.7520476 -0.058595594 0.65649897 0.1022606
0.23829633 -0.0041926694 -0.35732269 -0.16162239 -0.077199541 0.98382843 0.07255742
0.2456978 -0.0053789611 -0.35747886 -0.016359786 -0.093923628 0.99544501 0.078828476
0.25350162 -0.005797239 -0.3575339 0.25746882 -0.092699155 0.96182984 0.081543826
0.26163587 -0.0039521838 -0.35927022 0.64927787 -0.055177491 0.75854713 0.089468889
-0.016299114 0.0044103242 -0.35515636 -0.98736757 0.050391704 0.15021954 0.030621419
0.066867299 0.004949728 -0.35465482 -0.98792183 -0.11948243 -0.098663352 0.03571343
0.22861786 0.0047882618 -0.35781837 -0.6638369 0.10284186 0.7407726 0.095446795
0.23501173 0.0055495901 -0.3575013 -0.22046164 0.050714746 0.97407627 0.066096358
0.24415462 0.0029139465 -0.35715434 -0.015128907 0.038579572 0.99914098 0.076224938
0.25478393 0.0056291623 -0.35751179 0.31748533 0.085009351 0.94444501 0.1056104
0.2612758 0.0051162411 -0.35806197 0.71673691 0.067722894 0.69404727 0.10550184
-0.013395214 0.015767096 -0.3543396 -0.91446435 0.3615469 0.18176584 0.039496936
0.06407021 0.015776625 -0.35371748 -0.91808593 -0.37994799 -0.11294983 0.038750712
0.22787641 0.012701578 -0.35906395 -0.65473193 0.18778148 0.73216408 0.080047935
0.23561819 0.015738402 -0.35890025 -0.28248376 0.20982057 0.93604386 0.070383005
0.24399813 0.014864197 -0.35872757 -0.0098331226 0.19840324 0.98007119 0.067457937
0.25476304 0.01502342 -0.35874853 0.31395477 0.19107758 0.93001169 0.090869434
0.26133716 0.016736597 -0.35897407 0.66378349 0.18854637 0.72376913 0.092885822
-0.011375741 0.020738406 -0.35164881 -0.85063398 0.51222539 0.11851956 0.037889577
-0.0074328217 0.026043184 -0.35366869 -0.74345732 0.66456813 0.074968584 0.030874699
0.057279889 0.027049428 -0.35415196 -0.6913321 -0.71395314 -0.11104432 0.037497673
0.060453847 0.022939116 -0.35264856 -0.81487888 -0.57337999 -0.084898382 0.037165917
0.2461997 0.020072594 -0.35984761 0.049796909 0.2627748 0.96357131 0.085011706
0.25361535 0.020002101 -0.35981843 0.28023502 0.26663014 0.92215878 0.08949884
-0.0023793108 0.03148194 -0.35519731 -0.63974541 0.75286418 0.15466559 0.03990842
0.0039097448 0.03587462 -0.35595864 -0.56762618 0.80404329 0.17696002 0.041718245
0.010717128 0.039236937 -0.35177198 -0.35867482 0.92880702 0.09311264 0.030822419
0.03895833 0.039636139 -0.35350403 -0.31919363 -0.942734 -0.096788846 0.03440294
0.04402956 0.037345119 -0.35411012 -0.46380353 -0.87677538 -0.12708768 0.032365147
0.053008068 0.031489957 -0.35423207 -0.65513563 -0.74451733 -0.12841822 0.032222815
0.017678043 0.041193318 -0.35696739 -0.13349956 0.98235661 0.13097072 0.03570383
0.02667723 0.041943349 -0.35475388 0.041616593 0.99160433 0.12242885 0.028817873
0.034537029 0.04092082 -0.35482761 -0.29432309 -0.95139802 -0.090640858 0.030069849
0.015298209 -0.040813804 -0.34509569 0.20868793 0.9779821 0.00052629749 0.017041635
0.026027188 -0.041860133 -0.34402558 -0.026526919 0.99963999 -0.0040081451 0.017134951
0.032416962 -0.041203301 -0.34524617 -0.17094117 0.98528075 -0.0009702362 0.014456208
-0.0011461703 -0.03242816 -0.34493884 0.59483552 0.80373257 0.013587176 0.015295055
0.0060558892 -0.037248805 -0.34378961 0.46950004 0.88292086 -0.0045215003 0.018315993
0.011724204 -0.039654087 -0.34690988 0.32622948 0.9452616 0.0074091079 0.020472525
0.038985863 -0.039624732 -0.34613776 -0.31606743 0.94871503 0.006412907 0.01949748
0.044205919 -0.037247263 -0.34501085 -0.45000848 0.89301914 -0.003045927 0.019973274
0.052086178 -0.032197341 -0.3456049 -0.61939186 0.78507721 -0.0027367382 0.011819062
-0.0056901686 -0.028314263 -0.34499326 0.72132838 0.69255978 0.0068113743 0.016675135
0.057101421 -0.027308103 -0.34541121 -0.72075403 0.69318879 0.0016959447 0.019829784
0.061117314 -0.022074472 -0.34268755 -0.84174716 0.53986281 0.0031509269 0.020535996
-0.013516487 -0.015523199 -0.3446506 0.90060651 0.43463251 0.0015841689 0.015353348
0.064113177 -0.015672853 -0.34591225 -0.91011572 0.41435412 -0.00037626855 0.016527204
-0.016289569 -0.0044828109 -0.34736979 0.99654496 0.081179842 -0.017548576 0.015486682
0.066743307 -0.0058915764 -0.34534636 -0.99414569 0.10281266 -0.033226371 0.01630993
-0.016211249 0.0050777276 -0.3451038 0.99155003 -0.12929082 -0.010609522 0.0172233
0.066830687 0.0052278615 -0.34528548 -0.99615198 -0.084020637 -0.024936762 0.016407916
-0.0138301 0.014813086 -0.34436232 0.91660851 -0.39894009 0.025992226 0.014829054
0.064586677 0.014529778 -0.34341833 -0.94124407 -0.33755571 0.01076412 0.0089555765
-0.010902243 0.021521728 -0.34375238 0.84665102 -0.53207821 0.0086557241 0.019918088
-0.0070433496 0.026550749 -0.34534714 0.74066448 -0.67187208 -0.0020379329 0.017395113
0.056665447 0.027863672 -0.34384438 -0.72099209 -0.69293708 0.0029395926 0.017584972
0.060916703 0.022335913 -0.34546033 -0.85984468 -0.51055568 -1.713239e-05 0.020917479
-0.002305866 0.031538296 -0.34313536 0.65420759 -0.75604612 0.020167535 0.014758307
0.0046554422 0.036389999 -0.34474018 0.5053395 -0.8624239 0.029275043 0.017554931
0.044671316 0.037117988 -0.34546801 -0.46677995 -0.88434505 0.0070943944 0.015622853
0.052568696 0.031827096 -0.34551731 -0.62009352 -0.78451389 0.0046897274 0.010363017
0.017279228 0.041131239 -0.34548202 0.16652057 -0.98590529 0.016177773 0.018714326
0.02421038 0.041869067 -0.34534314 0.04205874 -0.99906516 0.0099920593 0.011628633
0.033306371 0.04105448 -0.34495091 -0.19526865 -0.9807238 0.0071412204 0.019287996
0.01591824 -0.040957585 -0.33708811 0.20256138 0.97926867 0.0013101044 0.017392172
0.024864782 -0.041971248 -0.33542269 0.035439026 0.99936032 -0.0048139999 0.017653465
0.034054838 -0.041044455 -0.33715314 -0.19844019 0.98005557 -0.010605786 0.016125422
-0.0018197275 -0.031911325 -0.33724916 0.65637004 0.75435001 -0.011596455 0.013844413
0.00367835 -0.035727061 -0.33542287 0.54941958 0.83547473 -0.010962979 0.015638676
0.011841469 -0.039702665 -0.33226702 0.31984022 0.94746464 -0.0035930327 0.019139092
0.039337225 -0.039479196 -0.33445722 -0.36930001 0.92929989 -0.004386649 0.019911066
0.045559864 -0.036623154 -0.33495897 -0.52740979 0.8496024 0.003833316 0.013643084
0.052470393 -0.031902526 -0.3358759 -0.60273874 0.79792362 0.0048957122 0.013469911
-0.011119129 -0.021239078 -0.33298695 0.84959084 0.52734578 0.010090231 0.018726215
-0.0077691018 -0.025604934 -0.33508259 0.74989349 0.6613006 -0.018474191 0.015397232
0.057132915 -0.027267056 -0.33468196 -0.72942799 0.68400466 0.0085131619 0.015429921
0.061593406 -0.021372806 -0.33530104 -0.86276567 0.50530833 -0.017289523 0.019702911
-0.013347153 -0.015979083 -0.33438024 0.92483133 0.37981948 -0.020595899 0.017553819
0.064100794 -0.015702719 -0.33498412 -0.91892815 0.39442489 0.00029998319 0.013181618
-0.016094914 -0.0059613935 -0.33579737 0.99121976 0.13191374 0.0090602897 0.020081023
0.06706509 -0.0034473387 -0.33493176 -0.99701941 0.073709808 0.02278498 0.01665288
-0.016350266 0.0040217866 -0.3362371 0.99250871 -0.12178513 -0.0097420244 0.012718713
0.066879444 0.0048574884 -0.333516 -0.99346316 -0.11115105 0.026009124 0.018504189
-0.014354848 0.01348175 -0.33330005 0.95888531 -0.28345513 -0.013861461 0.016999343
0.063887849 0.016216928 -0.33113265 -0.90563983 -0.42403919 0.0027118151 0.014945357
-0.010549092 0.021981968 -0.33554655 0.85534263 -0.51757801 -0.022406574 0.019593906
-0.0073662442 0.026129944 -0.33539122 0.7428984 -0.66931456 -0.010952795 0.016475806
0.057621479 0.026630344 -0.33420333 -0.73655146 -0.67624736 -0.013470129 0.018846789
0.060891036 0.022369362 -0.33792943 -0.85151345 -0.52428639 -0.0069710286 0.018878622
-0.002342382 0.031510279 -0.33298504 0.63141835 -0.77530217 0.014741225 0.011650552
0.005374583 0.036859658 -0.33327201 0.48439419 -0.87484843 -0.0016009008 0.013797744
0.010730617 0.039242528 -0.33289605 0.36294976 -0.93175495 0.010009545 0.020744897
0.038528305 0.03981426 -0.33384907 -0.32705706 -0.94497138 -0.0079173055 0.020683963
0.044289619 0.037334267 -0.33492509 -0.45559457 -0.88968873 0.029792288 0.017213048
0.053090487 0.031426713 -0.33469337 -0.66191429 -0.74954188 0.0075137513 0.013553099
0.016218051 0.040971074 -0.33590055 0.22966136 -0.97325253 -0.0059220805 0.019161029
0.024730049 0.041922774 -0.3334465 0.062702261 -0.99802142 0.0046677021 0.01299081
0.034013472 0.040942576 -0.33352339 -0.20481549 -0.97859502 0.020062272 0.019388584
0.015800357 -0.040785577 -0.32254809 0.20501141 0.97873002 0.0076027573 0.019709872
0.024829878 -0.041958205 -0.32435417 -0.010025003 0.99985158 -0.014011298 0.016859993
0.034891356 -0.040764559 -0.32512736 -0.25344259 0.96706039 -0.023686582 0.016614622
-0.0020755758 -0.031715006 -0.32481307 0.6089099 0.79301876 -0.018707579 0.012640086
0.0046718074 -0.036493812 -0.32525763 0.55788988 0.82991105 -0.0025478771 0.014917473
0.010721914 -0.039238922 -0.32405072 0.35867071 0.93324786 0.020092307 0.017303735
0.038670979 -0.039755162 -0.32358912 -0.31350738 0.94952327 -0.01090012 0.021581786
0.0450713 -0.036881085 -0.32405987 -0.46370569 0.88598329 -0.0032528441 0.017436424
0.051864427 -0.032367498 -0.32491085 -0.61353558 0.78953093 0.014666309 0.011658739
-0.0077712419 -0.025602145 -0.32398471 0.75563025 0.65499723 0.0012083888 0.014891158
0.058706462 -0.025216363 -0.32495248 -0.77788067 0.62838119 0.0062298574 0.014744416
0.061337493 -0.021560095 -0.32866389 -0.8483997 0.52910823 -0.01619995 0.021465635
-0.014145762 -0.014049257 -0.32545874 0.93670356 0.34999657 0.0094234524 0.020233402
0.063864574 -0.016189748 -0.32473147 -0.89444518 0.44687736 0.01638332 0.015071507
-0.016368533 -0.0038830217 -0.32464647 0.99757385 0.069398642 0.0055027693 0.015073841
0.066764601 -0.0057298057 -0.32500803 -0.99362445 0.11263886 0.0047906181 0.013390317
-0.016347375 0.0040437318 -0.32463336 0.99557996 -0.093318202 0.010599993 0.013910405
0.067003675 0.003913844 -0.32487473 -0.99696708 -0.077821426 -0.00063165056 0.016117826
-0.014055727 0.014205473 -0.32410219 0.94589436 -0.32443246 0.0052354289 0.012335978
0.063848943 0.016310817 -0.32440197 -0.91374165 -0.40548894 -0.025591277 0.012246079
-0.010994723 0.021286007 -0.32337624 0.84094632 -0.54111075 0.0029249075 0.018132361
-0.0065515381 0.02718978 -0.32476002 0.73374748 -0.67940366 0.0050270404 0.017010156
0.05711754 0.027287096 -0.32359141 -0.72273684 -0.69108105 0.0076430067 0.016784502
0.061115611 0.02204046 -0.32803831 -0.83602172 -0.54855818 -0.012316417 0.018842883
-0.0010264728 0.032520004 -0.32436591 0.58520722 -0.81011647 0.035268474 0.014125173
0.0062217144 0.037248995 -0.32730061 0.44517982 -0.89541161 0.0072803027 0.015899533
0.011201552 0.039437596 -0.32465032 0.32146227 -0.94685698 0.011124897 0.02127374
0.039264325 0.039509386 -0.32404 -0.32082409 -0.94658625 0.032348871 0.01773723
0.044886343 0.036989767 -0.32510751 -0.49676117 -0.86785561 0.0074177631 0.016444664
0.051484924 0.0326587 -0.32276854 -0.5921455 -0.8058266 -0.002690796 0.013736057
0.015926115 0.040940136 -0.32383752 0.21599473 -0.97639328 0.0016052064 0.020850819
0.025789944 0.041768719 -0.32444692 0.0050944849 -0.99995244 0.0083158733 0.014311522
0.034585033 0.040920261 -0.32553387 -0.22534348 -0.97426885 -0.0045337873 0.018854817
0.016806809 -0.04101884 -0.315341 0.19686028 0.98037219 0.010792899 0.019444643
0.024412593 -0.041821748 -0.31637794 0.040508285 0.99916369 0.0055714725 0.017791023
0.033389974 -0.041114006 -0.31406996 -0.18558758 0.98257267 0.010398413 0.017343199
-0.0018767298 -0.031867586 -0.31507969 0.62564433 0.78007919 -0.006751202 0.01116465
0.005020109 -0.036633547 -0.31545258 0.48804674 0.87281704 -0.00088058319 0.015708156
0.011127714 -0.039407015 -0.31745544 0.35324731 0.93552488 -0.0030939386 0.01722791
0.044664495 -0.037097663 -0.31662002 -0.48465922 0.87460643 0.013001094 0.019226968
0.051458299 -0.032679129 -0.31486592 -0.58490998 0.81109619 0.0018321093 0.014415936
-0.011023764 -0.021224955 -0.31353074 0.85855359 0.51175666 0.031478189 0.015714217
-0.0071635507 -0.026394103 -0.31416041 0.7385332 0.674151 0.009436409 0.01835705
0.0579983 -0.026139256 -0.31502631 -0.73774773 0.67482877 -0.018286463 0.018172134
0.060301259 -0.023137977 -0.31446537 -0.8448568 0.53462332 0.019867996 0.017670069
-0.013613223 -0.015318397 -0.31526378 0.90766388 0.41969776 -1.980743e-05 0.015063196
0.064218156 -0.015395329 -0.3155176 -0.92895436 0.37013924 -0.0063807033 0.017570566
-0.01623223 -0.0049183578 -0.31515414 0.99457681 0.10351332 0.010099794 0.014143213
0.066804208 -0.0054289633 -0.31460077 -0.99166065 0.12887011 -0.001304856 0.013960989
-0.016292615 0.0044596735 -0.31488267 0.99599284 -0.088917844 0.0095858704 0.015909649
0.0669761 0.0041233175 -0.3150939 -0.99658722 -0.079258926 0.023065543 0.017007455
-0.013365815 0.015913485 -0.31534347 0.90060878 -0.43429703 -0.017031258 0.013438763
0.065428793 0.012480148 -0.31405151 -0.96123183 -0.27568269 -0.0056898752 0.015408642
-0.011148711 0.021200527 -0.31461504 0.85897142 -0.51198602 0.0061906306 0.018397212
-0.0072002495 0.026346276 -0.3157337 0.72662419 -0.68687302 -0.01492532 0.015614688
0.057579447 0.026668157 -0.31502205 -0.72968125 -0.68376511 -0.0055303168 0.016938303
0.061324179 0.021637578 -0.31324396 -0.85223085 -0.52313215 0.0059407619 0.019167565
-0.0025972058 0.031314746 -0.31326085 0.65844202 -0.75262886 -0.0019523429 0.013698909
0.0051988885 0.036757119 -0.31572193 0.47111267 -0.88207191 -0.0014165399 0.017945819
0.011128744 0.039407436 -0.31356519 0.32401025 -0.94599706 0.010337543 0.01882478
0.038626213 0.039773703 -0.31439215 -0.31667405 -0.94835746 0.01832287 0.021346044
0.043496873 0.037711456 -0.31411532 -0.40807229 -0.91262025 0.024520479 0.016004093
0.053188134 0.031351786 -0.31665215 -0.63518643 -0.77234507 -0.0046088789 0.0096110301
0.015905259 0.040959932 -0.31729639 0.22659823 -0.97391987 -0.011552588 0.017632667
0.024832383 0.04183647 -0.31414494 0.032369118 -0.99929851 0.018834757 0.015597218
0.03456074 0.040845919 -0.31437403 -0.21579093 -0.97620183 0.021545647 0.01954258
0.015809158 -0.040852699 -0.30421856 0.22801349 0.97365779 -0.00063292566 0.019234948
0.025764527 -0.041903719 -0.3042002 -0.073744349 0.99726069 0.0057343687 0.014835699
0.034770828 -0.040866148 -0.30600634 -0.23710835 0.97147238 -0.0045847846 0.016106343
-0.0027280895 -0.031214317 -0.30363721 0.63652021 0.77125895 0.0012810508 0.008662709
0.0034494388 -0.03576652 -0.30514425 0.54915577 0.83562523 -0.012585254 0.015036079
0.010819777 -0.039279461 -0.30232009 0.34543982 0.93836504 -0.011933961 0.017793462
0.045023005 -0.036826551 -0.3060016 -0.47918656 0.87769127 -0.0061956407 0.016167819
0.053064346 -0.03144677 -0.30678093 -0.61889833 0.78528357 -0.017166847 0.010051084
-0.010876156 -0.021473125 -0.30420911 0.8834402 0.46854335 0.00079286669 0.019756377
-0.0069026514 -0.026734117 -0.30546147 0.72313046 0.69070756 -0.0023067335 0.016917206
0.056759451 -0.02774339 -0.30440429 -0.72143728 0.69237256 0.012179341 0.018246179
0.061943572 -0.020885892 -0.30706525 -0.86963356 0.4936026 -0.0096972231 0.016239624
-0.013601025 -0.015366186 -0.30424082 0.92976481 0.36806682 -0.0080089113 0.016193824
0.064235926 -0.015376491 -0.30462924 -0.93324941 0.35832891 0.025414525 0.01478837
-0.016337758 -0.0041167838 -0.30401057 0.99521023 0.096700512 0.014340208 0.01489745
0.066995725 -0.0039742128 -0.30605316 -0.99538803 0.095866039 -0.0035149558 0.015106091
-0.01595916 0.0069925608 -0.3020708 0.98348689 -0.18094824 0.0033540775 0.021550138
0.06668435 0.006339387 -0.30335948 -0.99004865 -0.14057834 -0.0064384667 0.01796685
-0.014400894 0.01342128 -0.30503592 0.94858754 -0.31522387 -0.028560575 0.013953012
0.064399362 0.014868054 -0.30744171 -0.9219625 -0.38724282 0.0053050644 0.012544076
-0.011210182 0.021103788 -0.30067995 0.85451299 -0.51924902 0.013713226 0.015269971
-0.0065375972 0.027195863 -0.30686855 0.7248466 -0.68858665 -0.021116616 0.015476077
0.056357466 0.028272554 -0.30350304 -0.71271706 -0.70100158 0.025122095 0.016090533
0.060657132 0.022632385 -0.30363327 -0.82589197 -0.5637303 0.010510363 0.020760179
-0.0021636537 0.031647418 -0.30314687 0.67457771 -0.7382015 0.0018106471 0.011098038
0.0055573988 0.036861058 -0.30636194 0.49639702 -0.86808318 -0.0046504349 0.015075002
0.010746986 0.039249308 -0.30315331 0.31277609 -0.94978791 -0.0085951919 0.018184213
0.038615309 0.039778218 -0.30378106 -0.29675445 -0.95484066 0.014704336 0.019419903
0.046113733 0.036338635 -0.30663243 -0.52987796 -0.84806859 0.0030151443 0.010134357
0.052701991 0.031724814 -0.30455181 -0.63614529 -0.77153265 0.007516121 0.01533185
0.015645262 0.04084358 -0.30360907 0.22130145 -0.9750461 0.017628379 0.016300555
0.027646195 0.041893039 -0.30493626 -0.060955912 -0.99813831 -0.0020746165 0.012121168
0.031069277 0.041442387 -0.30578548 -0.11724287 -0.9930675 -0.008426656 0.016910154
0.015674714 -0.040864039 -0.29498571 0.22959213 0.9731108 -0.018516874 0.018028229
0.026065053 -0.04197387 -0.2951223 4.1043553e-05 0.99992418 -0.012317004 0.015156924
0.033977412 -0.041050259 -0.29486293 -0.21160153 0.97728401 0.011869087 0.015553985
-0.0016655516 -0.032029629 -0.29472473 0.60531348 0.79594946 0.0077517368 0.013161927
0.0034161676 -0.035602946 -0.29446965 0.57124746 0.8206225 0.015970737 0.013946675
0.01207521 -0.039799482 -0.29727048 0.28811455 0.95755142 -0.0092323022 0.01614785
0.039714769 -0.039322812 -0.29580456 -0.32708132 0.94493657 -0.01061187 0.020602053
0.044360217 -0.037280802 -0.29338062 -0.47666135 0.87889725 0.01826461 0.019969853
0.052572172 -0.031824429 -0.2964603 -0.60625637 0.795268 0.0013916092 0.012322143
-0.011295813 -0.020681186 -0.29246661 0.88534188 0.46487197 0.0079936106 0.016791241
-0.0066979369 -0.027000908 -0.29450831 0.72769368 0.68579066 0.012371216 0.016828002
0.057128537 -0.027272761 -0.29662669 -0.74306643 0.66910297 -0.012392228 0.01809575
0.061435428 -0.021512056 -0.29738855 -0.8601253 0.51008266 -0.00027038244 0.020209312
-0.013291721 -0.016112898 -0.29402035 0.916978 0.39790508 0.028686436 0.013045404
0.064111158 -0.015614993 -0.2951251 -0.92638487 0.37632036 -0.013934625 0.019197287
-0.016404236 -0.0036118294 -0.29696807 0.99396843 0.1092314 -0.0097598433 0.014118362
0.066858292 -0.0050181863 -0.29712352 -0.99482542 0.10088669 -0.01200978 0.015212634
-0.01619675 0.0051878523 -0.29443622 0.99691224 -0.075505078 0.021560561 0.014921363
0.066686675 0.0063217473 -0.29486278 -0.98839885 -0.15157181 -0.0096815545 0.020942403
-0.013598658 0.015306666 -0.29500115 0.91351366 -0.40675673 -0.0064713107 0.0128212
0.064696647 0.014257091 -0.29348502 -0.93582588 -0.35237047 0.0080506476 0.019330384
-0.0064755767 0.027290694 -0.29552647 0.72271121 -0.69074327 -0.023710327 0.015326045
0.058068249 0.026048098 -0.29397196 -0.72876298 -0.68476021 -0.0028048465 0.014948413
0.06165868 0.021212839 -0.29480538 -0.87063563 -0.49192622 -0.0014321682 0.019279705
-0.0012491526 0.032349139 -0.29738787 0.64187175 -0.76679724 -0.0047484683 0.014628231
0.0042262026 0.036078297 -0.29663739 0.50851697 -0.86105144 0.00098210876 0.016497564
0.012259129 0.03987566 -0.29326463 0.24637899 -0.96914768 0.0070839752 0.015964564
0.039546192 0.039392635 -0.29711002 -0.33750531 -0.94122076 -0.013916339 0.020322068
0.045037642 0.036785576 -0.29494101 -0.48557147 -0.87418157 -0.0051864926 0.016803069
0.052138045 0.03215754 -0.29492217 -0.62770844 -0.77838773 -0.0097268494 0.016160196
0.015346845 0.040757336 -0.29652256 0.21415445 -0.97660571 -0.019471839 0.017378958
0.026784178 0.041936755 -0.29344654 -0.040528577 -0.99910349 0.0122276 0.018589083
0.034563627 0.040937029 -0.29468274 -0.23870908 -0.97101688 -0.012010048 0.01704357
0.016329724 -0.041015819 -0.28604409 0.22767106 0.97369349 0.0093263714 0.019181265
0.025222758 -0.041864876 -0.28606322 0.0078649782 0.99995601 0.0051133735 0.018134484
0.035416074 -0.040706489 -0.28486851 -0.23190896 0.97273475 -0.0023105098 0.017567877
-0.0017949681 -0.031930324 -0.28503788 0.62676632 0.77917314 0.0072947792 0.010810065
0.0085740713 -0.038349256 -0.28403485 0.41344273 0.91036123 0.017538793 0.017675973
0.011873998 -0.039716136 -0.28826028 0.29550883 0.95532763 0.0048512062 0.01943909
0.038423937 -0.039857492 -0.28901255 -0.30740169 0.95145363 0.015496535 0.017245585
0.046280019 -0.036179516 -0.2853108 -0.55629182 0.830576 0.026132558 0.014107198
0.052832723 -0.031624507 -0.28482896 -0.6227923 0.78224504 0.014915776 0.01083862
-0.010945746 -0.021394117 -0.28682828 0.85892004 0.5117541 -0.019083539 0.018991858
-0.0070521319 -0.026539311 -0.28435791 0.72844857 0.68493927 -0.014861943 0.016606789
0.058207519 -0.025866596 -0.28547862 -0.75173908 0.65946007 -0.00084753952 0.013876307
0.061132323 -0.021855544 -0.28491074 -0.83186477 0.55482131 -0.013201834 0.022162467
-0.014023568 -0.014346064 -0.28526846 0.94126225 0.33681932 0.024045642 0.015258571
0.063641019 -0.016812734 -0.28505042 -0.90069932 0.43384314 0.022820989 0.017652845
-0.016159616 -0.0054699155 -0.28245789 0.99412656 0.10741765 0.013184741 0.013554005
0.067015767 -0.0038220056 -0.28517345 -0.996023 0.088018171 -0.013817107 0.014407901
-0.016247464 0.0048026531 -0.28594375 0.99722332 -0.072096132 -0.018648993 0.015513953
0.066754073 0.0058097378 -0.28529102 -0.99273258 -0.11929791 -0.015813496 0.017445954
-0.013760814 0.014938582 -0.28543189 0.92469484 -0.38059726 0.0092250146 0.017736895
0.064579435 0.014547246 -0.28385842 -0.91570288 -0.40148893 0.017172564 0.013220957
