# .PCD v0.7 - Point Cloud Data file format
VERSION 0.7
FIELDS x y z normal_x normal_y normal_z curvature
SIZE 4 4 4 4 4 4 4
TYPE F F F F F F F
COUNT 1 1 1 1 1 1 1
WIDTH 581
HEIGHT 1
VIEWPOINT 0 0 0 1 0 0 0
POINTS 581
DATA ascii
-0.024889175 -0.087498844 0.43432102 0.00095012906 -0.93981451 -0.3416838 0.075767308
-0.015277714 -0.087498844 0.43454918 0.011586733 -0.94850719 -0.31654379 0.064603172
-0.0041516908 -0.087498836 0.43554533 -0.037453115 -0.97396332 -0.22359034 0.056846943
0.0041412795 -0.087498829 0.43554783 -0.035899911 -0.97001666 -0.24037252 0.054177202
0.014699476 -0.087498829 0.43663895 0.045096021 0.98946977 0.1375352 0.023574049
0.024612835 -0.087498844 0.432145 -0.074445613 -0.95647728 -0.2821506 0.056841806
0.035493951 -0.087498836 0.43326372 0.035998356 0.98727185 0.15491422 0.021822082
0.048165988 -0.087498844 0.43743598 0.0021814858 0.99488837 0.10095809 0.02190813
0.054505147 -0.087498844 0.43573421 0.0091960365 0.99391407 0.10977378 0.014504307
0.066737913 -0.087498836 0.43411711 0.0081087863 0.98861879 0.15022419 0.023053417
0.075613059 -0.087498836 0.43576136 -0.016302276 0.99978638 0.012704302 0.030503938
0.083808564 -0.087498836 0.43393132 0.024013197 0.99899191 0.037928298 0.033083238
0.093723774 -0.087498829 0.43644315 -0.019875495 0.99064595 -0.13500258 0.025489878
0.10545003 -0.087498836 0.43839124 -0.10946991 0.95283723 -0.2830506 0.059189823
0.11421666 -0.087498836 0.4337582 -0.072851062 0.97486985 -0.21052691 0.046266694
0.1214617 -0.087498836 0.43630296 -0.095754556 0.92116255 -0.3772144 0.065968715
0.13617341 -0.087498844 0.43646955 -0.064120293 0.91462302 -0.39919078 0.072853647
0.14347784 -0.087498829 0.43418258 -0.16824719 0.89642996 -0.41000748 0.071151681
0.1557391 -0.087498836 0.43458945 -0.12262863 0.84677577 -0.51762247 0.067610316
0.16390094 -0.08504647 0.43693852 -0.25478223 0.67177421 -0.69556117 0.075880773
0.17318887 -0.081590027 0.435103 -0.25239274 0.57912064 -0.77518851 0.090790741
0.18382166 -0.085123651 0.43061125 -0.24107771 0.67889309 -0.69353139 0.088180393
-0.40903267 -0.075624786 0.43429399 0.91281021 0.36404458 -0.18506514 0.040033914
-0.35373655 -0.076728702 0.43478721 -0.53445441 0.78237009 -0.31977436 0.0035036672
-0.34906745 -0.072783001 0.4366557 -0.52946293 0.75684112 -0.3832238 0.004594693
-0.12867749 -0.070364177 0.43029732 0.068312116 0.91882354 -0.38871163 0.19360138
-0.11429376 -0.076353379 0.43550682 0.73644638 0.67005861 -0.093103454 0.096182317
-0.076865122 -0.074161939 0.43450928 -0.9085443 -0.039093807 -0.41595548 0.21915871
0.16343342 -0.074240714 0.43845308 -0.25661147 0.38249165 -0.88760954 0.064308643
0.17459382 -0.074037321 0.43462047 -0.30752689 0.29886258 -0.90338719 0.049394596
0.18332788 -0.076645695 0.43157187 -0.27882841 0.41487664 -0.86610162 0.062400304
-0.40903264 -0.064255796 0.43461174 0.98527133 0.14218767 -0.094989508 0.017031737
-0.3428598 -0.06938991 0.43507302 -0.50829321 0.76745367 -0.39070827 0.0052543795
-0.33387423 -0.063798405 0.4348084 -0.47653332 0.76479834 -0.43358916 0.0031160186
-0.18390258 -0.062280636 0.4334465 0.21857496 0.85318488 -0.47360381 0.0050221076
-0.174541 -0.06392213 0.43431696 0.18091623 0.8716737 -0.45547149 0.0054880269
-0.16486533 -0.065352187 0.43467653 0.14052086 0.86922437 -0.47402823 0.0048529417
-0.15635368 -0.065984771 0.43582568 0.11340085 0.8666113 -0.48592705 0.0037329034
-0.14398187 -0.06842953 0.43340749 0.056092776 0.89080727 -0.45090568 0.0044256593
-0.13462824 -0.066923879 0.43774617 0.059174407 0.8581872 -0.50991488 0.10190985
-0.12451581 -0.06764257 0.43651995 0.52310139 0.77156144 -0.36201933 0.23059331
-0.11639896 -0.065547273 0.43603551 0.96533024 0.25520101 -0.054862984 0.16883868
-0.076865122 -0.064263888 0.43674359 -0.9684673 0.030408541 -0.24727796 0.087107971
0.15974085 -0.068991736 0.43972111 -0.31370807 0.28330705 -0.90626943 0.055786677
0.16461322 -0.063982509 0.43804789 -0.32597476 0.13086453 -0.93627721 0.023936434
0.17532912 -0.063244522 0.43436798 -0.33783531 0.079025127 -0.93788189 0.010562403
0.18367846 -0.066662893 0.4314484 -0.34874865 0.17922565 -0.91991985 0.027143013
-0.40903267 -0.055749487 0.43403116 0.99887359 0.040839355 -0.024161639 0.0025377735
-0.33105579 -0.059461333 0.43902391 -0.47862864 0.72811341 -0.49067858 0.0057096505
-0.32550943 -0.058057588 0.43631721 -0.44805622 0.75068867 -0.48550189 0.0053941589
-0.31416988 -0.0538739 0.43310946 -0.41880199 0.77700764 -0.46996173 0.0082491115
-0.22212259 -0.050792888 0.43083295 0.35892111 0.78172487 -0.50998223 0.0060670814
-0.21491691 -0.052688718 0.43252864 0.32811856 0.7928921 -0.5134787 0.0051726256
-0.20417336 -0.055601235 0.43430987 0.29428366 0.78946894 -0.5386427 0.0054090526
-0.19430198 -0.058898281 0.43455297 0.25499624 0.83438569 -0.4886485 0.0070636696
-0.18627989 -0.05966419 0.43673643 0.22299024 0.82852185 -0.51364088 0.0063032913
-0.17767778 -0.059617326 0.43979815 0.1822564 0.82571679 -0.53382993 0.0053937891
-0.11429375 -0.055929948 0.43363324 0.97154409 -0.17120193 0.16368249 0.11032367
-0.076865114 -0.056259532 0.43328652 -0.93501675 -0.002248476 -0.35459647 0.071112916
0.15952498 -0.053392511 0.43979526 -0.32111526 0.00021517713 -0.94704008 8.0978047e-05
0.16609557 -0.055397745 0.43753883 -0.32782644 0.0043695108 -0.94472784 0.00019554642
0.17448469 -0.05521797 0.43465796 -0.33773714 0.00087308098 -0.94124007 2.5580921e-05
0.18614858 -0.055662818 0.43048611 -0.35883132 0.00067746296 -0.93340218 0.00014511497
-0.40903264 -0.04594722 0.43595108 1 2.1309042e-05 -0.0001348073 0
-0.3121835 -0.048507985 0.43883666 -0.38588807 0.72677594 -0.56823164 0.0099596847
-0.30348986 -0.045492433 0.43713152 -0.36375442 0.721255 -0.58946908 0.0095876772
-0.29403642 -0.04368782 0.4340457 -0.31276348 0.72607613 -0.61236626 0.0082533285
-0.28605449 -0.042159971 0.43200707 -0.27282962 0.74144077 -0.61304945 0.0089106746
-0.23288739 -0.042977147 0.43408188 0.33503973 0.72827464 -0.5977996 0.0073757209
-0.22690749 -0.045687616 0.43448964 0.3600229 0.7368111 -0.57226998 0.0065643531
-0.21667153 -0.048550941 0.43698102 0.32890981 0.74961489 -0.57436556 0.0057291295
-0.11429376 -0.046050511 0.43503487 0.95652705 -0.22841875 0.18133111 0.071681827
-0.076865114 -0.045457441 0.43523315 -0.95333523 0.011464403 -0.30169627 0.066565149
0.16323495 -0.046513394 0.43852124 -0.32564566 -0.0010605638 -0.94549125 0.00025304238
0.17426637 -0.044646472 0.43473297 -0.33748755 -0.00052817934 -0.94132984 0
0.1847371 -0.043762401 0.43104851 -0.3555398 0.0028213146 -0.93465692 8.9292909e-05
-0.40903267 -0.036614891 0.43612927 1 1.8615956e-05 -2.0896541e-06 0
-0.29109108 -0.037426069 0.43973237 -0.30687845 0.63879371 -0.70552683 0.010751034
-0.28495166 -0.036482822 0.43813103 -0.26985469 0.6551109 -0.70569694 0.011750239
-0.27694601 -0.034025073 0.43721691 -0.24819715 0.67632931 -0.69352496 0.0097891837
-0.26521471 -0.035504136 0.43231606 -0.1040799 0.73533154 -0.66966778 0.024026619
-0.25686005 -0.032421846 0.43342581 0.080268972 0.70563686 -0.70401245 0.026685085
-0.24615489 -0.034185763 0.43519926 0.23550403 0.66454333 -0.70916849 0.021685768
-0.23568462 -0.037687067 0.43847457 0.3429004 0.66009063 -0.66835594 0.012828021
-0.11429375 -0.033738952 0.43312216 0.99999821 -0.0016612846 0.00094052742 0
-0.076865122 -0.034563228 0.43724138 -0.98091304 0.017177396 -0.19368662 0.040416013
0.15943076 -0.034458432 0.43982759 -0.32186452 6.4638016e-06 -0.94678575 0
0.165774 -0.037546512 0.43764928 -0.32786164 -0.00026025993 -0.94472575 8.5280037e-05
0.17398766 -0.034741532 0.4348287 -0.33615676 -0.0006900818 -0.94180578 0.00019797079
0.18643256 -0.036946528 0.43036795 -0.35925955 -0.0020004953 -0.93323553 0
-0.4090327 -0.025266062 0.4363119 0.99999994 3.0459889e-05 -0.00027848355 0
-0.27194583 -0.029808782 0.43911427 -0.16251053 0.60603803 -0.77865797 0.019145671
-0.26352453 -0.028356992 0.43811652 -0.084534205 0.57881695 -0.81106406 0.031836614
-0.25486365 -0.026843304 0.43775037 0.096276104 0.587313 -0.80361331 0.029251914
-0.24704647 -0.028993595 0.43876332 0.2245072 0.57310373 -0.78812981 0.028399125
-0.11429375 -0.023902521 0.43552351 0.99999994 -0.00022163871 0.00010305991 0
-0.076865122 -0.02582407 0.43466163 -0.94537169 -0.014872627 -0.32565504 0.067093015
0.16499577 -0.02318983 0.43791655 -0.32803667 0.00065991876 -0.94466478 6.5699755e-06
0.1728061 -0.025279786 0.4352344 -0.33437416 -0.00046442117 -0.94244033 7.7686185e-05
0.18645361 -0.029650137 0.43035918 -0.35828024 0.00089718984 -0.9336136 0.00011389396
-0.40903267 -0.014415459 0.43489218 1 -8.2357228e-06 -8.107497e-05 0
-0.11429375 -0.014414351 0.43269014 1 7.1335598e-06 -8.4631785e-05 0
-0.076865114 -0.01484035 0.43509841 -0.94995731 0.0083942376 -0.31226707 0.07134521
0.16497666 -0.016307838 0.43792307 -0.32829633 -8.8158362e-05 -0.94457477 7.4763033e-05
0.17331365 -0.015061103 0.43506014 -0.33527759 -0.00063172192 -0.94211918 0
0.18290456 -0.014566967 0.43175545 -0.35376051 -0.0019288906 -0.93533397 0
-0.40903264 -0.0041149613 0.43424198 1 1.312118e-05 -0.0001497996 0
-0.11429375 -0.0060323696 0.43394437 1 2.339021e-06 -3.5429282e-05 0
-0.076865114 -0.0044634142 0.43559608 -0.95567489 -0.0066154487 -0.29434958 0.063255765
0.16270614 -0.0076790666 0.43870282 -0.32667443 -0.00038837723 -0.94513679 0
0.17510679 -0.0039216401 0.43444434 -0.3386068 0.00038885095 -0.94092786 0
0.18433821 -0.0039481735 0.43115139 -0.35658792 0.0014994298 -0.93426055 0.0001251239
-0.40903267 0.0044043479 0.43293408 1 1.7624859e-06 6.261107e-05 0
-0.11429377 0.005880964 0.43354505 1 3.6254798e-06 -7.6796852e-05 0
-0.076865114 0.0027368597 0.43431157 -0.93764538 0.0021927834 -0.34758657 0.065707095
0.16397943 0.0050924751 0.43826559 -0.32708007 -0.00046170314 -0.94499654 0.00015298148
0.17183903 0.0024049422 0.43556651 -0.33470598 0.00028131675 -0.94232255 0
0.18420643 0.0069910581 0.43122914 -0.35970592 0.001231611 -0.93306488 6.0737999e-05
-0.4090327 0.014837261 0.43680039 1 -2.7604759e-05 -0.00020828129 0
-0.11429376 0.011866033 0.43637544 1 -5.2494806e-07 -5.1542553e-05 0
-0.076865114 0.017437035 0.43317756 -0.93913782 -0.013064077 -0.34329221 0.06633874
0.16524297 0.013582739 0.43783164 -0.32727045 -0.000244022 -0.94493067 6.4083732e-05
0.17614563 0.015695842 0.4340876 -0.33951721 0.0012166497 -0.94059908 0
0.18477558 0.01608987 0.43100056 -0.35869658 0.0011754263 -0.93345344 0.00014532761
-0.40903264 0.024448242 0.43619543 1 -9.7911179e-06 -0.00015574069 0
-0.27089325 0.029037472 0.43943122 -0.17739619 -0.55348366 -0.81374836 0.019399213
-0.26501045 0.028056478 0.43869883 -0.12795414 -0.58819497 -0.79853266 0.026948763
-0.25709617 0.028154196 0.43690723 0.013393857 -0.60239428 -0.79808629 0.033775114
-0.24959522 0.027256459 0.43856052 0.16057338 -0.61450094 -0.77240199 0.030518891
-0.11429376 0.02550647 0.43613502 1 -1.7485271e-06 -3.4022472e-05 0
-0.076865107 0.024138642 0.43482196 -0.96145624 -0.0051086531 -0.27491051 0.057834603
0.15911141 0.022790249 0.43993726 -0.32091066 -0.00010390292 -0.94710946 0
0.16352034 0.024670897 0.43842319 -0.32638517 0.0010079338 -0.94523633 0
0.17640698 0.024497667 0.43399781 -0.33925891 -0.0012369708 -0.94069225 0
0.18322338 0.026336228 0.43161538 -0.35226619 0.001735874 -0.93589824 0.00016088434
-0.40903264 0.035167623 0.43315819 1 -3.5059766e-05 -0.00014101868 0
-0.29416883 0.038767222 0.43999711 -0.31122169 -0.66763401 -0.67631793 0.011430426
-0.28370041 0.037452035 0.43651009 -0.26159468 -0.69196945 -0.67286432 0.0097983666
-0.27561074 0.036360871 0.43461442 -0.23233058 -0.71633744 -0.65793854 0.0092260893
-0.2674939 0.033703994 0.43464142 -0.16926368 -0.70750988 -0.6861338 0.015106801
-0.25704259 0.033817351 0.43225667 0.044080131 -0.73120624 -0.68073076 0.029525265
-0.24486062 0.03512729 0.43495554 0.25122541 -0.6577974 -0.71006227 0.017122002
-0.23756671 0.038704827 0.43630865 0.32970259 -0.65613252 -0.6788125 0.013012414
-0.11429375 0.03536557 0.43333337 0.9994902 0.027619105 0.016016895 0.002137311
-0.076865107 0.034469165 0.43428445 -0.93962723 0.00084499334 -0.34219876 0.072262831
0.1663729 0.033202864 0.43744361 -0.32782504 0.00090305688 -0.94473803 2.7707054e-05
0.17584577 0.035231758 0.43419057 -0.33848143 -0.00010910352 -0.94097304 0
0.18452133 0.034578174 0.43115631 -0.3550739 -0.00032923126 -0.93483818 0.00011576038
-0.40903267 0.046293862 0.43385935 0.99999821 -0.0015656644 -0.0010726898 0
-0.31580213 0.049740877 0.43976152 -0.41140741 -0.72592837 -0.55115515 0.0091274809
-0.30254108 0.047190245 0.43432766 -0.34744626 -0.7421248 -0.57317704 0.0077729826
-0.29405165 0.043572139 0.43420482 -0.31548753 -0.72070706 -0.61729157 0.008446007
-0.28706682 0.041861355 0.43287602 -0.30061275 -0.76239753 -0.57304621 0.010505059
-0.27967048 0.041397985 0.43009132 -0.25944632 -0.78792918 -0.55843991 0.009825401
-0.23573992 0.042807031 0.43229285 0.34919399 -0.72839969 -0.5894891 0.015154915
-0.2255315 0.046540443 0.43423998 0.35931084 -0.76440132 -0.53533763 0.0087078642
-0.21714754 0.048206467 0.43715051 0.33028993 -0.7604838 -0.55908227 0.0088513307
-0.11429376 0.044234373 0.43843779 0.96375209 0.2300075 0.13519788 0.070906192
-0.076865114 0.044201441 0.43491337 -0.96175438 -0.013126439 -0.27359852 0.054011554
0.15974 0.045457318 0.43972141 -0.32112944 2.6607153e-05 -0.94703525 0.00013081847
0.16483845 0.047405779 0.43797058 -0.32574207 0.00011640288 -0.94545871 0
0.17451245 0.045586884 0.43464848 -0.33668587 0.00022537484 -0.94161701 0.00011435016
0.18461518 0.044456828 0.43109939 -0.35633144 -0.0033230986 -0.93435371 9.000994e-05
-0.40903267 0.054394614 0.43425232 0.99999696 -0.0019115475 -0.0015652374 0
-0.32284155 0.056107279 0.43672833 -0.43844092 -0.75379837 -0.48944619 0.0052871211
-0.31449738 0.05483973 0.43200684 -0.40310466 -0.79320455 -0.45643526 0.0077283392
-0.30853754 0.051028505 0.4330616 -0.36941072 -0.79049522 -0.48852134 0.0067552337
-0.2229538 0.050860431 0.43022436 0.34859335 -0.8093431 -0.47270107 0.0069977362
-0.21494059 0.052239101 0.43297568 0.32967392 -0.79661655 -0.5066728 0.0088235028
-0.2046079 0.056215938 0.43305683 0.29509166 -0.82764482 -0.47741488 0.0060844924
-0.19528043 0.055328511 0.4388195 0.25417179 -0.78300136 -0.5677197 0.0051508569
-0.18602386 0.058480334 0.43839929 0.21005373 -0.80769306 -0.55091679 0.0049321745
-0.11429376 0.053643268 0.43537021 0.95080638 0.25192541 0.18027961 0.10122881
-0.076865122 0.056073435 0.43252334 -0.93206859 -0.019150827 -0.36177552 0.070881896
0.16575794 0.056341942 0.43765479 -0.32651561 -0.0081617869 -0.94515651 0.00014488205
0.1750288 0.058015566 0.43447113 -0.33578402 -0.008259479 -0.94190282 0.00013271369
0.18326102 0.056023646 0.43157521 -0.3513433 0.00057272671 -0.93624657 0.00016637408
-0.40903267 0.065468803 0.43515685 0.97991252 -0.16905926 -0.10578441 0.016404754
-0.34201831 0.069082111 0.43455505 -0.50917178 -0.77280122 -0.37884331 0.0040175775
-0.3342112 0.062806092 0.4370178 -0.47249594 -0.75390977 -0.45647308 0.0050073527
-0.32584181 0.060625479 0.43240729 -0.43729264 -0.79440612 -0.42153785 0.0066176988
-0.19202898 0.060592368 0.43265229 0.23969539 -0.85029954 -0.46854746 0.0051786928
-0.18400656 0.062039744 0.43371111 0.21472034 -0.83503109 -0.50657499 0.0040103435
-0.17457825 0.06223502 0.43706781 0.17324588 -0.83630568 -0.52017182 0.0048398855
-0.16563749 0.064851426 0.4352988 0.14522552 -0.86000371 -0.48918611 0.0042358008
-0.15470526 0.066245675 0.43566987 0.099448487 -0.87506884 -0.47367138 0.0036381588
-0.14724888 0.068192236 0.43342498 0.077014349 -0.89171076 -0.44600523 0.0040897424
-0.13550445 0.06832774 0.4347319 0.13774863 -0.88534552 -0.44405922 0.094736464
-0.12430149 0.067722909 0.43637222 0.44273254 -0.77947283 -0.44318181 0.24573083
-0.11488918 0.067536905 0.43316275 0.95815879 -0.2510601 0.13747942 0.12546587
-0.076865114 0.065839447 0.4349806 -0.9546349 -0.10532016 -0.27853161 0.10494629
0.16676499 0.062227342 0.43730897 -0.31199428 -0.099367008 -0.94487345 0.016076542
0.17664374 0.066126361 0.43391651 -0.31902283 -0.22311357 -0.92111057 0.039389297
0.18226063 0.063593626 0.43195182 -0.36250347 -0.12172434 -0.92399913 0.023128251
-0.40903267 0.073114768 0.43418685 0.95290667 -0.27599576 -0.12567884 0.028349899
-0.35423228 0.077273779 0.43437758 -0.52920902 -0.77467567 -0.34614369 0.003270023
-0.34684354 0.071270071 0.43674958 -0.51643002 -0.75275755 -0.40823552 0.0037621001
-0.12365873 0.070453309 0.4300884 0.73949218 -0.64121801 -0.20491625 0.23055245
-0.11429376 0.07471738 0.43446121 0.80094576 -0.59153277 -0.092600428 0.12296775
-0.076865107 0.073578089 0.43391979 -0.92817199 -0.16602965 -0.33306301 0.23537646
0.15897319 0.077436358 0.43998477 -0.29012036 -0.37194505 -0.88175231 0.06157963
0.16694112 0.073336706 0.43724853 -0.27212882 -0.30376783 -0.91305584 0.059945177
0.17727208 0.073652327 0.43370074 -0.32712337 -0.27142549 -0.90516216 0.04550495
0.18588464 0.078349136 0.43059593 -0.26860324 -0.50800323 -0.81840396 0.077318735
-0.40484595 0.085876167 0.43627512 0.71234787 -0.63048089 -0.30830902 0.043453537
-0.3983739 0.089070231 0.43818039 0.49359947 -0.79049122 -0.36260605 0.067324974
-0.36655736 0.086797357 0.43369105 -0.44674826 -0.82853812 -0.33755088 0.0053169406
-0.35660189 0.080562301 0.43049702 -0.5323531 -0.79171139 -0.29965523 0.0037832616
-0.11344164 0.085634016 0.43616626 0.58840096 -0.8081075 0.027321737 0.076037869
-0.10576898 0.087498844 0.43598598 0.4368228 -0.89643973 0.074710526 0.066964529
-0.098908812 0.087498836 0.43148464 0.13600744 -0.9899193 0.039519019 0.085691392
-0.084872775 0.087498836 0.43562749 -0.20817462 -0.97808725 0.0029349208 0.09435153
-0.076787032 0.084920645 0.43519291 -0.21221797 -0.97680497 0.028558305 0.18558499
-0.065815188 0.087498836 0.43684217 0.23262395 -0.96588433 0.11381362 0.11686842
-0.052006412 0.087498836 0.43442202 -0.09802261 0.97157067 -0.21550386 0.068691298
-0.045919456 0.087498836 0.43540058 -0.00084176095 0.94657129 -0.32249376 0.078418165
-0.030343778 0.087498836 0.43604627 0.021806732 0.96907037 -0.24581914 0.055864871
-0.026338717 0.087498844 0.43269643 0.030681176 0.96346265 -0.26607984 0.08923994
-0.013149038 0.087498844 0.43668365 -0.00688081 0.97662872 -0.21482299 0.054441445
-0.0046959277 0.087498844 0.43658412 0.021275401 -0.982813 0.18337396 0.046024378
0.005860622 0.087498836 0.43220234 -0.024913194 0.96463341 -0.2624149 0.078442976
0.016338684 0.087498836 0.43439388 -0.012396662 0.96980494 -0.24356677 0.047057528
0.022431873 0.087498844 0.43500292 0.015971873 -0.99048519 0.13668938 0.026178354
0.035457414 0.087498836 0.43345636 0.027763994 -0.98858482 0.14808467 0.022317627
0.043583628 0.087498829 0.43346033 -0.011027164 -0.98969698 0.14275241 0.023159996
0.053361036 0.087498844 0.43682224 -0.013655328 -0.99533057 0.09555421 0.01975525
0.063404165 0.087498836 0.4335002 0.0070777643 -0.99247867 0.12221355 0.021920053
0.075172067 0.087498836 0.43635029 -0.028262045 -0.99833322 -0.050319709 0.02704745
0.085439041 0.087498836 0.43577963 -0.010863882 -0.99508011 -0.098475762 0.021826096
0.095496684 0.087498836 0.43431041 -0.046946507 -0.99156559 -0.12080403 0.023103375
0.10615165 0.087498844 0.43342534 -0.017525362 -0.99049979 -0.13639307 0.024545252
0.11469045 0.087498836 0.43274334 -0.12057978 -0.96632922 -0.22730693 0.046735585
0.12635362 0.087498836 0.43768641 -0.053425133 -0.93910569 -0.33945009 0.061713133
0.13448507 0.087498836 0.43475017 -0.11380611 -0.93089575 -0.34710404 0.05922462
0.14572823 0.087498836 0.43435997 -0.11876444 -0.8804118 -0.45909706 0.075325973
0.15496658 0.086715393 0.43630353 -0.19415231 -0.73075616 -0.65444672 0.070778325
0.16644655 0.0848618 0.43572578 -0.27701911 -0.62077498 -0.7334159 0.085695237
0.1737234 0.086246639 0.43408984 -0.23974608 -0.71328241 -0.65859699 0.081227645
0.18266004 0.082794286 0.43181086 -0.28879863 -0.55608016 -0.77933967 0.078742482
-0.40277594 0.090034127 0.43012387 0.76058525 -0.61446017 -0.20963971 0.043260917
-0.3928825 0.092298381 0.43465894 0.26724431 -0.90448338 -0.33240092 0.042807125
-0.38716692 0.094113372 0.43244058 0.11764604 -0.94748998 -0.29735845 0.037834108
-0.3719891 0.091208428 0.43136868 -0.32459754 -0.89217627 -0.3140986 0.011754392
-0.38384941 -0.090357967 0.4414362 -0.10668687 0.89782149 -0.42724046 0.017890278
-0.4046976 -0.082931951 0.44362354 0.73970777 0.59147596 -0.32091814 0.045468889
-0.39501676 -0.086840488 0.44607171 0.33251569 0.82123566 -0.46368673 0.048630804
-0.38581169 -0.089063689 0.44443315 0.013593372 0.89557999 -0.44469291 0.035915524
-0.3739354 -0.085622586 0.44640875 -0.33974347 0.82159036 -0.45778114 0.011468103
-0.36554232 -0.081453025 0.44486427 -0.43543863 0.78687418 -0.43728948 0.0060586198
-0.1130316 -0.085922763 0.4453201 0.66407663 0.74471581 -0.066336438 0.075513043
-0.10852048 -0.087498829 0.44721586 0.58476686 0.81096774 0.019465422 0.068644628
-0.09574341 -0.087498844 0.44594139 -0.017124753 0.99911374 -0.038452338 0.093516231
-0.08505711 -0.087498836 0.44730002 -0.15261306 0.98827463 -0.0047385613 0.10502165
-0.075072125 -0.085928626 0.4443315 0.047946297 0.99884886 -0.0014846676 0.12218582
-0.063450381 -0.087498829 0.44621113 0.25852007 0.96520811 0.039251268 0.072474875
-0.053845786 -0.087498836 0.44541925 0.12837426 0.98918784 0.070904933 0.027858635
-0.043740645 -0.087498829 0.4438237 -0.0065631918 0.99590307 0.090188459 0.014776831
-0.034495022 -0.087498836 0.44674835 -0.0022908237 0.99999124 -0.0035067545 0.00088376692
-0.024719648 -0.087498836 0.4455865 0.00080830435 0.99896264 0.045529936 0.0098038279
-0.016213737 -0.087498836 0.44980422 -0.023537224 0.9954403 -0.092437074 0.013452708
-0.0040387283 -0.087498836 0.4459846 -3.125544e-05 0.99865586 -0.051831089 0.006475674
0.0043433122 -0.087498836 0.44551712 0.00015384855 0.99998045 -0.0062556248 0.00086414447
0.014611648 -0.087498836 0.44468164 -0.022666283 0.99886113 -0.041984644 0.0092480807
0.025820663 -0.087498844 0.4457711 -0.035878643 0.99181199 -0.12256312 0.02361629
0.032738108 -0.087498844 0.44475716 -0.017158814 0.99643987 -0.082541652 0.010068483
0.043573897 -0.087498844 0.44522682 -0.039042726 0.98663914 -0.15817359 0.022322515
0.054813977 -0.087498829 0.44551313 -0.0023099529 0.98499268 -0.17258053 0.02554385
0.062453363 -0.087498829 0.44113716 -0.022308653 0.99201119 -0.12416168 0.027469995
0.073994406 -0.087498844 0.44322062 -0.086390749 0.96489906 -0.24800491 0.050553873
0.083523318 -0.087498844 0.44530123 -0.10672992 0.93243861 -0.34520566 0.067593761
0.09311907 -0.087498829 0.4485181 -0.094405599 0.8901841 -0.44571277 0.08361508
0.10483135 -0.087498836 0.44445896 -0.17641962 0.89766365 -0.40382671 0.088869818
0.11492187 -0.087498836 0.44309342 -0.086262703 0.90819335 -0.40956512 0.074083008
0.1259364 -0.08584594 0.44645327 -0.16938736 0.70536202 -0.68831128 0.08581423
0.13510403 -0.085820951 0.44512376 -0.20331962 0.64726722 -0.73464704 0.074308008
0.14471388 -0.084136605 0.44458923 -0.25803328 0.67814648 -0.68813968 0.075146064
0.15490966 -0.084310293 0.44138017 -0.25867778 0.65069151 -0.71392322 0.087851226
-0.40903267 -0.072327115 0.44719756 0.84927982 0.42369965 -0.31496403 0.049809679
-0.36074615 -0.079088412 0.44138408 -0.48495138 0.7764734 -0.40238202 0.0035299987
-0.35611844 -0.073849641 0.44414923 -0.52745551 0.73158711 -0.43193877 0.0024312302
-0.11429376 -0.075443201 0.44450313 0.79263645 0.59692794 -0.12411472 0.097793408
-0.076865122 -0.076174691 0.44431385 0.99937463 0.0052706702 0.034964953 0.20942971
0.12783271 -0.073888503 0.44969979 -0.25666612 0.34062278 -0.90448803 0.056913055
0.13428938 -0.07486017 0.44793183 -0.26207247 0.38119513 -0.88657111 0.070961475
0.14481483 -0.074540094 0.44483098 -0.27058181 0.38712701 -0.88142961 0.06700933
0.15294734 -0.076381758 0.44205403 -0.30352855 0.48454589 -0.82041794 0.08006651
-0.40903264 -0.064051904 0.44547147 0.96648711 0.21831746 -0.13505603 0.024757029
-0.35219273 -0.067782141 0.44817057 -0.53642607 0.68178576 -0.49740854 0.0038157473
-0.34406638 -0.064128719 0.44478136 -0.51685363 0.69858146 -0.49481934 0.004017706
-0.33850738 -0.062833741 0.44118148 -0.48282713 0.72865343 -0.48573875 0.0056080767
-0.16422388 -0.061388534 0.44121265 0.13397844 0.80588973 -0.57670748 0.0046778596
-0.15558079 -0.061844319 0.44238427 0.10457399 0.8075251 -0.58048904 0.0038743513
-0.14739466 -0.062266089 0.44313806 0.079489373 0.80937201 -0.58189201 0.0046842364
-0.13638866 -0.062656902 0.44367108 0.062952928 0.81210232 -0.58010936 0.073535107
-0.12601931 -0.062936455 0.44366196 0.13968447 0.80848628 -0.57169765 0.19614878
-0.11487364 -0.064768039 0.44558924 0.94321805 0.3047342 -0.13219969 0.12246392
-0.076865114 -0.064305313 0.4454228 0.99584967 -0.018618753 0.089088552 0.056764949
0.12904985 -0.061042037 0.44936645 -0.27693167 0.020438742 -0.9606722 0.00097773969
0.13600966 -0.064439893 0.44746074 -0.28508976 0.11435907 -0.95165431 0.018635094
0.14459319 -0.06408114 0.44492292 -0.30155179 0.097147211 -0.9484877 0.010562603
0.15350017 -0.063453853 0.44186425 -0.31803837 0.093256831 -0.94348013 0.016359461
-0.40903264 -0.055717338 0.4453547 0.99155074 0.09766712 -0.085371114 0.0097987708
-0.33312759 -0.055544853 0.4459053 -0.47406009 0.6776213 -0.56222451 0.0058993166
-0.32195622 -0.052016951 0.44137022 -0.44638962 0.71194679 -0.54209608 0.0067428588
-0.31895763 -0.050720748 0.44073239 -0.42180324 0.68999302 -0.5882104 0.008112411
-0.19219334 -0.052807823 0.44340029 0.25024939 0.72718334 -0.6392023 0.0050798007
-0.18611062 -0.054145671 0.44407099 0.22814476 0.73195928 -0.64201677 0.0047376007
-0.17579181 -0.055998474 0.44510648 0.1923178 0.74019045 -0.64430732 0.003924089
-0.16534251 -0.058402125 0.44482875 0.13875371 0.78383869 -0.60526383 0.0037542535
-0.15400058 -0.058329627 0.44724786 0.10889661 0.77124268 -0.62715727 0.0052856649
-0.14761391 -0.057879917 0.44883639 0.088442862 0.77082181 -0.63088161 0.0047500692
-0.13545549 -0.058452677 0.44922066 0.072020128 0.78297353 -0.61787176 0.081493318
-0.12386786 -0.059105564 0.44861978 0.46838769 0.72076297 -0.51099271 0.22210725
-0.11461962 -0.056712288 0.44566828 0.99912548 0.0075438349 0.041125588 0.12497038
-0.076865114 -0.054308355 0.44700354 0.99900055 0.0093927691 0.04370046 0.0064116963
0.12718455 -0.053805333 0.44987726 -0.27238804 0.0011270851 -0.96218681 0
0.13421166 -0.054218564 0.44795308 -0.28407231 0.0001279711 -0.95880288 8.0329128e-06
0.14391477 -0.053914011 0.44513893 -0.29687816 0.0013217784 -0.95491445 0.00013312319
0.15440637 -0.055568904 0.44155297 -0.31267744 7.4866715e-05 -0.94985938 0
-0.40903264 -0.045686681 0.44602489 0.99958187 0.016179129 -0.023962539 0.0010790643
-0.32324666 -0.048048105 0.44709074 -0.44886875 0.63798594 -0.62569231 0.0079009049
-0.31551364 -0.044519734 0.44541284 -0.39957723 0.65788829 -0.63837373 0.0068670316
-0.30823207 -0.044284903 0.44165981 -0.36627293 0.67354059 -0.64201808 0.0067565963
-0.21480817 -0.043775029 0.44366634 0.32780677 0.66975516 -0.66631132 0.0041052955
-0.20509262 -0.044770386 0.44707823 0.29816294 0.65199894 -0.69713438 0.0056886091
-0.19590616 -0.04906131 0.44661167 0.25243825 0.69451892 -0.67373472 0.0062012216
-0.18871196 -0.049172133 0.44932017 0.23629533 0.68002057 -0.69407243 0.0056952992
-0.11429377 -0.044544145 0.44228008 0.964311 -0.19653596 0.17742004 0.089730456
-0.076865122 -0.044191316 0.44531494 0.99845999 0.0089819431 0.054744434 0.0084077902
0.13477366 -0.045252338 0.44779921 -0.28800508 0.00089325529 -0.95762843 6.77524e-05
0.14255774 -0.044316195 0.44557986 -0.29371929 0.0020539651 -0.95588952 0.00014961899
0.15500429 -0.043813359 0.44134769 -0.314641 9.2395698e-05 -0.9492107 1.6791836e-06
-0.40903261 -0.03662632 0.44575498 0.99999994 0.00011690264 -0.00029471057 0
-0.31302103 -0.038678013 0.44895589 -0.39326414 0.56710988 -0.72369164 0.0081119668
-0.30449212 -0.034419764 0.44792888 -0.36202788 0.54718584 -0.75466782 0.0071606077
-0.29594862 -0.032240435 0.44575346 -0.33411464 0.54797333 -0.76687199 0.010488247
-0.28599122 -0.032969099 0.44127962 -0.27786043 0.61837256 -0.73512512 0.0084232772
-0.24088986 -0.031577341 0.44044703 0.30059004 0.57704306 -0.75938588 0.014502452
-0.23398286 -0.034345496 0.44205892 0.35957408 0.58448589 -0.72738075 0.0088025872
-0.22452034 -0.034128502 0.44698837 0.35997394 0.54125166 -0.75991142 0.0075589344
-0.21476771 -0.037231158 0.44903126 0.33477756 0.5561952 -0.76063848 0.0055925217
-0.11429377 -0.036352508 0.446536 0.97575653 -0.13195673 0.17460366 0.067116104
-0.076865114 -0.035456229 0.44470263 0.99569672 -0.021809576 0.090068571 0.014522796
0.12835999 -0.033287305 0.4495554 -0.27516371 4.3180666e-05 -0.96139735 5.0675699e-06
0.13680552 -0.034175247 0.44724286 -0.28422683 0.00079107878 -0.95875669 4.9299866e-05
0.14304104 -0.03685084 0.44543844 -0.29526567 -0.0011704372 -0.95541447 0.00014946882
0.1546367 -0.035652313 0.44147396 -0.31277606 -0.00065013871 -0.94982666 0
-0.40903261 -0.025085196 0.44425085 0.99999994 1.5190649e-05 -0.00027512017 0
-0.29336485 -0.027083153 0.44813606 -0.30671632 0.46605137 -0.82989234 0.0096852109
-0.28663954 -0.02546267 0.44641471 -0.27421463 0.43623379 -0.85703349 0.0087572802
-0.27529752 -0.024819188 0.44338182 -0.2362514 0.46285513 -0.85437131 0.015683502
-0.26520583 -0.02188199 0.44262189 -0.096275583 0.44617504 -0.88975209 0.025686206
-0.25776607 -0.020582691 0.44175744 0.040090393 0.4399823 -0.89711112 0.028855111
-0.24456236 -0.022912219 0.44399342 0.29271501 0.44704518 -0.84526235 0.022343241
-0.23504443 -0.025016528 0.4477402 0.34074891 0.43687025 -0.83248699 0.0076104994
-0.11429376 -0.022780737 0.4445253 0.99593484 -0.043545667 0.078851752 0.012227295
-0.076865114 -0.023622684 0.44461754 0.99595755 -0.0021836623 0.08979807 0.012509034
0.12992024 -0.02280282 0.44912815 -0.2761656 0.00015904609 -0.96111006 0.00015052648
0.13428843 -0.024969021 0.44793203 -0.28392121 -0.00011815497 -0.95884764 4.2690543e-05
0.14477672 -0.025666203 0.44483417 -0.30112165 -0.0021244383 -0.9535833 0
0.15332212 -0.024397291 0.44192535 -0.31136897 0.00060731685 -0.95028889 0.00014806261
-0.40903267 -0.012984166 0.44461495 0.99999994 -1.1683564e-05 -0.00025190468 0
-0.2852211 -0.018770508 0.44907749 -0.28552368 0.33364862 -0.89841795 0.010030042
-0.27660903 -0.015408364 0.44784057 -0.24862722 0.31611818 -0.91556197 0.0079931226
-0.26277998 -0.015057832 0.44494623 -0.029641662 0.38578513 -0.92211235 0.028421216
-0.25570434 -0.014281293 0.4440788 0.10529128 0.39150688 -0.91413134 0.024097806
-0.24458304 -0.014760002 0.44721505 0.31478617 0.2673707 -0.91072643 0.017618502
-0.11429375 -0.014015095 0.44474053 0.9999972 -0.0016231899 0.001696309 0
-0.076865122 -0.015020341 0.44377527 0.99329507 0.0038805136 0.11554121 0.018631473
0.13500193 -0.015814256 0.44773668 -0.28076708 -0.00071487529 -0.95977563 3.7959708e-05
0.14616399 -0.016167004 0.44437614 -0.30360594 -0.0013969137 -0.95279658 7.7630386e-05
0.1539524 -0.014319461 0.44170889 -0.31293282 -0.000453446 -0.9497751 0
-0.4090327 -0.0081891026 0.44502541 0.99999994 -6.3886073e-06 -0.00022497181 0
-0.27334693 -0.0043611047 0.44927639 -0.21709584 0.11187635 -0.96971804 0.017522946
-0.26743883 -0.0013187509 0.4484047 -0.1088727 0.0088813435 -0.99401599 0.026895257
-0.25506368 -0.00386969 0.44619599 0.093863375 0.093803704 -0.99115616 0.028260941
-0.24604639 -0.0080068959 0.44814289 0.2419657 0.18872815 -0.95175326 0.026229683
-0.11429376 -0.0029954065 0.44828263 0.99960166 -0.0022498558 -0.028133826 0.0038531963
-0.076865114 -0.0037406613 0.44674936 0.99991781 0.0013144589 0.012752784 0.00059517351
0.12934826 -0.0055317674 0.44928479 -0.27539158 -0.0010123993 -0.96133161 1.1526197e-05
0.13424869 -0.0053168298 0.44794294 -0.27967981 -0.0011370936 -0.9600926 0.00013735908
0.14423795 -0.0044240565 0.44503331 -0.29848331 -0.00051569717 -0.95441473 0.00013989245
0.15341298 -0.0071772984 0.44189414 -0.31081173 0.00053449324 -0.95047134 0
-0.40903267 0.0035898224 0.44267422 0.99999994 1.4805611e-05 -0.00034261952 0
-0.27272624 0.0057649598 0.44894534 -0.19650844 -0.1343675 -0.97125167 0.017770488
-0.26446721 0.001762702 0.44774595 -0.058145914 -0.098807357 -0.99340636 0.027625753
-0.25397056 0.0041958024 0.44613844 0.1115012 -0.087452881 -0.98990881 0.027651722
-0.24689953 0.0068462342 0.44788432 0.22233832 -0.13784918 -0.96517527 0.023321429
-0.11429375 0.0036161381 0.44449747 0.99999553 -9.2120667e-05 -0.0029853783 1.7983877e-05
-0.076865129 0.0052908668 0.44436255 0.99464917 -0.0073533459 0.10304859 0.017171146
0.12906449 0.0054659755 0.44936249 -0.27553645 2.2674145e-05 -0.9612906 0
0.13505043 0.0036407749 0.44772339 -0.28232855 -0.00016586504 -0.9593178 8.5850552e-05
0.1443298 0.0050296593 0.44497952 -0.29705459 -0.0010413097 -0.95485997 0.00013625932
0.15416816 0.0019005481 0.4416348 -0.31302562 0.00034200112 -0.94974464 0.00011533518
-0.40903267 0.014161926 0.4445619 1 3.2805672e-06 -0.00027211904 0
-0.27493265 0.016213138 0.44708902 -0.18579563 -0.33001578 -0.92551047 0.012017805
-0.26514047 0.016352726 0.4448927 -0.047905143 -0.39774108 -0.91624618 0.024062008
-0.25441137 0.016463835 0.44305265 0.11076391 -0.40314126 -0.90840989 0.028397862
-0.24556428 0.014216722 0.44698036 0.22239675 -0.26604867 -0.93795401 0.026376309
-0.23682933 0.018649818 0.44962558 0.3660689 -0.31600246 -0.87529194 0.012398916
-0.11429376 0.0127987 0.4420552 1 -2.687229e-06 -3.1442338e-05 0
-0.076865114 0.015431996 0.44594523 0.99810755 0.0101055 0.060656283 0.0082653314
0.12727539 0.013109098 0.44985235 -0.27115306 5.2095475e-05 -0.96253622 5.8932997e-05
0.13738607 0.01302235 0.44708386 -0.29094827 -0.0008192251 -0.95673841 9.5143492e-05
0.14599475 0.014524576 0.44443417 -0.30122247 0.0011974088 -0.95355308 4.7684174e-05
0.15404581 0.015150242 0.44167686 -0.31056219 -0.00019718314 -0.950553 5.6833767e-05
-0.40903267 0.026076775 0.44562641 0.99999994 -3.5189223e-05 -0.0002851006 0
-0.29729459 0.028004736 0.44923928 -0.32043159 -0.48834652 -0.81169045 0.010060235
-0.28385773 0.026017386 0.44531155 -0.25538564 -0.49558774 -0.83016324 0.011975435
-0.27359036 0.025459982 0.44250169 -0.20081659 -0.50720614 -0.8381018 0.018944023
-0.26661804 0.022564583 0.44264531 -0.11264271 -0.44781408 -0.88700289 0.021743042
-0.25406641 0.021641251 0.44148725 0.12255942 -0.5081262 -0.85251802 0.030555306
-0.24367031 0.024516767 0.44363564 0.23387611 -0.47543156 -0.84809601 0.026706519
-0.23475878 0.023701677 0.44849229 0.37950516 -0.40532264 -0.83167857 0.010285532
-0.11429375 0.025225783 0.44688568 0.99367994 0.070690431 0.087194934 0.017689938
-0.076865122 0.025484165 0.4446373 0.99575859 -0.011707584 0.091256052 0.011415166
0.12753266 0.02521272 0.44978192 -0.27565679 0.00028423738 -0.96125609 0
0.13319081 0.028730122 0.44823256 -0.27973947 0.00028284054 -0.96007586 0
0.14401168 0.025562324 0.44509605 -0.2985065 4.6737605e-06 -0.95440763 0.00018909377
0.15427354 0.024024058 0.44159865 -0.3136971 0.00023804182 -0.94952309 0
-0.40903267 0.034831431 0.44351113 1 -7.2661092e-06 -6.5805682e-05 0
-0.30284196 0.03673438 0.44536394 -0.34161016 -0.58071834 -0.73896456 0.0080998661
-0.29311374 0.033164069 0.44385296 -0.27689579 -0.61335665 -0.73967719 0.0080325175
-0.28575116 0.031517707 0.44231525 -0.25021556 -0.57494026 -0.77899671 0.011482183
-0.27900994 0.030445829 0.44079912 -0.23427992 -0.54628193 -0.80416977 0.012191511
-0.23438597 0.034114469 0.44201508 0.35863405 -0.58820713 -0.7248407 0.0060509355
-0.22496763 0.035210792 0.44594303 0.36784366 -0.56287056 -0.74018091 0.0051681446
-0.21479903 0.037581608 0.44875571 0.32267892 -0.56319147 -0.76071924 0.0049542133
-0.11429377 0.038138937 0.44411698 0.97337937 0.12307767 0.19335075 0.065972194
-0.076865129 0.03651572 0.44394132 0.99349141 -0.00098962884 0.11390258 0.016917108
0.12682365 0.039076336 0.44997606 -0.27068585 0.00033294523 -0.9626677 0.00011623103
0.13601916 0.036642142 0.44745812 -0.28599247 0.0019669516 -0.95822984 0.00017343431
0.14526667 0.035671234 0.44468254 -0.29802787 -0.00064757594 -0.95455694 0.00013231815
0.15350464 0.036862742 0.44186267 -0.31000489 0.00086068356 -0.95073456 4.8144106e-05
-0.40903267 0.04596578 0.44337797 0.99988616 -0.011064208 -0.010259175 0.00052573776
-0.32441479 0.0495665 0.44647598 -0.44282722 -0.66280711 -0.60381359 0.0061837318
-0.31472945 0.046011124 0.44347927 -0.39150363 -0.66667211 -0.6342501 0.0063775601
-0.30467719 0.04240628 0.44176579 -0.3533344 -0.69255936 -0.628901 0.0080570625
-0.22118433 0.043534376 0.44088006 0.35420701 -0.66321909 -0.65930098 0.0057597859
-0.21487425 0.044889104 0.44243661 0.31323361 -0.66303396 -0.67990494 0.0056045093
-0.20540208 0.045903884 0.44578469 0.27992401 -0.67837894 -0.67929715 0.0056059039
-0.19784819 0.046834573 0.44817886 0.26539448 -0.65954542 -0.70325363 0.0061869714
-0.11429376 0.043883376 0.44529694 0.95802784 0.20167306 0.20374182 0.097151719
-0.076865122 0.045137491 0.44430944 0.99592763 0.0020524845 0.090132758 0.014156268
0.12733537 0.044013735 0.44983596 -0.27316558 0.00064921699 -0.96196681 4.9867882e-05
0.1341453 0.044432364 0.44797128 -0.2830987 0.00095732283 -0.95909029 0.00017726429
0.14431833 0.044744097 0.44501734 -0.29956704 0.0018604046 -0.95407349 7.6921213e-05
0.15451571 0.048661344 0.44151545 -0.31448957 0.001038948 -0.94926035 9.9913523e-05
-0.40903267 0.054018438 0.4439384 0.99743593 -0.054401286 -0.046497408 0.0046147946
-0.34222677 0.059449568 0.44908822 -0.51515061 -0.66053718 -0.54617816 0.005730838
-0.33400059 0.056731042 0.44510844 -0.47862795 -0.68695664 -0.54681432 0.0048753694
-0.32487363 0.051277358 0.44463032 -0.43430674 -0.67649722 -0.59475142 0.0057154708
-0.20100656 0.050792061 0.44215548 0.27131093 -0.73125339 -0.62582648 0.0049819117
-0.1935903 0.052346181 0.44343129 0.25205678 -0.72648913 -0.63928157 0.0047556488
-0.1846704 0.052932903 0.44613251 0.22718115 -0.722395 -0.65309584 0.0048604286
-0.17602849 0.057660069 0.44288453 0.17006972 -0.79499567 -0.58228689 0.0046090432
-0.16738376 0.05782003 0.4450736 0.15558107 -0.78257948 -0.60279667 0.0039384481
-0.1580804 0.056642778 0.44871527 0.11191019 -0.7459923 -0.65648431 0.0048781522
-0.14528444 0.058512479 0.44826132 0.084951214 -0.77281535 -0.62891948 0.005109001
-0.13599229 0.058148935 0.44953984 0.026456568 -0.78264916 -0.62190056 0.072099812
-0.12016583 0.059849933 0.44751382 0.96481448 -0.25182942 -0.075597681 0.22354566
-0.11444817 0.054950964 0.44517544 0.98649865 0.11733092 0.11425367 0.13439445
-0.076865107 0.053279601 0.44542018 0.99787617 -0.0070212102 0.064759046 0.0119468
0.12743057 0.058708929 0.44980985 -0.27570283 -0.022914225 -0.96096975 0.0015221755
0.13609298 0.056151088 0.44743791 -0.28474087 -0.0081708459 -0.95856971 0.00024288254
0.14483635 0.054560941 0.44483328 -0.29864684 -0.002259399 -0.95436102 0.00023584531
0.1550373 0.055062626 0.44133636 -0.3159219 -0.00050411688 -0.94878501 1.6050621e-05
-0.40903261 0.065545045 0.4446964 0.94903922 -0.25555411 -0.1844362 0.031005591
-0.35314339 0.068673462 0.44798303 -0.53938639 -0.69124043 -0.48088351 0.0032739807
-0.3452391 0.063886009 0.44621569 -0.51986676 -0.68696076 -0.50776315 0.0042814356
-0.33601296 0.061573617 0.44056922 -0.48507813 -0.74106383 -0.46424526 0.0045735203
-0.16984573 0.060141526 0.44142845 0.1595313 -0.80734271 -0.56810868 0.0050174925
-0.15288746 0.062870875 0.44152895 0.10128112 -0.82028794 -0.56291199 0.0042689266
-0.14495388 0.062143598 0.44356453 0.060883731 -0.79840118 -0.59903973 0.0042065396
-0.13525796 0.06233196 0.44415855 0.048326928 -0.7832033 -0.61988479 0.08123111
-0.12478355 0.063373066 0.44302228 0.35739964 -0.74060285 -0.56901056 0.22982079
-0.11494587 0.063957177 0.44468471 0.96919036 -0.23905468 -0.059354633 0.1282184
-0.076865122 0.063962497 0.4446936 0.99617165 -0.034924842 0.080139816 0.042919155
0.13702612 0.065885007 0.44718245 -0.29354811 -0.11345068 -0.94918829 0.01705383
0.14615147 0.063937657 0.44438785 -0.30363864 -0.12658237 -0.94434124 0.021790728
0.15397437 0.065266974 0.44170141 -0.31401718 -0.1546396 -0.93673891 0.02413097
-0.40867758 0.073689774 0.44552916 0.88153124 -0.39473334 -0.25901374 0.054713562
-0.36208248 0.074755207 0.44990835 -0.49069473 -0.7258386 -0.48205501 0.0044735121
-0.35610077 0.074325711 0.44361314 -0.52889711 -0.72994268 -0.4329567 0.0027461224
-0.11429376 0.074233465 0.44501495 0.80006146 -0.59567869 -0.071193889 0.09152329
-0.076865122 0.076001383 0.44577295 0.99187344 -0.070188433 0.10611628 0.20404321
0.12770584 0.071114339 0.44973451 -0.27074504 -0.25040781 -0.92951226 0.049018957
0.13480563 0.073158436 0.44779041 -0.25586173 -0.35160628 -0.90050411 0.067582794
0.14379856 0.075946286 0.44519582 -0.28052086 -0.38150579 -0.88077319 0.059139468
0.15496534 0.073069073 0.44136107 -0.30456668 -0.21956387 -0.92683917 0.034936551
-0.40307984 0.084218979 0.44311717 0.59283882 -0.72160959 -0.35752189 0.052830666
-0.39708334 0.0865978 0.44523591 0.4466646 -0.78727537 -0.42507446 0.049195837
-0.38573238 0.088745072 0.44524604 -0.015940785 -0.88131469 -0.47226077 0.022031067
-0.37393704 0.086474821 0.4448019 -0.29891744 -0.84292477 -0.44735461 0.015939446
-0.36619496 0.081725694 0.44507501 -0.45649645 -0.77652079 -0.43431151 0.0045337859
-0.11335879 0.085180804 0.44586757 0.67133862 -0.7406674 -0.026763331 0.070112593
-0.1087681 0.087498836 0.44370356 0.54027987 -0.84124947 0.019926513 0.068531886
-0.095411934 0.087498836 0.44677797 -0.02157207 -0.99938655 -0.027589988 0.051786337
-0.083219722 0.087498844 0.44324151 -0.18808685 -0.98213476 -0.0058920691 0.10263053
-0.076472774 0.083908804 0.44467142 -0.060580976 -0.99815482 0.0041199434 0.13512824
-0.064832352 0.087498836 0.44447833 0.23668136 -0.96934491 0.065973088 0.089458771
-0.055378884 0.087498836 0.44547769 0.12186084 -0.99172843 0.04030595 0.024171615
-0.046532322 0.087498844 0.44428459 0.025319375 -0.99518132 0.094726369 0.01982142
-0.035132043 0.087498836 0.44589454 0.002299089 -0.99901104 0.044402823 0.010283278
-0.025968298 0.087498844 0.44660473 -0.0028751248 -0.99985254 -0.01693172 0.0014408021
-0.01605125 0.087498836 0.44337502 0.027467813 -0.99458224 0.10025781 0.018778088
-0.0055547841 0.087498836 0.44607827 0.00090122665 -0.99998856 -0.004689957 0.001360326
0.0066207801 0.087498836 0.4422543 0.019409692 -0.99619675 0.084942058 0.017721893
0.011582447 0.087498836 0.44509628 -0.010011908 -0.99898642 -0.043883882 0.0076464829
0.025793374 0.087498836 0.4444313 -0.012294228 -0.99579448 -0.090786695 0.011759537
0.03512758 0.087498836 0.44539106 -0.037327852 -0.9946357 -0.096470058 0.013030646
0.044141833 0.087498836 0.44442129 -0.0078279004 -0.99287575 -0.11889744 0.018915337
0.055864353 0.087498836 0.44388431 0.0017495746 -0.98416442 -0.1772494 0.028537957
0.066017032 0.087498836 0.44576487 -0.031324737 -0.9509629 -0.30771467 0.056192029
0.073371179 0.087498844 0.44312271 -0.056405768 -0.96520352 -0.25534394 0.04177757
0.088634551 0.087498836 0.44481435 -0.11893191 -0.91771072 -0.3790279 0.072902359
0.094127558 0.087498836 0.44510564 -0.077064328 -0.93213904 -0.35380504 0.062129192
0.10268865 0.087498836 0.44299543 -0.10398199 -0.92012978 -0.37755659 0.061227862
0.11446092 0.087498829 0.44569445 -0.12863238 -0.86110568 -0.49188477 0.071570709
0.12503254 0.085896246 0.44542068 -0.11979479 -0.79917037 -0.58904672 0.081666455
0.1351282 0.085385256 0.44575831 -0.19012639 -0.62575722 -0.75649184 0.079872422
0.14672077 0.08513204 0.44310725 -0.15386871 -0.79644817 -0.58480316 0.071760967
0.15267159 0.082929797 0.4419449 -0.26470214 -0.46359015 -0.84558678 0.068417534
-0.38680425 0.090773962 0.44061667 0.11415185 -0.91108388 -0.39610031 0.034448951
-0.39173794 -0.083214052 0.45374727 0.20296155 0.82391834 -0.52911729 0.03450381
-0.38620576 -0.083716229 0.45387205 0.02530689 0.8410002 -0.54044265 0.027966099
-0.3763577 -0.081733882 0.45394883 -0.25950873 0.79719102 -0.54510707 0.017031806
-0.11321642 -0.085136928 0.45366016 0.70578676 0.70664155 -0.050228693 0.080385879
-0.10330494 -0.087498836 0.45693555 0.30052915 0.93924016 -0.16586205 0.10599509
-0.097469926 -0.087498844 0.45584345 0.1307199 0.98081744 -0.14460132 0.087801829
-0.085675962 -0.087498844 0.45613292 -0.12695028 0.98117286 -0.14554551 0.10878479
-0.076894037 -0.084586263 0.45320144 0.013833622 0.99263889 -0.12031882 0.15869023
-0.064171128 -0.087498836 0.45781231 0.2368533 0.95346785 -0.1865464 0.11147296
-0.056480858 -0.087498821 0.45455822 0.079493411 0.98949742 -0.12072973 0.031074354
-0.047078393 -0.087498829 0.45753303 0.0085514626 0.9792394 -0.20252678 0.041185807
-0.03428771 -0.087498821 0.4529818 0.0065115672 0.99078828 -0.1352637 0.020980451
-0.024578134 -0.087498836 0.45460033 0.008729035 0.98804301 -0.15393136 0.02783837
-0.015906269 -0.087498844 0.45446941 -0.0041963072 0.98797131 -0.15458058 0.024291925
-0.0061375797 -0.087498844 0.45616382 -0.039338566 0.97225416 -0.23059572 0.03929279
0.0061307764 -0.087498844 0.45344263 -0.016626475 0.98289931 -0.18339145 0.039024666
0.015564002 -0.087498836 0.45390567 -0.086709231 0.96530223 -0.24631928 0.044494644
0.021346208 -0.087498836 0.45333546 -0.058700718 0.97090203 -0.23217127 0.046074811
0.035078458 -0.087498836 0.45684603 -0.056664325 0.9245193 -0.37689939 0.059234247
0.04608776 -0.087498844 0.45391726 -0.076781593 0.91275299 -0.40123117 0.063521497
0.055331767 -0.087498829 0.45432061 -0.081124626 0.89445132 -0.43974477 0.065885007
0.065554351 -0.087498836 0.45460922 -0.032986421 0.87963337 -0.47450706 0.076158203
0.074564405 -0.087498836 0.4538053 -0.095565461 0.87224895 -0.4796342 0.080521457
0.084421068 -0.087498836 0.45445743 -0.088267513 0.77994317 -0.61959463 0.081304304
0.094986953 -0.086668633 0.45719141 -0.077037677 0.70250911 -0.70749289 0.071904995
0.10481706 -0.08698681 0.45397651 -0.16758277 0.6540494 -0.73765534 0.082471304
0.11639887 -0.083255365 0.45283055 -0.16151083 0.55122954 -0.8185721 0.090234496
0.12323742 -0.083116233 0.45095804 -0.2716746 0.50262272 -0.82070899 0.089374855
-0.40372106 -0.076517731 0.45452797 0.61526942 0.65861946 -0.433202 0.058873326
-0.39784136 -0.078402705 0.45714724 0.50604278 0.71002769 -0.48967466 0.044728894
-0.38309857 -0.079386592 0.45933098 -0.0020925824 0.79741168 -0.603432 0.030232364
-0.37524945 -0.078100413 0.45827454 -0.26181188 0.76972026 -0.58222443 0.014999242
-0.36589763 -0.072793297 0.45709419 -0.43229619 0.71139437 -0.55411017 0.0075635845
-0.11429377 -0.075717703 0.45814848 0.78825879 0.51669693 -0.3341741 0.077310622
-0.076865122 -0.074152142 0.45407408 -0.8081035 0.57985204 -0.10363576 0.24427715
0.093960084 -0.075199194 0.45862874 -0.19651701 0.44881597 -0.87174845 0.070446014
0.10490501 -0.076545849 0.45597783 -0.24368417 0.38407877 -0.89056247 0.049911577
0.11380827 -0.075833194 0.45353988 -0.20186049 0.3287634 -0.92258704 0.056268487
0.12329677 -0.072433062 0.4509418 -0.20846801 0.23202789 -0.95010746 0.044216957
-0.40903261 -0.065743402 0.45478624 0.84932584 0.42535946 -0.31259397 0.049650639
-0.36347821 -0.0697219 0.45815778 -0.48467985 0.67489791 -0.55641562 0.0048411926
-0.35544369 -0.065528467 0.454595 -0.52797556 0.64923865 -0.54747695 0.0032024751
-0.11429376 -0.064646855 0.45530987 0.89347214 0.25992188 -0.36626244 0.10343776
-0.076865114 -0.063986361 0.45507452 0.99080378 0.087314524 0.10336319 0.089548722
0.088450603 -0.065630987 0.45976707 -0.20472535 0.12070812 -0.97134811 0.019296722
0.094939373 -0.063989148 0.45842642 -0.21132429 0.12097603 -0.96990043 0.018230215
0.10395017 -0.064104207 0.45623928 -0.24845064 0.12241791 -0.96087772 0.019226398
0.11492921 -0.064428695 0.45323297 -0.24537651 0.17968589 -0.95262969 0.028260166
0.12298577 -0.06556841 0.45102698 -0.24493253 0.18541865 -0.9516449 0.030825984
-0.40903264 -0.055722415 0.45603597 0.95586169 0.19468221 -0.22006199 0.028162343
-0.35072151 -0.057329554 0.45947415 -0.54588741 0.57494837 -0.60945994 0.0037654066
-0.3439329 -0.055207953 0.45563245 -0.52060258 0.59545207 -0.61189032 0.0037803417
-0.33861187 -0.053063713 0.45339054 -0.48345461 0.62675458 -0.6111058 0.0048749894
-0.16335541 -0.052013572 0.45297369 0.14827068 0.68466246 -0.71361971 0.0029447833
-0.15390851 -0.052192152 0.45435998 0.11632741 0.69991446 -0.7046898 0.0038076791
-0.14643504 -0.05407745 0.4534387 0.088459164 0.70826209 -0.70038551 0.0049914722
-0.13361774 -0.053852879 0.45469296 0.012934475 0.69939399 -0.71461934 0.10228627
